0.47729676961898804 -0.1782945990562439 0.6279069185256958
0.48047903180122375 -0.1627907156944275 0.007751941215246916
0.48056942224502563 -0.1627907156944275 0.6279069185256958
0.4820665121078491 -0.14728683233261108 0.007751941680908203
0.48314061760902405 -0.14728683233261108 0.6279069185256958
0.4749157428741455 -0.13178294897079468 -0.007751941680908203
0.4855877161026001 -0.13178294897079468 0.6279069185256958
0.4743089973926544 -0.10077518224716187 -0.06976741552352905
0.47475335001945496 -0.10077518224716187 0.6434108018875122
0.47311365604400635 -0.10077518224716187 0.6589146852493286
0.48184287548065186 -0.08527129888534546 0.6434108018875122
0.48200851678848267 -0.08527129888534546 0.6589146852493286
0.4812604784965515 -0.08527129888534546 0.674418568611145
0.47396522760391235 -0.08527129888534546 0.6899223923683167
0.4855750799179077 -0.06976741552352905 0.6899224519729614
0.4775322675704956 -0.05426359176635742 0.7054263353347778
0.4817197918891907 -0.02325582504272461 0.5658915042877197
0.47842586040496826 -0.02325582504272461 0.5813953876495361
0.47333627939224243 -0.02325582504272461 0.7209302186965942
0.48831382393836975 -0.007751941680908203 0.5968992710113525
0.47564828395843506 -0.007751941680908203 0.7209302186965942
0.48331767320632935 0.007751941680908203 0.038759708404541016
0.4754739999771118 0.00775194214656949 0.5968992710113525
0.47547662258148193 0.007751941680908203 0.7209302186965942
0.47994694113731384 0.02325582504272461 0.5193798542022705
0.48556020855903625 0.02325582504272461 0.612403154373169
0.47295355796813965 0.02325582504272461 0.720930278301239
0.4822290539741516 0.038759708404541016 0.4728682041168213
0.4840056598186493 0.038759708404541016 0.6279069185256958
0.48545119166374207 0.038759708404541016 0.7054263353347778
0.4737981855869293 0.05426359176635742 0.6279069185256958
0.4835398197174072 0.05426359176635742 0.6434108018875122
0.4768678545951843 0.05426359176635742 0.7054263353347778
0.48175501823425293 0.06976747512817383 -0.10077518224716187
0.48163527250289917 0.06976747512817383 0.19379842281341553
0.4745520353317261 0.06976747512817383 0.6434108018875122
0.48476457595825195 0.06976747512817383 0.6589146852493286
0.48823192715644836 0.06976747512817383 0.674418568611145
0.48132139444351196 0.06976747512817383 0.6899224519729614
0.4778769016265869 0.08527135848999023 0.6589146852493286
0.4802004098892212 0.08527135848999023 0.674418568611145
0.47623583674430847 0.08527135848999023 0.6899224519729614
0.4779432415962219 0.10077524185180664 -0.08527129888534546
0.4757738709449768 0.10077524185180664 0.6589146852493286
0.47715118527412415 0.10077524930238724 0.674418568611145
0.47410663962364197 0.10077524185180664 0.6899224519729614
0.4753546118736267 0.11627912521362305 0.038759708404541016
0.4749906063079834 0.11627912521362305 0.6589146852493286
0.4756315350532532 0.11627912521362305 0.674418568611145
0.4729313552379608 0.11627912521362305 0.6899224519729614
0.47678256034851074 0.1317828893661499 0.038759708404541016
0.47491347789764404 0.1317828893661499 0.6589147448539734
0.47502148151397705 0.1317828893661499 0.674418568611145
0.47834455966949463 0.1472867727279663 -0.06976741552352905
0.4744565784931183 0.1472867727279663 0.038759708404541016
0.4748992919921875 0.1472867727279663 0.6589146852493286
0.4745941460132599 0.1472867727279663 0.674418568611145
0.4824417233467102 0.16279065608978271 -0.05426359176635742
0.47676748037338257 0.16279065608978271 0.20930230617523193
0.47405070066452026 0.16279065608978271 0.6589146852493286
0.47378939390182495 0.16279065608978271 0.674418568611145
0.4853900969028473 0.17829453945159912 0.20930230617523193
0.4792701005935669 0.17829453945159912 0.22480618953704834
0.4855235517024994 0.19379842281341553 0.25581395626068115
0.4817204177379608 0.19379842281341553 0.27131783962249756
0.47516825795173645 0.19379842281341553 0.28682172298431396
0.47336840629577637 0.19379842281341553 0.42635655403137207
0.48342108726501465 0.20930230617523193 0.41085267066955566
0.4831496775150299 0.25581395626068115 0.39534878730773926
0.47718650102615356 0.27131783962249756 0.39534875750541687
0.49083518981933594 -0.5658915042877197 0.37984490394592285
0.4918246865272522 -0.5658915042877197 0.39534875750541687
0.49368366599082947 -0.5503876209259033 0.37984490394592285
0.49774983525276184 -0.5503876209259033 0.39534878730773926
0.4954593777656555 -0.5348837375640869 0.37984490394592285
0.4997817277908325 -0.5348837375640869 0.39534878730773926
0.49742650985717773 -0.5193798542022705 0.37984490394592285
0.49488401412963867 -0.5193798542022705 0.39534878730773926
0.5034654140472412 -0.5038759708404541 0.37984490394592285
0.491642564535141 -0.5038759708404541 0.39534881711006165
0.4913039207458496 -0.4883720874786377 0.39534878730773926
0.49354714155197144 -0.4728682041168213 0.39534878730773926
0.49924877285957336 -0.4573643207550049 0.39534878730773926
0.4949605464935303 -0.41085273027420044 0.5658915042877197
0.49253249168395996 -0.39534884691238403 0.41085267066955566
0.49474936723709106 -0.39534884691238403 0.42635655403137207
0.5014995336532593 -0.3643410801887512 0.37984490394592285
0.49378979206085205 -0.3643410801887512 0.612403154373169
0.49438267946243286 -0.3488371968269348 0.37984490394592285
0.49934065341949463 -0.3488371968269348 0.612403154373169
0.5035938024520874 -0.3333333134651184 0.612403154373169
0.5014665126800537 -0.28682172298431396 0.06976747512817383
0.5017626881599426 -0.28682172298431396 0.08527135848999023
0.5003852844238281 -0.28682172298431396 0.364341139793396
0.49057406187057495 -0.27131783962249756 0.11627912521362305
0.5001052618026733 -0.25581395626068115 0.3488372564315796
0.5028916001319885 -0.24031007289886475 0.3333333730697632
0.4945160448551178 -0.22480618953704834 0.17829453945159912
0.4978705644607544 -0.22480618953704834 0.3178294897079468
0.48967260122299194 -0.20930229127407074 0.22480618953704834
0.4967857301235199 -0.20930230617523193 0.24031007289886475
0.49663591384887695 -0.20930230617523193 0.25581395626068115
0.4936891198158264 -0.20930230617523193 0.27131783962249756
0.49065178632736206 -0.20930230617523193 0.28682172298431396
0.49836573004722595 -0.20930230617523193 0.612403154373169
0.48909762501716614 -0.19379843771457672 -0.007751941680908203
0.5026073455810547 -0.19379842281341553 0.007751941680908203
0.49972546100616455 -0.19379842281341553 0.612403154373169
0.48972052335739136 -0.1782945990562439 0.007751941680908203
0.4948127269744873 -0.13178294897079468 0.007751941680908203
0.49921324849128723 -0.11627906560897827 -0.007751941680908203
0.4895624816417694 -0.11627906560897827 0.6279069185256958
0.4972626566886902 -0.10077518224716187 -0.02325582504272461
0.493699848651886 -0.10077518224716187 0.6279069185256958
0.49196410179138184 -0.08527129888534546 -0.05426359176635742
0.4901660084724426 -0.08527129888534546 -0.038759708404541016
0.4985157251358032 -0.08527129888534546 0.6279069185256958
0.5023175477981567 -0.06976741552352905 0.6279069185256958
0.4919469654560089 -0.06976741552352905 0.6434108018875122
0.4951396882534027 -0.06976741552352905 0.6589146852493286
0.4945462942123413 -0.06976741552352905 0.674418568611145
0.49704208970069885 -0.05426359176635742 0.6899224519729614
0.5008206367492676 -0.038759708404541016 0.5813953876495361
0.48870769143104553 -0.038759708404541016 0.7054263949394226
0.496797651052475 -0.02325582504272461 0.5968992710113525
0.49417853355407715 -0.02325582504272461 0.7054263353347778
0.4888177216053009 -0.007751941215246916 0.5503876209259033
0.49807441234588623 -0.007751941680908203 0.7054263353347778
0.4966038465499878 0.007751941680908203 0.5348837375640869
0.5004372596740723 0.007751941680908203 0.612403154373169
0.4968183636665344 0.007751941680908203 0.7054263353347778
0.4935203790664673 0.02325582504272461 0.5038759708404541
0.4970632791519165 0.02325582504272461 0.6279069185256958
0.4920547604560852 0.02325582504272461 0.7054263353347778
0.4943265914916992 0.038759708404541016 0.02325582504272461
0.4949570298194885 0.038759708404541016 0.6434108018875122
0.4984763562679291 0.038759708404541016 0.6899224519729614
0.4924583435058594 0.05426359549164772 0.02325582504272461
0.49134206771850586 0.05426359176635742 0.17829453945159912
0.49421900510787964 0.05426359176635742 0.4573642909526825
0.4933532476425171 0.05426359176635742 0.6589146852493286
0.4943544268608093 0.05426359176635742 0.674418568611145
0.49032503366470337 0.05426359176635742 0.6899224519729614
0.49431127309799194 0.06976747512817383 0.02325582504272461
0.499830961227417 0.08527135848999023 0.02325582504272461
0.49971064925193787 0.11627912521362305 0.19379842281341553
0.4999653398990631 0.1317828893661499 -0.06976741552352905
0.49444329738616943 0.1317828893661499 0.19379842281341553
0.49141478538513184 0.1472867727279663 0.19379843771457672
0.4963812828063965 0.16279065608978271 0.02325582504272461
0.4923057556152344 0.16279065608978271 0.19379842281341553
0.49336183071136475 0.16279065608978271 0.4418604373931885
0.49871647357940674 0.17829453945159912 0.19379842281341553
0.5013493895530701 0.19379842281341553 0.20930230617523193
0.4964416027069092 0.19379842281341553 0.22480618953704834
0.4904945492744446 0.19379842281341553 0.24031008780002594
0.5024412274360657 0.20930230617523193 0.28682172298431396
0.4923478364944458 0.20930232107639313 0.30232560634613037
0.503007173538208 0.22480618953704834 0.3178294897079468
0.4979052245616913 0.24031007289886475 0.3333333730697632
0.4913825988769531 0.24031007289886475 0.39534878730773926
0.5036733150482178 0.28682172298431396 0.364341139793396
0.5007526874542236 0.28682172298431396 0.37984490394592285
0.5056710839271545 -0.5038759708404541 0.37984490394592285
0.5081908702850342 -0.4573643207550049 0.37984490394592285
0.5148423910140991 -0.4418604373931885 0.37984490394592285
0.5042363405227661 -0.4418604373931885 0.39534881711006165
0.5175578594207764 -0.42635661363601685 0.37984490394592285
0.5116376280784607 -0.42635661363601685 0.5193798542022705
0.5191574692726135 -0.41085273027420044 0.37984490394592285
0.5083839893341064 -0.41085273027420044 0.4418604373931885
0.5090651512145996 -0.41085273027420044 0.5503876209259033
0.5177173614501953 -0.39534884691238403 0.37984490394592285
0.5050042867660522 -0.39534884691238403 0.42635655403137207
0.5058942437171936 -0.39534884691238403 0.5813953876495361
0.5105476379394531 -0.3798449635505676 0.37984490394592285
0.5181939601898193 -0.3798449635505676 0.5813953876495361
0.5040960311889648 -0.3798449635505676 0.5968992710113525
0.5100564360618591 -0.3643410801887512 0.5968992710113525
0.5190072059631348 -0.3488371968269348 0.364341139793396
0.5133392214775085 -0.3488371968269348 0.5968992710113525
0.516010046005249 -0.3333333134651184 0.364341139793396
0.5152496099472046 -0.3333333134651184 0.5968992710113525
0.5129532814025879 -0.317829430103302 0.364341139793396
0.5165425539016724 -0.317829430103302 0.5968992710113525
0.5044940710067749 -0.317829430103302 0.612403154373169
0.5087507367134094 -0.30232560634613037 0.364341139793396
0.5186070203781128 -0.30232560634613037 0.5968992710113525
0.5050413608551025 -0.30232560634613037 0.612403154373169
0.5047714114189148 -0.28682172298431396 -0.007751941680908203
0.5146603584289551 -0.28682172298431396 0.02325582504272461
0.510193943977356 -0.28682172298431396 0.08527135848999023
0.5187720060348511 -0.28682172298431396 0.3488372564315796
0.5061500072479248 -0.28682172298431396 0.612403154373169
0.5119238495826721 -0.27131783962249756 0.3488372564315796
0.5073398947715759 -0.27131783962249756 0.612403154373169
0.5059743523597717 -0.25581395626068115 -0.02325582690536976
0.508019745349884 -0.25581395626068115 0.1472867727279663
0.5160015821456909 -0.25581395626068115 0.3333333730697632
0.5089283585548401 -0.25581395626068115 0.612403154373169
0.5096291303634644 -0.24031007289886475 -0.02325582504272461
0.5059085488319397 -0.24031007289886475 0.16279065608978271
0.5157821178436279 -0.24031007289886475 0.3178294897079468
0.508151113986969 -0.24031007289886475 0.612403154373169
0.5042629241943359 -0.22480618953704834 -0.02325582504272461
0.5165510177612305 -0.22480618953704834 -0.007751941680908203
0.5048317909240723 -0.22480618953704834 0.19379842281341553
0.5121464133262634 -0.22480618953704834 0.20930230617523193
0.5173097848892212 -0.22480618953704834 0.22480618953704834
0.5187868475914001 -0.22480618953704834 0.24031007289886475
0.5168503522872925 -0.22480618953704834 0.25581395626068115
0.5142549872398376 -0.22480618953704834 0.27131783962249756
0.513056755065918 -0.22480618953704834 0.28682172298431396
0.508770763874054 -0.22480618953704834 0.30232560634613037
0.5045966506004333 -0.22480618953704834 0.612403154373169
0.5052847266197205 -0.20930230617523193 -0.00775194214656949
0.5127201676368713 -0.20930230617523193 0.007751941680908203
0.5188683867454529 -0.19379842281341553 0.02325582504272461
0.5133576393127441 -0.1782945990562439 0.02325582504272461
0.5057017803192139 -0.1782945990562439 0.612403154373169
0.5118826627731323 -0.1627907156944275 0.02325582504272461
0.5101839900016785 -0.1627907156944275 0.612403154373169
0.5159341096878052 -0.14728683233261108 0.02325582504272461
0.5135782957077026 -0.14728683233261108 0.612403154373169
0.5168498754501343 -0.13178294897079468 0.612403154373169
0.5123935341835022 -0.11627906560897827 0.007751941680908203
0.5193093419075012 -0.08527129888534546 -0.02325582504272461
0.5159176588058472 -0.06976741552352905 -0.038759708404541016
0.5064336061477661 -0.05426359176635742 0.6279069185256958
0.5046476125717163 -0.05426359176635742 0.6434108018875122
0.5077266097068787 -0.05426359176635742 0.6589146852493286
0.506692111492157 -0.05426359176635742 0.674418568611145
0.5125448107719421 -0.038759708404541016 -0.10077518224716187
0.5103808641433716 -0.038759708404541016 0.5968992710113525
0.51835036277771 -0.038759708404541016 0.612403154373169
0.511306643486023 -0.038759708404541016 0.6279069185256958
0.5122766494750977 -0.038759708404541016 0.6434108018875122
0.5172399282455444 -0.038759708404541016 0.6589146852493286
0.5135836005210876 -0.038759708404541016 0.674418568611145
0.5063837766647339 -0.038759712129831314 0.6899224519729614
0.5178713798522949 -0.02325582504272461 0.612403154373169
0.5157501697540283 -0.02325582504272461 0.6279069185256958
0.5100036859512329 -0.02325582504272461 0.6899224519729614
0.5127044320106506 -0.007751941680908203 0.612403154373169
0.5152961015701294 -0.007751941680908203 0.6279069185256958
0.511911153793335 -0.007751941680908203 0.6899224519729614
0.5155858993530273 0.007751941680908203 0.038759708404541016
0.5168831944465637 0.007751941680908203 0.06976747512817383
0.5075761675834656 0.007751941680908203 0.08527135848999023
0.5048463344573975 0.007751941680908203 0.10077524185180664
0.5137535929679871 0.007751941680908203 0.5193798542022705
0.5079626441001892 0.007751941680908203 0.6279069185256958
0.516031801700592 0.007751941680908203 0.6434108018875122
0.5176177620887756 0.007751941680908203 0.674418568611145
0.5101643800735474 0.007751941680908203 0.6899224519729614
0.509394645690918 0.02325582504272461 0.4883720874786377
0.5072002410888672 0.02325582504272461 0.6434108018875122
0.5125764608383179 0.02325582504272461 0.6589146852493286
0.510749876499176 0.02325582504272461 0.674418568611145
0.5061511993408203 0.02325582504272461 0.6899225115776062
0.5186069011688232 0.038759708404541016 0.4573643207550049
0.5051007866859436 0.038759708404541016 0.6589146852493286
0.5048301219940186 0.038759708404541016 0.674418568611145
0.5147085785865784 0.06976747512817383 0.4418604373931885
0.51554936170578 0.08527135848999023 0.19379842281341553
0.5077081918716431 0.08527135848999023 0.44186046719551086
0.5100876688957214 0.10077524185180664 0.19379842281341553
0.5070615410804749 0.10077524185180664 0.4418604373931885
0.5087733864784241 0.11627912521362305 0.4418604373931885
0.5098912715911865 0.1317828893661499 0.4418604373931885
0.5078022480010986 0.1472867727279663 0.4418604373931885
0.5142133235931396 0.16279065608978271 -0.007751941680908203
0.5084550976753235 0.16279065608978271 0.007751941215246916
0.5105565786361694 0.17829453945159912 0.42635655403137207
0.5123080015182495 0.19379842281341553 0.19379842281341553
0.5166699886322021 0.19379842281341553 0.41085267066955566
0.5191548466682434 0.20930230617523193 0.22480618953704834
0.5174025893211365 0.20930230617523193 0.24031007289886475
0.514061689376831 0.20930230617523193 0.25581395626068115
0.5092462301254272 0.20930230617523193 0.27131783962249756
0.5081284642219543 0.22480618953704834 0.39534878730773926
0.5126689672470093 0.27131783962249756 0.3488372564315796
0.5229984521865845 -0.5038759708404541 0.37984490394592285
0.5262723565101624 -0.4883720874786377 0.37984490394592285
0.525291383266449 -0.42635661363601685 0.4728682041168213
0.5287209153175354 -0.42635661363601685 0.5038759708404541
0.5231760144233704 -0.41085273027420044 0.5348837375640869
0.5305004715919495 -0.39534884691238403 0.4418604373931885
0.5344060063362122 -0.39534884691238403 0.5503876209259033
0.5209665298461914 -0.39534884691238403 0.5658915042877197
0.5308904051780701 -0.3798449635505676 0.364341139793396
0.5241371393203735 -0.3798449635505676 0.41085267066955566
0.5225036144256592 -0.3798449635505676 0.42635655403137207
0.5337647199630737 -0.3798449635505676 0.5658915042877197
0.5242884159088135 -0.3643410801887512 0.364341139793396
0.5273973941802979 -0.3643410801887512 0.42635655403137207
0.5240514278411865 -0.3643410801887512 0.5813953876495361
0.5322280526161194 -0.3488371968269348 0.3488372564315796
0.5287784934043884 -0.3488371968269348 0.42635655403137207
0.5274802446365356 -0.3488371968269348 0.5813953876495361
0.5300872325897217 -0.3333333134651184 0.3488372564315796
0.5295305252075195 -0.3333333134651184 0.42635655403137207
0.5330720543861389 -0.3333333134651184 0.4418604373931885
0.5294268131256104 -0.3333333134651184 0.5813953876495361
0.5280222296714783 -0.317829430103302 0.3488372564315796
0.5333251953125 -0.317829430103302 0.42635655403137207
0.5301715135574341 -0.317829430103302 0.4418604373931885
0.5308808088302612 -0.317829430103302 0.5813953876495361
0.5250208377838135 -0.30232560634613037 0.3488372564315796
0.5322463512420654 -0.30232560634613037 0.4418604373931885
0.53310626745224 -0.30232560634613037 0.5813953876495361
0.5197827219963074 -0.28682172298431396 0.007751941680908203
0.5200783014297485 -0.28682175278663635 0.06976748257875443
0.5313130021095276 -0.28682172298431396 0.3333333730697632
0.5206764936447144 -0.2868216931819916 0.5968992710113525
0.5220584869384766 -0.27131783962249756 -0.007751941680908203
0.5272005200386047 -0.27131783962249756 0.007751941680908203
0.5278685092926025 -0.27131783962249756 0.02325582504272461
0.5237756371498108 -0.27131783962249756 0.038759708404541016
0.5264427661895752 -0.27131783962249756 0.11627912521362305
0.5334349274635315 -0.27131783962249756 0.3178294897079468
0.5247153043746948 -0.27131783962249756 0.3333333730697632
0.5229052305221558 -0.27131783962249756 0.5968992710113525
0.5244051218032837 -0.25581395626068115 -0.007751941680908203
0.5306515693664551 -0.25581395626068115 0.007751941680908203
0.534778892993927 -0.25581395626068115 0.02325582504272461
0.5300033092498779 -0.25581395626068115 0.16279065608978271
0.5329738259315491 -0.25581395626068115 0.30232560634613037
0.5266010165214539 -0.25581395626068115 0.3178294897079468
0.5270857810974121 -0.25581395626068115 0.5968992710113525
0.5221894979476929 -0.24031007289886475 -0.00775194214656949
0.5258179903030396 -0.24031007289886475 0.007751941680908203
0.5310121774673462 -0.24031007289886475 0.02325582504272461
0.5212413668632507 -0.24031007289886475 0.17829453945159912
0.5290616750717163 -0.24031007289886475 0.19379842281341553
0.532956600189209 -0.24031007289886475 0.20930230617523193
0.5332045555114746 -0.24031007289886475 0.25581395626068115
0.5296112298965454 -0.24031007289886475 0.27131783962249756
0.5273787975311279 -0.24031007289886475 0.28682172298431396
0.5229318737983704 -0.24031007289886475 0.30232560634613037
0.5315460562705994 -0.24031007289886475 0.5968992710113525
0.5215537548065186 -0.22480618953704834 0.007751941680908203
0.5256540775299072 -0.22480620443820953 0.02325582504272461
0.5218305587768555 -0.20930230617523193 0.02325582504272461
0.5331794619560242 -0.20930230617523193 0.08527135848999023
0.5224665403366089 -0.13178294897079468 0.02325582504272461
0.5331822633743286 -0.11627906560897827 0.02325582504272461
0.5200048685073853 -0.11627905815839767 0.612403154373169
0.5195909738540649 -0.10077517479658127 -0.007751941680908203
0.5263074636459351 -0.10077518224716187 0.007751941680908203
0.5218932032585144 -0.10077518224716187 0.612403154373169
0.5316393375396729 -0.08527129888534546 -0.06976741552352905
0.5343311429023743 -0.08527129888534546 -0.007751941680908203
0.5228202939033508 -0.08527129888534546 0.612403154373169
0.5266167521476746 -0.06976741552352905 -0.05426359176635742
0.5330319404602051 -0.06976741552352905 -0.02325582504272461
0.5211999416351318 -0.06976741552352905 0.612403154373169
0.5299960374832153 -0.05426359176635742 0.5968992710113525
0.5194217562675476 -0.05426359549164772 0.612403154373169
0.5263243913650513 -0.02325582504272461 0.5503876209259033
0.5197381377220154 -0.02325582504272461 0.6434108018875122
0.5212430357933044 -0.02325582504272461 0.6589146852493286
0.5194318294525146 -0.02325582504272461 0.674418568611145
0.5312632918357849 -0.007751941680908203 0.5193798542022705
0.5204938054084778 -0.007751941680908203 0.5348837375640869
0.5204301476478577 -0.007751941680908203 0.6434108018875122
0.5219058990478516 -0.007751941680908203 0.6589146852493286
0.5199811458587646 -0.007751941680908203 0.6744186282157898
0.5345848202705383 0.007751941680908203 0.05426359176635742
0.5257436037063599 0.007751941680908203 0.06976747512817383
0.5329636931419373 0.007751941680908203 0.4883720874786377
0.5220800638198853 0.007751941680908203 0.5038759708404541
0.5201590061187744 0.00775194214656949 0.6589146852493286
0.5258232951164246 0.02325582504272461 0.02325582504272461
0.5227274298667908 0.02325582504272461 0.4728682041168213
0.5236809253692627 0.05426359549164772 0.44186046719551086
0.5214139223098755 0.08527135848999023 -0.08527129888534546
0.5303926467895508 0.08527135848999023 0.42635655403137207
0.5206373333930969 0.10077524185180664 0.02325582504272461
0.5308080911636353 0.10077524185180664 0.42635655403137207
0.5251339673995972 0.11627912521362305 -0.06976741552352905
0.5282263159751892 0.11627912521362305 0.02325582504272461
0.5335726737976074 0.11627912521362305 0.42635655403137207
0.5293051600456238 0.1317828893661499 0.02325582504272461
0.5341433882713318 0.1472867727279663 0.007751941680908203
0.5239270925521851 0.1472867727279663 0.02325582504272461
0.5295540690422058 0.1472867727279663 0.17829453945159912
0.5220814347267151 0.16279065608978271 -0.038759708404541016
0.5213419198989868 0.16279064118862152 -0.02325582504272461
0.5210444927215576 0.16279065608978271 0.17829453945159912
0.5280154943466187 0.16279065608978271 0.42635655403137207
0.5237137079238892 0.17829453945159912 0.17829453945159912
0.5345755219459534 0.20930230617523193 0.19379842281341553
0.5242777466773987 0.20930230617523193 0.20930230617523193
0.5291486978530884 0.20930230617523193 0.39534878730773926
0.5335372686386108 0.22480618953704834 0.28682172298431396
0.5237985849380493 0.22480618953704834 0.30232560634613037
0.534701943397522 0.25581395626068115 0.3333333730697632
0.53131502866745 0.27131783962249756 0.37984490394592285
0.5440554618835449 -0.5038759708404541 0.364341139793396
0.5391401052474976 -0.4883720874786377 0.364341139793396
0.5362921357154846 -0.4728682041168213 0.364341139793396
0.5396014451980591 -0.4728682041168213 0.37984487414360046
0.5499613285064697 -0.4573643207550049 0.3488372564315796
0.5358654856681824 -0.4573643207550049 0.364341139793396
0.549729585647583 -0.4418604373931885 0.3488372564315796
0.5375158190727234 -0.4418604373931885 0.364341139793396
0.5492894053459167 -0.42635661363601685 0.3488372564315796
0.5381055474281311 -0.42635661363601685 0.364341139793396
0.5394321084022522 -0.42635661363601685 0.39534878730773926
0.5359774231910706 -0.42635658383369446 0.4883720576763153
0.5486142635345459 -0.41085273027420044 0.3488372564315796
0.5379559397697449 -0.41085273027420044 0.364341139793396
0.5353024005889893 -0.41085273027420044 0.4573643207550049
0.549065351486206 -0.41085273027420044 0.4728682041168213
0.5501025319099426 -0.41085273027420044 0.5038759708404541
0.5374530553817749 -0.4108527600765228 0.5193798542022705
0.547216534614563 -0.39534884691238403 0.3488372564315796
0.5355808734893799 -0.39534884691238403 0.364341139793396
0.5468626618385315 -0.39534884691238403 0.4573643207550049
0.5422695875167847 -0.39534884691238403 0.5348837375640869
0.5498661994934082 -0.3798449635505676 0.3333333730697632
0.5427290201187134 -0.3798449635505676 0.3488372564315796
0.5372043251991272 -0.3798449635505676 0.4418604373931885
0.5493855476379395 -0.3798449635505676 0.5503876209259033
0.5462508797645569 -0.3643410801887512 0.3333333730697632
0.5351635813713074 -0.3643410801887512 0.3488372564315796
0.5381078720092773 -0.3643410801887512 0.41085267066955566
0.5378574132919312 -0.3643410801887512 0.4418604373931885
0.5406540036201477 -0.3643410801887512 0.5658915042877197
0.5435219407081604 -0.3488371968269348 0.3333333730697632
0.5461446642875671 -0.3488371968269348 0.41085267066955566
0.5361397862434387 -0.3488371968269348 0.4418604373931885
0.5462853312492371 -0.3488371968269348 0.5658915042877197
0.5503652691841125 -0.3333333134651184 0.3178294897079468
0.5414053201675415 -0.3333333134651184 0.3333333730697632
0.5437897443771362 -0.3333333134651184 0.4573643207550049
0.5497170686721802 -0.3333333134651184 0.5658915042877197
0.548721969127655 -0.317829430103302 0.3178294897079468
0.5390838980674744 -0.317829430103302 0.3333333730697632
0.5403463244438171 -0.317829430103302 0.4573643207550049
0.5464051365852356 -0.30232560634613037 0.3178294897079468
0.5351024270057678 -0.30232560634613037 0.3333333730697632
0.5377506017684937 -0.30232560634613037 0.42635655403137207
0.539916455745697 -0.30232560634613037 0.4573643207550049
0.5485989451408386 -0.28682172298431396 0.30232560634613037
0.5415021181106567 -0.28682172298431396 0.3178294897079468
0.5462608933448792 -0.28682172298431396 0.42635655403137207
0.5370283126831055 -0.28682172298431396 0.44186046719551086
0.5431718230247498 -0.28682172298431396 0.4573643207550049
0.5361450910568237 -0.28682172298431396 0.5813953876495361
0.5365354418754578 -0.27131783962249756 0.05426359176635742
0.5412598848342896 -0.27131783962249756 0.06976747512817383
0.540646493434906 -0.27131783962249756 0.08527135848999023
0.5363644957542419 -0.27131783962249756 0.10077524185180664
0.5478042364120483 -0.27131783962249756 0.28682172298431396
0.5424155592918396 -0.27131783962249756 0.30232560634613037
0.544722318649292 -0.27131783962249756 0.4418604373931885
0.539740800857544 -0.27131783962249756 0.5813953876495361
0.5358800888061523 -0.25581395626068115 0.038759708404541016
0.5434006452560425 -0.25581395626068115 0.17829453945159912
0.5471998453140259 -0.25581395626068115 0.19379842281341553
0.5488641262054443 -0.25581395626068115 0.20930230617523193
0.549866259098053 -0.25581395626068115 0.22480618953704834
0.5496518015861511 -0.25581395626068115 0.24031007289886475
0.5471969842910767 -0.25581395626068115 0.25581395626068115
0.5428441166877747 -0.25581395626068115 0.27131783962249756
0.53851318359375 -0.25581395626068115 0.28682172298431396
0.5476481318473816 -0.25581395626068115 0.5813953876495361
0.5373077988624573 -0.24031007289886475 0.038759708404541016
0.5358991622924805 -0.24031008780002594 0.22480618953704834
0.5365593433380127 -0.24031007289886475 0.24031007289886475
0.5376409888267517 -0.22480618953704834 0.038759708404541016
0.5350546836853027 -0.22480618953704834 0.5968993306159973
0.5374006628990173 -0.20930230617523193 0.038759708404541016
0.5351522564888 -0.20930230617523193 0.08527135848999023
0.5357646346092224 -0.20930230617523193 0.5968992710113525
0.5372725129127502 -0.19379840791225433 0.038759708404541016
0.5371582508087158 -0.19379842281341553 0.5968992114067078
0.5378120541572571 -0.1782945990562439 0.038759708404541016
0.5394248962402344 -0.1782945990562439 0.5968992710113525
0.5389935970306396 -0.1627907156944275 0.038759708404541016
0.5409603118896484 -0.1627907156944275 0.5968992710113525
0.5416234731674194 -0.14728683233261108 0.038759708404541016
0.5411605834960938 -0.14728683233261108 0.5968992710113525
0.548583447933197 -0.13178294897079468 0.038759708404541016
0.5411202311515808 -0.13178294897079468 0.5968992710113525
0.5409886837005615 -0.11627906560897827 0.5968992710113525
0.5396026968955994 -0.10077518224716187 0.02325582504272461
0.5415359735488892 -0.10077518224716187 0.5968992710113525
0.5384451746940613 -0.08527129888534546 0.007751941680908203
0.5412833094596863 -0.08527129888534546 0.5968992710113525
0.5421889424324036 -0.06976741552352905 -0.007751941680908203
0.5388533473014832 -0.06976741552352905 0.5968992710113525
0.536141037940979 -0.05426359176635742 -0.038759708404541016
0.5407352447509766 -0.05426359176635742 -0.02325582504272461
0.544085681438446 -0.007751941680908203 0.4883720874786377
0.5370437502861023 -0.007751941215246916 0.5038759708404541
0.535133957862854 0.007751941680908203 0.05426359176635742
0.5364167094230652 0.007751941680908203 0.08527135848999023
0.5380566716194153 0.007751941680908203 0.10077524185180664
0.5421361923217773 0.007751941215246916 0.11627912521362305
0.5495970845222473 0.007751941680908203 0.4573643207550049
0.5392382740974426 0.007751941680908203 0.4728682339191437
0.5420028567314148 0.02325582504272461 0.1472867727279663
0.5492387413978577 0.02325582504272461 0.4418604373931885
0.5355026125907898 0.02325582504272461 0.4573643207550049
0.5370636582374573 0.038759708404541016 0.16279065608978271
0.5359770655632019 0.038759708404541016 0.4418604373931885
0.5465259552001953 0.05426359176635742 -0.10077518224716187
0.5352504253387451 0.05426359176635742 0.17829455435276031
0.5400254130363464 0.05426359176635742 0.42635655403137207
0.5440597534179688 0.06976747512817383 0.19379842281341553
0.5350825190544128 0.06976747512817383 0.42635655403137207
0.5392051935195923 0.08527135848999023 0.19379842281341553
0.548082709312439 0.08527135848999023 0.41085267066955566
0.5463076829910278 0.10077524185180664 -0.06976741552352905
0.544094443321228 0.1317828893661499 0.007751941680908203
0.5352612137794495 0.1317828893661499 0.42635655403137207
0.5379256010055542 0.1472867727279663 -0.05426359176635742
0.5430314540863037 0.1472867727279663 -0.007751941680908203
0.5350471138954163 0.1472867727279663 0.42635655403137207
0.5369031429290771 0.17829455435276031 0.41085267066955566
0.5480703115463257 0.19379842281341553 0.39534878730773926
0.549307107925415 0.22480618953704834 0.22480618953704834
0.5478222370147705 0.22480618953704834 0.24031007289886475
0.5447100400924683 0.22480618953704834 0.25581395626068115
0.5398054122924805 0.22480618953704834 0.27131783962249756
0.5416332483291626 0.24031007289886475 0.3178294897079468
0.5456792712211609 0.24031007289886475 0.37984490394592285
0.5386053919792175 0.25581395626068115 0.37984490394592285
0.5439444780349731 0.28682172298431396 0.364341139793396
0.5572353601455688 -0.5193798542022705 0.364341139793396
0.5646319389343262 -0.5038759708404541 0.3488372564315796
0.5568236112594604 -0.4883720874786377 0.3488372564315796
0.5513322949409485 -0.4728682041168213 0.3488372564315796
0.5636399388313293 -0.4573643207550049 0.3333333730697632
0.563157856464386 -0.4573643207550049 0.37984490394592285
0.561941921710968 -0.4418604373931885 0.3333333730697632
0.5658589005470276 -0.42635661363601685 0.22480618953704834
0.5653131604194641 -0.42635661363601685 0.3178294897079468
0.5599312782287598 -0.42635661363601685 0.3333333730697632
0.5645274519920349 -0.41085273027420044 0.22480618953704834
0.5638867020606995 -0.41085273027420044 0.3178294897079468
0.5577477216720581 -0.41085273027420044 0.3333333730697632
0.5536143779754639 -0.41085273027420044 0.4883720874786377
0.5629091262817383 -0.39534884691238403 0.3178294897079468
0.5552214980125427 -0.39534884691238403 0.3333333730697632
0.5614213943481445 -0.39534884691238403 0.4728682041168213
0.5633164644241333 -0.39534884691238403 0.5038759708404541
0.5531816482543945 -0.39534884691238403 0.5193798542022705
0.5608388781547546 -0.3798449635505676 0.3178294897079468
0.5529192090034485 -0.3798449635505676 0.4573643207550049
0.5571948885917664 -0.3798449635505676 0.5348837375640869
0.5570231676101685 -0.3643410801887512 0.3178294897079468
0.5528656244277954 -0.3643410801887512 0.4573643207550049
0.559272289276123 -0.3643410801887512 0.5503876209259033
0.5649136304855347 -0.3488371968269348 0.30232560634613037
0.5536885261535645 -0.3488371968269348 0.3178294897079468
0.5506328344345093 -0.3488371968269348 0.4573643207550049
0.5637612342834473 -0.3488371968269348 0.4728682041168213
0.5630025863647461 -0.3333333134651184 0.30232560634613037
0.5515775680541992 -0.3333333134651184 0.41085267066955566
0.5559789538383484 -0.3333333134651184 0.4728682041168213
0.5601614713668823 -0.317829430103302 0.30232560634613037
0.5551052093505859 -0.317829430103302 0.41085270047187805
0.5529696345329285 -0.317829430103302 0.4728682041168213
0.563694953918457 -0.317829430103302 0.4883720874786377
0.5514453649520874 -0.317829430103302 0.5658915042877197
0.5636727213859558 -0.30232560634613037 0.28682172298431396
0.5556440949440002 -0.30232560634613037 0.30232560634613037
0.5617731809616089 -0.30232560634613037 0.41085267066955566
0.5523359775543213 -0.30232560634613037 0.4728682041168213
0.5621694922447205 -0.30232560634613037 0.4883720874786377
0.5537587404251099 -0.30232560634613037 0.5658915042877197
0.5626275539398193 -0.28682172298431396 0.27131783962249756
0.5570513010025024 -0.28682172298431396 0.28682172298431396
0.5541200041770935 -0.28682172298431396 0.4728682041168213
0.5589680671691895 -0.28682172298431396 0.5658915042877197
0.5632069706916809 -0.27131783962249756 0.19379842281341553
0.5630779266357422 -0.27131783962249756 0.20930230617523193
0.5632327198982239 -0.27131783962249756 0.22480618953704834
0.5623760223388672 -0.27131783962249756 0.24031007289886475
0.5590078830718994 -0.27131783962249756 0.25581395626068115
0.5520340204238892 -0.27131783962249756 0.27131783962249756
0.5559474229812622 -0.27131783962249756 0.42635655403137207
0.5506576299667358 -0.27131780982017517 0.4573643207550049
0.5608112812042236 -0.27131783962249756 0.4728682041168213
0.5504822134971619 -0.25581392645835876 0.05426358804106712
0.5586986541748047 -0.25581395626068115 0.06976747512817383
0.5653210282325745 -0.25581395626068115 0.08527135848999023
0.5582057237625122 -0.25581395626068115 0.10077524185180664
0.554816722869873 -0.25581395626068115 0.11627912521362305
0.5582461357116699 -0.25581395626068115 0.1317828893661499
0.5555667877197266 -0.25581395626068115 0.4418604373931885
0.5586806535720825 -0.25581395626068115 0.4573643207550049
0.5537161827087402 -0.24031008780002594 0.05426359176635742
0.5546626448631287 -0.24031005799770355 0.5813953876495361
0.5553285479545593 -0.22480620443820953 0.05426359176635742
0.5645642280578613 -0.22480618953704834 0.5813953876495361
0.5558467507362366 -0.20930230617523193 0.05426359176635742
0.5562501549720764 -0.19379842281341553 0.05426359176635742
0.5578691363334656 -0.1782945990562439 0.05426359176635742
0.5608494877815247 -0.1627907156944275 0.05426359176635742
0.5532588362693787 -0.11627906560897827 0.038759708404541016
0.5638799071311951 -0.11627906560897827 0.5813953876495361
0.5612536668777466 -0.10077518224716187 0.038759708404541016
0.5621253252029419 -0.10077518224716187 0.5813953876495361
0.5521604418754578 -0.08527129888534546 0.02325582504272461
0.5609066486358643 -0.08527129888534546 0.5813953876495361
0.5516635179519653 -0.06976741552352905 0.007751941680908203
0.5599153637886047 -0.06976741552352905 0.5813953876495361
0.5514299869537354 -0.05426359176635742 -0.007751941680908203
0.5609774589538574 -0.05426359176635742 0.007751941680908203
0.5558475852012634 -0.05426359176635742 0.5813953876495361
0.5527506470680237 -0.038759708404541016 -0.02325582504272461
0.5554655194282532 -0.038759708404541016 -0.007751941680908203
0.5633939504623413 -0.02325582504272461 -0.007751941680908203
0.5607868432998657 -0.02325582504272461 0.4728682041168213
0.5569259524345398 -0.02325582504272461 0.4883720874786377
0.5555239319801331 -0.02325582504272461 0.5038759708404541
0.5565022826194763 -0.02325582504272461 0.5193798542022705
0.5543485879898071 -0.02325582504272461 0.5348837375640869
0.5571879148483276 -0.007751941680908203 0.4573642909526825
0.5516834259033203 -0.007751941680908203 0.4728682041168213
0.5626547336578369 0.007751941680908203 0.02325582504272461
0.5619935989379883 0.007751941680908203 0.038759708404541016
0.5535892844200134 0.007751941680908203 0.1317828893661499
0.5591998100280762 0.007751941680908203 0.4418604373931885
0.5605557560920715 0.02325582504272461 0.42635655403137207
0.5592952966690063 0.038759708404541016 0.17829453945159912
0.5629845857620239 0.038759708404541016 0.41085267066955566
0.5508320331573486 0.038759708404541016 0.42635655403137207
0.5571557283401489 0.05426359176635742 0.19379842281341553
0.5541349649429321 0.05426358804106712 0.41085267066955566
0.5604435801506042 0.06976747512817383 0.007751941680908203
0.5612825155258179 0.06976747512817383 0.39534878730773926
0.5505595207214355 0.06976747512817383 0.41085267066955566
0.5551299452781677 0.08527135848999023 0.007751941680908203
0.5605966448783875 0.08527135848999023 0.39534878730773926
0.5533434152603149 0.10077524185180664 0.007751941680908203
0.5550487041473389 0.10077524185180664 0.19379842281341553
0.5656666159629822 0.10077524185180664 0.39534878730773926
0.5506313443183899 0.10077524185180664 0.41085267066955566
0.5647534728050232 0.11627912521362305 -0.05426359176635742
0.5516145825386047 0.11627912521362305 0.007751941680908203
0.552776575088501 0.11627912521362305 0.41085267066955566
0.5511561632156372 0.1317828893661499 -0.05426359176635742
0.5634820461273193 0.1317828893661499 -0.007751941680908203
0.5546264052391052 0.1317828893661499 0.41085267066955566
0.5515539646148682 0.1472867727279663 -0.038759708404541016
0.5522890686988831 0.1472867727279663 -0.02325582504272461
0.5522743463516235 0.1472867727279663 0.17829453945159912
0.5547628998756409 0.1472867727279663 0.41085267066955566
0.5608892440795898 0.16279065608978271 0.17829453945159912
0.5510949492454529 0.16279065608978271 0.41085267066955566
0.5606739521026611 0.17829453945159912 0.17829453945159912
0.5611122846603394 0.17829453945159912 0.39534878730773926
0.5647006034851074 0.20930230617523193 0.37984490394592285
0.5557540059089661 0.22480618953704834 0.20930230617523193
0.5535250306129456 0.22480618953704834 0.37984490394592285
0.5629070997238159 0.24031007289886475 0.30232560634613037
0.5592005252838135 0.27131783962249756 0.364341139793396
0.5741671919822693 -0.5193798542022705 0.364341139793396
0.5792968273162842 -0.5038759708404541 0.364341139793396
0.5785432457923889 -0.4883720874786377 0.3333333730697632
0.577848494052887 -0.4883720874786377 0.364341139793396
0.5666949152946472 -0.4728682041168213 0.3333333730697632
0.5803994536399841 -0.4573643207550049 0.30232560634613037
0.5758352875709534 -0.4573643207550049 0.3178294897079468
0.5770312547683716 -0.4418604373931885 0.24031007289886475
0.5769284963607788 -0.4418604373931885 0.25581395626068115
0.5763772130012512 -0.4418604373931885 0.27131783962249756
0.5762215256690979 -0.4418604373931885 0.28682172298431396
0.574941873550415 -0.4418604373931885 0.30232560634613037
0.5700260996818542 -0.4418604075908661 0.3178294897079468
0.5689030289649963 -0.42635661363601685 0.24031007289886475
0.5711547136306763 -0.42635661363601685 0.25581395626068115
0.571595311164856 -0.42635661363601685 0.27131783962249756
0.5723386406898499 -0.42635661363601685 0.28682172298431396
0.5706180334091187 -0.42635661363601685 0.30232560634613037
0.5707684755325317 -0.41085273027420044 0.20930230617523193
0.5672677755355835 -0.41085273027420044 0.24031008780002594
0.5700904130935669 -0.41085273027420044 0.25581395626068115
0.5707935690879822 -0.41085273027420044 0.27131783962249756
0.5711987018585205 -0.41085273027420044 0.28682172298431396
0.568162739276886 -0.41085273027420044 0.30232560634613037
0.5712321400642395 -0.41085273027420044 0.39534878730773926
0.5745192766189575 -0.39534884691238403 0.20930230617523193
0.567487359046936 -0.39534884691238403 0.22480618953704834
0.5710592269897461 -0.39534884691238403 0.24031007289886475
0.5731970071792603 -0.39534884691238403 0.25581395626068115
0.5732932090759277 -0.39534884691238403 0.27131783962249756
0.5725879669189453 -0.39534884691238403 0.28682172298431396
0.5681361556053162 -0.39534884691238403 0.30232560634613037
0.5761290788650513 -0.39534884691238403 0.39534878730773926
0.5690049529075623 -0.39534884691238403 0.4883720874786377
0.5766890048980713 -0.3798449635505676 0.22480618953704834
0.5774837732315063 -0.3798449635505676 0.24031007289886475
0.5779388546943665 -0.3798449635505676 0.25581395626068115
0.5766252875328064 -0.3798449635505676 0.27131783962249756
0.5744262933731079 -0.3798449635505676 0.28682172298431396
0.5679973363876343 -0.3798449635505676 0.30232560634613037
0.5742722749710083 -0.3798449635505676 0.39534878730773926
0.5691291093826294 -0.37984499335289 0.4728682041168213
0.5800856351852417 -0.3798449635505676 0.4883720874786377
0.5729928016662598 -0.3798449635505676 0.5038759708404541
0.5668061971664429 -0.37984493374824524 0.5193798542022705
0.5790279507637024 -0.3643410801887512 0.27131783962249756
0.5753134489059448 -0.3643410801887512 0.28682172298431396
0.5661773681640625 -0.3643410801887512 0.302325576543808
0.5772514939308167 -0.3643410801887512 0.39534878730773926
0.568655788898468 -0.3643410801887512 0.4728682041168213
0.5798569917678833 -0.3643410801887512 0.5038759708404541
0.57109534740448 -0.3643410801887512 0.5193798542022705
0.5695175528526306 -0.3643410801887512 0.5348837375640869
0.5805178284645081 -0.3488371968269348 0.27131783962249756
0.5754209756851196 -0.3488371968269348 0.28682172298431396
0.5718806982040405 -0.3488371968269348 0.4883720874786377
0.5742490887641907 -0.3488371968269348 0.5038759708404541
0.573486328125 -0.3488371968269348 0.5193798542022705
0.5763469338417053 -0.3488371968269348 0.5348837375640869
0.5688030123710632 -0.3488371670246124 0.5503876209259033
0.5797829031944275 -0.3333333134651184 0.27131783962249756
0.5736317038536072 -0.3333333134651184 0.28682172298431396
0.5670645236968994 -0.3333333134651184 0.4883720874786377
0.5697630643844604 -0.3333333134651184 0.5038759708404541
0.5730974674224854 -0.3333333134651184 0.5193798542022705
0.5726187229156494 -0.3333333134651184 0.5503876209259033
0.576805830001831 -0.317829430103302 0.27131783962249756
0.5693052411079407 -0.317829430103302 0.28682172298431396
0.5681726336479187 -0.317829430103302 0.5038759708404541
0.5730979442596436 -0.317829430103302 0.5193798542022705
0.5755193829536438 -0.317829430103302 0.5503876209259033
0.5807183980941772 -0.30232560634613037 0.24031007289886475
0.5774874687194824 -0.30232560634613037 0.25581395626068115
0.571153461933136 -0.30232560634613037 0.27131783962249756
0.568466305732727 -0.30232560634613037 0.5038759708404541
0.5766497850418091 -0.30232560634613037 0.5193798542022705
0.5795488357543945 -0.30232560634613037 0.5503876209259033
0.5803109407424927 -0.28682172298431396 0.19379842281341553
0.5756269097328186 -0.28682172298431396 0.20930230617523193
0.5750142335891724 -0.28682172298431396 0.22480618953704834
0.57354336977005 -0.28682172298431396 0.24031007289886475
0.5686745643615723 -0.28682172298431396 0.25581395626068115
0.5693883895874023 -0.28682172298431396 0.41085267066955566
0.5661394000053406 -0.2868216931819916 0.4883720874786377
0.5750595927238464 -0.28682172298431396 0.5038759708404541
0.5697126388549805 -0.27131783962249756 0.17829453945159912
0.5784345865249634 -0.27131783962249756 0.41085267066955566
0.5772953629493713 -0.27131783962249756 0.4883720874786377
0.5669323205947876 -0.27131783962249756 0.5658915042877197
0.570695161819458 -0.25581395626068115 0.1472867727279663
0.5676253437995911 -0.25581395626068115 0.42635655403137207
0.5752852559089661 -0.25581395626068115 0.4728682041168213
0.5776427984237671 -0.25581395626068115 0.5658915042877197
0.5719082951545715 -0.24031008780002594 0.06976747512817383
0.5776496529579163 -0.24031007289886475 0.42635655403137207
0.5695760250091553 -0.24031007289886475 0.4418604373931885
0.5743592977523804 -0.24031007289886475 0.4573643207550049
0.5809975266456604 -0.22480618953704834 0.06976747512817383
0.5711240172386169 -0.20930229127407074 0.5813953876495361
0.5772162675857544 -0.19379842281341553 0.5813953876495361
0.5780532360076904 -0.1782945990562439 0.5813953876495361
0.5750207901000977 -0.1627907156944275 0.5813953876495361
0.5659843683242798 -0.14728683233261108 0.05426359176635742
0.5707964301109314 -0.14728683233261108 0.5813953876495361
0.568966805934906 -0.13178294897079468 0.05426359176635742
0.5669841170310974 -0.13178294897079468 0.5813953876495361
0.5758789777755737 -0.11627906560897827 0.05426359176635742
0.573347270488739 -0.08527129888534546 0.038759708404541016
0.5812625885009766 -0.08527129888534546 0.5658915042877197
0.5668368339538574 -0.06976742297410965 -0.08527129888534546
0.5670220851898193 -0.06976742297410965 0.02325582504272461
0.5810362100601196 -0.06976741552352905 0.5658915042877197
0.5719001889228821 -0.05426359176635742 -0.05426359176635742
0.5674641132354736 -0.03875970467925072 -0.03875970467925072
0.5692993998527527 -0.038759708404541016 0.007751941680908203
0.5790128707885742 -0.038759708404541016 0.4573643207550049
0.5676892399787903 -0.038759708404541016 0.5658915042877197
0.5749863386154175 -0.02325582504272461 -0.02325582504272461
0.5718971490859985 -0.02325582504272461 0.00775194214656949
0.5744993686676025 -0.02325582504272461 0.4418604373931885
0.5669488906860352 -0.02325582504272461 0.4573643207550049
0.5701185464859009 -0.007751941680908203 0.007751941680908203
0.5747369527816772 -0.007751941680908203 0.06976747512817383
0.574045717716217 -0.007751941680908203 0.08527135848999023
0.577089786529541 -0.007751941680908203 0.10077524185180664
0.5792926549911499 -0.007751941680908203 0.11627912521362305
0.5790066719055176 -0.007751941680908203 0.42635655403137207
0.567990243434906 -0.007751941680908203 0.4418604373931885
0.5788953304290771 0.007751941680908203 0.007751941680908203
0.5713030099868774 0.007751941680908203 0.1472867727279663
0.5704861283302307 0.007751941215246916 0.42635655403137207
0.5667709708213806 0.02325582504272461 0.1627906709909439
0.5724078416824341 0.02325582504272461 0.41085267066955566
0.5755552053451538 0.038759708404541016 0.007751941680908203
0.5811948180198669 0.038759708404541016 0.19379842281341553
0.5737698078155518 0.038759708404541016 0.39534878730773926
0.5681371092796326 0.05426359176635742 0.007751941680908203
0.578657865524292 0.05426359176635742 0.37984490394592285
0.5669691562652588 0.05426358804106712 0.39534878730773926
0.5718479752540588 0.06976747512817383 0.37984490394592285
0.5713798403739929 0.08527135848999023 0.37984490394592285
0.5760593414306641 0.10077524185180664 0.37984490394592285
0.5687514543533325 0.11627912521362305 0.39534878730773926
0.5720610618591309 0.1317828893661499 -0.038759708404541016
0.5810160636901855 0.1317828893661499 -0.02325582504272461
0.5714421272277832 0.1317828893661499 0.39534878730773926
0.5723488926887512 0.1472867727279663 0.39534878730773926
0.5694544315338135 0.16279065608978271 0.39534878730773926
0.5732916593551636 0.19379842281341553 0.37984490394592285
