-0.5348837375640869 -0.27131783962249756 0.7120399475097656
-0.5348837375640869 -0.27131783962249756 0.7389684915542603
-0.5348837375640869 -0.25581395626068115 0.37367188930511475
-0.5348837375640869 -0.25581395626068115 0.47311893105506897
-0.5348837375640869 -0.25581395626068115 0.7091689109802246
-0.5348837375640869 -0.25581395626068115 0.7392295002937317
-0.5348837375640869 -0.24031007289886475 0.363916277885437
-0.5348837375640869 -0.24031007289886475 0.46263208985328674
-0.5348837375640869 -0.24031007289886475 0.7050145268440247
-0.5348837375640869 -0.24031007289886475 0.7389254570007324
-0.5348837375640869 -0.22480618953704834 -0.989986777305603
-0.5348837375640869 -0.22480617463588715 -0.978836178779602
-0.5348837375640869 -0.22480618953704834 0.36250919103622437
-0.5348837375640869 -0.22480618953704834 0.4577823877334595
-0.5348837375640869 -0.22480618953704834 0.7034713625907898
-0.5348837375640869 -0.22480618953704834 0.7384611368179321
-0.5348837375640869 -0.20930230617523193 -0.9910218715667725
-0.5348837375640869 -0.20930230617523193 -0.9775360822677612
-0.5348837375640869 -0.20930230617523193 0.24812889099121094
-0.5348837375640869 -0.20930230617523193 0.2878466248512268
-0.5348837375640869 -0.20930230617523193 0.36214718222618103
-0.5348837375640869 -0.20930230617523193 0.44318094849586487
-0.5348837375640869 -0.20930230617523193 0.7019736766815186
-0.5348837375640869 -0.20930230617523193 0.737734854221344
-0.5348837375640869 -0.19379842281341553 -0.991140604019165
-0.5348837375640869 -0.19379842281341553 -0.9770317077636719
-0.5348837375640869 -0.19379842281341553 0.2181791365146637
-0.5348837375640869 -0.19379842281341553 0.30540525913238525
-0.5348837375640869 -0.19379842281341553 0.3629744052886963
-0.5348837375640869 -0.19379842281341553 0.42787083983421326
-0.5348837375640869 -0.19379842281341553 0.7008970379829407
-0.5348837375640869 -0.19379842281341553 0.7366886138916016
-0.5348837375640869 -0.1782945990562439 -0.9911382794380188
-0.5348837375640869 -0.1782945990562439 -0.976658821105957
-0.5348837375640869 -0.1782945990562439 0.1951175034046173
-0.5348837375640869 -0.1782945990562439 0.3292728066444397
-0.5348837375640869 -0.1782945990562439 0.36859819293022156
-0.5348837375640869 -0.1782945990562439 0.4130203127861023
-0.5348837375640869 -0.1782946139574051 0.6305285096168518
-0.5348837375640869 -0.1782945990562439 0.6558988094329834
-0.5348837375640869 -0.1782945990562439 0.7009287476539612
-0.5348837375640869 -0.1782945990562439 0.7323582768440247
-0.5348837375640869 -0.1627907156944275 -0.9910982251167297
-0.5348837375640869 -0.1627907156944275 -0.9763486981391907
-0.5348837375640869 -0.1627907156944275 0.18672522902488708
-0.5348837375640869 -0.1627907156944275 0.3594180941581726
-0.5348837375640869 -0.1627907156944275 0.37696099281311035
-0.5348837375640869 -0.1627907156944275 0.38766419887542725
-0.5348837375640869 -0.1627907156944275 0.6251103281974792
-0.5348837375640869 -0.1627907156944275 0.6602229475975037
-0.5348837375640869 -0.1627907156944275 0.7021728754043579
-0.5348837375640869 -0.1627907156944275 0.7276648879051208
-0.5348837375640869 -0.14728683233261108 -0.9910381436347961
-0.5348837375640869 -0.14728683233261108 -0.9761357307434082
-0.5348837375640869 -0.14728683233261108 0.18001998960971832
-0.5348837375640869 -0.14728683233261108 0.3683655261993408
-0.5348837375640869 -0.14728683233261108 0.6216951608657837
-0.5348837375640869 -0.14728683233261108 0.6609941720962524
-0.5348837375640869 -0.14728683233261108 0.7041366696357727
-0.5348837375640869 -0.14728683233261108 0.7236388921737671
-0.5348837375640869 -0.13178294897079468 -0.9909999370574951
-0.5348837375640869 -0.13178294897079468 -0.9759490489959717
-0.5348837375640869 -0.13178294897079468 0.1771397590637207
-0.5348837375640869 -0.13178294897079468 0.3716926574707031
-0.5348837375640869 -0.13178294897079468 0.6178507804870605
-0.5348837375640869 -0.13178294897079468 0.6609328985214233
-0.5348837375640869 -0.11627906560897827 -0.9910026788711548
-0.5348837375640869 -0.11627906560897827 -0.9758721590042114
-0.5348837375640869 -0.11627906560897827 0.17731121182441711
-0.5348837375640869 -0.11627906560897827 0.3737958073616028
-0.5348837375640869 -0.11627906560897827 0.6121073961257935
-0.5348837375640869 -0.11627906560897827 0.6607946157455444
-0.5348837375640869 -0.10077518224716187 -0.9910606145858765
-0.5348837375640869 -0.10077518224716187 -0.9758195877075195
-0.5348837375640869 -0.10077518224716187 0.18858253955841064
-0.5348837375640869 -0.10077518224716187 0.37561672925949097
-0.5348837375640869 -0.10077518224716187 0.6107288002967834
-0.5348837375640869 -0.10077517479658127 0.6611441373825073
-0.5348837375640869 -0.08527129888534546 -0.9911442399024963
-0.5348837375640869 -0.08527129888534546 -0.9757795333862305
-0.5348837375640869 -0.08527129888534546 0.22595009207725525
-0.5348837375640869 -0.08527129888534546 0.3803732097148895
-0.5348837375640869 -0.08527129888534546 0.6089756488800049
-0.5348837375640869 -0.08527129888534546 0.6623421907424927
-0.5348837375640869 -0.06976741552352905 -0.9913036227226257
-0.5348837375640869 -0.06976741552352905 -0.9758129119873047
-0.5348837375640869 -0.06976741552352905 0.25114795565605164
-0.5348837375640869 -0.06976741552352905 0.38098451495170593
-0.5348837375640869 -0.06976741552352905 0.6068966388702393
-0.5348837375640869 -0.06976741552352905 0.6637166738510132
-0.5348837375640869 -0.05426359176635742 -0.9914869070053101
-0.5348837375640869 -0.05426359176635742 -0.9760531187057495
-0.5348837375640869 -0.05426359176635742 0.2741837799549103
-0.5348837375640869 -0.05426359176635742 0.3077349066734314
-0.5348837375640869 -0.05426359176635742 0.6061459183692932
-0.5348837375640869 -0.05426359176635742 0.665516197681427
-0.5348837375640869 -0.038759708404541016 -0.99162757396698
-0.5348837375640869 -0.038759708404541016 -0.9764310717582703
-0.5348837375640869 -0.038759708404541016 0.6072238683700562
-0.5348837375640869 -0.038759708404541016 0.6674975752830505
-0.5348837375640869 -0.038759708404541016 0.8692823648452759
-0.5348837375640869 -0.038759708404541016 0.8792077302932739
-0.5348837375640869 -0.02325582504272461 -0.9916468858718872
-0.5348837375640869 -0.02325582504272461 -0.9767566919326782
-0.5348837375640869 -0.02325582504272461 0.6095364689826965
-0.5348837375640869 -0.02325582504272461 0.6684173345565796
-0.5348837375640869 -0.02325582504272461 0.8610294461250305
-0.5348837375640869 -0.02325582504272461 0.8865633010864258
-0.5348837375640869 -0.007751941680908203 -0.9914425015449524
-0.5348837375640869 -0.007751941680908203 -0.9771543741226196
-0.5348837375640869 -0.007751941680908203 0.6119726896286011
-0.5348837375640869 -0.007751941680908203 0.6678506135940552
-0.5348837375640869 -0.007751941680908203 0.8431134223937988
-0.5348837375640869 -0.007751941680908203 0.8925933241844177
-0.5348837375640869 0.007751941680908203 -0.9910462498664856
-0.5348837375640869 0.007751941680908203 -0.977647066116333
-0.5348837375640869 0.007751941680908203 0.6218347549438477
-0.5348837375640869 0.007751941215246916 0.6654390692710876
-0.5348837375640869 0.007751941680908203 0.7197853326797485
-0.5348837375640869 0.007751941680908203 0.7218318581581116
-0.5348837375640869 0.007751941680908203 0.8282736539840698
-0.5348837375640869 0.007751941680908203 0.8943963050842285
-0.5348837375640869 0.02325582504272461 -0.9907905459403992
-0.5348837375640869 0.02325582504272461 -0.9779331684112549
-0.5348837375640869 0.02325582504272461 0.625970184803009
-0.5348837375640869 0.02325582504272461 0.6635857820510864
-0.5348837375640869 0.02325582504272461 0.717586874961853
-0.5348837375640869 0.02325582504272461 0.7257057428359985
-0.5348837375640869 0.02325582504272461 0.8242075443267822
-0.5348837375640869 0.02325582504272461 0.8595220446586609
-0.5348837375640869 0.02325582504272461 0.8610471487045288
-0.5348837375640869 0.02325582504272461 0.8950419425964355
-0.5348837375640869 0.038759708404541016 -0.9909127354621887
-0.5348837375640869 0.038759708404541016 -0.977783203125
-0.5348837375640869 0.038759708404541016 0.633259654045105
-0.5348837375640869 0.038759712129831314 0.6601826548576355
-0.5348837375640869 0.038759708404541016 0.7169161438941956
-0.5348837375640869 0.038759708404541016 0.7335139513015747
-0.5348837375640869 0.038759708404541016 0.819447934627533
-0.5348837375640869 0.038759708404541016 0.8483150005340576
-0.5348837375640869 0.038759708404541016 0.8687417507171631
-0.5348837375640869 0.038759708404541016 0.8948813676834106
-0.5348837375640869 0.05426359176635742 -0.9910929799079895
-0.5348837375640869 0.05426359176635742 -0.9775288105010986
-0.5348837375640869 0.05426359176635742 0.6392983198165894
-0.5348837375640869 0.05426359176635742 0.6568727493286133
-0.5348837375640869 0.05426359176635742 0.7146255373954773
-0.5348837375640869 0.05426359176635742 0.7385070323944092
-0.5348837375640869 0.05426359176635742 0.8153173923492432
-0.5348837375640869 0.05426359176635742 0.8395793437957764
-0.5348837375640869 0.05426359176635742 0.87444007396698
-0.5348837375640869 0.05426359176635742 0.8940144777297974
-0.5348837375640869 0.06976747512817383 -0.9911966919898987
-0.5348837375640869 0.06976747512817383 -0.9773036241531372
-0.5348837375640869 0.06976747512817383 0.6402279138565063
-0.5348837375640869 0.06976747512817383 0.6578138470649719
-0.5348837375640869 0.06976747512817383 0.7121202945709229
-0.5348837375640869 0.06976747512817383 0.7404581308364868
-0.5348837375640869 0.06976747512817383 0.8184365034103394
-0.5348837375640869 0.06976747512817383 0.8338385820388794
-0.5348837375640869 0.06976747512817383 0.8826636075973511
-0.5348837375640869 0.06976747512817383 0.8924015760421753
-0.5348837375640869 0.08527135848999023 -0.9912606477737427
-0.5348837375640869 0.08527135848999023 -0.9770915508270264
-0.5348837375640869 0.08527135848999023 0.6380224823951721
-0.5348837375640869 0.08527135848999023 0.6633782386779785
-0.5348837375640869 0.08527135848999023 0.7063948512077332
-0.5348837375640869 0.08527135848999023 0.7419538497924805
-0.5348837375640869 0.08527135848999023 0.8242829442024231
-0.5348837375640869 0.08527135848999023 0.8309810757637024
-0.5348837375640869 0.10077524185180664 -0.9913451075553894
-0.5348837375640869 0.10077524185180664 -0.9768608212471008
-0.5348837375640869 0.10077524185180664 0.6314330697059631
-0.5348837375640869 0.10077524185180664 0.6756978034973145
-0.5348837375640869 0.10077524185180664 0.6973004341125488
-0.5348837375640869 0.10077524185180664 0.7425152659416199
-0.5348837375640869 0.10077524185180664 0.82459557056427
-0.5348837375640869 0.10077524185180664 0.8308908939361572
-0.5348837375640869 0.11627912521362305 -0.9914232492446899
-0.5348837375640869 0.11627912521362305 -0.9766976833343506
-0.5348837375640869 0.11627912521362305 0.6263688802719116
-0.5348837375640869 0.11627912521362305 0.7418423295021057
-0.5348837375640869 0.11627912521362305 0.8202730417251587
-0.5348837375640869 0.11627912521362305 0.8326478004455566
-0.5348837375640869 0.1317828893661499 -0.9914504885673523
-0.5348837375640869 0.1317828893661499 -0.9767160415649414
-0.5348837375640869 0.1317828893661499 0.6238421201705933
-0.5348837375640869 0.1317828893661499 0.7405716180801392
-0.5348837375640869 0.1317828893661499 0.8156096935272217
-0.5348837375640869 0.1317828893661499 0.8355801105499268
-0.5348837375640869 0.1472867727279663 -0.9914400577545166
-0.5348837375640869 0.1472867727279663 -0.976921796798706
-0.5348837375640869 0.1472867727279663 0.6216236352920532
-0.5348837375640869 0.1472867727279663 0.7398636937141418
-0.5348837375640869 0.1472867727279663 0.8137115240097046
-0.5348837375640869 0.1472867727279663 0.8378671407699585
-0.5348837375640869 0.16279065608978271 -0.9911710619926453
-0.5348837375640869 0.16279065608978271 -0.9774537086486816
-0.5348837375640869 0.16279065608978271 0.6200953125953674
-0.5348837375640869 0.16279065608978271 0.7395134568214417
-0.5348837375640869 0.16279065608978271 0.8134176731109619
-0.5348837375640869 0.16279065608978271 0.838086724281311
-0.5348837375640869 0.17829453945159912 -0.9854565858840942
-0.5348837375640869 0.17829453945159912 -0.9834896326065063
-0.5348837375640869 0.17829453945159912 0.6203041076660156
-0.5348837375640869 0.17829455435276031 0.7386819124221802
-0.5348837375640869 0.17829453945159912 0.8148903250694275
-0.5348837375640869 0.17829453945159912 0.8351633548736572
-0.5348837375640869 0.19379842281341553 0.6229994297027588
-0.5348837375640869 0.19379842281341553 0.7372032403945923
-0.5348837375640869 0.20930230617523193 0.6277100443840027
-0.5348837375640869 0.20930230617523193 0.6835939884185791
-0.5348837375640869 0.22480618953704834 0.6467475891113281
-0.5348837375640869 0.22480618953704834 0.666598916053772
-0.5348837375640869 0.39534878730773926 0.7773299217224121
-0.5348837375640869 0.39534878730773926 0.7849643230438232
-0.5348837375640869 0.41085267066955566 0.7597531080245972
-0.5348837375640869 0.41085267066955566 0.8014490008354187
-0.5348837375640869 0.42635655403137207 0.7516195774078369
-0.5348837375640869 0.42635655403137207 0.7996230125427246
-0.5348837375640869 0.4418604373931885 0.7465610504150391
-0.5348837375640869 0.4418604373931885 0.790749192237854
-0.5348837375640869 0.4573642909526825 0.7383884787559509
-0.5348837375640869 0.4573643207550049 0.7839622497558594
-0.5348837375640869 0.4728682041168213 0.7335134744644165
-0.5348837375640869 0.4728682041168213 0.773655891418457
-0.5348837375640869 0.4883720874786377 0.7306150197982788
-0.5348837375640869 0.4883720874786377 0.7671366333961487
-0.5348837375640869 0.5038759708404541 0.7289984226226807
-0.5348837375640869 0.5038759708404541 0.7590603828430176
-0.5348837375640869 0.5193798542022705 0.7296656370162964
-0.5348837375640869 0.5193798542022705 0.7537366151809692
-0.5348837375640869 0.5348837375640869 0.7315709590911865
-0.5348837375640869 0.5348837375640869 0.745975911617279
-0.5193798542022705 -0.6279069781303406 0.6407057642936707
-0.5193798542022705 -0.6279069781303406 0.6535477042198181
-0.5193798542022705 -0.6124030947685242 0.6360980868339539
-0.5193798542022705 -0.6124030947685242 0.6612856388092041
-0.5193798542022705 -0.5968992114067078 0.6302346587181091
-0.5193798542022705 -0.5968992114067078 0.6703532934188843
-0.5193798542022705 -0.5813953876495361 0.6274328231811523
-0.5193798542022705 -0.5813953876495361 0.6781097650527954
-0.5193798542022705 -0.5658915042877197 0.627197802066803
-0.5193798542022705 -0.5658915042877197 0.6832064390182495
-0.5193798542022705 -0.5503876209259033 0.6272112131118774
-0.5193798542022705 -0.5503876209259033 0.6769391894340515
-0.5193798542022705 -0.5348837375640869 0.14404508471488953
-0.5193798542022705 -0.5348837375640869 0.14948198199272156
-0.5193798542022705 -0.5348837375640869 0.6273607015609741
-0.5193798542022705 -0.5348837375640869 0.6677249670028687
-0.5193798542022705 -0.5193798542022705 0.14299914240837097
-0.5193798542022705 -0.5193798542022705 0.15273985266685486
-0.5193798542022705 -0.5193798542022705 0.6275314092636108
-0.5193798542022705 -0.5193798542022705 0.6632662415504456
-0.5193798542022705 -0.5038759708404541 0.143768310546875
-0.5193798542022705 -0.5038759708404541 0.1553492546081543
-0.5193798542022705 -0.5038759708404541 0.6277333498001099
-0.5193798542022705 -0.5038759708404541 0.661199152469635
-0.5193798542022705 -0.4883720874786377 0.14399303495883942
-0.5193797945976257 -0.4883720874786377 0.16317680478096008
-0.5193798542022705 -0.4883720874786377 0.6278114914894104
-0.5193798542022705 -0.4883720874786377 0.6600914597511292
-0.5193798542022705 -0.4728682041168213 0.14385837316513062
-0.5193798542022705 -0.4728682041168213 0.1654982566833496
-0.5193798542022705 -0.4728682041168213 0.6277313828468323
-0.5193798542022705 -0.4728682041168213 0.6597840785980225
-0.5193798542022705 -0.4573643207550049 0.14388248324394226
-0.5193798542022705 -0.4573643207550049 0.16939207911491394
-0.5193798542022705 -0.4573643207550049 0.627535343170166
-0.5193798542022705 -0.4573643207550049 0.6597996354103088
-0.5193798542022705 -0.4418604373931885 0.14442695677280426
-0.5193798542022705 -0.4418604373931885 0.17874205112457275
-0.5193798542022705 -0.4418604373931885 0.627557635307312
-0.5193798542022705 -0.4418604373931885 0.6600313782691956
-0.5193798542022705 -0.42635661363601685 0.14524045586585999
-0.5193798542022705 -0.42635661363601685 0.1837698072195053
-0.5193798542022705 -0.42635661363601685 0.6276352405548096
-0.5193798542022705 -0.42635664343833923 0.6606048941612244
-0.5193798542022705 -0.41085273027420044 0.14629893004894257
-0.5193798542022705 -0.41085273027420044 0.19456186890602112
-0.5193798542022705 -0.41085273027420044 0.42611798644065857
-0.5193798542022705 -0.41085273027420044 0.458016574382782
-0.5193798542022705 -0.41085273027420044 0.6277875304222107
-0.5193798542022705 -0.41085273027420044 0.661047101020813
-0.5193798542022705 -0.39534884691238403 0.15039290487766266
-0.5193798542022705 -0.39534884691238403 0.2011493444442749
-0.5193798542022705 -0.39534884691238403 0.4205683171749115
-0.5193798542022705 -0.39534884691238403 0.4629230499267578
-0.5193798542022705 -0.39534884691238403 0.6320887207984924
-0.5193798542022705 -0.39534884691238403 0.6610397100448608
-0.5193798542022705 -0.3798449635505676 0.15824487805366516
-0.5193798542022705 -0.3798449635505676 0.2110893577337265
-0.5193798542022705 -0.3798449635505676 0.40917903184890747
-0.5193798542022705 -0.3798449635505676 0.4686635136604309
-0.5193798542022705 -0.3798449635505676 0.6369503736495972
-0.5193798542022705 -0.37984499335289 0.660060703754425
-0.5193798542022705 -0.3643410801887512 0.16204120218753815
-0.5193798542022705 -0.3643410801887512 0.21881332993507385
-0.5193798542022705 -0.3643410801887512 0.4010903835296631
-0.5193798542022705 -0.3643410801887512 0.4731198847293854
-0.5193798542022705 -0.3643410801887512 0.6403359174728394
-0.5193798542022705 -0.3643410801887512 0.6531135439872742
-0.5193798542022705 -0.3643410801887512 0.7154470086097717
-0.5193798542022705 -0.36434105038642883 0.7250587344169617
-0.5193798542022705 -0.3488371968269348 0.17199629545211792
-0.5193798542022705 -0.3488371968269348 0.2283751517534256
-0.5193798542022705 -0.3488371968269348 0.3942592740058899
-0.5193798542022705 -0.3488371968269348 0.473513662815094
-0.5193798542022705 -0.3488371968269348 0.7146064043045044
-0.5193798542022705 -0.3488371968269348 0.7337910532951355
-0.5193798542022705 -0.3333333134651184 0.1781652867794037
-0.5193798542022705 -0.3333333134651184 0.2358139604330063
-0.5193798542022705 -0.3333333134651184 0.39282041788101196
-0.5193798542022705 -0.3333333432674408 0.4735156297683716
-0.5193798542022705 -0.3333333134651184 0.7143217325210571
-0.5193798542022705 -0.3333333134651184 0.7381311655044556
-0.5193798542022705 -0.317829430103302 0.192936509847641
-0.5193798542022705 -0.317829430103302 0.2413170486688614
-0.5193798542022705 -0.317829430103302 0.3897327184677124
-0.5193798542022705 -0.317829430103302 0.47356095910072327
-0.5193798542022705 -0.317829430103302 0.7133712768554688
-0.5193798542022705 -0.3178294599056244 0.7391672134399414
-0.5193798542022705 -0.30232560634613037 0.3797703981399536
-0.5193798542022705 -0.30232560634613037 0.4732650816440582
-0.5193798542022705 -0.30232560634613037 0.7116296291351318
-0.5193798542022705 -0.30232560634613037 0.7404606938362122
-0.5193798542022705 -0.28682172298431396 0.37831416726112366
-0.5193798542022705 -0.28682172298431396 0.4723111093044281
-0.5193798542022705 -0.28682172298431396 0.7098495364189148
-0.5193798542022705 -0.28682172298431396 0.741904616355896
-0.5193798542022705 -0.27131783962249756 0.3762410879135132
-0.5193798542022705 -0.27131783962249756 0.4659035801887512
-0.5193798542022705 -0.27131783962249756 0.7065934538841248
-0.5193798542022705 -0.27131783962249756 0.7435590028762817
-0.5193798542022705 -0.25581395626068115 0.25427788496017456
-0.5193798542022705 -0.25581395626068115 0.26209595799446106
-0.5193798542022705 -0.25581395626068115 0.36954015493392944
-0.5193798542022705 -0.25581395626068115 0.46093738079071045
-0.5193798542022705 -0.25581395626068115 0.7048964500427246
-0.5193798542022705 -0.25581395626068115 0.7443915605545044
-0.5193798542022705 -0.24031007289886475 0.2540954351425171
-0.5193798542022705 -0.24031008780002594 0.2780109941959381
-0.5193798542022705 -0.24031007289886475 0.3629663288593292
-0.5193798542022705 -0.24031007289886475 0.4563460946083069
-0.5193798542022705 -0.24031007289886475 0.7036964893341064
-0.5193798542022705 -0.24031007289886475 0.7442066073417664
-0.5193798542022705 -0.22480618953704834 -0.98963463306427
-0.5193798542022705 -0.22480618953704834 -0.9792109131813049
-0.5193798542022705 -0.22480618953704834 0.2519823908805847
-0.5193798542022705 -0.22480618953704834 0.29245525598526
-0.5193798542022705 -0.22480618953704834 0.36145880818367004
-0.5193798542022705 -0.22480618953704834 0.4429790675640106
-0.5193798542022705 -0.22480618953704834 0.702325701713562
-0.5193798542022705 -0.22480618953704834 0.7438316345214844
-0.5193798542022705 -0.20930230617523193 -0.9909679889678955
-0.5193798542022705 -0.20930230617523193 -0.9776248931884766
-0.5193798542022705 -0.20930230617523193 0.24232161045074463
-0.5193798542022705 -0.20930230617523193 0.30720749497413635
-0.5193798542022705 -0.20930230617523193 0.3623737096786499
-0.5193798542022705 -0.20930230617523193 0.4279845356941223
-0.5193798542022705 -0.20930230617523193 0.7009462714195251
-0.5193798542022705 -0.20930230617523193 0.7431464791297913
-0.5193798542022705 -0.19379842281341553 -0.9911467432975769
-0.5193798542022705 -0.19379842281341553 -0.9770520925521851
-0.5193798542022705 -0.19379842281341553 0.21999889612197876
-0.5193798542022705 -0.19379842281341553 0.3250783681869507
-0.5193798542022705 -0.19379842281341553 0.36863818764686584
-0.5193798542022705 -0.19379842281341553 0.41439196467399597
-0.5193798542022705 -0.19379842281341553 0.6432974338531494
-0.5193798542022705 -0.19379843771457672 0.6434965133666992
-0.5193798542022705 -0.19379842281341553 0.700141429901123
-0.5193798542022705 -0.19379842281341553 0.7418032288551331
-0.5193798542022705 -0.1782945990562439 -0.9911684393882751
-0.5193798542022705 -0.1782945990562439 -0.9765957593917847
-0.5193798542022705 -0.1782945990562439 0.19624930620193481
-0.5193798542022705 -0.1782945990562439 0.346360981464386
-0.5193798542022705 -0.1782945990562439 0.37542524933815
-0.5193798542022705 -0.1782945990562439 0.40119487047195435
-0.5193798542022705 -0.1782945990562439 0.6283769607543945
-0.5193798542022705 -0.1782945990562439 0.6504562497138977
-0.5193798542022705 -0.1782945990562439 0.7006591558456421
-0.5193798542022705 -0.1782945990562439 0.7404816746711731
-0.5193798542022705 -0.1627907156944275 -0.9911502003669739
-0.5193798542022705 -0.1627907156944275 -0.976166844367981
-0.5193798542022705 -0.1627907156944275 0.18773439526557922
-0.5193798542022705 -0.1627907156944275 0.37556779384613037
-0.5193798542022705 -0.1627907156944275 0.6243347525596619
-0.5193798542022705 -0.1627907156944275 0.6539965271949768
-0.5193798542022705 -0.1627907156944275 0.7021511197090149
-0.5193798542022705 -0.1627907156944275 0.7391091585159302
-0.5193798542022705 -0.14728683233261108 -0.9911075234413147
-0.5193798542022705 -0.14728683233261108 -0.9758217930793762
-0.5193798542022705 -0.14728683233261108 0.18211409449577332
-0.5193798542022705 -0.14728683233261108 0.3784177899360657
-0.5193798542022705 -0.14728683233261108 0.6201889514923096
-0.5193798542022705 -0.14728683233261108 0.654760479927063
-0.5193798542022705 -0.14728683233261108 0.7038611769676208
-0.5193798542022705 -0.14728683233261108 0.737667977809906
-0.5193798542022705 -0.13178294897079468 -0.9910682439804077
-0.5193798542022705 -0.13178294897079468 -0.9754791855812073
-0.5193798542022705 -0.13178294897079468 0.17796829342842102
-0.5193798542022705 -0.13178294897079468 0.38307031989097595
-0.5193798542022705 -0.13178294897079468 0.6151079535484314
-0.5193798542022705 -0.13178294897079468 0.6534788608551025
-0.5193798542022705 -0.13178294897079468 0.707642138004303
-0.5193798542022705 -0.13178294897079468 0.7359296679496765
-0.5193798542022705 -0.11627906560897827 -0.9910445213317871
-0.5193798542022705 -0.11627906560897827 -0.9751903414726257
-0.5193798542022705 -0.11627906560897827 0.1780860722064972
-0.5193798542022705 -0.11627906560897827 0.38662952184677124
-0.5193798542022705 -0.11627906560897827 0.6116246581077576
-0.5193798542022705 -0.11627906560897827 0.6525851488113403
-0.5193798542022705 -0.11627906560897827 0.7161156535148621
-0.5193798542022705 -0.11627906560897827 0.7281829118728638
-0.5193798542022705 -0.10077518224716187 -0.9910560846328735
-0.5193798542022705 -0.10077518224716187 -0.9748630523681641
-0.5193798542022705 -0.10077518224716187 0.1887633353471756
-0.5193798542022705 -0.10077518224716187 0.39034324884414673
-0.5193798542022705 -0.10077518224716187 0.6102345585823059
-0.5193798542022705 -0.10077518224716187 0.6529377698898315
-0.5193798542022705 -0.10077518224716187 0.7198770642280579
-0.5193798542022705 -0.10077517479658127 0.7227131128311157
-0.5193798542022705 -0.08527129888534546 -0.9910877346992493
-0.5193798542022705 -0.08527129888534546 -0.9745131134986877
-0.5193798542022705 -0.08527129888534546 0.21435537934303284
-0.5193798542022705 -0.08527129888534546 0.3988712430000305
-0.5193798542022705 -0.08527129888534546 0.6079970002174377
-0.5193798542022705 -0.08527129888534546 0.6548410654067993
-0.5193798542022705 -0.06976741552352905 -0.9912139177322388
-0.5193798542022705 -0.06976741552352905 -0.9743672609329224
-0.5193798542022705 -0.06976741552352905 0.23962774872779846
-0.5193798542022705 -0.06976741552352905 0.408066987991333
-0.5193798542022705 -0.06976741552352905 0.6049627065658569
-0.5193798542022705 -0.06976741552352905 0.6571979522705078
-0.5193798542022705 -0.05426359176635742 -0.9914076924324036
-0.5193798542022705 -0.05426359176635742 -0.9747536182403564
-0.5193798542022705 -0.05426359176635742 0.25951921939849854
-0.5193798542022705 -0.05426359176635742 0.41124939918518066
-0.5193798542022705 -0.05426359176635742 0.6036058664321899
-0.5193798542022705 -0.05426359176635742 0.659441351890564
-0.5193798542022705 -0.038759708404541016 -0.9915855526924133
-0.5193798542022705 -0.038759708404541016 -0.9755619764328003
-0.5193798542022705 -0.038759708404541016 0.2844446003437042
-0.5193798542022705 -0.038759708404541016 0.3119068741798401
-0.5193798542022705 -0.038759708404541016 0.34812241792678833
-0.5193798542022705 -0.038759708404541016 0.3874889612197876
-0.5193798542022705 -0.038759708404541016 0.6047605872154236
-0.5193798542022705 -0.038759708404541016 0.6605606079101562
-0.5193798542022705 -0.038759708404541016 0.8708169460296631
-0.5193798542022705 -0.038759708404541016 0.8895598649978638
-0.5193798542022705 -0.02325582504272461 -0.9916825294494629
-0.5193798542022705 -0.02325582504272461 -0.9761500358581543
-0.5193798542022705 -0.02325582504272461 0.6079001426696777
-0.5193798542022705 -0.02325582504272461 0.6610428094863892
-0.5193798542022705 -0.02325582504272461 0.8666500449180603
-0.5193798542022705 -0.02325582504272461 0.8950287103652954
-0.5193798542022705 -0.007751941680908203 -0.9916561245918274
-0.5193798542022705 -0.007751941680908203 -0.9765688180923462
-0.5193798542022705 -0.007751941680908203 0.610708475112915
-0.5193798542022705 -0.007751941215246916 0.6607468724250793
-0.5193798542022705 -0.007751941215246916 0.864782452583313
-0.5193798542022705 -0.007751941680908203 0.8972597122192383
-0.5193798542022705 0.007751941680908203 -0.9915339946746826
-0.5193798542022705 0.007751941680908203 -0.9768840074539185
-0.5193798542022705 0.007751941215246916 0.6186552047729492
-0.5193798542022705 0.007751941680908203 0.6589295268058777
-0.5193798542022705 0.007751941680908203 0.8670201897621155
-0.5193798542022705 0.007751941680908203 0.8980548977851868
-0.5193798542022705 0.02325582504272461 -0.9914189577102661
-0.5193798542022705 0.02325582504272461 -0.9770513772964478
-0.5193798542022705 0.02325582504272461 0.6247671842575073
-0.5193798542022705 0.02325582504272461 0.6550978422164917
-0.5193798542022705 0.02325582504272461 0.8274580836296082
-0.5193798542022705 0.02325582504272461 0.8387624025344849
-0.5193798542022705 0.02325582504272461 0.871504008769989
-0.5193798542022705 0.02325582504272461 0.8985892534255981
-0.5193798542022705 0.038759708404541016 -0.9914047718048096
-0.5193798542022705 0.038759708404541016 -0.976996660232544
-0.5193798542022705 0.038759708404541016 0.6309701204299927
-0.5193798542022705 0.038759708404541016 0.648798406124115
-0.5193798542022705 0.038759708404541016 0.825827419757843
-0.5193798542022705 0.038759708404541016 0.8344628810882568
-0.5193798542022705 0.038759708404541016 0.8786290287971497
-0.5193798542022705 0.038759708404541016 0.8989750146865845
-0.5193798542022705 0.05426359176635742 -0.9914101362228394
-0.5193798542022705 0.05426359176635742 -0.9768146872520447
-0.5193798542022705 0.05426359176635742 0.6414634585380554
-0.5193798542022705 0.05426359176635742 0.6449782848358154
-0.5193798542022705 0.05426359176635742 0.7201110124588013
-0.5193798542022705 0.05426359176635742 0.737621545791626
-0.5193798542022705 0.05426359176635742 0.8278002738952637
-0.5193798542022705 0.05426359176635742 0.8303804993629456
-0.5193798542022705 0.05426359176635742 0.8827149271965027
-0.5193798542022705 0.05426359176635742 0.8989399671554565
-0.5193798542022705 0.06976747512817383 -0.9914098978042603
-0.5193798542022705 0.06976747512817383 -0.9765361547470093
-0.5193798542022705 0.06976747512817383 0.64228355884552
-0.5193798542022705 0.06976747512817383 0.644568920135498
-0.5193798542022705 0.06976747512817383 0.7182680368423462
-0.5193798542022705 0.06976747512817383 0.7395125031471252
-0.5193798542022705 0.06976747512817383 0.8849421739578247
-0.5193798542022705 0.06976747512817383 0.8981013298034668
-0.5193798542022705 0.08527135848999023 -0.9914120435714722
-0.5193798542022705 0.08527135848999023 -0.9762394428253174
-0.5193798542022705 0.08527135848999023 0.6374287605285645
-0.5193798542022705 0.08527135848999023 0.6502599716186523
-0.5193798542022705 0.08527135848999023 0.7147582173347473
-0.5193798542022705 0.08527135848999023 0.7412548065185547
-0.5193798542022705 0.08527135848999023 0.8862507343292236
-0.5193798542022705 0.08527135848999023 0.8970203995704651
-0.5193798542022705 0.10077524185180664 -0.9914250373840332
-0.5193798542022705 0.10077524185180664 -0.9760619401931763
-0.5193798542022705 0.10077524185180664 0.627338171005249
-0.5193798542022705 0.10077524185180664 0.6621949076652527
-0.5193798542022705 0.10077524930238724 0.7076206207275391
-0.5193798542022705 0.10077524185180664 0.7421890497207642
-0.5193798542022705 0.10077524185180664 0.8870590925216675
-0.5193798542022705 0.10077524185180664 0.8961148262023926
-0.5193798542022705 0.11627912521362305 -0.9914634823799133
-0.5193798542022705 0.11627912521362305 -0.976115345954895
-0.5193798542022705 0.11627912521362305 0.6244109272956848
-0.5193798542022705 0.11627912521362305 0.6756116151809692
-0.5193798542022705 0.11627912521362305 0.6990198493003845
-0.5193798542022705 0.11627912521362305 0.741748571395874
-0.5193798542022705 0.11627912521362305 0.8873144388198853
-0.5193798542022705 0.11627912521362305 0.8953655958175659
-0.5193798542022705 0.1317828893661499 -0.9914976954460144
-0.5193798542022705 0.1317828893661499 -0.9764139652252197
-0.5193798542022705 0.1317828893661499 0.6207312345504761
-0.5193798542022705 0.1317828893661499 0.740586519241333
-0.5193798542022705 0.1317828893661499 0.8261263966560364
-0.5193798542022705 0.1317828893661499 0.8305574655532837
-0.5193798542022705 0.1317828893661499 0.8872424960136414
-0.5193798542022705 0.1317828893661499 0.8952138423919678
-0.5193798542022705 0.1472867727279663 -0.9915085434913635
-0.5193798542022705 0.1472867727279663 -0.9768046140670776
-0.5193798542022705 0.1472867727279663 0.6168926358222961
-0.5193798542022705 0.1472867727279663 0.7398898601531982
-0.5193798542022705 0.1472867727279663 0.818462073802948
-0.5193798542022705 0.1472867727279663 0.8332648277282715
-0.5193798542022705 0.1472867727279663 0.8868532180786133
-0.5193798542022705 0.1472867727279663 0.8953197002410889
-0.5193798542022705 0.16279065608978271 -0.9912213683128357
-0.5193798542022705 0.16279065608978271 -0.9774173498153687
-0.5193798542022705 0.16279064118862152 0.6139577031135559
-0.5193798542022705 0.16279065608978271 0.7394065260887146
-0.5193798542022705 0.16279065608978271 0.8138154745101929
-0.5193798542022705 0.16279065608978271 0.8344635963439941
-0.5193798542022705 0.16279065608978271 0.8867006301879883
-0.5193798542022705 0.16279065608978271 0.8951469659805298
-0.5193798542022705 0.17829453945159912 0.6142618656158447
-0.5193798542022705 0.17829453945159912 0.7382909655570984
-0.5193798542022705 0.17829452455043793 0.8176526427268982
-0.5193798542022705 0.17829453945159912 0.8330405354499817
-0.5193798542022705 0.17829453945159912 0.8876835107803345
-0.5193798542022705 0.17829453945159912 0.8942407369613647
-0.5193798542022705 0.19379842281341553 0.6187461614608765
-0.5193798542022705 0.19379842281341553 0.7365893721580505
-0.5193798542022705 0.19379842281341553 0.8900846838951111
-0.5193798542022705 0.19379842281341553 0.8923845291137695
-0.5193798542022705 0.20930230617523193 0.62490314245224
-0.5193798542022705 0.20930230617523193 0.6818290948867798
-0.5193798542022705 0.22480618953704834 0.45433661341667175
-0.5193798542022705 0.22480618953704834 0.47450241446495056
-0.5193798542022705 0.22480618953704834 0.6391983032226562
-0.5193798542022705 0.22480618953704834 0.6728244423866272
-0.5193798542022705 0.24031007289886475 0.454435795545578
-0.5193798542022705 0.24031007289886475 0.4748617112636566
-0.5193798542022705 0.41085267066955566 0.7664572596549988
-0.5193798542022705 0.41085267066955566 0.7986677289009094
-0.5193798542022705 0.42635655403137207 0.7595643997192383
-0.5193798542022705 0.42635655403137207 0.798734724521637
-0.5193798542022705 0.4418604373931885 0.7502987384796143
-0.5193798542022705 0.4418604373931885 0.7903528809547424
-0.5193798542022705 0.4573643207550049 0.744343638420105
-0.5193798542022705 0.4573643207550049 0.7845043540000916
-0.5193798542022705 0.4728682041168213 0.735663652420044
-0.5193798542022705 0.4728682041168213 0.7746533155441284
-0.5193798542022705 0.4883720874786377 0.7333322167396545
-0.5193798542022705 0.4883720874786377 0.7687057852745056
-0.5193798542022705 0.5038759708404541 0.7325414419174194
-0.5193798542022705 0.5038759708404541 0.7603515982627869
-0.5193798542022705 0.5193798542022705 0.7328996062278748
-0.5193798542022705 0.5193798542022705 0.7556775212287903
-0.5193798542022705 0.5348837375640869 0.7341744899749756
-0.5193798542022705 0.5348837375640869 0.7477052807807922
-0.5038759708404541 -0.6434109210968018 0.6426531672477722
-0.5038759708404541 -0.643410861492157 0.6472829580307007
-0.5038759708404541 -0.6279069781303406 0.6382236480712891
-0.5038759708404541 -0.6279069781303406 0.6618379354476929
-0.5038759708404541 -0.6124030351638794 0.6346819400787354
-0.5038759708404541 -0.6124030947685242 0.6720407009124756
-0.5038759708404541 -0.5968992114067078 0.6277232766151428
-0.5038759708404541 -0.5968992710113525 0.6813148260116577
-0.5038759708404541 -0.5813953876495361 0.6271838545799255
-0.5038759708404541 -0.5813953876495361 0.6924782991409302
-0.5038759708404541 -0.5658915042877197 0.62694251537323
-0.5038759708404541 -0.5658915042877197 0.6960866451263428
-0.5038759708404541 -0.5503876209259033 0.6269116997718811
-0.5038759708404541 -0.5503876209259033 0.692026674747467
-0.5038759708404541 -0.5348837375640869 0.14355161786079407
-0.5038759708404541 -0.5348837375640869 0.15388083457946777
-0.5038759708404541 -0.5348837375640869 0.6270561814308167
-0.5038759708404541 -0.5348837375640869 0.6778175234794617
-0.5038759708404541 -0.5193798542022705 0.1445496380329132
-0.5038759708404541 -0.5193798542022705 0.16313430666923523
-0.5038759708404541 -0.5193798542022705 0.6272093057632446
-0.5038759708404541 -0.5193798542022705 0.671227753162384
-0.5038759708404541 -0.5038759708404541 0.14493830502033234
-0.5038759708404541 -0.5038759708404541 0.16506312787532806
-0.5038759708404541 -0.5038759708404541 0.6273820400238037
-0.5038759708404541 -0.5038759708404541 0.6653820276260376
-0.5038759708404541 -0.4883720874786377 0.14467021822929382
-0.5038759708404541 -0.4883720874786377 0.16747859120368958
-0.5038759708404541 -0.4883720874786377 0.6274434924125671
-0.5038759708404541 -0.4883720874786377 0.6633135080337524
-0.5038759708404541 -0.4728682041168213 0.1442563682794571
-0.5038759708404541 -0.4728682041168213 0.1747969686985016
-0.5038759708404541 -0.4728682041168213 0.6273958086967468
-0.5038759708404541 -0.4728682041168213 0.6627031564712524
-0.5038759708404541 -0.4573643207550049 0.1441463977098465
-0.5038759708404541 -0.4573643207550049 0.1809723973274231
-0.5038759708404541 -0.4573643207550049 0.627271294593811
-0.5038759708404541 -0.4573643207550049 0.662596583366394
-0.5038759708404541 -0.4418604373931885 0.1446380615234375
-0.5038759708404541 -0.4418604373931885 0.18712502717971802
-0.5038759708404541 -0.4418604373931885 0.6273472309112549
-0.5038759708404541 -0.4418604373931885 0.6627562642097473
-0.5038759708404541 -0.42635661363601685 0.14541397988796234
-0.5038759708404541 -0.42635661363601685 0.19657140970230103
-0.5038759708404541 -0.42635661363601685 0.6274435520172119
-0.5038759708404541 -0.42635661363601685 0.6633744239807129
-0.5038759708404541 -0.41085273027420044 0.1464543342590332
-0.5038759708404541 -0.41085273027420044 0.20547270774841309
-0.5038759708404541 -0.41085273027420044 0.6275505423545837
-0.5038759708404541 -0.41085273027420044 0.6642695665359497
-0.5038759708404541 -0.39534884691238403 0.15137708187103271
-0.5038759708404541 -0.39534884691238403 0.21345138549804688
-0.5038759708404541 -0.39534884691238403 0.43131956458091736
-0.5038759708404541 -0.39534884691238403 0.45758986473083496
-0.5038759708404541 -0.39534884691238403 0.6300196051597595
-0.5038759708404541 -0.39534884691238403 0.6646772623062134
-0.5038759708404541 -0.3798449635505676 0.15828633308410645
-0.5038759708404541 -0.3798449635505676 0.22287380695343018
-0.5038759708404541 -0.3798449635505676 0.4203557074069977
-0.5038759708404541 -0.3798449635505676 0.4601100981235504
-0.5038759708404541 -0.3798449635505676 0.6350082755088806
-0.5038759708404541 -0.3798449635505676 0.664032518863678
-0.5038759708404541 -0.3798449635505676 0.7136629819869995
-0.5038759708404541 -0.3798449635505676 0.7251951098442078
-0.5038759708404541 -0.3643410801887512 0.1618330180644989
-0.5038759708404541 -0.3643410801887512 0.23106437921524048
-0.5038759708404541 -0.3643410801887512 0.40847906470298767
-0.5038759708404541 -0.3643410801887512 0.46224766969680786
-0.5038759708404541 -0.3643410801887512 0.6384451985359192
-0.5038759708404541 -0.3643410801887512 0.6619689464569092
-0.5038759708404541 -0.3643411099910736 0.7097011804580688
-0.5038759708404541 -0.3643410801887512 0.7366253733634949
-0.5038759708404541 -0.3488371968269348 0.1706315577030182
-0.5038759708404541 -0.3488371968269348 0.2421393096446991
-0.5038759708404541 -0.3488371968269348 0.4022970497608185
-0.5038759708404541 -0.3488371968269348 0.4630507826805115
-0.5038759708404541 -0.3488371968269348 0.6417518258094788
-0.5038759708404541 -0.3488371968269348 0.6552001237869263
-0.5038759708404541 -0.3488371968269348 0.7088685631752014
-0.5038759708404541 -0.3488371968269348 0.7384006381034851
-0.5038759708404541 -0.3333333134651184 0.1773272156715393
-0.5038759708404541 -0.3333333134651184 0.25006937980651855
-0.5038759708404541 -0.333333283662796 0.3972545564174652
-0.5038759708404541 -0.3333333134651184 0.46257370710372925
-0.5038759708404541 -0.3333333134651184 0.7080327868461609
-0.5038759708404541 -0.3333333134651184 0.7394660115242004
-0.5038759708404541 -0.317829430103302 0.19001811742782593
-0.5038759708404541 -0.317829430103302 0.2572964131832123
-0.5038759708404541 -0.317829430103302 0.3938363492488861
-0.5038759708404541 -0.317829430103302 0.462264746427536
-0.5038759708404541 -0.317829430103302 0.7062554955482483
-0.5038759708404541 -0.317829430103302 0.741254448890686
-0.5038759708404541 -0.30232560634613037 0.20786775648593903
-0.5038759708404541 -0.30232560634613037 0.26047953963279724
-0.5038759708404541 -0.30232560634613037 0.3880032002925873
-0.5038759708404541 -0.30232560634613037 0.46100032329559326
-0.5038759708404541 -0.30232560634613037 0.7049152851104736
-0.5038759708404541 -0.30232560634613037 0.7449723482131958
-0.5038759708404541 -0.28682172298431396 0.2238539308309555
-0.5038759708404541 -0.28682172298431396 0.26724380254745483
-0.5038759708404541 -0.28682172298431396 0.3785519301891327
-0.5038759708404541 -0.28682172298431396 0.4596359431743622
-0.5038759708404541 -0.28682172298431396 0.7043561935424805
-0.5038759708404541 -0.28682172298431396 0.7511894702911377
-0.5038759708404541 -0.27131783962249756 0.23441679775714874
-0.5038759708404541 -0.27131783962249756 0.27521201968193054
-0.5038759708404541 -0.27131783962249756 0.3750932216644287
-0.5038759708404541 -0.27131783962249756 0.45766013860702515
-0.5038759708404541 -0.27131783962249756 0.7034686207771301
-0.5038759708404541 -0.27131783962249756 0.7526404857635498
-0.5038759708404541 -0.25581395626068115 0.23878175020217896
-0.5038759708404541 -0.25581395626068115 0.28738316893577576
-0.5038759708404541 -0.25581395626068115 0.36428317427635193
-0.5038759708404541 -0.25581395626068115 0.44855648279190063
-0.5038759708404541 -0.25581395626068115 0.702847957611084
-0.5038759708404541 -0.25581395626068115 0.7529306411743164
-0.5038759708404541 -0.24031007289886475 0.24278542399406433
-0.5038759708404541 -0.24031007289886475 0.29952719807624817
-0.5038759708404541 -0.24031007289886475 0.360414057970047
-0.5038759708404541 -0.24031007289886475 0.4390789270401001
-0.5038759708404541 -0.24031007289886475 0.7018281817436218
-0.5038759708404541 -0.24031007289886475 0.7529978156089783
-0.5038759708404541 -0.22480618953704834 -0.9891542792320251
-0.5038759708404541 -0.22480618953704834 -0.9797030687332153
-0.5038759708404541 -0.22480618953704834 0.2429400384426117
-0.5038759708404541 -0.22480618953704834 0.32046496868133545
-0.5038759708404541 -0.22480618953704834 0.3576970100402832
-0.5038759708404541 -0.22480618953704834 0.4264202415943146
-0.5038759708404541 -0.22480618953704834 0.700524091720581
-0.5038759708404541 -0.22480618953704834 0.7530418634414673
-0.5038759708404541 -0.20930230617523193 -0.9908498525619507
-0.5038759708404541 -0.20930230617523193 -0.977758526802063
-0.5038759708404541 -0.20930230617523193 0.23768040537834167
-0.5038759708404541 -0.20930229127407074 0.3357859253883362
-0.5038759708404541 -0.20930230617523193 0.3676357567310333
-0.5038759708404541 -0.20930230617523193 0.4122094511985779
-0.5038759708404541 -0.20930230617523193 0.6993022561073303
-0.5038759708404541 -0.20930230617523193 0.7530114650726318
-0.5038759708404541 -0.19379842281341553 -0.9911145567893982
-0.5038759708404541 -0.19379842281341553 -0.9770762920379639
-0.5038759708404541 -0.19379842281341553 0.22025924921035767
-0.5038759708404541 -0.19379842281341553 0.34416499733924866
-0.5038759708404541 -0.19379842281341553 0.6990207433700562
-0.5038759708404541 -0.19379842281341553 0.7527130246162415
-0.5038759708404541 -0.1782945990562439 -0.9911686778068542
-0.5038759708404541 -0.1782945990562439 -0.9765018820762634
-0.5038759708404541 -0.1782945990562439 0.19725510478019714
-0.5038759708404541 -0.1782945990562439 0.35749709606170654
-0.5038759708404541 -0.1782945990562439 0.6306605935096741
-0.5038759708404541 -0.1782945841550827 0.6459833383560181
-0.5038759708404541 -0.1782945990562439 0.70024174451828
-0.5038759708404541 -0.1782945990562439 0.7521689534187317
-0.5038759708404541 -0.1627907156944275 -0.9911704659461975
-0.5038759708404541 -0.1627907156944275 -0.9759222865104675
-0.5038759708404541 -0.1627907156944275 0.18883317708969116
-0.5038759708404541 -0.1627907156944275 0.3740202784538269
-0.5038759708404541 -0.1627907156944275 0.6247010231018066
-0.5038759708404541 -0.1627907156944275 0.6470935344696045
-0.5038759708404541 -0.1627907156944275 0.7021931409835815
-0.5038759708404541 -0.1627907156944275 0.7482100129127502
-0.5038759708404541 -0.14728683233261108 -0.9911395311355591
-0.5038759708404541 -0.14728683233261108 -0.9754079580307007
-0.5038759708404541 -0.14728683233261108 0.18455329537391663
-0.5038759708404541 -0.14728683233261108 0.38238441944122314
-0.5038759708404541 -0.14728683233261108 0.6202824115753174
-0.5038759708404541 -0.14728683233261108 0.6470463871955872
-0.5038759708404541 -0.14728683233261108 0.7041888236999512
-0.5038759708404541 -0.14728683233261108 0.7437395453453064
-0.5038759708404541 -0.13178294897079468 -0.9910956621170044
-0.5038759708404541 -0.13178294897079468 -0.9748717546463013
-0.5038759708404541 -0.13178294897079468 0.18118491768836975
-0.5038759708404541 -0.13178294897079468 0.3885185122489929
-0.5038759708404541 -0.13178294897079468 0.614580512046814
-0.5038759708404541 -0.13178294897079468 0.6461992263793945
-0.5038759708404541 -0.13178294897079468 0.7096254229545593
-0.5038759708404541 -0.13178294897079468 0.7408748865127563
-0.5038759708404541 -0.11627906560897827 -0.991051435470581
-0.5038759708404541 -0.11627906560897827 -0.9742950201034546
-0.5038759708404541 -0.11627906560897827 0.18189871311187744
-0.5038759708404541 -0.11627906560897827 0.3948069214820862
-0.5038759708404541 -0.11627906560897827 0.6115276217460632
-0.5038759708404541 -0.11627907305955887 0.6457229256629944
-0.5038759708404541 -0.11627906560897827 0.7163163423538208
-0.5038759708404541 -0.11627906560897827 0.7389283180236816
-0.5038759708404541 -0.10077518224716187 -0.9910260438919067
-0.5038759708404541 -0.10077518224716187 -0.9735726118087769
-0.5038759708404541 -0.10077518224716187 0.18892443180084229
-0.5038759708404541 -0.10077518224716187 0.40052688121795654
-0.5038759708404541 -0.10077518224716187 0.6100688576698303
-0.5038759708404541 -0.10077518224716187 0.6460148096084595
-0.5038759708404541 -0.10077518224716187 0.7191175222396851
-0.5038759708404541 -0.10077518224716187 0.7374417781829834
-0.5038759708404541 -0.08527129888534546 -0.9910056591033936
-0.5038759708404541 -0.08527129888534546 -0.9728045463562012
-0.5038759708404541 -0.08527129888534546 0.20401892066001892
-0.5038759708404541 -0.08527129888534546 0.41183462738990784
-0.5038759708404541 -0.08527129888534546 0.6072889566421509
-0.5038759708404541 -0.08527130633592606 0.6471996307373047
-0.5038759708404541 -0.06976741552352905 -0.9910865426063538
-0.5038759708404541 -0.06976741552352905 -0.9723823666572571
-0.5038759708404541 -0.06976741552352905 0.23083056509494781
-0.5038759708404541 -0.06976741552352905 0.42447593808174133
-0.5038759708404541 -0.06976741552352905 0.6031727194786072
-0.5038759708404541 -0.06976741552352905 0.6484992504119873
-0.5038759708404541 -0.05426359176635742 -0.9912806749343872
-0.5038759708404541 -0.05426359176635742 -0.9727457761764526
-0.5038759708404541 -0.05426359176635742 0.24991433322429657
-0.5038759708404541 -0.05426359176635742 0.432468056678772
-0.5038759708404541 -0.05426359176635742 0.6003752946853638
-0.5038759708404541 -0.05426359176635742 0.6500369310379028
-0.5038759708404541 -0.05426359176635742 0.8743261098861694
-0.5038759708404541 -0.05426359176635742 0.8820536136627197
-0.5038759708404541 -0.038759708404541016 -0.991497814655304
-0.5038759708404541 -0.038759708404541016 -0.9739646911621094
-0.5038759708404541 -0.038759708404541016 0.26739391684532166
-0.5038759708404541 -0.038759708404541016 0.4358986020088196
-0.5038759708404541 -0.038759708404541016 0.6011459827423096
-0.5038759708404541 -0.038759708404541016 0.6514347791671753
