0.007751941680908203 -0.317829430103302 0.3534916937351227
0.007751941680908203 -0.317829430103302 0.5007374882698059
0.007751941680908203 -0.317829430103302 0.9242058396339417
0.007751941680908203 -0.30232560634613037 -0.11197353899478912
0.007751941680908203 -0.30232560634613037 -0.09048688411712646
0.007751941680908203 -0.30232560634613037 0.030781090259552002
0.007751941680908203 -0.30232560634613037 0.2644675374031067
0.007751941680908203 -0.30232560634613037 0.2770417630672455
0.007751941680908203 -0.30232560634613037 0.35839006304740906
0.007751941680908203 -0.30232560634613037 0.49838289618492126
0.007751941680908203 -0.30232560634613037 0.9252759218215942
0.007751941680908203 -0.28682172298431396 -0.11810077726840973
0.007751941680908203 -0.28682172298431396 -0.08381802588701248
0.007751941680908203 -0.28682172298431396 0.029102671891450882
0.007751941680908203 -0.28682172298431396 0.36448007822036743
0.007751941680908203 -0.28682172298431396 0.40891820192337036
0.007751941215246916 -0.2868216931819916 0.411551296710968
0.007751941680908203 -0.28682172298431396 0.4919748604297638
0.007751941680908203 -0.28682172298431396 0.9258484840393066
0.007751941680908203 -0.27131783962249756 -0.12152565270662308
0.007751941680908203 -0.27131783962249756 -0.0811416357755661
0.007751941680908203 -0.27131783962249756 0.023718424141407013
0.007751941680908203 -0.27131783962249756 0.36894917488098145
0.007751941680908203 -0.27131783962249756 0.3935515880584717
0.007751941680908203 -0.27131783962249756 0.419315367937088
0.007751941680908203 -0.27131783962249756 0.48691681027412415
0.007751941680908203 -0.27131783962249756 0.9257900714874268
0.007751941680908203 -0.25581395626068115 -0.1274619847536087
0.007751941680908203 -0.25581395626068115 -0.07772725820541382
0.007751941680908203 -0.25581395626068115 0.017971467226743698
0.007751941680908203 -0.25581395626068115 0.3723503351211548
0.007751941680908203 -0.25581395626068115 0.3860151767730713
0.007751941680908203 -0.25581395626068115 0.4284738600254059
0.007751941680908203 -0.25581395626068115 0.482433557510376
0.007751941680908203 -0.25581395626068115 0.9256240725517273
0.007751941680908203 -0.24031007289886475 -0.13293620944023132
0.007751941680908203 -0.24031007289886475 -0.07280424237251282
0.007751941680908203 -0.24031007289886475 0.013374065980315208
0.007751941680908203 -0.24031007289886475 0.3762427270412445
0.007751941680908203 -0.24031007289886475 0.38190823793411255
0.007751941215246916 -0.24031005799770355 0.43353092670440674
0.00775194214656949 -0.24031007289886475 0.4735684394836426
0.007751941680908203 -0.24031007289886475 0.9257228374481201
0.007751941680908203 -0.22480618953704834 -0.1345466673374176
0.007751941680908203 -0.22480617463588715 -0.06925433874130249
0.007751941680908203 -0.22480618953704834 0.01051970012485981
0.007751941680908203 -0.22480618953704834 0.44169947504997253
0.007751941680908203 -0.22480618953704834 0.46648257970809937
0.007751941680908203 -0.22480618953704834 0.9267019033432007
0.007751941680908203 -0.20930230617523193 -0.1362028568983078
0.007751941680908203 -0.20930230617523193 -0.06821753084659576
0.007751941680908203 -0.20930230617523193 0.008758964017033577
0.00775194214656949 -0.20930230617523193 0.9284203052520752
0.007751941680908203 -0.19379842281341553 -0.1380212903022766
0.007751941680908203 -0.19379843771457672 -0.06708361953496933
0.007751941680908203 -0.19379842281341553 0.006951630115509033
0.007751941680908203 -0.19379842281341553 0.9304651021957397
0.007751941680908203 -0.1782945990562439 -0.13856250047683716
0.007751941680908203 -0.1782945990562439 -0.0666888877749443
0.007751941680908203 -0.1782945990562439 0.0055363718420267105
0.007751941680908203 -0.1782945990562439 0.9327861070632935
0.007751941680908203 -0.1627907156944275 -0.990139365196228
0.00775194214656949 -0.1627907156944275 -0.9678024649620056
0.007751941680908203 -0.1627907156944275 -0.13726583123207092
0.007751941680908203 -0.1627907156944275 -0.0672360211610794
0.007751941680908203 -0.1627907156944275 0.0028506501112133265
0.007751941680908203 -0.1627907156944275 0.9355177283287048
0.007751941680908203 -0.14728683233261108 -0.9915128946304321
0.007751941215246916 -0.14728683233261108 -0.9375562071800232
0.007751941680908203 -0.14728683233261108 -0.35079288482666016
0.007751941680908203 -0.14728683233261108 -0.32673197984695435
0.007751941680908203 -0.14728683233261108 -0.1353181153535843
0.007751941680908203 -0.1472868174314499 -0.06793618202209473
0.00775194214656949 -0.14728683233261108 -0.0032251044176518917
0.007751941680908203 -0.14728683233261108 0.9380694627761841
0.007751941680908203 -0.13178294897079468 -0.9917314052581787
0.007751941680908203 -0.13178294897079468 -0.8916338682174683
0.007751941680908203 -0.13178294897079468 -0.3650451898574829
0.007751941680908203 -0.13178294897079468 -0.31154385209083557
0.007751941680908203 -0.13178294897079468 -0.13330091536045074
0.007751941680908203 -0.13178294897079468 -0.07035434991121292
0.007751941680908203 -0.13178294897079468 -0.041378408670425415
0.007751941680908203 -0.13178294897079468 0.9393896460533142
0.007751941680908203 -0.11627906560897827 -0.9917832016944885
0.007751941680908203 -0.11627906560897827 -0.6781271696090698
0.007751941680908203 -0.11627906560897827 -0.3696671724319458
0.007751941680908203 -0.11627906560897827 -0.2945748567581177
0.007751941680908203 -0.11627906560897827 -0.1318039745092392
0.007751941680908203 -0.11627906560897827 -0.07144626975059509
0.007751941680908203 -0.11627906560897827 -0.048237740993499756
0.007751941680908203 -0.11627906560897827 0.9412212371826172
0.007751941680908203 -0.10077518224716187 -0.9917879700660706
0.007751941680908203 -0.10077518224716187 -0.6106351017951965
0.007751941680908203 -0.10077518224716187 -0.38071349263191223
0.007751941680908203 -0.10077518224716187 -0.27311092615127563
0.007751941680908203 -0.10077518224716187 -0.1324211210012436
0.007751941680908203 -0.10077517479658127 0.9426373243331909
0.007751941680908203 -0.08527129888534546 -0.9917393326759338
0.007751941680908203 -0.08527129888534546 -0.5349901914596558
0.007751941215246916 -0.08527129888534546 -0.3907245099544525
0.007751941680908203 -0.08527129888534546 -0.24356627464294434
0.00775194214656949 -0.08527129888534546 -0.2028336524963379
0.007751941215246916 -0.08527129888534546 0.9432233572006226
0.007751941680908203 -0.06976741552352905 -0.9916455149650574
0.007751941680908203 -0.06976741552352905 -0.4951755404472351
0.007751941680908203 -0.06976741552352905 -0.4132439196109772
0.007751941680908203 -0.06976741552352905 0.943528950214386
0.007751941680908203 -0.05426359176635742 -0.9914844036102295
0.007751941680908203 -0.05426359176635742 0.9427900314331055
0.007751941680908203 -0.038759708404541016 -0.9911998510360718
0.007751941680908203 -0.038759712129831314 0.9409354329109192
0.007751941680908203 -0.02325582504272461 -0.9907631874084473
0.007751941680908203 -0.02325582504272461 0.9385232925415039
0.007751941680908203 -0.007751941680908203 -0.9903404712677002
0.007751941680908203 -0.007751941680908203 0.9357271194458008
0.007751941680908203 0.007751941680908203 -0.9903879165649414
0.007751941680908203 0.007751941680908203 0.9336646795272827
0.007751941680908203 0.02325582504272461 -0.9911715388298035
0.007751941680908203 0.02325582504272461 -0.6298919916152954
0.007751941680908203 0.02325582504272461 -0.45618343353271484
0.007751941680908203 0.02325582504272461 0.36679670214653015
0.007751941680908203 0.02325582504272461 0.38329505920410156
0.007751941680908203 0.02325582504272461 0.9317938685417175
0.007751941680908203 0.038759708404541016 -0.9911592602729797
0.007751941680908203 0.038759708404541016 -0.9095271229743958
0.007751941680908203 0.038759708404541016 -0.3731985092163086
0.007751941680908203 0.038759708404541016 0.36132943630218506
0.007751941680908203 0.038759708404541016 0.3863829970359802
0.007751941680908203 0.038759708404541016 0.9304983615875244
0.007751941680908203 0.05426359176635742 -0.2977031469345093
0.007751941680908203 0.05426359176635742 0.35955810546875
0.007751941680908203 0.05426359176635742 0.3877636194229126
0.007751941680908203 0.05426359176635742 0.9283552169799805
0.007751941680908203 0.06976747512817383 -0.2380642294883728
0.007751941680908203 0.06976747512817383 0.36105847358703613
0.007751941680908203 0.06976747512817383 0.3865479826927185
0.007751941215246916 0.06976747512817383 0.9238635897636414
0.007751941680908203 0.08527135848999023 -0.22506599128246307
0.007751941680908203 0.08527135848999023 0.3671697974205017
0.007751941680908203 0.08527135848999023 0.3832864761352539
0.007751941680908203 0.08527135848999023 0.9178467988967896
0.00775194214656949 0.10077524185180664 -0.22441831231117249
0.007751941680908203 0.10077524185180664 0.9135835766792297
0.007751941680908203 0.11627912521362305 -0.21799519658088684
0.007751941680908203 0.11627912521362305 -0.07111384719610214
0.00775194214656949 0.11627912521362305 -0.05301029607653618
0.007751941680908203 0.11627912521362305 0.9064969420433044
0.007751941680908203 0.1317828893661499 -0.20579567551612854
0.007751941680908203 0.1317828893661499 -0.06379751861095428
0.007751941680908203 0.1317828893661499 -0.051591042429208755
0.007751941680908203 0.1317828893661499 0.9003264307975769
0.007751941680908203 0.1472867727279663 -0.15782397985458374
0.007751941680908203 0.1472867727279663 -0.06422501802444458
0.007751941680908203 0.1472867727279663 -0.04956740885972977
0.007751941680908203 0.1472867727279663 0.8950053453445435
0.007751941680908203 0.16279065608978271 -0.12643954157829285
0.007751941680908203 0.16279065608978271 -0.07201573997735977
0.007751941680908203 0.16279065608978271 -0.044519416987895966
0.007751941680908203 0.16279065608978271 0.8902817964553833
0.007751941680908203 0.17829453945159912 -0.11646337807178497
0.007751941680908203 0.17829453945159912 -0.07945552468299866
0.007751941680908203 0.17829453945159912 -0.03786223754286766
0.007751941680908203 0.17829453945159912 0.524312436580658
0.007751941680908203 0.17829453945159912 0.5387179255485535
0.007751941680908203 0.17829453945159912 0.8843598365783691
0.007751941680908203 0.19379842281341553 -0.023429658263921738
0.007751941680908203 0.19379842281341553 0.3617757558822632
0.007751941680908203 0.19379842281341553 0.38842639327049255
0.007751941680908203 0.19379842281341553 0.5120179653167725
0.007751941680908203 0.19379842281341553 0.5489740371704102
0.007751941680908203 0.19379843771457672 0.736781656742096
0.007751941680908203 0.19379842281341553 0.7623170018196106
0.007751941680908203 0.19379842281341553 0.8794498443603516
0.007751941680908203 0.20930230617523193 -0.009360828436911106
0.007751941680908203 0.20930230617523193 0.3535701036453247
0.007751941680908203 0.20930230617523193 0.3984665870666504
0.00775194214656949 0.20930230617523193 0.44825029373168945
0.007751941680908203 0.20930230617523193 0.4802734851837158
0.007751941680908203 0.20930230617523193 0.5051496624946594
0.007751941680908203 0.20930230617523193 0.5546637177467346
0.007751941680908203 0.20930230617523193 0.7222966551780701
0.00775194214656949 0.20930230617523193 0.7723580598831177
0.007751941680908203 0.20930230617523193 0.8751086592674255
0.007751941680908203 0.22480618953704834 -0.0011987360194325447
0.007751941680908203 0.22480618953704834 0.14522045850753784
0.007751941680908203 0.22480618953704834 0.14915154874324799
0.007751941680908203 0.22480618953704834 0.345796674489975
0.007751941680908203 0.22480618953704834 0.4065590798854828
0.007751941680908203 0.22480618953704834 0.4383169412612915
0.007751941680908203 0.22480618953704834 0.5567456483840942
0.007751941680908203 0.22480618953704834 0.7059104442596436
0.007751941680908203 0.22480618953704834 0.7776921987533569
0.007751941680908203 0.22480618953704834 0.8665428161621094
0.007751941680908203 0.24031007289886475 0.005838658660650253
0.007751941680908203 0.24031007289886475 0.1292455941438675
0.007751941215246916 0.24031005799770355 0.16588018834590912
0.007751941680908203 0.24031007289886475 0.26287925243377686
0.007751941680908203 0.24031007289886475 0.2800346910953522
0.007751941680908203 0.24031007289886475 0.3397015333175659
0.007751941680908203 0.24031007289886475 0.4096369743347168
0.007751941680908203 0.24031007289886475 0.4328746199607849
0.00775194214656949 0.24031008780002594 0.5566530227661133
0.007751941680908203 0.24031007289886475 0.6753105521202087
0.007751941680908203 0.24031007289886475 0.7806926965713501
0.007751941680908203 0.24031007289886475 0.8584112524986267
0.007751941680908203 0.25581395626068115 0.013280471786856651
0.007751941680908203 0.25581395626068115 0.12587346136569977
0.007751941680908203 0.25581395626068115 0.17380882799625397
0.00775194214656949 0.25581395626068115 0.24621640145778656
0.007751941680908203 0.25581395626068115 0.293330579996109
0.007751941215246916 0.25581395626068115 0.33609458804130554
0.007751941680908203 0.25581395626068115 0.410208523273468
0.00775194214656949 0.25581395626068115 0.43081676959991455
0.007751941680908203 0.25581395626068115 0.5548156499862671
0.007751941680908203 0.25581395626068115 0.6613555550575256
0.007751941680908203 0.25581395626068115 0.7815925478935242
0.007751941680908203 0.25581395626068115 0.8434388637542725
0.007751941680908203 0.27131783962249756 0.017681820318102837
0.007751941680908203 0.27131783962249756 0.12576761841773987
0.007751941680908203 0.27131783962249756 0.1817013919353485
0.007751941680908203 0.27131783962249756 0.2309979945421219
0.007751941680908203 0.27131783962249756 0.2992578446865082
0.007751941680908203 0.27131783962249756 0.3337545394897461
0.007751941680908203 0.27131783962249756 0.4098966121673584
0.007751941680908203 0.27131783962249756 0.4299008846282959
0.007751941680908203 0.27131783962249756 0.5517905950546265
0.007751941680908203 0.27131783962249756 0.6482437252998352
0.007751941680908203 0.27131783962249756 0.7810890674591064
0.00775194214656949 0.27131783962249756 0.818555474281311
0.007751941680908203 0.28682172298431396 0.01951782964169979
0.007751941680908203 0.28682172298431396 0.1272428184747696
0.007751941680908203 0.28682172298431396 0.20438113808631897
0.007751941680908203 0.28682172298431396 0.21276670694351196
0.007751941680908203 0.28682172298431396 0.3039892911911011
0.007751941680908203 0.28682172298431396 0.32743707299232483
0.007751941680908203 0.28682172298431396 0.40973010659217834
0.007751941680908203 0.28682172298431396 0.42901623249053955
0.007751941680908203 0.28682172298431396 0.5499341487884521
0.007751941680908203 0.28682172298431396 0.6349707841873169
0.007751941680908203 0.28682172298431396 0.7821230888366699
0.007751941680908203 0.28682172298431396 0.787598192691803
0.007751941680908203 0.30232560634613037 0.020325912162661552
0.007751941680908203 0.30232560634613037 0.12858828902244568
0.007751941680908203 0.30232560634613037 0.3103712797164917
0.007751941215246916 0.30232560634613037 0.3214540481567383
0.007751941680908203 0.30232560634613037 0.41008591651916504
0.007751941680908203 0.30232560634613037 0.4280933737754822
0.00775194214656949 0.30232560634613037 0.5515595078468323
0.007751941680908203 0.30232560634613037 0.6210348606109619
0.007751941680908203 0.3178294897079468 0.01946374960243702
0.007751941680908203 0.3178294897079468 0.13178275525569916
0.007751941680908203 0.3178294897079468 0.3139973282814026
0.007751941680908203 0.3178294897079468 0.3188520669937134
0.007751941680908203 0.3178294897079468 0.4107084274291992
0.00775194214656949 0.3178294897079468 0.427681028842926
0.007751941680908203 0.3178294897079468 0.5600886344909668
0.007751941680908203 0.3178294897079468 0.5754890441894531
0.007751941680908203 0.3178294897079468 0.5880359411239624
0.007751941680908203 0.3178294897079468 0.5981115102767944
0.007751941680908203 0.3333333730697632 0.017951667308807373
0.007751941680908203 0.3333333730697632 0.1329626888036728
0.007751941680908203 0.3333333730697632 0.31765037775039673
0.00775194214656949 0.3333333730697632 0.3178548514842987
0.00775194214656949 0.3333333730697632 0.4166053533554077
0.007751941680908203 0.33333340287208557 0.42758363485336304
0.007751941680908203 0.3488372564315796 0.017042730003595352
0.007751941215246916 0.3488372564315796 0.13312791287899017
0.007751941680908203 0.3488372564315796 0.420234739780426
0.007751941680908203 0.3488372564315796 0.42754727602005005
0.007751941680908203 0.364341139793396 0.01739291474223137
0.007751941680908203 0.364341139793396 0.13320621848106384
0.007751941680908203 0.364341139793396 0.4196475148200989
0.007751941680908203 0.364341139793396 0.4281645715236664
0.007751941680908203 0.37984490394592285 0.02031034044921398
0.007751941680908203 0.37984490394592285 0.1334596872329712
0.007751941680908203 0.37984490394592285 0.4163883924484253
0.007751941680908203 0.37984490394592285 0.430118590593338
0.007751941680908203 0.39534878730773926 0.0320620983839035
0.007751941680908203 0.39534878730773926 0.04282385855913162
0.007751941680908203 0.39534878730773926 0.0645037367939949
0.007751941680908203 0.39534878730773926 0.13407844305038452
0.007751941680908203 0.39534878730773926 0.4106406569480896
0.007751941680908203 0.39534878730773926 0.43517524003982544
0.007751941680908203 0.41085267066955566 0.06796868145465851
0.007751941680908203 0.41085267066955566 0.13432526588439941
0.007751941680908203 0.41085267066955566 0.40882009267807007
0.007751941680908203 0.41085267066955566 0.4427280128002167
0.007751941680908203 0.42635655403137207 0.06858599185943604
0.00775194214656949 0.42635655403137207 0.13458096981048584
0.007751941680908203 0.42635655403137207 0.4059206247329712
0.007751941680908203 0.42635658383369446 0.4443451464176178
0.00775194214656949 0.4418604373931885 0.07007382065057755
0.007751941680908203 0.4418604373931885 0.13437078893184662
0.007751941680908203 0.4418604373931885 0.40219008922576904
0.007751941680908203 0.4418604373931885 0.4447665810585022
0.007751941680908203 0.4573643207550049 0.07438594847917557
0.007751941215246916 0.4573642909526825 0.13362304866313934
0.007751941680908203 0.4573643207550049 0.3989937901496887
0.007751941680908203 0.4573643207550049 0.4440135061740875
0.007751941680908203 0.4728682041168213 0.0776878297328949
0.007751941680908203 0.4728682041168213 0.13260367512702942
0.007751941680908203 0.4728681743144989 0.3983251452445984
0.007751941680908203 0.4728682041168213 0.44204649329185486
0.007751941680908203 0.4883720874786377 0.07973815500736237
0.007751941680908203 0.4883720874786377 0.1282321661710739
0.007751941680908203 0.4883720874786377 0.4010813236236572
0.007751941680908203 0.4883720874786377 0.4297395348548889
0.007751941680908203 0.5038759708404541 -0.10688139498233795
0.007751941215246916 0.5038759708404541 -0.08349481225013733
0.007751941680908203 0.5038759708404541 -0.009944331832230091
0.007751941680908203 0.5038759708404541 0.02848001942038536
0.007751941680908203 0.5038759708404541 0.07992778718471527
0.007751941680908203 0.5038759708404541 0.12482339143753052
0.007751941680908203 0.5038759708404541 0.408764123916626
0.007751941680908203 0.5038759708404541 0.41318193078041077
0.007751941680908203 0.5193798542022705 -0.11752402782440186
0.00775194214656949 0.5193798542022705 -0.07776808738708496
0.007751941680908203 0.5193798542022705 -0.024054348468780518
0.007751941680908203 0.5193798542022705 0.03576808050274849
0.007751941680908203 0.5193798542022705 0.07878893613815308
0.007751941680908203 0.5193798542022705 0.12372203171253204
0.007751941680908203 0.5348837375640869 -0.12146534025669098
0.007751941680908203 0.5348837375640869 -0.06972220540046692
0.007751941680908203 0.5348837375640869 -0.028021221980452538
0.007751941680908203 0.5348837375640869 0.03345742076635361
0.007751941680908203 0.5348837375640869 0.07823838293552399
0.007751941680908203 0.5348837375640869 0.1234457790851593
0.007751941680908203 0.5503876209259033 -0.12082594633102417
0.007751941680908203 0.5503876209259033 -0.06779344379901886
0.007751941680908203 0.5503876209259033 -0.029029324650764465
0.007751941680908203 0.5503876209259033 0.0246324110776186
0.007751941680908203 0.5503876209259033 0.08018592745065689
0.007751941680908203 0.5503876209259033 0.12351830303668976
0.007751941680908203 0.5658915042877197 -0.11685777455568314
0.007751941680908203 0.5658915042877197 -0.06863714009523392
0.007751941680908203 0.5658915042877197 -0.03170362487435341
0.007751941215246916 0.5658915042877197 0.009276163764297962
0.007751941215246916 0.5658915042877197 0.08929568529129028
0.007751941215246916 0.5658915042877197 0.12110203504562378
0.007751941680908203 0.5813953876495361 -0.1039598286151886
0.007751941680908203 0.5813953876495361 -0.06918934732675552
0.007751941680908203 0.5813953876495361 -0.041051026433706284
0.007751941680908203 0.5813953876495361 -0.000436130678281188
0.007751941215246916 0.5968992710113525 -0.09537021070718765
0.007751941680908203 0.5968992710113525 -0.06377364695072174
0.007751941680908203 0.5968992710113525 -0.051390502601861954
0.007751941680908203 0.5968992710113525 -0.004887529648840427
0.007751941680908203 0.612403154373169 -0.08880805969238281
0.007751941680908203 0.612403154373169 -0.0075326478108763695
0.007751941680908203 0.6279069185256958 -0.06634614616632462
0.007751941680908203 0.6279069185256958 -0.021601581946015358
0.007751941680908203 0.6434108018875122 -0.0617801696062088
0.007751941680908203 0.6434108018875122 -0.032330214977264404
0.007751941680908203 0.6589146852493286 -0.05768470838665962
0.007751941680908203 0.6589146852493286 -0.038141366094350815
0.02325582504272461 -0.7364341020584106 -0.021371642127633095
0.02325582504272461 -0.7364341020584106 0.014543863013386726
0.02325582504272461 -0.7209302186965942 -0.015606450848281384
0.02325582504272461 -0.7209301590919495 0.024407915771007538
0.02325582504272461 -0.7054263353347778 -0.008312905207276344
0.02325582504272461 -0.7054263353347778 0.029854614287614822
0.02325582504272461 -0.6899224519729614 0.0035216789692640305
0.02325582504272461 -0.6899224519729614 0.04112644121050835
0.02325582504272461 -0.674418568611145 0.007565098814666271
0.02325582504272461 -0.674418568611145 0.055487439036369324
0.02325582504272461 -0.674418568611145 0.1411115825176239
0.02325582504272461 -0.674418568611145 0.17116746306419373
0.02325582504272461 -0.6589146852493286 0.013659877702593803
0.02325582504272461 -0.6589146852493286 0.07718552649021149
0.02325582504272461 -0.6589146852493286 0.10548485815525055
0.02325582504272461 -0.6589146852493286 0.1989082247018814
0.02325582504272461 -0.6434108018875122 0.013784609735012054
0.02325582504272461 -0.643410861492157 0.22312982380390167
0.02325582504272461 -0.6434109210968018 0.31618282198905945
0.02325582504272461 -0.643410861492157 0.34757718443870544
0.02325582504272461 -0.6279069781303406 0.013382762670516968
0.02325582504272461 -0.6279069781303406 0.24035708606243134
0.02325582504272461 -0.6279069781303406 0.31324002146720886
0.02325582504272461 -0.6279069781303406 0.3534756600856781
0.02325582504272461 -0.6124030947685242 0.012460404075682163
0.02325582504272461 -0.6124030947685242 0.2428024262189865
0.02325582504272461 -0.6124030947685242 0.30723339319229126
0.02325582504272461 -0.6124030947685242 0.3575098514556885
0.02325582504272461 -0.5968992114067078 0.014336762949824333
0.02325582504272461 -0.5968992114067078 0.24388830363750458
0.02325582504272461 -0.5968992114067078 0.30265650153160095
0.02325582504272461 -0.5968992710113525 0.35336488485336304
0.02325582504272461 -0.5813953876495361 0.01630711369216442
0.02325582318007946 -0.5813953876495361 0.24485519528388977
0.02325582504272461 -0.5813953876495361 0.30696484446525574
0.02325582504272461 -0.5813953876495361 0.34956061840057373
0.02325582504272461 -0.5658915042877197 0.0172280240803957
0.02325582504272461 -0.5658915042877197 0.2459368109703064
0.02325582504272461 -0.5658915042877197 0.3121985197067261
0.02325582504272461 -0.5658915042877197 0.34145766496658325
0.02325582504272461 -0.5658915042877197 0.8000508546829224
0.02325582504272461 -0.5658915042877197 0.8275880813598633
0.02325582504272461 -0.5503876209259033 0.017500780522823334
0.02325582504272461 -0.5503876209259033 0.24720440804958344
0.02325582504272461 -0.5503876209259033 0.3152415156364441
0.02325582504272461 -0.5503876209259033 0.33720993995666504
0.02325582504272461 -0.5503876209259033 0.5137682557106018
0.02325582504272461 -0.5503876209259033 0.5289747714996338
0.02325582504272461 -0.5503876209259033 0.8027575016021729
0.02325582504272461 -0.5503876209259033 0.8361767530441284
0.02325582504272461 -0.5348837375640869 0.016739677637815475
0.02325582504272461 -0.5348837375640869 0.24850209057331085
0.02325582504272461 -0.5348837375640869 0.3157385587692261
0.02325582504272461 -0.5348837375640869 0.3369534909725189
0.02325582504272461 -0.5348837375640869 0.5152159929275513
0.02325582504272461 -0.5348837375640869 0.5395280122756958
0.02325582504272461 -0.5348837375640869 0.8040881156921387
0.02325582318007946 -0.5348837375640869 0.8451476097106934
0.02325582504272461 -0.5193798542022705 0.016531608998775482
0.02325582504272461 -0.5193798542022705 0.2502264976501465
0.02325582504272461 -0.5193798542022705 0.3133907914161682
0.02325582504272461 -0.5193798542022705 0.3397749066352844
0.02325582504272461 -0.5193798542022705 0.5180906057357788
0.02325582504272461 -0.5193798542022705 0.5453115105628967
0.02325582504272461 -0.5193798542022705 0.8047950267791748
0.02325582504272461 -0.5193798542022705 0.8507119417190552
0.02325582504272461 -0.5038759708404541 0.015978822484612465
0.02325582504272461 -0.5038759708404541 0.25203949213027954
0.02325582504272461 -0.5038759708404541 0.308607816696167
0.02325582504272461 -0.5038759708404541 0.34555625915527344
0.02325582504272461 -0.5038759708404541 0.5206692814826965
0.02325582504272461 -0.5038759708404541 0.5498919486999512
0.02325582504272461 -0.5038759708404541 0.5965501666069031
0.02325582504272461 -0.5038759708404541 0.59798264503479
0.02325582504272461 -0.5038759708404541 0.80588698387146
0.02325582504272461 -0.5038759708404541 0.8565996885299683
0.02325582504272461 -0.4883721172809601 -0.11157457530498505
0.02325582504272461 -0.4883720874786377 -0.08463475108146667
0.02325582504272461 -0.4883720874786377 0.015381766483187675
0.02325582504272461 -0.4883720874786377 0.25403299927711487
0.02325582504272461 -0.4883720874786377 0.30198776721954346
0.02325582504272461 -0.4883720874786377 0.3495241105556488
0.02325582690536976 -0.4883720874786377 0.5204220414161682
0.02325582504272461 -0.4883720874786377 0.5510908961296082
0.02325582504272461 -0.4883720874786377 0.5897858142852783
0.02325582504272461 -0.4883720874786377 0.6172373294830322
0.02325582504272461 -0.4883720874786377 0.807305634021759
0.02325582504272461 -0.4883720576763153 0.8638964295387268
0.02325582504272461 -0.4728682041168213 -0.11815837025642395
0.02325582504272461 -0.4728681743144989 -0.08369609713554382
0.02325582504272461 -0.4728682041168213 0.014991847798228264
0.02325582504272461 -0.4728682041168213 0.25586459040641785
0.02325582504272461 -0.4728682041168213 0.2994520664215088
0.02325582504272461 -0.4728682041168213 0.35072165727615356
0.02325582504272461 -0.4728682041168213 0.5182546377182007
0.02325582690536976 -0.4728682041168213 0.5517293214797974
0.02325582504272461 -0.4728682041168213 0.585343599319458
0.02325582504272461 -0.4728682041168213 0.6227420568466187
0.02325582504272461 -0.4728682041168213 0.6538175940513611
0.02325582504272461 -0.4728681743144989 0.6623539924621582
0.02325582504272461 -0.4728682041168213 0.8101258277893066
0.02325582504272461 -0.4728682041168213 0.8706458806991577
0.02325582504272461 -0.4573643207550049 -0.1204986721277237
0.02325582504272461 -0.45736435055732727 -0.08308496326208115
0.02325582504272461 -0.4573643207550049 0.014228501357138157
0.02325582690536976 -0.45736435055732727 0.25630784034729004
0.02325582504272461 -0.4573643207550049 0.29625439643859863
0.02325582504272461 -0.4573643207550049 0.35161954164505005
0.02325582504272461 -0.4573643207550049 0.5153359770774841
0.02325582504272461 -0.4573643207550049 0.5532870292663574
0.02325582504272461 -0.4573643207550049 0.578793466091156
0.02325582504272461 -0.4573643207550049 0.6265448331832886
0.02325582504272461 -0.4573643207550049 0.6330378651618958
0.02325582504272461 -0.45736435055732727 0.6800483465194702
0.02325582504272461 -0.4573643207550049 0.8134627938270569
0.02325582690536976 -0.4573643207550049 0.8772478103637695
0.02325582504272461 -0.4418604373931885 -0.12234978377819061
0.02325582690536976 -0.4418604373931885 -0.08253208547830582
0.02325582504272461 -0.4418604373931885 0.013154873624444008
0.02325582504272461 -0.4418604373931885 0.2567146122455597
0.02325582504272461 -0.4418604373931885 0.2939710021018982
0.02325582504272461 -0.4418604373931885 0.3518950343132019
0.02325582504272461 -0.4418604373931885 0.5113722681999207
0.02325582504272461 -0.4418604373931885 0.5577220320701599
0.02325582504272461 -0.44186046719551086 0.5722881555557251
0.02325582318007946 -0.4418604373931885 0.691095769405365
0.02325582504272461 -0.4418604373931885 0.8174375891685486
0.02325582504272461 -0.4418604373931885 0.8843590021133423
0.02325582504272461 -0.42635661363601685 -0.12353704869747162
0.02325582504272461 -0.42635661363601685 -0.08210982382297516
0.02325582504272461 -0.42635661363601685 0.012829810380935669
0.02325582318007946 -0.42635661363601685 0.2562481462955475
0.02325582504272461 -0.42635661363601685 0.292422354221344
0.02325582504272461 -0.42635661363601685 0.3519993722438812
0.02325582504272461 -0.42635661363601685 0.5056763291358948
0.02325582504272461 -0.42635661363601685 0.7005860805511475
0.02325582504272461 -0.42635661363601685 0.8183055520057678
0.02325582504272461 -0.42635664343833923 0.891825795173645
0.02325582504272461 -0.41085273027420044 -0.12424413859844208
0.02325582504272461 -0.41085273027420044 -0.08159475773572922
0.02325582504272461 -0.41085273027420044 0.01252937875688076
0.02325582504272461 -0.41085273027420044 0.2549903392791748
0.02325582504272461 -0.41085273027420044 0.29324379563331604
0.02325582504272461 -0.41085273027420044 0.35122692584991455
0.02325582504272461 -0.41085273027420044 0.503453254699707
0.02325582504272461 -0.41085273027420044 0.736843466758728
0.02325582504272461 -0.41085273027420044 0.8151412010192871
0.02325582504272461 -0.41085273027420044 0.8995619416236877
0.02325582504272461 -0.39534884691238403 -0.12456166744232178
0.02325582504272461 -0.39534884691238403 -0.08096445351839066
0.02325582504272461 -0.39534884691238403 0.012192320078611374
0.02325582504272461 -0.39534884691238403 0.253292053937912
0.02325582504272461 -0.39534884691238403 0.2960483431816101
0.02325582318007946 -0.39534884691238403 0.34994110465049744
0.02325582504272461 -0.39534884691238403 0.5030624866485596
0.02325582504272461 -0.39534884691238403 0.7449217438697815
0.02325582504272461 -0.39534884691238403 0.8101869821548462
0.02325582504272461 -0.39534884691238403 0.90720134973526
0.02325582504272461 -0.3798449635505676 -0.12273560464382172
0.02325582504272461 -0.3798449635505676 -0.08098039776086807
0.02325582504272461 -0.3798449635505676 0.010947128757834435
0.02325582504272461 -0.3798449635505676 0.2522837221622467
0.02325582504272461 -0.3798449635505676 0.29809337854385376
0.02325582504272461 -0.3798449635505676 0.34848639369010925
0.02325582504272461 -0.3798449635505676 0.5029504299163818
0.02325582504272461 -0.3798449635505676 0.7569792866706848
0.02325582504272461 -0.3798449635505676 0.8035489320755005
0.02325582504272461 -0.3798449635505676 0.9148951768875122
0.02325582504272461 -0.3643410801887512 -0.11998344212770462
0.02325582504272461 -0.3643410801887512 -0.08161584287881851
0.02325582504272461 -0.3643410801887512 0.011623903177678585
0.02325582504272461 -0.3643410801887512 0.2516871988773346
0.02325582504272461 -0.3643410801887512 0.29864227771759033
0.02325582504272461 -0.3643410801887512 0.34669065475463867
0.02325582504272461 -0.3643410801887512 0.503333568572998
0.02325582504272461 -0.3643410801887512 0.774675726890564
0.02325582504272461 -0.3643410801887512 0.7923941016197205
0.02325582504272461 -0.3643410801887512 0.9196939468383789
0.02325582504272461 -0.3488371968269348 -0.11787877976894379
0.02325582690536976 -0.3488371968269348 -0.08255236595869064
0.02325582504272461 -0.3488371968269348 0.014781592413783073
0.02325582504272461 -0.3488371968269348 0.25209081172943115
0.02325582504272461 -0.3488371968269348 0.2976332902908325
0.02325582504272461 -0.3488371968269348 0.3473535180091858
0.02325582504272461 -0.3488371968269348 0.5045749545097351
0.02325582504272461 -0.3488371968269348 0.9257982969284058
0.02325582504272461 -0.3333333134651184 -0.11704140156507492
0.02325582690536976 -0.3333333134651184 -0.08313579857349396
0.02325582504272461 -0.3333333134651184 0.02106860838830471
0.02325582504272461 -0.3333333134651184 0.2534526586532593
0.02325582504272461 -0.3333333134651184 0.2946787476539612
0.02325582504272461 -0.3333333134651184 0.3493777811527252
0.02325582504272461 -0.333333283662796 0.5069291591644287
0.02325582504272461 -0.3333333134651184 0.9296407699584961
0.02325582504272461 -0.317829430103302 -0.11737870424985886
0.02325582504272461 -0.3178294003009796 -0.08274384588003159
0.02325582504272461 -0.317829430103302 0.02840413525700569
0.02325582504272461 -0.317829430103302 0.25671249628067017
0.02325582504272461 -0.317829430103302 0.28888097405433655
0.02325582504272461 -0.317829430103302 0.3518036901950836
0.02325582504272461 -0.317829430103302 0.5037402510643005
0.02325582504272461 -0.317829430103302 0.9312291145324707
0.02325582504272461 -0.30232560634613037 -0.11854127794504166
0.02325582504272461 -0.30232560634613037 -0.08151978999376297
0.02325582504272461 -0.30232560634613037 0.031229421496391296
0.02325582504272461 -0.30232560634613037 0.2663566470146179
0.02325582504272461 -0.30232560634613037 0.2774870991706848
0.02325582504272461 -0.30232560634613037 0.35607901215553284
0.02325582504272461 -0.30232560634613037 0.5016322135925293
0.02325582504272461 -0.30232560634613037 0.931675910949707
0.02325582504272461 -0.28682172298431396 -0.12155348062515259
0.02325582504272461 -0.28682172298431396 -0.07854613661766052
0.02325582504272461 -0.28682172298431396 0.028647389262914658
0.02325582504272461 -0.28682172298431396 0.3615933358669281
0.02325582504272461 -0.28682172298431396 0.49570155143737793
0.02325582504272461 -0.28682172298431396 0.9317307472229004
0.02325582504272461 -0.27131783962249756 -0.127027228474617
0.02325582504272461 -0.27131783962249756 -0.07360585033893585
0.02325582504272461 -0.27131783962249756 0.022465072572231293
0.02325582504272461 -0.27131783962249756 0.367207407951355
0.02325582504272461 -0.27131783962249756 0.39493662118911743
0.02325582504272461 -0.27131783962249756 0.4155903458595276
0.02325582504272461 -0.27131783962249756 0.4875471591949463
0.02325582504272461 -0.27131783962249756 0.9315061569213867
0.02325582504272461 -0.25581395626068115 -0.1329370141029358
0.02325582318007946 -0.25581395626068115 -0.06845590472221375
0.02325582504272461 -0.25581395626068115 0.01700279675424099
0.02325582504272461 -0.25581395626068115 0.3704143762588501
0.02325582504272461 -0.25581395626068115 0.3874719738960266
0.02325582504272461 -0.25581395626068115 0.42703714966773987
0.02325582504272461 -0.25581395626068115 0.483072966337204
0.02325582504272461 -0.25581395626068115 0.9312954545021057
0.02325582504272461 -0.24031007289886475 -0.1346985250711441
0.02325582504272461 -0.24031005799770355 -0.06634921580553055
0.02325582504272461 -0.24031007289886475 0.012603607028722763
0.02325582504272461 -0.24031007289886475 0.3735373616218567
0.02325582504272461 -0.24031005799770355 0.38346320390701294
0.02325582504272461 -0.24031007289886475 0.43172433972358704
0.02325582504272461 -0.24031007289886475 0.47398459911346436
0.02325582504272461 -0.24031007289886475 0.9314570426940918
0.02325582504272461 -0.22480618953704834 -0.1366230845451355
0.02325582504272461 -0.22480618953704834 -0.06474456936120987
0.02325582504272461 -0.22480620443820953 0.010033641010522842
0.02325582504272461 -0.22480618953704834 0.37817123532295227
0.02325582504272461 -0.22480618953704834 0.3805665373802185
0.02325582504272461 -0.22480618953704834 0.43890759348869324
0.02325582504272461 -0.22480618953704834 0.4671361446380615
0.02325582504272461 -0.22480618953704834 0.9324666261672974
0.02325582504272461 -0.20930230617523193 -0.13948224484920502
0.02325582504272461 -0.20930230617523193 -0.06336808204650879
0.02325582504272461 -0.20930230617523193 0.008632924407720566
0.02325582504272461 -0.20930230617523193 0.9341626763343811
0.02325582504272461 -0.19379842281341553 -0.1426582932472229
0.02325582504272461 -0.19379842281341553 -0.06163080781698227
0.02325582504272461 -0.19379842281341553 0.00675443559885025
0.02325582504272461 -0.19379842281341553 0.9366309642791748
0.02325582504272461 -0.1782945990562439 -0.9910950064659119
0.02325582504272461 -0.1782945990562439 -0.9485996961593628
0.02325582504272461 -0.1782945990562439 -0.14316217601299286
0.02325582504272461 -0.1782945990562439 -0.06082458049058914
0.02325582504272461 -0.1782945990562439 0.0053707873448729515
0.02325582504272461 -0.1782945990562439 0.9391825795173645
0.02325582504272461 -0.1627907156944275 -0.9915904998779297
0.02325582504272461 -0.1627907156944275 -0.9014768004417419
0.02325582504272461 -0.1627907156944275 -0.14102819561958313
0.02325582504272461 -0.1627907156944275 -0.06071903184056282
0.02325582504272461 -0.1627907156944275 0.002406841143965721
0.02325582504272461 -0.1627907156944275 0.9413628578186035
0.02325582504272461 -0.14728683233261108 -0.9916039109230042
0.02325582504272461 -0.14728683233261108 -0.8555948734283447
0.02325582504272461 -0.14728683233261108 -0.36467429995536804
0.02325582504272461 -0.14728683233261108 -0.3195132613182068
0.02325582504272461 -0.14728683233261108 -0.13828781247138977
0.02325582504272461 -0.14728683233261108 -0.06036356836557388
0.02325582504272461 -0.14728683233261108 -0.004608615301549435
0.02325582504272461 -0.14728683233261108 0.943474292755127
0.02325582504272461 -0.13178294897079468 -0.9916149377822876
0.02325582504272461 -0.13178294897079468 -0.6984044313430786
0.02325582504272461 -0.13178294897079468 -0.36911889910697937
0.02325582504272461 -0.13178294897079468 -0.3084206283092499
0.02325582504272461 -0.13178294897079468 -0.13606728613376617
0.02325582504272461 -0.13178294897079468 -0.05992961302399635
0.02325582504272461 -0.13178294897079468 -0.04248776286840439
0.02325582504272461 -0.13178294897079468 0.9454796314239502
0.02325582504272461 -0.11627906560897827 -0.9916336536407471
0.02325582504272461 -0.11627906560897827 -0.6294880509376526
0.02325582504272461 -0.11627906560897827 -0.38094469904899597
0.02325582504272461 -0.11627906560897827 -0.2922455668449402
0.02325582504272461 -0.11627906560897827 -0.13527415692806244
0.02325582504272461 -0.11627906560897827 -0.05531857907772064
0.02325582318007946 -0.11627906560897827 -0.05317571386694908
0.02325582504272461 -0.11627906560897827 0.9476091265678406
0.02325582504272461 -0.10077518224716187 -0.9916307926177979
0.02325582504272461 -0.10077518224716187 -0.5435186624526978
0.02325582318007946 -0.10077518224716187 -0.3913114666938782
0.02325582690536976 -0.10077518224716187 -0.2707676291465759
0.02325582504272461 -0.10077518224716187 -0.13831691443920135
0.02325582504272461 -0.10077518224716187 0.949076771736145
0.02325582504272461 -0.08527129888534546 -0.9915615916252136
0.02325582504272461 -0.08527129888534546 -0.4959412217140198
0.02325582504272461 -0.08527129888534546 -0.41154780983924866
0.02325582504272461 -0.08527129888534546 0.9496497511863708
0.02325582504272461 -0.06976741552352905 -0.991425096988678
0.02325582504272461 -0.06976741552352905 0.9497184157371521
0.02325582504272461 -0.05426359176635742 -0.991171658039093
0.02325582504272461 -0.05426359176635742 0.9489181637763977
0.02325582504272461 -0.038759708404541016 -0.9907118082046509
0.02325582504272461 -0.038759708404541016 0.9473769664764404
0.02325582504272461 -0.02325582504272461 -0.9900805354118347
0.02325582504272461 -0.02325582504272461 0.9454444646835327
0.02325582504272461 -0.007751941680908203 -0.9895431399345398
0.02325582504272461 -0.007751941680908203 0.9436428546905518
0.02325582504272461 0.007751941680908203 -0.9895158410072327
0.02325582504272461 0.007751941680908203 0.9414301514625549
0.02325582504272461 0.02325582504272461 -0.9902894496917725
0.02325582504272461 0.02325582504272461 0.9385413527488708
0.02325582504272461 0.038759708404541016 -0.9914137125015259
0.02325582504272461 0.038759708404541016 -0.7241475582122803
0.02325582690536976 0.038759708404541016 -0.40846845507621765
0.02325582504272461 0.038759708404541016 0.37283557653427124
0.02325582504272461 0.038759708404541016 0.38203924894332886
0.02325582504272461 0.038759708404541016 0.9349005222320557
0.02325582504272461 0.05426359176635742 -0.9854829907417297
0.02325582504272461 0.05426359176635742 -0.9761756062507629
0.02325582504272461 0.05426359176635742 -0.32937750220298767
0.02325582504272461 0.05426359176635742 0.3682313561439514
0.02325582504272461 0.05426359176635742 0.38340461254119873
0.02325582504272461 0.05426359176635742 0.932377815246582
0.02325582504272461 0.06976747512817383 -0.2723185122013092
0.02325582504272461 0.06976747512817383 0.3762245178222656
0.02325582504272461 0.06976747512817383 0.3809765875339508
0.02325582504272461 0.06976747512817383 0.9289119839668274
0.02325582504272461 0.08527135848999023 -0.2511904537677765
0.02325582504272461 0.08527135848999023 0.9225630760192871
0.02325582504272461 0.10077524185180664 -0.24813947081565857
0.02325582504272461 0.10077524185180664 0.914781928062439
0.02325582504272461 0.11627912521362305 -0.23791609704494476
0.02325582504272461 0.11627912521362305 0.9072639346122742
0.02325582504272461 0.1317828893661499 -0.22576317191123962
0.02325582504272461 0.1317828893661499 0.8978943228721619
0.02325582504272461 0.1472867727279663 -0.21134550869464874
0.02325582504272461 0.1472867727279663 0.892066240310669
0.02325582504272461 0.16279065608978271 -0.18582040071487427
0.02325582504272461 0.16279065608978271 0.8842566013336182
0.02325582504272461 0.17829453945159912 -0.13711276650428772
0.02325582504272461 0.17829453945159912 0.8791157007217407
0.02325582504272461 0.19379842281341553 -0.12066710740327835
0.02325582504272461 0.19379842281341553 -0.06870861351490021
0.02325582504272461 0.19379842281341553 -0.02372860349714756
0.02325582504272461 0.19379842281341553 0.5163173079490662
0.02325582504272461 0.19379842281341553 0.5449874401092529
0.02325582504272461 0.19379842281341553 0.7368611097335815
0.02325582504272461 0.19379842281341553 0.7638273239135742
0.02325582504272461 0.19379842281341553 0.8758772015571594
0.02325582504272461 0.20930230617523193 -0.10747793316841125
0.02325582504272461 0.20930229127407074 -0.08158908039331436
0.02325582504272461 0.20930230617523193 -0.007539876736700535
0.02325582504272461 0.20930230617523193 0.3600565791130066
0.02325582504272461 0.20930230617523193 0.39465999603271484
0.02325582504272461 0.20930230617523193 0.4512178301811218
0.02325582504272461 0.20930230617523193 0.46869489550590515
0.02325582690536976 0.20930230617523193 0.5068593621253967
0.02325582504272461 0.20930230617523193 0.5533195734024048
0.02325582504272461 0.20930230617523193 0.7217864394187927
0.02325582504272461 0.20930230617523193 0.774002194404602
0.02325582504272461 0.20930230617523193 0.8677870035171509
0.02325582504272461 0.22480618953704834 -0.0009904345497488976
0.02325582690536976 0.22480620443820953 0.35198450088500977
0.02325582504272461 0.22480618953704834 0.4055749773979187
0.02325582504272461 0.22480618953704834 0.43646240234375
0.02325582504272461 0.22480618953704834 0.5563367009162903
0.02325582504272461 0.22480618953704834 0.6993547677993774
0.02325582504272461 0.22480618953704834 0.7795655727386475
0.02325582504272461 0.22480620443820953 0.8630190491676331
0.02325582504272461 0.24031007289886475 0.004310799762606621
0.02325582504272461 0.24031007289886475 0.12845170497894287
0.02325582690536976 0.24031007289886475 0.1655901074409485
0.02325582504272461 0.24031007289886475 0.34633180499076843
0.02325582504272461 0.24031007289886475 0.40978553891181946
0.02325582504272461 0.24031005799770355 0.4308232069015503
0.02325582504272461 0.24031007289886475 0.556488573551178
0.02325582504272461 0.24031005799770355 0.6662953495979309
0.02325582504272461 0.24031007289886475 0.7831844091415405
0.02325582504272461 0.24031007289886475 0.8548468351364136
0.02325582504272461 0.25581395626068115 0.007566440850496292
0.02325582504272461 0.25581395626068115 0.12417012453079224
0.02325582504272461 0.25581395626068115 0.17421479523181915
0.02325582504272461 0.25581395626068115 0.24160675704479218
0.02325582504272461 0.25581395626068115 0.28901129961013794
0.02325582504272461 0.25581395626068115 0.3412521481513977
0.02325582504272461 0.25581395626068115 0.4105983376502991
0.02325582504272461 0.25581395626068115 0.4291003942489624
0.02325582504272461 0.25581395626068115 0.554713249206543
0.02325582504272461 0.25581395626068115 0.6529578566551208
0.02325582318007946 0.25581395626068115 0.7855639457702637
0.02325582504272461 0.25581395626068115 0.8433813452720642
0.02325582504272461 0.27131783962249756 0.011959207244217396
0.02325582504272461 0.27131783962249756 0.12402420490980148
0.02325582504272461 0.27131783962249756 0.18207304179668427
0.02325582504272461 0.27131783962249756 0.23201945424079895
0.02325582504272461 0.27131783962249756 0.29554516077041626
0.02325582504272461 0.27131783962249756 0.3379606008529663
0.02325582504272461 0.27131783962249756 0.41022488474845886
0.02325582504272461 0.27131783962249756 0.42858028411865234
0.02325582504272461 0.27131783962249756 0.5519471764564514
0.02325582504272461 0.27131783962249756 0.6420484781265259
0.02325582504272461 0.27131783962249756 0.784815788269043
0.02325582504272461 0.27131783962249756 0.8224806785583496
0.02325582504272461 0.28682172298431396 0.014507480897009373
0.02325582504272461 0.28682172298431396 0.12518277764320374
0.02325582504272461 0.28682172298431396 0.19845163822174072
0.02325582504272461 0.28682172298431396 0.22489342093467712
0.02325582504272461 0.28682172298431396 0.30065080523490906
0.02325582504272461 0.28682172298431396 0.33501479029655457
0.02325582504272461 0.28682172298431396 0.4100976586341858
0.02325582504272461 0.2868216931819916 0.4278493821620941
0.02325582504272461 0.28682172298431396 0.5511058568954468
0.02325582318007946 0.28682172298431396 0.6300087571144104
0.02325582504272461 0.28682172298431396 0.7897826433181763
0.02325582504272461 0.28682172298431396 0.7995588183403015
0.02325582504272461 0.30232560634613037 0.01632237434387207
0.02325582504272461 0.30232560634613037 0.12593448162078857
0.02325582504272461 0.30232560634613037 0.307612806558609
0.02325582504272461 0.30232560634613037 0.32693085074424744
0.02325582504272461 0.30232560634613037 0.41057878732681274
0.02325582504272461 0.30232560634613037 0.4269872009754181
0.02325582504272461 0.30232560634613037 0.5547056198120117
0.02325582504272461 0.30232560634613037 0.615458071231842
0.02325582504272461 0.3178294897079468 0.01607322134077549
0.02325582504272461 0.3178294897079468 0.1280151605606079
0.02325582504272461 0.3178294897079468 0.31251826882362366
0.02325582318007946 0.3178294897079468 0.3201821446418762
0.02325582504272461 0.3178294897079468 0.422898530960083
0.02325582504272461 0.3178294897079468 0.42652246356010437
0.02325582504272461 0.3178294897079468 0.5633693933486938
0.02325582504272461 0.3178294897079468 0.5992124080657959
0.02325582504272461 0.3333333730697632 0.014808373525738716
0.02325582504272461 0.3333333730697632 0.13125914335250854
0.02325582504272461 0.3333333730697632 0.31760677695274353
0.02325582504272461 0.3333333730697632 0.31787538528442383
