-0.02325582504272461 0.06976747512817383 -0.1342846155166626
-0.02325582504272461 0.06976747512817383 -0.06914577633142471
-0.02325582504272461 0.08527135848999023 -0.13331162929534912
-0.02325582504272461 0.08527135848999023 -0.06622052937746048
-0.02325582504272461 0.10077524185180664 -0.13050508499145508
-0.02325582504272461 0.10077524185180664 -0.06369393318891525
-0.02325582504272461 0.10077524185180664 0.2235904037952423
-0.02325582504272461 0.10077524185180664 0.22512440383434296
-0.02325582504272461 0.11627912521362305 -0.11686785519123077
-0.02325582690536976 0.11627912521362305 -0.06720956414937973
-0.02325582504272461 0.11627912521362305 0.22063913941383362
-0.02325582504272461 0.11627913266420364 0.22510920464992523
-0.02325582504272461 0.1317828893661499 0.15892009437084198
-0.02325582504272461 0.1317828893661499 0.1789659559726715
-0.02325582504272461 0.1472867727279663 0.14715294539928436
-0.02325582504272461 0.1472867727279663 0.18022876977920532
-0.02325582504272461 0.16279065608978271 0.14654427766799927
-0.02325582504272461 0.16279065608978271 0.18006838858127594
-0.02325582504272461 0.17829453945159912 0.14684779942035675
-0.02325582504272461 0.17829453945159912 0.17935986816883087
-0.02325582504272461 0.19379842281341553 0.1579914093017578
-0.02325582504272461 0.19379843771457672 0.16614361107349396
-0.02325582504272461 0.39534878730773926 0.022599926218390465
-0.02325582504272461 0.39534878730773926 0.04187843203544617
-0.02325582504272461 0.41085267066955566 0.022154662758111954
-0.02325582504272461 0.41085267066955566 0.047225773334503174
-0.02325582504272461 0.42635655403137207 0.022266028448939323
-0.02325582504272461 0.42635655403137207 0.04595768824219704
-0.02325582504272461 0.4418604373931885 0.023239949718117714
-0.02325582504272461 0.4418604373931885 0.04062173515558243
-0.007751941680908203 -0.30232560634613037 0.11560303717851639
-0.007751941680908203 -0.30232560634613037 0.13271376490592957
-0.007751941680908203 -0.28682172298431396 0.11277538537979126
-0.007751941680908203 -0.28682175278663635 0.13273346424102783
-0.007751941680908203 -0.27131783962249756 0.1101323664188385
-0.007751941680908203 -0.27131783962249756 0.12368365377187729
-0.007751941680908203 -0.08527129888534546 -0.9893650412559509
-0.007751941680908203 -0.08527129888534546 -0.8058789968490601
-0.007751941680908203 -0.06976741552352905 -0.9893893599510193
-0.007751941680908203 -0.06976741552352905 -0.4664258658885956
-0.007751941680908203 -0.06976741552352905 -0.15062575042247772
-0.007751941680908203 -0.06976741552352905 -0.11618055403232574
-0.007751941680908203 -0.05426359176635742 -0.989032506942749
-0.007751941680908203 -0.05426359176635742 -0.4326065182685852
-0.007751941680908203 -0.05426359549164772 -0.17628654837608337
-0.007751941680908203 -0.05426359176635742 -0.10008871555328369
-0.007751941680908203 -0.05426359176635742 0.6406797170639038
-0.007751941680908203 -0.05426359176635742 0.6592056155204773
-0.007751941680908203 -0.038759708404541016 -0.989228367805481
-0.007751941680908203 -0.038759708404541016 -0.4437713623046875
-0.007751941680908203 -0.038759708404541016 -0.19481532275676727
-0.007751941680908203 -0.038759708404541016 -0.09970103204250336
-0.007751941680908203 -0.038759708404541016 0.6261519193649292
-0.007751941680908203 -0.038759708404541016 0.6649510860443115
-0.007751941680908203 -0.02325582504272461 -0.989772617816925
-0.007751941680908203 -0.02325582504272461 -0.8131446838378906
-0.007751941680908203 -0.02325582504272461 -0.20156681537628174
-0.007751941680908203 -0.02325582504272461 -0.10143368691205978
-0.007751941680908203 -0.02325582504272461 0.6256576776504517
-0.007751941680908203 -0.02325582504272461 0.6649153232574463
-0.007751941680908203 -0.007751941680908203 -0.9901867508888245
-0.007751941680908203 -0.007751941680908203 -0.8531830310821533
-0.007751941680908203 -0.007751941680908203 -0.2093079388141632
-0.007751941680908203 -0.007751941680908203 -0.11153864860534668
-0.007751941680908203 -0.007751941680908203 0.6263781189918518
-0.007751941680908203 -0.007751941680908203 0.6629712581634521
-0.007751941680908203 0.007751941680908203 -0.9903496503829956
-0.007751941215246916 0.007751941215246916 -0.8746906518936157
-0.007751941680908203 0.007751941680908203 -0.20392006635665894
-0.00775194214656949 0.00775194214656949 -0.11348263919353485
-0.007751941680908203 0.007751941680908203 0.6274948120117188
-0.007751941680908203 0.007751941680908203 0.6604167222976685
-0.007751941680908203 0.02325582504272461 -0.9903112649917603
-0.007751941680908203 0.02325582504272461 -0.8873680830001831
-0.007751941680908203 0.02325582504272461 -0.1960306465625763
-0.007751941680908203 0.02325582504272461 -0.11498434841632843
-0.007751941680908203 0.02325582504272461 0.6416361331939697
-0.007751941680908203 0.02325582504272461 0.6454554200172424
-0.007751941680908203 0.038759708404541016 -0.9898921847343445
-0.007751941680908203 0.038759708404541016 -0.8986399173736572
-0.007751941215246916 0.038759708404541016 -0.18633580207824707
-0.007751941680908203 0.038759708404541016 -0.12548400461673737
-0.007751941680908203 0.05426359176635742 -0.9875351786613464
-0.007751941680908203 0.05426358804106712 -0.9331143498420715
-0.007751941680908203 0.05426359176635742 -0.16335177421569824
-0.007751941680908203 0.05426359176635742 -0.15751060843467712
-0.007751941680908203 0.05426359176635742 -0.11276645958423615
-0.007751941680908203 0.05426359176635742 -0.08390773087739944
-0.007751941680908203 0.06976747512817383 -0.12384427338838577
-0.007751941680908203 0.06976747512817383 -0.06932809203863144
-0.007751941680908203 0.08527135848999023 -0.12534497678279877
-0.007751941680908203 0.08527135848999023 -0.06739303469657898
-0.007751941680908203 0.08527135848999023 0.28467467427253723
-0.007751941215246916 0.08527135848999023 0.29174157977104187
-0.007751941680908203 0.10077524185180664 -0.11900253593921661
-0.007751941680908203 0.10077524185180664 -0.06704238057136536
-0.007751941680908203 0.10077524185180664 0.20842966437339783
-0.007751941680908203 0.10077523440122604 0.24474169313907623
-0.007751941680908203 0.10077524185180664 0.264165461063385
-0.007751941680908203 0.10077524185180664 0.3151100277900696
-0.007751941680908203 0.11627912521362305 -0.10275629162788391
-0.007751941680908203 0.11627912521362305 -0.06957115978002548
-0.007751941680908203 0.11627912521362305 0.19182047247886658
-0.007751941680908203 0.11627912521362305 0.24379847943782806
-0.007751941680908203 0.11627912521362305 0.26543164253234863
-0.007751941215246916 0.11627912521362305 0.3189108371734619
-0.007751941680908203 0.1317828893661499 0.1603035032749176
-0.007751941680908203 0.1317828893661499 0.22635161876678467
-0.007751941680908203 0.1317828893661499 0.27793312072753906
-0.007751941680908203 0.1317828893661499 0.31913888454437256
-0.007751941680908203 0.1472867727279663 0.15186059474945068
-0.007751941680908203 0.1472867727279663 0.1860039234161377
-0.007751941680908203 0.1472867727279663 0.3022141754627228
-0.007751941680908203 0.1472867727279663 0.30286356806755066
-0.007751941680908203 0.16279065608978271 0.1470409780740738
-0.007751941680908203 0.16279065608978271 0.1810239553451538
-0.007751941680908203 0.17829453945159912 0.1472604125738144
-0.007751941680908203 0.17829453945159912 0.1796814650297165
-0.007751941680908203 0.19379842281341553 0.15801161527633667
-0.007751941680908203 0.19379842281341553 0.1683981716632843
0.007751941680908203 -0.5813953876495361 0.2400226891040802
0.007751941680908203 -0.5813953876495361 0.25741276144981384
0.007751941680908203 -0.5658915042877197 0.23918376863002777
0.007751941680908203 -0.5658915042877197 0.25945520401000977
0.007751941680908203 -0.5503876209259033 0.2390586882829666
0.007751941680908203 -0.5503876209259033 0.2609812617301941
0.007751941680908203 -0.5348837375640869 0.23930448293685913
0.007751941680908203 -0.5348837375640869 0.2617575526237488
0.007751941680908203 -0.5193798542022705 0.23964431881904602
0.007751941680908203 -0.5193798542022705 0.2614302635192871
0.007751941680908203 -0.5038759708404541 0.2399260699748993
0.007751941680908203 -0.5038759708404541 0.2604774534702301
0.007751941680908203 -0.4883720874786377 0.23983746767044067
0.007751941680908203 -0.4883720874786377 0.2605438232421875
0.007751941680908203 -0.4728682041168213 0.23907943069934845
0.00775194214656949 -0.4728682041168213 0.2619262635707855
0.007751941680908203 -0.4573643207550049 0.2381190061569214
0.007751941680908203 -0.4573643207550049 0.26432257890701294
0.007751941680908203 -0.4418604373931885 0.23778796195983887
0.007751941680908203 -0.4418604373931885 0.2653490900993347
0.007751941680908203 -0.42635661363601685 0.23847176134586334
0.007751941680908203 -0.42635661363601685 0.26355069875717163
0.007751941680908203 -0.41085273027420044 0.24009914696216583
0.007751941680908203 -0.41085273027420044 0.25979602336883545
0.007751941680908203 -0.39534884691238403 0.25530943274497986
0.007751941680908203 -0.39534884691238403 0.2560091018676758
0.007751941680908203 -0.317829430103302 0.11206456273794174
0.007751941680908203 -0.317829430103302 0.13279449939727783
0.007751941680908203 -0.30232560634613037 0.10482648760080338
0.007751941680908203 -0.30232560634613037 0.13415732979774475
0.007751941680908203 -0.28682172298431396 0.09953738003969193
0.007751941680908203 -0.28682172298431396 0.13400864601135254
0.007751941680908203 -0.27131783962249756 0.096247598528862
0.007751941680908203 -0.27131783962249756 0.13290035724639893
0.007751941680908203 -0.25581395626068115 0.09347710758447647
0.007751941680908203 -0.25581395626068115 0.1221700981259346
0.007751941680908203 -0.08527129888534546 -0.9884927868843079
0.007751941680908203 -0.08527129888534546 -0.9693312048912048
0.007751941680908203 -0.08527129888534546 -0.9539672136306763
0.007751941680908203 -0.08527129888534546 -0.8760601878166199
0.007751941680908203 -0.08527129888534546 -0.13257189095020294
0.007751941680908203 -0.08527129888534546 -0.12738890945911407
0.007751941680908203 -0.06976741552352905 -0.9899706244468689
0.007751941680908203 -0.06976741552352905 -0.8175632357597351
0.007751941680908203 -0.06976741552352905 -0.1604107767343521
0.007751941680908203 -0.06976741552352905 -0.09435742348432541
0.007751941680908203 -0.06976741552352905 0.7001839876174927
0.007751941680908203 -0.06976741552352905 0.7055200934410095
0.007751941680908203 -0.05426359176635742 -0.9898295998573303
0.007751941680908203 -0.05426359176635742 -0.8254846930503845
0.007751941680908203 -0.05426359176635742 -0.17806759476661682
0.007751941680908203 -0.05426359176635742 -0.08609334379434586
0.007751941680908203 -0.038759708404541016 -0.9900569915771484
0.007751941680908203 -0.038759708404541016 -0.8516135215759277
0.007751941680908203 -0.038759708404541016 -0.19484278559684753
0.007751941680908203 -0.038759708404541016 -0.09582968056201935
0.007751941680908203 -0.02325582504272461 -0.9905155301094055
0.007751941680908203 -0.02325582504272461 -0.8843472003936768
0.007751941680908203 -0.02325582504272461 -0.2053425908088684
0.007751941680908203 -0.02325582504272461 -0.09977361559867859
0.007751941680908203 -0.02325582504272461 0.6420755982398987
0.007751941680908203 -0.02325582504272461 0.6467418670654297
0.007751941680908203 -0.007751941680908203 -0.9907374382019043
0.007751941680908203 -0.007751941680908203 -0.9069647192955017
0.007751941680908203 -0.007751941680908203 -0.2096833884716034
0.007751941215246916 -0.007751941215246916 -0.10939331352710724
0.007751941680908203 -0.007751941680908203 0.6430411338806152
0.007751941680908203 -0.007751941680908203 0.6442902684211731
0.007751941680908203 0.007751941680908203 -0.9905108213424683
0.007751941680908203 0.007751941680908203 -0.9267008304595947
0.007751941680908203 0.007751941680908203 -0.20805558562278748
0.007751941680908203 0.007751941680908203 -0.11306329816579819
0.007751941680908203 0.02325582504272461 -0.989151656627655
0.007751941680908203 0.02325582504272461 -0.9583799242973328
0.007751941680908203 0.02325582504272461 -0.1972963511943817
0.007751941680908203 0.02325582504272461 -0.1161159947514534
0.007751941680908203 0.038759708404541016 -0.984713077545166
0.007751941680908203 0.038759708404541016 -0.9821209907531738
0.007751941680908203 0.038759708404541016 -0.19383692741394043
0.007751941680908203 0.038759708404541016 -0.13023905456066132
0.007751941680908203 0.05426359176635742 -0.16882607340812683
0.007751941680908203 0.05426359176635742 -0.15277795493602753
0.007751941680908203 0.06976747512817383 -0.1054428443312645
0.007751941680908203 0.06976747512817383 -0.08242171257734299
0.007751941680908203 0.08527135848999023 -0.11450181901454926
0.007751941680908203 0.08527135848999023 -0.07597721368074417
0.007751941680908203 0.08527135848999023 0.2615206241607666
0.007751941680908203 0.08527135848999023 0.3179721534252167
0.007751941680908203 0.10077524185180664 -0.10608553886413574
0.007751941680908203 0.10077524185180664 -0.07855786383152008
0.007751941680908203 0.10077524185180664 0.20234817266464233
0.007751941680908203 0.10077523440122604 0.31941527128219604
0.007751941680908203 0.11627912521362305 0.1870240867137909
0.007751941680908203 0.11627912521362305 0.3203813433647156
0.007751941680908203 0.1317828893661499 0.16556259989738464
0.007751941680908203 0.1317828893661499 0.23558291792869568
0.007751941680908203 0.1317828893661499 0.2652532756328583
0.007751941680908203 0.1317828893661499 0.32179415225982666
0.007751941680908203 0.1472867727279663 0.15965266525745392
0.007751941680908203 0.1472867727279663 0.18993212282657623
0.007751941680908203 0.1472867727279663 0.28165608644485474
0.007751941215246916 0.1472867727279663 0.32156258821487427
0.007751941680908203 0.16279065608978271 0.15698358416557312
0.007751941680908203 0.16279065608978271 0.18080374598503113
0.007751941680908203 0.16279065608978271 0.30168601870536804
0.00775194214656949 0.16279065608978271 0.3185669183731079
0.007751941680908203 0.17829453945159912 0.1583036333322525
0.007751941680908203 0.17829453945159912 0.1792730987071991
0.007751941680908203 0.19379842281341553 0.16185905039310455
0.007751941680908203 0.19379842281341553 0.16473089158535004
0.02325582504272461 -0.5813953876495361 0.2533344030380249
0.02325582504272461 -0.5813953876495361 0.2559971809387207
0.02325582504272461 -0.5658915042877197 0.2396978735923767
0.02325582690536976 -0.5658915042877197 0.25758931040763855
0.02325582504272461 -0.5503876209259033 0.23916807770729065
0.02325582504272461 -0.5503876209259033 0.25871995091438293
0.02325582504272461 -0.5348837375640869 0.2390795350074768
0.02325582504272461 -0.5348837375640869 0.25932157039642334
0.02325582504272461 -0.5193798542022705 0.23917895555496216
0.02325582504272461 -0.5193798542022705 0.2592957317829132
0.02325582504272461 -0.5038759708404541 0.23936662077903748
0.02325582504272461 -0.5038759708404541 0.2587047517299652
0.02325582504272461 -0.4883720874786377 0.23909081518650055
0.02325582504272461 -0.4883720874786377 0.2584678530693054
0.02325582504272461 -0.4728682041168213 0.1703166365623474
0.02325582504272461 -0.4728682041168213 0.21380490064620972
0.02325582504272461 -0.4728682041168213 0.23619037866592407
0.02325582504272461 -0.4728682041168213 0.2588687539100647
0.02325582504272461 -0.4573643207550049 0.16657891869544983
0.02325582504272461 -0.4573643207550049 0.2219831645488739
0.02325582504272461 -0.4573642909526825 0.2292138785123825
0.02325582504272461 -0.4573643207550049 0.2595851719379425
0.02325582504272461 -0.4418604373931885 0.1680649220943451
0.02325582504272461 -0.4418604373931885 0.26000094413757324
0.02325582504272461 -0.42635661363601685 0.17341329157352448
0.02325582504272461 -0.42635661363601685 0.22056041657924652
0.02325582504272461 -0.42635661363601685 0.23173412680625916
0.02325582504272461 -0.42635661363601685 0.2595713436603546
0.02325582504272461 -0.41085273027420044 0.17736904323101044
0.02325582504272461 -0.41085273027420044 0.21266448497772217
0.02325582318007946 -0.41085273027420044 0.24088148772716522
0.02325582504272461 -0.41085273027420044 0.2578762471675873
0.02325582504272461 -0.39534884691238403 0.18825159966945648
0.02325582504272461 -0.39534884691238403 0.20339266955852509
0.02325582504272461 -0.3798449635505676 0.19287343323230743
0.02325582504272461 -0.3798449635505676 0.19569624960422516
0.02325582504272461 -0.317829430103302 0.10649298131465912
0.02325582504272461 -0.317829430103302 0.12540191411972046
0.02325582504272461 -0.30232560634613037 0.09918442368507385
0.02325582504272461 -0.30232560634613037 0.13298523426055908
0.02325582504272461 -0.28682172298431396 0.0933585911989212
0.02325582504272461 -0.28682172298431396 0.13293808698654175
0.02325582504272461 -0.27131783962249756 0.08368204534053802
0.02325582504272461 -0.27131783962249756 0.13141536712646484
0.02325582504272461 -0.25581395626068115 0.07144451141357422
0.02325582504272461 -0.25581395626068115 0.1210552453994751
0.02325582504272461 -0.25581395626068115 0.550257682800293
0.02325582504272461 -0.25581395626068115 0.5505430102348328
0.02325582504272461 -0.24031007289886475 0.06700297445058823
0.02325582504272461 -0.24031007289886475 0.11716584116220474
0.02325582504272461 -0.22480618953704834 0.06889906525611877
0.02325582504272461 -0.22480618953704834 0.09094065427780151
0.02325582504272461 -0.10077518224716187 -0.11762095242738724
0.02325582504272461 -0.10077518224716187 -0.11028359830379486
0.02325582504272461 -0.08527129888534546 -0.14761696755886078
0.02325582504272461 -0.08527130633592606 -0.08196338266134262
0.02325582504272461 -0.06976741552352905 -0.9890719652175903
0.02325582504272461 -0.06976741552352905 -0.970191478729248
0.02325582504272461 -0.06976741552352905 -0.1628950834274292
0.02325582504272461 -0.06976741552352905 -0.0664430484175682
0.02325582504272461 -0.06976741552352905 0.705152690410614
0.02325582690536976 -0.06976741552352905 0.7054471373558044
0.02325582504272461 -0.05426359176635742 -0.990398108959198
0.02325582504272461 -0.05426359176635742 -0.9449760913848877
0.02325582504272461 -0.05426358804106712 -0.17408965528011322
0.02325582504272461 -0.05426359176635742 -0.0705423429608345
0.02325582504272461 -0.038759708404541016 -0.9905150532722473
0.02325582504272461 -0.038759708404541016 -0.9541462063789368
0.02325582504272461 -0.038759708404541016 -0.19440066814422607
0.02325582318007946 -0.038759708404541016 -0.08428705483675003
0.02325582504272461 -0.02325582504272461 -0.9899757504463196
0.02325582504272461 -0.02325582504272461 -0.9690536260604858
0.02325582504272461 -0.02325582504272461 -0.20945411920547485
0.02325582318007946 -0.02325582318007946 -0.09788152575492859
0.02325582504272461 -0.007751941680908203 -0.9868841171264648
0.02325582504272461 -0.007751941680908203 -0.9748759269714355
0.02325582504272461 -0.007751941680908203 -0.2101535201072693
0.02325582504272461 -0.007751941680908203 -0.10685616731643677
0.02325582504272461 0.007751941680908203 -0.20981915295124054
0.02325582504272461 0.007751941215246916 -0.1134020984172821
0.02325582504272461 0.02325582504272461 -0.20014873147010803
0.02325582504272461 0.02325582504272461 -0.1209915429353714
0.02325582504272461 0.038759708404541016 -0.19451871514320374
0.02325582504272461 0.038759708404541016 -0.13166444003582
0.02325582504272461 0.05426359176635742 -0.17448922991752625
0.02325582504272461 0.05426359176635742 -0.15596455335617065
0.02325582318007946 0.08527135848999023 0.21428155899047852
0.02325582504272461 0.08527135848999023 0.24552616477012634
0.02325582504272461 0.08527135848999023 0.2631130814552307
0.02325582690536976 0.08527135848999023 0.3179313838481903
0.02325582504272461 0.10077524185180664 0.19317899644374847
0.02325582504272461 0.10077524185180664 0.25557228922843933
0.02325582504272461 0.10077524185180664 0.25601261854171753
0.02325582504272461 0.10077524185180664 0.31893467903137207
0.02325582504272461 0.11627912521362305 0.19178755581378937
0.02325582504272461 0.11627912521362305 0.24456435441970825
0.02325582504272461 0.11627912521362305 0.26554855704307556
0.02325582504272461 0.11627912521362305 0.3193569779396057
0.02325582504272461 0.1317828893661499 0.19381628930568695
0.02325582690536976 0.1317828893661499 0.22971093654632568
0.02325582504272461 0.1317828893661499 0.27421632409095764
0.02325582504272461 0.1317828893661499 0.3199578523635864
0.02325582504272461 0.1472867727279663 0.284939169883728
0.02325582504272461 0.1472867727279663 0.3207146227359772
0.02325582504272461 0.16279065608978271 0.2997450828552246
0.02325582504272461 0.16279065608978271 0.32049131393432617
0.038759708404541016 -0.4883720874786377 0.16179132461547852
0.038759708404541016 -0.4883720874786377 0.19494464993476868
0.038759708404541016 -0.4728682041168213 0.16091060638427734
0.03875970467925072 -0.4728682041168213 0.2098335474729538
0.038759708404541016 -0.4573643207550049 0.16093525290489197
0.038759708404541016 -0.4573643207550049 0.21190206706523895
0.038759708404541016 -0.4418604373931885 0.16176515817642212
0.038759708404541016 -0.4418604373931885 0.21289987862110138
0.038759708404541016 -0.42635661363601685 0.16895270347595215
0.038759708404541016 -0.42635661363601685 0.21220996975898743
0.038759708404541016 -0.41085273027420044 0.1763765811920166
0.038759708404541016 -0.41085273027420044 0.21046745777130127
0.038759708404541016 -0.39534884691238403 0.18467487394809723
0.038759708404541016 -0.39534884691238403 0.2055591642856598
0.038759708404541016 -0.3798449635505676 0.19007635116577148
0.038759708404541016 -0.3798449635505676 0.19959859549999237
0.038759708404541016 -0.30232560634613037 0.0995665118098259
0.038759708404541016 -0.30232560634613037 0.11690723896026611
0.038759708404541016 -0.28682172298431396 0.0858352929353714
0.038759708404541016 -0.28682172298431396 0.11761616170406342
0.038759708404541016 -0.27131783962249756 0.07355314493179321
0.038759708404541016 -0.27131783962249756 0.11697329580783844
0.038759708404541016 -0.25581395626068115 0.06348396837711334
0.038759708404541016 -0.25581395626068115 0.10968123376369476
0.038759708404541016 -0.24031007289886475 0.0520038828253746
0.038759708404541016 -0.24031007289886475 0.10320830345153809
0.038759708404541016 -0.22480618953704834 0.043008752167224884
0.038759708404541016 -0.22480618953704834 0.09228377044200897
0.038759708404541016 -0.20930230617523193 0.03996704891324043
0.038759708404541016 -0.20930230617523193 0.07861865311861038
0.038759708404541016 -0.11627906560897827 -0.10378511995077133
0.038759708404541016 -0.11627906560897827 -0.08640958368778229
0.038759708404541016 -0.10077518224716187 -0.1300828456878662
0.038759708404541016 -0.10077518224716187 -0.06903961300849915
0.038759708404541016 -0.08527129888534546 -0.14644485712051392
0.038759708404541016 -0.08527129888534546 -0.03182966262102127
0.038759708404541016 -0.08527129888534546 0.23709328472614288
0.038759708404541016 -0.08527129888534546 0.26064810156822205
0.038759708404541016 -0.06976741552352905 -0.15592175722122192
0.038759712129831314 -0.06976741552352905 0.03937288001179695
0.038759708404541016 -0.06976741552352905 0.2235354781150818
0.038759708404541016 -0.06976741552352905 0.27864980697631836
0.038759708404541016 -0.05426359176635742 -0.1670713871717453
0.03875970467925072 -0.05426359176635742 0.039271946996450424
0.038759708404541016 -0.038759708404541016 -0.1855100393295288
0.038759708404541016 -0.038759708404541016 -0.08137895166873932
0.038759708404541016 -0.02325582504272461 -0.200947567820549
0.038759708404541016 -0.02325582504272461 -0.09742389619350433
0.038759708404541016 -0.007751941680908203 -0.20998242497444153
0.038759708404541016 -0.007751941680908203 -0.10979944467544556
0.038759708404541016 0.007751941680908203 -0.2097623199224472
0.038759708404541016 0.007751941680908203 -0.11474868655204773
0.038759708404541016 0.02325582504272461 -0.19759149849414825
0.038759708404541016 0.02325582504272461 -0.1270313560962677
0.038759708404541016 0.038759708404541016 -0.19400401413440704
0.038759708404541016 0.038759708404541016 -0.13926899433135986
0.038759708404541016 0.05426359176635742 -0.16386951506137848
0.038759708404541016 0.05426359176635742 -0.16211628913879395
0.038759708404541016 0.08527135848999023 0.20651109516620636
0.038759708404541016 0.08527135848999023 0.2324667125940323
0.038759708404541016 0.10077524185180664 0.20024138689041138
0.038759708404541016 0.10077524185180664 0.23413798213005066
0.038759708404541016 0.11627912521362305 -0.13459450006484985
0.038759708404541016 0.11627912521362305 -0.1312628537416458
0.038759708404541016 0.11627912521362305 0.203542560338974
0.038759708404541016 0.11627912521362305 0.2289406657218933
0.038759708404541016 0.11627912521362305 0.29955288767814636
0.038759708404541016 0.11627912521362305 0.3082454204559326
0.038759708404541016 0.1317828893661499 -0.14837849140167236
0.038759708404541016 0.1317828893661499 -0.12424973398447037
0.038759708404541016 0.1317828893661499 0.20784595608711243
0.038759708404541016 0.1317828893661499 0.22514262795448303
0.038759708404541016 0.1317828893661499 0.30020174384117126
0.038759708404541016 0.1317828893661499 0.31531670689582825
0.038759708404541016 0.1472867727279663 -0.14969322085380554
0.038759708404541016 0.1472867727279663 -0.11539147049188614
0.038759708404541016 0.1472867727279663 0.3016076683998108
0.038759708404541016 0.1472867727279663 0.3181367814540863
0.038759708404541016 0.16279065608978271 -0.14995437860488892
0.038759708404541016 0.16279065608978271 -0.1146586537361145
0.038759708404541016 0.16279065608978271 0.31433501839637756
0.038759708404541016 0.16279065608978271 0.318514347076416
0.038759708404541016 0.17829453945159912 -0.14920058846473694
0.038759708404541016 0.17829453945159912 -0.11469519883394241
0.038759708404541016 0.19379842281341553 -0.1479920893907547
0.038759712129831314 0.19379842281341553 -0.11512276530265808
0.038759708404541016 0.20930229127407074 -0.1417250782251358
0.038759708404541016 0.20930229127407074 -0.1159902885556221
0.038759708404541016 0.22480618953704834 -0.1351020783185959
0.038759708404541016 0.22480618953704834 -0.1258256733417511
0.05426359176635742 -0.4573643207550049 0.17556117475032806
0.05426359176635742 -0.4573643207550049 0.1864926815032959
0.05426359176635742 -0.4418604373931885 0.18031257390975952
0.05426359176635742 -0.4418604373931885 0.19454897940158844
0.05426359176635742 -0.25581395626068115 0.0575486458837986
0.05426358804106712 -0.25581395626068115 0.0861242339015007
0.05426359176635742 -0.24031007289886475 0.045701853930950165
0.05426358804106712 -0.24031007289886475 0.08632068336009979
0.05426359176635742 -0.22480618953704834 0.034322213381528854
0.05426359176635742 -0.22480618953704834 0.08307481557130814
0.05426359176635742 -0.20930230617523193 0.022572427988052368
0.05426359176635742 -0.20930230617523193 0.07282275706529617
0.05426359176635742 -0.19379842281341553 0.01178545132279396
0.05426359176635742 -0.19379840791225433 0.05721096694469452
0.05426359176635742 -0.1782945990562439 -0.014696736820042133
0.05426359176635742 -0.1782945990562439 0.02202020026743412
0.05426359176635742 -0.1627907156944275 -0.02902129292488098
0.05426359176635742 -0.1627907156944275 -0.01892291195690632
0.05426359176635742 -0.14728683233261108 -0.07400533556938171
0.05426359176635742 -0.14728683233261108 -0.06532199680805206
0.05426359176635742 -0.13178294897079468 -0.09633705765008926
0.05426359176635742 -0.13178294897079468 -0.06876245886087418
0.05426359176635742 -0.11627906560897827 -0.1062433123588562
0.05426359176635742 -0.11627906560897827 -0.06873591989278793
0.05426359176635742 -0.10077518224716187 -0.12245775014162064
0.05426359176635742 -0.10077518969774246 -0.0331108532845974
0.05426359176635742 -0.08527129888534546 -0.13779811561107635
0.05426359176635742 -0.08527129888534546 0.0419204905629158
0.05426359176635742 -0.08527129888534546 0.22471950948238373
0.05426359176635742 -0.08527129888534546 0.25929564237594604
0.05426359176635742 -0.06976741552352905 -0.15043632686138153
0.05426359176635742 -0.06976741552352905 0.06036675348877907
0.05426359176635742 -0.06976741552352905 0.2056470811367035
0.05426359176635742 -0.06976741552352905 0.2776269018650055
0.05426359176635742 -0.05426359176635742 -0.16437038779258728
0.05426359176635742 -0.05426359176635742 0.05446038767695427
0.05426359176635742 -0.05426359176635742 0.2087390124797821
0.05426359176635742 -0.05426359176635742 0.27580511569976807
0.05426359176635742 -0.038759708404541016 -0.1805804818868637
0.05426359176635742 -0.038759708404541016 -0.08175197243690491
0.05426359176635742 -0.02325582504272461 -0.19544310867786407
0.05426359176635742 -0.02325582318007946 -0.09935905039310455
0.05426359176635742 -0.007751941680908203 -0.201742023229599
0.05426359176635742 -0.007751941215246916 -0.11356813460588455
0.05426359176635742 0.007751941680908203 -0.1997036188840866
0.05426359176635742 0.007751941680908203 -0.11590821295976639
0.05426359176635742 0.02325582504272461 -0.1951276957988739
0.05426359176635742 0.02325582504272461 -0.1296440213918686
0.05426359176635742 0.038759708404541016 -0.1817876398563385
0.05426359176635742 0.038759708404541016 -0.143782839179039
0.05426359176635742 0.08527135848999023 0.20753949880599976
0.05426359176635742 0.08527135848999023 0.22694572806358337
0.05426359176635742 0.10077524185180664 0.20740282535552979
0.05426359176635742 0.10077524185180664 0.22667191922664642
0.05426359176635742 0.11627912521362305 0.2087775617837906
0.05426359176635742 0.11627912521362305 0.22104714810848236
0.05426359176635742 0.1317828893661499 -0.14729860424995422
0.05426359176635742 0.1317828893661499 -0.12638413906097412
0.05426359176635742 0.1472867727279663 -0.14898422360420227
0.05426359176635742 0.1472867727279663 -0.11562338471412659
0.05426359176635742 0.16279065608978271 -0.14984329044818878
0.05426359176635742 0.16279065608978271 -0.11472824960947037
0.05426359176635742 0.17829453945159912 -0.14962661266326904
0.05426359176635742 0.17829453945159912 -0.11459378898143768
0.05426359176635742 0.19379842281341553 -0.1486320197582245
0.05426359176635742 0.19379842281341553 -0.11484795063734055
0.05426359176635742 0.20930230617523193 -0.14788343012332916
0.05426359176635742 0.20930230617523193 -0.11528870463371277
0.05426359176635742 0.22480618953704834 -0.14739808440208435
0.05426359176635742 0.22480618953704834 -0.11580025404691696
0.05426359176635742 0.22480618953704834 0.31767040491104126
0.05426359176635742 0.22480618953704834 0.3218410015106201
0.05426359176635742 0.24031007289886475 -0.14102117717266083
0.05426359176635742 0.24031007289886475 -0.12133023142814636
0.05426359176635742 0.25581395626068115 -0.13421565294265747
0.05426359176635742 0.25581395626068115 -0.12886495888233185
0.05426359176635742 0.5193798542022705 0.14725148677825928
0.05426359176635742 0.5193798542022705 0.1474025994539261
0.05426359176635742 0.5348837375640869 0.1448504477739334
0.05426359176635742 0.5348837375640869 0.16300883889198303
0.05426359176635742 0.5503876209259033 0.1451752930879593
0.05426359176635742 0.5503876209259033 0.1634603887796402
0.05426359176635742 0.5658915042877197 0.14643046259880066
0.05426359176635742 0.5658915042877197 0.15827761590480804
0.06976747512817383 -0.24031007289886475 0.0507911741733551
0.06976747512817383 -0.24031007289886475 0.06033448502421379
0.06976747512817383 -0.22480618953704834 0.03769692778587341
0.06976747512817383 -0.22480618953704834 0.06069140136241913
0.06976747512817383 -0.20930230617523193 0.03506286069750786
0.06976747512817383 -0.20930230617523193 0.04695317521691322
0.06976747512817383 -0.19379842281341553 -0.013503115624189377
0.06976747512817383 -0.19379842281341553 0.038923632353544235
0.06976747512817383 -0.1782945990562439 -0.04157792776823044
0.06976747512817383 -0.1782945990562439 0.034239765256643295
0.06976747512817383 -0.1627907156944275 -0.07015752047300339
0.06976747512817383 -0.1627907156944275 0.026565106585621834
0.06976747512817383 -0.14728683233261108 -0.08669726550579071
0.06976747512817383 -0.14728683233261108 0.01183178648352623
0.06976747512817383 -0.13178294897079468 -0.10132502019405365
0.06976747512817383 -0.13178294897079468 -0.012760290876030922
0.06976747512817383 -0.11627906560897827 -0.10270196944475174
0.06976747512817383 -0.11627906560897827 -0.05347511172294617
0.06976747512817383 -0.10077518224716187 -0.11766649037599564
0.06976747512817383 -0.10077517479658127 -0.0018989495001733303
0.06976747512817383 -0.08527129888534546 -0.1332850158214569
0.06976747512817383 -0.08527129888534546 0.04117491468787193
0.06976747512817383 -0.08527129888534546 0.23693954944610596
0.06976747512817383 -0.08527129888534546 0.24451301991939545
0.06976747512817383 -0.06976741552352905 -0.1480703353881836
0.06976747512817383 -0.06976741552352905 0.05520537495613098
0.06976747512817383 -0.06976742297410965 0.1946595162153244
0.06976747512817383 -0.06976741552352905 0.2761796712875366
0.06976747512817383 -0.05426359176635742 -0.15910226106643677
0.06976747512817383 -0.05426359176635742 0.04347860813140869
0.06976747512817383 -0.05426359176635742 0.19256269931793213
0.06976747512817383 -0.05426359176635742 0.2777971923351288
0.06976747512817383 -0.038759708404541016 -0.17888149619102478
0.06976747512817383 -0.038759708404541016 -0.09247422218322754
0.06976747512817383 -0.038759708404541016 0.2068224400281906
0.06976747512817383 -0.038759708404541016 0.26913273334503174
0.06976747512817383 -0.02325582504272461 -0.1938924491405487
0.06976747512817383 -0.02325582504272461 -0.11097788065671921
0.06976747512817383 -0.007751941680908203 -0.19537405669689178
0.06976746767759323 -0.007751941680908203 -0.11540782451629639
0.06976747512817383 0.007751941680908203 -0.19493944942951202
0.06976747512817383 0.007751941680908203 -0.12343133240938187
0.06976747512817383 0.02325582504272461 -0.1874418556690216
0.06976747512817383 0.02325582690536976 -0.13061493635177612
0.06976747512817383 0.038759708404541016 -0.17872236669063568
0.06976747512817383 0.03875970467925072 -0.14629054069519043
0.06976747512817383 0.5193798542022705 0.13834622502326965
0.06976747512817383 0.5193798542022705 0.16486072540283203
0.06976747512817383 0.5348837375640869 0.13138189911842346
0.06976747512817383 0.5348837375640869 0.16733837127685547
0.06976747512817383 0.5503876209259033 0.1316354125738144
0.06976747512817383 0.5503876209259033 0.16800588369369507
0.06976747512817383 0.5658915042877197 0.13870853185653687
0.06976747512817383 0.5658915042877197 0.16651326417922974
0.06976747512817383 0.5813953876495361 0.14310574531555176
0.06976747512817383 0.5813953876495361 0.16439880430698395
0.06976747512817383 0.5968992710113525 0.1454402655363083
0.06976747512817383 0.5968992710113525 0.15131540596485138
0.08527135848999023 -0.19379842281341553 -0.010198843665421009
0.08527135848999023 -0.19379842281341553 -0.0024445955641567707
0.08527135848999023 -0.1782945990562439 -0.04629327729344368
0.08527135848999023 -0.1782945990562439 0.016689686104655266
0.08527135848999023 -0.1627907156944275 -0.0739046111702919
0.08527135848999023 -0.1627907156944275 0.01573360711336136
0.08527135848999023 -0.14728683233261108 -0.08818099647760391
0.08527135848999023 -0.14728683233261108 0.0059066638350486755
0.08527135848999023 -0.13178294897079468 -0.10140782594680786
0.08527136594057083 -0.13178294897079468 -0.02239830233156681
0.08527135848999023 -0.11627906560897827 -0.10196013748645782
0.08527135848999023 -0.11627906560897827 -0.05311432108283043
0.08527135848999023 -0.10077518224716187 -0.11680594831705093
0.08527135848999023 -0.10077518224716187 -0.03483961895108223
0.08527135848999023 -0.08527129888534546 -0.12663638591766357
0.08527135848999023 -0.08527129888534546 0.010230585932731628
0.08527135848999023 -0.06976741552352905 -0.138717919588089
0.08527135848999023 -0.06976741552352905 0.022356072440743446
0.08527135848999023 -0.06976741552352905 0.19935762882232666
0.08527135848999023 -0.06976741552352905 0.2732338011264801
0.08527135848999023 -0.05426359176635742 -0.15014037489891052
0.08527135848999023 -0.05426359176635742 -0.0832308903336525
0.08527135848999023 -0.05426359176635742 0.19201341271400452
0.08527135848999023 -0.05426359176635742 0.2763846814632416
0.08527135848999023 -0.038759708404541016 -0.1709383875131607
0.08527135848999023 -0.038759708404541016 -0.10839267075061798
0.08527135848999023 -0.038759708404541016 0.19339442253112793
0.08527135848999023 -0.038759708404541016 0.2724699079990387
0.08527135848999023 -0.02325582504272461 -0.18304939568042755
0.08527135848999023 -0.02325582504272461 -0.11542700231075287
0.08527135848999023 -0.02325582504272461 0.20723280310630798
0.08527135848999023 -0.02325582504272461 0.2653839588165283
0.08527135848999023 -0.007751941680908203 -0.19106805324554443
0.08527135848999023 -0.007751941680908203 -0.11631627380847931
0.08527135848999023 -0.007751941680908203 0.23319867253303528
0.08527135103940964 -0.007751941215246916 0.2718869149684906
0.08527135848999023 0.007751941215246916 -0.1866457462310791
0.08527135848999023 0.007751941680908203 -0.12450411915779114
0.08527135848999023 0.007751941680908203 0.2228778898715973
0.08527135848999023 0.007751941680908203 0.275613933801651
0.08527135848999023 0.02325582504272461 -0.1799248605966568
0.08527135848999023 0.02325582504272461 -0.1308058351278305
0.08527135848999023 0.02325582504272461 0.22280432283878326
0.08527135848999023 0.02325582504272461 0.27671167254447937
0.08527135848999023 0.038759708404541016 -0.16398750245571136
0.08527135848999023 0.038759708404541016 -0.15495571494102478
0.08527135848999023 0.038759708404541016 0.25165098905563354
0.08527135848999023 0.038759708404541016 0.27167752385139465
0.08527135848999023 0.5193798542022705 0.14495882391929626
0.08527135848999023 0.5193798542022705 0.15139546990394592
0.08527135848999023 0.5348837375640869 0.13126204907894135
0.08527135848999023 0.5348837375640869 0.16540169715881348
0.08527135848999023 0.5503876209259033 0.1310337334871292
0.08527135848999023 0.5503876209259033 0.1670176386833191
0.08527135848999023 0.5658915042877197 0.13302233815193176
0.08527135848999023 0.5658915042877197 0.16653531789779663
0.08527135848999023 0.5813953876495361 0.14124824106693268
0.08527135103940964 0.5813953876495361 0.1646827608346939
0.08527135848999023 0.5968992710113525 0.14479497075080872
0.08527135848999023 0.5968992710113525 0.15350034832954407
0.10077524185180664 -0.1782945990562439 -0.0405043363571167
0.10077524185180664 -0.1782945990562439 -0.021658603101968765
0.10077524185180664 -0.1627907156944275 -0.08100875467061996
0.10077524185180664 -0.1627907156944275 -0.012496927753090858
0.10077524185180664 -0.14728683233261108 -0.09129883348941803
0.10077524185180664 -0.14728683233261108 -0.024516994133591652
0.10077524185180664 -0.13178294897079468 -0.10137216001749039
0.10077524185180664 -0.13178294897079468 -0.05125492438673973
0.10077524185180664 -0.11627906560897827 -0.10150368511676788
0.10077524185180664 -0.11627906560897827 -0.08993011713027954
0.10077524185180664 -0.10077518224716187 -0.10580925643444061
0.10077524185180664 -0.10077518224716187 -0.08785176277160645
0.10077524185180664 -0.08527129888534546 -0.11767876893281937
0.10077524185180664 -0.08527129888534546 -0.07478952407836914
0.10077524185180664 -0.06976741552352905 -0.13262668251991272
0.10077524185180664 -0.06976741552352905 -0.08408208191394806
0.10077524185180664 -0.06976741552352905 0.20768623054027557
0.10077524185180664 -0.06976741552352905 0.2607630491256714
0.10077524185180664 -0.05426359176635742 -0.14135690033435822
0.10077524185180664 -0.05426359176635742 -0.10375456511974335
0.10077524185180664 -0.05426359176635742 0.19369645416736603
0.10077524185180664 -0.05426359176635742 0.27406448125839233
0.10077524185180664 -0.038759708404541016 -0.16485987603664398
0.10077524185180664 -0.038759708404541016 -0.12056177854537964
0.10077524185180664 -0.038759708404541016 0.19752177596092224
0.10077524185180664 -0.038759708404541016 0.273047536611557
0.10077524185180664 -0.02325582504272461 -0.17977067828178406
0.10077524185180664 -0.02325582504272461 -0.12169110029935837
0.10077524185180664 -0.02325582504272461 0.2053297758102417
0.10077524185180664 -0.02325582504272461 0.273106187582016
0.10077524185180664 -0.007751941680908203 -0.18303972482681274
0.10077524185180664 -0.007751941680908203 -0.11838570237159729
0.10077524185180664 -0.007751941680908203 0.20633432269096375
0.10077524185180664 -0.007751941680908203 0.2798563241958618
0.10077524185180664 0.007751941680908203 -0.18094664812088013
0.10077524185180664 0.007751941680908203 -0.12376338243484497
0.10077524185180664 0.007751941680908203 0.20791181921958923
0.10077524185180664 0.007751941680908203 0.2876529395580292
0.10077524185180664 0.02325582504272461 -0.17123275995254517
0.10077524185180664 0.02325582504272461 -0.13099725544452667
0.10077524930238724 0.02325582690536976 0.21420910954475403
0.10077524185180664 0.02325582504272461 0.28773775696754456
0.10077524185180664 0.038759708404541016 0.23802679777145386
0.10077524185180664 0.038759708404541016 0.2750457227230072
0.10077524185180664 0.5658915042877197 0.14547541737556458
0.10077524185180664 0.5658915042877197 0.15255628526210785
0.11627912521362305 -0.1627907156944275 -0.0861639603972435
0.11627912521362305 -0.1627907156944275 -0.0505477711558342
0.11627912521362305 -0.14728683233261108 -0.0978250652551651
0.11627912521362305 -0.14728683233261108 -0.052974309772253036
0.11627912521362305 -0.13178294897079468 -0.10124659538269043
0.11627912521362305 -0.13178294897079468 -0.08711002767086029
0.11627912521362305 -0.11627906560897827 -0.10112061351537704
0.11627912521362305 -0.11627906560897827 -0.09569093585014343
0.11627912521362305 -0.06976741552352905 -0.11896151304244995
0.11627912521362305 -0.06976741552352905 -0.11092036217451096
0.11627912521362305 -0.05426359176635742 -0.13376449048519135
0.11627912521362305 -0.05426359176635742 -0.12039311230182648
0.11627912521362305 -0.05426359176635742 0.20432299375534058
0.11627912521362305 -0.05426359176635742 0.2704927921295166
0.11627912521362305 -0.038759708404541016 -0.16344702243804932
0.11627912521362305 -0.038759708404541016 -0.1247570589184761
0.11627912521362305 -0.038759708404541016 0.20589086413383484
0.11627912521362305 -0.038759708404541016 0.27283018827438354
0.11627912521362305 -0.02325582504272461 -0.17868638038635254
0.11627912521362305 -0.02325582504272461 -0.1198536604642868
0.11627912521362305 -0.02325582504272461 0.20847943425178528
0.11627912521362305 -0.02325582504272461 0.274679958820343
0.11627912521362305 -0.007751941680908203 -0.18041352927684784
0.11627913266420364 -0.00775194214656949 -0.11589545756578445
0.11627912521362305 -0.007751941680908203 0.2085959017276764
0.11627912521362305 -0.00775194214656949 0.28691303730010986
0.11627912521362305 0.007751941680908203 -0.179232656955719
0.11627912521362305 0.007751941680908203 -0.11976929008960724
0.11627912521362305 0.007751941680908203 0.21059167385101318
0.11627912521362305 0.007751941680908203 0.28757375478744507
0.11627912521362305 0.02325582504272461 -0.16583819687366486
0.11627912521362305 0.02325582504272461 -0.1306871920824051
0.11627912521362305 0.02325582504272461 0.22218108177185059
0.11627912521362305 0.02325582504272461 0.28754618763923645
0.11627912521362305 0.038759708404541016 0.24091023206710815
0.11627912521362305 0.038759708404541016 0.2747223675251007
0.11627912521362305 0.3488372564315796 0.043255068361759186
0.11627912521362305 0.3488372564315796 0.05531352013349533
0.11627912521362305 0.364341139793396 0.038593124598264694
0.11627912521362305 0.364341139793396 0.0565294474363327
0.11627911776304245 0.37984490394592285 0.040454987436532974
0.11627912521362305 0.37984490394592285 0.05656234174966812
0.11627912521362305 0.39534878730773926 0.05043094605207443
0.11627912521362305 0.39534875750541687 0.055284395813941956
0.1317828893661499 -0.674418568611145 0.20813187956809998
0.1317828893661499 -0.674418568611145 0.21074365079402924
0.1317828893661499 -0.1782945990562439 0.4532828629016876
0.1317828893661499 -0.1782945990562439 0.45875465869903564
0.1317828893661499 -0.1627907156944275 -0.08655427396297455
0.1317828893661499 -0.1627907156944275 -0.06804382055997849
0.1317828893661499 -0.1627907156944275 0.4394625723361969
0.1317828893661499 -0.1627907156944275 0.4614461362361908
0.1317828893661499 -0.14728683233261108 -0.09662365168333054
0.1317828893661499 -0.14728683233261108 -0.07241564989089966
0.1317828893661499 -0.14728683233261108 0.4370615482330322
0.1317828893661499 -0.14728683233261108 0.4600019156932831
0.1317828893661499 -0.13178294897079468 -0.1011858806014061
0.1317828893661499 -0.13178294897079468 -0.0876733660697937
0.1317828893661499 -0.13178294897079468 0.43911099433898926
0.1317828893661499 -0.13178294897079468 0.4576047658920288
0.1317828893661499 -0.11627906560897827 -0.10080534964799881
0.1317828893661499 -0.11627906560897827 -0.10030702501535416
0.1317828893661499 -0.05426359176635742 -0.13793312013149261
0.1317828893661499 -0.05426359176635742 -0.11623703688383102
0.1317828893661499 -0.05426359176635742 0.2075580656528473
0.1317828893661499 -0.05426359176635742 0.23568201065063477
0.1317828893661499 -0.038759708404541016 -0.1625649333000183
0.1317828893661499 -0.038759708404541016 -0.11616749316453934
0.1317828893661499 -0.038759708404541016 0.20826184749603271
0.1317828893661499 -0.038759708404541016 0.25959640741348267
0.1317828893661499 -0.02325582504272461 -0.17503613233566284
0.1317828893661499 -0.02325582504272461 -0.11555001139640808
0.1317828893661499 -0.02325582504272461 0.21635490655899048
0.1317828893661499 -0.02325582504272461 0.2663695514202118
0.1317828893661499 -0.007751941680908203 -0.17956899106502533
0.1317828893661499 -0.007751941680908203 -0.11519879102706909
0.1317828893661499 -0.007751941680908203 0.21798747777938843
0.1317828893661499 -0.007751941680908203 0.2727592885494232
0.1317828893661499 0.007751941680908203 -0.17867642641067505
0.1317828893661499 0.007751941680908203 -0.11588174104690552
0.1317828893661499 0.007751941680908203 0.2223970741033554
0.1317828893661499 0.007751941680908203 0.27377134561538696
0.1317828893661499 0.02325582504272461 -0.16410569846630096
0.1317828893661499 0.02325582504272461 -0.12978653609752655
0.1317828893661499 0.3333333730697632 0.05223602056503296
0.1317828893661499 0.33333340287208557 0.054862577468156815
0.1317828893661499 0.3488372564315796 0.04572547972202301
0.1317828893661499 0.3488372564315796 0.0584074892103672
0.1317828893661499 0.364341139793396 0.047876689583063126
0.1317828893661499 0.364341139793396 0.058980200439691544
0.1317828893661499 0.37984490394592285 0.05059889331459999
0.1317828893661499 0.37984490394592285 0.05700177699327469
0.1317828893661499 0.39534878730773926 0.05330586060881615
0.1317828893661499 0.39534878730773926 0.054968997836112976
0.1472867727279663 -0.674418568611145 0.19934296607971191
0.1472867727279663 -0.6744185090065002 0.2128281593322754
0.1472867727279663 -0.6589146852493286 0.1797696202993393
0.1472867727279663 -0.6589146852493286 0.21073593199253082
0.1472867727279663 -0.6434108018875122 0.16710269451141357
0.1472867727279663 -0.643410861492157 0.19995251297950745
0.1472867727279663 -0.6279069781303406 0.16086521744728088
0.1472867727279663 -0.6279069781303406 0.19009354710578918
0.1472867727279663 -0.6124030947685242 0.15790894627571106
0.1472867727279663 -0.6124030947685242 0.1827186942100525
0.1472867727279663 -0.5968992114067078 0.1558583676815033
0.1472867727279663 -0.5968992114067078 0.18009430170059204
0.1472867727279663 -0.5813953876495361 0.15722879767417908
0.1472867727279663 -0.5813953876495361 0.17879527807235718
0.1472867727279663 -0.5658915042877197 0.1589224487543106
0.1472867727279663 -0.5658915042877197 0.17482462525367737
0.1472867727279663 -0.5503876209259033 0.16042499244213104
0.1472867727279663 -0.5503876209259033 0.1692379117012024
