-0.1782945990562439 0.6589146852493286 -0.1376888006925583
-0.1782945990562439 0.6589146852493286 -0.11536560952663422
-0.1782945990562439 0.674418568611145 -0.13806957006454468
-0.1782945990562439 0.674418568611145 -0.11510683596134186
-0.1782945990562439 0.6899224519729614 -0.13869637250900269
-0.1782945990562439 0.6899224519729614 -0.11410541087388992
-0.1782945990562439 0.7054263353347778 -0.13918890058994293
-0.1782945990562439 0.7054263353347778 -0.11288608610630035
-0.1782945990562439 0.7209302186965942 -0.13913075625896454
-0.1782945990562439 0.7209301590919495 -0.11264427751302719
-0.1782945990562439 0.7364341020584106 -0.1387467384338379
-0.1782945841550827 0.7364341020584106 -0.11295008659362793
-0.1782945990562439 0.751937985420227 -0.1383926272392273
-0.1782945990562439 0.751937985420227 -0.11355249583721161
-0.1782945990562439 0.7674418687820435 -0.13823524117469788
-0.1782945990562439 0.7674419283866882 -0.11422690749168396
-0.1782945990562439 0.7829457521438599 -0.13799048960208893
-0.1782945841550827 0.7829457521438599 -0.11505069583654404
-0.1782945990562439 0.7984496355056763 -0.137798011302948
-0.1782945990562439 0.7984496355056763 -0.11554963141679764
-0.1782945990562439 0.8139535188674927 -0.13754481077194214
-0.1782945990562439 0.8139535188674927 -0.11568285524845123
-0.1782945990562439 0.8294574022293091 -0.13714376091957092
-0.1782945990562439 0.8294574022293091 -0.1157090812921524
-0.1782945990562439 0.8449612855911255 -0.13684678077697754
-0.1782946139574051 0.8449612855911255 -0.11562030762434006
-0.1782945990562439 0.8604651689529419 -0.13673143088817596
-0.1782945990562439 0.8604651689529419 -0.1151575893163681
-0.1782945990562439 0.8759689331054688 -0.13677474856376648
-0.1782945990562439 0.875968873500824 -0.11388300359249115
-0.1782945990562439 0.8914728164672852 -0.13678917288780212
-0.1782945990562439 0.8914727568626404 -0.11224861443042755
-0.1782945990562439 0.9069766998291016 -0.1364862322807312
-0.1782945990562439 0.9069766402244568 -0.11125054955482483
-0.1782945990562439 0.922480583190918 -0.13602228462696075
-0.1782945990562439 0.922480583190918 -0.11113482713699341
-0.1782945990562439 0.9379844665527344 -0.13534942269325256
-0.1782945990562439 0.9379844069480896 -0.11046050488948822
-0.1782945990562439 0.9534883499145508 -0.1342863142490387
-0.1782945990562439 0.9534883499145508 -0.10719171166419983
-0.1782945990562439 0.9689922332763672 -0.13425378501415253
-0.1782945990562439 0.9689922332763672 -0.07031785696744919
-0.1782945990562439 0.9844961166381836 -0.13293194770812988
-0.1782946139574051 0.9844961166381836 -0.02283293381333351
-0.1627907156944275 -0.9844961166381836 -0.1322547346353531
-0.1627907156944275 -0.9844961762428284 -0.13114029169082642
-0.1627907156944275 -0.9689922332763672 -0.13622137904167175
-0.1627907156944275 -0.9689922332763672 -0.12258125841617584
-0.1627907156944275 -0.9534883499145508 -0.13740986585617065
-0.1627907156944275 -0.9534883499145508 -0.11553673446178436
-0.1627907156944275 -0.9379844665527344 -0.13868536055088043
-0.1627907156944275 -0.9379844665527344 -0.11381952464580536
-0.1627907156944275 -0.922480583190918 -0.13982556760311127
-0.1627907156944275 -0.9224806427955627 -0.11301274597644806
-0.1627907156944275 -0.9069768190383911 -0.1403571367263794
-0.1627907156944275 -0.9069766998291016 -0.11254382133483887
-0.1627907156944275 -0.8914728760719299 -0.14085575938224792
-0.1627907156944275 -0.8914728164672852 -0.11226208508014679
-0.1627907156944275 -0.8759689927101135 -0.1412474662065506
-0.1627907156944275 -0.8759690523147583 -0.11174989491701126
-0.1627907156944275 -0.8604650497436523 -0.1413697898387909
-0.1627907156944275 -0.8604651689529419 -0.11067210882902145
-0.1627907156944275 -0.8449612259864807 -0.1415099799633026
-0.1627907156944275 -0.8449612259864807 -0.10925230383872986
-0.1627907156944275 -0.8294572830200195 -0.14170682430267334
-0.1627907156944275 -0.8294573426246643 -0.10789626836776733
-0.1627907156944275 -0.8139535188674927 -0.1418401151895523
-0.1627907156944275 -0.8139535188674927 -0.10635758191347122
-0.1627907156944275 -0.7984496355056763 -0.1421813666820526
-0.1627907156944275 -0.7984496355056763 -0.10503996163606644
-0.1627907156944275 -0.7829457521438599 -0.14249572157859802
-0.1627907156944275 -0.7829457521438599 -0.10500644892454147
-0.1627907156944275 -0.7674418687820435 -0.14304377138614655
-0.1627907156944275 -0.7674418687820435 -0.1057204157114029
-0.1627907156944275 -0.751937985420227 -0.14371778070926666
-0.1627907156944275 -0.751937985420227 -0.10628989338874817
-0.1627907156944275 -0.7364341020584106 -0.14427118003368378
-0.1627907156944275 -0.7364341020584106 -0.1067672073841095
-0.1627907156944275 -0.7209301590919495 -0.14493395388126373
-0.1627907156944275 -0.7209302186965942 -0.1069071888923645
-0.1627907156944275 -0.7054263353347778 -0.14567257463932037
-0.1627907156944275 -0.7054263353347778 -0.10597631335258484
-0.16279073059558868 -0.6899224519729614 -0.14616356790065765
-0.1627907156944275 -0.6899224519729614 -0.10380406677722931
-0.1627907156944275 -0.674418568611145 -0.146306112408638
-0.1627907156944275 -0.674418568611145 -0.10095539689064026
-0.1627907156944275 -0.6589146852493286 -0.14633937180042267
-0.16279073059558868 -0.6589146852493286 -0.09975751489400864
-0.1627907156944275 -0.643410861492157 -0.14570339024066925
-0.1627907156944275 -0.643410861492157 -0.09905321896076202
-0.1627907156944275 -0.6279069781303406 -0.14516714215278625
-0.1627907156944275 -0.6279069781303406 -0.09871863573789597
-0.1627907156944275 -0.6124030947685242 -0.1445649266242981
-0.1627907007932663 -0.6124030947685242 -0.09857649356126785
-0.1627907156944275 -0.5968992114067078 -0.1439402550458908
-0.1627907156944275 -0.5968992710113525 -0.0986679196357727
-0.1627907156944275 -0.5813953876495361 -0.14372040331363678
-0.1627907156944275 -0.5813953876495361 -0.09866200387477875
-0.1627907156944275 -0.5658915042877197 -0.14372698962688446
-0.1627907007932663 -0.5658915042877197 -0.09840059280395508
-0.1627907156944275 -0.5503876209259033 -0.14372432231903076
-0.1627907156944275 -0.5503876209259033 -0.09847137331962585
-0.1627907156944275 -0.5348837375640869 -0.14382025599479675
-0.1627907156944275 -0.5348837375640869 -0.09853207319974899
-0.1627907156944275 -0.5193798542022705 -0.14356188476085663
-0.1627907156944275 -0.5193798542022705 -0.09871362894773483
-0.1627907156944275 -0.5038759708404541 -0.14333102107048035
-0.1627907156944275 -0.5038759708404541 -0.09868508577346802
-0.1627907156944275 -0.4883720874786377 -0.14313898980617523
-0.1627907156944275 -0.4883720874786377 -0.09850670397281647
-0.1627907156944275 -0.4728682041168213 -0.14272572100162506
-0.1627907156944275 -0.4728682041168213 -0.09811832755804062
-0.1627907156944275 -0.4573643207550049 -0.14238998293876648
-0.1627907156944275 -0.4573643207550049 -0.09850531071424484
-0.1627907156944275 -0.4418604373931885 -0.14220917224884033
-0.1627907156944275 -0.4418604373931885 -0.10006749629974365
-0.1627907156944275 -0.42635664343833923 -0.1420009434223175
-0.1627907156944275 -0.42635661363601685 -0.10325820744037628
-0.1627907156944275 -0.41085273027420044 -0.14187784492969513
-0.1627907156944275 -0.41085273027420044 -0.10677285492420197
-0.1627907156944275 -0.39534884691238403 -0.14218798279762268
-0.1627907156944275 -0.39534884691238403 -0.10956813395023346
-0.1627907156944275 -0.3798449635505676 -0.14274241030216217
-0.1627907156944275 -0.3798449635505676 -0.11123749613761902
-0.1627907156944275 -0.3643410801887512 -0.14317066967487335
-0.1627907156944275 -0.3643410801887512 -0.11233557015657425
-0.1627907156944275 -0.3488371968269348 -0.14336355030536652
-0.1627907156944275 -0.3488371968269348 -0.11329703778028488
-0.1627907156944275 -0.3333333134651184 -0.1433553248643875
-0.1627907156944275 -0.3333333134651184 -0.11463654041290283
-0.1627907156944275 -0.317829430103302 -0.14291149377822876
-0.1627907156944275 -0.317829430103302 -0.11615575850009918
-0.1627907156944275 -0.30232560634613037 -0.142412006855011
-0.1627907156944275 -0.30232560634613037 -0.1186840832233429
-0.1627907156944275 -0.28682172298431396 -0.14212781190872192
-0.1627907156944275 -0.28682172298431396 -0.12071121484041214
-0.1627907156944275 -0.27131783962249756 -0.14183533191680908
-0.1627907156944275 -0.27131783962249756 -0.12239722907543182
-0.1627907156944275 -0.25581395626068115 -0.14182119071483612
-0.1627907156944275 -0.25581395626068115 -0.12360227108001709
-0.1627907156944275 -0.24031008780002594 -0.1419966220855713
-0.1627907156944275 -0.24031007289886475 -0.12420807778835297
-0.1627907156944275 -0.22480618953704834 -0.14175786077976227
-0.1627907156944275 -0.22480618953704834 -0.12461371719837189
-0.1627907156944275 -0.20930230617523193 -0.1408001184463501
-0.1627907156944275 -0.20930230617523193 -0.12507641315460205
-0.1627907156944275 -0.19379842281341553 -0.13995370268821716
-0.1627907156944275 -0.19379842281341553 -0.123397096991539
-0.1627907156944275 -0.1782945990562439 -0.1395118683576584
-0.1627907156944275 -0.1782945990562439 0.016592897474765778
-0.1627907156944275 -0.1627907156944275 -0.13941746950149536
-0.1627907156944275 -0.1627907156944275 0.02782648801803589
-0.1627907156944275 -0.14728683233261108 -0.13951045274734497
-0.1627907156944275 -0.14728683233261108 0.03471530228853226
-0.1627907156944275 -0.13178294897079468 -0.1393761932849884
-0.1627907156944275 -0.13178294897079468 0.04128381609916687
-0.1627907156944275 -0.11627906560897827 -0.1389138400554657
-0.1627907156944275 -0.11627906560897827 0.04769798368215561
-0.1627907156944275 -0.10077518224716187 -0.13843761384487152
-0.1627907156944275 -0.10077518224716187 0.0550813153386116
-0.1627907156944275 -0.08527129888534546 -0.1379280686378479
-0.1627907156944275 -0.08527129888534546 0.06169215962290764
-0.1627907156944275 -0.06976741552352905 -0.13762246072292328
-0.1627907156944275 -0.06976741552352905 0.07018397003412247
-0.1627907156944275 -0.05426359176635742 -0.13747702538967133
-0.1627907156944275 -0.05426359176635742 0.07778216898441315
-0.1627907156944275 -0.038759708404541016 -0.13739153742790222
-0.1627907156944275 -0.038759708404541016 0.08683151751756668
-0.1627907156944275 -0.02325582504272461 -0.1374206244945526
-0.1627907156944275 -0.02325582504272461 0.09445434808731079
-0.1627907156944275 -0.007751941680908203 -0.13779497146606445
-0.1627907156944275 -0.007751941215246916 0.10194039344787598
-0.1627907156944275 0.007751941680908203 -0.13842016458511353
-0.1627907156944275 0.007751941680908203 0.10711997747421265
-0.1627907156944275 0.02325582504272461 -0.13895832002162933
-0.1627907156944275 0.02325582504272461 0.10964801907539368
-0.1627907156944275 0.038759708404541016 -0.139464870095253
-0.1627907156944275 0.038759708404541016 0.11180654168128967
-0.1627907156944275 0.05426359176635742 -0.13989096879959106
-0.1627907156944275 0.05426359176635742 0.11423903703689575
-0.1627907156944275 0.06976747512817383 -0.14023949205875397
-0.1627907007932663 0.06976747512817383 0.11703334748744965
-0.1627907156944275 0.08527135848999023 -0.1403609961271286
-0.1627907156944275 0.08527135848999023 0.11873361468315125
-0.1627907156944275 0.10077524185180664 -0.14052408933639526
-0.1627907156944275 0.10077524185180664 0.12069156020879745
-0.1627907156944275 0.11627911776304245 -0.1403956115245819
-0.1627907156944275 0.11627911776304245 0.12233525514602661
-0.1627907156944275 0.1317828893661499 -0.13997876644134521
-0.1627907156944275 0.1317828893661499 0.1235710084438324
-0.1627907156944275 0.1472867727279663 -0.13954368233680725
-0.1627907156944275 0.1472867727279663 0.12466436624526978
-0.1627907156944275 0.16279065608978271 -0.13917449116706848
-0.1627907156944275 0.16279065608978271 0.12515346705913544
-0.1627907156944275 0.17829453945159912 -0.1390223205089569
-0.1627907156944275 0.17829453945159912 0.12430481612682343
-0.1627907156944275 0.19379842281341553 -0.1390293687582016
-0.1627907156944275 0.19379842281341553 0.12288051843643188
-0.1627907156944275 0.20930230617523193 -0.13884969055652618
-0.1627907156944275 0.20930230617523193 0.12098520994186401
-0.1627907156944275 0.22480618953704834 -0.13854637742042542
-0.1627907007932663 0.22480618953704834 0.11876614391803741
-0.1627907156944275 0.24031007289886475 -0.13888274133205414
-0.16279073059558868 0.24031007289886475 0.11695361137390137
-0.1627907156944275 0.25581395626068115 -0.1390671730041504
-0.1627907156944275 0.25581395626068115 0.11291538923978806
-0.1627907156944275 0.27131783962249756 -0.13894513249397278
-0.1627907156944275 0.27131783962249756 0.10999244451522827
-0.1627907156944275 0.28682172298431396 -0.13874827325344086
-0.1627907156944275 0.28682172298431396 0.10828447341918945
-0.1627907156944275 0.30232560634613037 -0.13864436745643616
-0.1627907156944275 0.30232560634613037 0.10703381150960922
-0.1627907156944275 0.3178294897079468 -0.13859403133392334
-0.1627907156944275 0.3178294897079468 0.10558678209781647
-0.1627907156944275 0.3333333730697632 -0.13861805200576782
-0.1627907156944275 0.3333333730697632 0.10368531197309494
-0.1627907156944275 0.3488372564315796 -0.1388677954673767
-0.1627907156944275 0.3488372564315796 0.10153158754110336
-0.1627907156944275 0.364341139793396 -0.13970527052879333
-0.1627907156944275 0.364341139793396 0.09777095913887024
-0.1627907156944275 0.37984490394592285 -0.14109191298484802
-0.1627907156944275 0.37984490394592285 0.09425152838230133
-0.1627907156944275 0.39534878730773926 -0.1410731077194214
-0.1627907156944275 0.39534878730773926 0.09122912585735321
-0.1627907156944275 0.41085267066955566 -0.13968318700790405
-0.1627907156944275 0.41085267066955566 0.083714060485363
-0.1627907156944275 0.42635655403137207 -0.13959303498268127
-0.1627907156944275 0.42635655403137207 0.04149223119020462
-0.1627907156944275 0.4418604373931885 -0.13908520340919495
-0.1627907156944275 0.4418604373931885 -0.10980509221553802
-0.1627907156944275 0.4573643207550049 -0.1378789097070694
-0.1627907156944275 0.4573643207550049 -0.11401887983083725
-0.1627907156944275 0.4728682041168213 -0.13783375918865204
-0.1627907156944275 0.4728682041168213 -0.11462514102458954
-0.1627907156944275 0.4883720874786377 -0.13832789659500122
-0.1627907007932663 0.4883720874786377 -0.11529110372066498
-0.1627907156944275 0.5038759708404541 -0.13923683762550354
-0.1627907156944275 0.5038759708404541 -0.11547762155532837
-0.1627907156944275 0.5193798542022705 -0.14044056832790375
-0.1627907156944275 0.5193798542022705 -0.11489341408014297
-0.1627907156944275 0.5348837375640869 -0.14093263447284698
-0.1627907156944275 0.5348837375640869 -0.11379566788673401
-0.1627907156944275 0.5503876209259033 -0.1402098536491394
-0.1627907156944275 0.5503876209259033 -0.1131136417388916
-0.1627907156944275 0.5658915042877197 -0.13975486159324646
-0.1627907156944275 0.5658915042877197 -0.11262299120426178
-0.1627907156944275 0.5813953876495361 -0.139482319355011
-0.1627907156944275 0.5813953876495361 -0.11325742304325104
-0.1627907156944275 0.5968992710113525 -0.1390780657529831
-0.1627907156944275 0.5968992710113525 -0.11458057165145874
-0.1627907156944275 0.612403154373169 -0.1384207308292389
-0.1627907156944275 0.612403154373169 -0.1156042069196701
-0.1627907156944275 0.6279069185256958 -0.13804034888744354
-0.1627907156944275 0.6279069185256958 -0.1155967265367508
-0.1627907156944275 0.6434108018875122 -0.1378863900899887
-0.1627907156944275 0.6434108018875122 -0.1154223158955574
-0.1627907156944275 0.6589146852493286 -0.13798494637012482
-0.1627907007932663 0.6589146256446838 -0.11521473526954651
-0.1627907156944275 0.674418568611145 -0.13842177391052246
-0.16279073059558868 0.6744186282157898 -0.11487875133752823
-0.1627907156944275 0.6899224519729614 -0.13903437554836273
-0.1627907156944275 0.6899224519729614 -0.11378340423107147
-0.1627907156944275 0.7054263353347778 -0.139460027217865
-0.1627907156944275 0.7054263949394226 -0.11267799884080887
-0.1627907156944275 0.7209302186965942 -0.1393805742263794
-0.1627907156944275 0.7209302186965942 -0.11253687739372253
-0.1627907156944275 0.7364341020584106 -0.13897939026355743
-0.1627907156944275 0.7364341020584106 -0.11289352178573608
-0.1627907156944275 0.751937985420227 -0.13860362768173218
-0.1627907156944275 0.751937985420227 -0.11350183933973312
-0.1627907156944275 0.7674418687820435 -0.13842269778251648
-0.1627907156944275 0.7674418687820435 -0.114162378013134
-0.1627907156944275 0.7829457521438599 -0.1381525695323944
-0.1627907156944275 0.7829457521438599 -0.11497350037097931
-0.1627907156944275 0.7984496355056763 -0.13794636726379395
-0.1627907156944275 0.7984496355056763 -0.11547009646892548
-0.1627907156944275 0.8139535188674927 -0.13770581781864166
-0.1627907156944275 0.8139535188674927 -0.11558928340673447
-0.1627907156944275 0.8294574022293091 -0.137327641248703
-0.1627907156944275 0.8294574022293091 -0.11557936668395996
-0.1627907156944275 0.8449612855911255 -0.13702677190303802
-0.1627907156944275 0.8449612855911255 -0.11547486484050751
-0.1627907156944275 0.8604651689529419 -0.13688869774341583
-0.1627907156944275 0.8604652285575867 -0.1150195300579071
-0.1627907156944275 0.8759689331054688 -0.1369069516658783
-0.1627907156944275 0.8759689331054688 -0.1137687936425209
-0.1627907156944275 0.8914728164672852 -0.13689742982387543
-0.1627907156944275 0.8914728164672852 -0.11219049245119095
-0.1627907156944275 0.9069766998291016 -0.13656699657440186
-0.1627907156944275 0.9069766998291016 -0.11125385761260986
-0.1627907156944275 0.922480583190918 -0.13607168197631836
-0.1627907156944275 0.922480583190918 -0.11113598942756653
-0.1627907156944275 0.9379844665527344 -0.13536594808101654
-0.1627907156944275 0.9379844665527344 -0.11043839901685715
-0.1627907156944275 0.9534883499145508 -0.13429152965545654
-0.1627907156944275 0.9534883499145508 -0.10725854337215424
-0.1627907156944275 0.9689922332763672 -0.13428469002246857
-0.1627907156944275 0.9689922332763672 -0.07094204425811768
-0.1627907156944275 0.9844961166381836 -0.13295729458332062
-0.1627907156944275 0.9844961166381836 -0.022713055834174156
-0.14728683233261108 -0.9844961166381836 -0.13232149183750153
-0.14728683233261108 -0.9844960570335388 -0.13100644946098328
-0.14728683233261108 -0.9689922332763672 -0.13623084127902985
-0.14728683233261108 -0.9689922332763672 -0.12180303037166595
-0.14728683233261108 -0.9534883499145508 -0.13740797340869904
-0.14728683233261108 -0.953488290309906 -0.11503910273313522
-0.14728683233261108 -0.9379844665527344 -0.13872098922729492
-0.14728683233261108 -0.9379844665527344 -0.11333848536014557
-0.14728683233261108 -0.9224806427955627 -0.13990695774555206
-0.14728683233261108 -0.9224806427955627 -0.11244981735944748
-0.14728683233261108 -0.9069767594337463 -0.14045929908752441
-0.14728683233261108 -0.9069768190383911 -0.11189389228820801
-0.14728683233261108 -0.8914729356765747 -0.1409716159105301
-0.14728683233261108 -0.8914728164672852 -0.11163225769996643
-0.14728683233261108 -0.8759689927101135 -0.1413571834564209
-0.14728683233261108 -0.8759690523147583 -0.11114908009767532
-0.14728683233261108 -0.8604650497436523 -0.1414661556482315
-0.14728683233261108 -0.8604650497436523 -0.11000693589448929
-0.14728683233261108 -0.8449611663818359 -0.14160653948783875
-0.14728683233261108 -0.8449612259864807 -0.1084701269865036
-0.14728683233261108 -0.8294573426246643 -0.1418199986219406
-0.14728683233261108 -0.8294573426246643 -0.10701940953731537
-0.14728683233261108 -0.8139535188674927 -0.14198364317417145
-0.14728683233261108 -0.8139535188674927 -0.10541865229606628
-0.14728683233261108 -0.7984496355056763 -0.14236238598823547
-0.14728683233261108 -0.7984496355056763 -0.10411779582500458
-0.14728683233261108 -0.7829457521438599 -0.14272673428058624
-0.14728683233261108 -0.7829457521438599 -0.10412969440221786
-0.14728683233261108 -0.7674418687820435 -0.14333413541316986
-0.14728683233261108 -0.7674418687820435 -0.10487402975559235
-0.14728683233261108 -0.751937985420227 -0.1440669149160385
-0.14728683233261108 -0.751937985420227 -0.10547342896461487
-0.14728683233261108 -0.7364341020584106 -0.1446649581193924
-0.14728683233261108 -0.7364341020584106 -0.10598738491535187
-0.14728684723377228 -0.7209302186965942 -0.14536289870738983
-0.14728683233261108 -0.7209302186965942 -0.1061507984995842
-0.14728683233261108 -0.7054263353347778 -0.14613653719425201
-0.14728683233261108 -0.7054263353347778 -0.10521067678928375
-0.14728683233261108 -0.6899224519729614 -0.14666900038719177
-0.14728683233261108 -0.6899224519729614 -0.10300864279270172
-0.1472868174314499 -0.674418568611145 -0.14682523906230927
-0.14728683233261108 -0.674418568611145 -0.10046350955963135
-0.14728683233261108 -0.6589146852493286 -0.14684632420539856
-0.14728683233261108 -0.6589146852493286 -0.09937548637390137
-0.14728683233261108 -0.643410861492157 -0.1461452841758728
-0.14728683233261108 -0.643410861492157 -0.09865514189004898
-0.14728683233261108 -0.6279070377349854 -0.14556631445884705
-0.14728683233261108 -0.6279069781303406 -0.09829875081777573
-0.14728683233261108 -0.6124030947685242 -0.14494331181049347
-0.14728683233261108 -0.6124030947685242 -0.09813286364078522
-0.14728683233261108 -0.5968992114067078 -0.1442975550889969
-0.14728683233261108 -0.5968992114067078 -0.09818035364151001
-0.14728683233261108 -0.5813953876495361 -0.14408347010612488
-0.14728683233261108 -0.5813953876495361 -0.09808038920164108
-0.14728683233261108 -0.5658915042877197 -0.14412257075309753
-0.14728683233261108 -0.5658915042877197 -0.097695492208004
-0.14728683233261108 -0.5503876209259033 -0.14413970708847046
-0.14728683233261108 -0.5503876209259033 -0.09770733118057251
-0.14728683233261108 -0.5348837375640869 -0.14424055814743042
-0.14728683233261108 -0.5348837375640869 -0.0977097675204277
-0.14728683233261108 -0.5193798542022705 -0.14397604763507843
-0.14728683233261108 -0.5193798542022705 -0.09785588085651398
-0.14728683233261108 -0.5038759708404541 -0.14375554025173187
-0.14728683233261108 -0.5038759708404541 -0.09779658168554306
-0.14728683233261108 -0.4883720874786377 -0.14358270168304443
-0.14728683233261108 -0.4883720874786377 -0.09759878367185593
-0.14728683233261108 -0.4728682041168213 -0.1431751400232315
-0.14728683233261108 -0.4728682041168213 -0.09718092530965805
-0.14728683233261108 -0.4573643207550049 -0.14283937215805054
-0.14728683233261108 -0.4573643207550049 -0.09768886864185333
-0.14728683233261108 -0.4418604373931885 -0.14266493916511536
-0.14728683233261108 -0.4418604373931885 -0.09948895871639252
-0.14728683233261108 -0.42635661363601685 -0.1424833983182907
-0.14728683233261108 -0.42635661363601685 -0.10253627598285675
-0.14728683233261108 -0.41085273027420044 -0.14240802824497223
-0.14728683233261108 -0.41085273027420044 -0.10610619187355042
-0.14728683233261108 -0.39534884691238403 -0.1427917182445526
-0.14728683233261108 -0.39534884691238403 -0.10893413424491882
-0.14728683233261108 -0.37984493374824524 -0.14339441061019897
-0.14728683233261108 -0.3798449635505676 -0.11071990430355072
-0.14728683233261108 -0.3643410801887512 -0.14380015432834625
-0.14728683233261108 -0.36434105038642883 -0.11200409382581711
-0.14728683233261108 -0.3488371968269348 -0.14385108649730682
-0.14728683233261108 -0.3488371968269348 -0.11320488154888153
-0.14728683233261108 -0.3333333134651184 -0.1436699479818344
-0.14728683233261108 -0.3333333134651184 -0.11481572687625885
-0.14728683233261108 -0.317829430103302 -0.14310716092586517
-0.14728683233261108 -0.317829430103302 -0.11685825139284134
-0.14728683233261108 -0.30232560634613037 -0.1425701230764389
-0.14728683233261108 -0.30232560634613037 -0.11939820647239685
-0.14728683233261108 -0.28682172298431396 -0.14230650663375854
-0.14728683233261108 -0.28682172298431396 -0.12120974808931351
-0.14728683233261108 -0.27131783962249756 -0.14200681447982788
-0.14728683233261108 -0.27131783962249756 -0.12272046506404877
-0.14728683233261108 -0.25581395626068115 -0.14198289811611176
-0.14728683233261108 -0.25581395626068115 -0.12375050783157349
-0.14728683233261108 -0.24031007289886475 -0.14218227565288544
-0.14728683233261108 -0.24031007289886475 -0.12415823340415955
-0.14728683233261108 -0.22480618953704834 -0.14198103547096252
-0.14728683233261108 -0.22480618953704834 -0.12439946085214615
-0.14728683233261108 -0.20930230617523193 -0.14104677736759186
-0.14728683233261108 -0.20930230617523193 -0.12482088804244995
-0.14728683233261108 -0.19379842281341553 -0.14016398787498474
-0.14728683233261108 -0.19379842281341553 -0.123164102435112
-0.14728683233261108 -0.1782945990562439 -0.13965652883052826
-0.14728683233261108 -0.1782945990562439 0.016482897102832794
-0.14728683233261108 -0.1627907156944275 -0.13949480652809143
-0.14728683233261108 -0.1627907156944275 0.028179164975881577
-0.14728683233261108 -0.14728683233261108 -0.13954704999923706
-0.14728683233261108 -0.14728683233261108 0.03521908074617386
-0.14728683233261108 -0.13178294897079468 -0.13937723636627197
-0.14728683233261108 -0.13178294897079468 0.04172017052769661
-0.14728683233261108 -0.11627906560897827 -0.13892608880996704
-0.14728683233261108 -0.11627906560897827 0.04812654107809067
-0.14728683233261108 -0.10077518224716187 -0.13848598301410675
-0.14728683233261108 -0.10077518224716187 0.05529659986495972
-0.14728683233261108 -0.08527129888534546 -0.13802221417427063
-0.14728683233261108 -0.08527129888534546 0.0619373694062233
-0.14728683233261108 -0.06976741552352905 -0.13775299489498138
-0.14728683233261108 -0.06976742297410965 0.07026661932468414
-0.14728683233261108 -0.05426359176635742 -0.1376309096813202
-0.14728683233261108 -0.05426359176635742 0.07785051316022873
-0.14728683233261108 -0.038759708404541016 -0.13756150007247925
-0.14728683233261108 -0.038759708404541016 0.08667251467704773
-0.14728683233261108 -0.02325582504272461 -0.1376054584980011
-0.14728683233261108 -0.02325582504272461 0.0940224677324295
-0.14728683233261108 -0.007751941680908203 -0.13802474737167358
-0.14728683233261108 -0.007751941680908203 0.10101800411939621
-0.14728683233261108 0.007751941680908203 -0.13874748349189758
-0.14728683233261108 0.007751941680908203 0.10597050189971924
-0.14728683233261108 0.02325582504272461 -0.13935518264770508
-0.14728683233261108 0.02325582504272461 0.10823260247707367
-0.14728683233261108 0.038759708404541016 -0.13993822038173676
-0.14728683233261108 0.038759708404541016 0.1097424328327179
-0.14728683233261108 0.05426359176635742 -0.14042016863822937
-0.14728683233261108 0.05426359176635742 0.11149711906909943
-0.14728683233261108 0.06976747512817383 -0.1407751441001892
-0.14728683233261108 0.06976747512817383 0.11434700340032578
-0.14728683233261108 0.08527135848999023 -0.14087621867656708
-0.14728683233261108 0.08527135848999023 0.11694259196519852
-0.14728683233261108 0.10077524185180664 -0.14103040099143982
-0.14728683233261108 0.10077524185180664 0.11859981715679169
-0.14728683233261108 0.11627912521362305 -0.14086057245731354
-0.14728683233261108 0.11627912521362305 0.12011946737766266
-0.14728683233261108 0.1317828893661499 -0.14039219915866852
-0.14728683233261108 0.1317828893661499 0.12113570421934128
-0.14728683233261108 0.1472867727279663 -0.13993029296398163
-0.14728683233261108 0.1472867727279663 0.12178291380405426
-0.14728683233261108 0.16279065608978271 -0.13954216241836548
-0.14728683233261108 0.16279065608978271 0.12202800810337067
-0.14728683233261108 0.17829453945159912 -0.1393803358078003
-0.14728683233261108 0.17829453945159912 0.1216413676738739
-0.14728683233261108 0.19379842281341553 -0.13937890529632568
-0.14728683233261108 0.19379842281341553 0.12072224915027618
-0.14728683233261108 0.20930230617523193 -0.13914111256599426
-0.14728683233261108 0.20930230617523193 0.11900962889194489
-0.14728683233261108 0.22480618953704834 -0.13879908621311188
-0.14728683233261108 0.22480618953704834 0.11714327335357666
-0.14728683233261108 0.24031007289886475 -0.13917115330696106
-0.14728683233261108 0.24031007289886475 0.11439354717731476
-0.14728683233261108 0.25581395626068115 -0.1393802911043167
-0.14728683233261108 0.25581395626068115 0.11116446554660797
-0.14728683233261108 0.27131783962249756 -0.13925126194953918
-0.14728683233261108 0.27131783962249756 0.10917563736438751
-0.14728683233261108 0.28682172298431396 -0.13905704021453857
-0.14728683233261108 0.28682172298431396 0.10786733031272888
-0.14728683233261108 0.30232560634613037 -0.13894438743591309
-0.14728683233261108 0.30232560634613037 0.1067870557308197
-0.14728683233261108 0.3178294897079468 -0.13887394964694977
-0.14728683233261108 0.3178294897079468 0.10546080768108368
-0.14728683233261108 0.3333333730697632 -0.1388207972049713
-0.14728683233261108 0.3333333730697632 0.10370929539203644
-0.14728683233261108 0.3488372564315796 -0.13894867897033691
-0.14728683233261108 0.348837286233902 0.10166653245687485
-0.14728683233261108 0.364341139793396 -0.1396927386522293
-0.14728683233261108 0.364341139793396 0.09811622649431229
-0.14728683233261108 0.37984490394592285 -0.14094030857086182
-0.14728683233261108 0.37984490394592285 0.09449142217636108
-0.14728683233261108 0.39534878730773926 -0.14086081087589264
-0.14728683233261108 0.39534878730773926 0.09154732525348663
-0.14728683233261108 0.41085267066955566 -0.13952794671058655
-0.14728683233261108 0.41085267066955566 0.08531203120946884
-0.14728683233261108 0.42635655403137207 -0.13954609632492065
-0.14728683233261108 0.42635655403137207 0.04768430441617966
-0.14728683233261108 0.4418604373931885 -0.13921529054641724
-0.14728683233261108 0.4418604373931885 -0.10995307564735413
-0.14728683233261108 0.4573643207550049 -0.13805846869945526
-0.14728683233261108 0.4573643207550049 -0.11344639956951141
-0.14728683233261108 0.4728682041168213 -0.13804472982883453
-0.14728683233261108 0.4728682041168213 -0.1142076924443245
-0.14728683233261108 0.4883720874786377 -0.1385728120803833
-0.14728684723377228 0.4883720874786377 -0.11491665989160538
-0.14728683233261108 0.5038759708404541 -0.13951119780540466
-0.14728683233261108 0.5038759708404541 -0.11505777388811111
-0.14728683233261108 0.5193798542022705 -0.14070139825344086
-0.14728683233261108 0.5193798542022705 -0.11440494656562805
-0.14728683233261108 0.5348837375640869 -0.1411234587430954
-0.14728683233261108 0.5348837375640869 -0.11325915157794952
-0.14728683233261108 0.5503876209259033 -0.14036594331264496
-0.14728683233261108 0.5503876209259033 -0.11259859055280685
-0.14728683233261108 0.5658915042877197 -0.13988208770751953
-0.14728683233261108 0.5658915042877197 -0.11207219213247299
-0.14728683233261108 0.5813953876495361 -0.13959509134292603
-0.14728683233261108 0.5813953876495361 -0.1126861721277237
-0.14728683233261108 0.5968992710113525 -0.13920417428016663
-0.14728683233261108 0.5968992710113525 -0.11408613622188568
-0.14728683233261108 0.612403154373169 -0.13858774304389954
-0.14728683233261108 0.612403154373169 -0.11520475149154663
-0.14728683233261108 0.6279069185256958 -0.13823944330215454
-0.14728683233261108 0.6279069185256958 -0.11525052040815353
-0.14728683233261108 0.6434108018875122 -0.1381097435951233
-0.1472868174314499 0.6434107422828674 -0.11513905972242355
-0.14728683233261108 0.6589146852493286 -0.13823333382606506
-0.14728683233261108 0.6589146852493286 -0.11498214304447174
-0.14728683233261108 0.674418568611145 -0.13869357109069824
-0.14728683233261108 0.674418568611145 -0.11460437625646591
-0.14728683233261108 0.6899224519729614 -0.1392696648836136
-0.14728683233261108 0.6899224519729614 -0.11348693072795868
-0.14728683233261108 0.7054263353347778 -0.13965193927288055
-0.14728683233261108 0.7054263353347778 -0.11244971305131912
-0.14728683233261108 0.7209302186965942 -0.13957436382770538
-0.14728683233261108 0.7209302186965942 -0.11235327273607254
-0.14728683233261108 0.7364341020584106 -0.1391696333885193
-0.14728683233261108 0.7364341020584106 -0.11271990835666656
-0.14728683233261108 0.751937985420227 -0.13878360390663147
-0.14728683233261108 0.751937985420227 -0.11330012232065201
-0.14728683233261108 0.7674418687820435 -0.13858789205551147
-0.14728683233261108 0.7674418687820435 -0.11392797529697418
-0.14728683233261108 0.7829457521438599 -0.13830481469631195
-0.14728683233261108 0.7829456925392151 -0.1147255003452301
-0.14728683233261108 0.7984496355056763 -0.13808542490005493
-0.14728683233261108 0.7984496355056763 -0.11524926871061325
-0.14728683233261108 0.8139535188674927 -0.13784906268119812
-0.14728683233261108 0.8139535188674927 -0.11539351940155029
-0.14728683233261108 0.8294574022293091 -0.13748139142990112
-0.14728684723377228 0.8294574022293091 -0.11539174616336823
-0.14728683233261108 0.8449612855911255 -0.13717100024223328
-0.14728683233261108 0.8449612855911255 -0.11530333757400513
-0.14728683233261108 0.8604651689529419 -0.13701723515987396
-0.14728684723377228 0.8604651689529419 -0.11485998332500458
-0.14728683233261108 0.8759689331054688 -0.13701650500297546
-0.14728683233261108 0.8759689331054688 -0.11362554132938385
-0.14728683233261108 0.8914728164672852 -0.13699831068515778
-0.14728683233261108 0.8914728164672852 -0.11204268038272858
-0.14728683233261108 0.9069766998291016 -0.13665544986724854
-0.14728683233261108 0.9069766998291016 -0.11107379198074341
-0.14728683233261108 0.922480583190918 -0.1361369788646698
-0.14728683233261108 0.922480583190918 -0.11090130358934402
-0.14728683233261108 0.9379844665527344 -0.13538548350334167
-0.14728683233261108 0.9379844665527344 -0.11018522083759308
-0.14728683233261108 0.9534883499145508 -0.13427385687828064
-0.14728683233261108 0.9534883499145508 -0.10678843408823013
-0.14728683233261108 0.9689922332763672 -0.13431085646152496
-0.14728683233261108 0.9689922332763672 -0.0686989426612854
-0.14728683233261108 0.9844961166381836 -0.13295896351337433
-0.14728683233261108 0.9844961166381836 -0.02261577732861042
-0.13178294897079468 -0.9844961166381836 -0.1324155479669571
-0.13178294897079468 -0.9844961166381836 -0.13076946139335632
-0.13178294897079468 -0.9689922332763672 -0.13619087636470795
-0.13178294897079468 -0.9689922332763672 -0.12023162096738815
-0.13178294897079468 -0.9534883499145508 -0.1373288631439209
-0.13178294897079468 -0.9534883499145508 -0.11423756927251816
-0.13178294897079468 -0.9379844665527344 -0.1386241614818573
-0.13178294897079468 -0.9379844665527344 -0.11264598369598389
-0.13178294897079468 -0.9224806427955627 -0.1397818624973297
-0.13178294897079468 -0.9224807024002075 -0.11167600750923157
-0.13178294897079468 -0.9069767594337463 -0.1403207629919052
-0.13178294897079468 -0.9069766998291016 -0.1109083741903305
-0.13178294897079468 -0.8914729356765747 -0.14084327220916748
-0.13178294897079468 -0.8914729356765747 -0.11051014065742493
-0.13178294897079468 -0.8759689927101135 -0.14125236868858337
-0.13178294897079468 -0.8759689331054688 -0.10998918116092682
-0.13178294897079468 -0.8604651689529419 -0.1413443684577942
-0.13178294897079468 -0.8604651093482971 -0.10878203809261322
-0.13178294897079468 -0.8449612855911255 -0.14149746298789978
-0.13178294897079468 -0.8449612259864807 -0.10708126425743103
-0.13178294897079468 -0.8294574022293091 -0.1417035311460495
-0.13178294897079468 -0.8294572830200195 -0.10549353063106537
-0.13178294897079468 -0.8139535188674927 -0.1418590545654297
-0.13178294897079468 -0.8139535188674927 -0.10376626253128052
-0.13178294897079468 -0.7984496355056763 -0.14227649569511414
-0.13178294897079468 -0.7984496355056763 -0.10233884304761887
-0.13178294897079468 -0.7829457521438599 -0.14267128705978394
-0.13178294897079468 -0.7829457521438599 -0.10236886143684387
-0.13178294897079468 -0.7674418687820435 -0.14335057139396667
-0.13178294897079468 -0.7674418687820435 -0.10315121710300446
-0.13178294897079468 -0.7519379258155823 -0.1441226452589035
-0.13178294897079468 -0.751937985420227 -0.10382392257452011
-0.13178294897079468 -0.7364341020584106 -0.14475087821483612
-0.13178294897079468 -0.7364341020584106 -0.10441167652606964
-0.13178294897079468 -0.7209302186965942 -0.1454443335533142
-0.13178294897079468 -0.7209302186965942 -0.10462654381990433
-0.13178294897079468 -0.7054263353347778 -0.14625105261802673
-0.13178294897079468 -0.7054263353347778 -0.10365170240402222
-0.13178294897079468 -0.6899224519729614 -0.1468004733324051
-0.13178294897079468 -0.6899224519729614 -0.10136464983224869
-0.13178294897079468 -0.674418568611145 -0.1469537764787674
-0.13178294897079468 -0.674418568611145 -0.09964355081319809
-0.13178294897079468 -0.6589146852493286 -0.14697426557540894
-0.13178294897079468 -0.6589146852493286 -0.09857022762298584
-0.13178294897079468 -0.643410861492157 -0.14619427919387817
-0.13178294897079468 -0.643410861492157 -0.09786016494035721
-0.13178294897079468 -0.6279070377349854 -0.1455593705177307
-0.13178294897079468 -0.6279069781303406 -0.09748928993940353
-0.13178294897079468 -0.612403154373169 -0.14491093158721924
-0.13178294897079468 -0.612403154373169 -0.09730024635791779
-0.13178294897079468 -0.596899151802063 -0.14430838823318481
-0.13178294897079468 -0.5968992114067078 -0.09730859100818634
-0.13178294897079468 -0.5813953876495361 -0.1441294252872467
-0.13178294897079468 -0.5813953876495361 -0.09712342172861099
-0.13178294897079468 -0.5658915042877197 -0.14420254528522491
-0.13178294897079468 -0.5658915042877197 -0.09665349125862122
-0.13178294897079468 -0.5503876209259033 -0.14425060153007507
-0.13178294897079468 -0.5503876209259033 -0.09665319323539734
-0.13178294897079468 -0.5348837375640869 -0.14432179927825928
-0.13178294897079468 -0.5348837375640869 -0.09663441777229309
-0.13178294897079468 -0.5193798542022705 -0.14402900636196136
-0.13178294897079468 -0.5193798542022705 -0.09679346531629562
-0.13178294897079468 -0.5038759708404541 -0.14381426572799683
-0.13178294897079468 -0.5038759708404541 -0.09675262868404388
-0.13178294897079468 -0.4883720874786377 -0.1436672955751419
-0.13178294897079468 -0.4883720874786377 -0.09656069427728653
-0.13178294897079468 -0.4728682041168213 -0.1432645618915558
-0.13178294897079468 -0.4728682041168213 -0.09614859521389008
-0.13178294897079468 -0.4573643207550049 -0.1429346799850464
-0.13178294897079468 -0.4573643207550049 -0.09674185514450073
-0.13178294897079468 -0.4418604373931885 -0.1427750289440155
-0.13178294897079468 -0.4418604373931885 -0.09867982566356659
-0.13178294897079468 -0.42635661363601685 -0.14259999990463257
-0.13178294897079468 -0.42635661363601685 -0.10140035301446915
-0.13178294897079468 -0.41085273027420044 -0.14259204268455505
-0.13178294897079468 -0.41085273027420044 -0.10502678155899048
-0.13178294897079468 -0.39534884691238403 -0.14303570985794067
-0.13178294897079468 -0.39534884691238403 -0.10786701738834381
-0.13178294897079468 -0.3798449635505676 -0.14368778467178345
-0.13178294897079468 -0.3798449635505676 -0.1097288578748703
-0.13178294897079468 -0.3643410801887512 -0.14404597878456116
-0.13178294897079468 -0.3643410801887512 -0.11123733222484589
-0.13178294897079468 -0.3488371968269348 -0.14384739100933075
-0.13178294897079468 -0.3488371968269348 -0.11280913650989532
-0.13178294897079468 -0.3333333134651184 -0.1433800309896469
-0.13178294897079468 -0.333333283662796 -0.11482230573892593
-0.13178294897079468 -0.317829430103302 -0.14264310896396637
-0.13178294897079468 -0.317829430103302 -0.11718049645423889
-0.13178294897079468 -0.30232560634613037 -0.142043799161911
-0.13178294897079468 -0.30232560634613037 -0.11958383768796921
-0.13178294897079468 -0.28682172298431396 -0.14179101586341858
-0.13178294897079468 -0.28682172298431396 -0.12134096026420593
-0.13178294897079468 -0.27131783962249756 -0.14149686694145203
-0.13178294897079468 -0.27131783962249756 -0.12285415828227997
-0.13178294897079468 -0.25581395626068115 -0.14145556092262268
-0.13178294897079468 -0.25581395626068115 -0.12392693758010864
-0.13178294897079468 -0.24031008780002594 -0.14169350266456604
-0.13178294897079468 -0.24031007289886475 -0.12422367930412292
-0.13178294897079468 -0.22480618953704834 -0.14160194993019104
-0.13178294897079468 -0.22480618953704834 -0.12425463646650314
-0.13178294897079468 -0.20930230617523193 -0.14077894389629364
-0.13178294897079468 -0.20930230617523193 -0.12460726499557495
-0.13178294897079468 -0.19379842281341553 -0.13989585638046265
-0.13178294897079468 -0.19379842281341553 -0.12284211814403534
-0.13178294897079468 -0.1782945990562439 -0.13934040069580078
-0.13178294897079468 -0.1782945990562439 0.01723291166126728
-0.13178294897079468 -0.1627907156944275 -0.13912396132946014
-0.13178294897079468 -0.1627907156944275 0.028980325907468796
-0.13178294897079468 -0.14728683233261108 -0.13919386267662048
-0.13178294897079468 -0.14728683233261108 0.03598570451140404
-0.13178294897079468 -0.13178294897079468 -0.13904792070388794
-0.13178294897079468 -0.13178294897079468 0.04241199046373367
-0.13178294897079468 -0.11627906560897827 -0.13864916563034058
-0.13178294897079468 -0.11627906560897827 0.048869386315345764
-0.13178294897079468 -0.10077518224716187 -0.13828228414058685
-0.13178294897079468 -0.10077518224716187 0.05583828315138817
-0.13178294897079468 -0.08527129888534546 -0.1378920078277588
-0.13178294897079468 -0.08527129888534546 0.06258513778448105
-0.13178294897079468 -0.06976741552352905 -0.13767080008983612
-0.13178294897079468 -0.06976741552352905 0.07070430368185043
-0.13178294897079468 -0.05426359176635742 -0.13757410645484924
-0.13178294897079468 -0.05426359176635742 0.07827924937009811
-0.13178294897079468 -0.038759708404541016 -0.13753236830234528
-0.13178294897079468 -0.038759708404541016 0.08680900931358337
-0.13178294897079468 -0.02325582504272461 -0.13762079179286957
-0.13178294897079468 -0.02325582504272461 0.09389495104551315
-0.13178294897079468 -0.007751941680908203 -0.13811150193214417
-0.13178294897079468 -0.007751941680908203 0.10025729984045029
-0.13178294897079468 0.007751941680908203 -0.13893678784370422
-0.13178294897079468 0.007751941680908203 0.10509228706359863
-0.13178294897079468 0.02325582504272461 -0.1396217942237854
-0.13178294897079468 0.02325582504272461 0.10736958682537079
-0.13178294897079468 0.038759708404541016 -0.14029864966869354
-0.13178294897079468 0.038759708404541016 0.10859186947345734
-0.13178294897079468 0.05426359176635742 -0.14084862172603607
-0.13178294897079468 0.05426359176635742 0.10993511229753494
-0.13178294897079468 0.06976747512817383 -0.1412053257226944
-0.13178294897079468 0.06976747512817383 0.11220863461494446
-0.13178294897079468 0.08527135848999023 -0.14125652611255646
-0.13178294897079468 0.08527135848999023 0.11494306474924088
-0.13178294897079468 0.10077524185180664 -0.1413879692554474
-0.13178294897079468 0.10077524185180664 0.11714394390583038
-0.13178294897079468 0.11627913266420364 -0.1412038505077362
-0.13178294897079468 0.11627912521362305 0.11848984658718109
-0.13178294897079468 0.1317828893661499 -0.14071272313594818
-0.13178294897079468 0.1317828893661499 0.11948452889919281
-0.13178294897079468 0.1472867727279663 -0.1402290016412735
-0.13178294897079468 0.1472867727279663 0.12013539671897888
-0.13178294897079468 0.16279065608978271 -0.13978984951972961
-0.13178294897079468 0.16279065608978271 0.120362788438797
-0.13178294897079468 0.17829453945159912 -0.1395910382270813
-0.13178294897079468 0.17829455435276031 0.11995392292737961
-0.13178294897079468 0.19379842281341553 -0.1395513117313385
-0.13178294897079468 0.19379842281341553 0.11906737834215164
-0.13178294897079468 0.20930230617523193 -0.13927175104618073
-0.13178294897079468 0.20930230617523193 0.11754382401704788
-0.13178294897079468 0.22480618953704834 -0.138893723487854
-0.13178294897079468 0.22480618953704834 0.1153390109539032
-0.13178294897079468 0.24031007289886475 -0.1392703652381897
-0.13178294897079468 0.24031007289886475 0.1122439056634903
-0.13178294897079468 0.25581395626068115 -0.13947176933288574
-0.13178294897079468 0.25581395626068115 0.1100119948387146
-0.13178294897079468 0.27131783962249756 -0.13930338621139526
-0.13178294897079468 0.27131783962249756 0.1084941104054451
-0.13178294897079468 0.28682172298431396 -0.13910847902297974
-0.13178294897079468 0.28682172298431396 0.10742048174142838
-0.13178294897079468 0.30232560634613037 -0.13900980353355408
-0.13178294897079468 0.30232560634613037 0.106401726603508
-0.13178294897079468 0.3178294897079468 -0.13898895680904388
-0.13178294897079468 0.3178294897079468 0.10512442886829376
-0.13178294897079468 0.3333333730697632 -0.1389356255531311
-0.13178294897079468 0.3333333432674408 0.10345406830310822
-0.13178294897079468 0.3488372564315796 -0.1389567255973816
-0.13178294897079468 0.348837286233902 0.1014646589756012
-0.13178294897079468 0.364341139793396 -0.1395447552204132
-0.13178294897079468 0.364341139793396 0.09790962934494019
-0.13178294897079468 0.37984490394592285 -0.14063893258571625
-0.13178294897079468 0.37984490394592285 0.09452250599861145
-0.13178294897079468 0.39534878730773926 -0.14056570827960968
-0.13178294897079468 0.39534878730773926 0.09170281141996384
-0.13178294897079468 0.41085267066955566 -0.1393681764602661
-0.13178294897079468 0.41085267066955566 0.08582118898630142
-0.13178294897079468 0.42635655403137207 -0.13957634568214417
-0.13178294897079468 0.42635658383369446 0.05579470843076706
-0.13178294897079468 0.4418604373931885 -0.1393088549375534
-0.13178294897079468 0.4418604373931885 -0.1088959276676178
-0.13178294897079468 0.4573643207550049 -0.13811376690864563
-0.13178294897079468 0.4573643207550049 -0.11193032562732697
-0.13178294897079468 0.4728682041168213 -0.13811638951301575
-0.13178294897079468 0.4728682041168213 -0.11291733384132385
-0.13178294897079468 0.4883720874786377 -0.1386476755142212
-0.13178294897079468 0.4883721172809601 -0.11384175717830658
-0.13178294897079468 0.5038759708404541 -0.13954631984233856
-0.13178294897079468 0.5038759708404541 -0.11406457424163818
-0.13178294897079468 0.5193798542022705 -0.140659898519516
-0.13178294897079468 0.5193798542022705 -0.11341380327939987
-0.13178294897079468 0.5348837375640869 -0.14111821353435516
-0.13178294897079468 0.5348837375640869 -0.11217711865901947
-0.13178294897079468 0.5503876209259033 -0.1403627246618271
-0.13178294897079468 0.5503876209259033 -0.1115582138299942
-0.13178294897079468 0.5658915042877197 -0.1398596316576004
-0.13178294897079468 0.5658915042877197 -0.11103074252605438
-0.13178294897079468 0.5813953876495361 -0.13956767320632935
-0.13178294897079468 0.5813953876495361 -0.11166924238204956
-0.13178294897079468 0.5968992710113525 -0.13920904695987701
-0.13178294897079468 0.5968992710113525 -0.11318760365247726
-0.13178294897079468 0.612403154373169 -0.1386340707540512
-0.13178294897079468 0.612403154373169 -0.11443774402141571
-0.13178294897079468 0.6279069185256958 -0.13831603527069092
-0.13178294897079468 0.6279069185256958 -0.11449015885591507
-0.13178294897079468 0.6434108018875122 -0.13820675015449524
-0.13178294897079468 0.6434108018875122 -0.11435827612876892
-0.13178294897079468 0.6589146852493286 -0.13832919299602509
-0.13178294897079468 0.6589146852493286 -0.11423749476671219
-0.13178294897079468 0.674418568611145 -0.1387515813112259
-0.13178294897079468 0.6744186282157898 -0.11382429301738739
-0.13178294897079468 0.6899224519729614 -0.13925784826278687
-0.13178294897079468 0.6899224519729614 -0.11265481263399124
-0.13178294897079468 0.7054263353347778 -0.13961440324783325
-0.13178294897079468 0.7054263353347778 -0.11158018559217453
-0.13178294897079468 0.7209302186965942 -0.13954684138298035
-0.13178294897079468 0.7209302186965942 -0.11148335039615631
-0.13178294897079468 0.7364341020584106 -0.13914835453033447
-0.13178294897079468 0.7364341020584106 -0.11186322569847107
-0.13178294897079468 0.751937985420227 -0.13876894116401672
-0.13178294897079468 0.751937985420227 -0.11243222653865814
-0.13178294897079468 0.7674418687820435 -0.1385817527770996
-0.13178294897079468 0.7674418687820435 -0.11300919204950333
-0.13178294897079468 0.7829457521438599 -0.1383054256439209
-0.13178294897079468 0.7829457521438599 -0.11379730701446533
