0.211622953414917 0.4728682041168213 0.02325582504272461
0.2111121416091919 0.4728681743144989 0.03875970467925072
0.21025986969470978 0.4728682339191437 0.05426359176635742
0.20969727635383606 0.4883720874786377 -0.08527129888534546
0.2100689560174942 0.4883720874786377 -0.06976741552352905
0.21046951413154602 0.4883720874786377 -0.05426359176635742
0.21089613437652588 0.4883720874786377 -0.038759708404541016
0.2112560272216797 0.4883720874786377 -0.02325582504272461
0.21170899271965027 0.4883720874786377 -0.007751941680908203
0.2121300995349884 0.4883720874786377 0.007751941680908203
0.212134450674057 0.4883720874786377 0.02325582504272461
0.2114623636007309 0.4883720874786377 0.038759708404541016
0.21044772863388062 0.4883720874786377 0.05426359176635742
0.2098226547241211 0.5038759708404541 -0.10077518224716187
0.21044059097766876 0.5038759708404541 -0.08527129143476486
0.21089529991149902 0.5038759708404541 -0.06976740807294846
0.21136417984962463 0.5038759708404541 -0.05426359176635742
0.21183215081691742 0.5038759708404541 -0.038759712129831314
0.21217221021652222 0.5038759708404541 -0.02325582504272461
0.21256256103515625 0.5038759708404541 -0.007751941215246916
0.21286146342754364 0.5038759708404541 0.007751941680908203
0.2126908302307129 0.5038759708404541 0.02325582504272461
0.21181868016719818 0.5038759708404541 0.038759708404541016
0.21060335636138916 0.5038759708404541 0.05426359176635742
0.20941206812858582 0.5193798542022705 -0.13178294897079468
0.21004611253738403 0.5193798542022705 -0.11627906560897827
0.2107115387916565 0.5193798542022705 -0.10077518224716187
0.21146084368228912 0.5193798542022705 -0.08527129888534546
0.21202988922595978 0.5193798542022705 -0.06976741552352905
0.21258047223091125 0.5193798542022705 -0.05426359176635742
0.2130853533744812 0.5193798542022705 -0.038759708404541016
0.21337276697158813 0.5193798542022705 -0.02325582504272461
0.21362793445587158 0.5193798542022705 -0.007751941680908203
0.21372684836387634 0.5193798542022705 0.007751941680908203
0.21332024037837982 0.5193798542022705 0.02325582690536976
0.21222318708896637 0.5193798542022705 0.038759708404541016
0.2107851654291153 0.5193798542022705 0.05426359176635742
0.20954981446266174 0.5348837375640869 -0.14728683233261108
0.21019607782363892 0.5348837375640869 -0.13178294897079468
0.2108602076768875 0.5348837375640869 -0.11627906560897827
0.21159087121486664 0.5348837375640869 -0.10077518224716187
0.21241550147533417 0.5348837375640869 -0.08527129888534546
0.21303527057170868 0.5348837375640869 -0.06976741552352905
0.2136208564043045 0.5348837375640869 -0.05426359176635742
0.21410879492759705 0.5348837375640869 -0.038759708404541016
0.21431031823158264 0.5348837375640869 -0.02325582504272461
0.21440225839614868 0.5348837375640869 -0.00775194214656949
0.21431005001068115 0.5348837375640869 0.007751941680908203
0.2136969268321991 0.5348837375640869 0.02325582318007946
0.2124212682247162 0.5348837375640869 0.038759708404541016
0.21083925664424896 0.5348837375640869 0.05426359176635742
0.20937782526016235 0.5503876209259033 -0.1627907156944275
0.21006625890731812 0.5503876209259033 -0.14728683233261108
0.21070848405361176 0.5503876209259033 -0.13178294897079468
0.2113824188709259 0.5503876209259033 -0.11627906560897827
0.21212145686149597 0.5503876209259033 -0.10077518224716187
0.21295084059238434 0.5503876209259033 -0.08527129888534546
0.21355442702770233 0.5503876209259033 -0.06976741552352905
0.21410450339317322 0.5503876209259033 -0.05426359549164772
0.21453163027763367 0.5503876209259033 -0.038759708404541016
0.21463535726070404 0.5503876209259033 -0.02325582504272461
0.21456852555274963 0.5503876209259033 -0.007751941680908203
0.21429021656513214 0.5503876209259033 0.007751941680908203
0.2134702056646347 0.5503876209259033 0.02325582504272461
0.21207571029663086 0.5503876209259033 0.038759708404541016
0.21047069132328033 0.5503876209259033 0.05426359176635742
0.20959550142288208 0.5658915042877197 -0.1627907156944275
0.2102583348751068 0.5658915042877197 -0.14728683233261108
0.21088506281375885 0.5658915042877197 -0.13178294897079468
0.2115413248538971 0.5658915042877197 -0.11627906560897827
0.212243914604187 0.5658915042877197 -0.10077517479658127
0.21302975714206696 0.5658915042877197 -0.08527129888534546
0.2135702222585678 0.5658915042877197 -0.06976741552352905
0.2140580713748932 0.5658915042877197 -0.05426359176635742
0.21440237760543823 0.5658915042877197 -0.038759708404541016
0.21438142657279968 0.5658915042877197 -0.02325582504272461
0.21411354839801788 0.5658915042877197 -0.007751941680908203
0.21360401809215546 0.5658915042877197 0.007751941680908203
0.21258142590522766 0.5658915042877197 0.02325582690536976
0.21118278801441193 0.5658915042877197 0.038759708404541016
0.20958459377288818 0.5658915042877197 0.05426359176635742
0.20961377024650574 0.5813953280448914 -0.1627907156944275
0.21024957299232483 0.5813953876495361 -0.14728683233261108
0.21085014939308167 0.5813953876495361 -0.13178294897079468
0.21146783232688904 0.5813954472541809 -0.11627906560897827
0.21210648119449615 0.5813953876495361 -0.10077518224716187
0.21281275153160095 0.5813953876495361 -0.08527129888534546
0.21325252950191498 0.5813953876495361 -0.06976741552352905
0.2136414647102356 0.5813953876495361 -0.05426359549164772
0.21386753022670746 0.5813953876495361 -0.038759708404541016
0.2136792540550232 0.5813953876495361 -0.02325582504272461
0.21318255364894867 0.5813953876495361 -0.007751941680908203
0.21246837079524994 0.5813953876495361 0.007751941680908203
0.2113751918077469 0.5813953876495361 0.02325582504272461
0.2100265771150589 0.5813953876495361 0.038759708404541016
0.20989066362380981 0.5968992710113525 -0.14728683233261108
0.21043477952480316 0.5968992710113525 -0.13178294897079468
0.21096977591514587 0.5968992710113525 -0.11627906560897827
0.21149151027202606 0.5968992710113525 -0.10077518224716187
0.21205325424671173 0.5968992710113525 -0.08527129888534546
0.21231615543365479 0.5968992710113525 -0.06976741552352905
0.21252410113811493 0.5968992710113525 -0.05426359176635742
0.21256542205810547 0.5968992710113525 -0.038759708404541016
0.21219930052757263 0.5968992710113525 -0.02325582690536976
0.2115556299686432 0.5968992710113525 -0.007751941680908203
0.21079865097999573 0.5968992710113525 0.007751941680908203
0.20973171293735504 0.5968992710113525 0.02325582504272461
0.2097773253917694 0.6124030947685242 -0.13178294897079468
0.21022292971611023 0.612403154373169 -0.11627906560897827
0.21060413122177124 0.612403154373169 -0.10077518224716187
0.210982546210289 0.612403154373169 -0.08527129888534546
0.21104513108730316 0.612403154373169 -0.06976741552352905
0.2110571265220642 0.612403154373169 -0.05426359176635742
0.21092678606510162 0.612403154373169 -0.038759708404541016
0.2104760706424713 0.612403154373169 -0.02325582318007946
0.20981526374816895 0.612403154373169 -0.007751941680908203
0.20937195420265198 0.6279069185256958 -0.10077518224716187
0.20956037938594818 0.6279069185256958 -0.08527129888534546
0.20942504703998566 0.6279069185256958 -0.06976741552352905
-0.20930230617523193 -0.34974250197410583 -0.038759708404541016
-0.20930230617523193 -0.3522302508354187 -0.02325582504272461
-0.20930230617523193 -0.35602033138275146 -0.007751941680908203
-0.20930230617523193 -0.3576045036315918 0.007751941680908203
-0.20930230617523193 -0.35319840908050537 0.02325582504272461
-0.20930230617523193 -0.34044748544692993 -0.06976741552352905
-0.20930230617523193 -0.3467385470867157 -0.05426359176635742
-0.20930230617523193 -0.3421591520309448 0.038759708404541016
-0.20930230617523193 -0.3275582194328308 -0.08527129888534546
-0.20930230617523193 -0.32471129298210144 0.05426359176635742
-0.20930230617523193 -0.30678829550743103 -0.08527129888534546
-0.20930230617523193 -0.3024601340293884 0.06976747512817383
-0.20930230617523193 -0.2678770124912262 0.08527135848999023
-0.20930230617523193 -0.2433537244796753 -0.06976741552352905
-0.20930230617523193 -0.1897575855255127 -0.05426359176635742
-0.20930230617523193 -0.1372665911912918 -0.038759708404541016
-0.20930230617523193 -0.0934663638472557 -0.02325582504272461
-0.20930230617523193 -0.06256740540266037 -0.007751941680908203
-0.20930230617523193 -0.053911931812763214 0.08527135848999023
-0.20930230617523193 -0.03656485676765442 0.007751941680908203
-0.20930230617523193 -0.012963416054844856 0.02325582504272461
-0.20930230617523193 -0.019532866775989532 0.06976747512817383
-0.20930230617523193 0.006650432012975216 0.038759708404541016
-0.20930230617523193 0.00623159296810627 0.05426359176635742
-0.19379842281341553 -0.42890870571136475 -0.007751941680908203
-0.19379842281341553 -0.4327075183391571 0.007751941680908203
-0.19379842281341553 -0.4344772696495056 0.02325582504272461
-0.19379842281341553 -0.43357568979263306 0.038759708404541016
-0.19379842281341553 -0.42898067831993103 0.05426359176635742
-0.19379842281341553 -0.4116193354129791 -0.08527129888534546
-0.19379842281341553 -0.41373735666275024 -0.06976741552352905
-0.19379842281341553 -0.4170495569705963 -0.05426359176635742
-0.19379842281341553 -0.42093437910079956 -0.038759708404541016
-0.19379842281341553 -0.4249189496040344 -0.02325582504272461
-0.19379842281341553 -0.41591793298721313 0.06976747512817383
-0.19379842281341553 -0.3973264992237091 -0.1627907156944275
-0.19379842281341553 -0.3997821509838104 -0.14728683233261108
-0.19379842281341553 -0.40290117263793945 -0.13178294897079468
-0.19379842281341553 -0.4064190685749054 -0.11627906560897827
-0.19379842281341553 -0.40923893451690674 -0.10077518224716187
-0.19379842281341553 -0.38139405846595764 -0.24031007289886475
-0.19379842281341553 -0.3842066526412964 -0.22480618953704834
-0.19379842281341553 -0.38734644651412964 -0.20930230617523193
-0.19379842281341553 -0.39086538553237915 -0.19379842281341553
-0.19379842281341553 -0.3946310877799988 -0.1782945990562439
-0.19379842281341553 -0.3835475444793701 0.08527135848999023
-0.19379842281341553 -0.37141627073287964 -0.27131783962249756
-0.19379842281341553 -0.37767577171325684 -0.25581395626068115
-0.19379842281341553 -0.33434489369392395 -0.27131783962249756
-0.19379842281341553 -0.34563806653022766 0.10077524185180664
-0.19379842281341553 -0.32731613516807556 -0.25581395626068115
-0.19379842281341553 -0.3188086450099945 -0.24031007289886475
-0.19379842281341553 -0.3116486668586731 -0.22480618953704834
-0.19379842281341553 -0.31206512451171875 0.11627912521362305
-0.19379842281341553 -0.3021448850631714 -0.20930229127407074
-0.19379842281341553 -0.2891022264957428 -0.19379842281341553
-0.19379842281341553 -0.2690674364566803 -0.1782945841550827
-0.19379842281341553 -0.26563695073127747 0.1317828893661499
-0.19379842281341553 -0.24219763278961182 -0.1627907156944275
-0.19379842281341553 -0.22102171182632446 -0.14728683233261108
-0.19379842281341553 -0.2035045623779297 -0.13178294897079468
-0.19379842281341553 -0.18516597151756287 -0.11627906560897827
-0.19379842281341553 -0.16437387466430664 -0.10077518224716187
-0.19379842281341553 -0.1404881328344345 -0.08527129888534546
-0.19379842281341553 -0.11063851416110992 -0.06976741552352905
-0.19379842281341553 -0.07637036591768265 -0.05426359176635742
-0.19379842281341553 -0.039982423186302185 -0.038759708404541016
-0.19379842281341553 0.014296555891633034 -0.02325582504272461
-0.19379842281341553 0.14172866940498352 -0.007751941680908203
-0.19379842281341553 0.19105064868927002 0.007751941680908203
-0.19379840791225433 0.19402895867824554 0.1317828893661499
-0.19379842281341553 0.2217128425836563 0.02325582504272461
-0.19379840791225433 0.24201922118663788 0.03875970467925072
-0.19379842281341553 0.25466227531433105 0.05426359176635742
-0.19379842281341553 0.24777701497077942 0.11627912521362305
-0.19379842281341553 0.2624438405036926 0.06976747512817383
-0.19379842281341553 0.26478391885757446 0.08527135848999023
-0.19379842281341553 0.2612960934638977 0.10077524185180664
-0.19379842281341553 0.3630220592021942 0.05426359176635742
-0.19379842281341553 0.3593674302101135 0.06976747512817383
-0.19379842281341553 0.3620675206184387 0.08527135848999023
-0.19379842281341553 0.3773590326309204 0.02325582504272461
-0.19379843771457672 0.3694103956222534 0.038759708404541016
-0.19379842281341553 0.37078556418418884 0.10077524185180664
-0.19379842281341553 0.39380958676338196 -0.007751941680908203
-0.19379842281341553 0.3860763907432556 0.007751941215246916
-0.19379842281341553 0.3948308229446411 0.11627912521362305
-0.19379842281341553 0.410567045211792 -0.06976741552352905
-0.19379842281341553 0.40760889649391174 -0.05426359176635742
-0.19379842281341553 0.4037473797798157 -0.038759708404541016
-0.19379843771457672 0.3997493088245392 -0.02325582504272461
-0.19379842281341553 0.42460352182388306 -0.14728683233261108
-0.19379842281341553 0.4223455786705017 -0.13178294897079468
-0.19379842281341553 0.4196056127548218 -0.11627906560897827
-0.19379842281341553 0.4171329140663147 -0.10077518224716187
-0.19379842281341553 0.4140737056732178 -0.08527129888534546
-0.19379842281341553 0.43980246782302856 -0.19379842281341553
-0.19379842281341553 0.43370914459228516 -0.1782945990562439
-0.19379842281341553 0.4278464913368225 -0.1627907156944275
-0.19379842281341553 0.44940534234046936 -0.20930230617523193
-0.19379842281341553 0.4459163248538971 0.11627912521362305
-0.19379842281341553 0.4664459824562073 -0.22480618953704834
-0.19379842281341553 0.5042601227760315 -0.24031005799770355
-0.19379842281341553 0.5234318971633911 -0.25581395626068115
-0.19379842281341553 0.5395255088806152 -0.27131783962249756
-0.19379842281341553 0.5541297793388367 -0.28682172298431396
-0.19379842281341553 0.563262403011322 0.10077524185180664
-0.19379842281341553 0.568792462348938 -0.30232560634613037
-0.19379842281341553 0.5905319452285767 -0.317829430103302
-0.19379842281341553 0.5907625555992126 0.08527135848999023
-0.19379842281341553 0.6073850989341736 0.06976747512817383
-0.19379842281341553 0.6201481819152832 0.05426359176635742
-0.19379842281341553 0.6382113695144653 0.02325582504272461
-0.19379842281341553 0.6297041773796082 0.03875970467925072
-0.19379842281341553 0.6583038568496704 -0.02325582504272461
-0.19379842281341553 0.6521692276000977 -0.007751941680908203
-0.19379842281341553 0.6451351046562195 0.007751941680908203
-0.19379842281341553 0.670595645904541 -0.05426359176635742
-0.19379842281341553 0.6644878387451172 -0.038759708404541016
-0.19379842281341553 0.6781166791915894 -0.317829430103302
-0.19379842281341553 0.6894415020942688 -0.14728683233261108
-0.19379842281341553 0.6887509822845459 -0.13178294897079468
-0.19379842281341553 0.6877140402793884 -0.11627906560897827
-0.19379842281341553 0.6850929260253906 -0.10077518224716187
-0.19379842281341553 0.6809104084968567 -0.08527129888534546
-0.19379842281341553 0.675623893737793 -0.06976741552352905
-0.19379842281341553 0.6943930387496948 -0.30232560634613037
-0.19379842281341553 0.7012877464294434 -0.28682172298431396
-0.19379842281341553 0.7026465535163879 -0.27131783962249756
-0.19379842281341553 0.700465202331543 -0.25581395626068115
-0.19379842281341553 0.6992493867874146 -0.24031007289886475
-0.19379842281341553 0.6981161832809448 -0.22480618953704834
-0.19379842281341553 0.6953532099723816 -0.20930230617523193
-0.19379842281341553 0.6924745440483093 -0.19379842281341553
-0.19379842281341553 0.6904857754707336 -0.1782945841550827
-0.19379842281341553 0.6901077032089233 -0.1627907156944275
-0.1782945990562439 -0.6310421228408813 0.6589146852493286
-0.1782945990562439 -0.631672203540802 0.674418568611145
-0.1782945990562439 -0.629625678062439 0.6899224519729614
-0.1782945841550827 -0.6265482902526855 0.6434108018875122
-0.1782945990562439 -0.619236409664154 0.6899224519729614
-0.1782945990562439 -0.6115026473999023 0.6434108018875122
-0.1782945990562439 -0.6108978986740112 0.6589147448539734
-0.1782945990562439 -0.6115714907646179 0.674418568611145
-0.1782945990562439 -0.4757125675678253 0.038759708404541016
-0.1782945990562439 -0.47771409153938293 0.05426359176635742
-0.1782945990562439 -0.47794774174690247 0.06976747512817383
-0.1782945990562439 -0.4771770238876343 0.08527135848999023
-0.1782945990562439 -0.4746365547180176 0.10077524185180664
-0.1782945990562439 -0.4612507224082947 -0.007751941680908203
-0.1782945990562439 -0.468456506729126 0.007751941680908203
-0.1782945990562439 -0.47260236740112305 0.02325582504272461
-0.1782945990562439 -0.4698917269706726 0.11627913266420364
-0.1782945990562439 -0.4573962688446045 0.1317828893661499
-0.1782945990562439 -0.44201454520225525 -0.05426359176635742
-0.1782945990562439 -0.44832643866539 -0.038759708404541016
-0.1782945990562439 -0.4551158845424652 -0.02325582504272461
-0.1782945990562439 -0.42656955122947693 -0.10077518224716187
-0.1782945990562439 -0.4309484362602234 -0.08527129888534546
-0.1782945990562439 -0.43622028827667236 -0.06976741552352905
-0.1782945990562439 -0.4130525588989258 -0.5813953876495361
-0.1782945990562439 -0.41778993606567383 -0.5658915042877197
-0.1782945990562439 -0.4210831820964813 -0.5503876209259033
-0.1782946139574051 -0.42253613471984863 -0.5348837375640869
-0.1782945990562439 -0.4220261871814728 -0.5193798542022705
-0.1782945990562439 -0.4203433394432068 -0.5038759708404541
-0.1782945990562439 -0.41651785373687744 -0.4883720874786377
-0.1782945990562439 -0.41364848613739014 -0.4728682041168213
-0.1782945990562439 -0.4111502170562744 -0.4573643207550049
-0.1782945990562439 -0.4116072356700897 -0.1782945990562439
-0.1782945990562439 -0.41340863704681396 -0.1627907156944275
-0.1782945990562439 -0.41626518964767456 -0.14728683233261108
-0.1782945990562439 -0.41991370916366577 -0.13178294897079468
-0.1782945841550827 -0.4230073094367981 -0.11627906560897827
-0.1782945841550827 -0.40992581844329834 -0.5813953280448914
-0.1782945990562439 -0.4061465561389923 -0.5658915042877197
-0.1782945990562439 -0.40025681257247925 -0.5503876209259033
-0.1782946139574051 -0.4068804383277893 -0.4418604373931885
-0.1782945990562439 -0.4036407768726349 -0.42635661363601685
-0.1782945990562439 -0.40174102783203125 -0.41085273027420044
-0.1782945990562439 -0.4010501801967621 -0.39534884691238403
-0.1782945990562439 -0.4013455808162689 -0.3798449635505676
-0.1782945990562439 -0.4016776978969574 -0.3643410801887512
-0.1782945990562439 -0.40191924571990967 -0.3488371968269348
-0.1782945990562439 -0.4021936058998108 -0.3333333134651184
-0.1782945990562439 -0.4026798903942108 -0.317829430103302
-0.1782945990562439 -0.40349137783050537 -0.30232560634613037
-0.1782945990562439 -0.40422725677490234 -0.28682172298431396
-0.1782945990562439 -0.4051420986652374 -0.27131783962249756
-0.1782945990562439 -0.4058230519294739 -0.25581395626068115
-0.1782945990562439 -0.40655016899108887 -0.24031007289886475
-0.1782945990562439 -0.40755945444107056 -0.22480618953704834
-0.1782945990562439 -0.4089171290397644 -0.20930230617523193
-0.1782945990562439 -0.41049429774284363 -0.19379842281341553
-0.1782945841550827 -0.3939410448074341 -0.5348837375640869
-0.1782945990562439 -0.39180850982666016 -0.5193798542022705
-0.1782945990562439 -0.3893201947212219 -0.5038759708404541
-0.1782945990562439 -0.38691288232803345 -0.4883720874786377
-0.1782945990562439 -0.38324522972106934 -0.4728682041168213
-0.1782945990562439 -0.3789847791194916 -0.4573643207550049
-0.1782945990562439 -0.3761693835258484 -0.4418604373931885
-0.1782945990562439 -0.3715932369232178 -0.42635661363601685
-0.1782945990562439 -0.36422595381736755 -0.41085273027420044
-0.1782945990562439 -0.3591400980949402 -0.39534884691238403
-0.1782945990562439 -0.3505428433418274 -0.3798449635505676
-0.1782945990562439 -0.3421125113964081 -0.3643410801887512
-0.1782945990562439 -0.33989447355270386 0.1472867727279663
-0.1782946139574051 -0.3316471576690674 -0.3488371968269348
-0.1782945990562439 -0.3251316249370575 -0.3333333134651184
-0.1782945990562439 -0.3166807293891907 -0.317829430103302
-0.1782945990562439 -0.3106957674026489 -0.30232560634613037
-0.1782945990562439 -0.30546215176582336 -0.28682172298431396
-0.1782945990562439 -0.29915693402290344 -0.27131783962249756
-0.1782945990562439 -0.29397648572921753 -0.25581395626068115
-0.1782945990562439 -0.2869901657104492 -0.24031007289886475
-0.1782945990562439 -0.27580854296684265 -0.22480618953704834
-0.1782945990562439 -0.27870798110961914 0.16279065608978271
-0.1782945990562439 -0.2579379975795746 -0.20930230617523193
-0.1782945990562439 -0.23531711101531982 -0.19379842281341553
-0.1782945990562439 -0.21039046347141266 -0.1782945990562439
-0.1782945990562439 -0.20346513390541077 0.17829453945159912
-0.1782945990562439 -0.1891169548034668 -0.1627907156944275
-0.1782945990562439 -0.1696046143770218 -0.14728683233261108
-0.1782945990562439 -0.15154699981212616 -0.13178294897079468
-0.1782945990562439 -0.1322551816701889 -0.11627906560897827
-0.1782945841550827 -0.11166466027498245 -0.10077518224716187
-0.1782945990562439 -0.08655695617198944 -0.08527129888534546
-0.1782945990562439 -0.08490288257598877 0.17829453945159912
-0.1782945990562439 -0.0554918497800827 -0.06976741552352905
-0.1782945990562439 -0.00233290484175086 -0.05426359176635742
-0.1782945990562439 0.149032860994339 -0.038759708404541016
-0.1782945990562439 0.20458275079727173 -0.02325582504272461
-0.1782945990562439 0.24389705061912537 -0.007751941680908203
-0.1782945990562439 0.25587132573127747 0.16279065608978271
-0.1782945990562439 0.27895569801330566 0.007751941680908203
-0.1782945990562439 0.33591076731681824 0.007751941680908203
-0.1782945990562439 0.36101043224334717 -0.02325582504272461
-0.1782945990562439 0.35097289085388184 -0.007751941680908203
-0.1782945990562439 0.37721502780914307 -0.06976741552352905
-0.1782945990562439 0.3724605441093445 -0.05426359176635742
-0.1782945990562439 0.3672178089618683 -0.038759708404541016
-0.1782945990562439 0.39420247077941895 -0.14728683233261108
-0.1782945990562439 0.39162951707839966 -0.13178294897079468
-0.1782945990562439 0.38835078477859497 -0.11627906560897827
-0.1782945990562439 0.38483476638793945 -0.10077518224716187
-0.1782945990562439 0.38111650943756104 -0.08527129888534546
-0.1782945990562439 0.4093950688838959 -0.20930230617523193
-0.1782945990562439 0.4053439497947693 -0.19379842281341553
-0.1782945990562439 0.4005115032196045 -0.1782945990562439
-0.1782945990562439 0.3966348469257355 -0.1627907156944275
-0.1782945990562439 0.42144495248794556 -0.24031007289886475
-0.1782945990562439 0.41421520709991455 -0.22480618953704834
-0.1782945990562439 0.42945924401283264 -0.25581395626068115
-0.1782945990562439 0.4444602131843567 -0.27131783962249756
-0.1782945990562439 0.4905204176902771 -0.28682172298431396
-0.1782945990562439 0.5133139491081238 -0.30232560634613037
-0.1782945990562439 0.5298194885253906 -0.317829430103302
-0.1782945990562439 0.5465483665466309 -0.3333333134651184
-0.1782946139574051 0.5365092754364014 0.1472867727279663
-0.1782945990562439 0.5648504495620728 -0.3488371968269348
-0.1782945990562439 0.5864725112915039 -0.3643410801887512
-0.1782945990562439 0.5853145122528076 0.1317828893661499
-0.1782945990562439 0.6083877086639404 -0.3798449635505676
-0.1782945990562439 0.614550769329071 0.11627912521362305
-0.1782945990562439 0.6361019611358643 0.10077524185180664
-0.1782945990562439 0.651809811592102 -0.39534884691238403
-0.1782945990562439 0.6552597284317017 0.08527135848999023
-0.1782945990562439 0.6693108081817627 -0.8759690523147583
-0.1782945990562439 0.668602705001831 0.06976747512817383
-0.1782945990562439 0.6872584223747253 0.038759708404541016
-0.1782945990562439 0.6792850494384766 0.05426359176635742
-0.1782945990562439 0.6903085708618164 -0.8759689927101135
-0.1782945990562439 0.7011130452156067 0.007751941680908203
-0.1782945990562439 0.6942867040634155 0.02325582504272461
-0.1782945990562439 0.7205144166946411 -0.038759708404541016
-0.1782945990562439 0.7151721715927124 -0.02325582504272461
-0.1782945990562439 0.707453727722168 -0.007751941680908203
-0.1782945990562439 0.7354333996772766 -0.42635661363601685
-0.1782945990562439 0.7232306599617004 -0.41085273027420044
-0.1782945990562439 0.733616828918457 -0.06976741552352905
-0.1782945990562439 0.727824330329895 -0.05426359176635742
-0.1782945990562439 0.7487841248512268 -0.4418604373931885
-0.1782945990562439 0.7510796785354614 -0.1627907156944275
-0.1782945990562439 0.7499142289161682 -0.14728683233261108
-0.1782945990562439 0.7484404444694519 -0.13178294897079468
-0.1782945990562439 0.7462221384048462 -0.11627906560897827
-0.1782945990562439 0.7424759864807129 -0.10077518224716187
-0.1782945990562439 0.73785001039505 -0.08527129888534546
-0.1782945990562439 0.7550390958786011 -0.4418604373931885
-0.1782945990562439 0.7592477798461914 -0.42635661363601685
-0.1782945990562439 0.7633626461029053 -0.41085273027420044
-0.1782945990562439 0.765336275100708 -0.24031007289886475
-0.1782945990562439 0.7604618072509766 -0.22480618953704834
-0.1782945990562439 0.7565758228302002 -0.20930230617523193
-0.1782945990562439 0.7538536787033081 -0.19379842281341553
-0.1782945990562439 0.7519460320472717 -0.1782945990562439
-0.1782945990562439 0.7679977416992188 -0.39534884691238403
-0.1782945990562439 0.7715739011764526 -0.3798449635505676
-0.1782945990562439 0.774263858795166 -0.3643410801887512
-0.1782945990562439 0.776964545249939 -0.3488371968269348
-0.1782945990562439 0.7789390683174133 -0.3333333134651184
-0.1782945990562439 0.7788646221160889 -0.317829430103302
-0.1782945990562439 0.7772113084793091 -0.30232560634613037
-0.1782945990562439 0.7745952606201172 -0.28682172298431396
-0.1782945990562439 0.7713918089866638 -0.27131783962249756
-0.1782945990562439 0.7680585384368896 -0.25581395626068115
-0.1627907156944275 -0.6434474587440491 0.6589146852493286
-0.1627907156944275 -0.643957257270813 0.674418568611145
-0.1627907156944275 -0.6320412755012512 0.6279069185256958
-0.1627907156944275 -0.6379175186157227 0.6434108018875122
-0.1627907156944275 -0.6431334614753723 0.6899224519729614
-0.1627907156944275 -0.6392993927001953 0.7054263353347778
-0.1627907156944275 -0.6356642842292786 0.7209302186965942
-0.1627907156944275 -0.6343629956245422 0.7364341020584106
-0.1627907156944275 -0.6339489221572876 0.751937985420227
-0.1627907156944275 -0.6339931488037109 0.7674418687820435
-0.1627907156944275 -0.6339539289474487 0.7829457521438599
-0.1627907156944275 -0.6337573528289795 0.7984496355056763
-0.1627907156944275 -0.6337007880210876 0.8139535188674927
-0.1627907156944275 -0.6315513253211975 0.8294574022293091
-0.1627907156944275 -0.614521861076355 0.7984496355056763
-0.1627907156944275 -0.6212896108627319 0.8139535188674927
-0.16279073059558868 -0.6265276074409485 0.8294574022293091
-0.1627907156944275 -0.6106847524642944 0.6279069185256958
-0.1627907156944275 -0.6081456542015076 0.6434108018875122
-0.1627907156944275 -0.6061244606971741 0.6589146852493286
-0.1627907156944275 -0.6055998802185059 0.674418568611145
-0.1627907156944275 -0.6057777404785156 0.6899224519729614
-0.1627907156944275 -0.6065033078193665 0.7054263353347778
-0.1627907156944275 -0.607220470905304 0.7209302186965942
-0.1627907156944275 -0.607441246509552 0.7364341020584106
-0.1627907156944275 -0.607836902141571 0.751937985420227
-0.1627907156944275 -0.6088540554046631 0.7674418687820435
-0.1627907156944275 -0.6108537316322327 0.7829457521438599
-0.1627907156944275 -0.5057763457298279 0.05426359176635742
-0.1627907156944275 -0.5081079006195068 0.06976747512817383
-0.1627907156944275 -0.5104333162307739 0.08527135848999023
-0.1627907156944275 -0.5118792057037354 0.10077524185180664
-0.1627907156944275 -0.5129241943359375 0.11627912521362305
-0.1627907156944275 -0.5127443075180054 0.1317828893661499
-0.1627907156944275 -0.5120897889137268 0.1472867727279663
-0.1627907156944275 -0.511419415473938 0.16279065608978271
-0.1627907156944275 -0.5109356045722961 0.17829453945159912
-0.1627907156944275 -0.5112482905387878 0.19379842281341553
-0.1627907156944275 -0.5115816593170166 0.20930230617523193
-0.1627907156944275 -0.5113537311553955 0.22480618953704834
-0.1627907156944275 -0.5067147612571716 0.24031007289886475
-0.1627907156944275 -0.4938529133796692 -0.8759689331054688
-0.1627907156944275 -0.49203959107398987 -0.8604651093482971
-0.1627907156944275 -0.4901511073112488 0.007751941680908203
-0.1627907156944275 -0.4972527027130127 0.02325582504272461
-0.1627907156944275 -0.502389669418335 0.038759712129831314
-0.1627907156944275 -0.4991263151168823 0.24031007289886475
-0.1627907156944275 -0.4867190420627594 -0.8914728760719299
-0.1627907007932663 -0.48822805285453796 -0.8449612259864807
-0.1627907156944275 -0.4821435809135437 -0.8294573426246643
-0.1627907156944275 -0.47862911224365234 -0.8139535188674927
-0.1627907156944275 -0.47587016224861145 -0.7984496355056763
-0.1627907156944275 -0.47463735938072205 -0.7829457521438599
-0.1627907156944275 -0.47414320707321167 -0.7674418687820435
-0.1627907156944275 -0.4736575782299042 -0.751937985420227
-0.1627907156944275 -0.4733878970146179 -0.7364341020584106
-0.1627907156944275 -0.48259472846984863 -0.007751941680908203
-0.1627907156944275 -0.47434431314468384 0.22480618953704834
-0.1627907156944275 -0.4723074734210968 -0.7209302186965942
-0.1627907156944275 -0.46790826320648193 -0.7054263353347778
-0.1627907156944275 -0.46296292543411255 -0.6899224519729614
-0.1627907156944275 -0.45811885595321655 -0.674418568611145
-0.1627907156944275 -0.46448206901550293 -0.038759708404541016
-0.1627907156944275 -0.47270190715789795 -0.02325582504272461
-0.1627907156944275 -0.4517515301704407 -0.6589146852493286
-0.1627907156944275 -0.4469596743583679 -0.643410861492157
-0.1627907156944275 -0.4429759383201599 -0.6279069781303406
-0.1627907156944275 -0.44860655069351196 -0.06976741552352905
-0.16279073059558868 -0.45576101541519165 -0.05426359176635742
-0.1627907156944275 -0.45342543721199036 0.20930230617523193
-0.1627907156944275 -0.43516379594802856 -0.8914728760719299
-0.1627907156944275 -0.431285560131073 -0.8759689331054688
-0.1627907156944275 -0.4327576458454132 -0.8604651093482971
-0.1627907156944275 -0.4322165846824646 -0.8449612259864807
-0.1627907156944275 -0.4315594732761383 -0.8294574022293091
-0.1627907156944275 -0.42973440885543823 -0.8139535188674927
-0.1627907156944275 -0.4267244338989258 -0.7984496355056763
-0.1627907156944275 -0.4409101903438568 -0.6124030947685242
-0.1627907156944275 -0.4383907914161682 -0.5968992114067078
-0.1627907156944275 -0.4370967149734497 -0.5813953876495361
-0.1627907156944275 -0.43645644187927246 -0.5658915042877197
-0.1627907156944275 -0.4363991916179657 -0.5503876209259033
-0.1627907156944275 -0.43652158975601196 -0.5348837375640869
-0.1627907156944275 -0.43595030903816223 -0.5193798542022705
-0.1627907156944275 -0.43435966968536377 -0.5038759708404541
-0.1627907156944275 -0.4304662048816681 -0.4883720874786377
-0.1627907156944275 -0.4269295334815979 -0.4728682041168213
-0.1627907156944275 -0.4271053373813629 -0.13178294897079468
-0.1627907156944275 -0.4320850670337677 -0.11627906560897827
-0.1627907156944275 -0.43675005435943604 -0.10077518224716187
-0.1627907156944275 -0.4416825473308563 -0.08527129888534546
-0.1627907156944275 -0.4292566776275635 0.19379842281341553
-0.1627907156944275 -0.42471858859062195 -0.7829457521438599
-0.1627907156944275 -0.4224170744419098 -0.7674418687820435
-0.1627907156944275 -0.4196699559688568 -0.751937985420227
-0.1627907156944275 -0.415226012468338 -0.7364341020584106
-0.1627907156944275 -0.4241320788860321 -0.4573643207550049
-0.1627907156944275 -0.42131370306015015 -0.44186046719551086
-0.1627907156944275 -0.41915273666381836 -0.42635661363601685
-0.1627907156944275 -0.4171837270259857 -0.41085273027420044
-0.1627907156944275 -0.4157961905002594 -0.39534884691238403
-0.1627907156944275 -0.41531068086624146 -0.3798449635505676
-0.1627907156944275 -0.415035605430603 -0.3643410801887512
-0.1627907156944275 -0.41460520029067993 -0.3488371968269348
-0.1627907156944275 -0.4142301082611084 -0.3333333134651184
-0.1627907156944275 -0.4139842092990875 -0.317829430103302
-0.1627907156944275 -0.41393449902534485 -0.30232560634613037
-0.1627907156944275 -0.4141082763671875 -0.28682172298431396
-0.1627907156944275 -0.41475290060043335 -0.27131783962249756
-0.1627907156944275 -0.4153079390525818 -0.25581395626068115
-0.1627907156944275 -0.4158552885055542 -0.24031007289886475
-0.1627907156944275 -0.41658931970596313 -0.22480618953704834
-0.1627907156944275 -0.41758114099502563 -0.20930230617523193
-0.1627907156944275 -0.4188522696495056 -0.19379842281341553
-0.1627907156944275 -0.42055338621139526 -0.1782945990562439
-0.1627907156944275 -0.4219523072242737 -0.1627907156944275
-0.1627907156944275 -0.4239497482776642 -0.14728683233261108
-0.1627907156944275 -0.4100182056427002 -0.7209302186965942
-0.1627907156944275 -0.40676066279411316 -0.7054263353347778
-0.1627907156944275 -0.4021647572517395 -0.6899224519729614
-0.1627907156944275 -0.39556294679641724 -0.674418568611145
-0.1627907156944275 -0.39329591393470764 -0.6589146852493286
-0.1627907156944275 -0.39131373167037964 -0.643410861492157
-0.1627907156944275 -0.38956552743911743 -0.6279070377349854
-0.1627907156944275 -0.3880366384983063 -0.6124030351638794
-0.1627907156944275 -0.3864748179912567 -0.5968992114067078
-0.1627907156944275 -0.3844766318798065 -0.5813953876495361
-0.1627907156944275 -0.3812630772590637 -0.5658915042877197
-0.1627907007932663 -0.37897366285324097 -0.5503875613212585
-0.16279073059558868 -0.37740418314933777 -0.5348837375640869
-0.1627907156944275 -0.37602007389068604 -0.5193798542022705
-0.1627907156944275 -0.374201238155365 -0.5038759708404541
-0.1627907156944275 -0.3721606731414795 -0.4883720874786377
-0.1627907156944275 -0.36873936653137207 -0.4728682041168213
-0.1627907156944275 -0.36331838369369507 -0.4573643207550049
-0.1627907156944275 -0.35916072130203247 -0.4418604373931885
-0.1627907156944275 -0.35372763872146606 -0.42635661363601685
-0.1627907007932663 -0.3462706506252289 -0.41085273027420044
-0.1627907156944275 -0.33990633487701416 -0.39534884691238403
-0.1627907156944275 -0.33048272132873535 -0.3798449635505676
-0.1627907156944275 -0.3240772485733032 -0.3643410801887512
-0.1627907156944275 -0.3151639699935913 -0.3488371968269348
-0.1627907156944275 -0.3100396394729614 -0.3333333134651184
-0.1627907156944275 -0.30268335342407227 -0.317829430103302
-0.1627907156944275 -0.29690292477607727 -0.30232560634613037
-0.1627907156944275 -0.29275673627853394 -0.28682172298431396
-0.1627907156944275 -0.28627893328666687 -0.27131783962249756
-0.1627907156944275 -0.281066358089447 -0.25581395626068115
-0.1627907156944275 -0.27190834283828735 -0.24031007289886475
-0.1627907156944275 -0.2792533338069916 0.19379842281341553
-0.1627907156944275 -0.25619611144065857 -0.22480618953704834
-0.1627907156944275 -0.23223468661308289 -0.20930230617523193
-0.1627907156944275 -0.21373972296714783 0.20930230617523193
-0.1627907156944275 -0.2058066427707672 -0.19379842281341553
-0.1627907156944275 -0.18024668097496033 -0.1782945990562439
-0.1627907156944275 -0.15640565752983093 -0.1627907156944275
-0.1627907156944275 -0.13500499725341797 -0.14728683233261108
-0.1627907156944275 -0.12553615868091583 0.20930230617523193
-0.1627907156944275 -0.11540704220533371 -0.13178294897079468
-0.1627907156944275 -0.09261111915111542 -0.11627906560897827
-0.1627907156944275 -0.06642582267522812 -0.10077518224716187
-0.1627907156944275 -0.02381567284464836 -0.08527129888534546
-0.1627907156944275 0.0060624899342656136 0.19379842281341553
-0.1627907156944275 0.13763363659381866 -0.06976741552352905
-0.1627907156944275 0.23703041672706604 -0.05426359176635742
-0.1627907156944275 0.32775455713272095 -0.05426359176635742
-0.1627907156944275 0.34815165400505066 -0.08527129888534546
-0.1627907156944275 0.33841806650161743 -0.06976741552352905
-0.1627907156944275 0.36326494812965393 -0.11627906560897827
-0.1627907156944275 0.3560612201690674 -0.10077518224716187
-0.1627907156944275 0.3702120780944824 -0.8914728164672852
-0.1627907156944275 0.37952297925949097 -0.1627907156944275
-0.1627907156944275 0.3747449219226837 -0.14728683233261108
-0.1627907156944275 0.3690716326236725 -0.13178294897079468
-0.1627907156944275 0.39290037751197815 -0.20930230617523193
-0.1627907156944275 0.3889662027359009 -0.19379842281341553
-0.1627907156944275 0.38430237770080566 -0.1782945990562439
-0.1627907156944275 0.409812867641449 -0.8914728760719299
-0.1627907156944275 0.4072722792625427 -0.25581395626068115
-0.1627907156944275 0.40154919028282166 -0.24031007289886475
-0.1627907156944275 0.39654088020324707 -0.22480618953704834
-0.1627907156944275 0.42517027258872986 -0.28682172298431396
-0.1627907156944275 0.41436058282852173 -0.27131783962249756
-0.1627907156944275 0.45363670587539673 -0.30232560634613037
-0.1627907156944275 0.4715646207332611 0.17829453945159912
-0.1627907156944275 0.508698046207428 -0.317829430103302
-0.1627907156944275 0.5281292200088501 -0.3333333134651184
-0.1627907156944275 0.5451220273971558 -0.3488371968269348
-0.1627907156944275 0.5606365203857422 -0.3643410801887512
-0.1627907156944275 0.5734981894493103 -0.3798449635505676
-0.1627907156944275 0.5936566591262817 -0.41085273027420044
-0.1627907156944275 0.5821859240531921 -0.39534884691238403
-0.1627907156944275 0.5839174389839172 0.16279065608978271
-0.1627907156944275 0.6128683686256409 -0.42635661363601685
-0.1627907156944275 0.6406773328781128 -0.8914728760719299
-0.1627907156944275 0.6412767767906189 -0.8759689927101135
-0.1627907156944275 0.6284236907958984 0.1472867727279663
-0.1627907156944275 0.6520782709121704 -0.8604651093482971
-0.1627907156944275 0.658163845539093 -0.8449612259864807
-0.1627907156944275 0.6538325548171997 -0.4418604373931885
-0.1627907156944275 0.6704272031784058 -0.8294573426246643
-0.1627907156944275 0.6591479778289795 0.1317828893661499
-0.1627907156944275 0.6862517595291138 -0.8139535188674927
-0.1627907156944275 0.6818835735321045 -0.4573643207550049
-0.1627907156944275 0.6811649799346924 0.11627912521362305
-0.1627907156944275 0.7016652226448059 -0.8914728760719299
-0.1627907156944275 0.7016478776931763 -0.7984496355056763
-0.1627907156944275 0.7008916139602661 -0.4728682041168213
-0.1627907156944275 0.6974017024040222 0.10077524185180664
-0.1627907156944275 0.7206048369407654 -0.8759689927101135
-0.1627907156944275 0.7098451852798462 -0.7829456925392151
-0.1627907156944275 0.7144917249679565 -0.7674418687820435
-0.1627907156944275 0.7174732685089111 -0.751937985420227
-0.1627907156944275 0.7192870378494263 -0.7364341020584106
-0.1627907156944275 0.7207643389701843 -0.7209302186965942
-0.1627907156944275 0.7131680250167847 -0.4883720874786377
-0.1627907156944275 0.7184497117996216 0.06976747512817383
-0.1627907156944275 0.7095965147018433 0.08527135848999023
-0.1627907156944275 0.7277931571006775 -0.8604651689529419
-0.1627907156944275 0.7356486320495605 -0.8449612259864807
-0.1627907156944275 0.7246735692024231 -0.7054263353347778
-0.1627907156944275 0.728164553642273 -0.6899224519729614
-0.1627907156944275 0.7311679720878601 -0.674418568611145
-0.1627907156944275 0.7329283952713013 -0.6589146852493286
-0.1627907156944275 0.7342731356620789 -0.643410861492157
-0.1627907156944275 0.7351325750350952 -0.6279069781303406
-0.1627907156944275 0.7358173727989197 -0.6124030947685242
-0.1627907156944275 0.735893726348877 -0.5968992114067078
-0.1627907156944275 0.7361124157905579 -0.5813953876495361
-0.1627907156944275 0.7358647584915161 -0.5658915042877197
-0.1627907156944275 0.7349669933319092 -0.5503876209259033
-0.1627907156944275 0.7333641052246094 -0.5348837375640869
-0.1627907156944275 0.7306530475616455 -0.5193798542022705
-0.1627907156944275 0.7226712107658386 -0.5038759708404541
-0.1627907156944275 0.7359682321548462 0.02325582504272461
-0.1627907156944275 0.7312318086624146 0.038759708404541016
-0.1627907156944275 0.7248039841651917 0.05426359176635742
-0.1627907156944275 0.7382041811943054 -0.8294573426246643
-0.1627907156944275 0.7451683878898621 -0.8139535188674927
-0.1627907156944275 0.7473185658454895 -0.7984496355056763
-0.1627907156944275 0.7515504956245422 -0.02325582504272461
-0.1627907156944275 0.7476638555526733 -0.007751941680908203
-0.1627907156944275 0.7409303188323975 0.007751941680908203
-0.1627907156944275 0.7524728775024414 -0.7829457521438599
-0.1627907156944275 0.7582390308380127 -0.7674418687820435
-0.1627907156944275 0.7613133788108826 -0.751937985420227
-0.1627907156944275 0.7650604248046875 -0.7364341020584106
-0.1627907156944275 0.7664044499397278 -0.06976741552352905
-0.1627907156944275 0.7630595564842224 -0.05426359176635742
-0.1627907156944275 0.7568796873092651 -0.038759708404541016
-0.1627907156944275 0.7708955407142639 -0.7209302186965942
-0.1627907156944275 0.7756197452545166 -0.7054263353347778
-0.1627907156944275 0.7775723934173584 -0.6899224519729614
-0.1627907156944275 0.7794743180274963 -0.674418568611145
-0.1627907156944275 0.7812167406082153 -0.6589146852493286
-0.1627907156944275 0.7825157642364502 -0.19379842281341553
-0.1627907156944275 0.7811217308044434 -0.1782945990562439
-0.1627907156944275 0.7800753116607666 -0.1627907156944275
-0.1627907156944275 0.77911776304245 -0.14728683233261108
-0.1627907156944275 0.7779757976531982 -0.13178294897079468
-0.1627907156944275 0.7762232422828674 -0.11627906560897827
-0.1627907156944275 0.7733861207962036 -0.10077518224716187
-0.1627907156944275 0.7695769667625427 -0.08527129888534546
-0.16279073059558868 0.7829990386962891 -0.643410861492157
-0.1627907156944275 0.7837448120117188 -0.6279069781303406
-0.1627907156944275 0.7844748497009277 -0.6124030947685242
-0.1627907156944275 0.7859795689582825 -0.5968992114067078
-0.1627907156944275 0.7877848744392395 -0.5813953876495361
-0.1627907156944275 0.7902100086212158 -0.5658915042877197
-0.1627907156944275 0.7937840223312378 -0.5503876209259033
-0.1627907156944275 0.7962212562561035 -0.27131783962249756
-0.1627907156944275 0.7933331727981567 -0.25581395626068115
-0.1627907156944275 0.7893305420875549 -0.24031007289886475
-0.1627907156944275 0.7858848571777344 -0.22480618953704834
-0.1627907156944275 0.7839297652244568 -0.20930230617523193
-0.1627907156944275 0.7990767955780029 -0.5348837375640869
-0.1627907156944275 0.803451657295227 -0.5193798542022705
-0.1627907156944275 0.8092847466468811 -0.5038759708404541
-0.1627907156944275 0.8108904957771301 -0.4883720874786377
-0.1627907156944275 0.8109949827194214 -0.4728682041168213
-0.1627907156944275 0.810696005821228 -0.4573643207550049
-0.1627907156944275 0.8099222183227539 -0.4418604373931885
-0.1627907156944275 0.8087714910507202 -0.42635661363601685
-0.1627907156944275 0.8073135614395142 -0.41085273027420044
-0.1627907156944275 0.8063830137252808 -0.39534884691238403
-0.1627907156944275 0.8055380582809448 -0.3798449635505676
-0.1627907156944275 0.8047738075256348 -0.3643410801887512
-0.1627907156944275 0.8042992353439331 -0.3488371968269348
-0.1627907156944275 0.8037158250808716 -0.3333333134651184
-0.1627907156944275 0.8025317192077637 -0.317829430103302
-0.1627907156944275 0.8008416891098022 -0.30232560634613037
-0.1627907156944275 0.7987640500068665 -0.28682172298431396
-0.14728683233261108 -0.64495450258255 0.6279069185256958
-0.14728683233261108 -0.6503853797912598 0.6434108018875122
-0.14728683233261108 -0.6516611576080322 0.6589146852493286
-0.14728683233261108 -0.6465094089508057 0.674418568611145
-0.14728683233261108 -0.6435058116912842 0.7984496355056763
-0.14728683233261108 -0.6441237330436707 0.8139535188674927
-0.14728683233261108 -0.6447197794914246 0.8294574022293091
-0.14728683233261108 -0.6451241970062256 0.8449612855911255
-0.14728683233261108 -0.6459699869155884 0.8604651689529419
-0.14728683233261108 -0.6479495763778687 0.8759689331054688
-0.14728683233261108 -0.629290759563446 0.5658915042877197
-0.14728683233261108 -0.6356046795845032 0.5813953876495361
-0.14728683233261108 -0.63442063331604 0.5968992710113525
-0.14728683233261108 -0.6372076272964478 0.612403154373169
-0.14728683233261108 -0.6415088772773743 0.6899224519729614
-0.14728683233261108 -0.6372194290161133 0.7054263353347778
-0.14728683233261108 -0.6350685358047485 0.7209302186965942
-0.14728683233261108 -0.6360078454017639 0.7364341020584106
-0.14728683233261108 -0.6380200386047363 0.751937985420227
-0.14728683233261108 -0.640059232711792 0.7674418687820435
-0.14728683233261108 -0.6419124603271484 0.7829457521438599
-0.14728683233261108 -0.6385113596916199 0.8759689331054688
-0.14728683233261108 -0.6232180595397949 0.5658915042877197
-0.14728683233261108 -0.6153695583343506 0.5813953876495361
-0.14728683233261108 -0.6182802319526672 0.5968992710113525
-0.14728683233261108 -0.6160932183265686 0.612403154373169
-0.14728683233261108 -0.6158566474914551 0.8294574022293091
-0.14728683233261108 -0.6229161620140076 0.8449612855911255
-0.14728683233261108 -0.6273494958877563 0.8604652285575867
-0.14728683233261108 -0.6101611256599426 0.6279069185256958
-0.14728683233261108 -0.6076016426086426 0.6434108018875122
-0.14728683233261108 -0.6054240465164185 0.6589146852493286
-0.14728683233261108 -0.6050686240196228 0.674418568611145
-0.14728683233261108 -0.6042300462722778 0.6899224519729614
-0.14728683233261108 -0.6023887395858765 0.7054263353347778
-0.14728683233261108 -0.5990870594978333 0.7209302186965942
-0.14728683233261108 -0.5977745056152344 0.7674418687820435
-0.14728683233261108 -0.6022067666053772 0.7829457521438599
-0.14728683233261108 -0.6054283380508423 0.7984496355056763
-0.14728683233261108 -0.6098775863647461 0.8139535188674927
-0.14728683233261108 -0.5966071486473083 0.7364341020584106
-0.14728683233261108 -0.5963779091835022 0.751937985420227
-0.14728683233261108 -0.5522301197052002 0.22480618953704834
-0.14728683233261108 -0.5539807081222534 0.24031007289886475
-0.14728683233261108 -0.5550175309181213 0.25581395626068115
-0.14728683233261108 -0.5553619265556335 0.27131783962249756
-0.14728683233261108 -0.555138885974884 0.28682172298431396
-0.14728683233261108 -0.5541538000106812 0.30232560634613037
-0.14728683233261108 -0.5528590679168701 0.3178294897079468
-0.14728683233261108 -0.5511975288391113 0.3333333730697632
-0.14728683233261108 -0.551709771156311 0.41085267066955566
-0.14728683233261108 -0.5535045266151428 0.42635655403137207
-0.14728683233261108 -0.5549752712249756 0.4418604373931885
-0.14728683233261108 -0.5555312037467957 0.4573643207550049
-0.14728683233261108 -0.5538070797920227 0.4728682041168213
-0.14728683233261108 -0.5353012681007385 0.08527135848999023
-0.14728683233261108 -0.5373595952987671 0.10077524185180664
-0.14728683233261108 -0.5390650629997253 0.11627912521362305
-0.14728683233261108 -0.5403236746788025 0.1317828893661499
-0.14728683233261108 -0.541392982006073 0.1472867727279663
-0.14728683233261108 -0.5424387454986572 0.16279065608978271
-0.14728683233261108 -0.5443556904792786 0.17829453945159912
-0.14728683233261108 -0.547295331954956 0.19379842281341553
-0.14728683233261108 -0.5503424406051636 0.20930230617523193
-0.14728683233261108 -0.5458855628967285 0.3488372564315796
-0.14728683233261108 -0.538877546787262 0.364341139793396
-0.14728683233261108 -0.5378859043121338 0.37984490394592285
-0.14728683233261108 -0.5468116998672485 0.39534878730773926
-0.14728683233261108 -0.5499449968338013 0.4883720874786377
-0.14728683233261108 -0.5223526954650879 0.038759708404541016
-0.14728683233261108 -0.5270271301269531 0.05426359176635742
-0.14728683233261108 -0.5315771102905273 0.06976747512817383
-0.14728683233261108 -0.528483510017395 0.364341139793396
-0.14728683233261108 -0.5315786600112915 0.37984490394592285
-0.14728683233261108 -0.5244598984718323 0.39534878730773926
-0.14728683233261108 -0.5256145000457764 0.4883720874786377
-0.14728683233261108 -0.504000723361969 -0.8759689927101135
-0.14728683233261108 -0.5094162225723267 0.007751941680908203
-0.14728683233261108 -0.5170872211456299 0.02325582504272461
