-0.8449611663818359 0.0018572343979030848 0.27131783962249756
-0.8449612259864807 0.03446376323699951 0.28682172298431396
-0.8449612855911255 0.05975472182035446 0.30232560634613037
-0.8449612259864807 0.08100268244743347 0.5038759708404541
-0.8449612259864807 0.08787877857685089 0.3178294897079468
-0.8449612259864807 0.10469000041484833 0.3333333730697632
-0.8449612259864807 0.11303035914897919 0.3488372564315796
-0.8449612259864807 0.11595433950424194 0.42635655403137207
-0.8449612259864807 0.11478015035390854 0.4418604373931885
-0.8449612259864807 0.11388949304819107 0.4573643207550049
-0.8449612259864807 0.10920518636703491 0.4728682041168213
-0.8449611663818359 0.10190678387880325 0.4883720576763153
-0.8449612259864807 0.11832050234079361 0.364341139793396
-0.8449612259864807 0.11975814402103424 0.37984490394592285
-0.8449612855911255 0.11858977377414703 0.39534878730773926
-0.8449612855911255 0.11681364476680756 0.41085267066955566
-0.8449611663818359 0.19106554985046387 -0.674418568611145
-0.8449611663818359 0.19068236649036407 -0.6589146852493286
-0.8449612259864807 0.18692980706691742 -0.643410861492157
-0.8449612855911255 0.18394441902637482 -0.6279070377349854
-0.8449612259864807 0.18270757794380188 -0.6124030947685242
-0.8449612259864807 0.18325947225093842 -0.5968992114067078
-0.8449612259864807 0.1865229308605194 -0.5813953876495361
-0.8449612259864807 0.19329611957073212 -0.5658915042877197
-0.8449611663818359 0.19826453924179077 -0.5503876209259033
-0.8449612259864807 0.19475513696670532 -0.5348837375640869
-0.8294574022293091 -0.22662682831287384 -0.674418568611145
-0.8294573426246643 -0.22801578044891357 -0.6589146852493286
-0.8294573426246643 -0.22605964541435242 -0.643410861492157
-0.8294573426246643 -0.22821837663650513 -0.5658915042877197
-0.8294573426246643 -0.23094995319843292 -0.5503876209259033
-0.8294573426246643 -0.2236715704202652 -0.6279069781303406
-0.8294573426246643 -0.22143839299678802 -0.6124030947685242
-0.8294573426246643 -0.22158531844615936 -0.5968992114067078
-0.8294573426246643 -0.2244960367679596 -0.5813953876495361
-0.8294572830200195 -0.22129127383232117 -0.5348837375640869
-0.8294573426246643 -0.17984086275100708 -0.5348837375640869
-0.8294572830200195 -0.1583566814661026 -0.5348837375640869
-0.8294573426246643 -0.117205411195755 0.3488372564315796
-0.8294573426246643 -0.12035796046257019 0.364341139793396
-0.8294572830200195 -0.12184411287307739 0.37984490394592285
-0.8294572830200195 -0.12238062918186188 0.39534878730773926
-0.8294573426246643 -0.12226365506649017 0.41085267066955566
-0.8294573426246643 -0.12263085693120956 0.42635655403137207
-0.8294573426246643 -0.12258808314800262 0.4418604373931885
-0.8294574022293091 -0.1218966692686081 0.4573643207550049
-0.8294573426246643 -0.12101815640926361 0.4728682041168213
-0.8294573426246643 -0.1196988895535469 0.4883720874786377
-0.8294573426246643 -0.11742964386940002 0.5038759708404541
-0.8294574022293091 -0.10911814868450165 0.3333333730697632
-0.8294572830200195 -0.10664492845535278 0.5193798542022705
-0.8294573426246643 -0.0981648713350296 0.3178294897079468
-0.8294573426246643 -0.07668641209602356 0.30232560634613037
-0.8294573426246643 -0.046493299305438995 0.28682172298431396
-0.8294573426246643 -0.021732639521360397 0.27131783962249756
-0.8294572830200195 0.01714322343468666 0.27131783962249756
-0.8294573426246643 0.04119640588760376 0.28682172298431396
-0.8294573426246643 0.06986133754253387 0.30232563614845276
-0.8294573426246643 0.09412791579961777 0.3178294897079468
-0.8294572830200195 0.09184347838163376 0.5193798542022705
-0.8294573426246643 0.10950852930545807 0.3333333730697632
-0.8294573426246643 0.11147283017635345 0.5038759708404541
-0.8294573426246643 0.11857005953788757 0.3488372266292572
-0.8294573426246643 0.12233468890190125 0.364341139793396
-0.8294573426246643 0.12366819381713867 0.37984490394592285
-0.8294573426246643 0.1237785816192627 0.39534878730773926
-0.8294573426246643 0.1233871728181839 0.41085267066955566
-0.8294573426246643 0.12311217933893204 0.42635655403137207
-0.8294574022293091 0.12252114713191986 0.4418604373931885
-0.8294573426246643 0.12198339402675629 0.4573643207550049
-0.8294572830200195 0.12158340215682983 0.4728682041168213
-0.8294573426246643 0.11880450695753098 0.4883720874786377
-0.8294573426246643 0.1600525826215744 -0.5348837375640869
-0.8294573426246643 0.16397875547409058 -0.5348837375640869
-0.8294573426246643 0.2212909460067749 -0.643410861492157
-0.8294573426246643 0.21841895580291748 -0.6279069781303406
-0.8294573426246643 0.21730312705039978 -0.6124030947685242
-0.8294573426246643 0.21782183647155762 -0.5968992114067078
-0.8294572830200195 0.2211759239435196 -0.5813953876495361
-0.8294572830200195 0.22753140330314636 -0.674418568611145
-0.8294573426246643 0.22501981258392334 -0.6589146852493286
-0.8294573426246643 0.22713522613048553 -0.5658915042877197
-0.8294573426246643 0.23152148723602295 -0.5503876209259033
-0.8294573426246643 0.22866801917552948 -0.5348837375640869
-0.8139535188674927 -0.2562781572341919 -0.674418568611145
-0.8139535188674927 -0.2568751573562622 -0.6589146852493286
-0.8139535188674927 -0.257808119058609 -0.5658915042877197
-0.8139535188674927 -0.26009851694107056 -0.5503876209259033
-0.8139535784721375 -0.255428284406662 -0.643410861492157
-0.8139535188674927 -0.2532597780227661 -0.6279069781303406
-0.8139535188674927 -0.2517567574977875 -0.612403154373169
-0.8139535188674927 -0.25213879346847534 -0.5968992114067078
-0.8139535188674927 -0.2545994520187378 -0.5813953876495361
-0.8139535188674927 -0.2453639805316925 -0.5348837375640869
-0.8139535188674927 -0.22633883357048035 -0.5348837375640869
-0.8139535188674927 -0.1417054384946823 -0.5348837375640869
-0.8139535188674927 -0.13195554912090302 0.4728682041168213
-0.8139535188674927 -0.13252052664756775 0.4883720874786377
-0.8139535188674927 -0.1323506385087967 0.5038759708404541
-0.8139535188674927 -0.11975691467523575 0.3488372564315796
-0.8139535188674927 -0.12280037254095078 0.364341139793396
-0.8139535188674927 -0.12399102747440338 0.37984490394592285
-0.8139535188674927 -0.12483462691307068 0.39534878730773926
-0.8139535188674927 -0.12543754279613495 0.41085267066955566
-0.8139535188674927 -0.1265801191329956 0.42635655403137207
-0.8139535188674927 -0.12770384550094604 0.4418604373931885
-0.8139534592628479 -0.12922416627407074 0.4573643207550049
-0.8139535188674927 -0.12782195210456848 0.5193798542022705
-0.8139535188674927 -0.11723379790782928 0.5348837375640869
-0.8139535188674927 -0.102558933198452 0.3178294897079468
-0.8139535188674927 -0.11216779798269272 0.3333333730697632
-0.8139535188674927 -0.08254732191562653 0.30232560634613037
-0.8139535188674927 -0.054638832807540894 0.28682172298431396
-0.8139535188674927 -0.06601237505674362 0.5348837375640869
-0.8139535188674927 -0.029598407447338104 0.27131783962249756
-0.8139535188674927 0.02641117386519909 0.27131783962249756
-0.8139535188674927 0.047739654779434204 0.28682172298431396
-0.8139535188674927 0.07562386989593506 0.30232560634613037
-0.8139535188674927 0.08198467642068863 0.5348837375640869
-0.8139535188674927 0.10069360584020615 0.3178294897079468
-0.8139535188674927 0.11389008909463882 0.3333333730697632
-0.8139535188674927 0.1038445234298706 0.5348837375640869
-0.8139535188674927 0.1222255676984787 0.3488372564315796
-0.8139535188674927 0.1251964569091797 0.364341139793396
-0.8139535188674927 0.12678022682666779 0.37984490394592285
-0.8139535188674927 0.12712658941745758 0.39534878730773926
-0.8139535188674927 0.1270464062690735 0.41085267066955566
-0.8139535188674927 0.1276443898677826 0.42635655403137207
-0.8139535188674927 0.1288846731185913 0.4418604373931885
-0.8139535188674927 0.1315051019191742 0.4573643207550049
-0.8139535188674927 0.12893231213092804 0.5038759708404541
-0.8139535188674927 0.12075643986463547 0.5193798542022705
-0.8139535188674927 0.1398913413286209 -0.5348837375640869
-0.8139535188674927 0.1327161192893982 0.4728682041168213
-0.8139535188674927 0.13251450657844543 0.4883721172809601
-0.8139535188674927 0.21145009994506836 -0.5348837375640869
-0.8139535188674927 0.2551029324531555 -0.6589146852493286
-0.8139535188674927 0.25193944573402405 -0.643410861492157
-0.8139535188674927 0.24945257604122162 -0.6279069781303406
-0.8139535188674927 0.24876081943511963 -0.6124030947685242
-0.8139535188674927 0.24958014488220215 -0.5968992114067078
-0.8139535188674927 0.2531164586544037 -0.5813953876495361
-0.8139535188674927 0.25879335403442383 -0.674418568611145
-0.8139535188674927 0.25792208313941956 -0.5658915042877197
-0.8139535784721375 0.2614856958389282 -0.5503876209259033
-0.8139535188674927 0.25905007123947144 -0.5348837375640869
-0.7984496355056763 -0.287357896566391 -0.674418568611145
-0.7984496355056763 -0.28811612725257874 -0.5658915042877197
-0.7984496355056763 -0.29030314087867737 -0.5503876209259033
-0.7984496355056763 -0.28643742203712463 -0.6589146852493286
-0.7984496355056763 -0.2846064567565918 -0.643410861492157
-0.7984496355056763 -0.28315287828445435 -0.6279069781303406
-0.7984496355056763 -0.28223732113838196 -0.6124030947685242
-0.7984496355056763 -0.28306734561920166 -0.5968992114067078
-0.7984496355056763 -0.2853928506374359 -0.5813953876495361
-0.7984496355056763 -0.2773403227329254 -0.5348837375640869
-0.7984495759010315 -0.25413718819618225 -0.5348837375640869
-0.7984496355056763 -0.14072056114673615 -0.5348837375640869
-0.7984496355056763 -0.13286495208740234 0.4418604373931885
-0.7984496355056763 -0.1352844536304474 0.4573643207550049
-0.7984496355056763 -0.13786230981349945 0.4728682041168213
-0.7984496355056763 -0.13980403542518616 0.4883720874786377
-0.7984496355056763 -0.14116273820400238 0.5038759708404541
-0.7984496355056763 -0.1400071531534195 0.5193798542022705
-0.7984496355056763 -0.1348860263824463 0.5348837375640869
-0.7984496355056763 -0.11705319583415985 0.3333333730697632
-0.7984496355056763 -0.12262610346078873 0.3488372564315796
-0.7984496355056763 -0.12460161745548248 0.364341139793396
-0.7984496355056763 -0.1260351687669754 0.37984490394592285
-0.7984496355056763 -0.12742918729782104 0.39534878730773926
-0.7984496355056763 -0.12843936681747437 0.41085267066955566
-0.7984496355056763 -0.13044039905071259 0.42635655403137207
-0.7984496355056763 -0.12076324224472046 0.5503876209259033
-0.7984496355056763 -0.10657298564910889 0.3178294897079468
-0.7984496355056763 -0.08797864615917206 0.30232560634613037
-0.7984496355056763 -0.07450529932975769 0.5503876209259033
-0.7984496355056763 -0.060576487332582474 0.28682172298431396
-0.7984496355056763 -0.039405982941389084 0.27131783962249756
-0.7984496355056763 -0.053627073764801025 0.5348837375640869
-0.7984496355056763 -0.009395803324878216 0.25581395626068115
-0.7984496355056763 0.0008493408095091581 0.25581395626068115
-0.7984496355056763 0.03413820266723633 0.27131783962249756
-0.7984496355056763 0.05659398436546326 0.28682172298431396
-0.7984496355056763 0.060545265674591064 0.5348837375640869
-0.7984496355056763 0.08234572410583496 0.30232560634613037
-0.7984496355056763 0.08522499352693558 0.5503876209259033
-0.7984496355056763 0.10425195842981339 0.3178294897079468
-0.7984496355056763 0.10908263921737671 0.5503876209259033
-0.7984496355056763 0.11749262362718582 0.3333333730697632
-0.7984496355056763 0.12426877021789551 0.3488372564315796
-0.7984496355056763 0.12707343697547913 0.364341139793396
-0.7984496355056763 0.1290823370218277 0.37984490394592285
-0.7984496355056763 0.13011014461517334 0.39534878730773926
-0.7984496355056763 0.13049276173114777 0.41085267066955566
-0.7984496355056763 0.1299845278263092 0.5348837375640869
-0.7984496355056763 0.14333383738994598 -0.5348837375640869
-0.7984496355056763 0.13185158371925354 0.42635655403137207
-0.7984496355056763 0.13347017765045166 0.4418604373931885
-0.7984496355056763 0.13580986857414246 0.4573643207550049
-0.7984496355056763 0.13805757462978363 0.4728682041168213
-0.7984496355056763 0.1392068862915039 0.4883720874786377
-0.7984496355056763 0.1388031244277954 0.5038759708404541
-0.7984496355056763 0.13582703471183777 0.5193798542022705
-0.7984496355056763 0.2406555563211441 -0.5348837375640869
-0.7984496355056763 0.2865228056907654 -0.674418568611145
-0.7984496355056763 0.28223031759262085 -0.6589146852493286
-0.7984496355056763 0.2797831594944 -0.643410861492157
-0.7984496355056763 0.2780311703681946 -0.6279069185256958
-0.7984496355056763 0.27793243527412415 -0.6124030947685242
-0.7984496355056763 0.2788316607475281 -0.5968992114067078
-0.7984496355056763 0.2817807197570801 -0.5813953876495361
-0.7984496355056763 0.2862139642238617 -0.5658915042877197
-0.7984496355056763 0.289144903421402 -0.5503876209259033
-0.798449695110321 0.28744861483573914 -0.5348837375640869
-0.7829457521438599 -0.319204181432724 -0.5503876209259033
-0.7829458117485046 -0.31761816143989563 -0.6744186282157898
-0.7829457521438599 -0.3144417405128479 -0.6589146852493286
-0.7829457521438599 -0.3125401437282562 -0.6434108018875122
-0.7829457521438599 -0.3113464117050171 -0.6279069185256958
-0.7829457521438599 -0.3106365203857422 -0.6124030947685242
-0.7829457521438599 -0.3117125332355499 -0.5968992114067078
-0.7829458117485046 -0.3139902651309967 -0.5813953876495361
-0.7829457521438599 -0.3168683350086212 -0.5658915042877197
-0.7829457521438599 -0.31002846360206604 -0.5348837375640869
-0.7829457521438599 -0.2779275178909302 -0.5348837375640869
-0.7829457521438599 -0.1476643979549408 0.5038759708404541
-0.7829457521438599 -0.14774326980113983 0.5193798542022705
-0.7829457521438599 -0.13928288221359253 -0.5348837375640869
-0.7829457521438599 -0.1319095939397812 0.41085267066955566
-0.7829457521438599 -0.13454079627990723 0.42635655403137207
-0.7829457521438599 -0.13721990585327148 0.4418604373931885
-0.7829457521438599 -0.1394837498664856 0.4573643207550049
-0.7829457521438599 -0.14245393872261047 0.4728682041168213
-0.7829457521438599 -0.14552012085914612 0.4883720874786377
-0.7829457521438599 -0.14632824063301086 0.5348837375640869
-0.7829457521438599 -0.13825634121894836 0.5503876209259033
-0.7829457521438599 -0.12102203071117401 0.3333333730697632
-0.7829457521438599 -0.12470647692680359 0.3488372564315796
-0.7829457521438599 -0.12618018686771393 0.364341139793396
-0.7829457521438599 -0.1276327669620514 0.37984490394592285
-0.7829457521438599 -0.12942901253700256 0.39534878730773926
-0.7829457521438599 -0.1226339116692543 0.5658915042877197
-0.7829457521438599 -0.10972011089324951 0.3178294897079468
-0.7829457521438599 -0.09401153028011322 0.30232560634613037
-0.7829457521438599 -0.07307344675064087 0.28682172298431396
-0.7829457521438599 -0.07956207543611526 0.5658915042877197
-0.7829457521438599 -0.058358244597911835 -0.6899224519729614
-0.7829457521438599 -0.06386010348796844 0.5503876209259033
-0.7829457521438599 -0.05192258208990097 0.27131783962249756
-0.7829457521438599 -0.04820267856121063 0.5348837375640869
-0.7829457521438599 -0.026064889505505562 0.25581395626068115
-0.7829457521438599 0.023839233443140984 0.25581395626068115
-0.7829457521438599 0.04690462350845337 0.27131783962249756
-0.7829457521438599 0.047613099217414856 0.5348837375640869
-0.7829457521438599 0.06793005764484406 0.5503876209259033
-0.7829457521438599 0.0700710266828537 0.28682172298431396
-0.7829457521438599 0.09071975946426392 0.30232560634613037
-0.7829457521438599 0.0892472043633461 0.5658915042877197
-0.7829457521438599 0.10771850496530533 -0.6899224519729614
-0.7829457521438599 0.10804054886102676 0.3178294897079468
-0.7829457521438599 0.11964279413223267 0.3333333432674408
-0.7829457521438599 0.12537086009979248 0.3488372564315796
-0.7829457521438599 0.12804916501045227 0.364341139793396
-0.7829457521438599 0.1302083432674408 0.37984490394592285
-0.7829457521438599 0.13163554668426514 0.39534878730773926
-0.7829457521438599 0.11797911673784256 0.5658915042877197
-0.7829457521438599 0.14419953525066376 -0.5348837375640869
-0.7829457521438599 0.13228373229503632 0.41085267066955566
-0.7829457521438599 0.13386739790439606 0.42635655403137207
-0.7829457521438599 0.13596536219120026 0.4418604373931885
-0.7829457521438599 0.13819828629493713 0.4573643207550049
-0.7829457521438599 0.14138440787792206 0.4728682041168213
-0.7829457521438599 0.14452050626277924 0.4883720874786377
-0.7829457521438599 0.14626000821590424 0.5038759708404541
-0.7829457521438599 0.14540384709835052 0.5193798542022705
-0.7829457521438599 0.14178121089935303 0.5348837375640869
-0.7829456925392151 0.13460952043533325 0.5503876209259033
-0.7829457521438599 0.26257839798927307 -0.6899224519729614
-0.7829457521438599 0.2642374038696289 -0.5348837375640869
-0.7829456925392151 0.2755853235721588 -0.6899224519729614
-0.7829457521438599 0.31003379821777344 -0.674418568611145
-0.7829457521438599 0.3064994215965271 -0.6589146852493286
-0.7829457521438599 0.30479323863983154 -0.643410861492157
-0.7829457521438599 0.3035922348499298 -0.6279069781303406
-0.7829457521438599 0.3037821650505066 -0.6124030947685242
-0.7829458117485046 0.3045193552970886 -0.5968992114067078
-0.7829457521438599 0.30654650926589966 -0.5813953876495361
-0.7829457521438599 0.3095305562019348 -0.5658915042877197
-0.7829457521438599 0.3127049207687378 -0.5503876209259033
-0.7829457521438599 0.3082026243209839 -0.5348837375640869
-0.7674418687820435 -0.345945805311203 -0.674418568611145
-0.7674418687820435 -0.34196940064430237 -0.6589146852493286
-0.7674418687820435 -0.34016722440719604 -0.643410861492157
-0.7674418687820435 -0.3390185832977295 -0.6279069781303406
-0.7674418687820435 -0.3382323086261749 -0.6124030947685242
-0.7674418687820435 -0.33906060457229614 -0.5968992114067078
-0.7674418687820435 -0.34083759784698486 -0.5813953876495361
-0.7674418687820435 -0.34320056438446045 -0.5658915042877197
-0.7674418687820435 -0.3457099199295044 -0.5503876209259033
-0.7674418687820435 -0.3381860852241516 -0.5348837375640869
-0.7674418687820435 -0.2999498248100281 -0.5348837375640869
-0.7674418687820435 -0.14750035107135773 0.4728682041168213
-0.7674418687820435 -0.14936959743499756 0.4883720874786377
-0.7674418687820435 -0.15211306512355804 0.5038759708404541
-0.7674418687820435 -0.15416492521762848 0.5193798542022705
-0.7674418687820435 -0.15244626998901367 0.5348837375640869
-0.7674418687820435 -0.14790363609790802 0.5503876209259033
-0.7674418687820435 -0.1436239629983902 -0.5348837375640869
-0.7674418687820435 -0.13256333768367767 0.37984490394592285
-0.7674418687820435 -0.13351215422153473 0.39534878730773926
-0.7674418687820435 -0.13551071286201477 0.41085267066955566
-0.7674418687820435 -0.13825872540473938 0.42635655403137207
-0.7674418687820435 -0.1404973566532135 0.4418604373931885
-0.7674418687820435 -0.14284470677375793 0.4573643207550049
-0.7674418687820435 -0.14270484447479248 0.5658915042877197
-0.7674418687820435 -0.13024672865867615 -0.6899224519729614
-0.7674418687820435 -0.12421576678752899 0.3333333730697632
-0.7674418091773987 -0.1267777681350708 0.3488372564315796
-0.7674418687820435 -0.1309959888458252 0.364341139793396
-0.7674418687820435 -0.12565457820892334 0.5813953876495361
-0.7674418687820435 -0.1020960733294487 0.30232560634613037
-0.7674418687820435 -0.11552710831165314 0.3178294897079468
-0.7674418687820435 -0.08339033275842667 0.28682172298431396
-0.7674418687820435 -0.07064971327781677 0.5658915042877197
-0.7674418687820435 -0.0848793312907219 0.5813953876495361
-0.7674418687820435 -0.0638236477971077 0.27131783962249756
-0.7674418687820435 -0.061320170760154724 0.5503876209259033
-0.7674418687820435 -0.04148852825164795 0.25581395626068115
-0.7674418687820435 -0.04732898250222206 0.5348837375640869
-0.7674418687820435 0.039391711354255676 0.25581395626068115
-0.7674419283866882 0.042931705713272095 0.5348837375640869
-0.7674418687820435 0.060886748135089874 0.27131783962249756
-0.7674418687820435 0.0605708472430706 0.5503876209259033
-0.7674418687820435 0.07873032987117767 0.28682172298431396
-0.7674418687820435 0.07085182517766953 0.5658915042877197
-0.7674418687820435 0.0977095440030098 0.30232560634613037
-0.7674418687820435 0.09058550000190735 0.5813953876495361
-0.7674418687820435 0.11141570657491684 0.3178294897079468
-0.7674418687820435 0.12205556780099869 0.3333333730697632
-0.7674418687820435 0.1261836737394333 0.3488372564315796
-0.7674418687820435 0.13010582327842712 0.364341139793396
-0.7674418687820435 0.12283846735954285 0.5813953876495361
-0.7674418687820435 0.13270054757595062 0.37984490394592285
-0.7674418687820435 0.13331326842308044 0.39534878730773926
-0.7674418687820435 0.13452930748462677 0.41085267066955566
-0.7674418687820435 0.13691139221191406 0.42635655403137207
-0.7674418687820435 0.13886460661888123 0.4418604373931885
-0.7674418687820435 0.14089958369731903 0.4573643207550049
-0.7674418687820435 0.14422456920146942 0.4728682041168213
-0.7674418687820435 0.1398201286792755 0.5658915042877197
-0.7674418687820435 0.15150170028209686 -0.5348837375640869
-0.7674418687820435 0.14763468503952026 0.4883721172809601
-0.7674418091773987 0.14873072504997253 0.5038759708404541
-0.7674418091773987 0.14908811450004578 0.5193798542022705
-0.7674418687820435 0.14857494831085205 0.5348837375640869
-0.7674418687820435 0.14737233519554138 0.5503876209259033
-0.7674418687820435 0.2842788100242615 -0.5348837375640869
-0.7674418687820435 0.3123006820678711 -0.6899224519729614
-0.7674418687820435 0.33016014099121094 -0.6589146852493286
-0.7674418687820435 0.3287060856819153 -0.643410861492157
-0.7674418687820435 0.3273715376853943 -0.6279069781303406
-0.7674418687820435 0.32761484384536743 -0.6124030947685242
-0.7674418687820435 0.32835274934768677 -0.5968992114067078
-0.7674418687820435 0.33042043447494507 -0.5813953876495361
-0.7674418687820435 0.33309805393218994 -0.5658915042877197
-0.7674418687820435 0.32983362674713135 -0.5348837375640869
-0.7674418091773987 0.33345600962638855 -0.6744185090065002
-0.7674418687820435 0.334947794675827 -0.5503876209259033
-0.751937985420227 -0.3710761070251465 -0.674418568611145
-0.751937985420227 -0.3675307631492615 -0.6589146852493286
-0.751937985420227 -0.3661608099937439 -0.643410861492157
-0.751937985420227 -0.3652021884918213 -0.6279069781303406
-0.751937985420227 -0.36449283361434937 -0.6124030947685242
-0.751937985420227 -0.3648499846458435 -0.5968992114067078
-0.751937985420227 -0.3657352924346924 -0.5813953876495361
-0.751937985420227 -0.36703091859817505 -0.5658915042877197
-0.751937985420227 -0.36879798769950867 -0.5503876209259033
-0.751937985420227 -0.35416531562805176 -0.6899224519729614
-0.751937985420227 -0.36091503500938416 -0.5348837375640869
-0.751937985420227 -0.32898998260498047 -0.5348837375640869
-0.751937985420227 -0.1478719860315323 0.4573643207550049
-0.751937985420227 -0.15053895115852356 0.4728682041168213
-0.751937985420227 -0.15316049754619598 0.4883720874786377
-0.751937985420227 -0.15649200975894928 0.5038759708404541
-0.751937985420227 -0.15780866146087646 0.5193798542022705
-0.751937985420227 -0.1581333726644516 0.5348837375640869
-0.751937985420227 -0.15681377053260803 0.5503876209259033
-0.751937985420227 -0.1524602174758911 0.5658915042877197
-0.7519379258155823 -0.14285056293010712 -0.5348837375640869
-0.751937985420227 -0.13340528309345245 0.364341139793396
-0.751937985420227 -0.13459429144859314 0.37984490394592285
-0.751937985420227 -0.13584811985492706 0.39534878730773926
-0.751937985420227 -0.13798074424266815 0.41085267066955566
-0.751937985420227 -0.1405280977487564 0.42635655403137207
-0.751937985420227 -0.14270508289337158 0.4418604373931885
-0.751937985420227 -0.1458956003189087 0.5813953876495361
-0.751937985420227 -0.11940236389636993 0.3178294897079468
-0.751937985420227 -0.12545308470726013 0.3333333730697632
-0.751937985420227 -0.12921005487442017 0.3488372564315796
-0.751937985420227 -0.1274263709783554 0.5968992710113525
-0.751937985420227 -0.1055600494146347 0.30232560634613037
-0.751937985420227 -0.08927805721759796 0.28682172298431396
-0.751937985420227 -0.09229369461536407 0.5968992710113525
-0.751937985420227 -0.07308246940374374 0.27131783962249756
-0.751937985420227 -0.07167637348175049 0.5658915042877197
-0.751937985420227 -0.08014537394046783 0.5813953876495361
-0.751937985420227 -0.06317022442817688 0.5503876209259033
-0.751937985420227 -0.05343177914619446 0.25581395626068115
-0.751937985420227 -0.050638698041439056 0.5348837375640869
-0.751937985420227 -0.022254720330238342 0.24031007289886475
-0.751937985420227 0.020122148096561432 0.24031007289886475
-0.751937985420227 0.052695032209157944 0.25581395626068115
-0.751937985420227 0.0433950200676918 0.5348837375640869
-0.751937985420227 0.060375578701496124 0.5503876209259033
-0.751937985420227 0.06872028112411499 0.5658915042877197
-0.7519379258155823 0.07144481688737869 0.27131783962249756
-0.751937985420227 0.07780562341213226 0.5813953876495361
-0.751937985420227 0.0859866663813591 0.28682172298431396
-0.751937985420227 0.09258179366588593 0.5968992710113525
-0.751937985420227 0.10175049304962158 0.30232560634613037
-0.751937985420227 0.11373411118984222 0.3178294897079468
-0.751937985420227 0.12321816384792328 0.3333333730697632
-0.751937985420227 0.12688244879245758 0.3488372564315796
-0.751937985420227 0.1297876536846161 0.5968992710113525
-0.751937985420227 0.1321496069431305 0.364341139793396
-0.751937985420227 0.13466770946979523 0.37984490394592285
-0.751937985420227 0.1358693391084671 0.39534881711006165
-0.751937985420227 0.13743668794631958 0.41085267066955566
-0.751937985420227 0.1395726501941681 0.42635655403137207
-0.751937985420227 0.14141499996185303 0.4418604373931885
-0.751937985420227 0.14352844655513763 0.4573643207550049
-0.751937985420227 0.14632488787174225 0.5813953876495361
-0.751937985420227 0.15122181177139282 -0.5348837375640869
-0.751937985420227 0.14748507738113403 0.4728682041168213
-0.7519380450248718 0.1494389772415161 0.4883720874786377
-0.751937985420227 0.15104621648788452 0.5038759708404541
-0.751937985420227 0.15221081674098969 0.5193798542022705
-0.751937985420227 0.15340834856033325 0.5348837375640869
-0.751937985420227 0.1533755362033844 0.5503876209259033
-0.751937985420227 0.15074099600315094 0.5658915042877197
-0.751937985420227 0.30658578872680664 -0.5348837375640869
-0.751937985420227 0.34128129482269287 -0.6899224519729614
-0.751937985420227 0.34864020347595215 -0.6279069781303406
-0.751937985420227 0.34871697425842285 -0.6124030947685242
-0.751937985420227 0.3451009690761566 -0.5348837375640869
-0.751937985420227 0.3535924553871155 -0.674418568611145
-0.751937985420227 0.3509310781955719 -0.6589146852493286
-0.751937985420227 0.34969907999038696 -0.643410861492157
-0.751937985420227 0.34910234808921814 -0.5968992114067078
-0.7519380450248718 0.3502877950668335 -0.5813953876495361
-0.751937985420227 0.35190510749816895 -0.5658915042877197
-0.751937985420227 0.3531665503978729 -0.5503876209259033
-0.7364341020584106 -0.380310982465744 -0.6899224519729614
-0.7364341020584106 -0.3924153447151184 -0.674418568611145
-0.7364341020584106 -0.38904452323913574 -0.6589146852493286
-0.7364341020584106 -0.3874482810497284 -0.643410861492157
-0.7364341020584106 -0.38625746965408325 -0.6279069781303406
-0.7364341020584106 -0.38526037335395813 -0.6124030947685242
-0.7364341020584106 -0.38566944003105164 -0.5968992114067078
-0.7364341020584106 -0.3865320384502411 -0.5813953876495361
-0.7364341020584106 -0.3875868320465088 -0.5658915042877197
-0.7364341020584106 -0.3888464570045471 -0.5503876209259033
-0.7364341020584106 -0.37989386916160583 -0.5348837375640869
-0.7364341020584106 -0.35935500264167786 -0.5348837375640869
-0.7364341020584106 -0.16327665746212006 0.5348837375640869
-0.7364341020584106 -0.1634998470544815 0.5503876209259033
-0.7364341020584106 -0.1498481035232544 0.4573643207550049
-0.7364341020584106 -0.1526494324207306 0.4728682041168213
-0.7364341020584106 -0.15535084903240204 0.4883720874786377
-0.7364341020584106 -0.15888245403766632 0.5038759708404541
-0.7364341616630554 -0.16192293167114258 0.5193798542022705
-0.7364341020584106 -0.16275842487812042 0.5658915042877197
-0.7364341616630554 -0.16011515259742737 0.5813953876495361
-0.7364341020584106 -0.15566539764404297 0.5968992710113525
-0.7364341020584106 -0.14198888838291168 -0.5348837375640869
-0.7364341020584106 -0.13258300721645355 0.364341139793396
-0.7364341020584106 -0.13400934636592865 0.37984490394592285
-0.7364341020584106 -0.13561874628067017 0.39534878730773926
-0.7364341020584106 -0.13835950195789337 0.41085267066955566
-0.7364341020584106 -0.14157283306121826 0.42635655403137207
-0.7364341020584106 -0.14585191011428833 0.44186046719551086
-0.7364341020584106 -0.13331381976604462 0.612403154373169
-0.7364341020584106 -0.1186302974820137 0.3178294897079468
-0.7364341020584106 -0.12478861212730408 0.3333333730697632
-0.7364341020584106 -0.12820443511009216 0.3488372564315796
-0.7364341020584106 -0.10540345311164856 0.30232560634613037
-0.7364341020584106 -0.09196093678474426 0.28682172298431396
-0.7364341020584106 -0.08871635049581528 0.5968992710113525
-0.7364341020584106 -0.09887886792421341 0.612403154373169
-0.7364341020584106 -0.07769067585468292 0.27131783962249756
-0.7364341020584106 -0.07540880888700485 0.5658915042877197
-0.7364341020584106 -0.08145587146282196 0.5813953876495361
-0.7364341020584106 -0.05820784717798233 0.25581395626068115
-0.7364341020584106 -0.0553915798664093 0.5348837375640869
-0.7364341020584106 -0.06628557294607162 0.5503876209259033
-0.7364341020584106 -0.027508804574608803 0.24031007289886475
-0.7364341020584106 0.0281522199511528 0.24031008780002594
-0.7364341020584106 0.047875113785266876 0.5348837375640869
-0.7364341020584106 0.0585591122508049 0.25581395626068115
-0.7364341020584106 0.06332988291978836 0.5503876209259033
-0.7364341020584106 0.07501795887947083 0.27131783962249756
-0.7364341020584106 0.07231146097183228 0.5658915042877197
-0.7364341020584106 0.07900022715330124 0.5813953876495361
-0.7364341020584106 0.08491005003452301 0.5968992710113525
-0.7364341616630554 0.08757251501083374 0.28682172298431396
-0.7364341020584106 0.0968867838382721 0.612403154373169
-0.7364341020584106 0.10082154721021652 0.30232563614845276
-0.7364341020584106 0.11213143914937973 0.3178294897079468
-0.7364341020584106 0.12209802120923996 0.3333333730697632
-0.7364341020584106 0.12631678581237793 0.3488372564315796
-0.7364341020584106 0.13139984011650085 0.364341139793396
-0.7364341020584106 0.1344766914844513 0.37984490394592285
-0.7364341020584106 0.1365795135498047 0.39534878730773926
-0.7364341020584106 0.13895848393440247 0.41085267066955566
-0.7364341020584106 0.1414967179298401 0.42635655403137207
-0.7364341020584106 0.14383797347545624 0.4418604373931885
-0.7364341020584106 0.1394660472869873 0.612403154373169
-0.7364341020584106 0.1513759195804596 -0.5348837375640869
-0.7364341020584106 0.14777334034442902 0.45736435055732727
-0.7364341020584106 0.14972545206546783 0.4728682041168213
-0.7364341020584106 0.15140989422798157 0.4883720874786377
-0.7364341020584106 0.15352705121040344 0.5038759708404541
-0.7364341020584106 0.15586715936660767 0.5193798542022705
-0.7364341020584106 0.1580948680639267 0.5348837375640869
-0.7364341020584106 0.1590997278690338 0.5503876209259033
-0.7364341020584106 0.15878890454769135 0.5658915042877197
-0.7364341020584106 0.15831461548805237 0.5813953876495361
-0.7364341020584106 0.15487870573997498 0.5968992710113525
-0.7364341020584106 0.3317715525627136 -0.5348837375640869
-0.7364341020584106 0.362228125333786 -0.6899224519729614
-0.7364341020584106 0.35537564754486084 -0.5348837375640869
-0.7364341020584106 0.37103891372680664 -0.674418568611145
-0.7364341020584106 0.3684932589530945 -0.6589146852493286
-0.7364341020584106 0.36706435680389404 -0.6434109210968018
-0.7364341020584106 0.36587175726890564 -0.6279069781303406
-0.7364341020584106 0.36582809686660767 -0.6124030947685242
-0.7364341020584106 0.36607247591018677 -0.5968992114067078
-0.7364341020584106 0.3669583201408386 -0.5813953876495361
-0.7364341616630554 0.36798548698425293 -0.5658915042877197
-0.7364341020584106 0.3685876727104187 -0.5503876209259033
-0.7209302186965942 -0.4112992584705353 -0.674418568611145
-0.7209302186965942 -0.4034786820411682 -0.6899224519729614
-0.7209302186965942 -0.4081580936908722 -0.6589147448539734
-0.7209302186965942 -0.40669482946395874 -0.643410861492157
-0.7209302186965942 -0.40549248456954956 -0.6279069185256958
-0.7209302186965942 -0.40437161922454834 -0.6124030947685242
-0.7209302186965942 -0.40453869104385376 -0.5968992114067078
-0.7209302186965942 -0.40495556592941284 -0.5813953876495361
-0.7209302186965942 -0.405326247215271 -0.5658915042877197
-0.7209302186965942 -0.40569067001342773 -0.5503876209259033
-0.7209302186965942 -0.16398456692695618 0.5193798542022705
-0.7209302186965942 -0.1651051789522171 0.5348837375640869
-0.7209302186965942 -0.16569004952907562 0.5503876209259033
-0.7209302186965942 -0.16630907356739044 0.5658915042877197
-0.7209302186965942 -0.16828107833862305 0.5813953876495361
-0.7209302186965942 -0.17212872207164764 0.5968992710113525
-0.7209302186965942 -0.1734963208436966 0.612403154373169
-0.7209302186965942 -0.14759071171283722 0.4418604373931885
-0.7209302186965942 -0.1508476734161377 0.4573643207550049
-0.7209302186965942 -0.1535966545343399 0.4728682041168213
-0.7209302186965942 -0.15625131130218506 0.4883720874786377
-0.7209302186965942 -0.16116249561309814 0.5038759708404541
-0.7209302186965942 -0.14979900419712067 0.6279069185256958
-0.7209302186965942 -0.13671883940696716 -0.5348837375640869
-0.7209302186965942 -0.1337471306324005 0.39534878730773926
-0.7209302186965942 -0.13671979308128357 0.41085267066955566
-0.7209302186965942 -0.14116591215133667 0.42635655403137207
-0.7209302186965942 -0.12144652009010315 0.3333333730697632
-0.7209302186965942 -0.12471899390220642 0.3488372564315796
-0.7209302186965942 -0.12750083208084106 0.364341139793396
-0.7209302186965942 -0.1312403678894043 0.37984490394592285
-0.7209302186965942 -0.10239780694246292 0.30232560634613037
-0.7209302186965942 -0.11248256266117096 0.3178294897079468
-0.7209302186965942 -0.11291174590587616 0.6279069185256958
-0.7209302186965942 -0.09100797772407532 0.28682172298431396
-0.7209302186965942 -0.08536525070667267 0.5813953876495361
-0.7209302186965942 -0.09472261369228363 0.5968992710113525
-0.7209302186965942 -0.09918858110904694 0.612403154373169
-0.7209302186965942 -0.07791052758693695 0.27131783962249756
-0.7209302186965942 -0.07198482751846313 0.5503876209259033
-0.7209302186965942 -0.07945862412452698 0.5658915042877197
-0.7209302186965942 -0.058857131749391556 0.25581395626068115
-0.7209302186965942 -0.06088799983263016 0.5348837375640869
-0.7209302186965942 -0.027911558747291565 0.24031007289886475
-0.7209302186965942 -0.031410034745931625 0.5193798542022705
-0.7209302186965942 0.00896811205893755 0.5193798542022705
-0.7209302186965942 0.03032245859503746 0.24031007289886475
-0.7209302186965942 0.060044288635253906 0.25581395626068115
-0.7209301590919495 0.05624174326658249 0.5348837375640869
-0.7209302186965942 0.06930987536907196 0.5503876209259033
-0.7209302186965942 0.07557779550552368 0.27131783962249756
-0.7209302186965942 0.07741189002990723 0.5658915042877197
-0.7209302186965942 0.08408656716346741 0.5813953876495361
-0.7209301590919495 0.08655088394880295 0.28682172298431396
-0.7209302186965942 0.09500672668218613 0.30232560634613037
-0.7209302186965942 0.09235865622758865 0.5968992710113525
-0.7209302186965942 0.09791670739650726 0.612403154373169
-0.7209302186965942 0.10727545619010925 0.3178294897079468
-0.7209302186965942 0.1080893874168396 0.6279069185256958
-0.7209302186965942 0.11672506481409073 0.33333340287208557
-0.7209302186965942 0.12281662225723267 0.3488372564315796
-0.7209302186965942 0.12632879614830017 0.364341139793396
-0.7209302186965942 0.13052906095981598 0.37984490394592285
-0.7209302186965942 0.1340475082397461 0.39534878730773926
-0.7209302186965942 0.13788142800331116 0.41085267066955566
-0.7209302186965942 0.14172469079494476 0.42635655403137207
-0.7209302186965942 0.1455111801624298 0.4418604373931885
-0.7209301590919495 0.14756882190704346 -0.5348836779594421
-0.7209302186965942 0.14884495735168457 0.4573642909526825
-0.7209302186965942 0.15081338584423065 0.4728682041168213
-0.7209302186965942 0.1526731699705124 0.4883720874786377
-0.7209302186965942 0.15465456247329712 0.5038759708404541
-0.7209302186965942 0.1565352976322174 0.5193798542022705
-0.7209302186965942 0.1583012044429779 0.5348837375640869
-0.7209302186965942 0.15988901257514954 0.5503876209259033
-0.7209302186965942 0.16195926070213318 0.5658915042877197
-0.7209302186965942 0.16099467873573303 0.6279069185256958
-0.7209302186965942 0.16560623049736023 0.5813953876495361
-0.7209302186965942 0.17204535007476807 0.5968992710113525
-0.7209302186965942 0.17489327490329742 0.612403154373169
-0.7209302186965942 0.3801186680793762 -0.6899224519729614
-0.7209302186965942 0.3869406580924988 -0.674418568611145
-0.7209302186965942 0.3844747543334961 -0.6589146852493286
-0.7209302186965942 0.3830295205116272 -0.6434108018875122
-0.720930278301239 0.3817976117134094 -0.6279069781303406
-0.7209301590919495 0.38155025243759155 -0.6124030947685242
-0.7209302186965942 0.3815724551677704 -0.596899151802063
-0.7209302186965942 0.3819790184497833 -0.5813953876495361
-0.7209302186965942 0.3822917342185974 -0.5658915042877197
-0.7209301590919495 0.38224104046821594 -0.5503876209259033
-0.7054263353347778 -0.42774075269699097 -0.674418568611145
-0.7054263949394226 -0.42200255393981934 -0.6899224519729614
-0.7054263353347778 -0.42515847086906433 -0.6589146852493286
-0.7054263353347778 -0.42362120747566223 -0.643410861492157
-0.7054263353347778 -0.4222829341888428 -0.6279069781303406
-0.7054263353347778 -0.421106219291687 -0.612403154373169
-0.7054263353347778 -0.4209998846054077 -0.5968992710113525
-0.7054263353347778 -0.4210273027420044 -0.5813953876495361
-0.7054263353347778 -0.4208536148071289 -0.5658915042877197
-0.7054263353347778 -0.4204113781452179 -0.5503876209259033
-0.7054263353347778 -0.18172669410705566 0.612403154373169
-0.7054263353347778 -0.1849757432937622 0.6279069185256958
-0.7054263353347778 -0.18416014313697815 0.6434108018875122
-0.7054263353347778 -0.16408081352710724 0.5813953876495361
-0.7054263353347778 -0.175192192196846 0.5968992710113525
-0.7054263353347778 -0.1493833363056183 0.4573643207550049
-0.7054263353347778 -0.15232813358306885 0.4728682041168213
-0.7054263353347778 -0.15474966168403625 0.4883720874786377
-0.7054263353347778 -0.15688464045524597 0.5038759708404541
-0.7054263353347778 -0.15891730785369873 0.5193798542022705
-0.7054263353347778 -0.16105122864246368 0.5348837375640869
-0.7054263353347778 -0.16144011914730072 0.5503876209259033
-0.7054262757301331 -0.1603759229183197 0.5658915042877197
-0.7054263353347778 -0.13377775251865387 0.41085267066955566
-0.7054263353347778 -0.137663334608078 0.42635655403137207
-0.7054263353347778 -0.14300253987312317 0.4418604373931885
-0.7054263353347778 -0.1380818784236908 0.6434108018875122
-0.7054263353347778 -0.1262197047472 -0.5348837375640869
-0.7054263353347778 -0.11672257632017136 0.3333333730697632
-0.7054263353347778 -0.1204928457736969 0.3488372564315796
-0.7054263353347778 -0.12293446809053421 0.364341139793396
-0.7054263353347778 -0.12525267899036407 0.37984490394592285
-0.7054263353347778 -0.1294180303812027 0.39534878730773926
-0.7054263353347778 -0.11793805658817291 0.6279069185256958
-0.7054263353347778 -0.1059819757938385 0.3178294897079468
-0.7054263353347778 -0.10244885832071304 0.5968992710113525
-0.7054263353347778 -0.11114242672920227 0.612403154373169
-0.7054263353347778 -0.08806414902210236 0.28682172298431396
-0.7054263353347778 -0.096732959151268 0.30232560634613037
-0.7054263353347778 -0.08793438971042633 0.5658915042877197
-0.7054263353347778 -0.09628229588270187 0.5813953876495361
-0.7054263353347778 -0.07536160945892334 0.27131783962249756
-0.7054263353347778 -0.07990777492523193 0.5503876209259033
-0.7054263353347778 -0.05716066062450409 0.25581395626068115
-0.7054263353347778 -0.06930308789014816 0.5348837375640869
-0.7054263353347778 -0.04517926275730133 0.5193798542022705
-0.7054263353347778 -0.03826788440346718 -0.5348837375640869
-0.7054263353347778 -0.025336146354675293 0.24031007289886475
-0.7054263353347778 0.023110903799533844 0.5193798542022705
-0.7054263353347778 0.02848280593752861 -0.5348837375640869
-0.7054263353347778 0.02864191308617592 0.24031007289886475
-0.7054263353347778 0.05905849114060402 0.25581395626068115
-0.7054263353347778 0.06706257909536362 0.5348837375640869
-0.7054263353347778 0.07407056540250778 0.27131783962249756
-0.7054263353347778 0.08350672572851181 0.28682172298431396
-0.7054263353347778 0.07821552455425262 0.5503876209259033
-0.7054263353347778 0.08989251405000687 0.30232560634613037
-0.7054263353347778 0.0981174111366272 0.3178294897079468
-0.7054263353347778 0.08659178018569946 0.5658915042877197
-0.7054263353347778 0.09522067755460739 0.5813953876495361
-0.7054263353347778 0.10720160603523254 0.3333333730697632
-0.7054263353347778 0.1145499050617218 0.3488372564315796
-0.7054263353347778 0.10111850500106812 0.5968992710113525
-0.7054263353347778 0.11038480699062347 0.612403154373169
-0.7054263353347778 0.11985959857702255 0.364341139793396
-0.7054263353347778 0.12345707416534424 0.37984490394592285
-0.7054263353347778 0.1275794506072998 0.39534878730773926
-0.7054263353347778 0.11849230527877808 0.6279069185256958
-0.7054263353347778 0.13884645700454712 -0.5348837375640869
-0.7054263353347778 0.13326697051525116 0.41085267066955566
-0.7054263353347778 0.1379103660583496 0.4263565242290497
-0.7054263353347778 0.14241397380828857 0.4418604373931885
-0.7054263353347778 0.14724823832511902 0.4573643207550049
-0.7054263353347778 0.13233323395252228 0.6434108018875122
-0.7054263353347778 0.14904795587062836 0.4728681743144989
-0.7054263353347778 0.150284081697464 0.4883720874786377
-0.7054263949394226 0.15122762322425842 0.5038759708404541
-0.7054263353347778 0.15194734930992126 0.5193798542022705
-0.7054263353347778 0.15219098329544067 0.5348837375640869
-0.7054263353347778 0.1524733006954193 0.5503876209259033
-0.7054263353347778 0.15254446864128113 0.5658915042877197
-0.7054263353347778 0.15622608363628387 0.5813953876495361
-0.7054263353347778 0.17683418095111847 0.5968992710113525
-0.7054263353347778 0.18658089637756348 0.612403154373169
-0.7054263353347778 0.19314135611057281 0.6279069185256958
-0.7054263353347778 0.18688735365867615 0.6434108018875122
-0.7054262757301331 0.39670422673225403 -0.6899224519729614
-0.7054263353347778 0.40268510580062866 -0.674418568611145
-0.7054263353347778 0.4002685546875 -0.6589146852493286
-0.7054263949394226 0.3987657427787781 -0.6434109210968018
-0.7054263353347778 0.39743804931640625 -0.6279070377349854
-0.7054263353347778 0.39690345525741577 -0.6124030947685242
-0.7054263949394226 0.3966723382472992 -0.5968992114067078
-0.7054263353347778 0.3966471552848816 -0.5813953876495361
-0.7054263353347778 0.39628198742866516 -0.5658915042877197
-0.7054263949394226 0.39572522044181824 -0.5503876209259033
-0.6899224519729614 -0.44227853417396545 -0.674418568611145
-0.6899224519729614 -0.43809154629707336 -0.6899224519729614
-0.6899224519729614 -0.439325213432312 -0.6589146852493286
-0.6899224519729614 -0.43776044249534607 -0.643410861492157
-0.6899224519729614 -0.43629249930381775 -0.6279069781303406
-0.6899224519729614 -0.43504494428634644 -0.6124030947685242
-0.6899224519729614 -0.43472808599472046 -0.596899151802063
-0.6899224519729614 -0.4345249533653259 -0.5813953876495361
-0.6899224519729614 -0.43405669927597046 -0.5658915042877197
-0.6899224519729614 -0.4331442713737488 -0.5503876209259033
-0.6899224519729614 -0.17992612719535828 0.6279069185256958
-0.6899224519729614 -0.18604090809822083 0.6434108018875122
-0.6899224519729614 -0.1924145370721817 0.6589146852493286
-0.6899224519729614 -0.14770859479904175 0.4883720874786377
-0.6899224519729614 -0.14839814603328705 0.5038759708404541
-0.6899224519729614 -0.1483120620250702 0.5193798542022705
-0.6899224519729614 -0.1474219262599945 0.5348837375640869
-0.6899224519729614 -0.15428456664085388 0.6279069185256958
-0.6899224519729614 -0.14886194467544556 0.6434108018875122
-0.6899223923683167 -0.16019190847873688 0.6589146256446838
-0.6899224519729614 -0.1333015412092209 0.42635655403137207
-0.6899224519729614 -0.1370374858379364 0.4418604373931885
-0.6899224519729614 -0.14083895087242126 0.4573643207550049
-0.6899224519729614 -0.1449550986289978 0.4728682041168213
-0.6899224519729614 -0.1408507227897644 0.5503876209259033
-0.6899224519729614 -0.13189519941806793 0.5658915042877197
-0.6899224519729614 -0.11698748916387558 -0.5348837375640869
-0.6899224519729614 -0.11633159220218658 0.3488372564315796
-0.6899224519729614 -0.11817445605993271 0.364341139793396
-0.6899224519729614 -0.12028257548809052 0.37984490394592285
-0.6899224519729614 -0.12317610532045364 0.39534878730773926
-0.6899224519729614 -0.12775450944900513 0.4108526408672333
-0.6899224519729614 -0.1044943705201149 0.3178294897079468
-0.6899224519729614 -0.11091238260269165 0.3333333730697632
-0.6899224519729614 -0.10771483182907104 0.5658915042877197
-0.6899224519729614 -0.08589305728673935 0.28682172298431396
-0.6899224519729614 -0.0933130607008934 0.30232560634613037
-0.6899224519729614 -0.09338398277759552 0.5503876209259033
-0.6899224519729614 -0.07336322963237762 0.27131783962249756
-0.6899224519729614 -0.08182375133037567 0.5348837375640869
-0.6899224519729614 -0.05570775642991066 -0.5348837375640869
-0.6899224519729614 -0.05553275719285011 0.25581395626068115
-0.6899224519729614 -0.06030106544494629 0.5193798542022705
-0.6899224519729614 -0.020823447033762932 0.24031007289886475
-0.6899224519729614 0.026268865913152695 0.24031007289886475
-0.6899224519729614 0.04812785983085632 -0.5348837375640869
-0.6899224519729614 0.040390659123659134 0.5193798542022705
-0.6899224519729614 0.05778394639492035 0.25581395626068115
-0.6899224519729614 0.07248623669147491 0.27131783962249756
-0.6899224519729614 0.08027930557727814 0.28682172298431396
-0.6899224519729614 0.08167795836925507 0.5348837375640869
-0.6899224519729614 0.086778923869133 0.30232560634613037
-0.6899224519729614 0.09251940995454788 0.3178294897079468
-0.6899224519729614 0.0940701812505722 0.5503876209259033
-0.6899224519729614 0.10135162621736526 0.3333333730697632
-0.6899224519729614 0.10720955580472946 0.3488372564315796
-0.6899224519729614 0.1120227500796318 0.364341139793396
-0.6899224519729614 0.11202476918697357 0.5658915042877197
-0.6899224519729614 0.13161708414554596 -0.5348837375640869
-0.6899224519729614 0.11741648614406586 0.37984487414360046
-0.6899224519729614 0.12114732712507248 0.39534878730773926
-0.6899224519729614 0.12516634166240692 0.41085267066955566
-0.6899224519729614 0.13095885515213013 0.42635655403137207
-0.6899224519729614 0.12156286835670471 0.5658915042877197
-0.6899224519729614 0.13519935309886932 0.4418604373931885
-0.6899224519729614 0.13831551373004913 0.4573643207550049
-0.6899224519729614 0.13987988233566284 0.4728682041168213
-0.6899224519729614 0.13967053592205048 0.4883720874786377
-0.6899224519729614 0.1388331651687622 0.5038759708404541
-0.6899224519729614 0.1385188102722168 0.5193798542022705
-0.6899224519729614 0.1382768750190735 0.5348837375640869
-0.6899225115776062 0.1352732628583908 0.5503876209259033
-0.6899224519729614 0.1517784595489502 0.6279069185256958
-0.6899224519729614 0.1474360227584839 0.6434108018875122
-0.6899224519729614 0.15869766473770142 0.6589146852493286
-0.6899224519729614 0.18903133273124695 0.6279069185256958
-0.6899224519729614 0.19682110846042633 0.6434108018875122
-0.6899224519729614 0.19535551965236664 0.6589146852493286
-0.6899224519729614 0.4107604920864105 -0.5658915042877197
-0.6899224519729614 0.40873095393180847 -0.5503876209259033
