0.06976747512817383 -0.8608587384223938 0.42635655403137207
0.06976747512817383 -0.8626851439476013 0.4418604373931885
0.06976747512817383 -0.8473349809646606 0.364341139793396
0.06976747512817383 -0.8578120470046997 0.37984487414360046
0.06976747512817383 -0.8591497540473938 0.39534878730773926
0.06976747512817383 -0.8582947850227356 0.41085267066955566
0.06976747512817383 -0.8563829660415649 0.4573643207550049
0.06976747512817383 -0.8422815799713135 0.4728682041168213
0.06976747512817383 -0.8174633383750916 0.3488372564315796
0.06976747512817383 -0.8239772915840149 0.4883720576763153
0.06976747512817383 -0.8083599805831909 0.5038759708404541
0.06976747512817383 -0.7955565452575684 0.5193798542022705
0.06976747512817383 -0.7847843766212463 0.5348837375640869
0.06976747512817383 -0.7688041925430298 0.3333333730697632
0.06976747512817383 -0.7739804983139038 0.5503876209259033
0.06976747512817383 -0.7526741623878479 0.3178294897079468
0.06976747512817383 -0.7622621059417725 0.5658915042877197
0.06976747512817383 -0.752433180809021 0.5813953876495361
0.06976747512817383 -0.7384386658668518 0.30232560634613037
0.06976747512817383 -0.7407624125480652 0.5968992710113525
0.06976747512817383 -0.7238118052482605 0.28682172298431396
0.06976747512817383 -0.7273285388946533 0.612403154373169
0.06976747512817383 -0.7091376185417175 0.27131783962249756
0.06976747512817383 -0.6919565796852112 0.24031007289886475
0.06976747512817383 -0.697296142578125 0.25581395626068115
0.06976747512817383 -0.7051512598991394 0.6279069185256958
0.06976747512817383 -0.6772446632385254 0.06976747512817383
0.06976747512817383 -0.6808404922485352 0.08527135848999023
0.06976747512817383 -0.6831153631210327 0.10077524185180664
0.06976747512817383 -0.6844406723976135 0.11627912521362305
0.06976747512817383 -0.6848373413085938 0.1317828893661499
0.06976747512817383 -0.6848631501197815 0.1472867727279663
0.06976747512817383 -0.6844866275787354 0.16279065608978271
0.06976747512817383 -0.6842492818832397 0.17829453945159912
0.06976747512817383 -0.6844767332077026 0.19379842281341553
0.06976747512817383 -0.6856169700622559 0.20930230617523193
0.06976747512817383 -0.6885613799095154 0.22480618953704834
0.06976747512817383 -0.6615217328071594 0.007751941680908203
0.06976747512817383 -0.6674034595489502 0.02325582504272461
0.06976747512817383 -0.6707102656364441 0.038759708404541016
0.06976747512817383 -0.673721194267273 0.05426359176635742
0.06976747512817383 -0.6625739336013794 0.6434108018875122
0.06976747512817383 -0.6465549468994141 -0.038759708404541016
0.06976747512817383 -0.6528314352035522 -0.02325582504272461
0.06976747512817383 -0.6564669013023376 -0.007751941215246916
0.06976747512817383 -0.6363635063171387 -0.06976741552352905
0.06976747512817383 -0.6407468914985657 -0.05426359176635742
0.06976747512817383 -0.6215327978134155 -0.10077518224716187
0.06976747512817383 -0.6274722218513489 -0.08527129888534546
0.06976747512817383 -0.6203632354736328 0.6589146852493286
0.06976747512817383 -0.5989243984222412 -0.13178294897079468
0.06976747512817383 -0.6105695366859436 -0.11627906560897827
0.06976747512817383 -0.5870863199234009 0.674418568611145
0.06976747512817383 -0.580707311630249 -0.14728684723377228
0.06976747512817383 -0.5532534718513489 -0.1627907156944275
0.06976747512817383 -0.5259488821029663 0.674418568611145
0.06976747512817383 -0.5063808560371399 0.6434108018875122
0.06976747512817383 -0.5151942372322083 0.6589146852493286
0.06976747512817383 -0.49082791805267334 0.612403154373169
0.06976747512817383 -0.4995880126953125 0.6279069185256958
0.06976747512817383 -0.4825664758682251 -0.1782945990562439
0.06976747512817383 -0.4835069179534912 0.5968992710113525
0.06976747512817383 -0.46249115467071533 -0.19379842281341553
0.06976747512817383 -0.4617150127887726 0.5658915042877197
0.06976747512817383 -0.47230786085128784 0.5813953876495361
0.06976747512817383 -0.4444953203201294 -0.20930230617523193
0.06976747512817383 -0.44990041851997375 0.5503876209259033
0.06976747512817383 -0.43652188777923584 0.5348837375640869
0.06976747512817383 -0.41096246242523193 0.5038759708404541
0.06976747512817383 -0.423432856798172 0.5193798542022705
0.06976747512817383 -0.3976016044616699 -0.22480618953704834
0.06976747512817383 -0.4022221565246582 0.4883720874786377
0.06976747512817383 -0.39294907450675964 -0.22480618953704834
0.06976747512817383 -0.38207536935806274 0.4418604373931885
0.06976747512817383 -0.3880896270275116 0.4573643207550049
0.06976747512817383 -0.39356234669685364 0.4728681743144989
0.06976747512817383 -0.3684895932674408 0.37984490394592285
0.06976747512817383 -0.3723430633544922 0.39534878730773926
0.06976747512817383 -0.3751996159553528 0.41085267066955566
0.06976747512817383 -0.3775938153266907 0.42635655403137207
0.06976747512817383 -0.35937076807022095 0.3488372564315796
0.06976747512817383 -0.3636942207813263 0.364341139793396
0.06976747512817383 -0.34665969014167786 0.3333333730697632
0.06976747512817383 -0.31993380188941956 0.3178294897079468
0.06976747512817383 -0.3158290684223175 -0.20930230617523193
0.06976747512817383 -0.24604532122612 0.30232560634613037
0.06976747512817383 -0.16127325594425201 0.28682172298431396
0.06976747512817383 0.015404269099235535 0.27131783962249756
0.06976747512817383 0.046063877642154694 -0.19379842281341553
0.06976747512817383 0.1422777622938156 -0.19379842281341553
0.06976747512817383 0.3468206226825714 -0.20930230617523193
0.06976747512817383 0.3676254153251648 0.25581395626068115
0.06976747512817383 0.46145397424697876 -0.22480618953704834
0.06976747512817383 0.488271027803421 -0.24031007289886475
0.06976747512817383 0.5168995261192322 -0.25581395626068115
0.06976747512817383 0.5460925102233887 0.24031007289886475
0.06976747512817383 0.5525786280632019 -0.27131783962249756
0.06976747512817383 0.6030410528182983 0.22480618953704834
0.06976747512817383 0.6180548667907715 -0.27131783962249756
0.06976747512817383 0.6244463324546814 0.20930230617523193
0.06976747512817383 0.634281575679779 -0.25581395626068115
0.06976747512817383 0.6353070139884949 0.19379842281341553
0.06976747512817383 0.6442851424217224 -0.24031007289886475
0.06976747512817383 0.6526992321014404 -0.22480618953704834
0.06976747512817383 0.6468703150749207 0.17829453945159912
0.06976747512817383 0.6619921922683716 -0.20930229127407074
0.06976747512817383 0.6719574928283691 -0.19379842281341553
0.06976747512817383 0.6608307957649231 0.16279065608978271
0.06976747512817383 0.6808863878250122 -0.1782945990562439
0.06976747512817383 0.6768090128898621 0.1472867727279663
0.06976747512817383 0.691876232624054 -0.1627907156944275
0.06976747512817383 0.7003438472747803 -0.14728683233261108
0.06976747512817383 0.6929360628128052 0.1317828893661499
0.06976747512817383 0.7071554660797119 -0.13178294897079468
0.06976747512817383 0.7132719159126282 -0.11627906560897827
0.06976747512817383 0.7177315950393677 -0.10077518224716187
0.06976747512817383 0.7209044694900513 0.08527135848999023
0.06976747512817383 0.7140884399414062 0.10077524185180664
0.06976747512817383 0.706957995891571 0.11627912521362305
0.06976748257875443 0.7214988470077515 -0.08527130633592606
0.06976747512817383 0.7233573794364929 -0.06976741552352905
0.06976747512817383 0.7248876094818115 -0.05426359176635742
0.06976747512817383 0.7260415554046631 -0.038759708404541016
0.06976747512817383 0.7263383865356445 -0.02325582504272461
0.06976747512817383 0.7260667085647583 -0.007751941680908203
0.06976747512817383 0.7256940007209778 0.007751941215246916
0.06976747512817383 0.7254602909088135 0.02325582504272461
0.06976747512817383 0.7249479293823242 0.038759708404541016
0.06976747512817383 0.7243509292602539 0.05426359176635742
0.06976747512817383 0.7232864499092102 0.06976747512817383
0.08527135848999023 -0.8177765607833862 0.37984490394592285
0.08527135848999023 -0.8203126192092896 0.39534878730773926
0.08527135848999023 -0.8201984167098999 0.41085267066955566
0.08527135848999023 -0.8230834007263184 0.42635655403137207
0.08527135848999023 -0.8275271654129028 0.4418604373931885
0.08527135848999023 -0.827511727809906 0.4573643207550049
0.08527135848999023 -0.8200424909591675 0.4728682041168213
0.08527135848999023 -0.8059954643249512 0.364341139793396
0.08527135848999023 -0.8079810738563538 0.4883720874786377
0.08527135848999023 -0.7964077591896057 0.5038759708404541
0.08527135848999023 -0.7834370732307434 0.5193798542022705
0.08527135848999023 -0.7789438366889954 0.3488372564315796
0.08527135848999023 -0.770486056804657 0.5348837375640869
0.08527135848999023 -0.758097767829895 0.3333333730697632
0.08527135848999023 -0.7605806589126587 0.5503876209259033
0.08527135848999023 -0.7528733015060425 0.5658915042877197
0.08527135848999023 -0.7444092035293579 0.3178294897079468
0.08527135848999023 -0.7437701225280762 0.5813953876495361
0.08527135848999023 -0.7294678688049316 0.30232560634613037
0.08527135848999023 -0.7326650619506836 0.5968992710113525
0.08527135848999023 -0.7131979465484619 0.28682172298431396
0.08527135848999023 -0.7167308926582336 0.612403154373169
0.08527135848999023 -0.6971097588539124 0.27131783962249756
0.08527135848999023 -0.6748956441879272 0.11627912521362305
0.08527135848999023 -0.6752722263336182 0.1317828893661499
0.08527135848999023 -0.6753838062286377 0.1472867727279663
0.08527135848999023 -0.675067126750946 0.16279065608978271
0.08527135848999023 -0.6750239133834839 0.17829453945159912
0.08527135848999023 -0.6754175424575806 0.19379842281341553
0.08527135848999023 -0.6764957904815674 0.20930230617523193
0.08527135848999023 -0.6781508922576904 0.22480618953704834
0.08527135848999023 -0.6808050274848938 0.24031007289886475
0.08527135848999023 -0.6865860819816589 0.25581395626068115
0.08527135848999023 -0.6590332388877869 0.02325582504272461
0.08527135848999023 -0.6634926795959473 0.038759708404541016
0.08527135848999023 -0.6678900122642517 0.05426359176635742
0.08527135848999023 -0.670271635055542 0.06976747512817383
0.08527135848999023 -0.6718752980232239 0.08527135848999023
0.08527135848999023 -0.6736832857131958 0.10077524930238724
0.08527135848999023 -0.6687690019607544 0.6279069185256958
0.08527135848999023 -0.6446294784545898 -0.02325582504272461
0.08527135848999023 -0.651354193687439 -0.007751941680908203
0.08527135848999023 -0.6553407907485962 0.007751941680908203
0.08527135848999023 -0.6355622410774231 -0.05426359176635742
0.08527135848999023 -0.640093982219696 -0.038759708404541016
0.08527135848999023 -0.6288644075393677 0.6434108018875122
0.08527135848999023 -0.621719241142273 -0.08527129888534546
0.08527135848999023 -0.6272664070129395 -0.06976741552352905
0.08527135848999023 -0.6029585003852844 -0.11627906560897827
0.08527135848999023 -0.6116293668746948 -0.10077518969774246
0.08527135848999023 -0.6028501987457275 0.6589146852493286
0.08527135848999023 -0.5889794826507568 -0.13178294897079468
0.08527135848999023 -0.5836356282234192 0.674418568611145
0.08527135848999023 -0.5699560642242432 -0.14728683233261108
0.08527135848999023 -0.5685417056083679 0.6899224519729614
0.08527135848999023 -0.5349315404891968 -0.1627907156944275
0.08527135848999023 -0.523984968662262 0.6899224519729614
0.08527135848999023 -0.5050581693649292 0.6279069185256958
0.08527135848999023 -0.5097948312759399 0.6434108018875122
0.08527135848999023 -0.512796938419342 0.6589146852493286
0.08527135848999023 -0.516077995300293 0.674418568611145
0.08527135848999023 -0.49408388137817383 0.5968992710113525
0.08527135848999023 -0.5008794665336609 0.612403154373169
0.08527135848999023 -0.4742819666862488 0.5658915042877197
0.08527136594057083 -0.4854543209075928 0.5813953876495361
0.08527135848999023 -0.4701049327850342 -0.1782945990562439
0.08527135848999023 -0.46364927291870117 0.5503876209259033
0.08527135848999023 -0.4571481943130493 -0.19379843771457672
0.08527135848999023 -0.451305091381073 0.5348837375640869
0.08527135848999023 -0.4395660161972046 -0.20930230617523193
0.08527135848999023 -0.43832021951675415 0.5193798542022705
0.08527135848999023 -0.41494277119636536 0.4883720874786377
0.08527135848999023 -0.4251229763031006 0.5038759708404541
0.08527135848999023 -0.39908748865127563 0.4573643207550049
0.08527135848999023 -0.40651801228523254 0.4728682041168213
0.08527135848999023 -0.38453739881515503 0.41085267066955566
0.08527135848999023 -0.3885616660118103 0.42635655403137207
0.08527135848999023 -0.39269840717315674 0.4418604373931885
0.08527135848999023 -0.36958134174346924 -0.20930230617523193
0.08527135848999023 -0.3683284819126129 0.3488372564315796
0.08527135848999023 -0.3737246096134186 0.364341139793396
0.08527135848999023 -0.3770037591457367 0.37984490394592285
0.08527135848999023 -0.3796369135379791 0.39534878730773926
0.08527135848999023 -0.3602835237979889 0.3333333730697632
0.08527135848999023 -0.34313714504241943 0.3178294897079468
0.08527135848999023 -0.32988905906677246 -0.19379842281341553
0.08527135848999023 -0.3011760115623474 0.30232560634613037
0.08527135848999023 -0.2026325762271881 0.28682172298431396
0.08527135848999023 -0.10885448753833771 0.27131783962249756
0.08527135848999023 0.18322569131851196 0.25581395626068115
0.08527135848999023 0.35924121737480164 -0.19379842281341553
0.08527135848999023 0.3855378031730652 0.24031007289886475
0.08527135848999023 0.4574621319770813 -0.20930230617523193
0.08527135848999023 0.4742864668369293 -0.22480618953704834
0.08527135848999023 0.49204936623573303 -0.24031007289886475
0.08527135848999023 0.5150895714759827 -0.25581395626068115
0.08527135848999023 0.5429059267044067 -0.27131783962249756
0.08527135848999023 0.5354225039482117 0.22480618953704834
0.08527135848999023 0.5740020275115967 -0.28682172298431396
0.08527135848999023 0.5878696441650391 0.20930230617523193
0.08527136594057083 0.6127134561538696 0.19379842281341553
0.08527135848999023 0.630272388458252 -0.28682172298431396
0.08527135848999023 0.6388499736785889 -0.27131783962249756
0.08527135848999023 0.643301248550415 -0.25581395626068115
0.08527135848999023 0.6287527680397034 0.17829453945159912
0.08527135848999023 0.645449697971344 -0.24031007289886475
0.08527135848999023 0.6484590768814087 -0.22480618953704834
0.08527135848999023 0.6531974077224731 -0.20930230617523193
0.08527135848999023 0.6577315330505371 0.1472867727279663
0.08527136594057083 0.6436809301376343 0.16279065608978271
0.08527135103940964 0.6601627469062805 -0.19379842281341553
0.08527135848999023 0.6683924198150635 -0.1782945990562439
0.08527135848999023 0.6701202392578125 0.1317828893661499
0.08527135848999023 0.6795291900634766 -0.1627907156944275
0.08527135848999023 0.6812126636505127 0.11627912521362305
0.08527135848999023 0.6910222768783569 -0.1472868174314499
0.08527135848999023 0.6971844434738159 -0.13178294897079468
0.08527135848999023 0.7041281461715698 -0.11627906560897827
0.08527135848999023 0.7053570747375488 0.05426359176635742
0.08527135848999023 0.7020330429077148 0.06976747512817383
0.08527135848999023 0.6969561576843262 0.08527135848999023
0.08527135848999023 0.6915963292121887 0.10077524185180664
0.08527135848999023 0.7077319025993347 -0.10077518224716187
0.08527135848999023 0.7105833888053894 -0.08527129888534546
0.08527135848999023 0.7124176025390625 -0.06976741552352905
0.08527135848999023 0.7129926681518555 -0.05426359176635742
0.08527135848999023 0.7131612300872803 -0.038759708404541016
0.08527135848999023 0.7124330997467041 -0.02325582504272461
0.08527135848999023 0.7109983563423157 -0.007751941680908203
0.08527135848999023 0.7097177505493164 0.007751941680908203
0.08527135848999023 0.708690881729126 0.02325582504272461
0.08527136594057083 0.7072668075561523 0.038759708404541016
0.10077524185180664 -0.7838977575302124 0.41085267066955566
0.10077524185180664 -0.7859106659889221 0.42635655403137207
0.10077524185180664 -0.7921806573867798 0.44186046719551086
0.10077524185180664 -0.7974323630332947 0.4573643207550049
0.10077524185180664 -0.7957965731620789 0.4728682041168213
0.10077524185180664 -0.7902727723121643 0.4883720874786377
0.10077524185180664 -0.7765944004058838 0.37984490394592285
0.10077524185180664 -0.7821013331413269 0.39534878730773926
0.10077524185180664 -0.7808598279953003 0.5038759708404541
0.10077524185180664 -0.7683306932449341 0.5193798542022705
0.10077524185180664 -0.7546596527099609 0.3488372564315796
0.10077523440122604 -0.7657092213630676 0.3643411099910736
0.10077524185180664 -0.7569228410720825 0.5348837375640869
0.10077524185180664 -0.7424103021621704 0.3333333730697632
0.10077524930238724 -0.75064617395401 0.5503876209259033
0.10077524185180664 -0.7418746948242188 0.5658915042877197
0.10077524185180664 -0.7279579639434814 0.3178294897079468
0.10077524185180664 -0.734675407409668 0.5813953876495361
0.10077524185180664 -0.7225984334945679 0.5968992710113525
0.10077524185180664 -0.7093165516853333 0.30232560634613037
0.10077524185180664 -0.7055637836456299 0.612403154373169
0.10077524185180664 -0.676028311252594 0.27131783962249756
0.10077524185180664 -0.6895033717155457 0.28682172298431396
0.10077524185180664 -0.6597737669944763 0.06976747512817383
0.10077524185180664 -0.6615059971809387 0.08527135848999023
0.10077524185180664 -0.6629149317741394 0.10077524185180664
0.10077524185180664 -0.6635899543762207 0.11627912521362305
0.10077524185180664 -0.6630558967590332 0.1317828893661499
0.10077524185180664 -0.6623280048370361 0.1472867727279663
0.10077524185180664 -0.6613473296165466 0.16279065608978271
0.10077524185180664 -0.6606963276863098 0.17829453945159912
0.10077524185180664 -0.6606133580207825 0.19379842281341553
0.10077524185180664 -0.661309003829956 0.20930230617523193
0.10077524185180664 -0.6625086069107056 0.22480618953704834
0.10077524185180664 -0.6644010543823242 0.24031007289886475
0.10077524185180664 -0.6675329208374023 0.25581395626068115
0.10077524185180664 -0.6728352904319763 0.612403154373169
0.10077524185180664 -0.647118330001831 0.007751941680908203
0.10077524185180664 -0.6521270275115967 0.02325582504272461
0.10077524185180664 -0.6550058722496033 0.038759708404541016
0.10077524185180664 -0.6574165225028992 0.05426358804106712
0.10077524185180664 -0.6330116391181946 -0.038759708404541016
0.10077524185180664 -0.6386183500289917 -0.02325582504272461
0.10077524185180664 -0.6424630880355835 -0.007751941680908203
0.10077524185180664 -0.6413388848304749 0.6124032139778137
0.10077524185180664 -0.6213971376419067 -0.06976741552352905
0.10077524185180664 -0.6264762878417969 -0.05426358804106712
0.10077524185180664 -0.618471622467041 0.6279069185256958
0.10077524185180664 -0.6050238609313965 -0.10077518224716187
0.10077524185180664 -0.61199951171875 -0.08527129888534546
0.10077524185180664 -0.5987643599510193 0.6434108018875122
0.10077524185180664 -0.593483567237854 -0.11627906560897827
0.10077524185180664 -0.5835990905761719 0.6589146852493286
0.10077524185180664 -0.5801105499267578 -0.13178294897079468
0.10077524185180664 -0.5725996494293213 0.674418568611145
0.10077524185180664 -0.5683526992797852 0.6899224519729614
0.10077524185180664 -0.5631392002105713 -0.14728683233261108
0.10077524930238724 -0.5636849403381348 0.7054263353347778
0.10077524185180664 -0.5542441606521606 0.7209302186965942
0.10077524930238724 -0.5299037098884583 -0.1627907156944275
0.10077524185180664 -0.5195269584655762 0.7054263353347778
0.10077524185180664 -0.5319548845291138 0.7209302186965942
0.10077524185180664 -0.5071598887443542 0.5968992710113525
0.10077524185180664 -0.5127295255661011 0.612403154373169
0.10077524930238724 -0.5151951909065247 0.6279069185256958
0.10077524185180664 -0.5156570076942444 0.6434108018875122
0.10077524930238724 -0.5152085423469543 0.6589146852493286
0.10077524185180664 -0.5154298543930054 0.674418568611145
0.10077524930238724 -0.5172686576843262 0.6899225115776062
0.10077524185180664 -0.4909956157207489 0.5658915042877197
0.10077524185180664 -0.5006716251373291 0.5813953876495361
0.10077524185180664 -0.4759587347507477 -0.19379842281341553
0.10077524185180664 -0.4853242039680481 -0.1782945990562439
0.10077524185180664 -0.48095616698265076 0.5503876209259033
0.10077524185180664 -0.46326547861099243 -0.24031007289886475
0.10077524185180664 -0.4665651321411133 -0.22480618953704834
0.10077524185180664 -0.46996384859085083 -0.20930230617523193
0.10077524185180664 -0.4692080616950989 0.5348837375640869
0.10077524185180664 -0.4557545483112335 -0.25581395626068115
0.10077524185180664 -0.44385895133018494 0.5038759708404541
0.10077524185180664 -0.45650142431259155 0.5193798542022705
0.10077524185180664 -0.43579763174057007 -0.27131783962249756
0.10077524185180664 -0.4326741695404053 0.4883720874786377
0.10077524185180664 -0.41497015953063965 0.4573643207550049
0.10077524185180664 -0.42304396629333496 0.4728681743144989
0.10077524185180664 -0.4097197353839874 -0.27131783962249756
0.10077524185180664 -0.39811643958091736 -0.25581395626068115
0.10077524185180664 -0.39762014150619507 0.41085267066955566
0.10077524185180664 -0.4024987518787384 0.42635655403137207
0.10077524185180664 -0.40790459513664246 0.4418604373931885
0.10077524185180664 -0.3904324769973755 -0.24031007289886475
0.10077524185180664 -0.3823021352291107 -0.22480618953704834
0.10077524185180664 -0.3814268708229065 0.3488372564315796
0.10077524185180664 -0.3863033652305603 0.364341139793396
0.10077524185180664 -0.39014601707458496 0.37984493374824524
0.10077524185180664 -0.39345085620880127 0.39534878730773926
0.10077524185180664 -0.372955322265625 -0.20930230617523193
0.10077524930238724 -0.37552833557128906 0.3333333730697632
0.10077524185180664 -0.3577539920806885 -0.19379842281341553
0.10077524185180664 -0.36306920647621155 0.3178294599056244
0.10077524185180664 -0.3376452326774597 -0.1782945990562439
0.10077524185180664 -0.33946478366851807 0.30232560634613037
0.10077524185180664 -0.27105310559272766 0.28682172298431396
0.10077524185180664 -0.17016443610191345 0.27131783962249756
0.10077524185180664 0.009082119911909103 0.25581395626068115
0.10077524185180664 0.20427557826042175 0.24031007289886475
0.10077524185180664 0.3812049925327301 0.22480618953704834
0.10077524185180664 0.435067355632782 -0.1782945990562439
0.10077524185180664 0.4525216221809387 -0.19379842281341553
0.10077524185180664 0.46367770433425903 -0.20930230617523193
0.10077524185180664 0.4876387119293213 -0.24031007289886475
0.10077524185180664 0.47440585494041443 -0.22480618953704834
0.10077524185180664 0.49133071303367615 0.20930230617523193
0.10077524185180664 0.5042505860328674 -0.25581395626068115
0.10077524185180664 0.5252310633659363 -0.27131783962249756
0.10077524185180664 0.5458170175552368 -0.28682172298431396
0.10077524185180664 0.5637236833572388 -0.30232560634613037
0.10077524185180664 0.564066469669342 0.19379842281341553
0.10077524185180664 0.5790821313858032 -0.317829430103302
0.10077524185180664 0.5951107740402222 -0.3333333134651184
0.10077524185180664 0.6000866293907166 0.17829453945159912
0.10077524185180664 0.618538498878479 -0.751937985420227
0.10077523440122604 0.6151907444000244 -0.7364341020584106
0.10077524185180664 0.6226913928985596 -0.3488371968269348
0.10077524185180664 0.623008668422699 0.16279065608978271
0.10077524185180664 0.6375471353530884 -0.7209302186965942
0.10077524185180664 0.6351253986358643 -0.3488371968269348
0.10077524185180664 0.6391965746879578 0.1472867727279663
0.10077524185180664 0.6514242887496948 -0.3333333134651184
0.10077524185180664 0.6582798361778259 -0.317829430103302
0.10077524185180664 0.6512041091918945 0.1317828893661499
0.10077523440122604 0.6615440845489502 -0.751937985420227
0.10077524185180664 0.6700055599212646 -0.7209302186965942
0.10077524185180664 0.6623561978340149 -0.30232560634613037
0.10077524185180664 0.6651153564453125 -0.28682172298431396
0.10077524185180664 0.6660205125808716 -0.27131783962249756
0.10077524185180664 0.6651490926742554 -0.25581395626068115
0.10077524930238724 0.663215696811676 -0.24031007289886475
0.10077524185180664 0.6620908379554749 -0.22480618953704834
0.10077524185180664 0.6622976660728455 -0.20930230617523193
0.10077524185180664 0.6643987894058228 -0.19379842281341553
0.10077524185180664 0.6683802008628845 -0.1782945990562439
0.10077524185180664 0.6705802083015442 0.10077524185180664
0.10077524185180664 0.6622791886329651 0.11627912521362305
0.10077524185180664 0.6776707172393799 -0.7364341020584106
0.10077524185180664 0.6753211617469788 -0.1627907156944275
0.10077524185180664 0.6803475618362427 -0.14728683233261108
0.10077524185180664 0.6872779130935669 -0.13178294897079468
0.10077524185180664 0.6866655945777893 0.038759708404541016
0.10077524185180664 0.6834442615509033 0.05426359176635742
0.10077524185180664 0.6808755397796631 0.06976747512817383
0.10077524185180664 0.6771005392074585 0.08527135848999023
0.10077524185180664 0.6916124820709229 -0.11627906560897827
0.10077524185180664 0.6943181157112122 -0.10077518224716187
0.10077524185180664 0.6970160603523254 -0.08527129888534546
0.10077524185180664 0.6982665061950684 -0.06976741552352905
0.10077524185180664 0.6981606483459473 -0.05426359176635742
0.10077524185180664 0.697737991809845 -0.038759708404541016
0.10077524185180664 0.6963678598403931 -0.02325582504272461
0.10077524930238724 0.6942405104637146 -0.007751941680908203
0.10077524185180664 0.6921331286430359 0.007751941680908203
0.10077524185180664 0.6900100708007812 0.02325582504272461
0.11627912521362305 -0.7713533043861389 0.4573643207550049
0.11627912521362305 -0.7736771106719971 0.4728682041168213
0.11627912521362305 -0.7696330547332764 0.4883720874786377
0.11627912521362305 -0.7564607262611389 0.42635655403137207
0.11627912521362305 -0.7637656331062317 0.4418604373931885
0.11627912521362305 -0.7632688283920288 0.5038759708404541
0.11627912521362305 -0.7524464130401611 0.5193798542022705
0.11627912521362305 -0.7392560243606567 0.37984490394592285
0.11627912521362305 -0.7458666563034058 0.39534878730773926
0.11627912521362305 -0.7510882019996643 0.41085267066955566
0.11627912521362305 -0.742729127407074 0.5348837375640869
0.11627912521362305 -0.73769611120224 0.5503876209259033
0.11627912521362305 -0.7301686406135559 0.364341139793396
0.11627912521362305 -0.732951283454895 0.5658915042877197
0.11627912521362305 -0.725762128829956 0.5813953876495361
0.11627912521362305 -0.7163820862770081 0.3488372564315796
0.11627912521362305 -0.7148840427398682 0.5968992710113525
0.11627912521362305 -0.6912723779678345 0.612403154373169
0.11627912521362305 -0.6848528981208801 0.3333333730697632
0.11627912521362305 -0.6879956126213074 0.612403154373169
0.11627912521362305 -0.6656032800674438 0.3178294897079468
0.11627912521362305 -0.66672682762146 0.5968992710113525
0.11627912521362305 -0.6449416279792786 0.05426359176635742
0.11627912521362305 -0.6464283466339111 0.06976747512817383
0.11627912521362305 -0.6473041772842407 0.08527135848999023
0.11627912521362305 -0.6472747325897217 0.10077524185180664
0.11627912521362305 -0.6467370390892029 0.11627912521362305
0.11627912521362305 -0.6452255249023438 0.1317828893661499
0.11627912521362305 -0.6435624361038208 0.1472867727279663
0.11627912521362305 -0.6435731649398804 0.25581395626068115
0.11627912521362305 -0.6461614966392517 0.27131783962249756
0.11627912521362305 -0.649960994720459 0.28682172298431396
0.11627912521362305 -0.6559900045394897 0.30232560634613037
0.11627912521362305 -0.628136396408081 -0.02325582504272461
0.11627912521362305 -0.6332607269287109 -0.007751941680908203
0.11627912521362305 -0.6377854943275452 0.007751941680908203
0.11627912521362305 -0.6403203010559082 0.02325582504272461
0.11627913266420364 -0.6431908011436462 0.038759708404541016
0.11627912521362305 -0.6413027048110962 0.16279065608978271
0.11627912521362305 -0.6392329931259155 0.17829453945159912
0.11627912521362305 -0.6381534934043884 0.19379842281341553
0.11627912521362305 -0.6384310126304626 0.20930230617523193
0.11627912521362305 -0.6394808292388916 0.22480618953704834
0.11627912521362305 -0.6412097215652466 0.24031007289886475
0.11627912521362305 -0.6186836957931519 -0.05426359176635742
0.11627911776304245 -0.6239304542541504 -0.038759708404541016
0.11627912521362305 -0.6232942342758179 0.5968992710113525
0.11627912521362305 -0.6049235463142395 -0.08527129888534546
0.11627912521362305 -0.6109718680381775 -0.06976741552352905
0.11627911776304245 -0.6079748272895813 0.612403154373169
0.11627912521362305 -0.5870081186294556 -0.11627906560897827
0.11627912521362305 -0.5953343510627747 -0.10077518224716187
0.11627911776304245 -0.5900745987892151 0.6279069185256958
0.11627912521362305 -0.5698193907737732 -0.751937985420227
0.11627912521362305 -0.5755080580711365 -0.13178294897079468
0.11627912521362305 -0.5750671625137329 0.6434108018875122
0.11627912521362305 -0.5682528018951416 0.6589146852493286
0.11627912521362305 -0.5661184787750244 0.674418568611145
0.11627912521362305 -0.5628972053527832 -0.7364341020584106
0.11627912521362305 -0.5621129870414734 -0.14728683233261108
0.11627912521362305 -0.5604451298713684 0.6899224519729614
0.11627912521362305 -0.5560694932937622 0.7054263353347778
0.11627912521362305 -0.5540573596954346 0.7209302186965942
0.11627912521362305 -0.5521688461303711 0.7364341020584106
0.11627912521362305 -0.5451271533966064 -0.7209302186965942
0.11627912521362305 -0.5469703078269958 -0.1627907156944275
0.11627912521362305 -0.5231190919876099 -0.7054263353347778
0.11627912521362305 -0.5264308452606201 -0.1782945990562439
0.11627912521362305 -0.5248152017593384 0.5968992710113525
0.11627912521362305 -0.528152346611023 0.612403154373169
0.11627912521362305 -0.5288529992103577 0.6279069185256958
0.11627912521362305 -0.5276522040367126 0.6434108018875122
0.11627912521362305 -0.5250226259231567 0.6589146852493286
0.11627912521362305 -0.5229788422584534 0.674418568611145
0.11627912521362305 -0.521937906742096 0.6899224519729614
0.11627912521362305 -0.5218430161476135 0.7054263353347778
0.11627912521362305 -0.5252087712287903 0.7209302186965942
0.11627912521362305 -0.528778612613678 0.7364341020584106
0.11627912521362305 -0.5045632123947144 -0.27131783962249756
0.11627912521362305 -0.5067875981330872 -0.25581395626068115
0.11627912521362305 -0.5077092051506042 -0.24031007289886475
0.11627912521362305 -0.5073156356811523 -0.22480618953704834
0.11627912521362305 -0.5077096819877625 -0.20930230617523193
0.11627912521362305 -0.5140013098716736 -0.19379842281341553
0.11627912521362305 -0.5122553110122681 0.5658915042877197
0.11627912521362305 -0.5187063217163086 0.5813953876495361
0.11627911776304245 -0.4999324083328247 -0.751937985420227
0.11627912521362305 -0.4939417839050293 -0.6899224519729614
0.11627912521362305 -0.4913255572319031 -0.317829430103302
0.11627912521362305 -0.4963564872741699 -0.30232560634613037
0.11627912521362305 -0.500796914100647 -0.28682172298431396
0.11627912521362305 -0.4916137754917145 0.5348837375640869
0.11627912521362305 -0.502709686756134 0.5503876209259033
0.11627912521362305 -0.48783308267593384 -0.7364341020584106
0.11627912521362305 -0.4868471026420593 -0.7209302186965942
0.11627912521362305 -0.4864886999130249 -0.7054263353347778
0.11627912521362305 -0.4878116548061371 -0.6899224519729614
0.11627912521362305 -0.47913724184036255 -0.643410861492157
0.11627912521362305 -0.4837947487831116 -0.6279069781303406
0.11627912521362305 -0.4845322370529175 -0.6124030947685242
0.11627912521362305 -0.4842911660671234 -0.5968992114067078
0.11627912521362305 -0.4837191700935364 -0.5813953876495361
0.11627912521362305 -0.4833393096923828 -0.5658915042877197
0.11627913266420364 -0.4832152724266052 -0.5503876209259033
0.11627912521362305 -0.4822271466255188 -0.5348837375640869
0.11627912521362305 -0.48136985301971436 -0.5193798542022705
0.11627912521362305 -0.47981715202331543 -0.5038759708404541
0.11627912521362305 -0.47738051414489746 -0.4883720874786377
0.11627912521362305 -0.4745405912399292 -0.4728682041168213
0.11627912521362305 -0.47353100776672363 -0.3643410801887512
0.11627912521362305 -0.47916507720947266 -0.3488371968269348
0.11627911776304245 -0.48555225133895874 -0.3333333134651184
0.11627912521362305 -0.4803813099861145 0.5193798542022705
0.11627911776304245 -0.47115421295166016 -0.643410861492157
0.11627912521362305 -0.46018216013908386 -0.6279069185256958
0.11627912521362305 -0.47055137157440186 -0.45736435055732727
0.11627913266420364 -0.46712008118629456 -0.4418604373931885
0.11627912521362305 -0.46472248435020447 -0.42635661363601685
0.11627912521362305 -0.46401092410087585 -0.41085273027420044
0.11627912521362305 -0.4649083912372589 -0.39534884691238403
0.11627912521362305 -0.46802157163619995 -0.3798449635505676
0.11627912521362305 -0.4585857391357422 0.4883720874786377
0.11627912521362305 -0.4692598879337311 0.5038759708404541
0.11627912521362305 -0.4536256790161133 -0.6124030351638794
0.11627912521362305 -0.44883736968040466 -0.5968992114067078
0.11627912521362305 -0.44252076745033264 -0.5813953876495361
0.11627912521362305 -0.4494860768318176 0.4728682041168213
0.11627912521362305 -0.4388678967952728 -0.5658915042877197
0.11627911776304245 -0.4355596899986267 -0.5503876209259033
0.11627912521362305 -0.4318282902240753 -0.5348837375640869
0.11627912521362305 -0.42771434783935547 -0.5193798542022705
0.11627912521362305 -0.4285986125469208 0.42635655403137207
0.11627912521362305 -0.434598445892334 0.4418604373931885
0.11627912521362305 -0.44126462936401367 0.4573642909526825
0.11627911776304245 -0.4246044158935547 -0.5038759708404541
0.11627912521362305 -0.4225747585296631 -0.4883720874786377
0.11627912521362305 -0.4199279546737671 -0.4728682041168213
0.11627912521362305 -0.4159739017486572 -0.4573643207550049
0.11627912521362305 -0.41595029830932617 0.37984490394592285
0.11627912521362305 -0.4202563762664795 0.39534878730773926
0.11627912521362305 -0.4238755404949188 0.41085267066955566
0.11627912521362305 -0.4096769094467163 -0.4418604373931885
0.11627912521362305 -0.4057440161705017 -0.42635661363601685
0.11627912521362305 -0.40143704414367676 -0.41085273027420044
0.11627912521362305 -0.398234486579895 0.3333333730697632
0.11627912521362305 -0.40607285499572754 0.3488372564315796
0.11627912521362305 -0.41050025820732117 0.364341139793396
0.11627913266420364 -0.3953244686126709 -0.3953488767147064
0.11627912521362305 -0.39295274019241333 -0.3798449635505676
0.11627912521362305 -0.391093909740448 -0.3643410801887512
0.11627912521362305 -0.3899322748184204 -0.3488371968269348
0.11627912521362305 -0.3890289068222046 -0.3333333134651184
0.11627912521362305 -0.38811081647872925 -0.317829430103302
0.11627912521362305 -0.38632750511169434 -0.30232560634613037
0.11627912521362305 -0.3833468556404114 -0.28682172298431396
0.11627912521362305 -0.388266921043396 0.3178294897079468
0.11627912521362305 -0.3790963590145111 -0.27131783962249756
0.11627912521362305 -0.37608277797698975 -0.25581395626068115
0.11627912521362305 -0.3718699812889099 -0.24031007289886475
0.11627912521362305 -0.3671709895133972 -0.22480618953704834
0.11627912521362305 -0.3706849217414856 0.30232560634613037
0.11627912521362305 -0.362663596868515 -0.20930230617523193
0.11627912521362305 -0.35588914155960083 -0.19379842281341553
0.11627912521362305 -0.34570738673210144 -0.1782945990562439
0.11627912521362305 -0.33893075585365295 0.28682172298431396
0.11627912521362305 -0.3265542984008789 -0.1627907156944275
0.11627912521362305 -0.23612180352210999 0.27131783962249756
0.11627912521362305 -0.1418541818857193 0.25581395626068115
0.11627912521362305 0.04121643304824829 0.24031008780002594
0.11627912521362305 0.1979343593120575 0.22480618953704834
0.11627912521362305 0.3653675615787506 0.20930230617523193
0.11627912521362305 0.42536282539367676 -0.1627907156944275
0.11627912521362305 0.4533649682998657 -0.19379842281341553
0.11627912521362305 0.4434124231338501 -0.1782945841550827
0.11627912521362305 0.45472994446754456 0.19379842281341553
0.11627912521362305 0.4710806608200073 -0.22480618953704834
0.11627912521362305 0.4621139168739319 -0.20930230617523193
0.11627912521362305 0.4822596311569214 -0.24031007289886475
0.11627912521362305 0.4948335289955139 -0.25581395626068115
0.11627912521362305 0.5096268653869629 -0.27131783962249756
0.11627912521362305 0.5260772705078125 -0.28682172298431396
0.11627912521362305 0.5425097942352295 -0.30232560634613037
0.11627912521362305 0.5418949723243713 0.17829453945159912
0.11627912521362305 0.5573880672454834 -0.317829430103302
0.11627912521362305 0.5707457661628723 -0.3333333134651184
0.11627912521362305 0.5962674617767334 -0.751937985420227
0.11627912521362305 0.5956721901893616 -0.7364341020584106
0.11627912521362305 0.595687985420227 -0.3643410801887512
0.11627911776304245 0.5825015902519226 -0.3488371968269348
0.11627912521362305 0.5885357856750488 0.16279065608978271
0.11627912521362305 0.6122236847877502 -0.7209302186965942
0.11627912521362305 0.6111338138580322 -0.3798449635505676
0.11627912521362305 0.6269323825836182 -0.39534884691238403
0.11627912521362305 0.6156253814697266 0.1472867727279663
0.11627912521362305 0.6418942213058472 -0.7054263353347778
0.11627912521362305 0.6417211890220642 -0.41085273027420044
0.11627912521362305 0.6316895484924316 0.1317828893661499
0.11627912521362305 0.6543357372283936 -0.42635661363601685
0.11627912521362305 0.6526167392730713 0.10077524185180664
0.11627912521362305 0.6443512439727783 0.11627912521362305
0.11627912521362305 0.6722007989883423 -0.4728682041168213
0.11627912521362305 0.6689833998680115 -0.4573643207550049
0.11627913266420364 0.6630663871765137 -0.4418604373931885
0.11627912521362305 0.6737312078475952 0.02325582504272461
0.11627912521362305 0.6701883673667908 0.038759708404541016
0.11627912521362305 0.6671705842018127 0.05426359176635742
0.11627912521362305 0.6642324924468994 0.06976747512817383
0.11627912521362305 0.6602169871330261 0.08527135848999023
0.11627912521362305 0.6860836148262024 -0.751937985420227
0.11627913266420364 0.6757846474647522 -0.6899224519729614
0.11627912521362305 0.6849492788314819 -0.674418568611145
0.11627912521362305 0.6849979162216187 -0.6589146852493286
0.11627912521362305 0.6853175163269043 -0.643410861492157
0.11627912521362305 0.6858992576599121 -0.6279069781303406
0.11627912521362305 0.6866858005523682 -0.6124030947685242
0.11627912521362305 0.6871274709701538 -0.5968992114067078
0.11627912521362305 0.6872110962867737 -0.5813953876495361
0.11627912521362305 0.6867899298667908 -0.5658915042877197
0.11627912521362305 0.6859931945800781 -0.5503876209259033
0.11627912521362305 0.6847407221794128 -0.5348837375640869
0.11627912521362305 0.6828658580780029 -0.5193798542022705
0.11627912521362305 0.6799482107162476 -0.5038759708404541
0.11627912521362305 0.6746726036071777 -0.4883720874786377
0.11627912521362305 0.6888276934623718 -0.24031007289886475
0.11627912521362305 0.6844032406806946 -0.22480618953704834
0.11627912521362305 0.6812382936477661 -0.20930230617523193
0.11627912521362305 0.6790361404418945 -0.19379842281341553
0.11627912521362305 0.6780738234519958 -0.1782946139574051
0.11627912521362305 0.6784267425537109 -0.1627907156944275
0.11627913266420364 0.679783046245575 -0.14728683233261108
0.11627912521362305 0.6816792488098145 -0.13178294897079468
0.11627912521362305 0.6835149526596069 -0.11627906560897827
0.11627912521362305 0.6849461793899536 -0.10077518224716187
0.11627912521362305 0.6860363483428955 -0.08527129888534546
0.11627912521362305 0.6860739588737488 -0.06976741552352905
0.11627912521362305 0.6851774454116821 -0.05426359176635742
0.11627912521362305 0.6841579675674438 -0.038759708404541016
0.11627912521362305 0.6822770237922668 -0.02325582504272461
0.11627912521362305 0.6792951822280884 -0.007751941680908203
0.11627912521362305 0.6765944361686707 0.007751941680908203
0.11627912521362305 0.7044349908828735 -0.7364341020584106
0.11627912521362305 0.7021545767784119 -0.317829430103302
0.11627912521362305 0.6994897127151489 -0.30232560634613037
0.11627912521362305 0.697048544883728 -0.28682172298431396
0.11627912521362305 0.6942905187606812 -0.27131783962249756
0.11627912521362305 0.6917219161987305 -0.25581395626068115
0.11627913266420364 0.7113345861434937 -0.7209302186965942
0.11627912521362305 0.714767336845398 -0.7054263353347778
0.11627912521362305 0.7181416749954224 -0.3798449635505676
0.11627912521362305 0.7122524976730347 -0.3643410801887512
0.11627912521362305 0.708431601524353 -0.3488371968269348
0.11627912521362305 0.7057800889015198 -0.3333333134651184
0.11627912521362305 0.7218848466873169 -0.6899224519729614
0.11627912521362305 0.7279103994369507 -0.674418568611145
0.11627912521362305 0.7322905659675598 -0.6589146852493286
0.11627912521362305 0.7340366840362549 -0.42635661363601685
0.11627912521362305 0.728870153427124 -0.41085273027420044
0.11627912521362305 0.7240326404571533 -0.3953488767147064
0.11627912521362305 0.736934244632721 -0.643410861492157
0.11627912521362305 0.7385991215705872 -0.6279069781303406
0.11627913266420364 0.7400203943252563 -0.6124030947685242
0.11627912521362305 0.7409851551055908 -0.5968992114067078
0.11627912521362305 0.7416747212409973 -0.5813953876495361
0.11627912521362305 0.7421064376831055 -0.5658915042877197
0.11627912521362305 0.7424885630607605 -0.5503876209259033
0.11627912521362305 0.7428441047668457 -0.5348837375640869
0.11627912521362305 0.7431553602218628 -0.5193798542022705
0.11627911776304245 0.7433827519416809 -0.5038759708404541
0.11627912521362305 0.7430821657180786 -0.4883720874786377
0.11627912521362305 0.7421120405197144 -0.4728682041168213
0.11627912521362305 0.7403458952903748 -0.4573643207550049
0.11627912521362305 0.7380304336547852 -0.4418604373931885
0.1317828893661499 -0.7372791767120361 0.4573643207550049
0.1317828893661499 -0.7431493997573853 0.4728682041168213
0.1317828893661499 -0.7448033094406128 0.4883720874786377
0.1317828893661499 -0.7416641712188721 0.5038759708404541
0.1317828893661499 -0.7246257066726685 0.4418604373931885
0.1317828893661499 -0.7313000559806824 0.5193798542022705
0.1317828893661499 -0.7268752455711365 0.5348837375640869
0.1317828893661499 -0.7263230085372925 0.5503876209259033
0.1317828893661499 -0.7250335216522217 0.5658915042877197
0.1317828893661499 -0.7209437489509583 0.5813953876495361
0.1317828893661499 -0.7132511734962463 0.42635655403137207
0.1317828893661499 -0.7089743614196777 0.5968992710113525
0.1317828893661499 -0.6973541975021362 0.41085267066955566
0.1317828893661499 -0.6676161289215088 0.39534878730773926
0.1317828893661499 -0.6599595546722412 0.5813953876495361
0.1317828893661499 -0.6682908535003662 0.5968992710113525
0.1317828893661499 -0.6437057256698608 0.37984490394592285
0.1317828893661499 -0.6470403671264648 0.5658915042877197
0.1317828893661499 -0.631110429763794 0.364341139793396
0.1317828893661499 -0.6396622061729431 0.5658915042877197
0.1317828893661499 -0.6298568248748779 0.5813953876495361
0.1317828893661499 -0.6158916354179382 -0.02325582504272461
0.1317828893661499 -0.6197872161865234 -0.007751941680908203
0.1317828893661499 -0.6226463317871094 0.007751941680908203
0.1317828893661499 -0.6250722408294678 0.02325582504272461
0.1317828893661499 -0.626716673374176 0.038759708404541016
0.1317828893661499 -0.6274210214614868 0.05426359176635742
0.1317828893661499 -0.6272212266921997 0.06976747512817383
0.1317828893661499 -0.6265537738800049 0.08527135848999023
0.1317828893661499 -0.6252014636993408 0.10077524185180664
0.1317828893661499 -0.6233078241348267 0.11627912521362305
0.1317828893661499 -0.6198122501373291 0.1317828893661499
0.1317828893661499 -0.6170229911804199 0.1472867727279663
0.1317828893661499 -0.6149722933769226 0.16279065608978271
0.1317828893661499 -0.6132852435112 0.17829453945159912
0.1317828893661499 -0.6130730509757996 0.28682172298431396
0.1317828893661499 -0.6135597825050354 0.30232560634613037
0.1317828893661499 -0.6151483654975891 0.3178294897079468
0.1317828893661499 -0.6183639764785767 0.3333333730697632
0.1317828893661499 -0.6233901381492615 0.3488372564315796
0.1317828893661499 -0.6141911745071411 0.5968992710113525
0.1317828893661499 -0.6013620495796204 -0.06976741552352905
0.1317828893661499 -0.6070897579193115 -0.05426359176635742
0.1317828893661499 -0.6116116642951965 -0.038759708404541016
0.1317828893661499 -0.6121464371681213 0.19379842281341553
0.1317828893661499 -0.6116927862167358 0.20930230617523193
0.1317828893661499 -0.6114999055862427 0.22480618953704834
0.1317828893661499 -0.6115760207176208 0.24031007289886475
0.1317828893661499 -0.6117246747016907 0.25581395626068115
0.1317828893661499 -0.6121249794960022 0.27131783962249756
0.1317828893661499 -0.5974808931350708 0.5813953876495361
0.1317828893661499 -0.6111287474632263 0.5968992710113525
0.1317828893661499 -0.5878617763519287 -0.10077518224716187
0.1317828893661499 -0.5942111015319824 -0.08527129888534546
0.1317828893661499 -0.5956950187683105 0.5813953280448914
0.1317828893661499 -0.572650671005249 -0.751937985420227
0.1317828893661499 -0.5668751001358032 -0.7364341020584106
0.1317828893661499 -0.5709782838821411 -0.13178294897079468
0.1317828893661499 -0.5789521336555481 -0.11627906560897827
0.1317828893661499 -0.5530931353569031 -0.7209302186965942
0.1317828893661499 -0.5529208183288574 -0.1627907156944275
0.1317828893661499 -0.5614722967147827 -0.14728683233261108
0.1317828893661499 -0.5539172291755676 0.5813953876495361
0.1317828893661499 -0.5357270836830139 -0.7054263353347778
0.1317828893661499 -0.5364091396331787 -0.19379842281341553
0.1317828893661499 -0.5440451502799988 -0.1782945990562439
0.1317828893661499 -0.5428403615951538 0.5658915042877197
0.1317828893661499 -0.5208048224449158 -0.6899224519729614
0.1317828893661499 -0.521281361579895 -0.27131783962249756
0.1317828893661499 -0.523837685585022 -0.25581395626068115
0.1317828893661499 -0.5262526273727417 -0.24031007289886475
0.1317828893661499 -0.527869462966919 -0.22480618953704834
0.1317828893661499 -0.5299157500267029 -0.20930230617523193
0.1317828893661499 -0.5309700965881348 0.5503876209259033
0.1317828893661499 -0.5117824077606201 -0.674418568611145
0.1317828893661499 -0.5077621340751648 -0.6589146852493286
0.1317828893661499 -0.5045463442802429 -0.643410861492157
0.1317828893661499 -0.5049422383308411 -0.3643410801887512
0.1317828893661499 -0.509270966053009 -0.3488371968269348
0.1317828893661499 -0.5128924250602722 -0.3333333134651184
0.1317828893661499 -0.5147493481636047 -0.317829430103302
0.1317828893661499 -0.5165947675704956 -0.30232560634613037
0.1317828893661499 -0.5190308094024658 -0.28682172298431396
0.1317828893661499 -0.5091490745544434 0.5193798542022705
0.1317828893661499 -0.5190353989601135 0.5348837375640869
0.1317828893661499 -0.4918820261955261 -0.751937985420227
0.1317828893661499 -0.5011932849884033 -0.6279069781303406
0.1317828893661499 -0.4985671937465668 -0.6124030947685242
0.1317828893661499 -0.4964655041694641 -0.5968992114067078
0.1317828893661499 -0.4952002763748169 -0.5813953876495361
0.1317828893661499 -0.4944083094596863 -0.5658915042877197
0.1317828893661499 -0.49402862787246704 -0.5503876209259033
0.1317828893661499 -0.49344611167907715 -0.5348837375640869
0.1317828893661499 -0.4933010935783386 -0.5193798542022705
0.1317828893661499 -0.493183970451355 -0.5038759708404541
0.1317828893661499 -0.4927663207054138 -0.4883720874786377
0.1317828893661499 -0.492288202047348 -0.4728682041168213
0.1317828893661499 -0.49163928627967834 -0.4573643207550049
0.1317828893661499 -0.49136728048324585 -0.4418604373931885
0.1317828893661499 -0.49142327904701233 -0.42635661363601685
0.1317828893661499 -0.4927665591239929 -0.41085273027420044
0.1317828893661499 -0.49588507413864136 -0.39534884691238403
0.1317828893661499 -0.5000308752059937 -0.3798449635505676
0.1317828893661499 -0.4900636076927185 0.37984490394592285
0.1317828893661499 -0.49026045203208923 0.39534878730773926
0.1317828893661499 -0.49130332469940186 0.4883720874786377
0.1317828893661499 -0.49950695037841797 0.5038759708404541
0.1317828893661499 -0.4816618263721466 -0.7364341020584106
0.1317828893661499 -0.47683727741241455 -0.7209302186965942
0.1317828893661499 -0.4774792790412903 0.3488372564315796
