0.204090878367424 -0.317829430103302 -0.007751941680908203
0.20455864071846008 -0.317829430103302 0.007751941680908203
0.20473156869411469 -0.317829430103302 0.02325582504272461
0.20462621748447418 -0.317829430103302 0.038759708404541016
0.204274982213974 -0.317829430103302 0.05426359176635742
0.20356982946395874 -0.317829430103302 0.06976747512817383
0.20227932929992676 -0.317829430103302 0.08527135848999023
0.20040595531463623 -0.317829430103302 0.10077524185180664
0.1976463496685028 -0.317829430103302 0.11627912521362305
0.19526419043540955 -0.30232560634613037 -0.11627906560897827
0.1988055408000946 -0.30232560634613037 -0.10077518224716187
0.20184627175331116 -0.30232560634613037 -0.08527129888534546
0.20359663665294647 -0.30232560634613037 -0.06976741552352905
0.20510907471179962 -0.30232560634613037 -0.05426359176635742
0.20594176650047302 -0.30232560634613037 -0.038759708404541016
0.20658427476882935 -0.30232560634613037 -0.02325582504272461
0.20727607607841492 -0.30232560634613037 -0.007751941680908203
0.20768897235393524 -0.30232560634613037 0.007751941680908203
0.2077423334121704 -0.30232560634613037 0.02325582504272461
0.2074504792690277 -0.30232560634613037 0.038759708404541016
0.2069532424211502 -0.30232560634613037 0.05426359176635742
0.2061443328857422 -0.30232560634613037 0.06976747512817383
0.2048056721687317 -0.30232560634613037 0.08527135848999023
0.20267772674560547 -0.30232560634613037 0.10077524185180664
0.19932341575622559 -0.30232560634613037 0.11627911776304245
0.19455580413341522 -0.30232560634613037 0.1317828893661499
0.19579753279685974 -0.28682172298431396 -0.14728683233261108
0.19946661591529846 -0.28682172298431396 -0.13178294897079468
0.20235539972782135 -0.28682172298431396 -0.11627906560897827
0.20395126938819885 -0.28682172298431396 -0.10077518224716187
0.20552513003349304 -0.28682172298431396 -0.08527129888534546
0.2066810131072998 -0.28682172298431396 -0.06976741552352905
0.2081618309020996 -0.28682172298431396 -0.05426359176635742
0.20890817046165466 -0.28682172298431396 0.06976747512817383
0.2070682942867279 -0.28682172298431396 0.08527135848999023
0.20492467284202576 -0.28682172298431396 0.10077524185180664
0.20133018493652344 -0.28682172298431396 0.11627912521362305
0.19597546756267548 -0.28682172298431396 0.1317828893661499
0.19566266238689423 -0.27131783962249756 -0.1782945990562439
0.1987018883228302 -0.27131783962249756 -0.1627907156944275
0.20129171013832092 -0.27131783962249756 -0.14728683233261108
0.2029230296611786 -0.27131783962249756 -0.13178294897079468
0.2048918604850769 -0.27131783962249756 -0.11627906560897827
0.20638924837112427 -0.27131783962249756 -0.10077518224716187
0.20788542926311493 -0.27131783962249756 -0.08527129888534546
0.20731739699840546 -0.27131783962249756 0.10077524185180664
0.20345330238342285 -0.27131783962249756 0.11627912521362305
0.19754865765571594 -0.27131783962249756 0.1317828893661499
0.19513893127441406 -0.25581395626068115 -0.20930230617523193
0.19704413414001465 -0.25581395626068115 -0.19379842281341553
0.1993330419063568 -0.25581395626068115 -0.1782945990562439
0.2010805755853653 -0.25581395626068115 -0.1627907156944275
0.2025270164012909 -0.25581395626068115 -0.14728683233261108
0.20451630651950836 -0.25581395626068115 -0.13178294897079468
0.20627819001674652 -0.25581395626068115 -0.11627906560897827
0.20859509706497192 -0.25581395626068115 -0.10077518224716187
0.2054261863231659 -0.25581395626068115 0.11627912521362305
0.19914212822914124 -0.25581395626068115 0.1317828893661499
0.1952195018529892 -0.24031007289886475 -0.22480618953704834
0.1969059705734253 -0.24031007289886475 -0.20930230617523193
0.19860447943210602 -0.24031007289886475 -0.19379842281341553
0.20017334818840027 -0.24031007289886475 -0.1782945990562439
0.2014910727739334 -0.24031007289886475 -0.1627907156944275
0.20307166874408722 -0.24031007289886475 -0.14728683233261108
0.20498208701610565 -0.24031007289886475 -0.13178294897079468
0.2074301540851593 -0.24031007289886475 -0.11627906560897827
0.20712916553020477 -0.24031007289886475 0.11627912521362305
0.2004452496767044 -0.24031007289886475 0.1317828893661499
0.19476020336151123 -0.22480618953704834 -0.22480618953704834
0.19637225568294525 -0.22480618953704834 -0.20930230617523193
0.19811078906059265 -0.22480618953704834 -0.19379842281341553
0.19979120790958405 -0.22480618953704834 -0.1782945990562439
0.2012099325656891 -0.22480618953704834 -0.1627907156944275
0.20286738872528076 -0.22480618953704834 -0.14728683233261108
0.20491722226142883 -0.22480618953704834 -0.13178294897079468
0.2079097479581833 -0.22480618953704834 -0.11627906560897827
0.20846539735794067 -0.22480618953704834 0.11627912521362305
0.20139148831367493 -0.22480618953704834 0.1317828893661499
0.19548870623111725 -0.20930232107639313 -0.19379842281341553
0.1979568898677826 -0.20930230617523193 -0.1782945990562439
0.20009884238243103 -0.20930230617523193 -0.1627907156944275
0.20185057818889618 -0.20930230617523193 -0.14728683233261108
0.20428237318992615 -0.20930230617523193 -0.13178294897079468
0.20697613060474396 -0.20930230617523193 -0.11627906560897827
0.20897389948368073 -0.20930230617523193 0.11627912521362305
0.20154410600662231 -0.20930230617523193 0.1317828893661499
0.19698749482631683 -0.19379842281341553 -0.1627907156944275
0.20010770857334137 -0.19379842281341553 -0.14728683233261108
0.20265591144561768 -0.19379842281341553 -0.13178294897079468
0.2055303454399109 -0.19379842281341553 -0.11627906560897827
0.20929495990276337 -0.19379842281341553 -0.10077518224716187
0.209089994430542 -0.19379842281341553 0.11627912521362305
0.20123353600502014 -0.19379842281341553 0.1317828893661499
0.1948411464691162 -0.1782945990562439 -0.14728683233261108
0.19962644577026367 -0.1782945990562439 -0.13178294897079468
0.2031218558549881 -0.1782945990562439 -0.11627906560897827
0.20612093806266785 -0.1782945990562439 -0.10077518224716187
0.20878876745700836 -0.1782945990562439 0.11627912521362305
0.20057803392410278 -0.1782945990562439 0.1317828893661499
0.19851313531398773 -0.1627907156944275 -0.11627906560897827
0.2026520073413849 -0.1627907156944275 -0.10077518224716187
0.20593497157096863 -0.1627907156944275 -0.08527129888534546
0.20800088346004486 -0.1627907156944275 0.11627912521362305
0.19970174133777618 -0.1627907156944275 0.1317828893661499
0.19781064987182617 -0.14728683233261108 -0.10077518224716187
0.20256014168262482 -0.14728683233261108 -0.08527129888534546
0.2058374583721161 -0.14728683233261108 -0.06976741552352905
0.20727360248565674 -0.14728683233261108 0.11627912521362305
0.19910688698291779 -0.14728683233261108 0.1317828893661499
0.19955888390541077 -0.13178294897079468 -0.08527129888534546
0.2036038041114807 -0.13178294897079468 -0.06976741552352905
0.2063923180103302 -0.13178294897079468 -0.05426359176635742
0.2066277265548706 -0.13178294897079468 0.11627912521362305
0.19872286915779114 -0.13178294897079468 0.1317828893661499
0.19688507914543152 -0.11627906560897827 -0.08527129888534546
0.20215946435928345 -0.11627906560897827 -0.06976741552352905
0.2052747756242752 -0.11627906560897827 -0.05426359176635742
0.20818793773651123 -0.11627906560897827 -0.038759708404541016
0.20651569962501526 -0.11627906560897827 0.11627912521362305
0.19886142015457153 -0.11627906560897827 0.1317828893661499
0.19537745416164398 -0.10077518224716187 -0.08527129888534546
0.20122890174388885 -0.10077518224716187 -0.06976741552352905
0.2044375240802765 -0.10077518224716187 -0.05426359176635742
0.20718051493167877 -0.10077518224716187 -0.038759708404541016
0.20669099688529968 -0.10077518224716187 0.11627912521362305
0.1992664933204651 -0.10077518224716187 0.1317828893661499
0.19478578865528107 -0.08527129888534546 -0.08527129888534546
0.20070549845695496 -0.08527129888534546 -0.06976741552352905
0.2038537561893463 -0.08527129888534546 -0.05426359176635742
0.20667468011379242 -0.08527129888534546 -0.038759708404541016
0.2070852667093277 -0.08527129888534546 0.11627912521362305
0.19983886182308197 -0.08527129888534546 0.1317828893661499
0.19444511830806732 -0.06976741552352905 -0.08527129143476486
0.20053379237651825 -0.06976741552352905 -0.06976741552352905
0.20367681980133057 -0.06976741552352905 -0.05426359176635742
0.20673079788684845 -0.06976741552352905 -0.038759708404541016
0.2080605924129486 -0.06976741552352905 0.11627912521362305
0.20088815689086914 -0.06976741552352905 0.1317828893661499
0.19402237236499786 -0.05426359176635742 -0.08527129888534546
0.20055106282234192 -0.05426359176635742 -0.06976741552352905
0.20379053056240082 -0.05426359176635742 -0.05426359176635742
0.2072143852710724 -0.05426359176635742 -0.038759708404541016
0.20213377475738525 -0.05426359176635742 0.1317828893661499
0.1940649002790451 -0.05426359176635742 0.1472867727279663
0.20051616430282593 -0.038759708404541016 -0.06976741552352905
0.20396742224693298 -0.038759708404541016 -0.05426359176635742
0.2077702134847641 -0.038759708404541016 -0.038759708404541016
0.20316430926322937 -0.038759708404541016 0.1317828893661499
0.1946786493062973 -0.038759708404541016 0.1472867727279663
0.2002122402191162 -0.02325582504272461 -0.06976741552352905
0.2041843831539154 -0.02325582504272461 -0.05426359176635742
0.2082490622997284 -0.02325582504272461 -0.038759708404541016
0.20395778119564056 -0.02325582504272461 0.1317828893661499
0.19515259563922882 -0.02325582504272461 0.1472867727279663
0.19898107647895813 -0.007751941680908203 -0.06976741552352905
0.20418328046798706 -0.007751941680908203 -0.05426359176635742
0.20848348736763 -0.007751941680908203 -0.038759708404541016
0.20500698685646057 -0.007751941680908203 0.1317828893661499
0.19588325917720795 -0.007751941680908203 0.1472867727279663
0.19764018058776855 0.007751941680908203 -0.06976741552352905
0.20385295152664185 0.007751941680908203 -0.05426359176635742
0.20856676995754242 0.007751941680908203 -0.038759708404541016
0.20617932081222534 0.007751941680908203 0.1317828893661499
0.196642205119133 0.007751941680908203 0.1472867727279663
0.1972559541463852 0.02325582504272461 -0.06976741552352905
0.203827366232872 0.02325582504272461 -0.05426359176635742
0.20894475281238556 0.02325582504272461 -0.038759708404541016
0.20725944638252258 0.02325582504272461 0.1317828893661499
0.1972392201423645 0.02325582504272461 0.1472867727279663
0.19719737768173218 0.038759708404541016 -0.06976741552352905
0.20399469137191772 0.038759708404541016 -0.05426359176635742
0.2090655416250229 0.038759708404541016 0.1317828893661499
0.19835303723812103 0.038759708404541016 0.1472867727279663
0.1981499046087265 0.05426359176635742 -0.06976741552352905
0.20451024174690247 0.05426359176635742 -0.05426359176635742
0.19964686036109924 0.05426359176635742 0.1472867727279663
0.19980332255363464 0.06976747512817383 -0.06976741552352905
0.2052871137857437 0.06976747512817383 -0.05426359176635742
0.20092466473579407 0.06976747512817383 0.1472867727279663
0.20160114765167236 0.08527135848999023 -0.06976741552352905
0.20648129284381866 0.08527135848999023 -0.05426359176635742
0.20241960883140564 0.08527135848999023 0.1472867727279663
0.19459134340286255 0.10077524185180664 -0.08527129888534546
0.2032763957977295 0.10077524185180664 -0.06976741552352905
0.20874720811843872 0.10077524185180664 -0.05426359176635742
0.20494921505451202 0.10077524185180664 0.1472867727279663
0.1941080242395401 0.10077524185180664 0.16279065608978271
0.19828519225120544 0.11627912521362305 -0.08527129888534546
0.2049911618232727 0.11627912521362305 -0.06976741552352905
0.20782646536827087 0.11627912521362305 0.1472867727279663
0.19605965912342072 0.11627912521362305 0.16279065608978271
0.20138171315193176 0.1317828893661499 -0.08527129888534546
0.2069106251001358 0.1317828893661499 -0.06976741552352905
0.1979970932006836 0.1317828893661499 0.16279065608978271
0.20329433679580688 0.1472867727279663 -0.08527129888534546
0.19984450936317444 0.1472867727279663 0.16279065608978271
0.19548633694648743 0.1627906709909439 -0.10077518224716187
0.20490209758281708 0.16279065608978271 -0.08527129888534546
0.20122236013412476 0.16279065608978271 0.16279065608978271
0.19814203679561615 0.17829453945159912 -0.10077518224716187
0.20644402503967285 0.17829453945159912 -0.08527129888534546
0.20214901864528656 0.17829453945159912 0.16279065608978271
0.19971132278442383 0.19379842281341553 -0.10077518224716187
0.20780132710933685 0.19379842281341553 -0.08527129888534546
0.20284368097782135 0.19379842281341553 0.16279065608978271
0.2009739875793457 0.20930230617523193 -0.10077518224716187
0.20354336500167847 0.20930230617523193 0.16279065608978271
0.20213177800178528 0.22480618953704834 -0.10077518224716187
0.20418551564216614 0.22480618953704834 0.16279065608978271
0.20377680659294128 0.24031007289886475 -0.10077518224716187
0.20488959550857544 0.24031007289886475 0.16279065608978271
0.19466187059879303 0.25581395626068115 -0.11627906560897827
0.20592039823532104 0.25581395626068115 -0.10077518224716187
0.20529422163963318 0.25581395626068115 0.16279065608978271
0.19766603410243988 0.27131783962249756 -0.11627906560897827
0.20878028869628906 0.27131783962249756 -0.10077518224716187
0.2059442102909088 0.27131783962249756 0.16279065608978271
0.1939396858215332 0.27131783962249756 0.17829453945159912
0.20073333382606506 0.28682172298431396 -0.11627905815839767
0.206324964761734 0.28682172298431396 0.16279065608978271
0.20407485961914062 0.30232560634613037 -0.11627906560897827
0.20616957545280457 0.30232560634613037 0.16279065608978271
0.19488433003425598 0.3178294897079468 -0.13178294897079468
0.20815269649028778 0.3178294897079468 -0.11627906560897827
0.20582012832164764 0.3178294897079468 0.16279065608978271
0.19912154972553253 0.3333333730697632 -0.13178294897079468
0.20475152134895325 0.3333333730697632 0.16279065608978271
0.2038879245519638 0.3488372564315796 -0.13178294897079468
0.20303478837013245 0.3488372564315796 0.16279065608978271
0.1960102617740631 0.364341139793396 -0.14728683233261108
0.19988662004470825 0.364341139793396 0.16279065608978271
0.20301011204719543 0.37984490394592285 -0.14728683233261108
0.2078968584537506 0.37984490394592285 0.1472867727279663
0.19886137545108795 0.39534878730773926 -0.1627907156944275
0.2090003490447998 0.39534878730773926 -0.14728683233261108
0.20278456807136536 0.39534878730773926 0.1472867727279663
0.19585928320884705 0.41085267066955566 -0.1782945990562439
0.20541833341121674 0.41085267066955566 -0.1627907156944275
0.20755989849567413 0.41085267066955566 0.1317828893661499
0.195557102560997 0.41085267066955566 0.1472867727279663
0.20173430442810059 0.42635655403137207 -0.1782945990562439
0.2081286907196045 0.42635655403137207 -0.1627907156944275
0.20177140831947327 0.42635655403137207 0.1317828893661499
0.1973322033882141 0.4418604373931885 -0.19379842281341553
0.20432725548744202 0.4418604373931885 -0.1782945990562439
0.20441268384456635 0.4418604373931885 0.11627912521362305
0.19996678829193115 0.4573642909526825 -0.19379842281341553
0.2049330621957779 0.4573643207550049 -0.1782945990562439
0.20915910601615906 0.4573643207550049 -0.1627907156944275
0.20702670514583588 0.4573643207550049 0.10077524185180664
0.19802558422088623 0.4573643207550049 0.11627912521362305
0.20083516836166382 0.4728682041168213 -0.19379842281341553
0.20489153265953064 0.4728682041168213 -0.1782945990562439
0.20839208364486694 0.4728682041168213 -0.1627907156944275
0.20367762446403503 0.4728682041168213 0.10077524185180664
0.1946282535791397 0.4883720874786377 -0.20930230617523193
0.2011978030204773 0.4883720874786377 -0.19379842281341553
0.20460718870162964 0.4883720874786377 -0.1782945990562439
0.2073432207107544 0.4883720874786377 -0.1627907156944275
0.20572109520435333 0.4883720874786377 0.08527135848999023
0.19932812452316284 0.4883720874786377 0.10077524185180664
0.19620420038700104 0.5038759708404541 -0.20930230617523193
0.20127816498279572 0.5038759708404541 -0.19379842281341553
0.20403724908828735 0.5038759708404541 -0.1782945990562439
0.2062242031097412 0.5038759708404541 -0.1627907156944275
0.20908954739570618 0.5038759708404541 -0.14728683233261108
0.20639342069625854 0.5038759708404541 0.06976747512817383
0.2032942771911621 0.5038759708404541 0.08527135848999023
0.19719438254833221 0.5193798542022705 -0.20930230617523193
0.201120987534523 0.5193798542022705 -0.19379842281341553
0.2032734453678131 0.5193798542022705 -0.1782945990562439
0.20525644719600677 0.5193798542022705 -0.1627907156944275
0.20723968744277954 0.5193798542022705 -0.14728683233261108
0.20920954644680023 0.5193798542022705 0.038759708404541016
0.20617666840553284 0.5193798542022705 0.05426359176635742
0.20401695370674133 0.5193798542022705 0.06976747512817383
0.19437552988529205 0.5193798542022705 0.08527135848999023
0.19749896228313446 0.5348837375640869 -0.20930230617523193
0.20065462589263916 0.5348837375640869 -0.19379842281341553
0.20239338278770447 0.5348837375640869 -0.1782945990562439
0.20411089062690735 0.5348837375640869 -0.1627907156944275
0.20578956604003906 0.5348837375640869 -0.14728683233261108
0.20745021104812622 0.5348837375640869 -0.13178294897079468
0.20728853344917297 0.5348837375640869 0.02325582504272461
0.20550106465816498 0.5348837375640869 0.038759708404541016
0.20388449728488922 0.5348837375640869 0.05426359176635742
0.19599184393882751 0.5348837375640869 0.06976747512817383
0.19403225183486938 0.5503876209259033 -0.22480618953704834
0.1969384104013443 0.5503876209259033 -0.20930230617523193
0.19966867566108704 0.5503876209259033 -0.19379842281341553
0.2012786567211151 0.5503876209259033 -0.1782945990562439
0.20246610045433044 0.5503876209259033 -0.1627907156944275
0.20349667966365814 0.5503876209259033 -0.14728683233261108
0.20456933975219727 0.5503876209259033 -0.13178294897079468
0.20554973185062408 0.5503876209259033 -0.11627906560897827
0.2063143402338028 0.5503876209259033 -0.10077518224716187
0.20700512826442719 0.5503876209259033 -0.08527129888534546
0.20740190148353577 0.5503876209259033 -0.06976741552352905
0.20765747129917145 0.5503876209259033 -0.05426359176635742
0.2076008915901184 0.5503876209259033 -0.038759708404541016
0.2069111168384552 0.5503876209259033 -0.02325582504272461
0.20592902600765228 0.5503876209259033 -0.007751941680908203
0.20519277453422546 0.5503876209259033 0.007751941680908203
0.20446380972862244 0.5503876209259033 0.02325582504272461
0.20098471641540527 0.5503876209259033 0.038759708404541016
0.19476988911628723 0.5503876209259033 0.05426359176635742
0.1957591474056244 0.5658915042877197 -0.20930230617523193
0.1977555751800537 0.5658915042877197 -0.19379842281341553
0.19929185509681702 0.5658915042877197 -0.1782945990562439
0.20066988468170166 0.5658915042877197 -0.1627907156944275
0.2015923112630844 0.5658915042877197 -0.14728683233261108
0.2022334635257721 0.5658915042877197 -0.13178294897079468
0.20268434286117554 0.5658915042877197 -0.11627906560897827
0.20302991569042206 0.5658915042877197 -0.10077518224716187
0.20334996283054352 0.5658915042877197 -0.08527129888534546
0.20349496603012085 0.5658915042877197 -0.06976741552352905
0.20354819297790527 0.5658915042877197 -0.05426359176635742
0.2033522129058838 0.5658915042877197 -0.038759708404541016
0.2024829238653183 0.5658915042877197 -0.02325582504272461
0.2007657289505005 0.5658915042877197 -0.007751941680908203
0.19783595204353333 0.5658915042877197 0.007751941680908203
0.19440153241157532 0.5658915042877197 0.02325582318007946
0.19405829906463623 0.5813953876495361 -0.20930230617523193
0.19477973878383636 0.5813953876495361 -0.19379840791225433
0.19520346820354462 0.5813953876495361 -0.1782945990562439
0.1957053691148758 0.5813953876495361 -0.1627907156944275
0.1958748996257782 0.5813953876495361 -0.14728683233261108
0.1958601325750351 0.5813953876495361 -0.13178294897079468
0.19563312828540802 0.5813953876495361 -0.11627905815839767
0.1952948272228241 0.5813953876495361 -0.10077518224716187
0.1950446218252182 0.5813953280448914 -0.08527129143476486
0.19457142055034637 0.5813953280448914 -0.06976741552352905
0.194112628698349 0.5813953876495361 -0.05426359549164772
0.21212553977966309 -0.6899224519729614 0.5348837375640869
0.214309960603714 -0.6899224519729614 0.5503876209259033
0.2125619649887085 -0.6899224519729614 0.5658915042877197
0.21022891998291016 -0.28682172298431396 -0.038759708404541016
0.2120131254196167 -0.28682172298431396 -0.02325582504272461
0.21313181519508362 -0.28682172298431396 -0.007751941680908203
0.2132340371608734 -0.28682172298431396 0.007751941680908203
0.2126312106847763 -0.28682172298431396 0.02325582504272461
0.21152827143669128 -0.28682172298431396 0.038759712129831314
0.21030133962631226 -0.28682172298431396 0.05426359176635742
0.21039386093616486 -0.27131783962249756 -0.06976741552352905
0.213611900806427 -0.27131783962249756 -0.05426359176635742
0.21555180847644806 -0.27131783962249756 -0.038759708404541016
0.21654100716114044 -0.27131783962249756 -0.02325582504272461
0.21713882684707642 -0.27131783962249756 -0.007751941680908203
0.21711066365242004 -0.27131783962249756 0.007751941680908203
0.21647155284881592 -0.27131783962249756 0.02325582504272461
0.2152499556541443 -0.27131783962249756 0.038759708404541016
0.213697612285614 -0.27131783962249756 0.05426359176635742
0.21192337572574615 -0.27131783962249756 0.06976747512817383
0.20988883078098297 -0.27131783962249756 0.08527135103940964
0.2114197462797165 -0.25581395626068115 -0.08527129888534546
0.21464216709136963 -0.25581395626068115 -0.06976741552352905
0.2167356014251709 -0.25581395626068115 -0.05426359176635742
0.21820026636123657 -0.25581395626068115 -0.038759708404541016
0.21925371885299683 -0.25581395626068115 -0.02325582504272461
0.21986815333366394 -0.25581395626068115 -0.007751941680908203
0.21989375352859497 -0.25581395626068115 0.007751941680908203
0.21941502392292023 -0.25581395626068115 0.02325582504272461
0.21838998794555664 -0.25581395626068115 0.038759708404541016
0.216806560754776 -0.25581395626068115 0.05426359176635742
0.21469664573669434 -0.25581395626068115 0.06976747512817383
0.21238160133361816 -0.25581395626068115 0.08527136594057083
0.20978179574012756 -0.25581395626068115 0.10077524185180664
0.21082156896591187 -0.24031007289886475 -0.10077518224716187
0.21421323716640472 -0.24031007289886475 -0.08527129888534546
0.21660490334033966 -0.24031007289886475 -0.06976741552352905
0.21838316321372986 -0.24031007289886475 -0.05426359176635742
0.219932422041893 -0.24031007289886475 -0.038759708404541016
0.22074946761131287 -0.24031007289886475 -0.02325582504272461
0.2211858630180359 -0.24031007289886475 -0.007751941680908203
0.2212984263896942 -0.24031007289886475 0.007751941680908203
0.22098606824874878 -0.24031007289886475 0.02325582504272461
0.22021619975566864 -0.24031007289886475 0.038759708404541016
0.21903906762599945 -0.24031007289886475 0.05426359176635742
0.21700650453567505 -0.24031007289886475 0.06976747512817383
0.21420475840568542 -0.24031007289886475 0.08527135848999023
0.2114185094833374 -0.24031007289886475 0.10077524185180664
0.2118261158466339 -0.22480618953704834 -0.10077518224716187
0.21529343724250793 -0.22480618953704834 -0.08527129888534546
0.21745876967906952 -0.22480618953704834 -0.06976741552352905
0.21932236850261688 -0.22480618953704834 -0.05426359176635742
0.22070372104644775 -0.22480618953704834 -0.038759708404541016
0.22145549952983856 -0.22480618953704834 -0.02325582504272461
0.22208721935749054 -0.22480618953704834 -0.007751941680908203
0.22235946357250214 -0.22480618953704834 0.007751941680908203
0.2221425473690033 -0.22480618953704834 0.02325582504272461
0.22138826549053192 -0.22480618953704834 0.038759708404541016
0.22020430862903595 -0.22480618953704834 0.05426359176635742
0.21842333674430847 -0.22480618953704834 0.06976747512817383
0.2153811752796173 -0.22480618953704834 0.08527135848999023
0.21249671280384064 -0.22480618953704834 0.10077524185180664
0.21113547682762146 -0.20930229127407074 -0.10077517479658127
0.21508264541625977 -0.20930230617523193 -0.08527129888534546
0.21746335923671722 -0.20930230617523193 -0.06976741552352905
0.219411700963974 -0.20930230617523193 -0.05426359176635742
0.22080352902412415 -0.20930230617523193 -0.038759708404541016
0.2216693013906479 -0.20930230617523193 -0.02325582504272461
0.22244447469711304 -0.20930230617523193 -0.007751941680908203
0.22286468744277954 -0.20930230617523193 0.007751941680908203
0.22274149954319 -0.20930230617523193 0.02325582504272461
0.2220173180103302 -0.20930230617523193 0.038759708404541016
0.22080112993717194 -0.20930230617523193 0.05426359176635742
0.21898001432418823 -0.20930230617523193 0.06976747512817383
0.21587064862251282 -0.20930230617523193 0.08527135848999023
0.21289590001106262 -0.20930230617523193 0.10077524185180664
0.21364527940750122 -0.19379840791225433 -0.08527129888534546
0.21671372652053833 -0.19379842281341553 -0.06976741552352905
0.21872478723526 -0.19379842281341553 -0.05426359176635742
0.22040238976478577 -0.19379842281341553 -0.038759708404541016
0.22135388851165771 -0.19379842281341553 -0.02325582504272461
0.22228141129016876 -0.19379842281341553 -0.007751941680908203
0.2229132503271103 -0.19379842281341553 0.007751941680908203
0.22298020124435425 -0.19379842281341553 0.02325582504272461
0.2223673164844513 -0.19379842281341553 0.038759708404541016
0.22111737728118896 -0.19379842281341553 0.05426359176635742
0.21918442845344543 -0.19379842281341553 0.06976747512817383
0.21604382991790771 -0.19379842281341553 0.08527135848999023
0.21302643418312073 -0.19379842281341553 0.10077524185180664
0.21017394959926605 -0.1782945990562439 -0.08527129888534546
0.2146156132221222 -0.1782945990562439 -0.06976741552352905
0.21714074909687042 -0.1782945990562439 -0.05426359176635742
0.21911859512329102 -0.1782945990562439 -0.038759708404541016
0.2204042673110962 -0.1782945990562439 -0.02325582504272461
0.22140322625637054 -0.1782945990562439 -0.007751941680908203
0.22222115099430084 -0.1782945990562439 0.007751941680908203
0.22253352403640747 -0.1782945990562439 0.02325582504272461
0.22209085524082184 -0.1782945990562439 0.038759708404541016
0.2208707630634308 -0.1782945990562439 0.05426359176635742
0.21893377602100372 -0.1782945990562439 0.06976747512817383
0.21582117676734924 -0.1782945990562439 0.08527135848999023
0.2128327190876007 -0.1782945990562439 0.10077524185180664
0.2099105715751648 -0.1627907156944275 -0.06976741552352905
0.21409471333026886 -0.1627907156944275 -0.05426359176635742
0.21665149927139282 -0.1627907156944275 -0.038759708404541016
0.21845492720603943 -0.1627907156944275 -0.02325582504272461
0.2199147343635559 -0.1627907156944275 -0.007751941680908203
0.22084881365299225 -0.1627907156944275 0.007751941680908203
0.22131749987602234 -0.1627907156944275 0.02325582504272461
0.2210240662097931 -0.1627907156944275 0.038759708404541016
0.21990640461444855 -0.1627907156944275 0.05426359176635742
0.21804243326187134 -0.1627907156944275 0.06976747512817383
0.21507950127124786 -0.1627907156944275 0.08527135848999023
0.21222351491451263 -0.1627907156944275 0.10077524185180664
0.2095118761062622 -0.14728683233261108 -0.05426359176635742
0.2133711576461792 -0.14728683233261108 -0.038759708404541016
0.2156679928302765 -0.14728683233261108 -0.02325582504272461
0.21767830848693848 -0.14728683233261108 -0.007751941680908203
0.2191888391971588 -0.14728683233261108 0.007751941680908203
0.21981045603752136 -0.14728683233261108 0.02325582504272461
0.21966703236103058 -0.14728683233261108 0.038759708404541016
0.21871763467788696 -0.14728683233261108 0.05426359176635742
0.21687324345111847 -0.14728683233261108 0.06976747512817383
0.21429508924484253 -0.14728683233261108 0.08527135848999023
0.21160167455673218 -0.1472868174314499 0.10077524185180664
0.21000099182128906 -0.13178294897079468 -0.038759708404541016
0.21303144097328186 -0.13178294897079468 -0.02325582504272461
0.21528370678424835 -0.13178294897079468 -0.007751941680908203
0.21708141267299652 -0.13178294897079468 0.007751941680908203
0.2180812656879425 -0.13178294897079468 0.02325582504272461
0.21807819604873657 -0.13178294897079468 0.038759708404541016
0.2172124683856964 -0.13178294897079468 0.05426359176635742
0.21559467911720276 -0.13178294897079468 0.06976747512817383
0.21352434158325195 -0.13178294897079468 0.08527135848999023
0.21103765070438385 -0.13178294897079468 0.10077524185180664
0.21133150160312653 -0.11627906560897827 -0.02325582504272461
0.21376141905784607 -0.11627906560897827 -0.007751941680908203
0.21549750864505768 -0.11627906560897827 0.007751941680908203
0.2165842354297638 -0.11627906560897827 0.02325582504272461
0.21674545109272003 -0.11627906560897827 0.038759708404541016
0.21610495448112488 -0.11627906560897827 0.05426359176635742
0.21485266089439392 -0.11627906560897827 0.06976747512817383
0.2131207138299942 -0.11627906560897827 0.08527135848999023
0.2108115702867508 -0.11627906560897827 0.10077524185180664
0.21043914556503296 -0.10077518224716187 -0.02325582504272461
0.21281619369983673 -0.10077518224716187 -0.007751941680908203
0.21445617079734802 -0.10077518224716187 0.007751941680908203
0.215518981218338 -0.10077518224716187 0.02325582504272461
0.21582341194152832 -0.10077518224716187 0.038759708404541016
0.2154332995414734 -0.10077518224716187 0.05426359176635742
0.21447712182998657 -0.10077518224716187 0.06976747512817383
0.21296437084674835 -0.10077518224716187 0.08527135848999023
0.21079042553901672 -0.10077518224716187 0.10077524185180664
0.21014291048049927 -0.08527129888534546 -0.02325582690536976
0.2124078869819641 -0.08527129888534546 -0.007751941680908203
0.21393194794654846 -0.08527129888534546 0.007751941680908203
0.21496394276618958 -0.08527129888534546 0.02325582504272461
0.2154015600681305 -0.08527129888534546 0.038759708404541016
0.21522033214569092 -0.08527129888534546 0.05426359176635742
0.2144639492034912 -0.08527129888534546 0.06976747512817383
0.21306471526622772 -0.08527129888534546 0.08527135848999023
0.21097208559513092 -0.08527129143476486 0.10077524185180664
0.21042314171791077 -0.06976741552352905 -0.02325582504272461
0.2126273661851883 -0.06976741552352905 -0.00775194214656949
0.2140578031539917 -0.06976741552352905 0.007751941680908203
0.2151276171207428 -0.06976741552352905 0.02325582504272461
0.215706467628479 -0.06976741552352905 0.038759708404541016
0.21567851305007935 -0.06976741552352905 0.05426359176635742
0.2150106132030487 -0.06976741552352905 0.06976747512817383
0.2136206328868866 -0.06976741552352905 0.08527135848999023
0.2115830034017563 -0.06976741552352905 0.10077524185180664
0.21104316413402557 -0.05426359176635742 -0.02325582504272461
0.21320155262947083 -0.05426359176635742 -0.007751941680908203
0.21458683907985687 -0.05426359176635742 0.007751941680908203
0.21580244600772858 -0.05426359176635742 0.02325582504272461
0.21652792394161224 -0.05426359176635742 0.038759708404541016
0.21661293506622314 -0.05426359176635742 0.05426359176635742
0.2159562110900879 -0.05426359176635742 0.06976747512817383
0.21444785594940186 -0.05426359176635742 0.08527135848999023
0.21243798732757568 -0.05426359176635742 0.10077524185180664
0.2093677967786789 -0.05426359176635742 0.11627911776304245
0.2117733359336853 -0.038759712129831314 -0.02325582504272461
0.21393617987632751 -0.038759708404541016 -0.007751941680908203
0.21539188921451569 -0.038759708404541016 0.007751941680908203
0.2168118953704834 -0.038759708404541016 0.02325582504272461
0.21760870516300201 -0.038759708404541016 0.038759708404541016
0.21776971220970154 -0.038759708404541016 0.05426359176635742
0.21711580455303192 -0.038759708404541016 0.06976747512817383
0.2153692990541458 -0.038759708404541016 0.08527135848999023
0.21327409148216248 -0.038759708404541016 0.10077524185180664
0.21000239253044128 -0.038759708404541016 0.11627912521362305
0.2126140147447586 -0.02325582504272461 -0.02325582504272461
0.2148805856704712 -0.02325582504272461 -0.007751941680908203
0.21656548976898193 -0.02325582504272461 0.007751941680908203
0.21806052327156067 -0.02325582504272461 0.02325582504272461
0.2188647985458374 -0.02325582504272461 0.038759708404541016
0.21904978156089783 -0.02325582504272461 0.05426359176635742
0.21839392185211182 -0.02325582504272461 0.06976747512817383
0.21642455458641052 -0.02325582504272461 0.08527135848999023
0.2140568494796753 -0.02325582504272461 0.10077524185180664
0.21064689755439758 -0.02325582504272461 0.11627912521362305
0.21361449360847473 -0.007751941680908203 -0.02325582504272461
0.21618591248989105 -0.007751941680908203 -0.007751941680908203
0.21818554401397705 -0.007751941680908203 0.007751941680908203
0.21966013312339783 -0.007751941680908203 0.02325582504272461
0.2206045687198639 -0.007751941680908203 0.038759708404541016
0.22077372670173645 -0.007751941680908203 0.05426359176635742
0.2198914885520935 -0.007751941680908203 0.06976747512817383
0.2177935242652893 -0.007751941680908203 0.08527135848999023
0.21495288610458374 -0.007751941680908203 0.10077524185180664
0.21153385937213898 -0.007751941680908203 0.11627912521362305
0.21457204222679138 0.007751941680908203 -0.02325582504272461
0.21745583415031433 0.007751941680908203 -0.007751941680908203
0.21959367394447327 0.007751941680908203 0.007751941680908203
0.22129642963409424 0.007751941680908203 0.02325582504272461
0.22255100309848785 0.007751941680908203 0.038759708404541016
0.22275061905384064 0.007751941680908203 0.05426359176635742
0.22152262926101685 0.007751941680908203 0.06976747512817383
0.2191515862941742 0.007751941680908203 0.08527135848999023
0.21588104963302612 0.007751941680908203 0.10077524185180664
0.2125645875930786 0.007751941680908203 0.11627912521362305
0.21528473496437073 0.02325582504272461 -0.02325582504272461
0.21833273768424988 0.02325582504272461 -0.007751941680908203
0.22058436274528503 0.02325582504272461 0.007751941680908203
0.2227705419063568 0.02325582504272461 0.02325582504272461
0.22447513043880463 0.02325582504272461 0.038759708404541016
0.22470985352993011 0.02325582504272461 0.05426359176635742
0.22308295965194702 0.02325582504272461 0.06976747512817383
0.2202552855014801 0.02325582504272461 0.08527135848999023
0.21668818593025208 0.02325582504272461 0.10077524185180664
0.21337801218032837 0.02325582504272461 0.11627912521362305
0.20970577001571655 0.038759708404541016 -0.038759708404541016
0.216135174036026 0.038759708404541016 -0.02325582504272461
0.21938195824623108 0.038759708404541016 -0.007751941680908203
0.2219022959470749 0.038759708404541016 0.007751941680908203
0.22182363271713257 0.038759708404541016 0.08527135848999023
0.21788063645362854 0.038759708404541016 0.10077524185180664
0.2143658697605133 0.038759708404541016 0.11627911776304245
0.21110793948173523 0.05426359549164772 -0.038759708404541016
0.2171698957681656 0.05426359176635742 -0.02325582504272461
0.22054873406887054 0.05426359176635742 -0.007751941680908203
0.2236068695783615 0.05426359176635742 0.007751941680908203
0.223680317401886 0.05426359176635742 0.08527135848999023
0.21922945976257324 0.05426359176635742 0.10077524185180664
0.21517549455165863 0.05426359176635742 0.11627912521362305
0.21008773148059845 0.05426359176635742 0.1317828893661499
0.21293959021568298 0.06976747512817383 -0.038759708404541016
0.2183043360710144 0.06976747512817383 -0.02325582504272461
0.22171854972839355 0.06976747512817383 -0.007751941680908203
0.22059668600559235 0.06976747512817383 0.10077524185180664
0.21591819822788239 0.06976747512817383 0.11627912521362305
0.2109975814819336 0.06976747512817383 0.1317828893661499
0.21506059169769287 0.08527135848999023 -0.038759708404541016
0.219553142786026 0.08527135848999023 -0.02325582504272461
0.2231397181749344 0.08527135848999023 -0.007751941680908203
0.22230055928230286 0.08527135848999023 0.10077524185180664
0.21699509024620056 0.08527135848999023 0.11627912521362305
0.21213579177856445 0.08527135848999023 0.1317828893661499
0.21717198193073273 0.10077524185180664 -0.038759708404541016
0.22101590037345886 0.10077524185180664 -0.02325582504272461
0.2188604325056076 0.10077524185180664 0.11627912521362305
0.21375739574432373 0.10077524185180664 0.1317828893661499
0.21210883557796478 0.11627912521362305 -0.05426359176635742
0.21894657611846924 0.11627912521362305 -0.038759708404541016
0.22256433963775635 0.11627912521362305 -0.02325582504272461
0.22092053294181824 0.11627912521362305 0.11627912521362305
0.21520796418190002 0.11627912521362305 0.1317828893661499
0.21556994318962097 0.1317828893661499 -0.05426359176635742
0.22065985202789307 0.1317828893661499 -0.038759708404541016
0.2231139838695526 0.1317828893661499 0.11627912521362305
0.2164386510848999 0.1317828893661499 0.1317828893661499
0.20995303988456726 0.1317828893661499 0.14728675782680511
0.20953898131847382 0.1472867727279663 -0.06976742297410965
0.21800553798675537 0.1472867727279663 -0.05426359176635742
0.2225610613822937 0.1472867727279663 -0.038759708404541016
0.2176976501941681 0.1472867727279663 0.1317828893661499
0.21119293570518494 0.1472867727279663 0.1472867727279663
0.21309402585029602 0.16279065608978271 -0.06976741552352905
0.2198895961046219 0.16279065608978271 -0.05426359176635742
0.21872228384017944 0.16279065608978271 0.1317828893661499
0.21212086081504822 0.16279065608978271 0.1472867727279663
0.21606656908988953 0.17829453945159912 -0.06976741552352905
0.22152137756347656 0.17829453945159912 -0.05426359176635742
0.2196907252073288 0.17829453945159912 0.1317828893661499
0.2128257155418396 0.17829453945159912 0.1472867727279663
0.21774975955486298 0.19379842281341553 -0.06976741552352905
0.22312946617603302 0.19379842281341553 -0.05426359176635742
0.22052881121635437 0.19379842281341553 0.1317828893661499
0.2133854776620865 0.19379840791225433 0.1472867727279663
0.2095119208097458 0.20930232107639313 -0.08527129888534546
0.21908363699913025 0.20930230617523193 -0.06976741552352905
0.22152307629585266 0.20930230617523193 0.1317828893661499
0.2140122503042221 0.20930230617523193 0.1472867727279663
0.21160991489887238 0.22480618953704834 -0.08527129888534546
0.22030216455459595 0.22480618953704834 -0.06976741552352905
0.22236895561218262 0.22480618953704834 0.1317828893661499
0.214581698179245 0.22480618953704834 0.1472867727279663
0.2140154391527176 0.24031007289886475 -0.08527129888534546
0.22170105576515198 0.24031007289886475 -0.06976741552352905
0.22317732870578766 0.24031007289886475 0.1317828893661499
0.21522286534309387 0.24031007289886475 0.1472867727279663
0.216106116771698 0.25581395626068115 -0.08527129888534546
0.22320221364498138 0.25581395626068115 -0.06976741552352905
0.22373394668102264 0.25581395626068115 0.1317828893661499
0.2156585454940796 0.25581395626068115 0.1472867727279663
0.21803124248981476 0.27131783962249756 -0.08527129888534546
0.22461870312690735 0.27131783962249756 0.1317828893661499
0.21634778380393982 0.27131783962249756 0.1472867727279663
0.21161261200904846 0.28682172298431396 -0.10077518969774246
0.2197379171848297 0.28682172298431396 -0.08527129888534546
0.21683666110038757 0.28682172298431396 0.1472867727279663
0.2145753800868988 0.30232560634613037 -0.10077518224716187
0.22170232236385345 0.30232560634613037 -0.08527129888534546
0.21694009006023407 0.30232560634613037 0.1472867727279663
0.21733978390693665 0.3178294897079468 -0.10077518224716187
0.22390036284923553 0.3178294897079468 -0.08527129888534546
0.21700242161750793 0.3178294897079468 0.1472867727279663
0.21148917078971863 0.3333333730697632 -0.11627906560897827
0.21948890388011932 0.3333333730697632 -0.10077518224716187
0.21657490730285645 0.3333333730697632 0.1472867727279663
0.2147333323955536 0.3488372564315796 -0.11627906560897827
0.2215823531150818 0.3488372564315796 -0.10077518224716187
0.2239251434803009 0.3488372564315796 0.1317828893661499
0.2152816355228424 0.3488372564315796 0.1472867727279663
0.20931044220924377 0.364341139793396 -0.13178294897079468
0.21762365102767944 0.364341139793396 -0.11627906560897827
0.22314533591270447 0.364341139793396 -0.10077518224716187
0.2209869921207428 0.364341139793396 0.1317828893661499
0.2127859890460968 0.364341139793396 0.1472867727279663
0.21306917071342468 0.37984493374824524 -0.13178294897079468
0.21971124410629272 0.37984490394592285 -0.11627906560897827
0.22438651323318481 0.37984490394592285 -0.10077518224716187
0.21811790764331818 0.37984490394592285 0.1317828893661499
0.21675138175487518 0.39534878730773926 -0.13178294897079468
0.22133788466453552 0.39534878730773926 -0.11627906560897827
0.22206443548202515 0.39534878730773926 0.11627912521362305
0.21439556777477264 0.39534878730773926 0.1317828893661499
0.2125086486339569 0.41085267066955566 -0.14728683233261108
0.2181239128112793 0.41085267066955566 -0.13178294897079468
0.22184813022613525 0.41085267066955566 -0.11627906560897827
0.22462071478366852 0.41085267066955566 0.10077524185180664
0.21773183345794678 0.41085267066955566 0.11627912521362305
0.21419554948806763 0.42635655403137207 -0.14728683233261108
0.2183687388896942 0.42635655403137207 -0.13178294897079468
0.22150573134422302 0.42635655403137207 -0.11627906560897827
0.21963313221931458 0.42635655403137207 0.10077524185180664
0.21174538135528564 0.42635655403137207 0.11627912521362305
0.20933565497398376 0.4418604373931885 -0.1627907156944275
0.2144661843776703 0.4418604373931885 -0.14728683233261108
0.21796336770057678 0.4418604373931885 -0.13178294897079468
0.22065506875514984 0.4418604373931885 -0.11627906560897827
0.22331096231937408 0.4418604373931885 -0.10077518224716187
0.2208968847990036 0.4418604373931885 0.08527135848999023
0.21488884091377258 0.4418604373931885 0.10077524185180664
0.21361586451530457 0.4573643207550049 -0.14728683233261108
0.2168874889612198 0.4573643207550049 -0.13178294897079468
0.21928560733795166 0.4573643207550049 -0.11627906560897827
0.22125327587127686 0.4573643207550049 -0.10077518224716187
0.22394172847270966 0.4573643207550049 -0.08527129888534546
0.22444389760494232 0.4573643207550049 0.05426359176635742
0.2211017608642578 0.4573643207550049 0.06976747512817383
0.2171507179737091 0.4573643207550049 0.08527135848999023
0.2123064547777176 0.4728682041168213 -0.14728683233261108
0.21565088629722595 0.4728682041168213 -0.13178294897079468
0.21778133511543274 0.4728682041168213 -0.11627906560897827
0.21972477436065674 0.4728682041168213 -0.10077518224716187
0.22143349051475525 0.4728682041168213 -0.08527129888534546
0.22369493544101715 0.4728682041168213 -0.06976741552352905
0.2232210487127304 0.4728682041168213 0.038759708404541016
0.22089019417762756 0.4728682041168213 0.05426359176635742
0.21823030710220337 0.4728682041168213 0.06976747512817383
0.21048004925251007 0.4728682041168213 0.08527135848999023
0.21073098480701447 0.4883720874786377 -0.14728683233261108
0.21410813927650452 0.4883720874786377 -0.13178294897079468
0.21636030077934265 0.4883720576763153 -0.11627906560897827
0.21802668273448944 0.4883720874786377 -0.10077518224716187
0.21969032287597656 0.4883720874786377 -0.08527129888534546
0.22100865840911865 0.4883720874786377 -0.06976741552352905
0.22238695621490479 0.4883720874786377 -0.05426359176635742
0.2237350046634674 0.4883720874786377 -0.038759708404541016
0.22427068650722504 0.4883720874786377 -0.02325582504272461
0.22407758235931396 0.4883720874786377 -0.007751941680908203
0.2230718433856964 0.4883720874786377 0.007751941680908203
0.22165097296237946 0.4883720874786377 0.02325582504272461
0.21993595361709595 0.4883720874786377 0.038759708404541016
0.21822136640548706 0.4883720874786377 0.05426359176635742
0.21219433844089508 0.4883720576763153 0.06976747512817383
0.21187689900398254 0.5038759708404541 -0.13178294897079468
0.21452179551124573 0.5038759708404541 -0.11627906560897827
0.21631380915641785 0.5038759708404541 -0.10077518224716187
0.21758803725242615 0.5038759708404541 -0.08527129888534546
0.2185724973678589 0.5038759708404541 -0.06976741552352905
0.21951425075531006 0.5038759708404541 -0.05426359176635742
0.2202446013689041 0.5038759708404541 -0.038759708404541016
0.2203657329082489 0.5038759708404541 -0.02325582504272461
0.22011178731918335 0.5038759708404541 -0.007751941680908203
0.21945121884346008 0.5038759708404541 0.007751941680908203
0.21874839067459106 0.5038759708404541 0.02325582504272461
0.2167954444885254 0.5038759708404541 0.038759708404541016
0.21174243092536926 0.5038759708404541 0.05426359176635742
0.20980672538280487 0.5193798542022705 -0.13178294897079468
0.2118658721446991 0.5193798542022705 -0.11627906560897827
0.213881254196167 0.5193798542022705 -0.10077518224716187
0.21543186902999878 0.5193798542022705 -0.08527129888534546
0.21637067198753357 0.5193798542022705 -0.06976741552352905
0.2170282006263733 0.5193798542022705 -0.05426359176635742
0.21748340129852295 0.5193798542022705 -0.038759708404541016
0.21758106350898743 0.5193798542022705 -0.02325582504272461
0.21749065816402435 0.5193798542022705 -0.007751941680908203
0.21648640930652618 0.5193798542022705 0.007751941680908203
0.21354004740715027 0.5193798542022705 0.02325582504272461
0.20933055877685547 0.5348837375640869 -0.11627906560897827
0.21043995022773743 0.5348837375640869 -0.10077518224716187
0.21156668663024902 0.5348837375640869 -0.08527129888534546
0.21244023740291595 0.5348837375640869 -0.06976741552352905
0.21317537128925323 0.5348837375640869 -0.05426359176635742
0.21355818212032318 0.5348837375640869 -0.038759708404541016
0.21298736333847046 0.5348837375640869 -0.02325582504272461
0.21175481379032135 0.5348837375640869 -0.007751941680908203
0.2097312957048416 0.5348837375640869 0.007751941680908203
0.22485706210136414 0.038759708404541016 0.02325582504272461
0.22550427913665771 0.038759708404541016 0.038759708404541016
0.22556407749652863 0.038759708404541016 0.05426359176635742
0.22499355673789978 0.038759712129831314 0.06976747512817383
0.22570057213306427 0.05426358804106712 0.02325582504272461
0.22631658613681793 0.05426359176635742 0.038759708404541016
0.2263317108154297 0.05426359549164772 0.05426359549164772
0.22571751475334167 0.05426359176635742 0.06976746767759323
0.2251962274312973 0.06976747512817383 0.007751941680908203
0.22662536799907684 0.06976747512817383 0.02325582504272461
0.22718359529972076 0.06976747512817383 0.038759708404541016
0.22712752223014832 0.06976747512817383 0.05426359176635742
0.22643029689788818 0.06976747512817383 0.06976747512817383
0.2251289188861847 0.06976746767759323 0.08527135848999023
0.2263585478067398 0.08527135848999023 0.007751941215246916
0.2277478575706482 0.08527135848999023 0.02325582504272461
0.22816036641597748 0.08527135848999023 0.038759708404541016
0.2280036211013794 0.08527135848999023 0.05426359176635742
0.22723525762557983 0.08527135848999023 0.06976747512817383
0.22587022185325623 0.08527135848999023 0.08527135848999023
0.22538191080093384 0.10077524185180664 -0.007751941680908203
0.22825928032398224 0.10077524185180664 0.007751941680908203
0.22929349541664124 0.10077524185180664 0.02325582504272461
0.22939220070838928 0.10077524185180664 0.038759708404541016
0.2290712296962738 0.10077524185180664 0.05426359176635742
0.22827810049057007 0.10077524930238724 0.06976747512817383
0.22683501243591309 0.10077524185180664 0.08527135848999023
0.22484707832336426 0.10077524185180664 0.10077524185180664
0.22789378464221954 0.11627912521362305 -0.007751941680908203
0.23040708899497986 0.11627912521362305 0.007751941680908203
0.23097437620162964 0.11627912521362305 0.02325582504272461
0.23076686263084412 0.11627911776304245 0.038759708404541016
0.23017467558383942 0.11627912521362305 0.05426359176635742
0.22931857407093048 0.11627912521362305 0.06976747512817383
0.22796323895454407 0.11627912521362305 0.08527135848999023
0.2258550226688385 0.11627912521362305 0.10077524185180664
0.22542215883731842 0.1317828893661499 -0.02325582504272461
0.23101204633712769 0.1317828893661499 -0.007751941680908203
0.23277470469474792 0.1317828893661499 0.007751941680908203
0.23338580131530762 0.1317828893661499 0.02325582504272461
0.23292040824890137 0.1317828893661499 0.038759708404541016
