0.11627912521362305 -0.19568900763988495 0.7829457521438599
0.11627912521362305 -0.18241436779499054 0.6434108018875122
0.11627912521362305 -0.18828392028808594 0.6589146852493286
0.11627912521362305 -0.1917850524187088 0.6744186282157898
0.11627912521362305 -0.19287748634815216 0.7984496355056763
0.11627912521362305 -0.18755033612251282 0.8139535188674927
0.11627912521362305 -0.18159276247024536 0.8294574022293091
0.11627912521362305 -0.16815398633480072 0.612403154373169
0.11627912521362305 -0.17490410804748535 0.6279069185256958
0.11627912521362305 -0.17340271174907684 0.8449612855911255
0.11627912521362305 -0.16584616899490356 0.8604651689529419
0.11627912521362305 -0.1516132950782776 0.5813953876495361
0.11627912521362305 -0.1596209853887558 0.5968992710113525
0.11627912521362305 -0.1555405557155609 0.8759689331054688
0.11627912521362305 -0.14145542681217194 0.5658915042877197
0.11627912521362305 -0.14225998520851135 0.8914728164672852
0.11627912521362305 -0.11942984163761139 0.5348837375640869
0.11627912521362305 -0.13067741692066193 0.5503876209259033
0.11627913266420364 -0.1266898661851883 0.9069766998291016
0.11627912521362305 -0.10743939876556396 0.5193798542022705
0.11627912521362305 -0.10744199901819229 0.922480583190918
0.11627912521362305 -0.09282156825065613 0.5038759708404541
0.11627912521362305 -0.07725581526756287 0.4883720874786377
0.11627912521362305 -0.08046544343233109 0.9379844665527344
0.11627912521362305 -0.05918563902378082 0.4728682041168213
0.11627912521362305 -0.03929414227604866 0.4573643207550049
0.11627912521362305 -0.03656071797013283 0.9534883499145508
0.11627912521362305 0.03397267311811447 0.4573643207550049
0.11627912521362305 0.03458954393863678 0.9534883499145508
0.11627913266420364 0.05618014186620712 0.4728682041168213
0.11627912521362305 0.07755284011363983 0.4883720874786377
0.11627912521362305 0.08116654306650162 0.9379844665527344
0.11627912521362305 0.09529034048318863 0.5038759708404541
0.11627912521362305 0.11044695973396301 0.5193798542022705
0.11627912521362305 0.10919387638568878 0.922480583190918
0.11627912521362305 0.12284038960933685 0.5348837375640869
0.11627912521362305 0.12838591635227203 0.9069766998291016
0.11627912521362305 0.13337372243404388 0.5503876209259033
0.11627912521362305 0.143631711602211 0.5658915042877197
0.11627912521362305 0.14440400898456573 0.8914728164672852
0.11627913266420364 0.1539151668548584 0.5813953876495361
0.11627912521362305 0.16243408620357513 0.5968992710113525
0.11627912521362305 0.15845122933387756 0.8759689331054688
0.11627912521362305 0.1710468828678131 0.612403154373169
0.11627912521362305 0.17757628858089447 0.6279069185256958
0.11627912521362305 0.17726902663707733 0.8449612855911255
0.11627912521362305 0.16988590359687805 0.8604651689529419
0.11627912521362305 0.18487712740898132 0.6434108018875122
0.11627912521362305 0.18970678746700287 0.6589146852493286
0.11627912521362305 0.1936110258102417 0.674418568611145
0.11627912521362305 0.19095586240291595 0.8139535188674927
0.11627912521362305 0.18565905094146729 0.8294574022293091
0.11627912521362305 0.1990153044462204 0.6899224519729614
0.11627912521362305 0.20195457339286804 0.7054263353347778
0.11627912521362305 0.2039562165737152 0.7209302186965942
0.11627912521362305 0.2049192190170288 0.7364341020584106
0.11627912521362305 0.2047349512577057 0.751937985420227
0.11627912521362305 0.20338386297225952 0.7674418687820435
0.11627912521362305 0.20074552297592163 0.7829457521438599
0.11627912521362305 0.1955064833164215 0.7984496355056763
0.11627912521362305 0.2972526550292969 -0.9844961166381836
0.11627912521362305 0.2914038598537445 -0.9689922332763672
0.11627912521362305 0.2906089127063751 -0.9534883499145508
0.11627911776304245 0.2901906371116638 -0.9379844665527344
0.1317828893661499 -0.2824631333351135 -0.9844961166381836
0.1317828893661499 -0.27547487616539 -0.9689922332763672
0.1317828893661499 -0.2749464511871338 -0.9534883499145508
0.1317828893661499 -0.2744901478290558 -0.9379844665527344
0.1317828893661499 -0.1837347000837326 0.674418568611145
0.1317828893661499 -0.1875225305557251 0.6899224519729614
0.1317828893661499 -0.18962210416793823 0.7054263353347778
0.1317828893661499 -0.19074612855911255 0.7209302186965942
0.1317828893661499 -0.19131551682949066 0.7364341020584106
0.1317828893661499 -0.19109877943992615 0.751937985420227
0.1317828893661499 -0.18960155546665192 0.7674418687820435
0.1317828893661499 -0.1864834725856781 0.7829457521438599
0.1317828893661499 -0.18240010738372803 0.7984496355056763
0.1317828893661499 -0.1651635318994522 0.6279069185256958
0.1317828893661499 -0.17241604626178741 0.6434108018875122
0.1317828893661499 -0.17742955684661865 0.6589146852493286
0.1317828893661499 -0.17822624742984772 0.8139535188674927
0.1317828893661499 -0.1712619662284851 0.8294574022293091
0.1317828893661499 -0.16435687243938446 0.8449612855911255
0.1317828893661499 -0.14882884919643402 0.5968992710113525
0.1317828893661499 -0.15703389048576355 0.612403154373169
0.1317828893661499 -0.15479660034179688 0.8604651689529419
0.1317828893661499 -0.13957412540912628 0.5813953876495361
0.1317828893661499 -0.14280827343463898 0.8759689331054688
0.1317828893661499 -0.11673025786876678 0.5503876209259033
0.1317828893661499 -0.12828651070594788 0.5658915042877197
0.1317828893661499 -0.1286592334508896 0.8914728164672852
0.1317828893661499 -0.10423470288515091 0.5348837375640869
0.1317828893661499 -0.11177539825439453 0.9069766998291016
0.1317828893661499 -0.09064143896102905 0.5193798542022705
0.1317828893661499 -0.08890766650438309 0.922480583190918
0.1317828893661499 -0.07283347845077515 0.5038759708404541
0.1317828893661499 -0.05490334704518318 0.9379844665527344
0.1317828893661499 -0.049300700426101685 0.4883720874786377
0.1317828893661499 0.04310039430856705 0.4883720874786377
0.1317828893661499 0.0538480281829834 0.9379844665527344
0.1317828893661499 0.06870933622121811 0.5038759708404541
0.1317828893661499 0.08982153236865997 0.5193798542022705
0.1317828893661499 0.09034616500139236 0.922480583190918
0.1317828893661499 0.10534854978322983 0.5348837375640869
0.1317828893661499 0.1126764565706253 0.9069766998291016
0.1317828893661499 0.11797967553138733 0.5503876209259033
0.1317828893661499 0.12971749901771545 0.5658915042877197
0.1317828893661499 0.13058389723300934 0.8914728164672852
0.1317828893661499 0.1408986896276474 0.5813953876495361
0.1317828893661499 0.1454302966594696 0.8759689331054688
0.1317828893661499 0.15046702325344086 0.5968992710113525
0.1317828893661499 0.1591656506061554 0.612403154373169
0.1317828893661499 0.1575804203748703 0.8604651689529419
0.1317828893661499 0.16803976893424988 0.6279069185256958
0.1317828893661499 0.17432023584842682 0.6434108018875122
0.1317828893661499 0.17423084378242493 0.8294574022293091
0.1317828893661499 0.16717304289340973 0.8449612855911255
0.1317828893661499 0.17990842461585999 0.6589146256446838
0.1317828893661499 0.18555648624897003 0.674418568611145
0.1317828893661499 0.18954573571681976 0.6899224519729614
0.1317828893661499 0.1915835738182068 0.7054263353347778
0.1317828893661499 0.19306649267673492 0.7209302186965942
0.1317828893661499 0.19288848340511322 0.7674418687820435
0.1317828893661499 0.19034449756145477 0.7829457521438599
0.1317828893661499 0.18640053272247314 0.7984496355056763
0.1317828893661499 0.1802854835987091 0.8139535188674927
0.1317828893661499 0.1941538155078888 0.7364341020584106
0.1317828893661499 0.1939338743686676 0.7519379258155823
0.1317828893661499 0.2860395014286041 -0.9689922332763672
0.1317828893661499 0.28272923827171326 -0.9534883499145508
0.1317828893661499 0.28212684392929077 -0.9379844665527344
0.1317828893661499 0.29293909668922424 -0.9844961166381836
0.1472867727279663 -0.2768678069114685 -0.9844961166381836
0.1472867727279663 -0.26825299859046936 -0.9689922332763672
0.1472867727279663 -0.26598459482192993 -0.9534883499145508
0.1472867727279663 -0.26490503549575806 -0.9379844665527344
0.1472867727279663 -0.1787377893924713 0.7209302186965942
0.1472867727279663 -0.17931585013866425 0.7364341020584106
0.1472867727279663 -0.17884407937526703 0.751937985420227
0.1472867727279663 -0.16642606258392334 0.6589146852493286
0.1472867727279663 -0.17249272763729095 0.674418568611145
0.1472867727279663 -0.17538948357105255 0.6899224519729614
0.1472867727279663 -0.1772535741329193 0.7054263353347778
0.1472867876291275 -0.1780119389295578 0.7674419283866882
0.1472867727279663 -0.17578361928462982 0.7829458117485046
0.1472867727279663 -0.17107361555099487 0.7984496355056763
0.1472867727279663 -0.16652879118919373 0.8139535188674927
0.1472867727279663 -0.15221869945526123 0.6279069185256958
0.1472867727279663 -0.15914690494537354 0.6434108018875122
0.1472867727279663 -0.15948018431663513 0.8294574022293091
0.1472867727279663 -0.15262196958065033 0.8449612855911255
0.1472867727279663 -0.13350342214107513 0.5968992710113525
0.1472867727279663 -0.14283940196037292 0.612403154373169
0.1472867727279663 -0.14112266898155212 0.8604651689529419
0.1472867727279663 -0.12368722259998322 0.5813953876495361
0.1472867727279663 -0.1283726692199707 0.8759689927101135
0.1472867727279663 -0.11143480241298676 0.5658915042877197
0.1472867727279663 -0.11257598549127579 0.8914728164672852
0.1472867727279663 -0.0979214757680893 0.5503876209259033
0.1472867727279663 -0.09306275844573975 0.9069766998291016
0.1472867727279663 -0.08282607048749924 0.5348837375640869
0.1472867727279663 -0.06288771331310272 0.5193798542022705
0.1472867727279663 -0.06428854167461395 0.922480583190918
0.1472867727279663 0.05717488005757332 0.5193798542022705
0.1472867727279663 0.06392265856266022 0.922480583190918
0.1472867727279663 0.08151517808437347 0.5348837375640869
0.1472867727279663 0.09824838489294052 0.5503876209259033
0.1472867727279663 0.0937386006116867 0.9069766998291016
0.1472867727279663 0.11239573359489441 0.5658915042877197
0.1472867727279663 0.11354381591081619 0.8914728164672852
0.1472867727279663 0.12485618889331818 0.5813953876495361
0.1472867727279663 0.1302768588066101 0.8759689331054688
0.1472867727279663 0.13542671501636505 0.5968992710113525
0.1472867727279663 0.14548389613628387 0.612403154373169
0.1472867727279663 0.14321526885032654 0.8604651689529419
0.1472867727279663 0.15548577904701233 0.6279069185256958
0.1472867727279663 0.16224825382232666 0.6434108018875122
0.1472867727279663 0.16211409866809845 0.8294574022293091
0.1472867727279663 0.15432029962539673 0.8449612855911255
0.1472867727279663 0.16948920488357544 0.6589146852493286
0.1472867727279663 0.1743427962064743 0.674418568611145
0.1472867727279663 0.17757095396518707 0.6899224519729614
0.1472867727279663 0.17442630231380463 0.7984496355056763
0.1472867727279663 0.16918185353279114 0.8139535188674927
0.1472867727279663 0.1811492145061493 0.7054263353347778
0.1472867727279663 0.18376955389976501 0.7209302186965942
0.1472867727279663 0.18500390648841858 0.7364341020584106
0.1472867727279663 0.18431904911994934 0.751937985420227
0.1472867727279663 0.18181076645851135 0.7674419283866882
0.1472867727279663 0.1784094274044037 0.7829457521438599
0.1472867727279663 0.280705988407135 -0.9844961166381836
0.1472867727279663 0.2748451232910156 -0.9689922332763672
0.1472867727279663 0.27318644523620605 -0.953488290309906
0.1472867727279663 0.2726607024669647 -0.9379844665527344
0.16279065608978271 -0.26425445079803467 -0.9844961166381836
0.16279065608978271 -0.2578275203704834 -0.9689922332763672
0.16279065608978271 -0.2563043236732483 -0.9534883499145508
0.16279065608978271 -0.25604915618896484 -0.9379844665527344
0.16279065608978271 -0.16436493396759033 0.7054263353347778
0.16279065608978271 -0.16649281978607178 0.7209302186965942
0.16279065608978271 -0.16704432666301727 0.7364341020584106
0.16279065608978271 -0.16624104976654053 0.751937985420227
0.16279065608978271 -0.16485704481601715 0.7674418687820435
0.16279065608978271 -0.1629675030708313 0.7829457521438599
0.16279065608978271 -0.15190668404102325 0.6589146852493286
0.16279065608978271 -0.15819400548934937 0.674418568611145
0.16279065608978271 -0.16144707798957825 0.6899224519729614
0.16279065608978271 -0.15823841094970703 0.7984496355056763
0.16279065608978271 -0.1532370150089264 0.8139535188674927
0.16279065608978271 -0.13505294919013977 0.6279069185256958
0.16279065608978271 -0.14360541105270386 0.6434108018875122
0.16279065608978271 -0.14714191854000092 0.8294574022293091
0.16279065608978271 -0.13779179751873016 0.8449612855911255
0.16279065608978271 -0.12504026293754578 0.612403154373169
0.16279065608978271 -0.1253751516342163 0.8604651689529419
0.16279065608978271 -0.10194311290979385 0.5813953876495361
0.16279065608978271 -0.11375554651021957 0.5968992710113525
0.16279065608978271 -0.11050781607627869 0.8759689927101135
0.16279065608978271 -0.08753921836614609 0.5658915042877197
0.16279065608978271 -0.09217934310436249 0.8914728164672852
0.16279065608978271 -0.06987204402685165 0.5503876209259033
0.16279065608978271 -0.06611623615026474 0.9069766998291016
0.16279065608978271 -0.04075354337692261 0.5348837375640869
0.16279065608978271 0.034258536994457245 0.5348837375640869
0.16279065608978271 0.06899601221084595 0.5503876209259033
0.16279065608978271 0.06597301363945007 0.9069766998291016
0.16279065608978271 0.0885256975889206 0.5658915042877197
0.16279065608978271 0.09300939738750458 0.8914728164672852
0.16279065608978271 0.10354246199131012 0.5813953876495361
0.16279065608978271 0.1113191694021225 0.8759689331054688
0.16279064118862152 0.11653836071491241 0.5968992710113525
0.16279065608978271 0.1287609487771988 0.612403154373169
0.16279065608978271 0.1263790726661682 0.8604651689529419
0.16279065608978271 0.14005863666534424 0.6279069185256958
0.16279065608978271 0.13884758949279785 0.8449612855911255
0.16279065608978271 0.14836660027503967 0.6434108018875122
0.16279065608978271 0.15654316544532776 0.6589146852493286
0.16279065608978271 0.1610478311777115 0.674418568611145
0.16279065608978271 0.16140644252300262 0.7984496355056763
0.16279065608978271 0.15575473010540009 0.8139535188674927
0.16279065608978271 0.1482546180486679 0.8294574022293091
0.16279065608978271 0.16615787148475647 0.6899224519729614
0.16279065608978271 0.1697186827659607 0.7054263353347778
0.16279065608978271 0.1717587560415268 0.7209302186965942
0.16279065608978271 0.1727297008037567 0.7364341020584106
0.16279065608978271 0.1719636619091034 0.751937985420227
0.16279065608978271 0.17000126838684082 0.7674418687820435
0.16279065608978271 0.16580228507518768 0.7829457521438599
0.16279065608978271 0.2652994990348816 -0.9689922332763672
0.16279065608978271 0.2639554440975189 -0.9534883499145508
0.16279065608978271 0.26298755407333374 -0.9379844665527344
0.1627906709909439 0.27383244037628174 -0.9844961166381836
0.17829453945159912 -0.25405097007751465 -0.9844961166381836
0.17829453945159912 -0.24588093161582947 -0.9689922332763672
0.17829453945159912 -0.24562887847423553 -0.9534883499145508
0.17829453945159912 -0.24511900544166565 -0.9379844665527344
0.17829453945159912 -0.14972414076328278 0.7054263353347778
0.17829453945159912 -0.15196192264556885 0.7209302186965942
0.17829453945159912 -0.15261825919151306 0.7364341020584106
0.17829453945159912 -0.15203317999839783 0.751937985420227
0.17829453945159912 -0.150416761636734 0.7674418687820435
0.17829453945159912 -0.1483287662267685 0.7829457521438599
0.17829453945159912 -0.13514474034309387 0.6589146852493286
0.17829453945159912 -0.14255158603191376 0.674418568611145
0.17829453945159912 -0.14627288281917572 0.6899223923683167
0.17829453945159912 -0.143438920378685 0.798449695110321
0.17829453945159912 -0.13757452368736267 0.8139535188674927
0.17829453945159912 -0.12628743052482605 0.6434108018875122
0.17829453945159912 -0.12979929149150848 0.8294574022293091
0.17829453945159912 -0.12047672271728516 0.8449612855911255
0.17829453945159912 -0.10366025567054749 0.612403154373169
0.17829453945159912 -0.11518867313861847 0.6279069185256958
0.17829453945159912 -0.10607238113880157 0.8604651689529419
0.17829453945159912 -0.09037552773952484 0.5968992710113525
0.17829453945159912 -0.08678445965051651 0.8759689331054688
0.17829453945159912 -0.0748078003525734 0.5813953876495361
0.17829453945159912 -0.06270340085029602 0.8914728164672852
0.17829453945159912 -0.05246397852897644 0.5658915042877197
0.17829453945159912 0.05315335839986801 0.5658915042877197
0.17829453945159912 0.06344151496887207 0.8914728164672852
0.17829453945159912 0.07714703679084778 0.5813953876495361
0.17829453945159912 0.09396034479141235 0.5968992710113525
0.17829453945159912 0.08869826048612595 0.8759689331054688
0.17829453945159912 0.108673095703125 0.612403154373169
0.17829453945159912 0.10611270368099213 0.8604651689529419
0.17829453945159912 0.12127703428268433 0.6279069185256958
0.17829453945159912 0.13155098259449005 0.6434108018875122
0.17829453945159912 0.1311376541852951 0.8294574022293091
0.17829453945159912 0.12016739696264267 0.8449612855911255
0.17829453945159912 0.1409328281879425 0.6589146852493286
0.17829453945159912 0.14612792432308197 0.674418568611145
0.17829453945159912 0.14614321291446686 0.7984496355056763
0.17829453945159912 0.13941043615341187 0.8139535188674927
0.17829453945159912 0.1518363654613495 0.6899224519729614
0.17829453945159912 0.15553012490272522 0.7054263353347778
0.17829453945159912 0.15750573575496674 0.7209302186965942
0.17829453945159912 0.15835115313529968 0.7364341020584106
0.17829453945159912 0.1574983149766922 0.751937985420227
0.17829453945159912 0.15505972504615784 0.7674418687820435
0.17829453945159912 0.15083640813827515 0.7829457521438599
0.17829453945159912 0.25345155596733093 -0.9534883499145508
0.17829453945159912 0.25280851125717163 -0.9379844665527344
0.17829453945159912 0.2633018493652344 -0.9844960570335388
0.17829453945159912 0.25671011209487915 -0.968992292881012
0.19379842281341553 -0.24586936831474304 -0.9844961166381836
0.19379842281341553 -0.2368127405643463 -0.9689921736717224
0.19379842281341553 -0.23519748449325562 -0.9534884095191956
0.19379842281341553 -0.2340955287218094 -0.9379844665527344
0.19379842281341553 -0.13321968913078308 0.7209302186965942
0.19379842281341553 -0.13415469229221344 0.7364341020584106
0.19379842281341553 -0.13370023667812347 0.751937985420227
0.19379842281341553 -0.1324969232082367 0.7674418687820435
0.19379842281341553 -0.12393012642860413 0.674418568611145
0.19379842281341553 -0.12848198413848877 0.6899224519729614
0.19379842281341553 -0.1309419721364975 0.7054263353347778
0.19379840791225433 -0.1300431340932846 0.7829457521438599
0.19379842281341553 -0.12344586849212646 0.7984496355056763
0.19379842281341553 -0.11817202717065811 0.8139535188674927
0.19379842281341553 -0.10424445569515228 0.6434108018875122
0.19379842281341553 -0.11399421095848083 0.6589146852493286
0.19379842281341553 -0.10724477469921112 0.8294574022293091
0.19379842281341553 -0.09210284799337387 0.6279069185256958
0.19379842281341553 -0.09380466490983963 0.8449612855911255
0.19379842281341553 -0.07752148061990738 0.612403154373169
0.19379842281341553 -0.0767943412065506 0.8604651689529419
0.19379842281341553 -0.058833956718444824 0.5968992710113525
0.19379842281341553 -0.05173616483807564 0.875968873500824
0.19379842281341553 -0.026270834729075432 0.5813953876495361
0.19379842281341553 0.027011962607502937 0.5813953876495361
0.19379842281341553 0.053393762558698654 0.8759689331054688
0.19379842281341553 0.0628572627902031 0.5968992710113525
0.19379842281341553 0.08252383023500443 0.612403154373169
0.19379842281341553 0.07730171829462051 0.8604651689529419
0.19379842281341553 0.09778779745101929 0.6279069185256958
0.19379842281341553 0.09430218487977982 0.8449612855911255
0.19379842281341553 0.1105538010597229 0.6434108018875122
0.19379842281341553 0.10795233398675919 0.8294574022293091
0.19379842281341553 0.11948985606431961 0.6589146852493286
0.19379842281341553 0.12797915935516357 0.674418568611145
0.19379842281341553 0.12670624256134033 0.7984496355056763
0.19379842281341553 0.11848893016576767 0.8139535188674927
0.19379842281341553 0.13273541629314423 0.6899224519729614
0.19379842281341553 0.13691221177577972 0.7054263353347778
0.19379842281341553 0.13930007815361023 0.7209302186965942
0.19379842281341553 0.14019106328487396 0.7364341020584106
0.19379842281341553 0.1389453411102295 0.751937985420227
0.19379842281341553 0.13613790273666382 0.7674418687820435
0.19379842281341553 0.13209925591945648 0.7829457521438599
0.19379842281341553 0.2502557039260864 -0.9844961166381836
0.19379842281341553 0.24420343339443207 -0.9689922332763672
0.19379842281341553 0.24226605892181396 -0.9534883499145508
0.19379842281341553 0.24192772805690765 -0.9379844665527344
0.20930230617523193 -0.23212066292762756 -0.9844961166381836
0.20930230617523193 -0.22516056895256042 -0.9689922332763672
0.20930230617523193 -0.2224121391773224 -0.9534883499145508
0.20930230617523193 -0.22173845767974854 -0.9379844665527344
0.20930230617523193 -0.10082585364580154 0.6899224519729614
0.20930230617523193 -0.10730601847171783 0.7054263353347778
0.20930230617523193 -0.11012960225343704 0.7209302186965942
0.20930230617523193 -0.11107946932315826 0.7364341020584106
0.20930230617523193 -0.11039718985557556 0.751937985420227
0.20930230617523193 -0.10735061764717102 0.7674418687820435
0.20930230617523193 -0.10359804332256317 0.7829457521438599
0.20930230617523193 -0.09499912708997726 0.674418568611145
0.20930230617523193 -0.09728425741195679 0.798449695110321
0.20930230617523193 -0.08871930837631226 0.8139535188674927
0.20930230617523193 -0.07231909036636353 0.6434108018875122
0.20930230617523193 -0.08380894362926483 0.6589146852493286
0.20930230617523193 -0.07599291205406189 0.8294574022293091
0.20930230617523193 -0.05669160559773445 0.6279069185256958
0.20930230617523193 -0.059124477207660675 0.8449612855911255
0.20930230617523193 -0.03162927180528641 0.612403154373169
0.20930230617523193 -0.02670268714427948 0.8604651689529419
0.20930230617523193 0.03674588352441788 0.612403154373169
0.20930230617523193 0.02613620087504387 0.8604651689529419
0.20930230617523193 0.06249520927667618 0.6279069185256958
0.20930230617523193 0.05864602327346802 0.8449612855911255
0.20930230617523193 0.07906299084424973 0.6434108018875122
0.20930230617523193 0.07663966715335846 0.8294574022293091
0.20930230617523193 0.09158921241760254 0.6589146852493286
0.20930230617523193 0.10044746100902557 0.674418568611145
0.20930230617523193 0.10040657222270966 0.7984496355056763
0.20930230617523193 0.09002348780632019 0.8139535188674927
0.20930230617523193 0.10881969332695007 0.6899224519729614
0.20930230617523193 0.11326319724321365 0.7054263353347778
0.20930230617523193 0.11484172195196152 0.7209302186965942
0.20930230617523193 0.11541813611984253 0.7364341020584106
0.20930230617523193 0.11493398994207382 0.751937985420227
0.20930230617523193 0.1129554808139801 0.7674418687820435
0.20930230617523193 0.10772962123155594 0.7829457521438599
0.20930230617523193 0.23816953599452972 -0.9844961166381836
0.20930230617523193 0.23121270537376404 -0.9689922332763672
0.20930230617523193 0.22987408936023712 -0.9534883499145508
0.20930230617523193 0.2293504774570465 -0.9379844665527344
0.22480618953704834 -0.21719713509082794 -0.9844961166381836
0.22480618953704834 -0.21007224917411804 -0.9689922332763672
0.22480618953704834 -0.2076461911201477 -0.9534883499145508
0.22480618953704834 -0.2074078619480133 -0.9379844665527344
0.22480618953704834 -0.0731797069311142 0.7209302186965942
0.22480618953704834 -0.07531014829874039 0.7364341020584106
0.22480618953704834 -0.07503131031990051 0.751937985420227
0.22480618953704834 -0.07215739041566849 0.7674418687820435
0.22480618953704834 -0.06348974257707596 0.6899224519729614
0.22480618953704834 -0.06885258853435516 0.7054263949394226
0.22480618953704834 -0.0678633600473404 0.7829457521438599
0.22480618953704834 -0.0586361363530159 0.7984496355056763
0.22480618953704834 -0.05275437608361244 0.674418568611145
0.22480618953704834 -0.04591120034456253 0.8139535188674927
0.22480618953704834 -0.03661772981286049 0.6589146852493286
0.22480618953704834 -0.011521697044372559 0.8294574022293091
0.22480618953704834 0.01009689923375845 0.8294574022293091
0.22480618953704834 0.04174545779824257 0.6589146852493286
0.22480618953704834 0.04472467303276062 0.8139535188674927
0.22480618953704834 0.0593688003718853 0.674418568611145
0.22480618953704834 0.06075070798397064 0.7984496355056763
0.22480620443820953 0.07033079862594604 0.6899224519729614
0.22480618953704834 0.07714221626520157 0.7054263353347778
0.22480618953704834 0.08078376948833466 0.7209302186965942
0.22480618953704834 0.08220487087965012 0.7364341020584106
0.22480618953704834 0.08164546638727188 0.751937985420227
0.22480618953704834 0.07803928852081299 0.7674418687820435
0.22480618953704834 0.07176356762647629 0.7829457521438599
0.22480618953704834 0.21709448099136353 -0.9689922332763672
0.22480618953704834 0.21547698974609375 -0.9534883499145508
0.22480618953704834 0.2149202823638916 -0.9379844665527344
0.22480618953704834 0.2250606268644333 -0.9844961166381836
0.24031007289886475 -0.2006557583808899 -0.9844961166381836
0.24031007289886475 -0.19252759218215942 -0.9689922332763672
0.24031007289886475 -0.18986308574676514 -0.9534883499145508
0.24031007289886475 -0.18967649340629578 -0.9379844665527344
0.24031007289886475 0.20544180274009705 -0.9844961166381836
0.24031007289886475 0.19800595939159393 -0.9689922332763672
0.24031008780002594 0.1959332674741745 -0.9534883499145508
0.24031007289886475 0.19587698578834534 -0.9379844665527344
0.25581395626068115 -0.180451899766922 -0.9844961166381836
0.25581395626068115 -0.17041513323783875 -0.9689922332763672
0.25581395626068115 -0.1691412627696991 -0.9534883499145508
0.25581395626068115 -0.16939613223075867 -0.9379844665527344
0.25581395626068115 0.17568276822566986 -0.9534883499145508
0.25581395626068115 0.17590153217315674 -0.9379844665527344
0.25581395626068115 0.18561774492263794 -0.9844961166381836
0.25581395626068115 0.1789228320121765 -0.9689922332763672
0.27131783962249756 -0.15687519311904907 -0.9844961166381836
0.27131783962249756 -0.14873899519443512 -0.9689922332763672
0.27131783962249756 -0.14744994044303894 -0.9379844665527344
0.27131780982017517 -0.1463048756122589 -0.9534883499145508
0.27131783962249756 0.16278639435768127 -0.9844961166381836
0.27131783962249756 0.15393027663230896 -0.9689922332763672
0.27131783962249756 0.15286505222320557 -0.9534883499145508
0.27131783962249756 0.15318241715431213 -0.9379844665527344
0.28682172298431396 -0.13116885721683502 -0.9844961166381836
0.28682172298431396 -0.12120409309864044 -0.9689922332763672
0.28682172298431396 -0.11929969489574432 -0.9534883499145508
0.28682172298431396 -0.11995053291320801 -0.9379844665527344
0.28682172298431396 0.1302531212568283 -0.9689922332763672
0.28682172298431396 0.1272590309381485 -0.9534883499145508
0.28682172298431396 0.12778261303901672 -0.9379844665527344
0.28682172298431396 0.1381591260433197 -0.9844961166381836
0.30232560634613037 -0.09832736849784851 -0.9844961762428284
0.30232560634613037 -0.08653721213340759 -0.9689922332763672
0.30232560634613037 -0.08333154022693634 -0.953488290309906
0.30232560634613037 -0.08422736823558807 -0.9379844665527344
0.30232560634613037 0.094329833984375 -0.9689922332763672
0.30232560634613037 0.09047416597604752 -0.9534883499145508
0.30232560634613037 0.09127026796340942 -0.9379844665527344
0.30232560634613037 0.10599799454212189 -0.9844961166381836
0.3178294897079468 -0.03950803354382515 -0.9844961166381836
0.3178294897079468 -0.008208260871469975 -0.9689922332763672
0.3178294897079468 0.01141318678855896 -0.9689922332763672
0.3178294897079468 0.04425359517335892 -0.9844961166381836
-0.317829430103302 -0.02325582504272461 -0.9857999086380005
-0.317829430103302 -0.02325582504272461 -0.9768999814987183
-0.317829430103302 -0.007751941680908203 -0.9877148270606995
-0.317829430103302 -0.007751941680908203 -0.9708759784698486
-0.317829430103302 0.007751941680908203 -0.9878390431404114
-0.317829430103302 0.007751941680908203 -0.9706218838691711
-0.317829430103302 0.02325582504272461 -0.9864972829818726
-0.317829430103302 0.02325582504272461 -0.9745312929153442
-0.30232560634613037 -0.08527129888534546 -0.9896366596221924
-0.30232560634613037 -0.08527129888534546 -0.9693666696548462
-0.30232560634613037 -0.06976741552352905 -0.9917315244674683
-0.30232560634613037 -0.06976741552352905 -0.9310762882232666
-0.30232560634613037 -0.05426359176635742 -0.9920095205307007
-0.30232560634613037 -0.05426359176635742 -0.9273773431777954
-0.30232560634613037 -0.038759708404541016 -0.9920459985733032
-0.30232560634613037 -0.038759708404541016 -0.9271562695503235
-0.30232560634613037 -0.02325582504272461 -0.9920323491096497
-0.30232560634613037 -0.02325582504272461 -0.9280340671539307
-0.30232560634613037 -0.007751941680908203 -0.9920061826705933
-0.30232560634613037 -0.007751941680908203 -0.928755521774292
-0.30232560634613037 0.007751941680908203 -0.9920061826705933
-0.30232560634613037 0.007751941680908203 -0.9289177060127258
-0.30232560634613037 0.02325582504272461 -0.9920117259025574
-0.30232560634613037 0.02325582504272461 -0.9286031723022461
-0.30232560634613037 0.038759708404541016 -0.9920198917388916
-0.30232560634613037 0.038759708404541016 -0.9280064702033997
-0.30232560634613037 0.05426359176635742 -0.9919776916503906
-0.30232560634613037 0.05426359176635742 -0.928054690361023
-0.30232560634613037 0.06976747512817383 -0.9917629957199097
-0.30232560634613037 0.06976747512817383 -0.931045651435852
-0.30232560634613037 0.08527135848999023 -0.9905267357826233
-0.30232560634613037 0.08527135848999023 -0.9586066007614136
-0.28682172298431396 -0.11627906560897827 -0.9915153980255127
-0.28682172298431396 -0.11627906560897827 -0.9347931146621704
-0.28682172298431396 -0.10077518224716187 -0.9920467138290405
-0.28682172298431396 -0.10077518224716187 -0.9266296029090881
-0.28682172298431396 -0.08527129888534546 -0.9920604825019836
-0.28682172298431396 -0.08527129888534546 -0.9272230863571167
-0.28682172298431396 -0.06976741552352905 -0.992022693157196
-0.28682172298431396 -0.06976741552352905 -0.9287473559379578
-0.28682172298431396 -0.05426359176635742 -0.9919869303703308
-0.28682172298431396 -0.05426359176635742 -0.9299079775810242
-0.28682172298431396 -0.038759708404541016 -0.9919547438621521
-0.28682172298431396 -0.038759708404541016 -0.9306168556213379
-0.28682172298431396 -0.02325582504272461 -0.9919273257255554
-0.28682172298431396 -0.02325582504272461 -0.9311091303825378
-0.28682172298431396 -0.007751941680908203 -0.9918969869613647
-0.28682172298431396 -0.007751941680908203 -0.9313623309135437
-0.28682172298431396 0.007751941680908203 -0.99189293384552
-0.28682172298431396 0.007751941680908203 -0.931545078754425
-0.28682172298431396 0.02325582504272461 -0.9918984174728394
-0.28682172298431396 0.02325582504272461 -0.9315593838691711
-0.28682172298431396 0.038759708404541016 -0.9919213652610779
-0.28682172298431396 0.038759708404541016 -0.9312766790390015
-0.28682172298431396 0.05426359176635742 -0.9919413328170776
-0.28682172298431396 0.05426359176635742 -0.9308398365974426
-0.28682172298431396 0.06976747512817383 -0.9919764995574951
-0.28682172298431396 0.06976747512817383 -0.9302076101303101
-0.28682172298431396 0.08527135848999023 -0.9920110702514648
-0.28682172298431396 0.08527135848999023 -0.9290249943733215
-0.28682172298431396 0.10077524185180664 -0.9919902086257935
-0.28682172298431396 0.10077524185180664 -0.927997350692749
-0.28682172298431396 0.11627912521362305 -0.9915819764137268
-0.28682172298431396 0.11627912521362305 -0.9334028959274292
-0.28682172298431396 0.1317828893661499 -0.9854186177253723
-0.28682172298431396 0.1317828893661499 -0.9791340827941895
-0.27131783962249756 -0.14728683233261108 -0.9908910989761353
-0.27131783962249756 -0.14728683233261108 -0.9615666270256042
-0.27131783962249756 -0.13178294897079468 -0.9920353889465332
-0.27131783962249756 -0.13178294897079468 -0.9274832010269165
-0.27131783962249756 -0.11627906560897827 -0.9920485019683838
-0.27131783962249756 -0.11627906560897827 -0.9281778931617737
-0.27131783962249756 -0.10077518224716187 -0.9920040369033813
-0.27131783962249756 -0.10077518224716187 -0.9298772811889648
-0.27131783962249756 -0.08527129888534546 -0.9919613599777222
-0.27131783962249756 -0.08527129888534546 -0.930863082408905
-0.27131783962249756 -0.06976741552352905 -0.9919312000274658
-0.27131783962249756 -0.06976741552352905 -0.9314239025115967
-0.27131783962249756 -0.05426359176635742 -0.9919012188911438
-0.27131783962249756 -0.05426358804106712 -0.9317898750305176
-0.27131783962249756 -0.038759708404541016 -0.991868257522583
-0.27131783962249756 -0.038759708404541016 -0.9319961071014404
-0.27131783962249756 -0.02325582504272461 -0.991834819316864
-0.27131783962249756 -0.02325582504272461 -0.93217533826828
-0.27131783962249756 -0.007751941680908203 -0.9917975664138794
-0.27131783962249756 -0.007751941680908203 -0.9322818517684937
-0.27131783962249756 0.007751941680908203 -0.9917894601821899
-0.27131783962249756 0.007751941680908203 -0.9323303699493408
-0.27131783962249756 0.02325582504272461 -0.9917966723442078
-0.27131783962249756 0.02325582504272461 -0.9322941303253174
-0.27131783962249756 0.038759708404541016 -0.9918174147605896
-0.27131783962249756 0.038759708404541016 -0.932098388671875
-0.27131783962249756 0.05426359176635742 -0.9918326735496521
-0.27131783962249756 0.05426359176635742 -0.9319514036178589
-0.27131783962249756 0.06976747512817383 -0.9918603301048279
-0.27131783962249756 0.06976747512817383 -0.9318674206733704
-0.27131783962249756 0.08527135848999023 -0.9918946623802185
-0.27131783962249756 0.08527135848999023 -0.9315440654754639
-0.27131783962249756 0.10077524185180664 -0.9919309020042419
-0.27131783962249756 0.10077524185180664 -0.9307171106338501
-0.27131783962249756 0.11627912521362305 -0.9919813871383667
-0.27131783962249756 0.11627912521362305 -0.9295046329498291
-0.27131783962249756 0.1317828893661499 -0.9919805526733398
-0.27131783962249756 0.1317828893661499 -0.9283435344696045
-0.27131783962249756 0.1472867727279663 -0.9913564920425415
-0.27131783962249756 0.1472867727279663 -0.9353631734848022
-0.25581395626068115 -0.1627907156944275 -0.9918584227561951
-0.25581395626068115 -0.1627907156944275 -0.9319963455200195
-0.25581395626068115 -0.14728683233261108 -0.992056667804718
-0.25581395626068115 -0.14728683233261108 -0.9278002977371216
-0.25581395626068115 -0.13178294897079468 -0.9919999241828918
-0.25581395626068115 -0.13178294897079468 -0.9298332333564758
-0.25581395626068115 -0.11627906560897827 -0.9919461607933044
-0.25581395626068115 -0.11627906560897827 -0.9310048818588257
-0.25581395626068115 -0.10077518224716187 -0.9919170141220093
-0.25581395626068115 -0.10077518224716187 -0.9315627813339233
-0.25581395626068115 -0.08527129888534546 -0.991887629032135
-0.25581395626068115 -0.08527129888534546 -0.931708037853241
-0.25581395626068115 -0.06976741552352905 -0.9918675422668457
-0.25581395626068115 -0.06976741552352905 -0.9318251609802246
-0.25581395626068115 -0.05426359176635742 -0.9918432235717773
-0.25581395626068115 -0.05426359176635742 -0.9320266246795654
-0.25581395626068115 -0.038759708404541016 -0.9918143153190613
-0.25581395626068115 -0.038759708404541016 -0.9322379231452942
-0.25581395626068115 -0.02325582504272461 -0.9917818307876587
-0.25581395626068115 -0.02325582504272461 -0.9324666261672974
-0.25581395626068115 -0.007751941680908203 -0.9917442202568054
-0.25581395626068115 -0.007751941215246916 -0.9325563907623291
-0.25581395626068115 0.007751941680908203 -0.9917365908622742
-0.25581395626068115 0.007751941215246916 -0.9324100613594055
-0.25581395626068115 0.02325582504272461 -0.991745114326477
-0.25581395626068115 0.02325582504272461 -0.9321343302726746
-0.25581395626068115 0.038759708404541016 -0.9917630553245544
-0.25581395626068115 0.038759708404541016 -0.9317265748977661
-0.25581395626068115 0.05426359176635742 -0.9917715787887573
-0.25581395626068115 0.05426359176635742 -0.9314589500427246
-0.25581395626068115 0.06976747512817383 -0.9917892217636108
-0.25581395626068115 0.06976747512817383 -0.9313836693763733
-0.25581395626068115 0.08527135848999023 -0.9918102622032166
-0.25581395626068115 0.08527135848999023 -0.9313415288925171
-0.25581395626068115 0.10077524185180664 -0.9918320775032043
-0.25581395626068115 0.10077524185180664 -0.9311894178390503
-0.25581395626068115 0.11627912521362305 -0.9918723702430725
-0.25581395626068115 0.11627913266420364 -0.9309520125389099
-0.25581395626068115 0.1317828893661499 -0.9919256567955017
-0.25581395626068115 0.1317828893661499 -0.9302008748054504
-0.25581395626068115 0.1472867727279663 -0.9919916391372681
-0.25581395626068115 0.1472867727279663 -0.9286054372787476
-0.25581395626068115 0.16279065608978271 -0.9918859004974365
-0.25581395626068115 0.16279065608978271 -0.9294455647468567
-0.25581395626068115 0.17829453945159912 -0.9887734651565552
-0.25581395626068115 0.17829453945159912 -0.9701178669929504
-0.24031007289886475 -0.19379842281341553 -0.9886195659637451
-0.24031007289886475 -0.19379842281341553 -0.971043586730957
-0.24031007289886475 -0.1782945990562439 -0.9919948577880859
-0.24031007289886475 -0.1782945990562439 -0.9283521175384521
-0.24031007289886475 -0.1627907156944275 -0.9920341968536377
-0.24031007289886475 -0.1627907156944275 -0.9286303520202637
-0.24031007289886475 -0.14728683233261108 -0.9919636845588684
-0.24031007289886475 -0.14728683233261108 -0.9307820796966553
-0.24031007289886475 -0.13178294897079468 -0.9919068813323975
-0.24031007289886475 -0.13178294897079468 -0.9317619800567627
-0.24031007289886475 -0.11627906560897827 -0.9918659329414368
-0.24031007289886475 -0.11627906560897827 -0.9317930340766907
-0.24031007289886475 -0.10077518224716187 -0.9918495416641235
-0.24031007289886475 -0.10077518224716187 -0.9316298961639404
-0.24031007289886475 -0.08527129888534546 -0.9918304681777954
-0.24031005799770355 -0.08527129888534546 -0.931392252445221
-0.24031007289886475 -0.06976741552352905 -0.9918179512023926
-0.24031007289886475 -0.06976741552352905 -0.9313822984695435
-0.24031007289886475 -0.05426359176635742 -0.9917980432510376
-0.24031008780002594 -0.05426359549164772 -0.9315890073776245
-0.24031007289886475 -0.038759708404541016 -0.9917728900909424
-0.24031007289886475 -0.038759708404541016 -0.9318521618843079
-0.24031007289886475 -0.02325582504272461 -0.9917439222335815
-0.24031007289886475 -0.02325582504272461 -0.932101845741272
-0.24031007289886475 -0.007751941680908203 -0.9917102456092834
-0.24031005799770355 -0.007751941215246916 -0.9321425557136536
-0.24031007289886475 0.007751941680908203 -0.9917063117027283
-0.24031007289886475 0.007751941680908203 -0.931854784488678
-0.24031007289886475 0.02325582504272461 -0.9917175769805908
-0.24031007289886475 0.02325582504272461 -0.9314126372337341
-0.24031007289886475 0.038759708404541016 -0.9917348027229309
-0.24031007289886475 0.038759708404541016 -0.9308104515075684
-0.24031007289886475 0.05426359176635742 -0.9917385578155518
-0.24031007289886475 0.05426359176635742 -0.930400550365448
-0.24031007289886475 0.06976747512817383 -0.991748571395874
-0.24031007289886475 0.06976747512817383 -0.9302825331687927
-0.24031007289886475 0.08527135848999023 -0.9917573928833008
-0.24031007289886475 0.08527135848999023 -0.9303145408630371
-0.24031007289886475 0.10077524185180664 -0.9917638301849365
-0.24031007289886475 0.10077524185180664 -0.9303685426712036
-0.24031007289886475 0.11627912521362305 -0.9917899966239929
-0.24031007289886475 0.11627912521362305 -0.9305506348609924
-0.24031007289886475 0.1317828893661499 -0.9918311834335327
-0.24031007289886475 0.1317828893661499 -0.9306230545043945
-0.24031007289886475 0.1472867727279663 -0.9918941259384155
-0.24031007289886475 0.1472867727279663 -0.930187463760376
-0.24031007289886475 0.16279065608978271 -0.9919629693031311
-0.24031007289886475 0.16279065608978271 -0.9290297627449036
-0.24031007289886475 0.17829453945159912 -0.9919917583465576
-0.24031007289886475 0.17829453945159912 -0.9274458885192871
-0.24031007289886475 0.19379842281341553 -0.9912936687469482
-0.24031007289886475 0.19379842281341553 -0.9541122913360596
-0.22480618953704834 -0.20930230617523193 -0.9900924563407898
-0.22480618953704834 -0.20930230617523193 -0.9695768356323242
-0.22480618953704834 -0.19379842281341553 -0.9920211434364319
-0.22480618953704834 -0.19379842281341553 -0.927556574344635
-0.22480618953704834 -0.1782945990562439 -0.9920169115066528
-0.22480618953704834 -0.1782945990562439 -0.9291336536407471
-0.22480618953704834 -0.1627907156944275 -0.9919446706771851
-0.22480618953704834 -0.1627907156944275 -0.9311991930007935
-0.22480618953704834 -0.14728683233261108 -0.9918847680091858
-0.22480618953704834 -0.14728683233261108 -0.9321701526641846
-0.22480618953704834 -0.13178294897079468 -0.9918410181999207
-0.22480618953704834 -0.13178294897079468 -0.9322390556335449
-0.22480618953704834 -0.11627906560897827 -0.991813063621521
-0.22480618953704834 -0.11627906560897827 -0.9317326545715332
-0.22480618953704834 -0.10077518224716187 -0.9918068647384644
-0.22480617463588715 -0.10077518224716187 -0.9312664270401001
-0.22480618953704834 -0.08527129888534546 -0.9917948246002197
-0.22480618953704834 -0.08527129888534546 -0.9308473467826843
-0.22480618953704834 -0.06976741552352905 -0.991786777973175
-0.22480618953704834 -0.06976741552352905 -0.9307743310928345
-0.22480618953704834 -0.06976741552352905 0.7121506929397583
-0.22480618953704834 -0.06976741552352905 0.7803341150283813
-0.22480618953704834 -0.05426359176635742 -0.991768479347229
-0.22480618953704834 -0.05426359176635742 -0.9309883117675781
-0.22480618953704834 -0.05426359176635742 0.6803989410400391
-0.22480618953704834 -0.05426359176635742 0.8052958250045776
-0.22480618953704834 -0.038759708404541016 -0.9917420744895935
-0.22480620443820953 -0.038759708404541016 -0.9312885999679565
-0.22480618953704834 -0.038759708404541016 0.6651331186294556
-0.22480618953704834 -0.038759708404541016 0.8184289336204529
-0.22480618953704834 -0.02325582504272461 -0.9917113184928894
-0.22480618953704834 -0.02325582504272461 -0.9315112829208374
-0.22480618953704834 -0.02325582504272461 0.6568014621734619
-0.22480618953704834 -0.02325582504272461 0.8254519701004028
-0.22480618953704834 -0.007751941680908203 -0.991679310798645
-0.22480618953704834 -0.007751941680908203 -0.9314885139465332
-0.22480618953704834 -0.007751941680908203 0.6532961130142212
-0.22480618953704834 -0.007751941680908203 0.8285744190216064
-0.22480618953704834 0.007751941680908203 -0.9916781187057495
-0.22480618953704834 0.007751941680908203 -0.9311042428016663
-0.22480618953704834 0.007751941680908203 0.6528868675231934
-0.22480618953704834 0.007751941680908203 0.8280934691429138
-0.22480618953704834 0.02325582504272461 -0.991693913936615
-0.22480618953704834 0.02325582504272461 -0.9305803775787354
-0.22480618953704834 0.02325582504272461 0.6570773720741272
-0.22480618953704834 0.02325582504272461 0.8229696154594421
-0.22480618953704834 0.038759708404541016 -0.9917150735855103
-0.22480618953704834 0.038759708404541016 -0.9297769069671631
-0.22480618953704834 0.038759708404541016 0.6662282943725586
-0.22480618953704834 0.038759708404541016 0.8147688508033752
-0.22480618953704834 0.05426359176635742 -0.9917193055152893
-0.22480618953704834 0.05426359176635742 -0.9292091131210327
-0.22480618953704834 0.05426359176635742 0.6812061071395874
-0.22480620443820953 0.05426359176635742 0.8007384538650513
-0.22480618953704834 0.06976747512817383 -0.9917262196540833
-0.22480618953704834 0.06976747512817383 -0.9291008710861206
-0.22480618953704834 0.06976747512817383 0.7099794149398804
-0.22480618953704834 0.06976747512817383 0.7745953798294067
-0.22480618953704834 0.08527135848999023 -0.9917289018630981
-0.22480618953704834 0.08527135848999023 -0.9292579293251038
-0.22480618953704834 0.10077524185180664 -0.9917269349098206
-0.22480618953704834 0.10077524185180664 -0.9294677972793579
-0.22480618953704834 0.11627912521362305 -0.9917426109313965
-0.22480618953704834 0.11627912521362305 -0.9298382997512817
-0.22480618953704834 0.1317828893661499 -0.9917697310447693
-0.22480618953704834 0.1317828893661499 -0.930255651473999
-0.22480618953704834 0.1472867727279663 -0.991817831993103
-0.22480618953704834 0.1472867727279663 -0.9304871559143066
-0.22480618953704834 0.16279065608978271 -0.9918769598007202
-0.22480618953704834 0.16279065608978271 -0.9302385449409485
-0.22480618953704834 0.17829453945159912 -0.9919410347938538
-0.22480618953704834 0.17829453945159912 -0.9290403723716736
-0.22480618953704834 0.19379842281341553 -0.9920074939727783
-0.22480618953704834 0.19379842281341553 -0.9272950887680054
-0.22480618953704834 0.20930230617523193 -0.9917354583740234
-0.22480618953704834 0.20930230617523193 -0.9340484142303467
-0.20930230617523193 -0.22480618953704834 -0.9899799823760986
-0.20930230617523193 -0.22480618953704834 -0.9698704481124878
-0.20930230617523193 -0.20930230617523193 -0.992023229598999
-0.20930230617523193 -0.20930230617523193 -0.9281394481658936
-0.20930230617523193 -0.19379842281341553 -0.992000937461853
-0.20930230617523193 -0.19379842281341553 -0.9295005798339844
-0.20930230617523193 -0.1782945990562439 -0.9919281005859375
-0.20930230617523193 -0.1782945990562439 -0.9311698079109192
-0.20930230617523193 -0.1627907156944275 -0.9918688535690308
-0.20930230617523193 -0.1627907156944275 -0.9319487810134888
-0.20930230617523193 -0.14728683233261108 -0.9918228983879089
-0.20930230617523193 -0.14728683233261108 -0.9322535395622253
-0.20930230617523193 -0.13178294897079468 -0.9917934536933899
-0.20930230617523193 -0.13178294897079468 -0.9321236610412598
-0.20930230617523193 -0.11627906560897827 -0.9917773604393005
-0.20930230617523193 -0.11627906560897827 -0.931556224822998
-0.20930230617523193 -0.10077518224716187 -0.9917792677879333
-0.20930230617523193 -0.10077518224716187 -0.9310118556022644
-0.20930230617523193 -0.10077518224716187 0.6937703490257263
-0.20930230617523193 -0.10077518224716187 0.7914499640464783
-0.20930230617523193 -0.08527129888534546 -0.9917714595794678
-0.20930230617523193 -0.08527129888534546 -0.9304900169372559
-0.20930230617523193 -0.08527129888534546 0.6633007526397705
-0.20930230617523193 -0.08527129888534546 0.8189359903335571
-0.20930230617523193 -0.06976741552352905 -0.9917644262313843
-0.20930230617523193 -0.06976741552352905 -0.9303450584411621
-0.20930230617523193 -0.06976741552352905 0.6428277492523193
-0.20930230617523193 -0.06976741552352905 0.8356878161430359
-0.20930230617523193 -0.05426359176635742 -0.991744339466095
-0.20930230617523193 -0.05426359176635742 -0.9305150508880615
-0.20930230617523193 -0.05426359176635742 0.6270565390586853
-0.20930230617523193 -0.05426359176635742 0.8484739065170288
-0.20930230617523193 -0.038759708404541016 -0.9917155504226685
-0.20930230617523193 -0.038759708404541016 -0.9307727813720703
-0.20930230617523193 -0.038759708404541016 0.6162527203559875
-0.20930230617523193 -0.038759708404541016 0.8550658822059631
-0.20930230617523193 -0.02325582504272461 -0.9916834235191345
-0.20930230617523193 -0.02325582504272461 -0.9309162497520447
-0.20930230617523193 -0.02325582504272461 0.609912097454071
-0.20930230617523193 -0.02325582504272461 0.8600878119468689
-0.20930230617523193 -0.007751941680908203 -0.9916552305221558
-0.20930230617523193 -0.007751941680908203 -0.930854082107544
-0.20930230617523193 -0.007751941680908203 0.6072181463241577
-0.20930230617523193 -0.007751941680908203 0.8632605075836182
-0.20930230617523193 0.007751941680908203 -0.9916554689407349
-0.20930230617523193 0.007751941680908203 -0.9304163455963135
-0.20930230617523193 0.007751941680908203 0.6066721081733704
-0.20930230617523193 0.007751941680908203 0.86299729347229
-0.20930230617523193 0.02325582504272461 -0.9916707277297974
