0.16279065608978271 -0.308147668838501 0.5813953876495361
0.16279064118862152 -0.3154152035713196 0.5968992710113525
0.16279065608978271 -0.31632158160209656 0.7364341020584106
0.16279065608978271 -0.3116976320743561 0.751937985420227
0.16279065608978271 -0.3052905201911926 0.7674418687820435
0.16279065608978271 -0.2910412549972534 0.5503876209259033
0.16279065608978271 -0.2993883192539215 0.5658915042877197
0.16279065608978271 -0.2983044385910034 0.7829457521438599
0.16279065608978271 -0.290282279253006 0.7984496355056763
0.16279065608978271 -0.280182808637619 0.5348837375640869
0.16279065608978271 -0.2810059189796448 0.8139535188674927
0.16279065608978271 -0.2597934901714325 0.5038759708404541
0.16279065608978271 -0.2702816426753998 0.5193798542022705
0.16279065608978271 -0.2690184712409973 0.8294574022293091
0.16279065608978271 -0.25853845477104187 0.8449612855911255
0.16279065608978271 -0.24818426370620728 0.4883720874786377
0.16279065608978271 -0.24615177512168884 0.8604651689529419
0.16279065608978271 -0.23572120070457458 0.4728682041168213
0.16279065608978271 -0.2308911383152008 0.8759689331054688
0.16279065608978271 -0.22305525839328766 0.4573643207550049
0.16279065608978271 -0.21178752183914185 0.8914728164672852
0.16279065608978271 -0.2085370272397995 0.44186046719551086
0.16279065608978271 -0.18942014873027802 0.42635658383369446
0.16279065608978271 -0.1810302734375 0.6279069185256958
0.16279065608978271 -0.18985378742218018 0.9069766998291016
0.16279065608978271 -0.16421689093112946 0.41085267066955566
0.16279065608978271 -0.15178267657756805 0.6279069185256958
0.16279065608978271 -0.16031599044799805 0.9224806427955627
0.16279065608978271 -0.12907011806964874 0.39534878730773926
0.16279065608978271 -0.11764421314001083 0.9379844665527344
0.16279065608978271 -0.09033935517072678 0.37984490394592285
0.16279065608978271 -0.043946992605924606 0.9534883499145508
0.16279065608978271 0.02319442480802536 0.9534883499145508
0.16279065608978271 0.07669812440872192 0.6279069185256958
0.16279065608978271 0.08883192390203476 0.37984490394592285
0.16279065608978271 0.10421299934387207 0.612403154373169
0.16279065608978271 0.11211777478456497 0.9379844665527344
0.16279065608978271 0.12890896201133728 0.39534878730773926
0.16279065608978271 0.1383381336927414 0.612403154373169
0.16279065608978271 0.15742450952529907 0.41085267066955566
0.16279065608978271 0.15643085539340973 0.922480583190918
0.16279065608978271 0.1825241595506668 0.42635658383369446
0.16279065608978271 0.1812000572681427 0.6279069185256958
0.16279065608978271 0.18666109442710876 0.9069766998291016
0.16279065608978271 0.20445659756660461 0.4418604373931885
0.16279065608978271 0.20768100023269653 0.8914728164672852
0.16279065608978271 0.22121085226535797 0.4573643207550049
0.16279065608978271 0.23454153537750244 0.4728682041168213
0.16279065608978271 0.23962843418121338 0.8604651689529419
0.16279065608978271 0.22518737614154816 0.8759689331054688
0.16279065608978271 0.2470773160457611 0.4883720874786377
0.16279065608978271 0.252763569355011 0.8449612855911255
0.1627906709909439 0.2587329149246216 0.5038759708404541
0.16279065608978271 0.269293874502182 0.5193798542022705
0.16279065608978271 0.2656308114528656 0.8294574022293091
0.16279065608978271 0.2796074151992798 0.5348837375640869
0.16279065608978271 0.2859964668750763 0.7984496355056763
0.16279065608978271 0.27687186002731323 0.8139535188674927
0.16279065608978271 0.2904756963253021 0.5503876209259033
0.16279065608978271 0.29872792959213257 0.5658915042877197
0.16279065608978271 0.2960610091686249 0.7829457521438599
0.16279065608978271 0.3079586625099182 0.5813953876495361
0.16279065608978271 0.3152672052383423 0.5968992710113525
0.16279065608978271 0.316147118806839 0.7364341020584106
0.16279065608978271 0.3109215497970581 0.751937985420227
0.16279065608978271 0.3034791350364685 0.7674418687820435
0.16279065608978271 0.3248577415943146 0.612403154373169
0.16279065608978271 0.33062565326690674 0.6279069185256958
0.16279065608978271 0.33248138427734375 0.6434108018875122
0.16279065608978271 0.3315744698047638 0.6589146852493286
0.16279065608978271 0.3302743136882782 0.674418568611145
0.16279065608978271 0.32816627621650696 0.6899224519729614
0.16279065608978271 0.32548952102661133 0.7054263353347778
0.16279065608978271 0.3207564353942871 0.7209302186965942
0.17829453945159912 -0.32129454612731934 0.6279069185256958
0.17829453945159912 -0.3221322000026703 0.6434108018875122
0.17829453945159912 -0.3197188079357147 0.6589146852493286
0.17829453945159912 -0.31836986541748047 0.674418568611145
0.17829453945159912 -0.308339923620224 0.5968992710113525
0.17829453945159912 -0.31619399785995483 0.612403154373169
0.17829452455043793 -0.317468523979187 0.6899224519729614
0.17829453945159912 -0.3148624300956726 0.7054263353347778
0.17829453945159912 -0.31191545724868774 0.7209302186965942
0.17829453945159912 -0.30791911482810974 0.7364341020584106
0.17829453945159912 -0.3033979535102844 0.751937985420227
0.17829453945159912 -0.2919631004333496 0.5658915042877197
0.17829453945159912 -0.29959267377853394 0.5813953876495361
0.17829453945159912 -0.29729148745536804 0.7674418687820435
0.17829453945159912 -0.2903139591217041 0.7829457521438599
0.17829453945159912 -0.2723813056945801 0.5348837375640869
0.17829453945159912 -0.2821923494338989 0.5503876209259033
0.17829453945159912 -0.28162962198257446 0.7984496355056763
0.17829453945159912 -0.2718676030635834 0.8139535188674927
0.17829453945159912 -0.26162269711494446 0.5193798542022705
0.17829453945159912 -0.2619265913963318 0.8294574022293091
0.17829453945159912 -0.2507309913635254 0.5038759708404541
0.17829453945159912 -0.24872703850269318 0.8449612855911255
0.17829453945159912 -0.22729063034057617 0.4728682041168213
0.17829453945159912 -0.2397526204586029 0.4883720874786377
0.17829453945159912 -0.23410318791866302 0.8604651689529419
0.17829453945159912 -0.21397075057029724 0.4573643207550049
0.17829453945159912 -0.21841177344322205 0.8759689927101135
0.17829453945159912 -0.19888520240783691 0.4418604373931885
0.17829453945159912 -0.20053018629550934 0.8914728164672852
0.17829453945159912 -0.17861950397491455 0.42635655403137207
0.17829453945159912 -0.18452125787734985 0.6279069185256958
0.17829453945159912 -0.17512738704681396 0.9069766998291016
0.17829453945159912 -0.148248553276062 0.41085267066955566
0.17829453945159912 -0.15404058992862701 0.6279069185256958
0.17829453945159912 -0.14299151301383972 0.922480583190918
0.17829453945159912 -0.11040651798248291 0.39534878730773926
0.17829453945159912 -0.09739317744970322 0.9379845261573792
0.17829453945159912 -0.0710572898387909 0.37984490394592285
0.17829453945159912 0.05871954560279846 0.37984490394592285
0.17829453945159912 0.0736469104886055 0.6279069185256958
0.17829453945159912 0.08663789927959442 0.9379844665527344
0.17829453945159912 0.11357492953538895 0.39534878730773926
0.17829453945159912 0.13783854246139526 0.922480583190918
0.17829455435276031 0.14752419292926788 0.41085270047187805
0.17829453945159912 0.17403127253055573 0.42635655403137207
0.17829453945159912 0.17419859766960144 0.6279069185256958
0.17829453945159912 0.1726176142692566 0.9069766998291016
0.17829453945159912 0.19662770628929138 0.4418604373931885
0.17829453945159912 0.19728291034698486 0.8914728164672852
0.17829453945159912 0.2131066620349884 0.4573643207550049
0.17829453945159912 0.2166033834218979 0.8759689331054688
0.17829453945159912 0.22647622227668762 0.4728682041168213
0.17829453945159912 0.23841217160224915 0.4883720874786377
0.17829453945159912 0.23139157891273499 0.8604651689529419
0.17829453945159912 0.249651238322258 0.5038759708404541
0.17829453945159912 0.2548532783985138 0.8294574022293091
0.17829452455043793 0.24357172846794128 0.8449612855911255
0.17829453945159912 0.26031816005706787 0.5193798542022705
0.17829453945159912 0.27094560861587524 0.5348837375640869
0.17829453945159912 0.26714661717414856 0.8139535188674927
0.17829453945159912 0.2810184359550476 0.5503876209259033
0.17829453945159912 0.2778938412666321 0.7984496355056763
0.17829453945159912 0.2909446060657501 0.5658915042877197
0.17829453945159912 0.2986447513103485 0.5813953876495361
0.17829453945159912 0.30230024456977844 0.751937985420227
0.17829453945159912 0.2957785725593567 0.7674418687820435
0.17829453945159912 0.2869998812675476 0.7829457521438599
0.17829453945159912 0.30765092372894287 0.5968992710113525
0.17829453945159912 0.3163577914237976 0.612403154373169
0.17829453945159912 0.31706157326698303 0.7054263353347778
0.17829453945159912 0.3128942847251892 0.7209302186965942
0.17829453945159912 0.30837273597717285 0.7364341020584106
0.17829453945159912 0.32224035263061523 0.6279069185256958
0.17829453945159912 0.32451966404914856 0.6434108018875122
0.17829453945159912 0.32345321774482727 0.6589146852493286
0.17829453945159912 0.3218032717704773 0.6744185090065002
0.17829453945159912 0.3194979727268219 0.6899224519729614
0.19379842281341553 -0.3086182177066803 0.612403154373169
0.19379842281341553 -0.31380733847618103 0.6279069185256958
0.19379843771457672 -0.3144543170928955 0.6434108018875122
0.19379842281341553 -0.31201016902923584 0.6589146852493286
0.19379842281341553 -0.31030336022377014 0.674418568611145
0.19379842281341553 -0.3084726631641388 0.6899224519729614
0.19379842281341553 -0.3053749203681946 0.7054263353347778
0.19379842281341553 -0.3029324412345886 0.7209302186965942
0.19379842281341553 -0.2913810610771179 0.5813953876495361
0.19379842281341553 -0.2990254759788513 0.5968992710113525
0.19379842281341553 -0.29830971360206604 0.7364341020584106
0.19379842281341553 -0.29385635256767273 0.751937985420227
0.19379842281341553 -0.28815945982933044 0.7674418687820435
0.19379842281341553 -0.2733587324619293 0.5503876209259033
0.19379843771457672 -0.28226590156555176 0.5658915042877197
0.19379842281341553 -0.28046268224716187 0.7829457521438599
0.19379842281341553 -0.2716633379459381 0.7984496355056763
0.19379842281341553 -0.2622574269771576 0.5348837375640869
0.19379842281341553 -0.2627094089984894 0.8139535188674927
0.19379842281341553 -0.2412377893924713 0.5038759708404541
0.19379842281341553 -0.25134530663490295 0.5193798542022705
0.19379842281341553 -0.24949023127555847 0.8294574022293091
0.19379842281341553 -0.2295076549053192 0.4883720874786377
0.19379840791225433 -0.23542636632919312 0.8449612855911255
0.19379842281341553 -0.21665510535240173 0.4728682041168213
0.19379842281341553 -0.22033964097499847 0.8604651689529419
0.19379842281341553 -0.20327337086200714 0.4573643207550049
0.19379842281341553 -0.2041306495666504 0.8759689331054688
0.19379842281341553 -0.18751952052116394 0.4418604373931885
0.19379842281341553 -0.18514692783355713 0.8914728164672852
0.19379842281341553 -0.16475456953048706 0.42635655403137207
0.19379842281341553 -0.1579718291759491 0.9069766998291016
0.19379842281341553 -0.12961705029010773 0.41085267066955566
0.19379842281341553 -0.12183314561843872 0.922480583190918
0.19379842281341553 -0.0927513837814331 0.39534878730773926
0.19379842281341553 -0.06815598905086517 0.9379844665527344
0.19379843771457672 -0.03358615189790726 0.37984490394592285
0.19379842281341553 -0.011131475679576397 0.37984490394592285
0.19379842281341553 0.05377452075481415 0.9379844665527344
0.19379842281341553 0.09066365659236908 0.39534878730773926
0.19379842281341553 0.11408937722444534 0.922480583190918
0.19379842281341553 0.1324654221534729 0.41085267066955566
0.19379842281341553 0.15497872233390808 0.9069766998291016
0.19379842281341553 0.16286732256412506 0.42635655403137207
0.19379842281341553 0.1854991614818573 0.4418604373931885
0.19379842281341553 0.18379324674606323 0.8914728164672852
0.19379842281341553 0.20227551460266113 0.4573643207550049
0.19379842281341553 0.2035333812236786 0.8759689331054688
0.19379842281341553 0.21572741866111755 0.4728682041168213
0.19379842281341553 0.2191486656665802 0.8604651689529419
0.19379842281341553 0.2282346487045288 0.4883720874786377
0.19379842281341553 0.2393667846918106 0.5038759708404541
0.19379842281341553 0.23280565440654755 0.8449612855911255
0.19379842281341553 0.24939164519309998 0.5193798542022705
0.19379842281341553 0.24517947435379028 0.8294574022293091
0.19379842281341553 0.2599981427192688 0.5348837375640869
0.19379842281341553 0.2711790204048157 0.5503876209259033
0.19379842281341553 0.26694953441619873 0.7984496355056763
0.19379842281341553 0.25609278678894043 0.8139534592628479
0.19379842281341553 0.28063517808914185 0.5658915042877197
0.19379842281341553 0.2857670485973358 0.7674418687820435
0.19379842281341553 0.2775188684463501 0.7829457521438599
0.19379842281341553 0.2895997166633606 0.5813953876495361
0.19379842281341553 0.29768723249435425 0.5968992710113525
0.19379842281341553 0.29856231808662415 0.7364341020584106
0.19379842281341553 0.29318538308143616 0.751937985420227
0.19379842281341553 0.3074188828468323 0.612403154373169
0.19379842281341553 0.3132922947406769 0.6279069185256958
0.19379842281341553 0.3152191936969757 0.6434108018875122
0.19379842281341553 0.3142065107822418 0.6589146852493286
0.19379842281341553 0.3129463493824005 0.674418568611145
0.19379842281341553 0.3111758828163147 0.6899224519729614
0.19379840791225433 0.30761897563934326 0.7054263353347778
0.19379842281341553 0.3033319115638733 0.7209302186965942
0.20930230617523193 -0.3037889897823334 0.6279069185256958
0.20930230617523193 -0.30450180172920227 0.6434108018875122
0.20930230617523193 -0.3026120662689209 0.6589146852493286
0.20930230617523193 -0.2899898886680603 0.5968992710113525
0.20930230617523193 -0.29920417070388794 0.612403154373169
0.20930230617523193 -0.30091482400894165 0.6744186282157898
0.20930230617523193 -0.2986369729042053 0.6899224519729614
0.20930230617523193 -0.29583626985549927 0.7054263353347778
0.20930230617523193 -0.2923536002635956 0.7209302186965942
0.20930230617523193 -0.2884860634803772 0.7364341020584106
0.20930230617523193 -0.2726627290248871 0.5658915042877197
0.20930232107639313 -0.2815266251564026 0.5813953876495361
0.20930230617523193 -0.282474160194397 0.751937985420227
0.20930230617523193 -0.2771819829940796 0.7674418687820435
0.20930230617523193 -0.26304489374160767 0.5503876209259033
0.20930230617523193 -0.268581360578537 0.7829457521438599
0.20930230617523193 -0.26138097047805786 0.7984496355056763
0.20930230617523193 -0.24116183817386627 0.5193798542022705
0.20930230617523193 -0.25144970417022705 0.5348837375640869
0.20930230617523193 -0.24959930777549744 0.8139535188674927
0.20930230617523193 -0.23038646578788757 0.5038759708404541
0.20930230617523193 -0.23614364862442017 0.8294574022293091
0.20930230617523193 -0.21838811039924622 0.4883720874786377
0.20930230617523193 -0.22145362198352814 0.8449612855911255
0.20930230617523193 -0.20502400398254395 0.4728682041168213
0.20930230617523193 -0.20554094016551971 0.8604651689529419
0.20930230617523193 -0.19127899408340454 0.45736435055732727
0.20930230617523193 -0.18816392123699188 0.8759689331054688
0.20930230617523193 -0.17445328831672668 0.4418604373931885
0.20930230617523193 -0.16618770360946655 0.8914728164672852
0.20930230617523193 -0.14956162869930267 0.42635655403137207
0.20930230617523193 -0.13608048856258392 0.9069766998291016
0.20930230617523193 -0.11347542703151703 0.41085267066955566
0.20930230617523193 -0.09693682193756104 0.922480583190918
0.20930230617523193 -0.07588417828083038 0.39534878730773926
0.20930230617523193 0.06304805725812912 0.39534878730773926
0.20930230617523193 0.08812665194272995 0.9224805235862732
0.20930230617523193 0.11456184834241867 0.41085267066955566
0.20930230617523193 0.13085652887821198 0.9069766998291016
0.20930230617523193 0.1476607471704483 0.42635655403137207
0.20930230617523193 0.17194697260856628 0.4418604373931885
0.20930230617523193 0.1660868525505066 0.8914728164672852
0.20930230617523193 0.1894577294588089 0.4573643207550049
0.20930230617523193 0.18857824802398682 0.8759689331054688
0.20930230617523193 0.20349282026290894 0.4728682041168213
0.20930230617523193 0.2052491009235382 0.8604651689529419
0.20930230617523193 0.21662548184394836 0.4883720874786377
0.20930230617523193 0.2198980450630188 0.8449612855911255
0.20930230617523193 0.22794532775878906 0.5038759708404541
0.20930230617523193 0.2377391904592514 0.5193798542022705
0.20930230617523193 0.23346473276615143 0.8294574022293091
0.20930230617523193 0.24822351336479187 0.5348837375640869
0.20930230617523193 0.2554665505886078 0.7984496355056763
0.20930230617523193 0.24562567472457886 0.8139535188674927
0.20930230617523193 0.259613573551178 0.5503876209259033
0.20930230617523193 0.2693188786506653 0.5658915042877197
0.20930230617523193 0.2659829556941986 0.7829457521438599
0.20930230617523193 0.27874138951301575 0.5813953876495361
0.20930230617523193 0.2820884585380554 0.751937985420227
0.20930230617523193 0.2751327455043793 0.7674418687820435
0.20930229127407074 0.287041574716568 0.5968992710113525
0.20930230617523193 0.2969086766242981 0.612403154373169
0.20930230617523193 0.3020162284374237 0.674418568611145
0.20930230617523193 0.30031612515449524 0.6899224519729614
0.20930230617523193 0.29707324504852295 0.7054263353347778
0.20930230617523193 0.2932831943035126 0.7209302186965942
0.20930230617523193 0.2880861461162567 0.7364341020584106
0.20930230617523193 0.30264973640441895 0.6279069185256958
0.20930229127407074 0.30399274826049805 0.6434108018875122
0.20930229127407074 0.3029072880744934 0.6589146852493286
0.22480618953704834 -0.28864964842796326 0.612403154373169
0.22480618953704834 -0.29502201080322266 0.6279069185256958
0.22480618953704834 -0.2955893278121948 0.6434108018875122
0.22480618953704834 -0.2925049066543579 0.6589146852493286
0.22480618953704834 -0.2898045778274536 0.674418568611145
0.22480618953704834 -0.28798794746398926 0.6899224519729614
0.22480618953704834 -0.2798970937728882 0.5968992710113525
0.22480618953704834 -0.28506895899772644 0.7054263949394226
0.22480618953704834 -0.2809047996997833 0.7209302186965942
0.22480618953704834 -0.27657580375671387 0.7364341020584106
0.22480618953704834 -0.27140524983406067 0.751937985420227
0.22480618953704834 -0.261945903301239 0.5658915042877197
0.22480620443820953 -0.2703811228275299 0.5813953876495361
0.22480618953704834 -0.2645321786403656 0.7674418687820435
0.22480618953704834 -0.25728997588157654 0.7829457521438599
0.22480618953704834 -0.2515648305416107 0.5503876209259033
0.22480618953704834 -0.2478008270263672 0.7984496355056763
0.22480618953704834 -0.22966694831848145 0.5193798542022705
0.22480618953704834 -0.24019014835357666 0.5348837375640869
0.22480618953704834 -0.23557282984256744 0.8139535188674927
0.22480618953704834 -0.2186659276485443 0.5038759708404541
0.22480618953704834 -0.22158488631248474 0.8294574022293091
0.22480620443820953 -0.2061571627855301 0.4883721172809601
0.22480618953704834 -0.20586605370044708 0.8449612855911255
0.22480620443820953 -0.19265417754650116 0.4728682339191437
0.22480618953704834 -0.18865631520748138 0.8604651689529419
0.22480620443820953 -0.17784662544727325 0.45736435055732727
0.22480618953704834 -0.16935858130455017 0.8759689331054688
0.22480618953704834 -0.15979214012622833 0.4418604373931885
0.22480618953704834 -0.13268986344337463 0.42635655403137207
0.22480620443820953 -0.1440529078245163 0.8914728760719299
0.22480618953704834 -0.11134101450443268 0.9069766998291016
0.22480618953704834 -0.09736421704292297 0.41085267066955566
0.22480618953704834 -0.06287216395139694 0.922480583190918
0.22480618953704834 -0.051482826471328735 0.39534878730773926
0.22480618953704834 0.01977621205151081 0.39534878730773926
0.22480618953704834 0.047673385590314865 0.922480583190918
0.22480618953704834 0.0932377353310585 0.41085267066955566
0.22480618953704834 0.10630027949810028 0.9069766998291016
0.22480618953704834 0.12962104380130768 0.42635655403137207
0.22480618953704834 0.14335542917251587 0.8914728164672852
0.22480618953704834 0.1563348025083542 0.4418604373931885
0.22480618953704834 0.1752614676952362 0.4573643207550049
0.22480618953704834 0.1712971031665802 0.8759689331054688
0.22480618953704834 0.19039133191108704 0.4728682041168213
0.22480618953704834 0.18967440724372864 0.8604651689529419
0.22480618953704834 0.20420575141906738 0.4883720874786377
0.22480618953704834 0.20546750724315643 0.8449612855911255
0.22480618953704834 0.21605214476585388 0.5038759708404541
0.22480618953704834 0.22003766894340515 0.8294574022293091
0.22480618953704834 0.2262156456708908 0.5193798542022705
0.22480618953704834 0.23609305918216705 0.5348837375640869
0.22480618953704834 0.23331338167190552 0.8139535188674927
0.22480618953704834 0.24783992767333984 0.5503876209259033
0.22480618953704834 0.25389790534973145 0.7829457521438599
0.22480618953704834 0.2441519945859909 0.7984496355056763
0.22480617463588715 0.2578553557395935 0.5658915042877197
0.22480618953704834 0.2672707438468933 0.5813953876495361
0.22480618953704834 0.2708609998226166 0.751937985420227
0.22480618953704834 0.2635863721370697 0.7674418687820435
0.22480618953704834 0.2761837840080261 0.5968992710113525
0.22480618953704834 0.2859322130680084 0.612403154373169
0.22480618953704834 0.28568127751350403 0.7054263353347778
0.22480618953704834 0.281583309173584 0.7209302186965942
0.22480618953704834 0.2768518924713135 0.7364341020584106
0.22480618953704834 0.2920520603656769 0.6279069185256958
0.22480618953704834 0.2939608693122864 0.6434108018875122
0.22480618953704834 0.29233989119529724 0.6589146852493286
0.22480618953704834 0.29040372371673584 0.6744186282157898
0.22480617463588715 0.28813672065734863 0.6899224519729614
0.24031007289886475 -0.27821046113967896 0.612403154373169
0.24031007289886475 -0.2838457226753235 0.6279069185256958
0.24031007289886475 -0.28460484743118286 0.6434108018875122
0.24031007289886475 -0.2813153862953186 0.6589146852493286
0.24031007289886475 -0.2786807417869568 0.674418568611145
0.24031007289886475 -0.27582812309265137 0.6899224519729614
0.24031007289886475 -0.27287817001342773 0.7054263353347778
0.24031007289886475 -0.2585253417491913 0.5813953876495361
0.24031007289886475 -0.26787400245666504 0.5968992710113525
0.24031007289886475 -0.26829132437705994 0.7209302186965942
0.24031007289886475 -0.26359203457832336 0.7364341020584106
0.24031007289886475 -0.25866618752479553 0.751937985420227
0.24031007289886475 -0.24930456280708313 0.5658915042877197
0.24031007289886475 -0.2507796883583069 0.7674418687820435
0.24031007289886475 -0.24396495521068573 0.7829457521438599
0.24031007289886475 -0.22690832614898682 0.5348837375640869
0.24031007289886475 -0.23818029463291168 0.5503876209259033
0.24031007289886475 -0.23290342092514038 0.7984496355056763
0.24031007289886475 -0.2164335548877716 0.5193798542022705
0.24031007289886475 -0.22029954195022583 0.8139535188674927
0.24031007289886475 -0.20511981844902039 0.5038759708404541
0.24031007289886475 -0.20540174841880798 0.8294574022293091
0.24031007289886475 -0.19262069463729858 0.4883720874786377
0.24031007289886475 -0.18824826180934906 0.8449612855911255
0.24031007289886475 -0.17810958623886108 0.4728682041168213
0.24031007289886475 -0.16895335912704468 0.8604651689529419
0.24031007289886475 -0.16175124049186707 0.4573643207550049
0.24031007289886475 -0.14201486110687256 0.4418604373931885
0.24031005799770355 -0.14596164226531982 0.8759689331054688
0.24031007289886475 -0.11806027591228485 0.8914728164672852
0.24031007289886475 -0.11278508603572845 0.42635655403137207
0.24031007289886475 -0.07376096397638321 0.41085267066955566
0.24031007289886475 -0.0801093578338623 0.9069766998291016
0.24031007289886475 0.062075838446617126 0.41085267066955566
0.24031007289886475 0.06880798190832138 0.9069766998291016
0.24031007289886475 0.10896475613117218 0.42635655403137207
0.24031007289886475 0.11561247706413269 0.8914728164672852
0.24031008780002594 0.13705766201019287 0.4418604373931885
0.24031007289886475 0.15836313366889954 0.4573643207550049
0.24031008780002594 0.14775454998016357 0.8759689331054688
0.24031007289886475 0.17523755133152008 0.4728682041168213
0.24031007289886475 0.17139458656311035 0.8604651689529419
0.24031007289886475 0.19031327962875366 0.4883720874786377
0.24031007289886475 0.18882882595062256 0.8449612855911255
0.24031007289886475 0.20280402898788452 0.5038759708404541
0.24031007289886475 0.20459352433681488 0.8294574022293091
0.24031007289886475 0.21315665543079376 0.5193798542022705
0.24031007289886475 0.22296464443206787 0.5348837375640869
0.24031007289886475 0.21885238587856293 0.8139535188674927
0.24031007289886475 0.23448139429092407 0.5503876209259033
0.24031007289886475 0.23058322072029114 0.7984496355056763
0.24031007289886475 0.24442879855632782 0.5658915042877197
0.24031007289886475 0.2538672089576721 0.5813953876495361
0.24031007289886475 0.24991019070148468 0.7674418687820435
0.24031007289886475 0.24046958982944489 0.7829458117485046
0.24031007289886475 0.2636081576347351 0.5968992710113525
0.24031007289886475 0.26853305101394653 0.7209302186965942
0.24031007289886475 0.26377084851264954 0.7364341020584106
0.24031007289886475 0.2574210464954376 0.751937985420227
0.24031007289886475 0.2737501859664917 0.612403154373169
0.24031007289886475 0.2801545560359955 0.6279069185256958
0.24031007289886475 0.2814885973930359 0.6434108018875122
0.24031007289886475 0.27996331453323364 0.6589146852493286
0.24031007289886475 0.27814871072769165 0.674418568611145
0.24031007289886475 0.2753618359565735 0.6899224519729614
0.24031008780002594 0.27213892340660095 0.7054263949394226
0.25581395626068115 -0.2720257043838501 0.6434108018875122
0.25581395626068115 -0.26583966612815857 0.612403154373169
0.25581395626068115 -0.2711647152900696 0.6279069185256958
0.25581395626068115 -0.2694716155529022 0.6589146852493286
0.25581395626068115 -0.26593273878097534 0.674418568611145
0.25581395626068115 -0.26314711570739746 0.6899224519729614
0.25581395626068115 -0.25933876633644104 0.7054263353347778
0.25581395626068115 -0.24528318643569946 0.5813953876495361
0.25581395626068115 -0.2544337809085846 0.5968992710113525
0.25581395626068115 -0.2552063465118408 0.7209302186965942
0.25581395626068115 -0.24974898993968964 0.7364341020584106
0.25581395626068115 -0.244638130068779 0.751937985420227
0.25581395626068115 -0.23521417379379272 0.5658915042877197
0.25581395626068115 -0.23607505857944489 0.7674418687820435
0.25581395626068115 -0.22898632287979126 0.7829457521438599
0.25581395626068115 -0.21244952082633972 0.5348837375640869
0.25581395626068115 -0.22374291718006134 0.5503876209259033
0.25581395626068115 -0.2170974612236023 0.7984496355056763
0.25581395626068115 -0.20222924649715424 0.5193798542022705
0.25581395626068115 -0.2036929875612259 0.8139535188674927
0.25581395626068115 -0.1904517412185669 0.5038759708404541
0.25581395626068115 -0.18724891543388367 0.8294574022293091
0.25581395626068115 -0.17706401646137238 0.4883720874786377
0.25581395626068115 -0.16742372512817383 0.8449612855911255
0.25581395626068115 -0.16111329197883606 0.4728682041168213
0.25581395626068115 -0.14306993782520294 0.4573643207550049
0.25581395626068115 -0.1451181322336197 0.8604651689529419
0.25581395626068115 -0.11993388831615448 0.4418604373931885
0.25581395626068115 -0.12018898129463196 0.8759689331054688
0.25581395626068115 -0.08667115867137909 0.42635655403137207
0.25581395626068115 -0.08770221471786499 0.8914728164672852
0.25581395626068115 0.08080887794494629 0.42635655403137207
0.25581395626068115 0.08110900968313217 0.8914728164672852
0.25581395626068115 0.11480151861906052 0.4418604373931885
0.25581395626068115 0.1206633523106575 0.8759689331054688
0.25581395626068115 0.13796944916248322 0.4573643207550049
0.25581395626068115 0.14675775170326233 0.8604651689529419
0.25581395626068115 0.15769143402576447 0.4728682041168213
0.25581395626068115 0.17456316947937012 0.4883720874786377
0.25581395626068115 0.16944876313209534 0.8449612855911255
0.25581395626068115 0.18816226720809937 0.5038759708404541
0.25581395626068115 0.18696005642414093 0.8294574022293091
0.25581395626068115 0.19908110797405243 0.5193798542022705
0.25581395626068115 0.20902663469314575 0.5348837375640869
0.25581395626068115 0.2023734450340271 0.8139535188674927
0.25581395626068115 0.22017449140548706 0.5503876209259033
0.25581395626068115 0.21508482098579407 0.7984496355056763
0.25581395626068115 0.2300654947757721 0.5658915042877197
0.25581395626068115 0.23940357565879822 0.5813953876495361
0.25581395626068115 0.2350861132144928 0.7674418687820435
0.25581395626068115 0.22554007172584534 0.7829457521438599
0.25581395626068115 0.24995136260986328 0.5968992710113525
0.25581395626068115 0.254032164812088 0.7209302186965942
0.25581395626068115 0.24915480613708496 0.7364341020584106
0.25581395626068115 0.24261993169784546 0.751937985420227
0.25581395626068115 0.26046329736709595 0.612403154373169
0.25581395626068115 0.2667850852012634 0.6279069185256958
0.25581395626068115 0.2682095468044281 0.6434108018875122
0.25581395626068115 0.2662239074707031 0.6589146852493286
0.25581395626068115 0.2642335891723633 0.674418568611145
0.25581395626068115 0.2615130543708801 0.6899224519729614
0.25581395626068115 0.2575506269931793 0.7054263353347778
0.27131783962249756 -0.2568116784095764 0.6279069185256958
0.27131783962249756 -0.25792455673217773 0.6434108018875122
0.27131783962249756 -0.25583910942077637 0.6589146852493286
0.27131783962249756 -0.2519907057285309 0.612403154373169
0.27131783962249756 -0.25224465131759644 0.674418568611145
0.27131783962249756 -0.2491064816713333 0.6899224519729614
0.27131783962249756 -0.24481868743896484 0.7054263353347778
0.27131783962249756 -0.2405381202697754 0.7209302186965942
0.27131783962249756 -0.2304346263408661 0.5813953876495361
0.27131783962249756 -0.24002671241760254 0.5968992710113525
0.27131783962249756 -0.2347232848405838 0.7364341020584106
0.27131783962249756 -0.22929537296295166 0.751937985420227
0.27131783962249756 -0.2198488414287567 0.5658915042877197
0.27131783962249756 -0.22012647986412048 0.7674418687820435
0.27131783962249756 -0.21182048320770264 0.7829457521438599
0.27131783962249756 -0.1964702606201172 0.5348837375640869
0.27131783962249756 -0.20787303149700165 0.5503876209259033
0.27131783962249756 -0.19965797662734985 0.7984496355056763
0.27131783962249756 -0.18587815761566162 0.5193798542022705
0.27131783962249756 -0.18471240997314453 0.8139535188674927
0.27131783962249756 -0.17355772852897644 0.5038759708404541
0.27131783962249756 -0.1643955111503601 0.8294574022293091
0.27131783962249756 -0.15904009342193604 0.4883720874786377
0.27131783962249756 -0.14147359132766724 0.4728682041168213
0.27131783962249756 -0.14324498176574707 0.8449612855911255
0.27131783962249756 -0.11980113387107849 0.4573643207550049
0.27131783962249756 -0.1179841160774231 0.8604651689529419
0.27131783962249756 -0.09373591840267181 0.4418604373931885
0.27131783962249756 -0.0899699479341507 0.8759689331054688
0.27131783962249756 -0.04172370210289955 0.42635655403137207
0.27131786942481995 -0.03758236765861511 0.8914728164672852
0.27131783962249756 0.01690705120563507 0.8914728164672852
0.27131783962249756 0.026989411562681198 0.42635655403137207
0.27131783962249756 0.08364968001842499 0.8759689331054688
0.27131783962249756 0.08720779418945312 0.4418604373931885
0.27131783962249756 0.11470670998096466 0.4573643207550049
0.27131783962249756 0.11776947230100632 0.8604651689529419
0.27131783962249756 0.1364191472530365 0.4728682041168213
0.27131783962249756 0.14319249987602234 0.8449612855911255
0.27131783962249756 0.15629908442497253 0.4883720874786377
0.27131783962249756 0.1713068187236786 0.5038759708404541
0.27131783962249756 0.16526150703430176 0.8294574022293091
0.27131783962249756 0.18290814757347107 0.5193798542022705
0.27131783962249756 0.19355987012386322 0.5348837375640869
0.27131783962249756 0.18297553062438965 0.8139535188674927
0.27131783962249756 0.20465928316116333 0.5503876209259033
0.27131783962249756 0.20843541622161865 0.7829457521438599
0.27131783962249756 0.1968613713979721 0.7984496355056763
0.27131783962249756 0.21425724029541016 0.5658915042877197
0.27131783962249756 0.2239902764558792 0.5813953876495361
0.27131783962249756 0.2185085117816925 0.7674418687820435
0.27131783962249756 0.23478415608406067 0.5968992710113525
0.27131783962249756 0.237979918718338 0.7209302186965942
0.27131783962249756 0.2330506443977356 0.7364341020584106
0.27131783962249756 0.22598862648010254 0.751937985420227
0.27131783962249756 0.24560460448265076 0.612403154373169
0.27131783962249756 0.25209787487983704 0.6279069185256958
0.27131783962249756 0.2534480690956116 0.6434108018875122
0.27131783962249756 0.2512890696525574 0.6589146852493286
0.27131783962249756 0.24889743328094482 0.674418568611145
0.27131783962249756 0.24592319130897522 0.6899224519729614
0.27131783962249756 0.2415957897901535 0.7054263353347778
0.28682172298431396 -0.24076983332633972 0.6279069185256958
0.28682172298431396 -0.2418929785490036 0.6434108018875122
0.28682172298431396 -0.23580940067768097 0.612403154373169
0.28682172298431396 -0.2398158460855484 0.6589146852493286
0.28682172298431396 -0.23595738410949707 0.674418568611145
0.28682172298431396 -0.23255854845046997 0.6899224519729614
0.28682172298431396 -0.22787423431873322 0.7054263353347778
0.28682172298431396 -0.21239744126796722 0.5813953876495361
0.28682172298431396 -0.22317802906036377 0.5968992710113525
0.28682172298431396 -0.22281745076179504 0.7209302186965942
0.28682172298431396 -0.21705211699008942 0.7364341020584106
0.28682172298431396 -0.21034204959869385 0.751937985420227
0.28682172298431396 -0.20199130475521088 0.5658915042877197
0.28682172298431396 -0.20119431614875793 0.7674418687820435
0.28682172298431396 -0.18978333473205566 0.5503876209259033
0.28682172298431396 -0.18908587098121643 0.7829457521438599
0.28682172298431396 -0.16382759809494019 0.5193798542022705
0.28682172298431396 -0.1761746108531952 0.5348837375640869
0.28682172298431396 -0.17485596239566803 0.7984496355056763
0.28682172298431396 -0.1508762538433075 0.5038759708404541
0.28682172298431396 -0.15858282148838043 0.8139535188674927
0.28682172298431396 -0.13488483428955078 0.4883720874786377
0.28682172298431396 -0.1381502002477646 0.8294574022293091
0.28682172298431396 -0.11457707732915878 0.4728682041168213
0.28682172298431396 -0.11365202814340591 0.8449612855911255
0.28682172298431396 -0.0893528163433075 0.4573643207550049
0.28682172298431396 -0.08636010438203812 0.8604651689529419
0.28682172298431396 -0.04173608124256134 0.4418604373931885
0.28682172298431396 -0.03384120762348175 0.8759689331054688
0.28682172298431396 0.01531946286559105 0.8759689331054688
0.28682172298431396 0.03376021608710289 0.4418604373931885
0.28682172298431396 0.0829295665025711 0.4573643207550049
0.28682172298431396 0.07859967648983002 0.8604651689529419
0.28682172298431396 0.11018867790699005 0.4728682041168213
0.28682172298431396 0.11127869784832001 0.8449612855911255
0.28682172298431396 0.13142430782318115 0.4883720874786377
0.28682172298431396 0.13755519688129425 0.8294574022293091
0.28682172298431396 0.14851771295070648 0.5038759708404541
0.28682172298431396 0.16247081756591797 0.5193798542022705
0.28682172298431396 0.15785206854343414 0.8139535188674927
0.28682172298431396 0.17430874705314636 0.5348837375640869
0.28682172298431396 0.17394450306892395 0.7984496355056763
0.28682172298431396 0.18532127141952515 0.5503876209259033
0.28682172298431396 0.1874767690896988 0.7829457521438599
0.28682172298431396 0.1954873502254486 0.5658915042877197
0.28682172298431396 0.20598220825195312 0.5813953876495361
0.28682172298431396 0.20664681494235992 0.751937985420227
0.28682172298431396 0.1980881690979004 0.7674418687820435
0.28682172298431396 0.21612757444381714 0.5968992710113525
0.28682172298431396 0.22341138124465942 0.7054263353347778
0.28682172298431396 0.21909135580062866 0.7209302186965942
0.28682172298431396 0.21289792656898499 0.7364341020584106
0.28682172298431396 0.227425217628479 0.612403154373169
0.28682172298431396 0.23461246490478516 0.6279069185256958
0.28682172298431396 0.23609867691993713 0.6434108018875122
0.28682172298431396 0.2335212379693985 0.6589146852493286
0.28682172298431396 0.23021167516708374 0.674418568611145
0.28682172298431396 0.22663481533527374 0.6899224519729614
0.30232560634613037 -0.21602776646614075 0.612403154373169
0.30232560634613037 -0.22253072261810303 0.6279069185256958
0.30232560634613037 -0.22363242506980896 0.6434108018875122
0.30232560634613037 -0.22096458077430725 0.6589146852493286
0.30232560634613037 -0.2169201374053955 0.674418568611145
0.30232560634613037 -0.21243853867053986 0.6899224519729614
0.30232560634613037 -0.20408995449543 0.5968992710113525
0.30232560634613037 -0.20814822614192963 0.7054263353347778
0.30232560634613037 -0.2028808891773224 0.7209302186965942
0.30232560634613037 -0.19659781455993652 0.7364341020584106
0.30232560634613037 -0.178322896361351 0.5658915042877197
0.30232560634613037 -0.19129808247089386 0.5813953876495361
0.30232560634613037 -0.18760763108730316 0.751937985420227
0.30232560634613037 -0.16562990844249725 0.5503876209259033
0.30232560634613037 -0.1778474599123001 0.7674418687820435
0.30232560634613037 -0.16571500897407532 0.7829457521438599
0.30232560634613037 -0.15132732689380646 0.5348837375640869
0.30232560634613037 -0.1491655558347702 0.7984496355056763
0.30232560634613037 -0.13796879351139069 0.5193798542022705
0.30232560634613037 -0.12304860353469849 0.5038759708404541
0.30232560634613037 -0.12932714819908142 0.8139535188674927
0.30232560634613037 -0.10377958416938782 0.4883720874786377
0.30232560634613037 -0.10842020064592361 0.8294574022293091
0.30232560634613037 -0.07743982970714569 0.4728682041168213
0.30232560634613037 -0.08036182820796967 0.8449612259864807
0.30232560634613037 0.06721165776252747 0.8449612855911255
0.30232560634613037 0.07045526802539825 0.4728682041168213
0.30232560634613037 0.09979544579982758 0.4883720874786377
0.302325576543808 0.10336954891681671 0.8294574022293091
0.30232560634613037 0.11927832663059235 0.5038759708404541
0.30232560634613037 0.12864935398101807 0.8139535188674927
0.30232560634613037 0.1348705291748047 0.5193798542022705
0.30232560634613037 0.14846552908420563 0.5348837375640869
0.30232560634613037 0.1617887169122696 0.5503876209259033
0.30232560634613037 0.1491737961769104 0.7984496355056763
0.30232560634613037 0.17357468605041504 0.5658915042877197
0.30232560634613037 0.17558741569519043 0.7674418687820435
0.30232560634613037 0.1646280437707901 0.7829457521438599
0.30232560634613037 0.18364208936691284 0.5813953876495361
0.30232560634613037 0.19187994301319122 0.7364341020584106
0.30232560634613037 0.184796541929245 0.751937985420227
0.30232560634613037 0.19518274068832397 0.5968992710113525
0.30232560634613037 0.20782068371772766 0.612403154373169
0.30232560634613037 0.20926329493522644 0.674418568611145
0.30232560634613037 0.2072867453098297 0.6899224519729614
0.30232560634613037 0.20324155688285828 0.7054263353347778
0.30232560634613037 0.19692713022232056 0.7209302186965942
0.30232560634613037 0.21375343203544617 0.6279069185256958
0.30232560634613037 0.21577796339988708 0.6434108018875122
0.30232560634613037 0.21265307068824768 0.6589146852493286
0.3178294897079468 -0.19925819337368011 0.6279069185256958
0.3178294897079468 -0.20137625932693481 0.6434108018875122
0.3178294897079468 -0.19792540371418 0.6589146852493286
0.3178294897079468 -0.19427607953548431 0.674418568611145
0.3178294897079468 -0.1922864317893982 0.612403154373169
0.3178294897079468 -0.19103950262069702 0.6899224519729614
0.3178294897079468 -0.1855531930923462 0.7054263353347778
0.3178294897079468 -0.1799309402704239 0.7209302186965942
0.3178294897079468 -0.1649472415447235 0.5813953876495361
0.3178294897079468 -0.17785760760307312 0.5968992710113525
0.3178294897079468 -0.17132852971553802 0.7364341020584106
0.3178294897079468 -0.1628883183002472 0.751937985420227
0.3178294897079468 -0.15135931968688965 0.5658915042877197
0.3178294897079468 -0.1514584720134735 0.7674418687820435
0.3178294897079468 -0.13646316528320312 0.5503876209259033
0.3178294897079468 -0.1371733546257019 0.7829457521438599
0.3178294897079468 -0.1208190992474556 0.5348837375640869
0.3178294897079468 -0.11898026615381241 0.7984496355056763
0.3178294897079468 -0.10504987090826035 0.5193798542022705
0.3178294897079468 -0.08584228903055191 0.5038759708404541
0.3178294897079468 -0.09773866087198257 0.8139535188674927
0.3178294897079468 -0.06609094142913818 0.8294574022293091
0.3178294897079468 -0.05183906480669975 0.4883720874786377
0.3178294897079468 0.048047758638858795 0.4883720874786377
0.3178294897079468 0.049800217151641846 0.8294574022293091
0.3178294897079468 0.08253208547830582 0.5038759708404541
0.3178294897079468 0.09176795929670334 0.8139535188674927
0.3178294897079468 0.10289733856916428 0.5193798542022705
0.3178294897079468 0.1161670982837677 0.7984496355056763
0.3178294897079468 0.1187015250325203 0.5348837375640869
0.3178294897079468 0.13294805586338043 0.5503876209259033
0.3178294897079468 0.14681506156921387 0.5658915042877197
0.3178294897079468 0.13590434193611145 0.7829457521438599
0.3178294897079468 0.15958096086978912 0.5813953876495361
0.3178294897079468 0.16038843989372253 0.751937985420227
0.3178294897079468 0.14961028099060059 0.7674418687820435
0.3178294897079468 0.17204105854034424 0.5968992710113525
0.3178294897079468 0.175221785902977 0.7209302186965942
0.3178294897079468 0.1683509200811386 0.7364341020584106
0.3178294897079468 0.18487989902496338 0.612403154373169
0.3178294897079468 0.19244423508644104 0.6279069185256958
0.3178294897079468 0.1936565488576889 0.6434108018875122
0.3178294897079468 0.19203747808933258 0.6589146852493286
0.3178294897079468 0.18911121785640717 0.674418568611145
0.3178294897079468 0.18540063500404358 0.6899224519729614
0.31782951951026917 0.17928658425807953 0.7054263353347778
0.3333333730697632 -0.1735078990459442 0.6279069185256958
0.3333333730697632 -0.17552530765533447 0.6434107422828674
0.3333333730697632 -0.1724475473165512 0.6589146852493286
0.3333333730697632 -0.16741392016410828 0.674418568611145
0.3333333730697632 -0.1635981649160385 0.6899224519729614
0.33333340287208557 -0.16262993216514587 0.612403154373169
0.3333333730697632 -0.15828338265419006 0.7054263353347778
0.3333333730697632 -0.15122944116592407 0.7209302186965942
0.3333333730697632 -0.13218550384044647 0.5813953876495361
0.3333333730697632 -0.14666952192783356 0.5968992710113525
0.3333333730697632 -0.14229539036750793 0.7364341020584106
0.3333333730697632 -0.13294048607349396 0.751937985420227
0.3333333730697632 -0.11816661059856415 0.5658915042877197
0.3333333730697632 -0.1200990229845047 0.7674418687820435
0.3333333730697632 -0.101095050573349 0.5503876209259033
0.3333333730697632 -0.10405654460191727 0.7829457521438599
0.3333333730697632 -0.08064917474985123 0.5348837375640869
0.3333333730697632 -0.07995815575122833 0.798449695110321
0.3333333730697632 -0.04608367383480072 0.5193798542022705
0.3333333730697632 -0.033167723566293716 0.8139535188674927
0.3333333730697632 0.016619382426142693 0.8139535188674927
0.3333333730697632 0.04509706050157547 0.5193798542022705
0.3333333730697632 0.06789376586675644 0.7984496355056763
0.3333333730697632 0.07870640605688095 0.5348837375640869
0.3333333730697632 0.09731566905975342 0.7829457521438599
0.3333333730697632 0.10082583874464035 0.5503876209259033
0.3333333730697632 0.11571969836950302 0.7674418687820435
0.3333333730697632 0.11707005649805069 0.5658915042877197
0.3333333730697632 0.13056766986846924 0.5813953876495361
0.3333333730697632 0.12936583161354065 0.751937985420227
0.3333333730697632 0.14399710297584534 0.5968992710113525
0.3333333730697632 0.1466587632894516 0.7209302186965942
0.3333333730697632 0.13862746953964233 0.7364341020584106
0.3333333730697632 0.15851031243801117 0.612403154373169
0.3333333730697632 0.1624443680047989 0.674418568611145
0.3333333730697632 0.15966017544269562 0.6899224519729614
0.3333333730697632 0.152807354927063 0.7054263353347778
0.3333333730697632 0.16587579250335693 0.6279069185256958
0.3333333730697632 0.1684819757938385 0.6434108018875122
0.3333333730697632 0.16583457589149475 0.6589146852493286
0.3488372564315796 -0.13745054602622986 0.6279069185256958
0.3488372564315796 -0.1403922438621521 0.6434108018875122
0.3488372564315796 -0.13640117645263672 0.6589146852493286
0.3488372564315796 -0.1324864774942398 0.674418568611145
0.3488372564315796 -0.12788701057434082 0.612403154373169
0.3488372564315796 -0.12898877263069153 0.6899224519729614
0.3488372564315796 -0.12210114300251007 0.7054263353347778
0.3488372564315796 -0.11082041263580322 0.5968992710113525
0.3488372564315796 -0.11549939215183258 0.7209302186965942
0.3488372564315796 -0.1052544042468071 0.7364341020584106
0.3488372564315796 -0.09433215856552124 0.5813953876495361
0.3488372564315796 -0.09266538918018341 0.751937985420227
0.3488372564315796 -0.07335586845874786 0.7674418687820435
0.3488372564315796 -0.06922037899494171 0.5658915042877197
0.3488372564315796 -0.03363257274031639 0.7829456925392151
0.3488372564315796 -0.01282038539648056 0.5503876209259033
0.3488372564315796 0.015774326398968697 0.5503876209259033
0.3488372564315796 0.018954703584313393 0.7829457521438599
0.3488372564315796 0.06696950644254684 0.5658915042877197
0.3488372564315796 0.06063326075673103 0.7674418687820435
0.3488372564315796 0.09348256886005402 0.5813953876495361
0.3488372564315796 0.08628136664628983 0.751937985420227
0.3488372564315796 0.11034095287322998 0.5968992710113525
0.3488372564315796 0.11126510798931122 0.7209302186965942
0.3488372564315796 0.10087835043668747 0.7364341020584106
0.3488372564315796 0.12515422701835632 0.612403154373169
0.3488372564315796 0.1295439600944519 0.674418568611145
0.3488372564315796 0.12498658895492554 0.6899224519729614
0.3488372564315796 0.11772247403860092 0.7054263353347778
0.3488372564315796 0.13365264236927032 0.6279069185256958
0.3488372564315796 0.1356591284275055 0.6434108018875122
0.3488372564315796 0.13263031840324402 0.6589146852493286
0.364341139793396 -0.08977389335632324 0.6279069185256958
0.364341139793396 -0.09207218885421753 0.6434108018875122
0.364341139793396 -0.08737682551145554 0.6589146852493286
0.364341139793396 -0.07414723187685013 0.612403154373169
0.364341139793396 -0.08024431765079498 0.674418568611145
0.364341139793396 -0.07158300280570984 0.6899224519729614
0.364341139793396 -0.05789008364081383 0.7054263353347778
0.364341139793396 -0.04066269099712372 0.7209302186965942
0.364341139793396 -0.0318019837141037 0.5968992710113525
0.364341139793396 0.03338272497057915 0.5968992710113525
0.364341139793396 0.03256048262119293 0.7209302186965942
0.364341139793396 0.05187225341796875 0.7054263353347778
0.364341139793396 0.06632564961910248 0.6899224519729614
0.364341139793396 0.0718080922961235 0.612403154373169
0.364341139793396 0.08381262421607971 0.6589146852493286
0.364341139793396 0.07538401335477829 0.674418568611145
0.364341139793396 0.08718875050544739 0.6279069185256958
0.364341139793396 0.08924980461597443 0.6434108018875122
-0.3643410801887512 -0.08527129888534546 0.6249834299087524
-0.3643410801887512 -0.08527129888534546 0.6548504829406738
-0.3643410801887512 -0.06976741552352905 0.6111655235290527
-0.3643410801887512 -0.06976741552352905 0.6816293001174927
-0.3643410801887512 -0.05426359176635742 0.6052150726318359
-0.3643410801887512 -0.05426359176635742 0.696935772895813
-0.3643410801887512 -0.038759708404541016 0.6000401377677917
-0.3643410801887512 -0.038759708404541016 0.7068915367126465
-0.3643410801887512 -0.02325582504272461 0.5962783694267273
-0.3643410801887512 -0.02325582504272461 0.7135469913482666
-0.3643410801887512 -0.007751941680908203 0.5944203734397888
-0.3643410801887512 -0.007751941680908203 0.7163428068161011
-0.3643410801887512 0.007751941680908203 0.5951480865478516
-0.3643410801887512 0.007751941680908203 0.7140432596206665
