-0.08828654140233994 0.007751941680908203 0.1472867727279663
-0.09049566090106964 0.02325582504272461 -0.08527129888534546
-0.09455636143684387 0.02325582504272461 -0.06976741552352905
-0.09748383611440659 0.02325582504272461 -0.05426359176635742
-0.09044447541236877 0.02325582504272461 0.11627912521362305
-0.09123214334249496 0.02325582504272461 0.1317828893661499
-0.10018289089202881 0.02325582504272461 0.9689922332763672
-0.08541098237037659 0.038759708404541016 -0.08527129888534546
-0.08923410624265671 0.038759708404541016 -0.06976741552352905
-0.09170429408550262 0.038759708404541016 -0.05426359176635742
-0.08536618947982788 0.038759708404541016 0.1317828893661499
-0.09718970954418182 0.038759708404541016 0.9689922332763672
-0.08579181134700775 0.05426359176635742 -0.05426359176635742
-0.10024047642946243 0.08527135848999023 0.9534883499145508
-0.0992378517985344 0.10077524185180664 0.24031007289886475
-0.08553580194711685 0.10077524185180664 0.9534883499145508
-0.10072583705186844 0.1317828744649887 0.25581395626068115
-0.08949169516563416 0.1472867727279663 0.30232560634613037
-0.09575702250003815 0.1472867727279663 0.3178294897079468
-0.10002210736274719 0.1472867727279663 0.3333333730697632
-0.08791695535182953 0.1472867727279663 0.3488372564315796
-0.08954323828220367 0.1472867727279663 0.37984490394592285
-0.10024847835302353 0.1472867727279663 0.39534875750541687
-0.09820540994405746 0.1472867727279663 0.922480583190918
-0.08952976763248444 0.16279065608978271 0.41085267066955566
-0.09272398054599762 0.19379842281341553 0.4573643207550049
-0.09313949197530746 0.22480618953704834 0.5038759708404541
-0.0920754224061966 0.22480618953704834 0.8449612855911255
-0.09794777631759644 0.24031007289886475 0.5348837375640869
-0.1006023958325386 0.24031007289886475 0.8139535188674927
-0.09379416704177856 0.25581395626068115 0.5658915042877197
-0.09609867632389069 0.25581395626068115 0.7829458117485046
-0.08616690337657928 0.27131783962249756 0.612403154373169
-0.09469154477119446 0.27131783962249756 0.6279069185256958
-0.09937983751296997 0.27131783962249756 0.6434108018875122
-0.1003040075302124 0.27131783962249756 0.7054263353347778
-0.09529520571231842 0.27131783962249756 0.7209302186965942
-0.08775936812162399 0.27131783962249756 0.7364341020584106
-0.07733895629644394 -0.27131783962249756 0.5813953876495361
-0.07950903475284576 -0.27131783962249756 0.751937985420227
-0.0784442275762558 -0.25581395626068115 0.7984496355056763
-0.0756867527961731 -0.24031007289886475 0.8294574022293091
-0.08060164004564285 -0.20930230617523193 0.4728682041168213
-0.07519014179706573 -0.20930230617523193 0.8759689331054688
-0.0727304071187973 -0.19379842281341553 0.4418604373931885
-0.07790309190750122 -0.19379842281341553 0.8914728164672852
-0.07529852539300919 -0.1782945990562439 0.9069766998291016
-0.07369393110275269 -0.1627907156944275 0.3333333730697632
-0.08057679235935211 -0.1627907156944275 0.39534878730773926
-0.07098276168107986 -0.14728683233261108 0.25581395626068115
-0.07498790323734283 -0.14728683233261108 0.27131783962249756
-0.08361097425222397 -0.14728683233261108 0.28682172298431396
-0.07493335753679276 -0.14728683233261108 0.364341139793396
-0.07567326724529266 -0.13178294897079468 0.24031007289886475
-0.0838838666677475 -0.13178294897079468 0.9379844665527344
-0.07058830559253693 -0.06976741552352905 -0.05426359176635742
-0.08062975853681564 -0.06976741552352905 0.9689922332763672
-0.07588400691747665 -0.05426359176635742 -0.08527129888534546
-0.0838608592748642 -0.05426359176635742 -0.06976741552352905
-0.07111695408821106 -0.05426359176635742 0.10077524185180664
-0.08209037780761719 -0.05426359176635742 0.11627912521362305
-0.08251533657312393 -0.05426358804106712 0.1317828893661499
-0.0716901645064354 -0.05426359176635742 0.1472867727279663
-0.07788953185081482 -0.038759708404541016 -0.13178294897079468
-0.07232416421175003 -0.038759708404541016 -0.11627906560897827
-0.07738848030567169 -0.038759708404541016 -0.10077518224716187
-0.07403597235679626 -0.038759708404541016 -0.038759708404541016
-0.07025973498821259 -0.038759708404541016 0.06976747512817383
-0.07393000274896622 -0.038759708404541016 0.08527135848999023
-0.08288263529539108 -0.038759708404541016 0.1472867727279663
-0.0740676000714302 -0.02325582504272461 -0.14728683233261108
-0.08181607723236084 -0.02325582690536976 -0.11627906560897827
-0.08261752128601074 -0.02325582504272461 -0.038759708404541016
-0.06992588937282562 -0.02325582504272461 -0.02325582504272461
-0.07032553851604462 -0.02325582504272461 0.02325582504272461
-0.07141904532909393 -0.02325582504272461 0.038759708404541016
-0.0731959193944931 -0.02325582504272461 0.05426359176635742
-0.07611319422721863 -0.02325582504272461 0.06976747512817383
-0.08236405998468399 -0.02325582504272461 0.08527135848999023
-0.0730506032705307 -0.02325582504272461 0.16279065608978271
-0.07544061541557312 -0.02325582504272461 0.22480618953704834
-0.06988897174596786 -0.007751941680908203 -0.20930230617523193
-0.07033274322748184 -0.007751941680908203 -0.19379842281341553
-0.07058586925268173 -0.007751941680908203 -0.1782945990562439
-0.0712253525853157 -0.007751941680908203 -0.1627907156944275
-0.07693639397621155 -0.007751941680908203 -0.14728683233261108
-0.0848015770316124 -0.007751941680908203 -0.03875970467925072
-0.07167595624923706 -0.007751941680908203 -0.02325582504272461
-0.07034897059202194 -0.007751941680908203 -0.007751941680908203
-0.07133901864290237 -0.007751941680908203 0.007751941680908203
-0.07254903018474579 -0.007751941680908203 0.02325582504272461
-0.07385101169347763 -0.007751941680908203 0.038759708404541016
-0.07565204054117203 -0.007751941680908203 0.05426359176635742
-0.07894521206617355 -0.007751941680908203 0.06976747512817383
-0.08505214750766754 -0.007751941215246916 0.08527135848999023
-0.07559752464294434 -0.007751941680908203 0.16279065608978271
-0.0707922875881195 -0.007751941680908203 0.17829453945159912
-0.0698651447892189 -0.007751941680908203 0.19379842281341553
-0.07327882945537567 -0.007751941680908203 0.20930230617523193
-0.07863099873065948 -0.007751941680908203 0.22480618953704834
-0.06988151371479034 0.007751941680908203 -0.19379842281341553
-0.07013285905122757 0.007751941680908203 -0.1782945990562439
-0.07062553614377975 0.007751941680908203 -0.1627907156944275
-0.07569397985935211 0.007751941680908203 -0.14728683233261108
-0.08390268683433533 0.007751941680908203 -0.11627905815839767
-0.08383115381002426 0.007751941680908203 -0.038759708404541016
-0.07124710083007812 0.007751941680908203 -0.02325582504272461
-0.0697852373123169 0.007751941680908203 -0.007751941680908203
-0.07070721685886383 0.007751941680908203 0.007751941680908203
-0.0717415064573288 0.007751941680908203 0.02325582504272461
-0.0730459913611412 0.007751941680908203 0.038759708404541016
-0.07466574758291245 0.007751941680908203 0.05426359176635742
-0.07754912972450256 0.007751941680908203 0.06976747512817383
-0.08258289843797684 0.00775194214656949 0.08527135848999023
-0.07427849620580673 0.007751941680908203 0.16279065608978271
-0.06999360769987106 0.007751941680908203 0.17829453945159912
-0.07200954854488373 0.007751941680908203 0.20930230617523193
-0.07742545008659363 0.007751941680908203 0.22480618953704834
-0.07064259052276611 0.02325582504272461 -0.14728683233261108
-0.08030790090560913 0.02325582504272461 -0.13178294897079468
-0.07544812560081482 0.02325582504272461 -0.11627906560897827
-0.0825997069478035 0.02325582504272461 -0.10077518224716187
-0.08031852543354034 0.02325582504272461 -0.038759708404541016
-0.07049847394227982 0.02325582504272461 0.05426359176635742
-0.07238667458295822 0.02325582504272461 0.06976747512817383
-0.0761617049574852 0.02325582504272461 0.08527135848999023
-0.08486419916152954 0.02325582504272461 0.10077524185180664
-0.08415020257234573 0.02325582504272461 0.1472867727279663
-0.07035912573337555 0.02325582504272461 0.16279065608978271
-0.072269007563591 0.02325582504272461 0.22480618953704834
-0.07116931676864624 0.038759708404541016 -0.13178294897079468
-0.07163680344820023 0.038759708404541016 -0.10077518224716187
-0.07421199232339859 0.038759708404541016 0.10077524185180664
-0.08441400527954102 0.038759708404541016 0.11627912521362305
-0.07481472194194794 0.038759708404541016 0.1472867727279663
-0.07138484716415405 0.05426359176635742 -0.08527129888534546
-0.07967536151409149 0.05426359176635742 -0.06976741552352905
-0.07148700207471848 0.05426359176635742 0.11627912521362305
-0.07341203093528748 0.05426359176635742 0.1317828893661499
-0.08477695286273956 0.05426359176635742 0.9689921736717224
-0.07046613097190857 0.06976747512817383 -0.05426359176635742
-0.07446317374706268 0.06976747512817383 0.9689922332763672
-0.0805123969912529 0.11627911776304245 0.24031007289886475
-0.08440743386745453 0.1317828893661499 0.9379844665527344
-0.07235641032457352 0.1472867727279663 0.25581395626068115
-0.07680939137935638 0.1472867727279663 0.27131783962249756
-0.08340947329998016 0.1472867727279663 0.28682172298431396
-0.08107996731996536 0.1472867727279663 0.364341139793396
-0.07823631167411804 0.17829453945159912 0.42635655403137207
-0.07469014078378677 0.17829453945159912 0.9069766998291016
-0.0757761299610138 0.19379842281341553 0.8914728164672852
-0.07906627655029297 0.20930230617523193 0.4728682339191437
-0.07222430408000946 0.20930230617523193 0.8759689331054688
-0.07547838985919952 0.24031007289886475 0.5193798542022705
-0.07602979242801666 0.24031007289886475 0.8294574022293091
-0.07438428699970245 0.25581395626068115 0.5503876209259033
-0.07706555724143982 0.25581395626068115 0.7984496355056763
-0.07338464260101318 0.27131783962249756 0.5968992710113525
-0.07656799256801605 0.27131783962249756 0.751937985420227
-0.055566780269145966 -0.28682172298431396 0.6589146852493286
-0.05568647384643555 -0.28682172298431396 0.674418568611145
-0.06204451993107796 -0.27131783962249756 0.7674418687820435
-0.0601000040769577 -0.25581395626068115 0.5348837375640869
-0.06291273236274719 -0.22480618953704834 0.4883720576763153
-0.06213903799653053 -0.22480618953704834 0.8604651689529419
-0.0637923926115036 -0.1782945990562439 0.41085267066955566
-0.054580528289079666 -0.1627907156944275 0.30232560634613037
-0.06693537533283234 -0.16279073059558868 0.31782951951026917
-0.055403899401426315 -0.1627907156944275 0.3488372564315796
-0.06712890416383743 -0.1627907156944275 0.37984490394592285
-0.06560081988573074 -0.1627907156944275 0.922480583190918
-0.06683705747127533 -0.11627906560897827 0.9534883499145508
-0.062355298548936844 -0.08527129888534546 0.9689922332763672
-0.060700006783008575 -0.06976741552352905 -0.06976741552352905
-0.05830137059092522 -0.06976741552352905 0.11627912521362305
-0.06318245828151703 -0.06976741552352905 0.1317828893661499
-0.06846875697374344 -0.05426359176635742 -0.13178294897079468
-0.05854992941021919 -0.05426359176635742 -0.10077518224716187
-0.054470643401145935 -0.05426359176635742 0.06976747512817383
-0.05810330808162689 -0.05426359176635742 0.08527135848999023
-0.05643533915281296 -0.05426359176635742 0.22480618953704834
-0.05684453994035721 -0.038759708404541016 -0.9844961166381836
-0.05469327047467232 -0.038759708404541016 -0.22480618953704834
-0.05533912777900696 -0.038759708404541016 -0.20930230617523193
-0.055968865752220154 -0.038759708404541016 -0.19379842281341553
-0.056113749742507935 -0.038759708404541016 -0.1782945990562439
-0.05673297494649887 -0.038759708404541016 -0.1627907156944275
-0.06493722647428513 -0.038759708404541016 -0.14728683233261108
-0.05572183057665825 -0.038759708404541016 -0.02325582504272461
-0.056191228330135345 -0.038759708404541016 -0.007751941680908203
-0.05917838215827942 -0.038759708404541016 0.007751941680908203
-0.061746351420879364 -0.038759708404541016 0.02325582504272461
-0.06413199007511139 -0.038759708404541016 0.038759708404541016
-0.06715500354766846 -0.038759708404541016 0.05426359176635742
-0.06701603531837463 -0.038759708404541016 0.16279065608978271
-0.05834558606147766 -0.038759708404541016 0.17829453945159912
-0.0589115172624588 -0.038759708404541016 0.19379842281341553
-0.06318648159503937 -0.038759708404541016 0.20930230617523193
-0.06910905241966248 -0.038759708404541016 0.22480618953704834
-0.06360162794589996 -0.02325582504272461 -0.9844961166381836
-0.05984751880168915 -0.02325582504272461 -0.9689922332763672
-0.05965351313352585 -0.02325582504272461 -0.9534883499145508
-0.059790320694446564 -0.02325582504272461 -0.9379844665527344
-0.05978521704673767 -0.02325582504272461 -0.9224806427955627
-0.05971212312579155 -0.02325582504272461 -0.9069767594337463
-0.059697214514017105 -0.02325582504272461 -0.8914729356765747
-0.05972743779420853 -0.02325582504272461 -0.8759689331054688
-0.05961046367883682 -0.02325582504272461 -0.8604651093482971
-0.059664539992809296 -0.02325582504272461 -0.8449612855911255
-0.059800341725349426 -0.02325582504272461 -0.8294574022293091
-0.05958080291748047 -0.02325582504272461 -0.8139535188674927
-0.05919453501701355 -0.02325582504272461 -0.7984496355056763
-0.059443626552820206 -0.02325582504272461 -0.7829457521438599
-0.05982515215873718 -0.02325582504272461 -0.7674418687820435
-0.05979694426059723 -0.02325582504272461 -0.751937985420227
-0.05993185192346573 -0.02325582504272461 -0.7364341020584106
-0.060072071850299835 -0.02325582504272461 -0.7209302186965942
-0.060100845992565155 -0.02325582504272461 -0.7054263353347778
-0.05998520180583 -0.02325582504272461 -0.6899224519729614
-0.059938449412584305 -0.02325582504272461 -0.674418568611145
-0.059929631650447845 -0.02325582504272461 -0.6589146852493286
-0.05977245420217514 -0.02325582504272461 -0.643410861492157
-0.05967569351196289 -0.02325582504272461 -0.6279069781303406
-0.05964307859539986 -0.02325582504272461 -0.6124030947685242
-0.0596923753619194 -0.02325582504272461 -0.5968992114067078
-0.05964609980583191 -0.02325582504272461 -0.5813953876495361
-0.05963354557752609 -0.02325582504272461 -0.5658915042877197
-0.05989076942205429 -0.02325582504272461 -0.5503876209259033
-0.06000752002000809 -0.02325582504272461 -0.5348837375640869
-0.06004613637924194 -0.02325582504272461 -0.5193798542022705
-0.05997632443904877 -0.02325582504272461 -0.5038759708404541
-0.05986778438091278 -0.02325582504272461 -0.4883720874786377
-0.059710972011089325 -0.02325582504272461 -0.4728682041168213
-0.059625014662742615 -0.02325582504272461 -0.4573643207550049
-0.059676267206668854 -0.02325582504272461 -0.4418604373931885
-0.05957058072090149 -0.02325582504272461 -0.42635661363601685
-0.059585973620414734 -0.02325582504272461 -0.41085273027420044
-0.05996488779783249 -0.02325582504272461 -0.39534884691238403
-0.060298215597867966 -0.02325582504272461 -0.3798449635505676
-0.060450099408626556 -0.02325582504272461 -0.3643410801887512
-0.06072116643190384 -0.02325582504272461 -0.3488371968269348
-0.060980506241321564 -0.02325582504272461 -0.3333333134651184
-0.061229158192873 -0.02325582504272461 -0.317829430103302
-0.06171005964279175 -0.02325582504272461 -0.30232560634613037
-0.062309958040714264 -0.02325582504272461 -0.28682172298431396
-0.06301284581422806 -0.02325582504272461 -0.27131783962249756
-0.0635446235537529 -0.02325582504272461 -0.25581395626068115
-0.0639101192355156 -0.02325582504272461 -0.24031007289886475
-0.06426312029361725 -0.02325582504272461 -0.22480618953704834
-0.06514552980661392 -0.02325582504272461 -0.20930230617523193
-0.06629256159067154 -0.02325582504272461 -0.19379842281341553
-0.06704540550708771 -0.02325582504272461 -0.1782946139574051
-0.06789422035217285 -0.02325582504272461 -0.1627907156944275
-0.06680228561162949 -0.02325582504272461 -0.007751941680908203
-0.0691063329577446 -0.02325582504272461 0.007751941215246916
-0.06781195849180222 -0.02325582504272461 0.17829453945159912
-0.06689632683992386 -0.02325582504272461 0.19379842281341553
-0.06951648741960526 -0.02325582504272461 0.20930232107639313
-0.05974482744932175 -0.02325582504272461 0.9844961166381836
-0.06972742825746536 -0.007751941215246916 -0.9844961166381836
-0.06352598965167999 -0.007751941680908203 -0.9689922332763672
-0.06282473355531693 -0.007751941680908203 -0.9534883499145508
-0.06283612549304962 -0.007751941680908203 -0.9379844665527344
-0.06273369491100311 -0.007751941680908203 -0.922480583190918
-0.0625617504119873 -0.007751941680908203 -0.9069766998291016
-0.062417104840278625 -0.007751941680908203 -0.8914728760719299
-0.062352269887924194 -0.007751941680908203 -0.8759689331054688
-0.06217557191848755 -0.007751941680908203 -0.8604651689529419
-0.06216420233249664 -0.007751941680908203 -0.8449612259864807
-0.06236637383699417 -0.007751941680908203 -0.8294574022293091
-0.06224118173122406 -0.007751941680908203 -0.8139535188674927
-0.062006738036870956 -0.007751941680908203 -0.7984496355056763
-0.06223084777593613 -0.007751941680908203 -0.7829457521438599
-0.06260956823825836 -0.007751941680908203 -0.7674418687820435
-0.06272665411233902 -0.007751941680908203 -0.751937985420227
-0.0629042536020279 -0.007751941680908203 -0.7364341020584106
-0.0631038099527359 -0.007751941680908203 -0.7209302186965942
-0.06320827454328537 -0.007751941680908203 -0.7054263353347778
-0.06310178339481354 -0.007751941680908203 -0.6899224519729614
-0.0631139948964119 -0.007751941680908203 -0.674418568611145
-0.06312407553195953 -0.007751941680908203 -0.6589146852493286
-0.06284497678279877 -0.007751941680908203 -0.6434108018875122
-0.06260795891284943 -0.007751941680908203 -0.6279069781303406
-0.06257764995098114 -0.00775194214656949 -0.6124030947685242
-0.06259426474571228 -0.007751941680908203 -0.5968992114067078
-0.06257816404104233 -0.007751941680908203 -0.5813953876495361
-0.06264099478721619 -0.007751941680908203 -0.5658915042877197
-0.06290635466575623 -0.007751941680908203 -0.5503876209259033
-0.06301264464855194 -0.007751941680908203 -0.5348837375640869
-0.06302353739738464 -0.007751941680908203 -0.5193798542022705
-0.06296724081039429 -0.007751941680908203 -0.5038759708404541
-0.0628800243139267 -0.007751941215246916 -0.4883720874786377
-0.06270407140254974 -0.007751941680908203 -0.4728682041168213
-0.06259316205978394 -0.00775194214656949 -0.4573643207550049
-0.06263704597949982 -0.007751941680908203 -0.4418604373931885
-0.06258814036846161 -0.007751941680908203 -0.42635661363601685
-0.06269966810941696 -0.007751941680908203 -0.41085273027420044
-0.063112773001194 -0.007751941680908203 -0.39534884691238403
-0.06358030438423157 -0.007751941215246916 -0.3798449635505676
-0.06388413906097412 -0.00775194214656949 -0.3643410801887512
-0.06429678946733475 -0.007751941680908203 -0.3488371968269348
-0.06472864001989365 -0.007751941680908203 -0.3333333134651184
-0.06511446088552475 -0.007751941680908203 -0.317829430103302
-0.06561170518398285 -0.007751941680908203 -0.30232560634613037
-0.06631926447153091 -0.007751941215246916 -0.28682172298431396
-0.06716840714216232 -0.00775194214656949 -0.27131783962249756
-0.0677061527967453 -0.007751941680908203 -0.25581395626068115
-0.06820150464773178 -0.007751941680908203 -0.24031007289886475
-0.0689622014760971 -0.007751941680908203 -0.22480618953704834
-0.06380148231983185 -0.007751941680908203 0.9844961166381836
-0.06909560412168503 0.007751941680908203 -0.9844961166381836
-0.0632033497095108 0.007751941680908203 -0.9689922332763672
-0.062465470284223557 0.007751941680908203 -0.9534883499145508
-0.06247657537460327 0.00775194214656949 -0.9379844665527344
-0.06236106902360916 0.007751941215246916 -0.922480583190918
-0.06218116730451584 0.007751941680908203 -0.9069767594337463
-0.06206151098012924 0.007751941680908203 -0.8914728760719299
-0.06201544776558876 0.007751941680908203 -0.8759689927101135
-0.061839405447244644 0.007751941680908203 -0.8604651093482971
-0.061821259558200836 0.007751941680908203 -0.8449612259864807
-0.06200479343533516 0.007751941680908203 -0.8294573426246643
-0.061903297901153564 0.007751941680908203 -0.8139535188674927
-0.06170264631509781 0.007751941680908203 -0.7984496355056763
-0.061906442046165466 0.007751941680908203 -0.7829457521438599
-0.06229019910097122 0.007751941680908203 -0.7674418687820435
-0.0624505952000618 0.007751941680908203 -0.751937985420227
-0.0626499131321907 0.007751941680908203 -0.7364341020584106
-0.06285937875509262 0.007751941215246916 -0.7209302186965942
-0.06297845393419266 0.007751941680908203 -0.7054263353347778
-0.06285964697599411 0.007751941680908203 -0.6899224519729614
-0.06283701956272125 0.007751941680908203 -0.674418568611145
-0.06282411515712738 0.007751941680908203 -0.6589146852493286
-0.06253223121166229 0.007751941680908203 -0.643410861492157
-0.06227881461381912 0.007751941215246916 -0.6279069185256958
-0.062256671488285065 0.007751941680908203 -0.6124030947685242
-0.06227359175682068 0.007751941680908203 -0.5968992710113525
-0.062268033623695374 0.007751941680908203 -0.5813953876495361
-0.06238345801830292 0.007751941680908203 -0.5658915042877197
-0.06264325231313705 0.007751941680908203 -0.5503876209259033
-0.06274417042732239 0.007751941680908203 -0.5348837375640869
-0.06276582181453705 0.007751941680908203 -0.5193798542022705
-0.06270669400691986 0.007751941680908203 -0.5038759708404541
-0.06262189149856567 0.00775194214656949 -0.4883721172809601
-0.06242334842681885 0.007751941680908203 -0.4728682041168213
-0.06227458268404007 0.007751941680908203 -0.4573643207550049
-0.06228853389620781 0.007751941680908203 -0.4418604373931885
-0.06222935765981674 0.007751941680908203 -0.42635661363601685
-0.06232975050806999 0.007751941680908203 -0.41085273027420044
-0.06267974525690079 0.007751941680908203 -0.39534884691238403
-0.06312352418899536 0.007751941680908203 -0.3798449635505676
-0.06348741799592972 0.007751941215246916 -0.3643410801887512
-0.0638795718550682 0.007751941680908203 -0.3488371968269348
-0.06426830589771271 0.007751941680908203 -0.3333333134651184
-0.06463716179132462 0.007751941680908203 -0.317829430103302
-0.06504698842763901 0.007751941680908203 -0.30232560634613037
-0.0656328797340393 0.007751941680908203 -0.28682172298431396
-0.06642547994852066 0.00775194214656949 -0.27131783962249756
-0.06695801764726639 0.007751941680908203 -0.25581395626068115
-0.0673767626285553 0.007751941680908203 -0.24031007289886475
-0.06795080751180649 0.007751941680908203 -0.22480618953704834
-0.06890341639518738 0.007751941215246916 -0.20930230617523193
-0.06871682405471802 0.00775194214656949 0.19379842281341553
-0.06271680444478989 0.007751941680908203 0.9844961166381836
-0.06303960829973221 0.02325582504272461 -0.9844961166381836
-0.058651089668273926 0.02325582504272461 -0.9689922332763672
-0.0582791343331337 0.02325582504272461 -0.9534883499145508
-0.058477431535720825 0.02325582504272461 -0.9379844665527344
-0.05851956456899643 0.02325582504272461 -0.9224806427955627
-0.05841146409511566 0.02325582504272461 -0.9069767594337463
-0.05836976319551468 0.02325582504272461 -0.8914728760719299
-0.058390624821186066 0.02325582504272461 -0.8759689927101135
-0.058200903236866 0.02325582504272461 -0.8604650497436523
-0.0581238754093647 0.02325582504272461 -0.8449612259864807
-0.05823774263262749 0.02325582504272461 -0.8294574022293091
-0.05813629552721977 0.02325582504272461 -0.8139535188674927
-0.05793542414903641 0.02325582504272461 -0.7984496355056763
-0.05810185521841049 0.02325582504272461 -0.7829457521438599
-0.05836430937051773 0.02325582504272461 -0.7674418687820435
-0.05845489352941513 0.02325582504272461 -0.751937985420227
-0.058675236999988556 0.02325582504272461 -0.7364341020584106
-0.058879829943180084 0.02325582504272461 -0.7209302186965942
-0.058969661593437195 0.02325582504272461 -0.7054263353347778
-0.058789364993572235 0.02325582504272461 -0.6899224519729614
-0.05862276256084442 0.02325582504272461 -0.674418568611145
-0.058556947857141495 0.02325582504272461 -0.6589146852493286
-0.05827060341835022 0.02325582504272461 -0.643410861492157
-0.058024048805236816 0.02325582504272461 -0.6279069781303406
-0.05804908275604248 0.02325582504272461 -0.6124030947685242
-0.05818904936313629 0.02325582504272461 -0.5968992114067078
-0.05823330953717232 0.02325582504272461 -0.5813953876495361
-0.05840408056974411 0.02325582504272461 -0.5658915042877197
-0.05870598927140236 0.02325582504272461 -0.5503876209259033
-0.058869369328022 0.02325582504272461 -0.5348837375640869
-0.0589921809732914 0.02325582504272461 -0.5193798542022705
-0.058944933116436005 0.02325582504272461 -0.5038759708404541
-0.05890209972858429 0.02325582504272461 -0.4883720874786377
-0.05865929275751114 0.02325582504272461 -0.4728682041168213
-0.05840413272380829 0.02325582504272461 -0.4573643207550049
-0.058373965322971344 0.02325582504272461 -0.4418604373931885
-0.05831226706504822 0.02325582504272461 -0.42635661363601685
-0.05846736580133438 0.02325582504272461 -0.41085273027420044
-0.058826860040426254 0.02325582504272461 -0.39534884691238403
-0.0592229887843132 0.02325582504272461 -0.3798449635505676
-0.05947601795196533 0.02325582504272461 -0.3643410801887512
-0.05975165218114853 0.02325582504272461 -0.3488371968269348
-0.059992726892232895 0.02325582504272461 -0.3333333134651184
-0.06022650748491287 0.02325582504272461 -0.317829430103302
-0.06045830249786377 0.02325582504272461 -0.30232560634613037
-0.06077204644680023 0.02325582504272461 -0.28682172298431396
-0.061358626931905746 0.02325582504272461 -0.27131783962249756
-0.06183287501335144 0.02325582504272461 -0.25581395626068115
-0.062087468802928925 0.02325582504272461 -0.24031007289886475
-0.06234932690858841 0.02325582504272461 -0.22480618953704834
-0.06300923228263855 0.02325582504272461 -0.20930230617523193
-0.06388090550899506 0.02325582504272461 -0.19379842281341553
-0.06431403756141663 0.02325582504272461 -0.1782945990562439
-0.06491884589195251 0.02325582504272461 -0.1627907156944275
-0.06493973731994629 0.02325582504272461 -0.02325582504272461
-0.06283935159444809 0.02325582504272461 -0.007751941680908203
-0.06503738462924957 0.02325582504272461 0.007751941680908203
-0.06705396622419357 0.02325582504272461 0.02325582504272461
-0.06891551613807678 0.02325582504272461 0.038759708404541016
-0.06364594399929047 0.02325582504272461 0.17829453945159912
-0.06448321044445038 0.02325582504272461 0.19379842281341553
-0.06698174774646759 0.02325582504272461 0.20930230617523193
-0.05606560781598091 0.02325582504272461 0.9844961166381836
-0.05614503100514412 0.038759708404541016 -0.9844961166381836
-0.054322272539138794 0.038759708404541016 -0.19379842281341553
-0.054367177188396454 0.038759708404541016 -0.1782945990562439
-0.054613932967185974 0.038759708404541016 -0.1627907156944275
-0.059566088020801544 0.038759708404541016 -0.14728683233261108
-0.062798410654068 0.038759708404541016 -0.11627906560897827
-0.06855595856904984 0.038759708404541016 -0.038759708404541016
-0.05533915385603905 0.038759708404541016 0.02325582504272461
-0.056786466389894485 0.038759708404541016 0.038759708404541016
-0.05868450552225113 0.038759708404541016 0.05426359176635742
-0.06111903488636017 0.038759708404541016 0.06976747512817383
-0.06609801948070526 0.038759708404541016 0.08527136594057083
-0.05878665670752525 0.038759708404541016 0.16279065608978271
-0.05466325208544731 0.038759708404541016 0.17829453945159912
-0.05742258206009865 0.038759708404541016 0.20930230617523193
-0.06376280635595322 0.038759708404541016 0.22480618953704834
-0.05574069544672966 0.05426359176635742 -0.13178294897079468
-0.056133825331926346 0.05426359176635742 0.10077524185180664
-0.0629887804389 0.05426359176635742 0.1472867727279663
-0.05960914492607117 0.06976747512817383 -0.06976741552352905
-0.06456644833087921 0.11627912521362305 0.9534883499145508
-0.06078647822141647 0.16279065608978271 0.3178294897079468
-0.06697232276201248 0.1627906709909439 0.3333333730697632
-0.06488194316625595 0.16279065608978271 0.39534878730773926
-0.06675152480602264 0.16279065608978271 0.922480583190918
-0.061129264533519745 0.19379842281341553 0.4418604373931885
-0.06384575366973877 0.22480618953704834 0.4883720874786377
-0.058804839849472046 0.22480618953704834 0.8604651689529419
-0.05812198296189308 0.27131783962249756 0.7674418687820435
-0.055818066000938416 0.28682172298431396 0.674418568611145
-0.05505340173840523 0.28682172298431396 0.6899224519729614
-0.0441761389374733 -0.28682172298431396 0.6279069185256958
-0.052324291318655014 -0.28682172298431396 0.6434108018875122
-0.051417276263237 -0.28682172298431396 0.6899224519729614
-0.041832100600004196 -0.28682172298431396 0.7054263353347778
-0.050760749727487564 -0.27131783962249756 0.5658915042877197
-0.04049046337604523 -0.25581395626068115 0.8139535188674927
-0.04160970076918602 -0.20930230617523193 0.4573643207550049
-0.04326307773590088 -0.1627907156944275 0.364341139793396
-0.0501762293279171 -0.14728683233261108 0.9379844665527344
-0.03879206255078316 -0.06976741552352905 -0.13178294897079468
-0.040332186967134476 -0.06976741552352905 -0.08527129888534546
-0.0496184378862381 -0.06976741552352905 0.1472867727279663
-0.04002336785197258 -0.06976741552352905 0.22480618953704834
-0.039535071700811386 -0.05426359176635742 -0.1627907156944275
-0.04813027381896973 -0.05426359176635742 -0.14728683233261108
-0.05134713277220726 -0.05426359176635742 -0.11627906560897827
-0.05311417952179909 -0.05426359176635742 -0.038759708404541016
-0.0396728515625 -0.05426359176635742 -0.007751941680908203
-0.04401896148920059 -0.05426359176635742 0.007751941680908203
-0.04704534262418747 -0.05426359176635742 0.02325582504272461
-0.049425866454839706 -0.05426359176635742 0.038759708404541016
-0.052275169640779495 -0.05426359176635742 0.05426359176635742
-0.05379580333828926 -0.05426359176635742 0.16279065608978271
-0.045401886105537415 -0.05426359176635742 0.17829453945159912
-0.04584815725684166 -0.05426359176635742 0.19379842281341553
-0.050225965678691864 -0.05426359176635742 0.20930230617523193
-0.04947377368807793 -0.038759708404541016 -0.9689922332763672
-0.048718370497226715 -0.038759708404541016 -0.9534883499145508
-0.04903045669198036 -0.038759708404541016 -0.9379844665527344
-0.04919004067778587 -0.038759708404541016 -0.9224806427955627
-0.04925990849733353 -0.038759708404541016 -0.9069766998291016
-0.04918859153985977 -0.038759708404541016 -0.8914728760719299
-0.04915888234972954 -0.038759708404541016 -0.8759689927101135
-0.04896877333521843 -0.038759708404541016 -0.8604651689529419
-0.04886463284492493 -0.038759708404541016 -0.8449611663818359
-0.04887060448527336 -0.038759708404541016 -0.8294573426246643
-0.04856220632791519 -0.038759708404541016 -0.8139535188674927
-0.048109836876392365 -0.038759708404541016 -0.7984496355056763
-0.048399701714515686 -0.038759708404541016 -0.7829457521438599
-0.04868718609213829 -0.038759708404541016 -0.7674418687820435
-0.048566728830337524 -0.038759708404541016 -0.751937985420227
-0.048846401274204254 -0.038759708404541016 -0.7364341020584106
-0.04909062385559082 -0.038759708404541016 -0.7209302186965942
-0.049265943467617035 -0.038759708404541016 -0.7054263353347778
-0.049265556037425995 -0.038759708404541016 -0.6899224519729614
-0.04920953884720802 -0.038759708404541016 -0.674418568611145
-0.049087002873420715 -0.038759708404541016 -0.6589146852493286
-0.04892226308584213 -0.038759708404541016 -0.643410861492157
-0.048918019980192184 -0.038759708404541016 -0.6279069781303406
-0.04890584200620651 -0.038759708404541016 -0.6124030947685242
-0.04898032546043396 -0.038759708404541016 -0.5968992114067078
-0.04888784885406494 -0.038759708404541016 -0.5813953876495361
-0.04902020841836929 -0.038759708404541016 -0.5658915042877197
-0.04923493415117264 -0.038759708404541016 -0.5503876209259033
-0.04923368617892265 -0.038759708404541016 -0.5348837375640869
-0.049288321286439896 -0.038759708404541016 -0.5193798542022705
-0.04915428161621094 -0.038759708404541016 -0.5038759708404541
-0.049028463661670685 -0.038759708404541016 -0.4883720874786377
-0.04882783442735672 -0.038759708404541016 -0.4728682041168213
-0.04859204590320587 -0.038759708404541016 -0.4573643207550049
-0.04856983944773674 -0.038759708404541016 -0.4418604373931885
-0.048397328704595566 -0.038759708404541016 -0.42635661363601685
-0.048359353095293045 -0.038759708404541016 -0.41085273027420044
-0.04880306124687195 -0.038759708404541016 -0.3953488767147064
-0.049153100699186325 -0.038759708404541016 -0.3798449635505676
-0.04935434088110924 -0.038759708404541016 -0.3643410801887512
-0.049822043627500534 -0.038759708404541016 -0.3488371968269348
-0.05028200149536133 -0.038759708404541016 -0.3333333134651184
-0.05057816207408905 -0.038759708404541016 -0.317829430103302
-0.05105506256222725 -0.038759708404541016 -0.30232560634613037
-0.051601119339466095 -0.038759712129831314 -0.28682172298431396
-0.052404697984457016 -0.038759708404541016 -0.27131783962249756
-0.05315546318888664 -0.038759708404541016 -0.25581395626068115
-0.05406299978494644 -0.038759708404541016 -0.24031007289886475
-0.05143226683139801 -0.038759708404541016 0.9844961166381836
-0.048403121531009674 0.038759708404541016 -0.9689922332763672
-0.047592297196388245 0.038759708404541016 -0.9534883499145508
-0.0479772686958313 0.038759708404541016 -0.9379844665527344
-0.048181697726249695 0.038759708404541016 -0.9224807024002075
-0.04812717065215111 0.038759708404541016 -0.9069767594337463
-0.048210449516773224 0.038759708404541016 -0.8914729356765747
-0.04818146675825119 0.038759708404541016 -0.8759689927101135
-0.047920554876327515 0.038759708404541016 -0.8604651093482971
-0.0477699376642704 0.038759708404541016 -0.8449612259864807
-0.04774578660726547 0.038759708404541016 -0.8294574022293091
-0.04758106917142868 0.038759708404541016 -0.8139535188674927
-0.047291286289691925 0.038759708404541016 -0.7984496355056763
-0.04741315543651581 0.038759708404541016 -0.7829457521438599
-0.047635454684495926 0.038759708404541016 -0.7674418687820435
-0.04764038324356079 0.038759708404541016 -0.751937985420227
-0.04784368723630905 0.038759708404541016 -0.7364341020584106
-0.048061199486255646 0.038759708404541016 -0.7209302186965942
-0.04818089306354523 0.038759708404541016 -0.7054263353347778
-0.04804372042417526 0.038759708404541016 -0.6899224519729614
-0.047838225960731506 0.038759708404541016 -0.674418568611145
-0.0476987361907959 0.038759708404541016 -0.6589146852493286
-0.04753740131855011 0.038759708404541016 -0.643410861492157
-0.04754709452390671 0.038759708404541016 -0.6279069185256958
-0.047679223120212555 0.038759708404541016 -0.6124030947685242
-0.04786812886595726 0.038759708404541016 -0.5968992710113525
-0.04800865799188614 0.038759708404541016 -0.5813953876495361
-0.048458971083164215 0.038759708404541016 -0.5658915042877197
-0.04866601899266243 0.038759708404541016 -0.5503876209259033
-0.04869813472032547 0.038759708404541016 -0.5348837375640869
-0.048863306641578674 0.038759708404541016 -0.5193798542022705
-0.04885067790746689 0.038759708404541016 -0.5038759708404541
-0.04884808510541916 0.038759708404541016 -0.4883720874786377
-0.04870307072997093 0.038759708404541016 -0.4728682041168213
-0.04852844029664993 0.038759708404541016 -0.4573643207550049
-0.048521243035793304 0.038759708404541016 -0.4418604373931885
-0.04843296855688095 0.038759708404541016 -0.42635661363601685
-0.0485207661986351 0.038759708404541016 -0.41085273027420044
-0.04884164780378342 0.038759708404541016 -0.39534884691238403
-0.04917893186211586 0.038759708404541016 -0.3798449635505676
-0.04942500218749046 0.038759708404541016 -0.3643410801887512
-0.049682099372148514 0.038759708404541016 -0.3488371968269348
-0.04995749890804291 0.038759708404541016 -0.3333333134651184
-0.05019751936197281 0.038759708404541016 -0.317829430103302
-0.05044832080602646 0.038759708404541016 -0.30232560634613037
-0.05063135176897049 0.038759708404541016 -0.28682172298431396
-0.051017530262470245 0.038759708404541016 -0.27131783962249756
-0.0514499694108963 0.038759708404541016 -0.25581395626068115
-0.051913369446992874 0.038759708404541016 -0.24031005799770355
-0.052653610706329346 0.038759708404541016 -0.22480618953704834
-0.05349798873066902 0.038759708404541016 -0.20930230617523193
-0.04980400949716568 0.038759708404541016 -0.02325582504272461
-0.04999583214521408 0.038759708404541016 -0.007751941680908203
-0.05411124974489212 0.038759708404541016 0.007751941680908203
-0.053928520530462265 0.038759708404541016 0.19379842281341553
-0.04627203196287155 0.038759708404541016 0.9844961166381836
-0.03878604248166084 0.05426359176635742 -0.1782945990562439
-0.03924017399549484 0.05426359176635742 -0.1627907156944275
-0.04490558058023453 0.05426359176635742 -0.14728683233261108
-0.04499756544828415 0.05426359176635742 -0.11627906560897827
-0.0519527867436409 0.05426359176635742 -0.10077517479658127
-0.04841013252735138 0.05426359176635742 -0.038759708404541016
-0.03928479552268982 0.05426359176635742 0.02325582504272461
-0.04031824320554733 0.05426359176635742 0.038759708404541016
-0.04212513938546181 0.05426359176635742 0.05426359176635742
-0.04359270632266998 0.05426359176635742 0.06976747512817383
-0.0460263192653656 0.05426359176635742 0.08527135848999023
-0.04539003595709801 0.05426359176635742 0.16279065608978271
-0.04049257934093475 0.05426359176635742 0.17829453945159912
-0.03965449333190918 0.05426359176635742 0.19379842281341553
-0.0446648895740509 0.05426359176635742 0.20930230617523193
-0.05256963521242142 0.05426359176635742 0.22480618953704834
-0.043835319578647614 0.06976747512817383 -0.08527129888534546
-0.039962105453014374 0.06976747512817383 0.11627912521362305
-0.04847048968076706 0.06976747512817383 0.1317828893661499
-0.05295737460255623 0.08527135848999023 0.9689922332763672
-0.04169534519314766 0.1317828893661499 0.24031007289886475
-0.04915777966380119 0.1472867727279663 0.9379844665527344
-0.04967491328716278 0.16279065608978271 0.30232560634613037
-0.05019189044833183 0.16279065608978271 0.37984490394592285
-0.044047072529792786 0.25581395626068115 0.8139535188674927
-0.05241471901535988 0.27131783962249756 0.5813953876495361
-0.043896161019802094 0.28682172298431396 0.6434108018875122
-0.0522681400179863 0.28682172298431396 0.6589146852493286
-0.04871407151222229 0.28682172298431396 0.7054263353347778
-0.03895524516701698 0.28682172298431396 0.7209302186965942
-0.027399517595767975 -0.28682172298431396 0.612403154373169
-0.026564355939626694 -0.28682172298431396 0.7209302186965942
-0.02807755023241043 -0.27131783962249756 0.7829457521438599
-0.03092866577208042 -0.24031007289886475 0.5038759708404541
-0.024252092465758324 -0.24031007289886475 0.8449612855911255
-0.028879808261990547 -0.19379842281341553 0.42635655403137207
-0.030153445899486542 -0.1782945990562439 0.39534878730773926
-0.03699837252497673 -0.1627907007932663 0.28682172298431396
-0.034283388406038284 -0.14728683233261108 0.24031007289886475
-0.028414584696292877 -0.06976741552352905 -0.038759708404541016
-0.024439789354801178 -0.06976741552352905 0.06976747512817383
-0.027095410972833633 -0.06976741552352905 0.08527135848999023
-0.0377127081155777 -0.06976741552352905 0.10077524185180664
-0.028446484357118607 -0.06976741552352905 0.16279065608978271
-0.024307675659656525 -0.06976741552352905 0.20930230617523193
-0.03131083399057388 -0.05426359176635742 -0.9844961166381836
-0.02364400029182434 -0.05426359176635742 -0.6899224519729614
-0.023718301206827164 -0.05426359176635742 -0.674418568611145
-0.023537373170256615 -0.05426359176635742 -0.6589146852493286
-0.023348035290837288 -0.05426359176635742 -0.5968992114067078
-0.023412246257066727 -0.05426359176635742 -0.5348837375640869
-0.023693779483437538 -0.05426359176635742 -0.5193798542022705
-0.023414168506860733 -0.05426359176635742 -0.5038759708404541
-0.02330206334590912 -0.05426359176635742 -0.4883720874786377
-0.023722855374217033 -0.05426359176635742 -0.3643410801887512
-0.02456474117934704 -0.05426359176635742 -0.3488371968269348
-0.025547903031110764 -0.05426359176635742 -0.3333333134651184
-0.02643260359764099 -0.05426359176635742 -0.317829430103302
-0.02748432755470276 -0.05426359176635742 -0.30232560634613037
-0.02834712341427803 -0.05426359176635742 -0.28682172298431396
-0.029555637389421463 -0.05426359176635742 -0.27131783962249756
-0.0310962051153183 -0.05426359176635742 -0.25581395626068115
-0.03270229697227478 -0.05426359176635742 -0.24031007289886475
-0.03420810401439667 -0.05426359176635742 -0.22480618953704834
-0.03604823350906372 -0.05426359176635742 -0.20930230617523193
-0.03782327100634575 -0.05426359176635742 -0.19379842281341553
-0.038711003959178925 -0.05426359176635742 -0.1782945990562439
-0.038128241896629333 -0.05426358804106712 -0.02325582504272461
-0.028001565486192703 -0.05426359176635742 0.9844961166381836
-0.03396088629961014 0.05426359176635742 -0.9844961166381836
-0.026565026491880417 0.05426359176635742 -0.9689922332763672
-0.024743501096963882 0.05426359176635742 -0.9534883499145508
-0.025128038600087166 0.05426359176635742 -0.9379844665527344
-0.02537662908434868 0.05426359176635742 -0.9224806427955627
-0.025187648832798004 0.05426359176635742 -0.9069767594337463
-0.02523365244269371 0.05426359176635742 -0.8914728760719299
-0.02477695420384407 0.05426359176635742 -0.8759689927101135
-0.024422068148851395 0.05426359176635742 -0.8604651093482971
-0.024113282561302185 0.05426359176635742 -0.8449612259864807
-0.02407037280499935 0.05426359176635742 -0.8294573426246643
-0.023838495835661888 0.05426359176635742 -0.8139535188674927
-0.02349468134343624 0.05426359176635742 -0.7984496355056763
-0.02412070333957672 0.05426359176635742 -0.7829457521438599
-0.024010905995965004 0.05426359176635742 -0.7674418687820435
-0.023775199428200722 0.05426359176635742 -0.751937985420227
-0.024026403203606606 0.05426359176635742 -0.7364341020584106
-0.024417363107204437 0.05426359176635742 -0.7209302186965942
-0.024550911039114 0.05426359176635742 -0.7054263353347778
-0.024536650627851486 0.05426359176635742 -0.6899224519729614
-0.024254843592643738 0.05426359176635742 -0.674418568611145
-0.023858200758695602 0.05426359176635742 -0.6589146852493286
-0.02369307167828083 0.05426359176635742 -0.643410861492157
-0.0239174235612154 0.05426359176635742 -0.6279069781303406
-0.02431575022637844 0.05426359176635742 -0.6124030947685242
-0.024761376902461052 0.05426359176635742 -0.5968992114067078
-0.02543511614203453 0.05426359176635742 -0.5813953876495361
-0.026280477643013 0.05426359176635742 -0.5658915042877197
-0.026409069076180458 0.05426359176635742 -0.5503876209259033
-0.026624523103237152 0.05426359176635742 -0.5348837375640869
-0.026996050029993057 0.05426359176635742 -0.5193798542022705
-0.026822464540600777 0.05426359176635742 -0.5038759708404541
-0.026830807328224182 0.05426359176635742 -0.4883720874786377
-0.02665584534406662 0.05426359176635742 -0.4728682041168213
-0.026248719543218613 0.05426359176635742 -0.4573643207550049
-0.026267502456903458 0.05426359176635742 -0.4418604373931885
-0.026470862329006195 0.05426359176635742 -0.42635661363601685
-0.0271243117749691 0.05426359176635742 -0.41085273027420044
-0.02803882397711277 0.05426359176635742 -0.39534884691238403
-0.028613921254873276 0.05426359176635742 -0.3798449635505676
-0.029154226183891296 0.05426359176635742 -0.3643410801887512
-0.029575707390904427 0.05426359176635742 -0.3488371968269348
-0.029984083026647568 0.05426359176635742 -0.3333333134651184
-0.030449513345956802 0.05426359176635742 -0.317829430103302
-0.031155724078416824 0.05426359176635742 -0.30232560634613037
-0.03174414485692978 0.05426359176635742 -0.28682172298431396
-0.03260120749473572 0.05426359176635742 -0.27131783962249756
-0.0336502268910408 0.05426359176635742 -0.25581395626068115
-0.034675851464271545 0.05426359176635742 -0.24031005799770355
-0.03570781648159027 0.05426359176635742 -0.22480617463588715
-0.03683987259864807 0.05426359176635742 -0.20930229127407074
-0.038260411471128464 0.05426359176635742 -0.19379842281341553
-0.029241811484098434 0.05426359176635742 -0.02325582504272461
-0.031558822840452194 0.05426359176635742 -0.007751941680908203
-0.03786301985383034 0.05426359176635742 0.00775194214656949
-0.030390074476599693 0.06976747512817383 -0.13178294897079468
-0.023794807493686676 0.06976747512817383 -0.10077518224716187
-0.03843318298459053 0.06976748257875443 0.1472867727279663
-0.03581150993704796 0.06976747512817383 0.22480618953704834
-0.038147732615470886 0.08527135848999023 -0.05426359176635742
-0.0345245860517025 0.1317828893661499 0.24031007289886475
-0.03322695568203926 0.16279065608978271 0.28682172298431396
-0.029078783467411995 0.16279065608978271 0.3488372564315796
-0.035955846309661865 0.20930230617523193 0.4573643207550049
-0.028039053082466125 0.24031007289886475 0.5038759708404541
-0.025863023474812508 0.24031007289886475 0.8449612855911255
-0.03191240876913071 0.25581395626068115 0.5348837375640869
-0.02800021506845951 0.27131783962249756 0.7829457521438599
-0.028574060648679733 0.28682172298431396 0.6279069185256958
-0.02303168550133705 -0.10077517479658127 0.9689922332763672
-0.008189382962882519 -0.08527129888534546 -0.05426359176635742
-0.012143604457378387 -0.06976741552352905 -0.14728683233261108
-0.013544959016144276 -0.06976741552352905 -0.11627906560897827
-0.01807008683681488 -0.06976741552352905 -0.10077518224716187
-0.010732036083936691 -0.06976741552352905 0.02325582504272461
-0.014191040769219398 -0.06976741552352905 0.038759708404541016
-0.02118939720094204 -0.06976741552352905 0.05426359176635742
-0.020910682156682014 -0.06976741552352905 0.17829453945159912
-0.012279951944947243 -0.06976741552352905 0.19379842281341553
-0.02317468635737896 -0.05426359176635742 -0.9689922332763672
-0.019888125360012054 -0.05426359176635742 -0.9534883499145508
-0.02059766836464405 -0.05426359176635742 -0.9379844665527344
-0.021024085581302643 -0.05426359176635742 -0.9224807024002075
-0.0216706320643425 -0.05426359176635742 -0.9069768190383911
-0.021365024149417877 -0.05426359176635742 -0.8914728164672852
-0.021017394959926605 -0.05426359176635742 -0.8759690523147583
-0.020964909344911575 -0.05426359176635742 -0.8604651093482971
-0.020929554477334023 -0.05426359176635742 -0.8449611663818359
-0.021020956337451935 -0.05426359176635742 -0.8294572830200195
-0.020560383796691895 -0.05426359176635742 -0.8139535188674927
-0.019671810790896416 -0.05426359176635742 -0.7984495759010315
-0.02066962979733944 -0.05426359176635742 -0.7829457521438599
-0.02131458930671215 -0.05426359549164772 -0.7674418687820435
-0.02097219228744507 -0.05426359176635742 -0.751937985420227
-0.02176642045378685 -0.05426359176635742 -0.7364341020584106
-0.022476261481642723 -0.05426359176635742 -0.7209302186965942
-0.023224657401442528 -0.05426359176635742 -0.7054263353347778
-0.023173438385128975 -0.05426359176635742 -0.643410861492157
-0.023134103044867516 -0.05426359176635742 -0.6279069781303406
-0.023208750411868095 -0.05426359176635742 -0.6124030947685242
-0.02324916236102581 -0.05426358804106712 -0.5813953876495361
-0.023127419874072075 -0.05426359176635742 -0.5658915042877197
-0.023251252248883247 -0.05426359176635742 -0.5503876209259033
-0.023006560280919075 -0.05426359176635742 -0.4728682041168213
-0.022221367806196213 -0.05426359176635742 -0.4573643207550049
-0.022011393681168556 -0.05426359176635742 -0.4418604373931885
-0.021886959671974182 -0.05426359176635742 -0.42635661363601685
-0.021971937268972397 -0.05426359176635742 -0.41085273027420044
-0.022838465869426727 -0.05426359176635742 -0.39534884691238403
-0.023249218240380287 -0.05426359176635742 -0.3798449635505676
-0.020137974992394447 0.05426359176635742 0.9844961166381836
-0.01780552975833416 0.06976747512817383 -0.14728683233261108
-0.018593335524201393 0.06976747512817383 -0.11627906560897827
-0.011645438149571419 0.06976747512817383 -0.038759708404541016
-0.007944883778691292 0.06976747512817383 0.05426359176635742
-0.01063678041100502 0.06976747512817383 0.06976747512817383
-0.011981742456555367 0.06976747512817383 0.08527135848999023
-0.023145027458667755 0.06976747512817383 0.10077524185180664
