0.08527135848999023 -0.11808917671442032 0.8914728164672852
0.08527135848999023 -0.08662866055965424 0.41085267066955566
0.08527135848999023 -0.08693677932024002 0.9069766998291016
0.08527135848999023 -0.05870107561349869 0.22480618953704834
0.08527135848999023 -0.06307961046695709 0.24031007289886475
0.08527135848999023 -0.06644570827484131 0.25581395626068115
0.08527135848999023 -0.06873837113380432 0.27131783962249756
0.08527135848999023 -0.06885852664709091 0.28682172298431396
0.08527135848999023 -0.0669209286570549 0.30232560634613037
0.08527135848999023 -0.06421604752540588 0.3178294897079468
0.08527135848999023 -0.05719347670674324 0.3333333730697632
0.08527135848999023 -0.05519461631774902 0.39534878730773926
0.08527135848999023 -0.04069826379418373 0.08527135848999023
0.08527135848999023 -0.04240799695253372 0.10077524185180664
0.08527135848999023 -0.043518178164958954 0.11627912521362305
0.08527135848999023 -0.04396837577223778 0.1317828893661499
0.08527135848999023 -0.044862523674964905 0.1472867727279663
0.08527135848999023 -0.04638469219207764 0.16279065608978271
0.08527135848999023 -0.04825085774064064 0.17829453945159912
0.08527135848999023 -0.05054876208305359 0.19379842281341553
0.08527135848999023 -0.05370747670531273 0.20930232107639313
0.08527135848999023 -0.04690849781036377 0.3488372564315796
0.08527135848999023 -0.03880007565021515 0.37984490394592285
0.08527135848999023 -0.025506548583507538 0.02325582504272461
0.08527135848999023 -0.029980607330799103 0.038759708404541016
0.08527135848999023 -0.033934734761714935 0.05426359549164772
0.08527135848999023 -0.03725311905145645 0.06976747512817383
0.08527135848999023 -0.03801898658275604 0.364341139793396
0.08527135848999023 -0.009887674823403358 -0.02325582504272461
0.08527135848999023 -0.0151545200496912 -0.007751941680908203
0.08527135848999023 -0.020581206306815147 0.007751941680908203
0.08527135848999023 -0.008010811172425747 0.922480583190918
0.08527135848999023 -0.007180424407124519 0.922480583190918
0.08527135848999023 0.010652964934706688 -0.02325582504272461
0.08527135848999023 0.015617084689438343 -0.007751941680908203
0.08527135848999023 0.021024497225880623 0.007751941680908203
0.08527135848999023 0.025278761982917786 0.02325582504272461
0.08527135848999023 0.028894513845443726 0.038759708404541016
0.08527135848999023 0.03219867870211601 0.05426359176635742
0.08527135848999023 0.03478201851248741 0.06976747512817383
0.08527135848999023 0.03705843910574913 0.08527135848999023
0.08527135848999023 0.038743045181035995 0.10077524185180664
0.08527135848999023 0.028496067970991135 0.364341139793396
0.08527135848999023 0.026682179421186447 0.37984493374824524
0.08527135103940964 0.0400405190885067 0.11627912521362305
0.08527135848999023 0.04099665582180023 0.1317828893661499
0.08527135848999023 0.04239235073328018 0.1472867727279663
0.08527135848999023 0.044148147106170654 0.16279065608978271
0.08527135848999023 0.04661238193511963 0.17829453945159912
0.08527135848999023 0.0488092415034771 0.19379842281341553
0.08527135848999023 0.05139249190688133 0.20930230617523193
0.08527135848999023 0.04166877642273903 0.3488372564315796
0.08527135848999023 0.04068828001618385 0.39534878730773926
0.08527135848999023 0.055504247546195984 0.22480618953704834
0.08527135848999023 0.06042366102337837 0.24031007289886475
0.08527135848999023 0.06521544605493546 0.25581395626068115
0.08527135848999023 0.06779006868600845 0.27131783962249756
0.08527135848999023 0.06721466034650803 0.28682172298431396
0.08527135848999023 0.06489767134189606 0.30232560634613037
0.08527135848999023 0.0622200146317482 0.3178294897079468
0.08527135848999023 0.054984427988529205 0.3333333730697632
0.08527135848999023 0.08485375344753265 0.9069766998291016
0.08527135103940964 0.08660106360912323 0.41085267066955566
0.08527135848999023 0.11916772276163101 0.42635655403137207
0.08527135848999023 0.1298106461763382 0.4418604373931885
0.08527135848999023 0.11802235245704651 0.8914728164672852
0.08527136594057083 0.13446156680583954 0.45736435055732727
0.08527135848999023 0.14048725366592407 0.4728682041168213
0.08527135848999023 0.13785262405872345 0.8759689331054688
0.08527135103940964 0.14814667403697968 0.4883720874786377
0.08527135848999023 0.1533878892660141 0.5038759708404541
0.08527135848999023 0.15939702093601227 0.5193798542022705
0.08527135848999023 0.1604289710521698 0.8449612855911255
0.08527135848999023 0.15062910318374634 0.8604651689529419
0.08527135848999023 0.16521933674812317 0.5348837375640869
0.08527135848999023 0.16999749839305878 0.5503876209259033
0.08527135848999023 0.17506812512874603 0.5658915042877197
0.08527135848999023 0.17718711495399475 0.8139535188674927
0.08527135848999023 0.16996237635612488 0.8294574022293091
0.08527135848999023 0.1792639046907425 0.5813953876495361
0.08527135848999023 0.18241018056869507 0.5968992710113525
0.08527135848999023 0.1855243295431137 0.612403154373169
0.08527135848999023 0.18804854154586792 0.6279069185256958
0.08527135848999023 0.190691739320755 0.6434108018875122
0.08527135848999023 0.19272132217884064 0.6589146852493286
0.08527135848999023 0.19255425035953522 0.7674418687820435
0.08527135848999023 0.18834830820560455 0.7829457521438599
0.08527135848999023 0.18315811455249786 0.7984496355056763
0.08527135848999023 0.20873534679412842 -0.9689922332763672
0.08527135848999023 0.20710480213165283 -0.9534883499145508
0.08527135848999023 0.20703037083148956 -0.9379844665527344
0.08527135848999023 0.20664426684379578 -0.9224806427955627
0.08527135848999023 0.19405201077461243 0.6744185090065002
0.08527135848999023 0.195231094956398 0.6899224519729614
0.08527135848999023 0.19602026045322418 0.7054263353347778
0.08527135848999023 0.19619008898735046 0.7209302186965942
0.08527135848999023 0.1955638825893402 0.7364341020584106
0.08527135103940964 0.19450019299983978 0.751937985420227
0.08527135848999023 0.2100604921579361 -0.9844961166381836
0.10077524185180664 -0.20154666900634766 -0.9844961166381836
0.10077524185180664 -0.1995183676481247 -0.9689922332763672
0.10077524185180664 -0.19977611303329468 -0.9534883499145508
0.10077524185180664 -0.2004389613866806 -0.9379844665527344
0.10077524185180664 -0.19922082126140594 -0.922480583190918
0.10077524185180664 -0.19416546821594238 0.6899224519729614
0.10077524185180664 -0.19424225389957428 0.7054263353347778
0.10077524185180664 -0.19406095147132874 0.7209302186965942
0.10077524185180664 -0.18053750693798065 0.5813953876495361
0.10077524185180664 -0.18418017029762268 0.5968992710113525
0.10077524185180664 -0.18713700771331787 0.612403154373169
0.10077524185180664 -0.18908508121967316 0.6279069185256958
0.10077524185180664 -0.19118037819862366 0.6434108018875122
0.10077524185180664 -0.19281788170337677 0.6589146852493286
0.10077524185180664 -0.19367630779743195 0.674418568611145
0.10077524185180664 -0.19321343302726746 0.7364341020584106
0.10077524185180664 -0.19079694151878357 0.751937985420227
0.10077524185180664 -0.18680042028427124 0.7674418687820435
0.10077524185180664 -0.18289899826049805 0.7829457521438599
0.10077524185180664 -0.178761824965477 0.7984496355056763
0.10077524185180664 -0.16457423567771912 0.5348837375640869
0.10077524185180664 -0.17134608328342438 0.5503876209259033
0.10077524185180664 -0.17632223665714264 0.5658915042877197
0.10077524185180664 -0.170218825340271 0.8139535188674927
0.10077524185180664 -0.16353318095207214 0.8294574022293091
0.10077524185180664 -0.15295739471912384 0.5038759708404541
0.10077524185180664 -0.15886074304580688 0.5193798542022705
0.10077524185180664 -0.15441536903381348 0.8449612855911255
0.10077524185180664 -0.13971732556819916 0.4728682041168213
0.10077524185180664 -0.14605110883712769 0.4883720874786377
0.10077524930238724 -0.14198172092437744 0.8604651689529419
0.10077524185180664 -0.12290322780609131 0.4418604373931885
0.10077524185180664 -0.129966139793396 0.45736435055732727
0.10077524930238724 -0.12690353393554688 0.8759689927101135
0.10077524185180664 -0.10678201913833618 0.42635655403137207
0.10077524185180664 -0.10640215873718262 0.8914728164672852
0.10077524185180664 -0.06445106118917465 0.41085267066955566
0.10077524185180664 -0.06840354949235916 0.9069767594337463
0.10077524185180664 -0.04303856939077377 0.27131783962249756
0.10077524185180664 -0.042346179485321045 0.28682172298431396
0.10077524185180664 -0.023759620264172554 0.22480618953704834
0.10077524185180664 -0.031472645699977875 0.24031008780002594
0.10077524185180664 -0.03834099695086479 0.25581395626068115
0.10077524185180664 -0.038026947528123856 0.30232560634613037
0.10077524185180664 -0.03217742592096329 0.3178294897079468
0.10077524185180664 -0.012493981048464775 0.20930230617523193
0.10077524185180664 -0.0147045087069273 0.3333333730697632
0.10077524185180664 0.010083267465233803 0.20930230617523193
0.10077524185180664 0.019544603303074837 0.22480618953704834
0.10077523440122604 0.01084459200501442 0.3333333730697632
0.10077524185180664 0.028278961777687073 0.24031007289886475
0.10077524185180664 0.03529772534966469 0.25581395626068115
0.10077524185180664 0.03792032599449158 0.28682172298431396
0.10077524185180664 0.03260951116681099 0.30232560634613037
0.10077524185180664 0.027762969955801964 0.3178294897079468
0.10077524185180664 0.03986135497689247 0.27131783962249756
0.10077524185180664 0.05248630419373512 0.41085267066955566
0.10077524185180664 0.06571511179208755 0.9069766998291016
0.10077524185180664 0.1060529500246048 0.42635655403137207
0.10077524185180664 0.10678458958864212 0.8914728164672852
0.10077524185180664 0.11868138611316681 0.4418604373931885
0.10077524185180664 0.12328599393367767 0.4573643207550049
0.10077524185180664 0.13132785260677338 0.4728682041168213
0.10077524185180664 0.12640520930290222 0.8759689331054688
0.10077524185180664 0.13809949159622192 0.4883720874786377
0.10077524185180664 0.14498832821846008 0.5038759708404541
0.10077524185180664 0.14076785743236542 0.8604651689529419
0.10077524185180664 0.1510993242263794 0.5193798542022705
0.10077524185180664 0.15699297189712524 0.5348837375640869
0.10077524185180664 0.16134825348854065 0.8294574022293091
0.10077524185180664 0.15203118324279785 0.8449612855911255
0.10077524185180664 0.16298316419124603 0.5503876209259033
0.10077524185180664 0.16731150448322296 0.5658915042877197
0.10077524185180664 0.17193546891212463 0.5813953876495361
0.10077524185180664 0.17577102780342102 0.5968992710113525
0.10077524185180664 0.17603141069412231 0.7984496355056763
0.10077524185180664 0.169150710105896 0.8139535188674927
0.10077524930238724 0.17870694398880005 0.6124032139778137
0.10077524185180664 0.18085509538650513 0.6279069185256958
0.10077524185180664 0.18330103158950806 0.6434108018875122
0.10077524185180664 0.18559692800045013 0.6589146852493286
0.10077524185180664 0.18747371435165405 0.674418568611145
0.10077524185180664 0.189067542552948 0.6899224519729614
0.10077524185180664 0.190017431974411 0.7054263353347778
0.10077524185180664 0.19028615951538086 0.7209302186965942
0.10077524185180664 0.18973585963249207 0.7364341020584106
0.10077524185180664 0.1877574622631073 0.751937985420227
0.10077524185180664 0.18510612845420837 0.7674418687820435
0.10077524185180664 0.18082080781459808 0.7829457521438599
0.10077524185180664 0.20186418294906616 -0.9844961166381836
0.10077524185180664 0.20049577951431274 -0.9689922332763672
0.10077524185180664 0.19973045587539673 -0.9534883499145508
0.10077524185180664 0.19962447881698608 -0.9379844665527344
0.10077524185180664 0.19868037104606628 -0.9224806427955627
0.11627912521362305 -0.19175384938716888 -0.9844960570335388
0.11627912521362305 -0.191337451338768 -0.9689922332763672
0.11627912521362305 -0.19077450037002563 -0.9534883499145508
0.11627912521362305 -0.19117307662963867 -0.9379845261573792
0.11627912521362305 -0.18955571949481964 -0.9224806427955627
0.11627912521362305 -0.17963771522045135 0.6279069185256958
0.11627912521362305 -0.18194428086280823 0.6434108018875122
0.11627912521362305 -0.183827742934227 0.6589146852493286
0.11627912521362305 -0.1846950352191925 0.674418568611145
0.11627912521362305 -0.1851542890071869 0.6899224519729614
0.11627912521362305 -0.18496288359165192 0.7054263353347778
0.11627912521362305 -0.1843203455209732 0.7209302186965942
0.11627912521362305 -0.1829208880662918 0.7364341020584106
0.11627912521362305 -0.1808624267578125 0.751937985420227
0.11627912521362305 -0.1790814995765686 0.7674418687820435
0.11627912521362305 -0.16593250632286072 0.5658915042877197
0.11627912521362305 -0.1712673008441925 0.5813953876495361
0.11627912521362305 -0.175179123878479 0.5968992710113525
0.11627912521362305 -0.1777983456850052 0.612403154373169
0.11627912521362305 -0.17376838624477386 0.7829457521438599
0.11627912521362305 -0.1678498387336731 0.7984496355056763
0.11627912521362305 -0.14747503399848938 0.5193798542022705
0.11627912521362305 -0.15468275547027588 0.5348837375640869
0.11627912521362305 -0.16067424416542053 0.5503876209259033
0.11627912521362305 -0.16156452894210815 0.8139534592628479
0.11627912521362305 -0.1534442901611328 0.8294574022293091
0.11627912521362305 -0.1338619440793991 0.4883720874786377
0.11627912521362305 -0.1421097218990326 0.5038759708404541
0.11627912521362305 -0.14222058653831482 0.8449612855911255
0.11627912521362305 -0.12647169828414917 0.4728682041168213
0.11627912521362305 -0.12937752902507782 0.8604651689529419
0.11627912521362305 -0.10733692348003387 0.4418604373931885
0.11627912521362305 -0.11537258327007294 0.4573643207550049
0.11627912521362305 -0.11220844089984894 0.8759689331054688
0.11627912521362305 -0.08817590028047562 0.42635655403137207
0.11627912521362305 -0.08599104732275009 0.8914728164672852
0.11627912521362305 -0.03456806391477585 0.9069767594337463
0.11627912521362305 0.0273655466735363 0.9069766998291016
0.11627912521362305 0.08476767688989639 0.8914728164672852
0.11627911776304245 0.08774315565824509 0.42635655403137207
0.11627912521362305 0.1031891331076622 0.4418604373931885
0.11627912521362305 0.10869338363409042 0.4573643207550049
0.11627912521362305 0.11138254404067993 0.8759689331054688
0.11627912521362305 0.11728954315185547 0.4728682041168213
0.11627912521362305 0.12611515820026398 0.4883720874786377
0.11627912521362305 0.12780293822288513 0.8604651689529419
0.11627912521362305 0.13383229076862335 0.5038759708404541
0.11627912521362305 0.14071416854858398 0.5193798542022705
0.11627912521362305 0.14027248322963715 0.8449612855911255
0.11627912521362305 0.14739112555980682 0.5348837375640869
0.11627912521362305 0.15247735381126404 0.5503876209259033
0.11627912521362305 0.15828397870063782 0.5658915042877197
0.11627912521362305 0.15911760926246643 0.8139535188674927
0.11627912521362305 0.15061935782432556 0.8294574022293091
0.11627911776304245 0.1630123108625412 0.5813953876495361
0.11627912521362305 0.16640150547027588 0.5968992710113525
0.11627912521362305 0.16981670260429382 0.612403154373169
0.11627912521362305 0.1726836860179901 0.6279069185256958
0.11627912521362305 0.17535778880119324 0.6434108018875122
0.11627912521362305 0.17728224396705627 0.6589146852493286
0.11627912521362305 0.178280308842659 0.674418568611145
0.11627912521362305 0.17684271931648254 0.7674418687820435
0.11627912521362305 0.17187786102294922 0.7829457521438599
0.11627912521362305 0.16613107919692993 0.7984496355056763
0.11627912521362305 0.19193165004253387 -0.9844961166381836
0.11627912521362305 0.1915901154279709 -0.9689922332763672
0.11627912521362305 0.19071468710899353 -0.9534883499145508
0.11627912521362305 0.1905452311038971 -0.9379844665527344
0.11627912521362305 0.18889091908931732 -0.9224807024002075
0.11627911776304245 0.1793837994337082 0.6899223923683167
0.11627912521362305 0.18011809885501862 0.7054263353347778
0.11627912521362305 0.1802586168050766 0.7209302186965942
0.11627912521362305 0.17985762655735016 0.7364341020584106
0.11627912521362305 0.17887583374977112 0.751937985420227
0.1317828893661499 -0.18341916799545288 -0.9844961166381836
0.1317828893661499 -0.18073585629463196 -0.9689922332763672
0.1317828893661499 -0.18009968101978302 -0.9534883499145508
0.1317828893661499 -0.18036140501499176 -0.9379844665527344
0.1317828893661499 -0.17979729175567627 -0.9224806427955627
0.1317828893661499 -0.16307032108306885 0.5968992710113525
0.1317828893661499 -0.1662314087152481 0.612403154373169
0.1317828893661499 -0.1689680814743042 0.6279069185256958
0.1317828893661499 -0.17206653952598572 0.6434108018875122
0.1317828893661499 -0.17431318759918213 0.6589146852493286
0.1317828893661499 -0.1751648187637329 0.674418568611145
0.1317828893661499 -0.17569118738174438 0.6899224519729614
0.1317828893661499 -0.17546691000461578 0.7054263353347778
0.1317828893661499 -0.1745762676000595 0.7209302186965942
0.1317828893661499 -0.17246323823928833 0.7364341020584106
0.1317828893661499 -0.1697675883769989 0.751937985420227
0.1317828893661499 -0.16729454696178436 0.7674418687820435
0.1317828893661499 -0.1642058789730072 0.7829457521438599
0.1317828893661499 -0.14773668348789215 0.5503876209259033
0.1317828893661499 -0.1538057029247284 0.5658915042877197
0.1317828893661499 -0.15954497456550598 0.5813953876495361
0.1317828893661499 -0.15630032122135162 0.7984496355056763
0.1317828893661499 -0.15034866333007812 0.8139535188674927
0.1317828893661499 -0.13417154550552368 0.5193798542022705
0.1317828893661499 -0.1423204392194748 0.5348837375640869
0.1317828893661499 -0.1407133936882019 0.8294574022293091
0.1317828893661499 -0.11854883283376694 0.4883720874786377
0.1317828893661499 -0.1278391182422638 0.5038759708404541
0.1317828893661499 -0.1293186992406845 0.8449612855911255
0.1317828893661499 -0.10943850874900818 0.4728682041168213
0.1317828893661499 -0.11443618685007095 0.8604651689529419
0.1317828893661499 -0.09660934656858444 0.4573643207550049
0.1317828893661499 -0.09450891613960266 0.8759689331054688
0.1317828893661499 -0.0839919000864029 0.4418604373931885
0.1317828893661499 -0.05637538433074951 0.42635655403137207
0.1317828893661499 -0.06115216761827469 0.8914728164672852
0.1317828893661499 0.04831774905323982 0.42635655403137207
0.1317828893661499 0.05665494129061699 0.8914727568626404
0.1317828893661499 0.07881472259759903 0.4418604373931885
0.1317828893661499 0.08687150478363037 0.4573643207550049
0.1317828893661499 0.09808706492185593 0.4728682041168213
0.1317828893661499 0.09297025203704834 0.8759689331054688
0.1317828893661499 0.10905428230762482 0.4883720874786377
0.1317828893661499 0.11203362047672272 0.8604651689529419
0.1317828893661499 0.11839231848716736 0.5038759708404541
0.1317828893661499 0.12725171446800232 0.5193798542022705
0.1317828893661499 0.12604773044586182 0.8449612855911255
0.1317828893661499 0.13407814502716064 0.5348837375640869
0.1317828893661499 0.14051273465156555 0.5503876209259033
0.1317828893661499 0.14652059972286224 0.5658915042877197
0.1317828893661499 0.13774670660495758 0.8294574022293091
0.1317828893661499 0.1506647765636444 0.5813953876495361
0.1317828893661499 0.15522709488868713 0.5968992710113525
0.1317828893661499 0.15949475765228271 0.612403154373169
0.1317828893661499 0.1622680276632309 0.6279069185256958
0.1317828893661499 0.16205692291259766 0.7829457521438599
0.1317828893661499 0.15450510382652283 0.7984496355056763
0.1317828893661499 0.14791980385780334 0.8139535188674927
0.1317828893661499 0.17789922654628754 -0.9379844665527344
0.1317828893661499 0.1780070662498474 -0.9224806427955627
0.1317828893661499 0.1643051952123642 0.6434108018875122
0.1317828893661499 0.16604149341583252 0.6589146852493286
0.1317828893661499 0.1670936644077301 0.674418568611145
0.1317828893661499 0.16854453086853027 0.6899224519729614
0.1317828893661499 0.1693381369113922 0.7054263353347778
0.1317828893661499 0.1694726049900055 0.7209302186965942
0.1317828893661499 0.16912245750427246 0.7364341020584106
0.1317828893661499 0.16764362156391144 0.7519380450248718
0.1317828893661499 0.16516266763210297 0.7674418687820435
0.1317828893661499 0.1820889711380005 -0.9844961166381836
0.1317828893661499 0.17990276217460632 -0.9689922332763672
0.1317829042673111 0.17835210263729095 -0.9534883499145508
0.1472867727279663 -0.16986434161663055 -0.9844961166381836
0.1472867727279663 -0.16771644353866577 -0.9689922332763672
0.1472867727279663 -0.16727380454540253 -0.9534883499145508
0.1472867727279663 -0.16741904616355896 -0.9379844665527344
0.1472867727279663 -0.1661585122346878 -0.9224806427955627
0.1472867727279663 -0.16320295631885529 0.6899224519729614
0.1472867727279663 -0.16316819190979004 0.7054263353347778
0.1472867727279663 -0.16282400488853455 0.7209302186965942
0.1472867727279663 -0.1483597606420517 0.5968992710113525
0.1472867727279663 -0.1522245705127716 0.612403154373169
0.1472867727279663 -0.15614673495292664 0.6279069185256958
0.1472867727279663 -0.15963011980056763 0.6434108018875122
0.1472867727279663 -0.16201259195804596 0.6589146852493286
0.1472867727279663 -0.162784606218338 0.674418568611145
0.1472867727279663 -0.16125823557376862 0.7364341020584106
0.1472867727279663 -0.15817499160766602 0.751937985420227
0.1472867727279663 -0.15466850996017456 0.7674418687820435
0.1472867727279663 -0.15102529525756836 0.7829457521438599
0.1472867727279663 -0.13797827064990997 0.5658915042877197
0.1472867727279663 -0.1445726752281189 0.5813953876495361
0.1472867727279663 -0.14451178908348083 0.7984496355056763
0.1472867727279663 -0.1370365023612976 0.8139535188674927
0.1472867727279663 -0.12463241815567017 0.5348837375640869
0.1472867727279663 -0.1315261721611023 0.5503876209259033
0.1472867727279663 -0.12601277232170105 0.8294574618339539
0.1472867727279663 -0.10665584355592728 0.5038759708404541
0.1472867727279663 -0.11597558110952377 0.5193798542022705
0.1472867727279663 -0.11240935325622559 0.8449612855911255
0.1472867727279663 -0.09654583036899567 0.4883720874786377
0.1472867727279663 -0.09445923566818237 0.8604651689529419
0.1472867727279663 -0.08092981576919556 0.4728682041168213
0.1472867727279663 -0.05608872324228287 0.4573643207550049
0.1472867727279663 -0.06538363546133041 0.8759689331054688
0.1472867727279663 -0.016424402594566345 0.4418604373931885
0.1472867727279663 -0.0023568884935230017 0.4418604373931885
0.1472867727279663 0.038556937128305435 0.4573643207550049
0.1472867727279663 0.06401558965444565 0.4728682041168213
0.1472867727279663 0.06272877007722855 0.8759689331054688
0.1472867727279663 0.08221077919006348 0.4883720874786377
0.1472867727279663 0.09453210234642029 0.5038759708404541
0.1472867727279663 0.09206601232290268 0.8604651689529419
0.1472867727279663 0.10559989511966705 0.5193798542022705
0.1472867727279663 0.11590857803821564 0.5348837375640869
0.1472867727279663 0.10860861837863922 0.8449612855911255
0.1472867727279663 0.12324097752571106 0.5503876209259033
0.1472867727279663 0.13099604845046997 0.5658915042877197
0.1472867727279663 0.12223007529973984 0.8294574022293091
0.1472867727279663 0.13572868704795837 0.5813953876495361
0.1472867727279663 0.14126260578632355 0.5968992710113525
0.1472867727279663 0.14594897627830505 0.612403154373169
0.1472867727279663 0.14056022465229034 0.7984496355056763
0.1472867727279663 0.13350673019886017 0.8139535188674927
0.1472867876291275 0.14830632507801056 0.6279069185256958
0.1472867727279663 0.1503966599702835 0.6434108018875122
0.1472867727279663 0.15213774144649506 0.6589146852493286
0.1472867727279663 0.15315106511116028 0.674418568611145
0.1472867727279663 0.15495911240577698 0.6899224519729614
0.1472867727279663 0.15588270127773285 0.7054263353347778
0.1472867727279663 0.15602676570415497 0.7209302186965942
0.1472867727279663 0.15566131472587585 0.7364341020584106
0.1472867727279663 0.15402209758758545 0.751937985420227
0.1472867727279663 0.15163761377334595 0.7674418687820435
0.1472867727279663 0.14845336973667145 0.7829457521438599
0.1472867727279663 0.16806535422801971 -0.9844961762428284
0.1472867727279663 0.16608648002147675 -0.9689922332763672
0.1472867727279663 0.16442421078681946 -0.9534883499145508
0.1472867727279663 0.16432927548885345 -0.9379844665527344
0.1472867727279663 0.16425922513008118 -0.922480583190918
0.16279065608978271 -0.15476790070533752 -0.9844961166381836
0.16279065608978271 -0.15265868604183197 -0.9689922332763672
0.16279065608978271 -0.15180502831935883 -0.9534883499145508
0.16279065608978271 -0.1517418622970581 -0.9379844665527344
0.16279065608978271 -0.1503310203552246 -0.9224806427955627
0.16279065608978271 -0.14786119759082794 0.6899224519729614
0.16279065608978271 -0.14796139299869537 0.7054263353347778
0.16279065608978271 -0.14778944849967957 0.7209302186965942
0.16279065608978271 -0.1472986787557602 0.7364341020584106
0.16279065608978271 -0.13444703817367554 0.612403154373169
0.16279065608978271 -0.13877736032009125 0.6279069185256958
0.16279065608978271 -0.1432085484266281 0.6434108018875122
0.16279065608978271 -0.14620955288410187 0.6589146852493286
0.16279065608978271 -0.14721333980560303 0.674418568611145
0.16279065608978271 -0.14468733966350555 0.751937985420227
0.16279065608978271 -0.14022919535636902 0.7674418687820435
0.16279065608978271 -0.1361902505159378 0.7829457521438599
0.16279065608978271 -0.11694322526454926 0.5658915042877197
0.16279065608978271 -0.12444533407688141 0.5813953876495361
0.1627906709909439 -0.13040567934513092 0.5968992710113525
0.16279065608978271 -0.12894737720489502 0.7984496355056763
0.16279065608978271 -0.1208663061261177 0.8139535188674927
0.16279065608978271 -0.10944388806819916 0.5503876209259033
0.16279065608978271 -0.10799673199653625 0.8294574022293091
0.16279065608978271 -0.08659523725509644 0.5193798542022705
0.1627906709909439 -0.0991576761007309 0.5348837375640869
0.16279065608978271 -0.09101538360118866 0.8449612855911255
0.16279065608978271 -0.07053110748529434 0.5038759708404541
0.16279065608978271 -0.06300570070743561 0.8604651689529419
0.16279065608978271 -0.04364491254091263 0.4883720874786377
0.16279065608978271 0.01975477859377861 0.4883720874786377
0.16279065608978271 0.05431440845131874 0.5038759708404541
0.16279065608978271 0.06026994064450264 0.8604651689529419
0.16279065608978271 0.07234403491020203 0.5193798542022705
0.16279065608978271 0.08667455613613129 0.5348837375640869
0.16279065608978271 0.09826947003602982 0.5503876209259033
0.16279065608978271 0.08641466498374939 0.8449612855911255
0.16279065608978271 0.10787637531757355 0.5658915042877197
0.16279065608978271 0.11619581282138824 0.8139535188674927
0.16279065608978271 0.10357335209846497 0.8294574022293091
0.16279065608978271 0.11666195839643478 0.5813953876495361
0.16279065608978271 0.12223274260759354 0.5968992710113525
0.16279065608978271 0.1282857209444046 0.612403154373169
0.16279065608978271 0.13171708583831787 0.6279069185256958
0.16279065608978271 0.12407368421554565 0.7984496355056763
0.16279065608978271 0.1339871883392334 0.6434108018875122
0.16279065608978271 0.1357593983411789 0.6589146852493286
0.16279065608978271 0.13658076524734497 0.674418568611145
0.16279065608978271 0.13845373690128326 0.6899224519729614
0.16279065608978271 0.13953804969787598 0.7054263353347778
0.16279065608978271 0.13989560306072235 0.7209302186965942
0.16279065608978271 0.13986650109291077 0.7364341020584106
0.16279065608978271 0.1384214162826538 0.751937985420227
0.16279065608978271 0.13611114025115967 0.7674418091773987
0.16279065608978271 0.13283129036426544 0.7829456925392151
0.16279065608978271 0.15204519033432007 -0.9844961166381836
0.16279065608978271 0.15042737126350403 -0.9689922332763672
0.16279065608978271 0.14872585237026215 -0.9534883499145508
0.16279065608978271 0.14909328520298004 -0.9379845261573792
0.16279065608978271 0.14911489188671112 -0.922480583190918
0.17829453945159912 -0.13741707801818848 -0.9844961166381836
0.17829453945159912 -0.13514983654022217 -0.9689922332763672
0.17829453945159912 -0.13323721289634705 -0.9534883499145508
0.17829453945159912 -0.1331038773059845 -0.9379844665527344
0.17829453945159912 -0.13255546987056732 -0.9224806427955627
0.17829453945159912 -0.11963959038257599 0.6434108018875122
0.17829453945159912 -0.12415046989917755 0.6589146852493286
0.17829453945159912 -0.12633772194385529 0.674418568611145
0.17829453945159912 -0.12816624343395233 0.6899224519729614
0.17829453945159912 -0.12876050174236298 0.7054263353347778
0.17829453945159912 -0.12879209220409393 0.7209302186965942
0.17829453945159912 -0.12774346768856049 0.7364341020584106
0.17829453945159912 -0.12508441507816315 0.751937985420227
0.17829453945159912 -0.12169063091278076 0.7674418687820435
0.17829453945159912 -0.11751517653465271 0.7829457521438599
0.17829453945159912 -0.10324612259864807 0.5968992710113525
0.17829453945159912 -0.1111474260687828 0.612403154373169
0.17829452455043793 -0.11552932858467102 0.6279069185256958
0.17829453945159912 -0.1073153018951416 0.7984496355056763
0.17829453945159912 -0.09611961245536804 0.5813953876495361
0.17829453945159912 -0.09509564191102982 0.8139535188674927
0.17829453945159912 -0.07118210196495056 0.5503876209259033
0.17829453945159912 -0.08495693653821945 0.5658915042877197
0.17829453945159912 -0.07800216227769852 0.8294574022293091
0.17829453945159912 -0.0494576096534729 0.5348837375640869
0.17829453945159912 -0.050492316484451294 0.8449612855911255
0.17829453945159912 0.03406234830617905 0.5348837375640869
0.17829453945159912 0.045886360108852386 0.8449612855911255
0.17829453945159912 0.05820532888174057 0.5503876209259033
0.17829453945159912 0.07364252209663391 0.5658915042877197
0.17829453945159912 0.07386874407529831 0.8294574022293091
0.17829453945159912 0.08606346696615219 0.5813953280448914
0.17829453945159912 0.09573911875486374 0.5968992710113525
0.17829453945159912 0.09006336331367493 0.8139535188674927
0.17829453945159912 0.10243243724107742 0.612403154373169
0.17829453945159912 0.10702192783355713 0.6279069185256958
0.17829453945159912 0.11205535382032394 0.6434108018875122
0.17829453945159912 0.11524318158626556 0.6589146852493286
0.17829453945159912 0.11186280101537704 0.7829457521438599
0.17829453945159912 0.10307053476572037 0.7984496355056763
0.17829453945159912 0.13034982979297638 -0.9534883499145508
0.17829453945159912 0.13108579814434052 -0.9379844665527344
0.17829453945159912 0.131477490067482 -0.9224806427955627
0.17829453945159912 0.11634135246276855 0.674418568611145
0.17829452455043793 0.11797302216291428 0.6899224519729614
0.17829453945159912 0.11903268098831177 0.7054263353347778
0.17829453945159912 0.11953762173652649 0.7209302186965942
0.17829452455043793 0.11993064731359482 0.7364341020584106
0.17829453945159912 0.11917011439800262 0.751937985420227
0.17829455435276031 0.11712034046649933 0.7674418687820435
0.17829453945159912 0.13364319503307343 -0.9844961166381836
0.17829453945159912 0.13269534707069397 -0.968992292881012
0.19379842281341553 -0.11339598149061203 -0.9844961166381836
0.19379842281341553 -0.1122242659330368 -0.9689922332763672
0.19379842281341553 -0.10986141860485077 -0.9534883499145508
0.19379842281341553 -0.10999321192502975 -0.9379844665527344
0.19379842281341553 -0.10805516690015793 -0.9224806427955627
0.19379842281341553 -0.1014421358704567 0.7054263353347778
0.19379842281341553 -0.10247699171304703 0.7209302186965942
0.19379842281341553 -0.10253527015447617 0.7364341020584106
0.19379842281341553 -0.10111550241708755 0.751937985420227
0.19379842281341553 -0.08628682792186737 0.6434108018875122
0.19379842281341553 -0.09254646301269531 0.6589146852493286
0.19379843771457672 -0.09646973013877869 0.674418568611145
0.19379842281341553 -0.09959935396909714 0.6899224519729614
0.19379842281341553 -0.09626363962888718 0.7674418687820435
0.19379842281341553 -0.08899351209402084 0.7829457521438599
0.19379842281341553 -0.07210874557495117 0.612403154373169
0.19379842281341553 -0.07997822016477585 0.6279069185256958
0.19379842281341553 -0.07604853808879852 0.7984496355056763
0.19379842281341553 -0.0618668869137764 0.5968992710113525
0.19379842281341553 -0.05870446562767029 0.8139535188674927
0.19379842281341553 -0.046026915311813354 0.5813953876495361
0.19379842281341553 -0.0183235052973032 0.8294574022293091
0.19379842281341553 0.012560028582811356 0.8294574022293091
0.19379842281341553 0.03662920370697975 0.5813953876495361
0.19379842281341553 0.05383793264627457 0.5968992710113525
0.19379842281341553 0.051897212862968445 0.8139535188674927
0.19379842281341553 0.06489671766757965 0.612403154373169
0.19379842281341553 0.07181771099567413 0.6279069185256958
0.19379842281341553 0.07870209217071533 0.6434108018875122
0.19379842281341553 0.08374477922916412 0.6589146852493286
0.19379842281341553 0.08308044821023941 0.7829457521438599
0.19379842281341553 0.07055643945932388 0.7984496355056763
0.19379840791225433 0.08623263239860535 0.674418568611145
0.19379840791225433 0.08930525183677673 0.6899224519729614
0.19379842281341553 0.09181481599807739 0.7054263353347778
0.19379842281341553 0.09343128651380539 0.7209302186965942
0.19379842281341553 0.09442517906427383 0.7364341020584106
0.19379842281341553 0.09322383999824524 0.751937985420227
0.19379842281341553 0.08912285417318344 0.7674418687820435
0.19379842281341553 0.1088220477104187 -0.9844961166381836
0.19379842281341553 0.10700444877147675 -0.9689922332763672
0.19379843771457672 0.10539400577545166 -0.9534884095191956
0.19379842281341553 0.10681293159723282 -0.9379844665527344
0.19379842281341553 0.10630094259977341 -0.922480583190918
0.20930230617523193 -0.07944698631763458 -0.9844961166381836
0.20930230617523193 -0.07855284959077835 -0.9689922332763672
0.20930230617523193 -0.07530243694782257 -0.9534883499145508
0.20930230617523193 -0.07573039829730988 -0.9379844665527344
0.20930230617523193 -0.07449684292078018 -0.9224806427955627
0.20930230617523193 -0.05517204478383064 0.6899224519729614
0.20930230617523193 -0.06059550493955612 0.7054263353347778
0.20930230617523193 -0.06472819298505783 0.7209302186965942
0.20930230617523193 -0.06608494371175766 0.7364341020584106
0.20930230617523193 -0.06413432955741882 0.751937985420227
0.20930230617523193 -0.0583186149597168 0.7674418687820435
0.20930230617523193 -0.040352411568164825 0.6589146852493286
0.20930230617523193 -0.04812171682715416 0.674418568611145
0.20930230617523193 -0.04595800116658211 0.7829457521438599
0.20930230617523193 -0.026803893968462944 0.6434108018875122
0.20930230617523193 0.016169244423508644 0.6434108018875122
0.20930230617523193 0.02944190241396427 0.6589146852493286
0.20930230617523193 0.036828093230724335 0.674418568611145
0.20930230617523193 0.03604613617062569 0.7829457521438599
0.20930232107639313 0.0431612953543663 0.6899224519729614
0.20930230617523193 0.049123793840408325 0.7054263353347778
0.20930230617523193 0.05360320582985878 0.7209302186965942
0.20930230617523193 0.048391297459602356 0.7674418687820435
0.20930230617523193 0.055667512118816376 0.7364341020584106
0.20930230617523193 0.05485374107956886 0.751937985420227
0.20930230617523193 0.07642988860607147 -0.9844961166381836
0.20930230617523193 0.07533785700798035 -0.9689922332763672
0.20930230617523193 0.07260448485612869 -0.9534883499145508
0.20930230617523193 0.07386688888072968 -0.9379845261573792
0.20930230617523193 0.07408802956342697 -0.9224806427955627
0.22480618953704834 -0.007376203313469887 -0.9844961166381836
0.22480618953704834 0.009421451017260551 -0.9844961762428284
-0.20930230617523193 -0.06976741552352905 -0.9854154586791992
-0.20930230617523193 -0.06976741552352905 -0.9608675241470337
-0.20930230617523193 -0.06976741552352905 0.703657865524292
-0.20930230617523193 -0.06976741552352905 0.7689915895462036
-0.20930230617523193 -0.05426359176635742 -0.9898788928985596
-0.20930230617523193 -0.05426359176635742 -0.9175642728805542
-0.20930230617523193 -0.05426359176635742 0.6579334139823914
-0.20930230617523193 -0.05426359176635742 0.7893377542495728
-0.20930230617523193 -0.038759708404541016 -0.9912542104721069
-0.20930230617523193 -0.038759708404541016 -0.9156951904296875
-0.20930230617523193 -0.038759708404541016 0.6315277218818665
-0.20930230617523193 -0.038759708404541016 0.8007540702819824
-0.20930230617523193 -0.02325582504272461 -0.9915175437927246
-0.20930230617523193 -0.02325582504272461 -0.9154366254806519
-0.20930230617523193 -0.02325582504272461 0.6153980493545532
-0.20930230617523193 -0.02325582504272461 0.8053023219108582
-0.20930230617523193 -0.007751941680908203 -0.9915613532066345
-0.20930230617523193 -0.00775194214656949 -0.9155219197273254
-0.20930230617523193 -0.007751941680908203 0.6090735793113708
-0.20930230617523193 -0.007751941680908203 0.8082172274589539
-0.20930230617523193 0.007751941680908203 -0.9915854334831238
-0.20930230617523193 0.007751941680908203 -0.9153865575790405
-0.20930230617523193 0.007751941680908203 0.6098271608352661
-0.20930230617523193 0.007751941680908203 0.8070802092552185
-0.20930230617523193 0.02325582504272461 -0.9915174841880798
-0.20930230617523193 0.02325582504272461 -0.9151150584220886
-0.20930230617523193 0.02325582504272461 0.6230692863464355
-0.20930230617523193 0.02325582318007946 0.8016396760940552
-0.20930230617523193 0.038759708404541016 -0.9911279678344727
-0.20930230617523193 0.038759708404541016 -0.915321946144104
-0.20930230617523193 0.038759708404541016 0.6481144428253174
-0.20930230617523193 0.038759708404541016 0.7928470373153687
-0.20930230617523193 0.05426359176635742 -0.9893807172775269
-0.20930230617523193 0.05426359176635742 -0.9178503155708313
-0.20930230617523193 0.05426359176635742 0.692288875579834
-0.20930230617523193 0.05426359176635742 0.7767910957336426
-0.19379842281341553 -0.10077518224716187 -0.9887044429779053
-0.19379842281341553 -0.10077518224716187 -0.9207798838615417
-0.19379842281341553 -0.10077518224716187 0.6788008809089661
-0.19379840791225433 -0.10077517479658127 0.7698647975921631
-0.19379842281341553 -0.08527129888534546 -0.9914528727531433
-0.19379842281341553 -0.08527129888534546 -0.9166208505630493
-0.19379842281341553 -0.08527129888534546 0.6246926188468933
-0.19379842281341553 -0.08527129888534546 0.7984878420829773
-0.19379842281341553 -0.06976741552352905 -0.9916660189628601
-0.19379842281341553 -0.06976741552352905 -0.9162761569023132
-0.19379842281341553 -0.06976741552352905 0.5917482972145081
-0.19379842281341553 -0.06976741552352905 0.8142336010932922
-0.19379842281341553 -0.05426359176635742 -0.9916526675224304
-0.19379842281341553 -0.05426359176635742 -0.9165382981300354
-0.19379842281341553 -0.05426359176635742 0.5728226900100708
-0.19379842281341553 -0.05426359176635742 0.8233753442764282
-0.19379842281341553 -0.038759708404541016 -0.9916200041770935
-0.19379842281341553 -0.038759708404541016 -0.9167910814285278
-0.19379842281341553 -0.038759708404541016 0.5620715022087097
-0.19379842281341553 -0.038759708404541016 0.8335245251655579
-0.19379842281341553 -0.02325582504272461 -0.9916029572486877
-0.19379842281341553 -0.02325582504272461 -0.9170151948928833
-0.19379842281341553 -0.02325582504272461 0.5562581419944763
-0.19379842281341553 -0.02325582504272461 0.8366299867630005
-0.19379842281341553 -0.007751941680908203 -0.9915918111801147
-0.19379842281341553 -0.007751941680908203 -0.9170752763748169
-0.19379842281341553 -0.007751941680908203 0.5543432235717773
-0.19379842281341553 -0.007751941680908203 0.8377125263214111
-0.19379842281341553 0.007751941680908203 -0.991614043712616
-0.19379842281341553 0.007751941680908203 -0.916939377784729
-0.19379842281341553 0.007751941680908203 0.5549435019493103
-0.19379842281341553 0.007751941680908203 0.8371193408966064
-0.19379842281341553 0.02325582504272461 -0.9916245341300964
-0.19379842281341553 0.02325582504272461 -0.9164735078811646
-0.19379842281341553 0.02325582504272461 0.5599621534347534
-0.19379842281341553 0.02325582504272461 0.8341957330703735
-0.19379842281341553 0.038759708404541016 -0.9916533827781677
-0.19379842281341553 0.038759708404541016 -0.9158308506011963
-0.19379842281341553 0.038759708404541016 0.5680829286575317
-0.19379842281341553 0.038759708404541016 0.8277913928031921
-0.19379842281341553 0.05426359176635742 -0.9916581511497498
-0.19379842281341553 0.05426359176635742 -0.9154579639434814
-0.19379842281341553 0.05426359176635742 0.5815631151199341
-0.19379842281341553 0.05426359176635742 0.8181993961334229
-0.19379842281341553 0.06976747512817383 -0.9915993213653564
-0.19379842281341553 0.06976747512817383 -0.9153804779052734
-0.19379842281341553 0.06976747512817383 0.6035615801811218
-0.19379842281341553 0.06976747512817383 0.8046512007713318
-0.19379842281341553 0.08527135848999023 -0.9909869432449341
-0.19379842281341553 0.08527135848999023 -0.9162753224372864
-0.19379842281341553 0.08527135848999023 0.6427591443061829
-0.19379842281341553 0.08527135848999023 0.7861635684967041
-0.19379842281341553 0.10077524185180664 -0.986899733543396
-0.19379842281341553 0.10077524185180664 -0.955620527267456
-0.19379842281341553 0.10077524185180664 -0.9390929937362671
-0.19379842281341553 0.10077524185180664 -0.9218946099281311
-0.1782945990562439 -0.13178294897079468 -0.9869268536567688
-0.1782945990562439 -0.13178294897079468 -0.9589269161224365
-0.1782945990562439 -0.11627906560897827 -0.9915595650672913
-0.1782945990562439 -0.11627907305955887 -0.916911780834198
-0.1782945990562439 -0.11627906560897827 0.6264259815216064
-0.1782945990562439 -0.11627906560897827 0.7888431549072266
-0.1782945990562439 -0.10077518224716187 -0.9917510747909546
-0.1782945990562439 -0.10077518224716187 -0.9170032739639282
-0.1782945841550827 -0.10077517479658127 0.585294246673584
-0.1782945990562439 -0.10077518224716187 0.8144900798797607
-0.1782945990562439 -0.08527129888534546 -0.9916937351226807
-0.1782945990562439 -0.08527129888534546 -0.9173530340194702
-0.1782945990562439 -0.08527129888534546 0.5595828890800476
-0.1782945990562439 -0.08527129888534546 0.8296892642974854
-0.1782945990562439 -0.06976741552352905 -0.9916451573371887
-0.1782945990562439 -0.06976741552352905 -0.917387843132019
-0.1782945990562439 -0.06976741552352905 0.5426109433174133
-0.1782945990562439 -0.06976741552352905 0.83958899974823
-0.1782945990562439 -0.05426359176635742 -0.9916024804115295
-0.1782945990562439 -0.05426359176635742 -0.9173580408096313
-0.1782945990562439 -0.05426359176635742 0.5315690636634827
-0.1782945990562439 -0.05426359176635742 0.8506845831871033
-0.1782945990562439 -0.038759708404541016 -0.9915591478347778
-0.1782945990562439 -0.038759708404541016 -0.9172970056533813
-0.1782945990562439 -0.038759708404541016 0.5239797234535217
-0.1782945990562439 -0.038759708404541016 0.8552342653274536
-0.1782945990562439 -0.02325582504272461 -0.9915323853492737
-0.1782945990562439 -0.02325582504272461 -0.9172796607017517
-0.1782945990562439 -0.02325582504272461 0.5201331973075867
-0.1782945990562439 -0.02325582504272461 0.8572338819503784
-0.1782945990562439 -0.007751941680908203 -0.9915148615837097
-0.1782945990562439 -0.007751941680908203 -0.917186439037323
-0.1782945990562439 -0.007751941680908203 0.5189127922058105
-0.1782945990562439 -0.007751941680908203 0.858579695224762
-0.1782945990562439 0.007751941680908203 -0.9915343523025513
-0.1782945990562439 0.007751941680908203 -0.9169014692306519
-0.1782945990562439 0.007751941680908203 0.5192916393280029
-0.1782945990562439 0.007751941680908203 0.8581506013870239
-0.1782945990562439 0.02325582504272461 -0.9915502667427063
-0.1782945990562439 0.02325582504272461 -0.916412353515625
-0.1782945990562439 0.02325582504272461 0.5230774879455566
-0.1782945990562439 0.02325582504272461 0.8557359576225281
-0.1782945990562439 0.038759708404541016 -0.9915763139724731
-0.1782945990562439 0.038759708404541016 -0.9158490896224976
-0.1782945990562439 0.038759708404541016 0.529823899269104
-0.1782945990562439 0.038759708404541016 0.8526244163513184
-0.1782945990562439 0.05426359176635742 -0.9915826916694641
-0.1782945990562439 0.05426359176635742 -0.9157654047012329
-0.1782945990562439 0.05426358804106712 0.5390642881393433
-0.1782945990562439 0.05426359176635742 0.8458307981491089
-0.1782945990562439 0.06976747512817383 -0.9915977716445923
-0.1782945990562439 0.06976747512817383 -0.9159820675849915
-0.1782945990562439 0.06976747512817383 0.5528943538665771
-0.1782945990562439 0.06976747512817383 0.8355998992919922
-0.1782945990562439 0.08527135848999023 -0.9916151165962219
-0.1782945990562439 0.08527135848999023 -0.915935754776001
-0.1782945990562439 0.08527135848999023 0.5720747113227844
-0.1782945990562439 0.08527135848999023 0.821791410446167
-0.1782945990562439 0.10077524185180664 -0.9915913939476013
-0.1782945990562439 0.10077524185180664 -0.9155298471450806
-0.1782945990562439 0.10077524185180664 0.6000099182128906
-0.1782945990562439 0.10077524185180664 0.8043466806411743
-0.1782945990562439 0.11627912521362305 -0.9909493327140808
-0.1782945990562439 0.11627912521362305 -0.9166595935821533
-0.1782945990562439 0.11627912521362305 0.6557911038398743
-0.1782945990562439 0.11627912521362305 0.7728294730186462
-0.1627907156944275 -0.14728683233261108 -0.9901450872421265
-0.1627907156944275 -0.14728683233261108 -0.9199119806289673
-0.1627907156944275 -0.14728683233261108 0.6804313659667969
-0.1627907156944275 -0.14728683233261108 0.742321252822876
-0.1627907156944275 -0.13178294897079468 -0.9917708039283752
-0.1627907156944275 -0.13178294897079468 -0.9167883396148682
-0.1627907156944275 -0.13178294897079468 0.6039116382598877
-0.1627907156944275 -0.13178294897079468 0.7979212403297424
-0.1627907156944275 -0.11627906560897827 -0.9917399287223816
-0.1627907156944275 -0.11627906560897827 -0.917526125907898
-0.1627907156944275 -0.11627906560897827 0.5647881031036377
-0.1627907156944275 -0.11627906560897827 0.8215715885162354
-0.1627907156944275 -0.10077518224716187 -0.9916923642158508
-0.1627907156944275 -0.10077518224716187 -0.9178227186203003
-0.16279073059558868 -0.10077518224716187 0.5375999808311462
-0.1627907156944275 -0.10077518224716187 0.8385875225067139
-0.1627907156944275 -0.08527129888534546 -0.9916375875473022
-0.1627907156944275 -0.08527129888534546 -0.9175961017608643
-0.1627907156944275 -0.08527129888534546 0.5183278322219849
-0.1627907156944275 -0.08527129888534546 0.8528925180435181
-0.1627907156944275 -0.06976741552352905 -0.9915966987609863
-0.1627907156944275 -0.06976741552352905 -0.9172854423522949
-0.1627907156944275 -0.06976741552352905 0.5042095184326172
-0.1627907156944275 -0.06976741552352905 0.859429657459259
-0.1627907156944275 -0.05426359176635742 -0.9915534257888794
-0.1627907156944275 -0.05426359176635742 -0.9170501232147217
-0.1627907156944275 -0.05426359176635742 0.4934219419956207
-0.1627907156944275 -0.05426359176635742 0.8694019317626953
-0.1627907156944275 -0.038759708404541016 -0.9915090203285217
-0.1627907156944275 -0.038759708404541016 -0.916846752166748
-0.1627907156944275 -0.038759708404541016 0.48736298084259033
-0.1627907156944275 -0.038759708404541016 0.8726077079772949
-0.1627907156944275 -0.02325582504272461 -0.9914772510528564
-0.1627907156944275 -0.02325582504272461 -0.9167574048042297
-0.1627907156944275 -0.02325582504272461 0.484336256980896
-0.1627907156944275 -0.02325582504272461 0.8743295669555664
-0.1627907156944275 -0.007751941680908203 -0.9914552569389343
-0.1627907156944275 -0.007751941680908203 -0.9166257381439209
-0.1627907156944275 -0.007751941680908203 0.4840909242630005
-0.1627907156944275 -0.007751941680908203 0.8756343126296997
-0.1627907156944275 0.007751941680908203 -0.9914751052856445
-0.1627907156944275 0.007751941680908203 -0.9162043333053589
-0.1627907156944275 0.007751941680908203 0.4850989580154419
-0.1627907156944275 0.007751941680908203 0.8753081560134888
-0.1627907156944275 0.02325582504272461 -0.991496741771698
-0.1627907156944275 0.02325582504272461 -0.9156750440597534
-0.1627907156944275 0.02325582504272461 0.4883441627025604
-0.1627907156944275 0.02325582504272461 0.8731330633163452
-0.1627907156944275 0.038759708404541016 -0.9915183782577515
-0.1627907156944275 0.038759708404541016 -0.9151684641838074
-0.1627907156944275 0.038759708404541016 0.49464231729507446
