0.30232560634613037 0.25745782256126404 0.7674418687820435
0.30232560634613037 0.25728726387023926 0.9069766998291016
0.30232560634613037 0.27286338806152344 -0.08527129888534546
0.30232560634613037 0.27757105231285095 -0.06976741552352905
0.30232560634613037 0.2817169427871704 -0.05426359176635742
0.30232560634613037 0.2839067578315735 -0.038759708404541016
0.30232560634613037 0.2852877080440521 -0.02325582504272461
0.30232560634613037 0.27405989170074463 0.7829457521438599
0.30232560634613037 0.27888578176498413 0.8914728164672852
0.30232560634613037 0.28907984495162964 -0.007751941680908203
0.30232560634613037 0.2973400354385376 0.007751941680908203
0.30232560634613037 0.31173914670944214 0.02325582504272461
0.30232560634613037 0.31230273842811584 0.16279065608978271
0.30232560634613037 0.31777822971343994 0.17829453945159912
0.30232560634613037 0.3096439838409424 0.7984496355056763
0.30232560634613037 0.3031383752822876 0.8759689331054688
0.30232560634613037 0.3321954607963562 0.038759708404541016
0.30232560634613037 0.32470208406448364 0.19379842281341553
0.30232560634613037 0.32886821031570435 0.20930230617523193
0.30232560634613037 0.33089679479599 0.22480618953704834
0.30232560634613037 0.33210286498069763 0.8139535188674927
0.30232560634613037 0.3328793942928314 0.8449612855911255
0.30232560634613037 0.3195478022098541 0.8604651093482971
0.30232560634613037 0.3357139825820923 0.24031005799770355
0.30232560634613037 0.3466511368751526 0.7209302186965942
0.30232560634613037 0.34621143341064453 0.7364341020584106
0.30232560634613037 0.3365241289138794 0.8294574022293091
0.30232560634613037 0.35166895389556885 0.05426359176635742
0.30232560634613037 0.35543620586395264 0.25581395626068115
0.30232560634613037 0.35796961188316345 0.7054263353347778
0.30232560634613037 0.35293108224868774 0.751937985420227
0.30232560634613037 0.36779147386550903 0.06976747512817383
0.30232560634613037 0.3705276846885681 0.27131783962249756
0.30232560634613037 0.37826448678970337 0.6434108018875122
0.30232560634613037 0.3784943222999573 0.6589146852493286
0.30232560634613037 0.37744078040122986 0.674418568611145
0.30232560634613037 0.3712448477745056 0.6899224519729614
0.30232560634613037 0.36542195081710815 0.7674418687820435
0.30232560634613037 0.3800208270549774 0.08527135103940964
0.30232560634613037 0.3843952715396881 0.10077524185180664
0.30232560634613037 0.38356825709342957 0.28682172298431396
0.30232560634613037 0.38065430521965027 0.6279069185256958
0.30232560634613037 0.3823102116584778 0.7829457521438599
0.30232560634613037 0.40408802032470703 0.11627912521362305
0.30232560634613037 0.39892902970314026 0.30232560634613037
0.30232560634613037 0.40934789180755615 0.7829457521438599
0.30232560634613037 0.43641161918640137 0.3178294897079468
0.30232560634613037 0.4323926568031311 0.7674418687820435
0.30232560634613037 0.4545036554336548 0.3333333730697632
0.30232560634613037 0.45674988627433777 0.37984490394592285
0.30232560634613037 0.452490895986557 0.39534878730773926
0.30232560634613037 0.4496495723724365 0.41085267066955566
0.30232560634613037 0.4450012147426605 0.42635655403137207
0.30232560634613037 0.44296517968177795 0.4418604373931885
0.30232560634613037 0.4438275694847107 0.4573643207550049
0.30232560634613037 0.4481925964355469 0.4728682041168213
0.30232560634613037 0.4572528302669525 0.4883720874786377
0.30232560634613037 0.465462863445282 0.3488372564315796
0.30232560634613037 0.4657883644104004 0.364341139793396
0.30232560634613037 0.4633965492248535 0.6279069185256958
0.30232560634613037 0.47568440437316895 0.6434108018875122
0.30232560634613037 0.48307129740715027 0.6589146852493286
0.30232560634613037 0.4828769564628601 0.751937985420227
0.30232560634613037 0.4995860457420349 0.364341139793396
0.30232560634613037 0.4891670346260071 0.674418568611145
0.30232560634613037 0.49419885873794556 0.6899224519729614
0.30232560634613037 0.5008149147033691 0.7054263353347778
0.30232560634613037 0.5054746270179749 0.364341139793396
0.30232560634613037 0.5085746645927429 0.4883720874786377
0.30232560634613037 0.5048062205314636 0.720930278301239
0.30232560634613037 0.5044481158256531 0.7364341020584106
0.30232560634613037 0.5348992347717285 0.4883720874786377
0.30232560634613037 0.5500889420509338 0.5038759708404541
0.30232560634613037 0.5639318823814392 0.1317828893661499
0.30232560634613037 0.5752416849136353 0.5193798542022705
0.30232560634613037 0.5995810627937317 0.1472867727279663
0.30232560634613037 0.6092202663421631 0.16279065608978271
0.30232560634613037 0.6228897571563721 0.17829453945159912
0.30232560634613037 0.620506763458252 0.5193798542022705
0.30232560634613037 0.6379808783531189 0.19379842281341553
0.30232560634613037 0.6471836566925049 0.20930230617523193
0.30232560634613037 0.6526381373405457 0.22480618953704834
0.30232560634613037 0.6589179039001465 0.24031007289886475
0.30232560634613037 0.6645525693893433 0.25581395626068115
0.30232560634613037 0.6692149639129639 0.27131783962249756
0.30232560634613037 0.6731833219528198 0.28682172298431396
0.30232560634613037 0.6692014932632446 0.5038759708404541
0.30232560634613037 0.6775239706039429 0.30232560634613037
0.30232560634613037 0.6807683706283569 0.3178294897079468
0.30232560634613037 0.6834301352500916 0.3333333730697632
0.30232560634613037 0.6852450370788574 0.3488372564315796
0.30232560634613037 0.6863505244255066 0.364341139793396
0.30232560634613037 0.6870689988136292 0.37984490394592285
0.30232560634613037 0.6874382495880127 0.39534878730773926
0.30232560634613037 0.6875478625297546 0.41085267066955566
0.30232560634613037 0.6868593692779541 0.42635655403137207
0.30232560634613037 0.6858970522880554 0.4418604373931885
0.30232560634613037 0.6846421957015991 0.4573643207550049
0.30232560634613037 0.6818349361419678 0.4728682041168213
0.30232560634613037 0.6770243048667908 0.4883720874786377
0.3178294897079468 -0.6456205248832703 0.4418604373931885
0.3178294897079468 -0.6486033797264099 0.4573643207550049
0.3178294897079468 -0.64952552318573 0.4728682041168213
0.3178294897079468 -0.649249255657196 0.4883720874786377
0.3178294897079468 -0.6482579112052917 0.5038759708404541
0.3178294897079468 -0.6456745266914368 0.5193798542022705
0.3178294897079468 -0.6281490921974182 0.3178294897079468
0.3178294897079468 -0.6327628493309021 0.41085267066955566
0.3178294897079468 -0.639207661151886 0.4263565242290497
0.3178294897079468 -0.6430230140686035 0.5348837375640869
0.3178294897079468 -0.6378538608551025 0.5503876209259033
0.3178294897079468 -0.6315599679946899 0.5658915042877197
0.3178294897079468 -0.6126229763031006 0.25581395626068115
0.3178294897079468 -0.619083046913147 0.27131783962249756
0.3178294897079468 -0.6237128973007202 0.28682172298431396
0.3178294897079468 -0.6271905303001404 0.30232563614845276
0.3178294897079468 -0.625900149345398 0.3333333730697632
0.3178294897079468 -0.6217496991157532 0.3488372564315796
0.3178294897079468 -0.6189626455307007 0.364341139793396
0.3178294897079468 -0.6200454235076904 0.37984490394592285
0.3178294897079468 -0.6263961791992188 0.39534878730773926
0.3178294897079468 -0.6276069283485413 0.5813953876495361
0.3178294897079468 -0.6230823993682861 0.5968992710113525
0.3178294897079468 -0.6196361780166626 0.612403154373169
0.3178294897079468 -0.6158965826034546 0.6279069185256958
0.3178294897079468 -0.6132864356040955 0.6434108018875122
0.3178294897079468 -0.6024510860443115 0.24031007289886475
0.3178294897079468 -0.6089158058166504 0.6589146852493286
0.3178294897079468 -0.6011494994163513 0.674418568611145
0.3178294897079468 -0.5880090594291687 0.22480618953704834
0.3178294897079468 -0.5927793383598328 0.6899224519729614
0.3178294897079468 -0.5704770088195801 0.20930230617523193
0.3178294897079468 -0.5752760171890259 0.7054263353347778
0.3178294897079468 -0.5491436719894409 0.19379842281341553
0.3178294897079468 -0.5452486872673035 0.7209302186965942
0.3178294897079468 -0.5261397361755371 0.17829453945159912
0.3178294897079468 -0.5051398277282715 0.16279065608978271
0.3178294897079468 -0.5047860741615295 0.7364341020584106
0.3178294897079468 -0.4791775941848755 0.1472867727279663
0.3178294897079468 -0.44715291261672974 0.1317828893661499
0.3178294897079468 -0.4455884099006653 0.5193798542022705
0.3178294897079468 -0.4466626048088074 0.5348837375640869
0.3178294897079468 -0.44282132387161255 0.5503876209259033
0.3178294897079468 -0.434918612241745 0.4883720874786377
0.3178294599056244 -0.44150230288505554 0.5038759708404541
0.3178294897079468 -0.43940457701683044 0.5658915042877197
0.3178294897079468 -0.4356565475463867 0.5813953876495361
0.3178294897079468 -0.43311378359794617 0.5968992710113525
0.3178294897079468 -0.4307953715324402 0.612403154373169
0.3178294897079468 -0.428741455078125 0.6279069185256958
0.3178294897079468 -0.4299122989177704 0.6434108018875122
0.3178294897079468 -0.43175208568573 0.6589146852493286
0.3178294897079468 -0.4333803057670593 0.674418568611145
0.3178294897079468 -0.43092241883277893 0.6899224519729614
0.3178294897079468 -0.42651766538619995 0.7054263353347778
0.3178294897079468 -0.43188172578811646 0.7209302186965942
0.3178294897079468 -0.44123968482017517 0.7364341020584106
0.3178294897079468 -0.4196794033050537 0.4573643207550049
0.3178294897079468 -0.4262501299381256 0.4728681743144989
0.3178294897079468 -0.4084627032279968 0.11627912521362305
0.3178294897079468 -0.3966093361377716 0.41085267066955566
0.3178294897079468 -0.40488556027412415 0.42635655403137207
0.3178294897079468 -0.4108028709888458 0.4418604373931885
0.3178294897079468 -0.38299134373664856 0.37984490394592285
0.3178294897079468 -0.3906240463256836 0.39534881711006165
0.3178294897079468 -0.371534526348114 0.10077524185180664
0.3178294897079468 -0.3733355402946472 0.364341139793396
0.3178294897079468 -0.34977155923843384 0.08527135848999023
0.3178294897079468 -0.354381799697876 0.3333333730697632
0.3178294897079468 -0.36272409558296204 0.3488372564315796
0.3178294897079468 -0.3374441862106323 0.28682172298431396
0.3178294897079468 -0.34116390347480774 0.30232560634613037
0.3178294897079468 -0.3461037874221802 0.3178294897079468
0.3178294897079468 -0.3294072449207306 0.06976747512817383
0.3178294897079468 -0.320512056350708 0.24031007289886475
0.3178294897079468 -0.3269253373146057 0.25581395626068115
0.3178294897079468 -0.3326113522052765 0.27131780982017517
0.3178294897079468 -0.3120463490486145 0.05426359176635742
0.3178294897079468 -0.30921053886413574 0.16279065608978271
0.3178294897079468 -0.3147086203098297 0.17829453945159912
0.3178294897079468 -0.31150734424591064 0.19379842281341553
0.3178294897079468 -0.30923759937286377 0.20930230617523193
0.3178294897079468 -0.3144335448741913 0.22480618953704834
0.3178294897079468 -0.2873086631298065 0.02325582504272461
0.3178294897079468 -0.2977963984012604 0.038759708404541016
0.3178294897079468 -0.27305397391319275 -0.007751941680908203
0.3178294897079468 -0.2773677408695221 0.007751941680908203
0.3178294897079468 -0.25653141736984253 -0.9534883499145508
0.3178294897079468 -0.25842487812042236 -0.9379844665527344
0.3178294897079468 -0.25632208585739136 -0.9224806427955627
0.3178294897079468 -0.25811243057250977 -0.05426359176635742
0.3178294897079468 -0.26196929812431335 -0.038759708404541016
0.3178294897079468 -0.26826992630958557 -0.02325582504272461
0.3178294897079468 -0.24315819144248962 -0.9689922332763672
0.3178294897079468 -0.250003457069397 -0.9069767594337463
0.3178294897079468 -0.2437860518693924 -0.8914729356765747
0.3178294897079468 -0.24186059832572937 -0.10077518224716187
0.3178294897079468 -0.24690532684326172 -0.08527129888534546
0.3178294897079468 -0.25406813621520996 -0.06976741552352905
0.3178294897079468 -0.24149517714977264 0.16279065608978271
0.3178294897079468 -0.2382129430770874 -0.8759689927101135
0.3178294897079468 -0.23210470378398895 -0.8604651093482971
0.3178294897079468 -0.22690095007419586 -0.8449612259864807
0.3178294897079468 -0.22673526406288147 -0.14728683233261108
0.3178294897079468 -0.2307705581188202 -0.13178294897079468
0.3178294897079468 -0.23681099712848663 -0.11627906560897827
0.3178294897079468 -0.2255323976278305 0.24031007289886475
0.3178294897079468 -0.22534380853176117 0.25581395626068115
0.3178294897079468 -0.20936249196529388 -0.9844961166381836
0.31782951951026917 -0.22370418906211853 -0.8294573426246643
0.3178294897079468 -0.21913407742977142 -0.8139535188674927
0.3178294897079468 -0.21523553133010864 -0.7984496355056763
0.3178294897079468 -0.2120429277420044 -0.7829457521438599
0.3178294897079468 -0.2098413109779358 -0.7674418687820435
0.3178294897079468 -0.20967893302440643 -0.6124030947685242
0.3178294897079468 -0.2100638896226883 -0.5968992114067078
0.3178294897079468 -0.21027322113513947 -0.5813953876495361
0.3178294897079468 -0.210489422082901 -0.5658915042877197
0.3178294897079468 -0.2102826088666916 -0.5503876209259033
0.3178294897079468 -0.21017590165138245 -0.5348837375640869
0.3178294897079468 -0.20999261736869812 -0.5193798542022705
0.3178294897079468 -0.2099713534116745 -0.5038759708404541
0.3178294897079468 -0.21001200377941132 -0.4883720874786377
0.3178294897079468 -0.2101742923259735 -0.4728682041168213
0.3178294897079468 -0.21037186682224274 -0.4573643207550049
0.3178294897079468 -0.21071389317512512 -0.4418604373931885
0.3178294897079468 -0.21073833107948303 -0.42635661363601685
0.3178294897079468 -0.2106756865978241 -0.41085273027420044
0.3178294897079468 -0.21083427965641022 -0.39534884691238403
0.3178294897079468 -0.21084639430046082 -0.3798449635505676
0.3178294897079468 -0.21053044497966766 -0.3643410801887512
0.3178294897079468 -0.2099197655916214 -0.3488371968269348
0.3178294897079468 -0.2094292938709259 -0.3333333134651184
0.3178294897079468 -0.2098802924156189 -0.24031007289886475
0.3178294897079468 -0.21120500564575195 -0.22480618953704834
0.3178294897079468 -0.21297577023506165 -0.20930230617523193
0.3178294897079468 -0.2155839502811432 -0.19379842281341553
0.3178294897079468 -0.21969833970069885 -0.1782945990562439
0.3178294897079468 -0.2244454175233841 -0.1627907156944275
0.3178294897079468 -0.21008777618408203 0.19379842281341553
0.3178294897079468 -0.2171829342842102 0.20930230617523193
0.3178294897079468 -0.2231900542974472 0.22480620443820953
0.3178294897079468 -0.22323818504810333 0.27131783962249756
0.3178294897079468 -0.21751540899276733 0.28682172298431396
0.3178294897079468 -0.2126750648021698 0.30232560634613037
0.3178294897079468 -0.20761768519878387 -0.751937985420227
0.3178294897079468 -0.2049134373664856 -0.7364341020584106
0.3178294897079468 -0.20316565036773682 -0.7209302186965942
0.3178294897079468 -0.2027180939912796 -0.7054263353347778
0.3178294897079468 -0.20327717065811157 -0.6899224519729614
0.3178294897079468 -0.2047256976366043 -0.674418568611145
0.3178294897079468 -0.20647329092025757 -0.6589146852493286
0.3178294897079468 -0.20812954008579254 -0.643410861492157
0.3178294897079468 -0.20917412638664246 -0.6279069781303406
0.3178294897079468 -0.20871011912822723 -0.317829430103302
0.3178294897079468 -0.2081799954175949 -0.30232563614845276
0.3178294897079468 -0.20807194709777832 -0.28682172298431396
0.3178294897079468 -0.20864209532737732 -0.27131783962249756
0.3178294897079468 -0.2090800255537033 -0.25581395626068115
0.3178294897079468 -0.20369374752044678 0.17829453945159912
0.3178294897079468 -0.20143522322177887 0.3178294897079468
0.3178294897079468 -0.17583253979682922 0.3178294897079468
0.3178294897079468 -0.14784471690654755 0.27131783962249756
0.3178294897079468 -0.15498603880405426 0.28682172298431396
0.3178294897079468 -0.1612916737794876 0.30232560634613037
0.3178294897079468 -0.14662042260169983 0.20930230617523193
0.3178294897079468 -0.14525093138217926 0.22480618953704834
0.3178294897079468 -0.14499852061271667 0.24031007289886475
0.3178294897079468 -0.14600695669651031 0.25581395626068115
0.3178294897079468 -0.10151101648807526 0.19379842281341553
0.3178294897079468 -0.0912247896194458 0.17829453945159912
0.3178294897079468 -0.07335256785154343 0.16279065608978271
0.3178294897079468 0.001964020309969783 0.1472867727279663
0.3178294897079468 0.05125771462917328 0.1472867727279663
0.3178294897079468 0.06967312097549438 0.16279065608978271
0.3178294897079468 0.06815707683563232 0.674418568611145
0.3178294897079468 0.06751015782356262 0.6899224519729614
0.3178294897079468 0.06892230361700058 0.7054263353347778
0.3178294897079468 0.07919076085090637 0.6434108018875122
0.3178294897079468 0.07013281434774399 0.6589146852493286
0.3178294897079468 0.07538197934627533 0.7209302186965942
0.3178294897079468 0.0826704129576683 0.7364341020584106
0.3178294897079468 0.09214410185813904 0.16279065608978271
0.3178294897079468 0.09533031284809113 0.751937985420227
0.3178294897079468 0.10113105922937393 0.6434108018875122
0.3178294897079468 0.10992253571748734 0.6589146852493286
0.3178294897079468 0.10981538891792297 0.7674418687820435
0.3178294897079468 0.1291845291852951 0.16279065608978271
0.3178294897079468 0.12262636423110962 0.674418568611145
0.3178294897079468 0.12660309672355652 0.7829457521438599
0.3178294897079468 0.14287720620632172 0.17829453945159912
0.3178294897079468 0.14618448913097382 0.19379842281341553
0.3178294897079468 0.14701393246650696 0.20930230617523193
0.3178294897079468 0.1451466828584671 0.7984496355056763
0.3178294897079468 0.15067413449287415 0.22480618953704834
0.3178294897079468 0.15530787408351898 0.24031007289886475
0.3178294897079468 0.15966026484966278 0.25581395626068115
0.3178294897079468 0.16197533905506134 0.27131783962249756
0.3178294897079468 0.16184277832508087 0.4883720874786377
0.3178294897079468 0.16149599850177765 0.5038759708404541
0.3178294897079468 0.1595536470413208 0.8139535188674927
0.3178294897079468 0.1687917560338974 0.28682172298431396
0.3178294897079468 0.17658978700637817 0.30232560634613037
0.3178294897079468 0.17455291748046875 0.4573643207550049
0.31782951951026917 0.16419968008995056 0.4728682041168213
0.31782951951026917 0.16438424587249756 0.5193798542022705
0.3178294897079468 0.17719992995262146 0.5348837375640869
0.3178294897079468 0.16348619759082794 0.8294574022293091
0.3178294897079468 0.16903945803642273 0.8449612855911255
0.3178294897079468 0.17375072836875916 0.8604651689529419
0.3178294897079468 0.17800800502300262 0.8759689331054688
0.3178294897079468 0.18656522035598755 -0.9844961166381836
0.3178294897079468 0.1883469521999359 0.3178294897079468
0.3178294897079468 0.19302751123905182 0.4573643207550049
0.3178294897079468 0.18011005222797394 0.5348837375640869
0.3178294897079468 0.18733298778533936 0.6899224519729614
0.3178294897079468 0.18840175867080688 0.8914728164672852
0.3178294897079468 0.19673487544059753 0.4728682041168213
0.3178294897079468 0.19858190417289734 0.4883720874786377
0.3178294897079468 0.19827398657798767 0.5038759708404541
0.31782951951026917 0.19521954655647278 0.5193798542022705
0.3178294897079468 0.20261356234550476 0.9069766998291016
0.3178294897079468 0.22374388575553894 -0.7829457521438599
0.3178294897079468 0.22010642290115356 -0.7674418687820435
0.3178294897079468 0.2178899496793747 -0.751937985420227
0.3178294897079468 0.21495875716209412 -0.7364341020584106
0.3178294897079468 0.21326974034309387 -0.7209302186965942
0.3178294897079468 0.21216151118278503 -0.7054263353347778
0.3178294897079468 0.21171024441719055 -0.6899224519729614
0.3178294897079468 0.21171841025352478 -0.674418568611145
0.3178294897079468 0.21206596493721008 -0.6589146256446838
0.3178294897079468 0.21327993273735046 -0.643410861492157
0.3178294897079468 0.21367418766021729 -0.6279069781303406
0.3178294897079468 0.21527603268623352 -0.6124030351638794
0.3178294897079468 0.2163751870393753 -0.596899151802063
0.3178294897079468 0.21765640377998352 -0.5813953876495361
0.3178294897079468 0.2188955843448639 -0.5658915042877197
0.3178294897079468 0.2194579541683197 -0.5503876209259033
0.3178294897079468 0.21972158551216125 -0.5348837375640869
0.3178294897079468 0.2200736105442047 -0.5193798542022705
0.3178294897079468 0.22116273641586304 -0.5038759708404541
0.3178294897079468 0.2220446914434433 -0.4883720874786377
0.3178294897079468 0.22343122959136963 -0.4728682041168213
0.3178294897079468 0.2245824635028839 -0.4573643207550049
0.3178294897079468 0.21748647093772888 0.7054263353347778
0.3178294897079468 0.22686564922332764 -0.9689922332763672
0.3178294897079468 0.23681089282035828 -0.8449612259864807
0.3178294897079468 0.23250940442085266 -0.8294572830200195
0.3178294897079468 0.22822481393814087 -0.8139535188674927
0.3178294897079468 0.22566184401512146 -0.798449695110321
0.3178294599056244 0.22553689777851105 -0.4418604075908661
0.3178294599056244 0.22602294385433197 -0.42635661363601685
0.3178294897079468 0.22607529163360596 -0.41085273027420044
0.3178294897079468 0.22614581882953644 -0.39534881711006165
0.3178294897079468 0.22602924704551697 -0.37984493374824524
0.3178294897079468 0.22590479254722595 -0.3643410801887512
0.31782951951026917 0.22553279995918274 -0.3488371968269348
0.3178294897079468 0.2258964478969574 -0.333333283662796
0.3178294897079468 0.22723983228206635 -0.317829430103302
0.3178294897079468 0.22925567626953125 -0.30232560634613037
0.3178294897079468 0.23141147196292877 -0.28682172298431396
0.3178294897079468 0.23413443565368652 -0.27131783962249756
0.3178294897079468 0.23657430708408356 -0.25581395626068115
0.3178294897079468 0.23892611265182495 -0.24031007289886475
0.3178294897079468 0.24020811915397644 -0.1782945990562439
0.3178294897079468 0.2385614812374115 -0.1627907156944275
0.3178294897079468 0.23780402541160583 -0.14728683233261108
0.3178294897079468 0.23884005844593048 -0.13178294897079468
0.3178294897079468 0.23688672482967377 0.3178294897079468
0.3178294897079468 0.23628085851669312 0.7209302186965942
0.3178294897079468 0.2464085817337036 -0.9534883499145508
0.3178294897079468 0.2536062002182007 -0.9379844665527344
0.3178294897079468 0.2538710832595825 -0.9224806427955627
0.3178294897079468 0.25095468759536743 -0.9069768190383911
0.3178294897079468 0.24736008048057556 -0.8914728760719299
0.3178294897079468 0.24280960857868195 -0.8759689927101135
0.3178294897079468 0.24043232202529907 -0.8604651093482971
0.3178294897079468 0.24047081172466278 -0.22480618953704834
0.3178294897079468 0.24103188514709473 -0.20930232107639313
0.3178294599056244 0.24102932214736938 -0.19379842281341553
0.3178294897079468 0.24112161993980408 -0.11627905815839767
0.3178294897079468 0.24482643604278564 -0.10077518224716187
0.3178294897079468 0.2504306733608246 -0.08527129888534546
0.3178294897079468 0.2552756071090698 -0.06976741552352905
0.3178294897079468 0.2538663148880005 0.28682172298431396
0.3178294897079468 0.2438422441482544 0.30232560634613037
0.3178294897079468 0.24405688047409058 0.7364341020584106
0.3178294897079468 0.24588224291801453 0.751937985420227
0.3178294897079468 0.24914440512657166 0.7674418687820435
0.3178294897079468 0.2518576383590698 0.9069766998291016
0.3178294897079468 0.2584354281425476 -0.05426359176635742
0.3178294897079468 0.26002267003059387 -0.038759708404541016
0.3178294897079468 0.2613307535648346 -0.02325582504272461
0.3178294897079468 0.265806645154953 -0.007751941680908203
0.3178294897079468 0.260200560092926 0.16279065608978271
0.3178294897079468 0.26029565930366516 0.17829455435276031
0.3178294897079468 0.26137465238571167 0.19379842281341553
0.3178294897079468 0.2645624279975891 0.20930230617523193
0.3178294897079468 0.2699316143989563 0.22480618953704834
0.3178294897079468 0.2702156901359558 0.24031007289886475
0.3178294897079468 0.2644784450531006 0.25581395626068115
0.3178294897079468 0.25837424397468567 0.27131783962249756
0.3178294897079468 0.2763136923313141 0.007751941680908203
0.3178294897079468 0.27568739652633667 0.1472867727279663
0.3178294897079468 0.28021082282066345 0.7829457521438599
0.3178294897079468 0.27863776683807373 0.8914728164672852
0.3178294897079468 0.29463332891464233 0.02325582504272461
0.3178294897079468 0.30172982811927795 0.1472867727279663
0.3178294897079468 0.30360811948776245 0.8759689331054688
0.3178294897079468 0.31876131892204285 0.038759708404541016
0.3178294897079468 0.32698774337768555 0.16279065608978271
0.3178294897079468 0.329070508480072 0.17829453945159912
0.3178294897079468 0.3304500877857208 0.19379842281341553
0.3178294897079468 0.3324454128742218 0.20930230617523193
0.3178294897079468 0.3179774582386017 0.798449695110321
0.31782951951026917 0.32045891880989075 0.8604652285575867
0.3178294897079468 0.34115540981292725 0.05426359176635742
0.3178294897079468 0.33585208654403687 0.22480618953704834
0.3178294897079468 0.34104230999946594 0.24031007289886475
0.3178294897079468 0.33553647994995117 0.8139535784721375
0.3178294897079468 0.33961015939712524 0.8294574022293091
0.3178294897079468 0.33474913239479065 0.8449612855911255
0.3178294599056244 0.3519102931022644 0.25581395626068115
0.3178294897079468 0.359734445810318 0.27131783962249756
0.3178294897079468 0.36189940571784973 0.7054263353347778
0.3178294897079468 0.35374000668525696 0.7209302186965942
0.3178294897079468 0.3531169593334198 0.7364341020584106
0.3178294897079468 0.358065664768219 0.751937985420227
0.3178294897079468 0.36456766724586487 0.06976747512817383
0.3178294897079468 0.37533465027809143 0.08527135848999023
0.3178294897079468 0.3679253160953522 0.28682172298431396
0.3178294897079468 0.3746163845062256 0.30232560634613037
0.3178294897079468 0.3795650005340576 0.3178294897079468
0.3178294897079468 0.37944296002388 0.6589146852493286
0.3178294897079468 0.3776632845401764 0.674418568611145
0.3178294897079468 0.37157848477363586 0.6899224519729614
0.3178294897079468 0.3671664893627167 0.7674418687820435
0.3178294897079468 0.37953048944473267 0.7829457521438599
0.3178294897079468 0.38611310720443726 0.10077524185180664
0.3178294897079468 0.3849852681159973 0.3333333730697632
0.3178294897079468 0.3886614441871643 0.3488372564315796
0.3178294897079468 0.39111965894699097 0.364341139793396
0.3178294897079468 0.394121915102005 0.37984490394592285
0.3178294897079468 0.39167848229408264 0.6279069185256958
0.31782951951026917 0.3811807632446289 0.6434108018875122
0.3178294897079468 0.40579479932785034 0.39534878730773926
0.3178294897079468 0.40373551845550537 0.6279069185256958
0.3178294897079468 0.39877748489379883 0.7829457521438599
0.3178294897079468 0.4238564372062683 0.11627912521362305
0.3178294897079468 0.422823429107666 0.39534878730773926
0.3178294897079468 0.4146369993686676 0.7674418687820435
0.3178294897079468 0.4309021830558777 0.6434108018875122
0.3178294897079468 0.436993807554245 0.7364341020584106
0.3178294897079468 0.4269534647464752 0.751937985420227
0.3178294897079468 0.4489153027534485 0.39534878730773926
0.3178294897079468 0.4546280801296234 0.41085267066955566
0.3178294897079468 0.45586317777633667 0.42635655403137207
0.3178294897079468 0.4570232927799225 0.4418604373931885
0.3178294897079468 0.45232805609703064 0.6589146852493286
0.3178294897079468 0.4486426115036011 0.7209302186965942
0.3178294897079468 0.46046310663223267 0.4573643207550049
0.3178294897079468 0.4681435227394104 0.4728682041168213
0.3178294897079468 0.4607280492782593 0.674418568611145
0.3178294897079468 0.4619956612586975 0.6899224519729614
0.3178294897079468 0.45757338404655457 0.7054263353347778
0.3178294897079468 0.5107736587524414 0.4728682041168213
0.3178294897079468 0.5220311284065247 0.4728682041168213
0.3178294897079468 0.5351583957672119 0.4883721172809601
0.3178294897079468 0.5487222075462341 0.5038759708404541
0.3178294897079468 0.5633857846260071 0.1317828893661499
0.3178294897079468 0.5668729543685913 0.5193798542022705
0.3178294897079468 0.6014042496681213 0.1472867727279663
0.3178294897079468 0.6159147024154663 0.16279065608978271
0.3178294897079468 0.6324824690818787 0.17829455435276031
0.3178294897079468 0.6428174376487732 0.5193798542022705
0.3178294897079468 0.6466783881187439 0.19379842281341553
0.3178294897079468 0.6538569331169128 0.20930230617523193
0.3178294897079468 0.6588910222053528 0.22480618953704834
0.3178294897079468 0.6642935276031494 0.24031007289886475
0.3178294897079468 0.6685277223587036 0.25581395626068115
0.3178294897079468 0.6715929508209229 0.27131783962249756
0.3178294897079468 0.6715840697288513 0.5038759708404541
0.3178294897079468 0.6760967969894409 0.28682172298431396
0.3178294897079468 0.6802877187728882 0.30232560634613037
0.3178294897079468 0.6830520629882812 0.3178294897079468
0.3178294897079468 0.6851904392242432 0.3333333730697632
0.3178294897079468 0.6865038871765137 0.3488372564315796
0.3178294897079468 0.6874125003814697 0.364341139793396
0.3178294897079468 0.6881071329116821 0.37984490394592285
0.3178294897079468 0.688491702079773 0.39534878730773926
0.3178294897079468 0.6886170506477356 0.41085267066955566
0.3178294897079468 0.6879749894142151 0.42635655403137207
0.3178294897079468 0.6868335008621216 0.4418604373931885
0.3178294897079468 0.6852569580078125 0.4573643207550049
0.3178294897079468 0.6821542978286743 0.4728682041168213
0.3178294897079468 0.6771638989448547 0.4883720874786377
0.3333333730697632 -0.6442385911941528 0.4418604373931885
0.3333333730697632 -0.6473543643951416 0.4573643207550049
0.3333333730697632 -0.6480751633644104 0.4728682041168213
0.3333333730697632 -0.6473302841186523 0.4883720874786377
0.3333333730697632 -0.6462098956108093 0.5038759708404541
0.3333333730697632 -0.6446837186813354 0.5193798542022705
0.3333333730697632 -0.629988431930542 0.41085267066955566
0.3333333730697632 -0.6373987197875977 0.42635655403137207
0.3333333730697632 -0.6419152617454529 0.5348837375640869
0.3333333730697632 -0.638130784034729 0.5503876209259033
0.3333333730697632 -0.6323553919792175 0.5658915042877197
0.3333333730697632 -0.6285399198532104 0.5813953876495361
0.3333333730697632 -0.6137635111808777 0.28682172298431396
0.3333333730697632 -0.6158881783485413 0.30232560634613037
0.3333333730697632 -0.6154360175132751 0.3178294897079468
0.3333333730697632 -0.6133184432983398 0.3333333730697632
0.3333333730697632 -0.6144076585769653 0.37984490394592285
0.3333333730697632 -0.6202212572097778 0.39534878730773926
0.3333333730697632 -0.6251791715621948 0.5968992710113525
0.3333333730697632 -0.6214431524276733 0.612403154373169
0.3333333730697632 -0.6164077520370483 0.6279069185256958
0.3333333730697632 -0.6128915548324585 0.6434108018875122
0.3333333730697632 -0.602055013179779 0.25581395626068115
0.3333333730697632 -0.6086653470993042 0.27131783962249756
0.3333333730697632 -0.6109627485275269 0.348837286233902
0.3333333730697632 -0.610809326171875 0.3643411099910736
0.3333333730697632 -0.6071496605873108 0.6589146852493286
0.3333333730697632 -0.5978417992591858 0.674418568611145
0.3333333730697632 -0.5912303924560547 0.24031007289886475
0.3333333730697632 -0.5857264995574951 0.6899224519729614
0.3333333730697632 -0.5755465030670166 0.22480618953704834
0.3333333730697632 -0.5564249157905579 0.20930230617523193
0.3333333730697632 -0.5641716122627258 0.7054263353347778
0.3333333730697632 -0.5329827070236206 0.19379842281341553
0.3333333730697632 -0.5314121246337891 0.7209302186965942
0.3333333730697632 -0.5108256936073303 0.17829453945159912
0.3333333730697632 -0.49348142743110657 0.16279065608978271
0.3333333730697632 -0.4937664866447449 0.7364341020584106
0.3333333730697632 -0.4731752574443817 0.1472867727279663
0.3333333730697632 -0.4468821883201599 0.7364341020584106
0.3333333730697632 -0.43897804617881775 0.1317828893661499
0.3333333730697632 -0.42911040782928467 0.4728682041168213
0.3333333730697632 -0.4365834593772888 0.4883720874786377
0.3333333730697632 -0.44075581431388855 0.5038759708404541
0.3333333730697632 -0.44085392355918884 0.5193798542022705
0.3333333730697632 -0.4393306076526642 0.5348837375640869
0.3333333730697632 -0.4348471462726593 0.5503876209259033
0.3333333730697632 -0.4304933547973633 0.5658915042877197
0.3333333730697632 -0.43309739232063293 0.7209302186965942
0.3333333730697632 -0.41283509135246277 0.4418604373931885
0.3333333730697632 -0.42135924100875854 0.4573643207550049
0.3333333730697632 -0.4258843958377838 0.5813953876495361
0.3333333730697632 -0.4245601296424866 0.5968992710113525
0.3333333730697632 -0.4234957993030548 0.612403154373169
0.3333333730697632 -0.42275455594062805 0.6279069185256958
0.3333333730697632 -0.4234871566295624 0.6434108018875122
0.3333333730697632 -0.4244571924209595 0.6589146852493286
0.3333333730697632 -0.42553630471229553 0.674418568611145
0.3333333730697632 -0.4257156252861023 0.6899224519729614
0.3333333730697632 -0.42574238777160645 0.7054263353347778
0.3333333730697632 -0.3983181118965149 0.11627912521362305
0.3333333730697632 -0.3972384035587311 0.41085267066955566
0.3333333730697632 -0.4055398106575012 0.42635655403137207
0.3333333730697632 -0.38276708126068115 0.37984490394592285
0.3333333730697632 -0.39082497358322144 0.39534881711006165
0.3333333730697632 -0.37311094999313354 0.364341139793396
0.33333340287208557 -0.3642745614051819 0.10077524930238724
0.3333333730697632 -0.3553956151008606 0.3333333730697632
0.3333333730697632 -0.3627193868160248 0.3488372564315796
0.3333333730697632 -0.3408052623271942 0.08527135848999023
0.3333333730697632 -0.33668816089630127 0.27131783962249756
0.3333333730697632 -0.3404527008533478 0.28682172298431396
0.3333333730697632 -0.34355151653289795 0.30232560634613037
0.3333333730697632 -0.34797346591949463 0.3178294897079468
0.3333333730697632 -0.321493923664093 0.06976747512817383
0.3333333730697632 -0.32082024216651917 0.17829453945159912
0.3333333730697632 -0.3185427486896515 0.19379842281341553
0.3333333730697632 -0.3179115951061249 0.20930230617523193
0.3333333730697632 -0.32271096110343933 0.22480618953704834
0.3333333730697632 -0.326993465423584 0.24031008780002594
0.3333333730697632 -0.3314804434776306 0.25581395626068115
0.3333333730697632 -0.3038422763347626 0.05426359176635742
0.3333333730697632 -0.3159520924091339 0.16279065608978271
0.3333333730697632 -0.2878260314464569 0.038759708404541016
0.3333333730697632 -0.27372223138809204 0.02325582504272461
0.3333333730697632 -0.2569541335105896 -0.02325582504272461
0.3333333730697632 -0.2597839832305908 -0.007751941680908203
0.3333333730697632 -0.2655147314071655 0.007751941680908203
0.3333333730697632 -0.24412290751934052 -0.9534883499145508
0.3333333730697632 -0.24723708629608154 -0.9379844665527344
0.3333333730697632 -0.2445509135723114 -0.922480583190918
0.3333333730697632 -0.24165427684783936 -0.06976741552352905
0.3333333730697632 -0.2459615021944046 -0.05426359176635742
0.3333333730697632 -0.2519112825393677 -0.038759708404541016
0.3333333730697632 -0.23056823015213013 -0.9689922332763672
0.3333333730697632 -0.2402895838022232 -0.9069768190383911
0.3333333730697632 -0.2332950234413147 -0.8914728760719299
0.3333333730697632 -0.22699061036109924 -0.8759689927101135
0.3333333730697632 -0.22780509293079376 -0.10077518224716187
0.3333333730697632 -0.23461399972438812 -0.08527129888534546
0.3333333730697632 -0.2353050410747528 0.16279065608978271
0.3333333730697632 -0.2256399393081665 0.24031007289886475
0.3333333730697632 -0.2257581651210785 0.25581395626068115
0.3333333730697632 -0.22511796653270721 0.27131783962249756
0.3333333730697632 -0.22219735383987427 -0.8604651093482971
0.3333333730697632 -0.2160215675830841 -0.8449612259864807
0.3333333730697632 -0.2117847353219986 -0.8294574022293091
0.3333333730697632 -0.21020947396755219 -0.14728683233261108
0.3333333730697632 -0.21459119021892548 -0.13178294897079468
0.33333340287208557 -0.22209550440311432 -0.11627906560897827
0.3333333730697632 -0.2104298174381256 0.19379842281341553
0.3333333730697632 -0.21667924523353577 0.20930230617523193
0.3333333730697632 -0.22322674095630646 0.22480618953704834
0.3333333730697632 -0.22033216059207916 0.28682172298431396
0.3333333730697632 -0.2139797806739807 0.30232560634613037
0.3333333730697632 -0.20889292657375336 -0.8139535188674927
0.3333333730697632 -0.20458939671516418 -0.7984496355056763
0.3333333730697632 -0.20067241787910461 -0.7829457521438599
0.3333333730697632 -0.19736121594905853 -0.7674418687820435
0.3333333730697632 -0.1950935423374176 -0.751937985420227
0.3333333730697632 -0.19390662014484406 -0.643410861492157
0.3333333730697632 -0.19445379078388214 -0.6279069781303406
0.3333333730697632 -0.19478431344032288 -0.6124030947685242
0.3333333730697632 -0.19502823054790497 -0.5968992114067078
0.3333333730697632 -0.195052370429039 -0.5813953876495361
0.3333333730697632 -0.19513924419879913 -0.5658915042877197
0.3333333730697632 -0.19481921195983887 -0.5503876209259033
0.3333333730697632 -0.19461417198181152 -0.5348837375640869
0.3333333730697632 -0.19436466693878174 -0.5193798542022705
0.3333333730697632 -0.19422554969787598 -0.5038759708404541
0.3333333730697632 -0.19420142471790314 -0.4883720874786377
0.3333333730697632 -0.19423463940620422 -0.4728682041168213
0.3333333730697632 -0.19430920481681824 -0.4573643207550049
0.3333333730697632 -0.1945888102054596 -0.4418604373931885
0.3333333730697632 -0.19454585015773773 -0.42635661363601685
0.3333333730697632 -0.19447728991508484 -0.41085273027420044
0.3333333730697632 -0.19453752040863037 -0.39534884691238403
0.3333333730697632 -0.19439393281936646 -0.3798449635505676
0.3333333730697632 -0.1938318908214569 -0.3643410801887512
0.3333333730697632 -0.1958548128604889 -0.19379842281341553
0.3333333730697632 -0.19997787475585938 -0.1782945990562439
0.3333333730697632 -0.2059638798236847 -0.1627907156944275
0.3333333730697632 -0.2048223912715912 0.17829453945159912
0.3333333730697632 -0.2073579877614975 0.3178294897079468
0.3333333730697632 -0.19317197799682617 -0.9844961166381836
0.3333333432674408 -0.19354556500911713 -0.7364340424537659
0.3333333730697632 -0.19150488078594208 -0.7209302186965942
0.3333333730697632 -0.19057239592075348 -0.7054263949394226
0.3333333730697632 -0.19072197377681732 -0.6899224519729614
0.3333333730697632 -0.19165125489234924 -0.674418568611145
0.3333333730697632 -0.19285745918750763 -0.6589146852493286
0.33333340287208557 -0.1923375129699707 -0.3488371968269348
0.3333333730697632 -0.19067257642745972 -0.3333333134651184
0.3333333730697632 -0.18852759897708893 -0.317829430103302
0.3333333730697632 -0.18686428666114807 -0.30232560634613037
0.3333333730697632 -0.18600112199783325 -0.28682172298431396
0.3333333730697632 -0.1865045726299286 -0.27131783962249756
0.3333333730697632 -0.1869797259569168 -0.25581395626068115
0.3333333730697632 -0.18820098042488098 -0.24031007289886475
0.3333333730697632 -0.19004899263381958 -0.22480618953704834
0.3333333730697632 -0.19257380068302155 -0.20930230617523193
0.3333333730697632 -0.16940239071846008 0.3178294897079468
0.3333333730697632 -0.15117426216602325 0.28682172298431396
0.3333333730697632 -0.15883758664131165 0.30232560634613037
0.3333333730697632 -0.1336994171142578 0.24031007289886475
0.3333333730697632 -0.14187201857566833 0.25581395626068115
0.3333333730697632 -0.14545971155166626 0.27131783962249756
0.3333333730697632 -0.11768638342618942 0.4418604373931885
0.3333333730697632 -0.12883718311786652 0.4573642909526825
0.3333333730697632 -0.13163718581199646 0.4728681743144989
0.3333333730697632 -0.1301754117012024 0.4883720874786377
0.3333333730697632 -0.12320592254400253 0.5038759708404541
0.3333333730697632 -0.11786424368619919 0.5193798542022705
0.3333333730697632 -0.11029483377933502 0.22480618953704834
0.3333333730697632 -0.11534983664751053 0.4418604373931885
0.3333333730697632 -0.09578706324100494 0.20930230617523193
0.3333333730697632 -0.1000736653804779 0.4573643207550049
0.3333333730697632 -0.09737192839384079 0.4728682041168213
0.3333333730697632 -0.09608282148838043 0.4883720874786377
0.3333333730697632 -0.09788890182971954 0.5038759708404541
0.3333333730697632 -0.09986912459135056 0.5193798542022705
0.3333333730697632 -0.0750010758638382 0.17829453945159912
0.3333333730697632 -0.08417564630508423 0.19379842281341553
0.3333333730697632 -0.07141541689634323 0.5968992710113525
0.3333333730697632 -0.07254622876644135 0.612403154373169
0.3333333730697632 -0.07046598196029663 0.6279069185256958
0.3333333730697632 -0.06288620084524155 0.5813953876495361
0.3333333730697632 -0.053787168115377426 0.16279065608978271
0.3333333730697632 -0.05098382383584976 0.5813953876495361
0.3333333730697632 -0.04744011163711548 0.5968992710113525
0.3333333730697632 -0.04551040008664131 0.612403154373169
0.3333333730697632 -0.04736630991101265 0.6279069185256958
0.3333333730697632 0.012859297916293144 0.1472867727279663
0.3333333730697632 0.0613391138613224 0.1472867727279663
0.3333333730697632 0.06736866384744644 0.6434108018875122
0.3333333730697632 0.062334537506103516 0.6589146852493286
0.3333333730697632 0.05892271175980568 0.674418568611145
0.3333333730697632 0.057078540325164795 0.6899224519729614
0.3333333730697632 0.056387897580862045 0.7054263353347778
0.3333333730697632 0.05731398984789848 0.720930278301239
0.3333333730697632 0.060740917921066284 0.7364341020584106
0.3333333730697632 0.07657764106988907 0.6279069185256958
0.3333333730697632 0.072333924472332 0.751937985420227
0.3333333730697632 0.09119690954685211 0.7674418687820435
0.3333333730697632 0.10123703628778458 0.6279069185256958
0.3333333730697632 0.11162803322076797 0.6434108018875122
0.3333333730697632 0.10999315977096558 0.7829457521438599
0.3333333730697632 0.12651357054710388 0.6589146852493286
0.3333333730697632 0.1286734938621521 0.7984496355056763
0.3333333730697632 0.13186636567115784 0.16279064118862152
0.3333333730697632 0.14350168406963348 0.17829453945159912
0.3333333730697632 0.14721576869487762 0.19379842281341553
0.3333333730697632 0.14725002646446228 0.4728682041168213
0.3333333730697632 0.14660988748073578 0.4883720874786377
0.3333333730697632 0.14659637212753296 0.5038759708404541
0.3333333730697632 0.14141620695590973 0.6589146852493286
0.3333333730697632 0.14575153589248657 0.8139535188674927
0.3333333730697632 0.15111470222473145 0.20930230617523193
0.3333333730697632 0.15502631664276123 0.22480618953704834
0.3333333730697632 0.15819187462329865 0.24031007289886475
0.3333333730697632 0.16077060997486115 0.25581395626068115
0.3333333730697632 0.16235898435115814 0.27131783962249756
0.3333333730697632 0.15983512997627258 0.4418604373931885
0.3333333730697632 0.153811514377594 0.4573643207550049
0.3333333730697632 0.1498466581106186 0.5193798542022705
0.3333333730697632 0.15856046974658966 0.5348837375640869
0.3333333730697632 0.15623009204864502 0.8294574022293091
0.3333333730697632 0.16061164438724518 0.8449612855911255
0.3333333730697632 0.16280168294906616 -0.9844961166381836
0.3333333730697632 0.16924665868282318 0.28682172298431396
0.3333333730697632 0.1763608604669571 0.30232560634613037
0.3333333730697632 0.1677311509847641 0.42635655403137207
0.3333333730697632 0.16740062832832336 0.5503876209259033
0.3333333730697632 0.16946697235107422 0.6434108018875122
0.3333333730697632 0.1677277386188507 0.8604651689529419
0.3333333730697632 0.17433972656726837 0.8759689331054688
0.3333333730697632 0.1874944269657135 0.3178294897079468
0.3333333730697632 0.19332090020179749 0.5503876209259033
0.3333333730697632 0.18288466334342957 0.6434108018875122
0.3333333730697632 0.18372765183448792 0.8914728164672852
0.3333333730697632 0.2086213231086731 -0.7829457521438599
0.3333333730697632 0.20486468076705933 -0.7674418687820435
0.3333333730697632 0.2024473249912262 -0.751937985420227
0.3333333730697632 0.19951677322387695 -0.7364341020584106
0.3333333730697632 0.1979392170906067 -0.7209302186965942
0.3333333730697632 0.19689689576625824 -0.7054263353347778
0.3333333730697632 0.1964382380247116 -0.6899224519729614
0.3333333730697632 0.19629627466201782 -0.674418568611145
0.3333333730697632 0.19638697803020477 -0.6589146852493286
0.3333333730697632 0.19704779982566833 -0.643410861492157
0.3333333730697632 0.1970689743757248 -0.6279069185256958
0.3333333730697632 0.1983913630247116 -0.6124030947685242
0.3333333730697632 0.19939669966697693 -0.5968992114067078
0.3333333730697632 0.2005249708890915 -0.5813953876495361
0.3333333730697632 0.20159387588500977 -0.5658915042877197
0.3333333730697632 0.2019047737121582 -0.5503876209259033
0.3333333730697632 0.2019539773464203 -0.5348837375640869
0.3333333730697632 0.20212554931640625 -0.5193798542022705
0.3333333730697632 0.20318511128425598 -0.5038759708404541
0.3333333730697632 0.20423546433448792 -0.4883720874786377
0.3333333730697632 0.20595885813236237 -0.4728682041168213
0.3333333730697632 0.2074216902256012 -0.4573643207550049
0.3333333730697632 0.20860593020915985 -0.4418604373931885
0.3333333730697632 0.20919321477413177 -0.42635661363601685
0.3333333730697632 0.19706596434116364 0.42635655403137207
0.3333333730697632 0.20539116859436035 0.4418604373931885
0.3333333730697632 0.19962534308433533 0.5348837375640869
0.3333333730697632 0.1946670114994049 0.6589146852493286
0.3333333730697632 0.20019298791885376 0.674418568611145
0.3333333730697632 0.2012677639722824 0.9069766998291016
0.3333333730697632 0.21071374416351318 -0.9689922332763672
0.3333333730697632 0.22224664688110352 -0.8449612855911255
0.3333333730697632 0.21793602406978607 -0.8294573426246643
0.3333333730697632 0.21360965073108673 -0.8139535188674927
0.3333333730697632 0.2105892151594162 -0.7984495759010315
0.3333333730697632 0.20939870178699493 -0.41085273027420044
0.3333333730697632 0.2096204161643982 -0.39534884691238403
0.3333333730697632 0.20960617065429688 -0.3798449635505676
0.3333333730697632 0.20955438911914825 -0.3643410801887512
0.3333333730697632 0.20931394398212433 -0.3488371670246124
0.3333333730697632 0.20968003571033478 -0.3333333134651184
0.3333333730697632 0.21064616739749908 -0.317829430103302
0.3333333730697632 0.21215936541557312 -0.30232560634613037
0.3333333730697632 0.2138596475124359 -0.28682172298431396
0.3333333730697632 0.216150164604187 -0.27131783962249756
0.3333333730697632 0.21776321530342102 -0.25581395626068115
0.3333333730697632 0.21928423643112183 -0.24031007289886475
0.3333333730697632 0.22029386460781097 -0.22480618953704834
0.3333333730697632 0.22061407566070557 -0.20930230617523193
0.3333333730697632 0.2204984724521637 -0.19379842281341553
0.3333333730697632 0.21972402930259705 -0.1782945990562439
0.3333333730697632 0.21840250492095947 -0.1627907156944275
0.3333333730697632 0.2176753580570221 -0.14728683233261108
0.3333333730697632 0.21867316961288452 -0.13178294897079468
0.3333333730697632 0.2209445685148239 -0.11627906560897827
0.3333333730697632 0.22375380992889404 -0.10077518224716187
0.3333333730697632 0.21045249700546265 0.4573643207550049
0.3333333730697632 0.2117932289838791 0.4728681743144989
0.3333333730697632 0.21232330799102783 0.4883720874786377
0.3333333730697632 0.2116795778274536 0.5038759708404541
0.3333333730697632 0.20981669425964355 0.5193798542022705
0.3333333730697632 0.2116546630859375 0.6899224519729614
0.3333333730697632 0.2315061390399933 -0.9534883499145508
0.3333333730697632 0.23896025121212006 -0.9379844665527344
0.3333333730697632 0.2392405867576599 -0.9224807024002075
0.3333333730697632 0.23646944761276245 -0.9069768190383911
0.3333333730697632 0.23287194967269897 -0.8914728760719299
0.3333333730697632 0.22809118032455444 -0.8759689927101135
0.3333333730697632 0.22542858123779297 -0.8604650497436523
0.3333333730697632 0.22766254842281342 -0.08527129888534546
0.3333333730697632 0.23163172602653503 -0.06976741552352905
0.3333333730697632 0.23443740606307983 -0.05426359176635742
0.3333333730697632 0.23574009537696838 -0.038759708404541016
0.3333333730697632 0.23695288598537445 -0.02325582504272461
0.3333333730697632 0.23027482628822327 0.3178294897079468
0.3333333730697632 0.2272481769323349 0.7054262757301331
0.3333333730697632 0.23999255895614624 0.7209302186965942
0.3333333730697632 0.2410651445388794 -0.00775194214656949
0.3333333730697632 0.2502611577510834 0.007751941680908203
0.3333333730697632 0.25183916091918945 0.28682172298431396
0.3333333730697632 0.24272389709949493 0.30232560634613037
