-0.30232560634613037 -0.3488371968269348 -0.17460352182388306
-0.302325576543808 -0.3488371968269348 0.25651517510414124
-0.30232560634613037 -0.3488371968269348 0.7569952011108398
-0.30232560634613037 -0.3488371968269348 0.7830935716629028
-0.30232560634613037 -0.3333333134651184 -0.21365667879581451
-0.30232560634613037 -0.333333283662796 0.2591657340526581
-0.30232560634613037 -0.317829430103302 -0.2635077238082886
-0.30232560634613037 -0.317829430103302 0.27165350317955017
-0.30232560634613037 -0.30232560634613037 -0.37994498014450073
-0.30232560634613037 -0.30232560634613037 0.27953460812568665
-0.30232560634613037 -0.28682172298431396 -0.4629144072532654
-0.30232560634613037 -0.28682172298431396 0.2899811267852783
-0.30232560634613037 -0.27131783962249756 -0.5304868221282959
-0.30232560634613037 -0.27131783962249756 0.30276384949684143
-0.30232560634613037 -0.27131783962249756 0.6119226217269897
-0.30232560634613037 -0.27131783962249756 0.7674129605293274
-0.30232560634613037 -0.25581395626068115 -0.600001335144043
-0.30232560634613037 -0.25581395626068115 0.30724549293518066
-0.30232560634613037 -0.25581395626068115 0.58928382396698
-0.30232560634613037 -0.25581395626068115 0.7834055423736572
-0.30232560634613037 -0.24031007289886475 -0.6925321221351624
-0.30232560634613037 -0.24031007289886475 0.3189126253128052
-0.30232560634613037 -0.24031007289886475 0.5704212188720703
-0.30232560634613037 -0.24031007289886475 0.782117486000061
-0.30232560634613037 -0.22480618953704834 -0.7811499238014221
-0.30232560634613037 -0.22480618953704834 0.3215934932231903
-0.30232560634613037 -0.22480618953704834 0.5578047633171082
-0.30232560634613037 -0.22480618953704834 0.7799215316772461
-0.30232560634613037 -0.20930230617523193 -0.8541469573974609
-0.30232560634613037 -0.20930230617523193 0.32547426223754883
-0.30232560634613037 -0.20930230617523193 0.5498279929161072
-0.30232560634613037 -0.20930230617523193 0.7778667211532593
-0.30232560634613037 -0.19379842281341553 -0.8851918578147888
-0.30232560634613037 -0.19379842281341553 0.3328014314174652
-0.30232560634613037 -0.19379842281341553 0.5482425689697266
-0.30232560634613037 -0.19379842281341553 0.7758070230484009
-0.30232560634613037 -0.1782945990562439 -0.8977659940719604
-0.30232560634613037 -0.1782945990562439 0.3342384099960327
-0.30232560634613037 -0.1782945990562439 0.5488249659538269
-0.30232560634613037 -0.1782945990562439 0.7676267027854919
-0.30232560634613037 -0.1627907156944275 -0.9027446508407593
-0.30232560634613037 -0.1627907156944275 0.3344779312610626
-0.30232560634613037 -0.1627907156944275 0.5495179295539856
-0.30232560634613037 -0.1627907156944275 0.7244639992713928
-0.30232560634613037 -0.14728683233261108 -0.9047980904579163
-0.30232560634613037 -0.14728684723377228 0.33453208208084106
-0.30232560634613037 -0.14728683233261108 0.5491670370101929
-0.30232560634613037 -0.14728683233261108 0.7092117667198181
-0.30232560634613037 -0.13178294897079468 -0.9081030488014221
-0.30232560634613037 -0.13178294897079468 0.3341483175754547
-0.30232560634613037 -0.13178294897079468 0.5480175614356995
-0.30232560634613037 -0.13178294897079468 0.6995360851287842
-0.30232560634613037 -0.11627906560897827 -0.9137076139450073
-0.30232560634613037 -0.11627906560897827 0.33369964361190796
-0.30232560634613037 -0.11627906560897827 0.544805109500885
-0.30232560634613037 -0.11627906560897827 0.6917972564697266
-0.30232560634613037 -0.10077518224716187 -0.9282815456390381
-0.30232560634613037 -0.10077517479658127 0.33423835039138794
-0.30232560634613037 -0.10077518224716187 0.5362066030502319
-0.30232560634613037 -0.10077518224716187 0.6828486323356628
-0.30232560634613037 -0.08527129888534546 -0.9538241028785706
-0.30232560634613037 -0.08527129888534546 0.33595919609069824
-0.30232560634613037 -0.08527129888534546 0.526835560798645
-0.30232560634613037 -0.08527129888534546 0.6780209541320801
-0.30232560634613037 -0.06976741552352905 -0.970819890499115
-0.30232560634613037 -0.06976741552352905 0.3384593427181244
-0.30232560634613037 -0.06976741552352905 0.509187638759613
-0.302325576543808 -0.06976741552352905 0.6748558282852173
-0.30232560634613037 -0.05426359176635742 -0.9862737655639648
-0.30232560634613037 -0.05426359176635742 0.3438958525657654
-0.30232560634613037 -0.05426359176635742 0.4754980206489563
-0.30232560634613037 -0.05426359176635742 0.6648951768875122
-0.30232560634613037 -0.038759708404541016 -0.9861558675765991
-0.30232560634613037 -0.038759708404541016 0.3484087884426117
-0.30232560634613037 -0.038759708404541016 0.4269605875015259
-0.30232560634613037 -0.038759708404541016 0.6602280139923096
-0.30232560634613037 -0.02325582504272461 -0.9708338379859924
-0.30232560634613037 -0.02325582504272461 0.3424297571182251
-0.30232560634613037 -0.02325582504272461 0.4184366464614868
-0.30232560634613037 -0.02325582504272461 0.6494407653808594
-0.30232560634613037 -0.007751941680908203 -0.9643431901931763
-0.30232560634613037 -0.007751941680908203 0.3320460915565491
-0.30232560634613037 -0.007751941680908203 0.4484570622444153
-0.30232560634613037 -0.007751941680908203 0.638412356376648
-0.30232560634613037 0.007751941680908203 -0.9554093480110168
-0.30232560634613037 0.007751941680908203 0.32114583253860474
-0.30232560634613037 0.007751941680908203 0.5311484336853027
-0.30232560634613037 0.007751941680908203 0.6172291040420532
-0.30232560634613037 0.02325582504272461 -0.9479300379753113
-0.30232560634613037 0.02325582504272461 0.3200874924659729
-0.30232560634613037 0.038759708404541016 -0.9396920800209045
-0.30232560634613037 0.038759708404541016 0.3210030198097229
-0.30232560634613037 0.05426359176635742 -0.9348983764648438
-0.30232560634613037 0.05426359176635742 0.323419988155365
-0.30232560634613037 0.06976747512817383 -0.9295257925987244
-0.30232560634613037 0.06976747512817383 0.329267680644989
-0.30232560634613037 0.08527135848999023 -0.9256962537765503
-0.30232560634613037 0.08527135848999023 0.3344292938709259
-0.30232560634613037 0.08527135848999023 0.8413636684417725
-0.30232560634613037 0.08527135848999023 0.8674402236938477
-0.30232560634613037 0.10077524185180664 -0.9233922958374023
-0.30232560634613037 0.10077524185180664 0.33745551109313965
-0.30232560634613037 0.10077524185180664 0.8263970613479614
-0.30232560634613037 0.10077524185180664 0.8670441508293152
-0.30232560634613037 0.11627912521362305 -0.9204378724098206
-0.30232560634613037 0.11627912521362305 0.3455035090446472
-0.30232560634613037 0.11627912521362305 0.8189682960510254
-0.30232560634613037 0.11627912521362305 0.8618316650390625
-0.30232560634613037 0.1317828893661499 -0.9137702584266663
-0.30232560634613037 0.1317828893661499 0.35872799158096313
-0.30232560634613037 0.1317828893661499 0.6278649568557739
-0.30232560634613037 0.1317828893661499 0.6452925801277161
-0.30232560634613037 0.1317828893661499 0.8134119510650635
-0.30232560634613037 0.1317828893661499 0.8510540723800659
-0.30232560634613037 0.1472867727279663 -0.906557559967041
-0.30232560634613037 0.1472867727279663 0.3751221299171448
-0.30232560634613037 0.1472867727279663 0.6152979135513306
-0.30232560634613037 0.1472867727279663 0.756071925163269
-0.30232560634613037 0.1472867727279663 0.7946901321411133
-0.30232560634613037 0.1472867727279663 0.8492052555084229
-0.30232560634613037 0.16279065608978271 -0.8972972631454468
-0.30232560634613037 0.16279065608978271 0.38686564564704895
-0.30232560634613037 0.16279065608978271 0.6189879179000854
-0.30232560634613037 0.16279065608978271 0.8525071740150452
-0.30232560634613037 0.17829455435276031 -0.8890607357025146
-0.30232560634613037 0.17829453945159912 0.39389899373054504
-0.30232560634613037 0.17829453945159912 0.6855999827384949
-0.30232560634613037 0.17829453945159912 0.8620858192443848
-0.30232560634613037 0.19379842281341553 -0.8777803182601929
-0.30232560634613037 0.19379842281341553 0.3955361843109131
-0.30232560634613037 0.19379842281341553 0.8172675967216492
-0.30232560634613037 0.19379842281341553 0.8638631105422974
-0.30232560634613037 0.20930230617523193 -0.8665952682495117
-0.30232560634613037 0.20930230617523193 0.39113086462020874
-0.30232560634613037 0.22480618953704834 -0.8517748713493347
-0.30232560634613037 0.22480618953704834 0.38148340582847595
-0.30232560634613037 0.24031007289886475 -0.8315905332565308
-0.302325576543808 0.24031005799770355 0.3656120300292969
-0.30232560634613037 0.25581395626068115 -0.7979784607887268
-0.30232560634613037 0.25581395626068115 0.34593304991722107
-0.30232560634613037 0.27131783962249756 -0.7408261299133301
-0.30232560634613037 0.27131783962249756 0.33186444640159607
-0.30232560634613037 0.27131783962249756 0.6018412709236145
-0.30232560634613037 0.27131783962249756 0.617617666721344
-0.30232560634613037 0.28682172298431396 -0.6486111283302307
-0.30232560634613037 0.28682172298431396 0.3199121356010437
-0.30232560634613037 0.28682172298431396 0.5966765284538269
-0.30232560634613037 0.28682172298431396 0.6167150735855103
-0.30232560634613037 0.30232560634613037 -0.4825608432292938
-0.30232560634613037 0.30232560634613037 -0.4230369031429291
-0.30232560634613037 0.30232560634613037 -0.37695011496543884
-0.30232560634613037 0.30232560634613037 0.30763527750968933
-0.30232560634613037 0.3178294897079468 -0.11845966428518295
-0.30232560634613037 0.3178294897079468 0.2958052158355713
-0.30232560634613037 0.3333333730697632 0.10251934826374054
-0.30232560634613037 0.3333333730697632 0.2856801748275757
-0.30232560634613037 0.3488372564315796 0.19990891218185425
-0.30232560634613037 0.3488372564315796 0.26353341341018677
-0.28682172298431396 -0.8759689927101135 0.33222758769989014
-0.28682172298431396 -0.8759690523147583 0.44193893671035767
-0.28682172298431396 -0.8604650497436523 0.2922127842903137
-0.28682172298431396 -0.8604650497436523 0.461132287979126
-0.28682172298431396 -0.8449611663818359 0.2672465443611145
-0.28682172298431396 -0.8449612259864807 0.4689153730869293
-0.28682172298431396 -0.8294573426246643 0.2515149712562561
-0.28682172298431396 -0.8294573426246643 0.47430455684661865
-0.28682172298431396 -0.8139535784721375 0.24326513707637787
-0.28682172298431396 -0.8139535188674927 0.474572092294693
-0.28682172298431396 -0.7984496355056763 0.23970240354537964
-0.28682172298431396 -0.7984496355056763 0.47394096851348877
-0.28682175278663635 -0.7829457521438599 0.24134427309036255
-0.28682172298431396 -0.7829457521438599 0.46881285309791565
-0.28682172298431396 -0.7674418687820435 0.2478635013103485
-0.28682172298431396 -0.7674418687820435 0.4619489908218384
-0.28682172298431396 -0.751937985420227 0.2569551169872284
-0.28682172298431396 -0.751937985420227 0.45924222469329834
-0.28682172298431396 -0.7364341020584106 0.27045682072639465
-0.28682172298431396 -0.7364341020584106 0.4590749442577362
-0.28682172298431396 -0.7209302186965942 0.2893972396850586
-0.28682172298431396 -0.7209302186965942 0.46416789293289185
-0.28682172298431396 -0.7054263353347778 0.29916778206825256
-0.28682172298431396 -0.7054263353347778 0.47131219506263733
-0.28682172298431396 -0.6899224519729614 0.29986506700515747
-0.28682172298431396 -0.6899224519729614 0.47373583912849426
-0.28682172298431396 -0.674418568611145 0.2922767400741577
-0.28682172298431396 -0.674418568611145 0.4746442139148712
-0.28682172298431396 -0.6589146852493286 0.2776186466217041
-0.28682172298431396 -0.6589146852493286 0.47645795345306396
-0.28682172298431396 -0.643410861492157 0.27123546600341797
-0.28682172298431396 -0.643410861492157 0.47990602254867554
-0.28682172298431396 -0.6279069781303406 0.2729427218437195
-0.28682172298431396 -0.6279069781303406 0.48337501287460327
-0.28682172298431396 -0.6124030947685242 0.2767931818962097
-0.28682172298431396 -0.6124030947685242 0.48580092191696167
-0.28682172298431396 -0.5968992114067078 0.28283244371414185
-0.28682172298431396 -0.5968992114067078 0.4858989119529724
-0.28682172298431396 -0.5813953876495361 0.29030776023864746
-0.28682172298431396 -0.5813953876495361 0.48501554131507874
-0.28682172298431396 -0.5813953876495361 0.6401615738868713
-0.28682172298431396 -0.5813953876495361 0.6882011294364929
-0.28682172298431396 -0.5658915042877197 0.29643845558166504
-0.28682172298431396 -0.5658915042877197 0.4818526804447174
-0.28682172298431396 -0.5658915042877197 0.6311722993850708
-0.28682172298431396 -0.5658915042877197 0.7397254705429077
-0.28682172298431396 -0.5503876209259033 0.29740673303604126
-0.28682172298431396 -0.5503876209259033 0.47461843490600586
-0.28682172298431396 -0.5503876209259033 0.6369146108627319
-0.28682172298431396 -0.5503876209259033 0.7507456541061401
-0.28682172298431396 -0.5348837375640869 0.29271113872528076
-0.28682172298431396 -0.5348837375640869 0.37424135208129883
-0.28682172298431396 -0.5348837375640869 0.6525077819824219
-0.28682172298431396 -0.5348837375640869 0.6982389092445374
-0.28682172298431396 -0.5193798542022705 0.27430233359336853
-0.28682172298431396 -0.5193798542022705 0.32688796520233154
-0.28682172298431396 -0.5038759708404541 0.255023717880249
-0.28682172298431396 -0.5038759708404541 0.320314884185791
-0.28682172298431396 -0.4883720874786377 0.24011948704719543
-0.28682172298431396 -0.4883720874786377 0.3087923526763916
-0.28682172298431396 -0.4728681743144989 0.22794725000858307
-0.28682172298431396 -0.4728682041168213 0.2927999496459961
-0.28682172298431396 -0.4573643207550049 0.21238744258880615
-0.28682172298431396 -0.4573643207550049 0.2843128740787506
-0.28682172298431396 -0.4418604373931885 0.18837307393550873
-0.28682172298431396 -0.4418604373931885 0.28235360980033875
-0.28682172298431396 -0.42635661363601685 0.156348317861557
-0.28682172298431396 -0.42635661363601685 0.28503310680389404
-0.28682172298431396 -0.41085273027420044 0.12015991657972336
-0.28682172298431396 -0.41085273027420044 0.2877660393714905
-0.28682172298431396 -0.41085273027420044 0.7252199053764343
-0.2868216931819916 -0.41085270047187805 0.7842060923576355
-0.28682172298431396 -0.39534884691238403 0.0721207857131958
-0.28682172298431396 -0.39534884691238403 0.28528955578804016
-0.28682172298431396 -0.39534884691238403 0.7145853042602539
-0.28682172298431396 -0.39534884691238403 0.7966872453689575
-0.28682172298431396 -0.3798449635505676 -0.10666689276695251
-0.28682172298431396 -0.3798449635505676 0.2755013108253479
-0.28682172298431396 -0.3798449635505676 0.7130780220031738
-0.28682172298431396 -0.3798449635505676 0.7998253107070923
-0.28682172298431396 -0.3643410801887512 -0.1698034405708313
-0.28682172298431396 -0.3643410801887512 0.2685418725013733
-0.28682172298431396 -0.3643410801887512 0.7196910977363586
-0.28682172298431396 -0.3643410801887512 0.7995264530181885
-0.28682172298431396 -0.3488371968269348 -0.21158815920352936
-0.28682172298431396 -0.3488371968269348 0.26197725534439087
-0.28682172298431396 -0.3488371968269348 0.7434282898902893
-0.28682172298431396 -0.3488371968269348 0.7869056463241577
-0.28682172298431396 -0.3333333134651184 -0.25860241055488586
-0.28682172298431396 -0.3333333134651184 0.26544710993766785
-0.28682172298431396 -0.317829430103302 -0.3970976173877716
-0.28682172298431396 -0.317829430103302 0.273177832365036
-0.28682172298431396 -0.30232560634613037 -0.48768746852874756
-0.28682172298431396 -0.30232560634613037 0.2839624881744385
-0.28682172298431396 -0.28682172298431396 -0.5460633039474487
-0.28682172298431396 -0.28682172298431396 0.2912867069244385
-0.28682172298431396 -0.27131783962249756 -0.6067560315132141
-0.28682172298431396 -0.27131783962249756 0.3032691776752472
-0.28682172298431396 -0.27131783962249756 0.6132819056510925
-0.28682172298431396 -0.27131783962249756 0.7727539539337158
-0.28682172298431396 -0.25581395626068115 -0.6900355815887451
-0.28682172298431396 -0.25581395626068115 0.30915719270706177
-0.28682172298431396 -0.25581395626068115 0.5906804800033569
-0.28682172298431396 -0.25581395626068115 0.7797438502311707
-0.28682172298431396 -0.24031007289886475 -0.7744694948196411
-0.28682172298431396 -0.24031007289886475 0.3197043836116791
-0.28682172298431396 -0.24031007289886475 0.5724271535873413
-0.28682172298431396 -0.24031007289886475 0.7766586542129517
-0.28682172298431396 -0.22480618953704834 -0.8519335389137268
-0.28682172298431396 -0.22480618953704834 0.32285910844802856
-0.28682172298431396 -0.22480618953704834 0.5602627396583557
-0.28682172298431396 -0.22480618953704834 0.7752280235290527
-0.28682172298431396 -0.20930230617523193 -0.888592004776001
-0.28682172298431396 -0.20930230617523193 0.33010226488113403
-0.28682172298431396 -0.20930230617523193 0.5520767569541931
-0.28682172298431396 -0.20930230617523193 0.7750757932662964
-0.28682172298431396 -0.19379842281341553 -0.9059299826622009
-0.28682172298431396 -0.19379842281341553 0.33502060174942017
-0.28682172298431396 -0.19379842281341553 0.5498971939086914
-0.28682172298431396 -0.19379842281341553 0.7749121189117432
-0.28682172298431396 -0.1782945990562439 -0.912988007068634
-0.28682172298431396 -0.1782945990562439 0.3362562954425812
-0.28682172298431396 -0.1782945841550827 0.5509392619132996
-0.28682172298431396 -0.1782945990562439 0.7694233059883118
-0.28682172298431396 -0.1627907156944275 -0.9154754877090454
-0.28682172298431396 -0.1627907156944275 0.3364048898220062
-0.28682172298431396 -0.1627907156944275 0.5534748435020447
-0.28682172298431396 -0.1627907156944275 0.7409812808036804
-0.28682172298431396 -0.14728683233261108 -0.9156829118728638
-0.28682172298431396 -0.14728683233261108 0.3360700011253357
-0.28682172298431396 -0.14728683233261108 0.5544726848602295
-0.28682172298431396 -0.14728683233261108 0.7159394025802612
-0.28682172298431396 -0.13178294897079468 -0.9181551337242126
-0.28682172298431396 -0.13178294897079468 0.33537566661834717
-0.28682172298431396 -0.13178294897079468 0.5541936159133911
-0.28682172298431396 -0.13178294897079468 0.7056719064712524
-0.28682172298431396 -0.11627906560897827 -0.9254225492477417
-0.2868216931819916 -0.11627906560897827 0.3347170352935791
-0.28682172298431396 -0.11627906560897827 0.5512019991874695
-0.28682172298431396 -0.11627906560897827 0.6942704319953918
-0.28682172298431396 -0.10077518224716187 -0.94075608253479
-0.28682172298431396 -0.10077518224716187 0.33479005098342896
-0.28682172298431396 -0.10077518224716187 0.5473592877388
-0.28682172298431396 -0.10077518224716187 0.6882843971252441
-0.28682172298431396 -0.08527129888534546 -0.9669991135597229
-0.28682172298431396 -0.08527129888534546 0.33604925870895386
-0.28682172298431396 -0.08527129888534546 0.5348535180091858
-0.28682172298431396 -0.08527129888534546 0.6797841787338257
-0.28682172298431396 -0.06976741552352905 -0.9901747703552246
-0.28682172298431396 -0.06976741552352905 0.3379531800746918
-0.28682172298431396 -0.06976741552352905 0.5243828296661377
-0.28682172298431396 -0.06976741552352905 0.6760167479515076
-0.28682172298431396 -0.05426359176635742 -0.9916651844978333
-0.28682172298431396 -0.05426359176635742 0.3400990068912506
-0.28682172298431396 -0.05426359176635742 0.5068828463554382
-0.28682172298431396 -0.05426359176635742 0.6665620803833008
-0.28682172298431396 -0.038759708404541016 -0.9916351437568665
-0.28682172298431396 -0.038759708404541016 0.3407970666885376
-0.28682172298431396 -0.038759708404541016 0.48666173219680786
-0.28682172298431396 -0.038759708404541016 0.6606234312057495
-0.28682172298431396 -0.02325582504272461 -0.9902390837669373
-0.28682172298431396 -0.02325582504272461 0.3375483751296997
-0.28682172298431396 -0.02325582504272461 0.4855654239654541
-0.28682172298431396 -0.02325582504272461 0.6489362716674805
-0.28682172298431396 -0.007751941680908203 -0.9775350093841553
-0.28682172298431396 -0.007751941680908203 0.3332000970840454
-0.28682172298431396 -0.007751941680908203 0.5183139443397522
-0.28682172298431396 -0.007751941680908203 0.6343897581100464
-0.28682172298431396 0.007751941680908203 -0.9701759219169617
-0.28682172298431396 0.007751941680908203 0.3249439597129822
-0.28682172298431396 0.007751941680908203 0.5574025511741638
-0.28682172298431396 0.007751941680908203 0.6072795987129211
-0.28682172298431396 0.02325582504272461 -0.9636378288269043
-0.28682172298431396 0.02325582504272461 0.3254668712615967
-0.28682172298431396 0.038759708404541016 -0.9554423093795776
-0.28682172298431396 0.038759708404541016 0.3292921781539917
-0.28682172298431396 0.05426359176635742 -0.9506267309188843
-0.28682172298431396 0.05426359176635742 0.3347473442554474
-0.28682172298431396 0.06976747512817383 -0.945488691329956
-0.28682172298431396 0.06976747512817383 0.33838972449302673
-0.28682172298431396 0.08527135848999023 -0.942000150680542
-0.28682172298431396 0.08527135848999023 0.3452485501766205
-0.28682172298431396 0.10077524185180664 -0.9395783543586731
-0.28682172298431396 0.10077524185180664 0.35262352228164673
-0.28682172298431396 0.10077524185180664 0.8426007628440857
-0.2868216931819916 0.10077524185180664 0.846474289894104
-0.28682172298431396 0.11627912521362305 -0.9365332126617432
-0.28682172298431396 0.11627912521362305 0.36572206020355225
-0.28682172298431396 0.11627912521362305 0.8258612751960754
-0.28682172298431396 0.11627913266420364 0.8451477885246277
-0.28682172298431396 0.1317828893661499 -0.9305766820907593
-0.28682172298431396 0.1317828893661499 0.38113048672676086
-0.28682172298431396 0.1317828893661499 0.6177852153778076
-0.28682172298431396 0.1317828893661499 0.8384369611740112
-0.28682175278663635 0.1472867727279663 -0.922115683555603
-0.28682172298431396 0.1472867727279663 0.3955368399620056
-0.28682172298431396 0.1472867727279663 0.608425498008728
-0.28682172298431396 0.1472867727279663 0.8462514877319336
-0.28682172298431396 0.16279065608978271 -0.9134916067123413
-0.28682172298431396 0.16279065608978271 0.4065125584602356
-0.28682172298431396 0.16279065608978271 0.6108773946762085
-0.28682172298431396 0.16279065608978271 0.8518816232681274
-0.28682172298431396 0.17829453945159912 -0.9046264886856079
-0.28682172298431396 0.17829455435276031 0.4146279990673065
-0.28682172298431396 0.17829453945159912 0.6221019625663757
-0.28682172298431396 0.17829453945159912 0.8624386787414551
-0.28682172298431396 0.19379842281341553 -0.8934289813041687
-0.28682172298431396 0.19379842281341553 0.4178083539009094
-0.28682172298431396 0.19379842281341553 0.663540244102478
-0.28682172298431396 0.19379842281341553 0.8657208681106567
-0.28682172298431396 0.20930230617523193 -0.8816558122634888
-0.28682172298431396 0.20930230617523193 0.4158586263656616
-0.28682175278663635 0.20930230617523193 0.6903610229492188
-0.28682172298431396 0.20930230617523193 0.7796329259872437
-0.28682172298431396 0.20930230617523193 0.802046000957489
-0.28682172298431396 0.20930230617523193 0.8620445728302002
-0.28682172298431396 0.22480618953704834 -0.8680190443992615
-0.28682172298431396 0.22480618953704834 0.40965989232063293
-0.28682172298431396 0.24031007289886475 -0.8528255224227905
-0.28682172298431396 0.24031007289886475 0.39696186780929565
-0.28682172298431396 0.25581395626068115 -0.8331623673439026
-0.28682172298431396 0.25581395626068115 0.3782479763031006
-0.28682172298431396 0.27131783962249756 -0.7984025478363037
-0.28682172298431396 0.27131783962249756 0.3530510663986206
-0.28682172298431396 0.27131783962249756 0.5958172678947449
-0.28682172298431396 0.27131783962249756 0.615746259689331
-0.28682172298431396 0.28682172298431396 -0.7365124821662903
-0.28682172298431396 0.28682172298431396 0.3343976140022278
-0.28682172298431396 0.28682172298431396 0.5939599275588989
-0.28682172298431396 0.28682172298431396 0.6153672933578491
-0.28682172298431396 0.30232560634613037 -0.631516695022583
-0.28682172298431396 0.30232560634613037 0.3186253607273102
-0.28682172298431396 0.3178294897079468 -0.35107555985450745
-0.28682172298431396 0.3178294897079468 0.30419981479644775
-0.28682172298431396 0.3333333730697632 -0.10677535831928253
-0.28682172298431396 0.3333333730697632 0.2918913960456848
-0.28682172298431396 0.3488372564315796 0.13147442042827606
-0.28682172298431396 0.3488372564315796 0.2775086462497711
-0.27131783962249756 -0.8914728760719299 0.3471915125846863
-0.27131783962249756 -0.8914729356765747 0.4060831367969513
-0.27131783962249756 -0.8759690523147583 0.30438727140426636
-0.27131783962249756 -0.8759690523147583 0.4483557343482971
-0.27131783962249756 -0.8604651093482971 0.2728841304779053
-0.27131783962249756 -0.8604651093482971 0.4603819251060486
-0.27131783962249756 -0.8449612259864807 0.25198522210121155
-0.27131783962249756 -0.8449612259864807 0.4652400612831116
-0.27131783962249756 -0.8294573426246643 0.23771950602531433
-0.27131783962249756 -0.8294573426246643 0.4732545018196106
-0.27131783962249756 -0.8139535188674927 0.22909173369407654
-0.27131783962249756 -0.8139535188674927 0.4742276966571808
-0.27131783962249756 -0.7984496355056763 0.2249930500984192
-0.27131783962249756 -0.7984496355056763 0.47381657361984253
-0.27131783962249756 -0.7829457521438599 0.22620545327663422
-0.27131783962249756 -0.7829457521438599 0.46817636489868164
-0.27131783962249756 -0.7674418687820435 0.23300115764141083
-0.27131783962249756 -0.7674418687820435 0.461444228887558
-0.27131783962249756 -0.7519380450248718 0.24492298066616058
-0.27131783962249756 -0.7519379258155823 0.4584445357322693
-0.27131783962249756 -0.7364341020584106 0.26088547706604004
-0.27131783962249756 -0.7364341020584106 0.4552585482597351
-0.27131783962249756 -0.7209302186965942 0.2814408838748932
-0.27131783962249756 -0.7209302186965942 0.45884618163108826
-0.27131783962249756 -0.7054263353347778 0.29343360662460327
-0.27131783962249756 -0.7054263353347778 0.46271592378616333
-0.27131783962249756 -0.6899224519729614 0.29546546936035156
-0.27131783962249756 -0.6899224519729614 0.4643717110157013
-0.27131783962249756 -0.674418568611145 0.28367170691490173
-0.27131783962249756 -0.674418568611145 0.465709388256073
-0.27131783962249756 -0.6589146852493286 0.26562583446502686
-0.27131783962249756 -0.6589146852493286 0.46962106227874756
-0.27131783962249756 -0.643410861492157 0.257871150970459
-0.27131783962249756 -0.643410861492157 0.4741485118865967
-0.27131783962249756 -0.6279069185256958 0.2586767077445984
-0.27131783962249756 -0.6279069781303406 0.4772335886955261
-0.27131783962249756 -0.6124030947685242 0.26232585310935974
-0.27131783962249756 -0.6124030947685242 0.4795844554901123
-0.27131783962249756 -0.5968992114067078 0.2684473693370819
-0.27131783962249756 -0.5968992114067078 0.4787859320640564
-0.27131783962249756 -0.5813953876495361 0.27702876925468445
-0.27131783962249756 -0.5813953876495361 0.4775567650794983
-0.27131783962249756 -0.5658915042877197 0.28264376521110535
-0.27131783962249756 -0.5658915042877197 0.4769081473350525
-0.27131783962249756 -0.5503876209259033 0.28141874074935913
-0.27131783962249756 -0.5503876209259033 0.4736822247505188
-0.27131783962249756 -0.5348837375640869 0.27327653765678406
-0.27131783962249756 -0.5348837375640869 0.3480896055698395
-0.27131783962249756 -0.5193798542022705 0.25975120067596436
-0.27131783962249756 -0.5193798542022705 0.32708418369293213
-0.27131783962249756 -0.5038759708404541 0.23926788568496704
-0.27131783962249756 -0.5038759708404541 0.3201502561569214
-0.27131783962249756 -0.4883720874786377 0.21758010983467102
-0.27131783962249756 -0.4883720874786377 0.3096887469291687
-0.27131783962249756 -0.4728682041168213 0.1917925775051117
-0.27131783962249756 -0.4728682041168213 0.2972036600112915
-0.27131783962249756 -0.45736435055732727 0.16445940732955933
-0.27131783962249756 -0.4573643207550049 0.29193347692489624
-0.27131783962249756 -0.4418604373931885 0.13359415531158447
-0.27131783962249756 -0.4418604373931885 0.29159635305404663
-0.27131783962249756 -0.42635661363601685 0.098429836332798
-0.27131783962249756 -0.42635661363601685 0.29307806491851807
-0.27131783962249756 -0.41085273027420044 0.05395329371094704
-0.27131783962249756 -0.41085273027420044 0.2937576174736023
-0.27131783962249756 -0.41085273027420044 0.7328324317932129
-0.27131783962249756 -0.41085273027420044 0.7681958675384521
-0.27131783962249756 -0.39534884691238403 -0.09016342461109161
-0.27131783962249756 -0.39534884691238403 0.29065853357315063
-0.27131783962249756 -0.39534884691238403 0.72028648853302
-0.27131783962249756 -0.39534881711006165 0.7845646739006042
-0.27131783962249756 -0.37984493374824524 -0.16006462275981903
-0.27131783962249756 -0.3798449635505676 0.282976359128952
-0.27131783962249756 -0.3798449635505676 0.7222214341163635
-0.27131783962249756 -0.3798449635505676 0.7891087532043457
-0.27131783962249756 -0.3643410801887512 -0.21019616723060608
-0.27131783962249756 -0.3643410801887512 0.2736847698688507
-0.27131783962249756 -0.3643410801887512 0.7335907816886902
-0.27131783962249756 -0.3643410801887512 0.7870899438858032
-0.27131783962249756 -0.3488371968269348 -0.2575848698616028
-0.27131783962249756 -0.3488371968269348 0.26917701959609985
-0.27131786942481995 -0.3333333134651184 -0.41064149141311646
-0.27131780982017517 -0.3333333134651184 0.2713235914707184
-0.27131783962249756 -0.317829430103302 -0.5046390295028687
-0.27131783962249756 -0.317829430103302 0.2743474543094635
-0.27131783962249756 -0.30232560634613037 -0.5566151738166809
-0.27131783962249756 -0.30232560634613037 0.28631195425987244
-0.27131783962249756 -0.28682172298431396 -0.6211026906967163
-0.27131783962249756 -0.28682172298431396 0.29258042573928833
-0.27131783962249756 -0.27131783962249756 -0.6976242661476135
-0.27131783962249756 -0.27131783962249756 0.3037537634372711
-0.27131783962249756 -0.27131783962249756 0.6196141242980957
-0.27131783962249756 -0.27131783962249756 0.7622693777084351
-0.27131783962249756 -0.25581395626068115 -0.7760754823684692
-0.27131783962249756 -0.25581395626068115 0.3129752278327942
-0.27131783962249756 -0.25581395626068115 0.594781219959259
-0.27131783962249756 -0.25581395626068115 0.7737303376197815
-0.27131783962249756 -0.24031007289886475 -0.8510673642158508
-0.27131783962249756 -0.24031007289886475 0.32094743847846985
-0.27131783962249756 -0.24031007289886475 0.5774251818656921
-0.27131783962249756 -0.24031007289886475 0.7713317275047302
-0.27131783962249756 -0.22480618953704834 -0.8872064352035522
-0.27131783962249756 -0.22480618953704834 0.3270554542541504
-0.27131783962249756 -0.22480618953704834 0.5645048022270203
-0.27131783962249756 -0.22480618953704834 0.7696606516838074
-0.27131783962249756 -0.20930230617523193 -0.9071179032325745
-0.27131783962249756 -0.20930230617523193 0.33457857370376587
-0.27131783962249756 -0.20930230617523193 0.5576943159103394
-0.27131783962249756 -0.20930229127407074 0.7687577605247498
-0.27131783962249756 -0.19379842281341553 -0.9183314442634583
-0.27131783962249756 -0.19379842281341553 0.3375309705734253
-0.27131783962249756 -0.19379842281341553 0.555525541305542
-0.27131783962249756 -0.19379842281341553 0.7675726413726807
-0.27131783962249756 -0.1782945990562439 -0.9240282773971558
-0.27131783962249756 -0.1782945990562439 0.3393835425376892
-0.27131783962249756 -0.1782945990562439 0.5571615695953369
-0.27131783962249756 -0.1782945990562439 0.7589681148529053
-0.27131783962249756 -0.1627907156944275 -0.9254980087280273
-0.27131783962249756 -0.1627907156944275 0.33948642015457153
-0.27131783962249756 -0.1627907156944275 0.5595716238021851
-0.27131783962249756 -0.1627907156944275 0.7392170429229736
-0.27131783962249756 -0.14728683233261108 -0.9256258010864258
-0.27131783962249756 -0.14728683233261108 0.338422030210495
-0.27131783962249756 -0.14728683233261108 0.5615626573562622
-0.27131783962249756 -0.14728683233261108 0.7225590348243713
-0.27131783962249756 -0.13178294897079468 -0.9274812340736389
-0.27131783962249756 -0.13178294897079468 0.3370756208896637
-0.27131783962249756 -0.13178294897079468 0.5627477169036865
-0.27131783962249756 -0.13178294897079468 0.7108815908432007
-0.27131783962249756 -0.11627906560897827 -0.936741828918457
-0.27131783962249756 -0.11627906560897827 0.3359605371952057
-0.27131783962249756 -0.11627906560897827 0.5619953870773315
-0.27131783962249756 -0.11627906560897827 0.701086163520813
-0.27131783962249756 -0.10077518224716187 -0.9530476331710815
-0.27131783962249756 -0.10077518224716187 0.33575746417045593
-0.27131783962249756 -0.10077518224716187 0.5564616918563843
-0.27131783962249756 -0.10077518224716187 0.6925360560417175
-0.27131783962249756 -0.08527129888534546 -0.9767968654632568
-0.27131783962249756 -0.08527129888534546 0.33668211102485657
-0.27131783962249756 -0.08527129888534546 0.5478215217590332
-0.27131783962249756 -0.08527129888534546 0.6842237710952759
-0.27131783962249756 -0.06976741552352905 -0.9917905330657959
-0.27131783962249756 -0.06976741552352905 0.33884376287460327
-0.27131783962249756 -0.06976741552352905 0.5365134477615356
-0.27131783962249756 -0.06976741552352905 0.6776531934738159
-0.27131783962249756 -0.05426359176635742 -0.9918670654296875
-0.27131783962249756 -0.05426359176635742 0.34184688329696655
-0.27131783962249756 -0.05426359176635742 0.5300242304801941
-0.27131783962249756 -0.05426359176635742 0.6686228513717651
-0.27131783962249756 -0.038759708404541016 -0.9918782114982605
-0.27131783962249756 -0.038759708404541016 0.34210699796676636
-0.27131783962249756 -0.038759708404541016 0.5204458236694336
-0.27131783962249756 -0.038759708404541016 0.6609371304512024
-0.27131783962249756 -0.02325582504272461 -0.9917198419570923
-0.27131783962249756 -0.02325582504272461 0.33946847915649414
-0.27131783962249756 -0.02325582504272461 0.5268071293830872
-0.27131783962249756 -0.02325582504272461 0.6489300727844238
-0.27131783962249756 -0.007751941680908203 -0.9911181330680847
-0.27131783962249756 -0.007751941680908203 0.3364277184009552
-0.27131783962249756 -0.007751941680908203 0.5487036108970642
-0.27131783962249756 -0.007751941215246916 0.6348768472671509
-0.27131783962249756 0.007751941680908203 -0.9898634552955627
-0.27131783962249756 0.007751941680908203 0.33582502603530884
-0.27131783962249756 0.02325582504272461 -0.9765089750289917
-0.27131783962249756 0.02325582504272461 0.33747419714927673
-0.27131783962249756 0.038759708404541016 -0.9699309468269348
-0.27131783962249756 0.038759708404541016 0.34215110540390015
-0.27131783962249756 0.05426359176635742 -0.9649088978767395
-0.27131783962249756 0.05426359176635742 0.3506159484386444
-0.27131783962249756 0.06976747512817383 -0.9597458243370056
-0.27131783962249756 0.06976747512817383 0.3576938211917877
-0.27131783962249756 0.08527135848999023 -0.9569880962371826
-0.27131783962249756 0.08527135848999023 0.3658680021762848
-0.27131783962249756 0.10077524185180664 -0.9553546905517578
-0.27131783962249756 0.10077524185180664 0.374972939491272
-0.27131786942481995 0.11627912521362305 -0.952487587928772
-0.27131783962249756 0.11627912521362305 0.38690185546875
-0.27131783962249756 0.11627912521362305 0.6495612859725952
-0.27131783962249756 0.11627912521362305 0.7517816424369812
-0.27131783962249756 0.11627912521362305 0.7928186655044556
-0.27131783962249756 0.11627912521362305 0.8411873579025269
-0.27131783962249756 0.1317828893661499 -0.9475716352462769
-0.27131783962249756 0.1317828893661499 0.40052294731140137
-0.27131783962249756 0.1317828893661499 0.6063765287399292
-0.27131783962249756 0.1317828893661499 0.842377781867981
-0.27131783962249756 0.1472867727279663 -0.9380698800086975
-0.27131783962249756 0.1472867727279663 0.41288790106773376
-0.27131783962249756 0.1472867727279663 0.5961266160011292
-0.27131783962249756 0.1472867727279663 0.8475794792175293
-0.27131783962249756 0.16279065608978271 -0.9294813871383667
-0.27131783962249756 0.16279065608978271 0.42383497953414917
-0.27131783962249756 0.16279064118862152 0.5984084606170654
-0.27131783962249756 0.16279065608978271 0.8533048033714294
-0.27131783962249756 0.17829453945159912 -0.9194409251213074
-0.27131783962249756 0.17829453945159912 0.43196552991867065
-0.27131783962249756 0.17829453945159912 0.604482889175415
-0.27131783962249756 0.17829453945159912 0.8629971742630005
-0.27131783962249756 0.19379842281341553 -0.9070637822151184
-0.27131783962249756 0.19379842281341553 0.43561261892318726
-0.27131783962249756 0.19379842281341553 0.6158351302146912
-0.27131783962249756 0.19379842281341553 0.8670506477355957
-0.27131783962249756 0.20930230617523193 -0.8941643238067627
-0.27131783962249756 0.20930230617523193 0.4349222183227539
-0.27131783962249756 0.20930230617523193 0.6498192548751831
-0.27131783962249756 0.20930230617523193 0.8663254976272583
-0.27131783962249756 0.22480618953704834 -0.8805535435676575
-0.27131783962249756 0.22480617463588715 0.4301314949989319
-0.27131783962249756 0.22480618953704834 0.671500027179718
-0.27131783962249756 0.22480618953704834 0.8478033542633057
-0.27131783962249756 0.24031007289886475 -0.8674589395523071
-0.27131783962249756 0.24031007289886475 0.41992199420928955
-0.27131783962249756 0.24031007289886475 0.7009140849113464
-0.27131783962249756 0.24031007289886475 0.7113145589828491
-0.27131783962249756 0.25581395626068115 -0.8537088632583618
-0.27131783962249756 0.25581395626068115 0.4044508934020996
-0.27131783962249756 0.27131783962249756 -0.8358587026596069
-0.27131783962249756 0.27131783962249756 0.38458871841430664
-0.27131783962249756 0.27131783962249756 0.5951593518257141
-0.27131783962249756 0.27131783962249756 0.6141753196716309
-0.27131783962249756 0.28682172298431396 -0.8010480999946594
-0.27131783962249756 0.28682172298431396 0.36119556427001953
-0.27131783962249756 0.28682172298431396 0.592924952507019
-0.27131783962249756 0.2868216931819916 0.6141795516014099
-0.27131783962249756 0.30232560634613037 -0.7316179871559143
-0.27131783962249756 0.30232560634613037 0.3384070098400116
-0.27131783962249756 0.3178294897079468 -0.6254642009735107
-0.27131783962249756 0.3178294897079468 0.3214777112007141
-0.27131783962249756 0.3333333730697632 -0.32864993810653687
-0.27131783962249756 0.3333333730697632 0.30873024463653564
-0.27131783962249756 0.3488372564315796 -0.07467249035835266
-0.27131783962249756 0.3488372564315796 0.2947893440723419
-0.27131783962249756 0.364341139793396 0.163131982088089
-0.27131783962249756 0.364341139793396 0.27056747674942017
-0.27131783962249756 0.612403154373169 0.6735491752624512
-0.27131783962249756 0.6124030947685242 0.6770707368850708
-0.27131783962249756 0.6279069185256958 0.672788679599762
-0.27131783962249756 0.6279069185256958 0.67890864610672
-0.27131783962249756 0.6434108018875122 0.672896683216095
-0.27131783962249756 0.6434108018875122 0.6788411736488342
-0.27131783962249756 0.6589146852493286 0.6733322143554688
-0.27131783962249756 0.6589146852493286 0.6781025528907776
-0.27131783962249756 0.674418568611145 0.6740056872367859
-0.27131783962249756 0.674418568611145 0.6762709617614746
-0.25581395626068115 -0.8914728760719299 0.31458020210266113
-0.25581395626068115 -0.8914728760719299 0.43350714445114136
-0.25581395626068115 -0.8759689331054688 0.2817996144294739
-0.25581395626068115 -0.8759690523147583 0.4492226541042328
-0.25581395626068115 -0.8604651689529419 0.2583305239677429
-0.25581395626068115 -0.8604651093482971 0.4586094915866852
-0.25581395626068115 -0.8449612259864807 0.2399483472108841
-0.25581395626068115 -0.8449612259864807 0.46167293190956116
-0.25581395626068115 -0.8294572830200195 0.22707608342170715
-0.25581395626068115 -0.8294573426246643 0.4657411575317383
-0.25581395626068115 -0.8139535188674927 0.21750280261039734
-0.25581395626068115 -0.8139535188674927 0.47012442350387573
-0.25581395626068115 -0.7984496355056763 0.21306735277175903
-0.25581395626068115 -0.7984496355056763 0.4691441059112549
-0.25581395626068115 -0.7829457521438599 0.21349048614501953
-0.25581395626068115 -0.7829457521438599 0.462976336479187
-0.25581395626068115 -0.7674418687820435 0.21999011933803558
-0.25581395626068115 -0.7674418687820435 0.45907190442085266
-0.25581395626068115 -0.751937985420227 0.2339790165424347
-0.25581395626068115 -0.751937985420227 0.4522799253463745
-0.25581395626068115 -0.7364341020584106 0.2548624277114868
-0.25581395626068115 -0.7364341020584106 0.4470852017402649
-0.25581395626068115 -0.7209302186965942 0.28265225887298584
-0.25581395626068115 -0.7209302186965942 0.44716697931289673
-0.25581395626068115 -0.7054263353347778 0.2941661775112152
-0.25581395626068115 -0.7054263353347778 0.45023587346076965
-0.25581395626068115 -0.6899224519729614 0.29351308941841125
-0.25581395626068115 -0.6899224519729614 0.4538205862045288
-0.25581395626068115 -0.674418568611145 0.279463529586792
-0.25581395626068115 -0.674418568611145 0.45762354135513306
-0.25581395626068115 -0.6589146852493286 0.2547028660774231
-0.25581395626068115 -0.6589146852493286 0.46013370156288147
-0.25581395626068115 -0.643410861492157 0.2458096444606781
-0.25581395626068115 -0.643410861492157 0.46550416946411133
-0.25581395626068115 -0.6279069781303406 0.24616128206253052
-0.25581395626068115 -0.6279069781303406 0.472820520401001
-0.25581395626068115 -0.6124030947685242 0.24977338314056396
-0.25581395626068115 -0.6124030947685242 0.4744424819946289
-0.25581395626068115 -0.5968992114067078 0.2565596401691437
-0.25581395626068115 -0.5968992114067078 0.47319331765174866
-0.25581395626068115 -0.5813953876495361 0.26497942209243774
-0.25581395626068115 -0.5813953876495361 0.46924304962158203
-0.25581395626068115 -0.5658915638923645 0.2721465826034546
-0.25581395626068115 -0.5658915042877197 0.46511518955230713
-0.25581395626068115 -0.5503876209259033 0.2712962329387665
-0.25581395626068115 -0.5503876209259033 0.4474560618400574
-0.25581395626068115 -0.5348837375640869 0.2652919292449951
-0.25581395626068115 -0.5348837375640869 0.3429509997367859
-0.25581395626068115 -0.5193798542022705 0.2510623037815094
-0.25581395626068115 -0.5193798542022705 0.3232574164867401
-0.25581395626068115 -0.5038759708404541 0.22738680243492126
-0.25581395626068115 -0.5038759708404541 0.31580477952957153
-0.25581395626068115 -0.4883720874786377 0.1893007755279541
-0.25581395626068115 -0.4883720874786377 0.3069460093975067
-0.25581395626068115 -0.4728682041168213 0.15437452495098114
-0.25581395626068115 -0.4728682041168213 0.296155720949173
-0.25581395626068115 -0.4573643207550049 0.12471562623977661
-0.25581395626068115 -0.4573643207550049 0.2933790683746338
-0.25581395626068115 -0.4418604373931885 0.09381899237632751
-0.25581395626068115 -0.4418604373931885 0.2944414019584656
-0.25581392645835876 -0.42635661363601685 0.05437653884291649
-0.25581395626068115 -0.42635661363601685 0.2969096302986145
-0.25581395626068115 -0.41085273027420044 -0.05505220964550972
-0.25581395626068115 -0.41085273027420044 0.29695451259613037
-0.25581395626068115 -0.39534884691238403 -0.1344243288040161
-0.25581395626068115 -0.39534884691238403 0.2923959493637085
-0.25581395626068115 -0.3798449635505676 -0.19280047714710236
-0.25581395626068115 -0.37984499335289 0.2870425283908844
-0.25581395626068115 -0.3643410801887512 -0.24593788385391235
-0.25581395626068115 -0.3643410801887512 0.2750262916088104
-0.25581395626068115 -0.3488371968269348 -0.29826784133911133
-0.25581395626068115 -0.3488372266292572 0.27148348093032837
-0.25581395626068115 -0.3333333134651184 -0.503317654132843
-0.25581395626068115 -0.333333283662796 0.2718963027000427
-0.25581395626068115 -0.317829430103302 -0.5571486949920654
-0.25581395626068115 -0.317829430103302 0.27520620822906494
-0.25581395626068115 -0.30232560634613037 -0.6241490244865417
-0.25581395626068115 -0.30232560634613037 0.28697624802589417
-0.25581395626068115 -0.28682172298431396 -0.7012885808944702
-0.25581395626068115 -0.28682172298431396 0.2935784161090851
-0.25581395626068115 -0.27131783962249756 -0.7797126173973083
-0.25581395626068115 -0.27131783962249756 0.3042447566986084
-0.25581395626068115 -0.27131783962249756 0.6329284906387329
-0.25581395626068115 -0.27131783962249756 0.7180808782577515
-0.25581395626068115 -0.25581395626068115 -0.8484934568405151
-0.25581395626068115 -0.25581395626068115 0.31731218099594116
-0.25581395626068115 -0.25581395626068115 0.6026062965393066
-0.25581395626068115 -0.25581395626068115 0.7599548101425171
-0.25581395626068115 -0.24031007289886475 -0.8840797543525696
-0.25581395626068115 -0.24031007289886475 0.3229263424873352
-0.25581395626068115 -0.24031007289886475 0.5853949785232544
-0.25581395626068115 -0.24031007289886475 0.761163592338562
-0.25581395626068115 -0.22480618953704834 -0.9049628376960754
-0.25581395626068115 -0.22480618953704834 0.33376792073249817
-0.25581395626068115 -0.22480618953704834 0.5727992057800293
-0.25581395626068115 -0.22480618953704834 0.7583021521568298
-0.25581395626068115 -0.20930230617523193 -0.9189616441726685
-0.25581395626068115 -0.20930230617523193 0.33665376901626587
-0.25581395626068115 -0.20930230617523193 0.5647240877151489
-0.25581395626068115 -0.20930230617523193 0.7556228637695312
-0.25581395626068115 -0.19379842281341553 -0.9280508160591125
-0.25581395626068115 -0.19379842281341553 0.3405749797821045
-0.25581395626068115 -0.19379842281341553 0.5629711747169495
-0.25581395626068115 -0.19379843771457672 0.7537559866905212
-0.25581395626068115 -0.1782945990562439 -0.9329495429992676
-0.25581395626068115 -0.1782945990562439 0.3439593017101288
-0.25581395626068115 -0.1782945990562439 0.5641610622406006
-0.25581395626068115 -0.1782945990562439 0.7469895482063293
-0.25581395626068115 -0.1627907156944275 -0.9343730211257935
-0.25581395626068115 -0.1627907156944275 0.3441113233566284
-0.25581395626068115 -0.1627907156944275 0.5660156607627869
-0.25581395626068115 -0.1627907156944275 0.7366719245910645
-0.25581395626068115 -0.14728683233261108 -0.9348868131637573
-0.25581395626068115 -0.14728683233261108 0.34156808257102966
-0.25581395626068115 -0.14728683233261108 0.5694757103919983
-0.25581395626068115 -0.14728683233261108 0.7259631752967834
-0.25581395626068115 -0.13178294897079468 -0.9386062026023865
-0.25581395626068115 -0.13178294897079468 0.3388825058937073
-0.25581395626068115 -0.13178294897079468 0.5716696381568909
-0.25581395626068115 -0.13178294897079468 0.7188766002655029
-0.25581395626068115 -0.11627906560897827 -0.9449291229248047
-0.25581395626068115 -0.11627906560897827 0.33717894554138184
-0.25581395626068115 -0.11627907305955887 0.5717576742172241
-0.25581395626068115 -0.11627906560897827 0.7078178524971008
-0.25581395626068115 -0.10077518224716187 -0.9622313976287842
-0.25581395626068115 -0.10077518224716187 0.3367341160774231
-0.25581395626068115 -0.10077518969774246 0.5673257112503052
-0.25581395626068115 -0.10077518224716187 0.6969252824783325
-0.25581395626068115 -0.08527129888534546 -0.9908004999160767
-0.25581395626068115 -0.08527129888534546 0.33758294582366943
-0.25581395626068115 -0.08527129888534546 0.5595890283584595
-0.25581395626068115 -0.08527129888534546 0.690753698348999
-0.25581395626068115 -0.06976741552352905 -0.9918674230575562
-0.25581395626068115 -0.06976741552352905 0.341549277305603
-0.25581395626068115 -0.06976741552352905 0.5499973893165588
-0.25581395626068115 -0.06976741552352905 0.6795529127120972
-0.25581395626068115 -0.05426359176635742 -0.9917865991592407
-0.25581395626068115 -0.05426359176635742 0.34905993938446045
-0.25581395626068115 -0.05426359176635742 0.5473865270614624
-0.25581395626068115 -0.05426359176635742 0.6697683334350586
-0.25581395626068115 -0.038759708404541016 -0.9918193817138672
-0.25581395626068115 -0.038759708404541016 0.3498329222202301
-0.25581395626068115 -0.038759708404541016 0.5461909770965576
-0.25581395626068115 -0.038759708404541016 0.6604668498039246
-0.25581395626068115 -0.02325582504272461 -0.9918252229690552
-0.25581395626068115 -0.02325582504272461 0.3496750593185425
-0.25581395626068115 -0.02325582504272461 0.5520643591880798
-0.25581395626068115 -0.02325582504272461 0.6487295627593994
-0.25581395626068115 -0.007751941680908203 -0.9917136430740356
-0.25581395626068115 -0.00775194214656949 0.34922707080841064
-0.25581395626068115 -0.007751941680908203 0.5843771696090698
-0.25581395626068115 -0.007751941680908203 0.6403471231460571
