0.24031005799770355 0.6434108018875122 0.8189206123352051
0.24031007289886475 0.6434108018875122 0.9109877347946167
0.24031007289886475 0.6589146852493286 0.8278833627700806
0.24031007289886475 0.6589146852493286 0.9050788879394531
0.24031007289886475 0.674418568611145 0.838351845741272
0.24031007289886475 0.674418568611145 0.8961977958679199
0.24031007289886475 0.6899224519729614 0.8394264578819275
0.24031007289886475 0.6899224519729614 0.8935267329216003
0.24031007289886475 0.7054263353347778 0.8355894088745117
0.24031007289886475 0.7054263353347778 0.8922243118286133
0.24031007289886475 0.7209302186965942 0.8312453627586365
0.24031007289886475 0.7209302186965942 0.8821858167648315
0.24031007289886475 0.7364341020584106 0.8335213661193848
0.24031007289886475 0.7364341020584106 0.8566808700561523
0.25581395626068115 -0.7054263353347778 0.7963012456893921
0.25581395626068115 -0.7054263353347778 0.8024601340293884
0.25581395626068115 -0.6899224519729614 0.7941201329231262
0.25581395626068115 -0.6899224519729614 0.8117645978927612
0.25581395626068115 -0.674418568611145 0.7968419790267944
0.25581395626068115 -0.674418568611145 0.8183202743530273
0.25581395626068115 -0.6589146852493286 0.7970143556594849
0.25581395626068115 -0.6589146852493286 0.8478875160217285
0.25581395626068115 -0.643410861492157 0.7935409545898438
0.25581395626068115 -0.6434109210968018 0.864783525466919
0.25581395626068115 -0.6279069781303406 0.7879468202590942
0.25581395626068115 -0.6279069781303406 0.8779848217964172
0.25581395626068115 -0.6124030947685242 0.7833353877067566
0.25581395626068115 -0.6124030947685242 0.8892548680305481
0.25581395626068115 -0.5968992114067078 0.7827409505844116
0.25581395626068115 -0.5968992114067078 0.8983554840087891
0.25581395626068115 -0.5813953876495361 0.7864032983779907
0.25581395626068115 -0.5813953876495361 0.905465304851532
0.25581395626068115 -0.5658915042877197 0.7925816774368286
0.25581395626068115 -0.5658915638923645 0.9080044627189636
0.25581395626068115 -0.5503876209259033 0.3170159161090851
0.25581395626068115 -0.5503876209259033 0.34903812408447266
0.25581395626068115 -0.5503876209259033 0.7973660826683044
0.25581395626068115 -0.5503876209259033 0.9085384607315063
0.25581395626068115 -0.5348837375640869 0.3120991289615631
0.25581395626068115 -0.5348837375640869 0.3401320278644562
0.25581395626068115 -0.5348837375640869 0.8013741374015808
0.25581395626068115 -0.5348837375640869 0.9082449674606323
0.25581395626068115 -0.5193798542022705 0.8003838062286377
0.25581395626068115 -0.5193798542022705 0.9089114665985107
0.25581395626068115 -0.5038759708404541 0.7916405200958252
0.25581395626068115 -0.5038759708404541 0.910697340965271
0.25581395626068115 -0.4883720874786377 0.7524570822715759
0.25581395626068115 -0.4883720874786377 0.9152572154998779
0.25581395626068115 -0.4728682041168213 0.7284055948257446
0.25581395626068115 -0.4728682041168213 0.9226365685462952
0.25581395626068115 -0.4573643207550049 0.7164195775985718
0.25581395626068115 -0.4573643207550049 0.9245685338973999
0.25581395626068115 -0.4418604373931885 0.7122045755386353
0.25581395626068115 -0.4418604373931885 0.92554771900177
0.25581395626068115 -0.42635661363601685 0.7131116390228271
0.25581395626068115 -0.42635661363601685 0.9255638122558594
0.25581395626068115 -0.41085273027420044 0.7182899713516235
0.25581395626068115 -0.41085273027420044 0.9251458048820496
0.25581395626068115 -0.39534884691238403 0.15689055621623993
0.25581395626068115 -0.39534884691238403 0.19021916389465332
0.25581395626068115 -0.39534884691238403 0.7320486903190613
0.25581395626068115 -0.39534884691238403 0.9253214597702026
0.25581395626068115 -0.3798449635505676 -0.6177905797958374
0.25581395626068115 -0.3798449635505676 -0.5533220171928406
0.25581395626068115 -0.3798449635505676 -0.08821456879377365
0.25581395626068115 -0.3798449635505676 -0.04317615553736687
0.25581395626068115 -0.3798449635505676 0.12485112994909286
0.25581395626068115 -0.3798449635505676 0.19900962710380554
0.25581395626068115 -0.3798449635505676 0.7504890561103821
0.25581395626068115 -0.37984499335289 0.9271482229232788
0.25581395626068115 -0.3643410801887512 -0.7675971388816833
0.25581395626068115 -0.3643410801887512 -0.3544885814189911
0.25581395626068115 -0.3643410801887512 -0.10740050673484802
0.25581395626068115 -0.3643410801887512 -0.05172295495867729
0.25581395626068115 -0.3643410801887512 0.11179861426353455
0.25581395626068115 -0.3643410801887512 0.2033458650112152
0.25581395626068115 -0.3643410801887512 0.759002685546875
0.25581395626068115 -0.3643410801887512 0.9314907789230347
0.25581395626068115 -0.3488371968269348 -0.8786370754241943
0.25581395626068115 -0.3488371968269348 -0.15654590725898743
0.25581395626068115 -0.3488371968269348 -0.12793652713298798
0.25581395626068115 -0.3488371968269348 -0.06471553444862366
0.25581395626068115 -0.3488371968269348 0.11045921593904495
0.25581395626068115 -0.3488371968269348 0.20480689406394958
0.25581395626068115 -0.3488371968269348 0.7557536363601685
0.25581395626068115 -0.3488371968269348 0.9382924437522888
0.25581395626068115 -0.3333333134651184 -0.9222699403762817
0.25581395626068115 -0.3333333134651184 -0.07840938866138458
0.25581395626068115 -0.3333333134651184 0.11251454055309296
0.25581395626068115 -0.3333333134651184 0.20444737374782562
0.25581395626068115 -0.3333333134651184 0.7492746114730835
0.25581395626068115 -0.3333333134651184 0.9403482675552368
0.25581395626068115 -0.317829430103302 -0.9369160532951355
0.25581395626068115 -0.317829430103302 -0.07928218692541122
0.25581395626068115 -0.317829430103302 0.11451343446969986
0.25581395626068115 -0.317829430103302 0.20354825258255005
0.25581395626068115 -0.317829430103302 0.7421408891677856
0.25581395626068115 -0.317829430103302 0.942641019821167
0.25581395626068115 -0.30232560634613037 -0.9450334310531616
0.25581395626068115 -0.30232560634613037 -0.05381593480706215
0.25581395626068115 -0.30232560634613037 0.11555398255586624
0.25581395626068115 -0.30232560634613037 0.2023431956768036
0.25581395626068115 -0.30232560634613037 0.73460853099823
0.25581395626068115 -0.30232560634613037 0.9462382793426514
0.25581395626068115 -0.28682172298431396 -0.9526571035385132
0.25581395626068115 -0.28682172298431396 -0.021928003057837486
0.25581395626068115 -0.28682172298431396 0.1153917908668518
0.25581395626068115 -0.28682172298431396 0.20334988832473755
0.25581395626068115 -0.28682172298431396 0.7297443747520447
0.25581395626068115 -0.28682172298431396 0.9509404897689819
0.25581395626068115 -0.27131783962249756 -0.9571857452392578
0.25581395626068115 -0.27131783962249756 -0.006255566608160734
0.25581395626068115 -0.27131783962249756 0.11938729882240295
0.25581395626068115 -0.27131783962249756 0.2027662992477417
0.25581395626068115 -0.27131783962249756 0.27918076515197754
0.25581395626068115 -0.27131783962249756 0.3396010994911194
0.25581395626068115 -0.27131783962249756 0.7219574451446533
0.25581395626068115 -0.27131783962249756 0.9545319080352783
0.25581395626068115 -0.25581395626068115 -0.9636492133140564
0.25581395626068115 -0.25581395626068115 0.0034723870921880007
0.25581395626068115 -0.25581395626068115 0.127187579870224
0.25581395626068115 -0.25581395626068115 0.20139366388320923
0.25581395626068115 -0.25581395626068115 0.24153991043567657
0.25581395626068115 -0.25581395626068115 0.3653539717197418
0.25581395626068115 -0.25581395626068115 0.7188445925712585
0.25581395626068115 -0.25581395626068115 0.9563523530960083
0.25581395626068115 -0.24031007289886475 -0.9690752029418945
0.25581395626068115 -0.24031007289886475 0.010484512895345688
0.25581395626068115 -0.24031007289886475 0.13401363790035248
0.25581395626068115 -0.24031007289886475 0.20531049370765686
0.25581395626068115 -0.24031007289886475 0.21188262104988098
0.25581398606300354 -0.24031008780002594 0.3801051378250122
0.25581395626068115 -0.24031007289886475 0.7170144319534302
0.25581395626068115 -0.24031008780002594 0.9578876495361328
0.25581395626068115 -0.22480618953704834 -0.971158504486084
0.25581395626068115 -0.22480620443820953 0.013369896449148655
0.25581395626068115 -0.22480618953704834 0.1391482651233673
0.25581395626068115 -0.22480618953704834 0.38522642850875854
0.25581395626068115 -0.22480618953704834 0.7173157930374146
0.25581395626068115 -0.22480618953704834 0.9582617282867432
0.25581395626068115 -0.20930230617523193 -0.9754334688186646
0.25581395626068115 -0.20930230617523193 0.016311125829815865
0.25581395626068115 -0.20930230617523193 0.14312049746513367
0.25581395626068115 -0.20930229127407074 0.3836938738822937
0.25581395626068115 -0.20930230617523193 0.7198516130447388
0.25581395626068115 -0.20930230617523193 0.957042932510376
0.25581395626068115 -0.19379842281341553 -0.9842614531517029
0.25581395626068115 -0.19379842281341553 0.01881854049861431
0.25581395626068115 -0.19379842281341553 0.16533206403255463
0.25581395626068115 -0.19379842281341553 0.3762545585632324
0.25581395626068115 -0.19379842281341553 0.7287279963493347
0.25581395626068115 -0.19379840791225433 0.9543148279190063
0.25581395626068115 -0.1782945990562439 -0.9863030910491943
0.25581395626068115 -0.1782945990562439 0.01943524181842804
0.25581395626068115 -0.1782945990562439 0.20625531673431396
0.25581395626068115 -0.1782945990562439 0.3647177517414093
0.25581395626068115 -0.1782945990562439 0.7387772798538208
0.25581395626068115 -0.1782945990562439 0.9410583972930908
0.25581395626068115 -0.1627907156944275 -0.9878493547439575
0.25581395626068115 -0.1627907156944275 0.018758554011583328
0.25581395626068115 -0.1627907156944275 0.22982114553451538
0.25581395626068115 -0.1627907156944275 0.34913718700408936
0.25581395626068115 -0.1627907156944275 0.751222550868988
0.25581395626068115 -0.16279073059558868 0.9251730442047119
0.25581395626068115 -0.14728683233261108 -0.9890701174736023
0.25581395626068115 -0.14728683233261108 0.017759153619408607
0.25581395626068115 -0.14728683233261108 0.2535160779953003
0.25581395626068115 -0.14728683233261108 0.32714831829071045
0.25581395626068115 -0.14728683233261108 0.765474259853363
0.25581395626068115 -0.14728683233261108 0.9085087776184082
0.25581395626068115 -0.13178294897079468 -0.9898802638053894
0.25581395626068115 -0.13178294897079468 0.016329040750861168
0.25581395626068115 -0.13178294897079468 0.7794317007064819
0.25581395626068115 -0.13178294897079468 0.8920919299125671
0.25581395626068115 -0.11627906560897827 -0.9902732968330383
0.25581395626068115 -0.11627906560897827 0.015309831127524376
0.25581395626068115 -0.11627906560897827 0.7916842103004456
0.25581395626068115 -0.11627906560897827 0.8761990070343018
0.25581395626068115 -0.10077518224716187 -0.9904680848121643
0.25581395626068115 -0.10077518224716187 0.015473447740077972
0.25581395626068115 -0.10077518224716187 0.7954893708229065
0.25581395626068115 -0.10077518224716187 0.8651045560836792
0.25581395626068115 -0.08527129888534546 -0.9905257225036621
0.25581395626068115 -0.08527129888534546 0.019085148349404335
0.25581395626068115 -0.08527129888534546 0.06225120276212692
0.25581395626068115 -0.08527129888534546 0.1151658147573471
0.25581395626068115 -0.08527129888534546 0.2664271593093872
0.25581395626068115 -0.08527129888534546 0.3212582767009735
0.25581395626068115 -0.08527129888534546 0.7863301038742065
0.25581395626068115 -0.08527129888534546 0.8667258024215698
0.25581395626068115 -0.06976741552352905 -0.9905552864074707
0.25581395626068115 -0.06976741552352905 0.16578339040279388
0.25581395626068115 -0.06976741552352905 0.23182080686092377
0.25581395626068115 -0.06976741552352905 0.35029417276382446
0.25581395626068115 -0.06976741552352905 0.47446155548095703
0.25581395626068115 -0.06976741552352905 0.603065550327301
0.25581395626068115 -0.06976741552352905 0.7720916271209717
0.25581395626068115 -0.06976741552352905 0.8762652277946472
0.25581395626068115 -0.05426359176635742 -0.9906043410301208
0.25581395626068115 -0.05426359176635742 0.6479783654212952
0.25581395626068115 -0.05426359176635742 0.7605457305908203
0.25581395626068115 -0.05426359176635742 0.8891814947128296
0.25581395626068115 -0.038759708404541016 -0.9906949996948242
0.25581395626068115 -0.038759708404541016 0.6721441149711609
0.25581395626068115 -0.038759708404541016 0.7514644265174866
0.25581395626068115 -0.038759708404541016 0.8996138572692871
0.25581395626068115 -0.02325582504272461 -0.9908060431480408
0.25581395626068115 -0.02325582504272461 0.6873438358306885
0.25581395626068115 -0.02325582504272461 0.7463603019714355
0.25581395626068115 -0.02325582504272461 0.9080969095230103
0.25581395626068115 -0.007751941680908203 -0.9908866882324219
0.25581395626068115 -0.007751941680908203 0.36043357849121094
0.25581395626068115 -0.007751941680908203 0.40311652421951294
0.25581395626068115 -0.00775194214656949 0.6931860446929932
0.25581395626068115 -0.007751941680908203 0.7467215657234192
0.25581395626068115 -0.007751941680908203 0.908536970615387
0.25581395626068115 0.007751941680908203 -0.9909290671348572
0.25581395626068115 0.007751941680908203 0.01566850207746029
0.25581395626068115 0.007751941680908203 0.05299272760748863
0.25581395626068115 0.007751941680908203 0.18022838234901428
0.25581395626068115 0.007751941680908203 0.4873368442058563
0.25581395626068115 0.007751941680908203 0.6820900440216064
0.25581395626068115 0.007751941680908203 0.7511271238327026
0.25581395626068115 0.007751941680908203 0.8991780281066895
0.25581395626068115 0.02325582504272461 -0.9909327626228333
0.25581395626068115 0.02325582504272461 0.01053418219089508
0.25581395626068115 0.02325582504272461 0.7637183666229248
0.25581395626068115 0.02325582504272461 0.8888938426971436
0.25581395626068115 0.038759708404541016 -0.9909334182739258
0.25581395626068115 0.038759708404541016 0.008865805342793465
0.25581395626068115 0.038759708404541016 0.786294162273407
0.25581395626068115 0.038759708404541016 0.8722726106643677
0.25581395626068115 0.05426359176635742 -0.9909277558326721
0.25581395626068115 0.05426358804106712 0.008265119977295399
0.25581395626068115 0.05426359176635742 0.8250091075897217
0.25581395626068115 0.05426359176635742 0.8327834606170654
0.25581395626068115 0.06976747512817383 -0.9909836649894714
0.25581395626068115 0.06976747512817383 0.008207696489989758
0.25581395626068115 0.08527135848999023 -0.991057276725769
0.25581395626068115 0.08527135848999023 0.008557395078241825
0.25581395626068115 0.10077524185180664 -0.9910895228385925
0.25581395626068115 0.10077524185180664 0.009374536573886871
0.25581395626068115 0.11627912521362305 -0.9911177158355713
0.25581395626068115 0.11627912521362305 0.01065460778772831
0.25581395626068115 0.1317828893661499 -0.9911236763000488
0.25581395626068115 0.1317828893661499 0.012960540130734444
0.25581395626068115 0.1472867727279663 -0.991036593914032
0.25581395626068115 0.1472867727279663 0.01601184532046318
0.25581395626068115 0.1472867727279663 0.13487911224365234
0.25581395626068115 0.1472867727279663 0.27142617106437683
0.25581395626068115 0.16279065608978271 -0.9906008839607239
0.25581395626068115 0.16279065608978271 0.01806815341114998
0.25581395626068115 0.16279065608978271 0.11920727044343948
0.25581395626068115 0.16279065608978271 0.2972661852836609
0.25581395626068115 0.17829453945159912 -0.9890544414520264
0.25581395626068115 0.17829453945159912 0.018460175022482872
0.25581395626068115 0.17829453945159912 0.11293143779039383
0.25581395626068115 0.17829453945159912 0.3054082989692688
0.25581395626068115 0.17829452455043793 0.8298603892326355
0.25581395626068115 0.17829453945159912 0.8939313888549805
0.25581395626068115 0.19379842281341553 -0.9853413105010986
0.25581395626068115 0.19379842281341553 0.016654005274176598
0.25581395626068115 0.19379842281341553 0.1140531599521637
0.25581395626068115 0.19379842281341553 0.2988010346889496
0.25581395626068115 0.19379842281341553 0.7961471676826477
0.25581395626068115 0.19379842281341553 0.9288631677627563
0.25581395626068115 0.20930230617523193 -0.9763624668121338
0.25581395626068115 0.20930230617523193 0.012644782662391663
0.25581395626068115 0.20930230617523193 0.12417092174291611
0.25581395626068115 0.20930230617523193 0.266356885433197
0.25581395626068115 0.20930230617523193 0.7960257530212402
0.25581395626068115 0.20930230617523193 0.9381533861160278
0.25581395626068115 0.22480618953704834 -0.9716438055038452
0.25581395626068115 0.22480620443820953 0.009235095232725143
0.25581395626068115 0.22480618953704834 0.14395616948604584
0.25581395626068115 0.22480618953704834 0.20235812664031982
0.25581395626068115 0.22480618953704834 0.7994046211242676
0.25581395626068115 0.22480618953704834 0.9348388910293579
0.25581395626068115 0.24031007289886475 -0.9692749977111816
0.25581395626068115 0.24031007289886475 -0.002698250114917755
0.25581395626068115 0.24031007289886475 0.806824803352356
0.25581395626068115 0.24031008780002594 0.9278460741043091
0.25581395626068115 0.25581395626068115 -0.9639339447021484
0.25581395626068115 0.25581395626068115 -0.018683018162846565
0.25581395626068115 0.25581395626068115 0.8125771880149841
0.25581395626068115 0.25581395626068115 0.9236529469490051
0.25581395626068115 0.27131783962249756 -0.9547460675239563
0.25581395626068115 0.27131783962249756 -0.05265246331691742
0.25581395626068115 0.27131783962249756 0.817412257194519
0.25581395626068115 0.27131783962249756 0.9132773280143738
0.25581395626068115 0.28682172298431396 -0.9506936073303223
0.25581395626068115 0.28682172298431396 -0.09966274350881577
0.25581395626068115 0.28682172298431396 0.8138227462768555
0.25581395626068115 0.28682172298431396 0.9074292778968811
0.25581395626068115 0.30232560634613037 -0.9388624429702759
0.25581395626068115 0.30232560634613037 -0.15170001983642578
0.25581395626068115 0.30232560634613037 0.7958621978759766
0.25581395626068115 0.30232560634613037 0.905103862285614
0.25581395626068115 0.3178294897079468 -0.9235002994537354
0.25581395626068115 0.3178294897079468 -0.22061687707901
0.25581395626068115 0.3178294897079468 0.7893232703208923
0.25581395626068115 0.31782951951026917 0.9087728261947632
0.25581395626068115 0.3333333730697632 -0.881550669670105
0.25581395626068115 0.3333333730697632 -0.3346944749355316
0.25581395626068115 0.3333333730697632 0.7907447218894958
0.25581395626068115 0.3333333730697632 0.912325918674469
0.25581395626068115 0.3488372564315796 -0.702282190322876
0.25581395626068115 0.3488372564315796 -0.441491037607193
0.25581395626068115 0.3488372564315796 0.7949587106704712
0.25581395626068115 0.3488372564315796 0.9147748947143555
0.25581395626068115 0.364341139793396 0.8001105785369873
0.25581395626068115 0.364341139793396 0.9149695634841919
0.25581395626068115 0.37984490394592285 0.8127313852310181
0.25581395626068115 0.37984490394592285 0.9124066829681396
0.25581395626068115 0.39534878730773926 0.829230785369873
0.25581395626068115 0.39534878730773926 0.9082744121551514
0.25581395626068115 0.41085267066955566 0.8501464128494263
0.25581395626068115 0.41085267066955566 0.8974059224128723
0.25581395626068115 0.5503876209259033 0.8286116719245911
0.25581395626068115 0.5503876209259033 0.9061211347579956
0.25581395626068115 0.5658915042877197 0.8061701059341431
0.25581395626068115 0.5658915042877197 0.9249260425567627
0.25581395626068115 0.5813953876495361 0.7919723987579346
0.25581395626068115 0.5813953876495361 0.933478057384491
0.25581395626068115 0.5968992710113525 0.7827005386352539
0.25581395626068115 0.5968992710113525 0.9346098899841309
0.25581395626068115 0.612403154373169 0.7769374847412109
0.25581395626068115 0.612403154373169 0.9306360483169556
0.25581395626068115 0.6279069185256958 0.7849202752113342
0.25581395626068115 0.6279069185256958 0.9261655211448669
0.25581395626068115 0.6434108018875122 0.7927803993225098
0.25581395626068115 0.6434108018875122 0.9198043942451477
0.25581395626068115 0.6589147448539734 0.8004929423332214
0.25581395626068115 0.6589146852493286 0.9126831293106079
0.25581395626068115 0.674418568611145 0.81035977602005
0.25581395626068115 0.674418568611145 0.9087443351745605
0.25581395626068115 0.6899224519729614 0.8116820454597473
0.25581395626068115 0.6899224519729614 0.9056299328804016
0.25581395626068115 0.7054263353347778 0.8100475072860718
0.25581395626068115 0.7054263353347778 0.9026632308959961
0.25581395626068115 0.7209302186965942 0.8113911151885986
0.25581395626068115 0.7209302186965942 0.8967714309692383
0.25581395626068115 0.7364341020584106 0.8123245239257812
0.25581395626068115 0.7364341020584106 0.8791760802268982
0.25581395626068115 0.751937985420227 0.8217007517814636
0.25581395626068115 0.751937985420227 0.8374326229095459
0.27131783962249756 -0.7209302186965942 0.7908992767333984
0.27131783962249756 -0.7209302186965942 0.8089781999588013
0.27131783962249756 -0.7054263353347778 0.7824851870536804
0.27131783962249756 -0.7054263353347778 0.8177770972251892
0.27131783962249756 -0.6899224519729614 0.782501220703125
0.27131783962249756 -0.6899224519729614 0.8240306377410889
0.27131783962249756 -0.674418568611145 0.787497878074646
0.27131783962249756 -0.674418568611145 0.8401771783828735
0.27131783962249756 -0.6589146852493286 0.7898077368736267
0.27131783962249756 -0.6589146852493286 0.8646531105041504
0.27131783962249756 -0.643410861492157 0.7854217290878296
0.27131783962249756 -0.643410861492157 0.879706859588623
0.27131783962249756 -0.6279069781303406 0.7813738584518433
0.27131783962249756 -0.6279069781303406 0.8924636244773865
0.27131783962249756 -0.6124030947685242 0.7791219353675842
0.27131783962249756 -0.6124030947685242 0.9075722098350525
0.27131783962249756 -0.5968992114067078 0.7779237031936646
0.27131786942481995 -0.5968992114067078 0.9236008524894714
0.27131783962249756 -0.5813953876495361 0.7798130512237549
0.27131783962249756 -0.5813953876495361 0.9339277148246765
0.27131783962249756 -0.5658915042877197 0.7829446196556091
0.27131786942481995 -0.5658915042877197 0.9389879107475281
0.27131783962249756 -0.5503876209259033 0.7869196534156799
0.27131783962249756 -0.5503876209259033 0.9399322271347046
0.27131783962249756 -0.5348837375640869 0.7840135097503662
0.27131783962249756 -0.5348837375640869 0.940382182598114
0.27131783962249756 -0.5193798542022705 0.776482343673706
0.27131783962249756 -0.5193798542022705 0.9409397840499878
0.27131783962249756 -0.5038759708404541 0.7591969966888428
0.27131783962249756 -0.5038759708404541 0.9416477084159851
0.27131783962249756 -0.4883720874786377 0.7351751923561096
0.27131783962249756 -0.4883720874786377 0.9431018233299255
0.27131783962249756 -0.4728682041168213 0.7175662517547607
0.27131783962249756 -0.4728682041168213 0.9451470971107483
0.27131783962249756 -0.4573643207550049 0.7057154178619385
0.27131783962249756 -0.4573643207550049 0.9470705986022949
0.27131783962249756 -0.4418604373931885 0.7030206322669983
0.27131783962249756 -0.4418604373931885 0.9477822780609131
0.27131783962249756 -0.42635661363601685 0.7035689353942871
0.27131783962249756 -0.42635661363601685 0.9468609094619751
0.27131783962249756 -0.41085273027420044 0.7087144255638123
0.27131783962249756 -0.41085273027420044 0.9446383714675903
0.27131783962249756 -0.39534884691238403 0.7202890515327454
0.27131783962249756 -0.3953488767147064 0.9427023530006409
0.27131783962249756 -0.3798449635505676 -0.09201288223266602
0.27131783962249756 -0.3798449635505676 -0.02019435539841652
0.27131783962249756 -0.3798449635505676 0.7395442724227905
0.27131783962249756 -0.3798449635505676 0.9425187706947327
0.27131783962249756 -0.3643410801887512 -0.7094284296035767
0.27131783962249756 -0.3643410801887512 -0.3936990797519684
0.27131783962249756 -0.3643410801887512 -0.11798626184463501
0.27131783962249756 -0.3643410801887512 -0.023339394479990005
0.27131783962249756 -0.3643410801887512 0.7504323124885559
0.27131783962249756 -0.3643410801887512 0.9451936483383179
0.27131783962249756 -0.3488371968269348 -0.8539064526557922
0.27131783962249756 -0.3488371968269348 -0.2503587603569031
0.27131783962249756 -0.3488371968269348 -0.13434074819087982
0.27131783962249756 -0.3488371968269348 -0.03273821249604225
0.27131783962249756 -0.3488371968269348 0.749701976776123
0.27131783962249756 -0.3488371968269348 0.9511107206344604
0.27131783962249756 -0.3333333134651184 -0.9108365178108215
0.27131786942481995 -0.3333333432674408 -0.03797640651464462
0.27131783962249756 -0.3333333134651184 0.14577019214630127
0.27131783962249756 -0.3333333134651184 0.17226271331310272
0.27131783962249756 -0.3333333134651184 0.7445916533470154
0.27131783962249756 -0.333333283662796 0.9550830721855164
0.27131783962249756 -0.317829430103302 -0.9323569536209106
0.27131783962249756 -0.317829430103302 -0.03851402923464775
0.27131783962249756 -0.317829430103302 0.14254340529441833
0.27131783962249756 -0.317829430103302 0.17549684643745422
0.27131783962249756 -0.317829430103302 0.7361133098602295
0.27131783962249756 -0.317829430103302 0.9563499689102173
0.27131783962249756 -0.30232560634613037 -0.9420399069786072
0.27131783962249756 -0.30232560634613037 -0.03247620165348053
0.27131783962249756 -0.30232560634613037 0.14152172207832336
0.27131783962249756 -0.30232560634613037 0.17547568678855896
0.27131783962249756 -0.30232560634613037 0.7320394515991211
0.27131783962249756 -0.30232560634613037 0.9578192234039307
0.27131783962249756 -0.28682172298431396 -0.9506759643554688
0.27131783962249756 -0.28682172298431396 -0.018760884180665016
0.27131783962249756 -0.28682172298431396 0.13780464231967926
0.27131783962249756 -0.28682172298431396 0.178534597158432
0.27131783962249756 -0.28682172298431396 0.7264897227287292
0.27131783962249756 -0.28682172298431396 0.959972620010376
0.27131783962249756 -0.27131783962249756 -0.9556211233139038
0.27131783962249756 -0.27131783962249756 -0.005818541627377272
0.27131783962249756 -0.27131783962249756 0.13934898376464844
0.27131783962249756 -0.27131783962249756 0.17831411957740784
0.27131783962249756 -0.27131783962249756 0.719955563545227
0.27131783962249756 -0.27131783962249756 0.9622019529342651
0.27131783962249756 -0.25581395626068115 -0.96211838722229
0.27131783962249756 -0.25581395626068115 0.003329042112454772
0.27131783962249756 -0.25581395626068115 0.14405524730682373
0.27131783962249756 -0.25581395626068115 0.17802175879478455
0.27131783962249756 -0.25581395626068115 0.25932392477989197
0.27131783962249756 -0.25581395626068115 0.34278056025505066
0.27131783962249756 -0.25581395626068115 0.7175585031509399
0.27131783962249756 -0.25581395626068115 0.9644583463668823
0.27131783962249756 -0.24031007289886475 -0.9676708579063416
0.27131783962249756 -0.24031007289886475 0.010435545817017555
0.27131783962249756 -0.24031007289886475 0.14300714433193207
0.27131783962249756 -0.24031007289886475 0.36462756991386414
0.27131783962249756 -0.24031007289886475 0.7157135009765625
0.27131783962249756 -0.24031007289886475 0.9663612842559814
0.27131783962249756 -0.22480618953704834 -0.9706039428710938
0.27131783962249756 -0.22480618953704834 0.013302362523972988
0.27131783962249756 -0.22480618953704834 0.13047102093696594
0.27131783962249756 -0.22480618953704834 0.374636173248291
0.27131783962249756 -0.22480618953704834 0.716478705406189
0.27131783962249756 -0.22480618953704834 0.967665433883667
0.27131783962249756 -0.20930230617523193 -0.9740175008773804
0.27131783962249756 -0.20930230617523193 0.01609358750283718
0.27131783962249756 -0.20930230617523193 0.1200779527425766
0.27131783962249756 -0.20930230617523193 0.3824506103992462
0.27131783962249756 -0.20930230617523193 0.719504714012146
0.27131783962249756 -0.20930230617523193 0.9678714871406555
0.27131783962249756 -0.19379842281341553 -0.9806504249572754
0.27131783962249756 -0.19379842281341553 0.018507463857531548
0.27131783962249756 -0.19379842281341553 0.11833853274583817
0.27131783962249756 -0.19379842281341553 0.38541096448898315
0.27131783962249756 -0.19379842281341553 0.7277421951293945
0.27131783962249756 -0.19379842281341553 0.9648439884185791
0.27131783962249756 -0.1782945990562439 -0.9858163595199585
0.27131783962249756 -0.1782945990562439 0.019411051645874977
0.27131783962249756 -0.1782945990562439 0.1297196000814438
0.27131783962249756 -0.1782945841550827 0.38336682319641113
0.27131783962249756 -0.1782945990562439 0.7363186478614807
0.27131783962249756 -0.1782945990562439 0.9578703045845032
0.27131783962249756 -0.1627907156944275 -0.9874394536018372
0.27131783962249756 -0.1627907156944275 0.019129779189825058
0.27131783962249756 -0.1627907007932663 0.15027961134910583
0.27131783962249756 -0.1627907156944275 0.37549644708633423
0.27131783962249756 -0.1627907156944275 0.7494083046913147
0.27131783962249756 -0.1627907156944275 0.9446612596511841
0.27131783962249756 -0.14728683233261108 -0.9887629151344299
0.27131783962249756 -0.14728683233261108 0.018355613574385643
0.27131783962249756 -0.14728683233261108 0.18563036620616913
0.27131786942481995 -0.14728684723377228 0.36550173163414
0.27131783962249756 -0.14728683233261108 0.7615048885345459
0.27131783962249756 -0.14728683233261108 0.9286990165710449
0.27131783962249756 -0.13178294897079468 -0.9897729754447937
0.27131783962249756 -0.13178294897079468 0.01704072766005993
0.27131783962249756 -0.13178294897079468 0.2125278115272522
0.27131783962249756 -0.13178294897079468 0.35418617725372314
0.27131783962249756 -0.13178294897079468 0.7712189555168152
0.27131783962249756 -0.13178294897079468 0.9129477143287659
0.27131783962249756 -0.11627906560897827 -0.9902956485748291
0.27131783962249756 -0.11627906560897827 0.01645943522453308
0.27131783962249756 -0.11627906560897827 0.224412739276886
0.27131783962249756 -0.11627906560897827 0.348617821931839
0.27131783962249756 -0.11627906560897827 0.7784087061882019
0.27131783962249756 -0.11627906560897827 0.9007714986801147
0.27131783962249756 -0.10077518224716187 -0.9905328154563904
0.27131783962249756 -0.10077518224716187 0.017783312126994133
0.27131783962249756 -0.10077518224716187 0.22409389913082123
0.27131780982017517 -0.10077517479658127 0.34974968433380127
0.27131783962249756 -0.10077518224716187 0.7785576581954956
0.27131783962249756 -0.10077518224716187 0.893913745880127
0.27131783962249756 -0.08527129888534546 -0.9906002283096313
0.27131783962249756 -0.08527129888534546 0.026928767561912537
0.27131783962249756 -0.08527129888534546 0.044598907232284546
0.27131783962249756 -0.08527129888534546 0.17162126302719116
0.27131783962249756 -0.08527129888534546 0.19856101274490356
0.27131783962249756 -0.08527129888534546 0.3614490032196045
0.27131783962249756 -0.08527129888534546 0.7679933309555054
0.27131783962249756 -0.08527129888534546 0.8943976163864136
0.27131783962249756 -0.06976741552352905 -0.9906233549118042
0.27131783962249756 -0.06976741552352905 0.3835853636264801
0.27131783962249756 -0.06976741552352905 0.7565100193023682
0.27131783962249756 -0.06976741552352905 0.9024673104286194
0.27131783962249756 -0.05426359176635742 -0.9906585216522217
0.27131783962249756 -0.05426359176635742 0.4086211919784546
0.27131783962249756 -0.05426359176635742 0.7472279667854309
0.27131783962249756 -0.05426359176635742 0.9132258296012878
0.27131783962249756 -0.038759708404541016 -0.9907352328300476
0.27131783962249756 -0.038759708404541016 0.6002101898193359
0.27131783962249756 -0.038759708404541016 0.740927517414093
0.27131783962249756 -0.038759708404541016 0.9244838953018188
0.27131783962249756 -0.02325582504272461 -0.9908408522605896
0.27131783962249756 -0.02325582504272461 0.615828275680542
0.27131783962249756 -0.02325582504272461 0.7365392446517944
0.27131783962249756 -0.02325582504272461 0.9329665899276733
0.27131783962249756 -0.007751941680908203 -0.9909246563911438
0.27131783962249756 -0.007751941680908203 0.3561505675315857
0.27131783962249756 -0.007751941680908203 0.5012032985687256
0.27131783962249756 -0.007751941680908203 0.5779955387115479
0.27131783962249756 -0.007751941680908203 0.7386474609375
0.27131783962249756 -0.007751941680908203 0.9313434362411499
0.27131783962249756 0.007751941680908203 -0.990979790687561
0.27131783962249756 0.007751941680908203 0.01871822029352188
0.27131783962249756 0.007751941680908203 0.04712417721748352
0.27131783962249756 0.007751941680908203 0.3146016597747803
0.27131783962249756 0.007751941680908203 0.742500901222229
0.27131783962249756 0.007751941680908203 0.9173927307128906
0.27131783962249756 0.02325582504272461 -0.9910045266151428
0.27131783962249756 0.02325582504272461 0.011139120906591415
0.27131783962249756 0.02325582504272461 0.7513946890830994
0.27131783962249756 0.02325582504272461 0.9009697437286377
0.27131783962249756 0.038759708404541016 -0.9910305142402649
0.27131783962249756 0.038759708404541016 0.00918511301279068
0.27131783962249756 0.038759708404541016 0.7742531895637512
0.27131783962249756 0.038759708404541016 0.8835346698760986
0.27131783962249756 0.05426359176635742 -0.9910426735877991
0.27131783962249756 0.05426359176635742 0.008558688685297966
0.27131783962249756 0.05426359176635742 0.7992868423461914
0.27131783962249756 0.05426359176635742 0.8583727478981018
0.27131783962249756 0.06976747512817383 -0.9911068677902222
0.27131780982017517 0.06976747512817383 0.008431924507021904
0.27131783962249756 0.08527135848999023 -0.9911818504333496
0.27131783962249756 0.08527135848999023 0.008690422400832176
0.27131783962249756 0.10077524185180664 -0.9912148714065552
0.27131783962249756 0.10077524185180664 0.009482159279286861
0.27131783962249756 0.11627912521362305 -0.99123215675354
0.27131783962249756 0.11627912521362305 0.010965283960103989
0.27131783962249756 0.11627912521362305 0.16234566271305084
0.27131783962249756 0.11627912521362305 0.2652132511138916
0.27131783962249756 0.1317828893661499 -0.9911816716194153
0.27131783962249756 0.1317828893661499 0.013798163272440434
0.27131783962249756 0.1317828893661499 0.12754467129707336
0.27131783962249756 0.1317828893661499 0.30579906702041626
0.27131783962249756 0.1472867727279663 -0.99091637134552
0.27131783962249756 0.1472867727279663 0.01743684895336628
0.27131783962249756 0.1472867727279663 0.11010226607322693
0.27131783962249756 0.1472867727279663 0.32301726937294006
0.27131783962249756 0.16279065608978271 -0.9899566173553467
0.27131783962249756 0.16279065608978271 0.020155146718025208
0.27131783962249756 0.16279065608978271 0.09634396433830261
0.27131783962249756 0.1627906709909439 0.3359387218952179
0.27131783962249756 0.16279065608978271 0.7860662937164307
0.27131783962249756 0.16279065608978271 0.8153579235076904
0.27131783962249756 0.17829453945159912 -0.9871547818183899
0.27131783962249756 0.17829453945159912 0.020974893122911453
0.27131783962249756 0.17829452455043793 0.08878488093614578
0.27131783962249756 0.17829453945159912 0.3398546278476715
0.27131783962249756 0.17829453945159912 0.7731297612190247
0.27131783962249756 0.17829453945159912 0.9585863351821899
0.27131783962249756 0.19379843771457672 -0.9793441295623779
0.27131783962249756 0.19379842281341553 0.019388318061828613
0.27131783962249756 0.19379840791225433 0.08909489214420319
0.27131783962249756 0.19379842281341553 0.33604633808135986
0.27131783962249756 0.19379842281341553 0.7738248109817505
0.27131783962249756 0.19379842281341553 0.9611859321594238
0.27131783962249756 0.20930230617523193 -0.9737679958343506
0.27131783962249756 0.20930230617523193 0.015412741340696812
0.27131783962249756 0.20930230617523193 0.09797456860542297
0.27131783962249756 0.20930230617523193 0.32021602988243103
0.27131783962249756 0.20930230617523193 0.7794777154922485
0.27131783962249756 0.20930230617523193 0.9583049416542053
0.27131783962249756 0.22480618953704834 -0.970223069190979
0.27131783962249756 0.22480618953704834 0.010260356590151787
0.27131783962249756 0.22480618953704834 0.11428163200616837
0.27131783962249756 0.22480618953704834 0.2911895215511322
0.27131783962249756 0.22480620443820953 0.7865123748779297
0.27131783962249756 0.22480618953704834 0.9540213942527771
0.27131783962249756 0.24031007289886475 -0.9673408269882202
0.27131783962249756 0.24031007289886475 -0.0006818405818194151
0.27131783962249756 0.24031007289886475 0.14055044949054718
0.27131783962249756 0.24031007289886475 0.21861839294433594
0.27131783962249756 0.24031007289886475 0.7937602996826172
0.27131783962249756 0.24031007289886475 0.9419929385185242
0.27131783962249756 0.25581395626068115 -0.9594758152961731
0.27131783962249756 0.25581395626068115 -0.018639329820871353
0.27131783962249756 0.25581395626068115 0.7979001998901367
0.27131783962249756 0.25581395626068115 0.9341580867767334
0.27131783962249756 0.27131783962249756 -0.9537155628204346
0.27131783962249756 0.27131783962249756 -0.06091250479221344
0.27131783962249756 0.27131783962249756 0.7984942197799683
0.27131783962249756 0.27131783962249756 0.9248719811439514
0.27131783962249756 0.28682172298431396 -0.9448670148849487
0.27131783962249756 0.28682172298431396 -0.11131107807159424
0.27131783962249756 0.28682172298431396 0.793704092502594
0.27131783962249756 0.28682172298431396 0.9182265996932983
0.27131783962249756 0.30232560634613037 -0.9352017641067505
0.27131783962249756 0.30232560634613037 -0.17517536878585815
0.27131783962249756 0.30232560634613037 0.7812108397483826
0.27131783962249756 0.30232560634613037 0.914203941822052
0.27131783962249756 0.3178294897079468 -0.9120345115661621
0.27131783962249756 0.3178294897079468 -0.25053757429122925
0.27131783962249756 0.3178294897079468 0.7776740789413452
0.27131783962249756 0.3178294897079468 0.9163599610328674
0.27131783962249756 0.3333333730697632 -0.8504854440689087
0.27131783962249756 0.3333333730697632 -0.37508437037467957
0.27131783962249756 0.3333333730697632 0.7802841663360596
0.27131783962249756 0.3333333730697632 0.9196568727493286
0.27131783962249756 0.3488372564315796 0.7870201468467712
0.27131783962249756 0.3488372564315796 0.920373260974884
0.27131783962249756 0.364341139793396 0.7947946786880493
0.27131783962249756 0.364341139793396 0.918819010257721
0.27131783962249756 0.37984490394592285 0.8084864616394043
0.27131783962249756 0.37984490394592285 0.9146161079406738
0.27131783962249756 0.39534878730773926 0.8255929946899414
0.27131783962249756 0.39534878730773926 0.9093343615531921
0.27131783962249756 0.41085267066955566 0.8428534269332886
0.27131783962249756 0.41085267066955566 0.9005110263824463
0.27131783962249756 0.42635655403137207 0.86545729637146
0.27131783962249756 0.42635655403137207 0.8903757929801941
0.27131783962249756 0.5038759708404541 0.8754591941833496
0.27131783962249756 0.5038759708404541 0.8774048089981079
0.27131783962249756 0.5193798542022705 0.8456162214279175
0.27131783962249756 0.5193799138069153 0.9071542024612427
0.27131783962249756 0.5348837375640869 0.8203755617141724
0.27131783962249756 0.5348837375640869 0.9191062450408936
0.27131783962249756 0.5503876209259033 0.7919085025787354
0.27131783962249756 0.5503876209259033 0.9297499656677246
0.27131783962249756 0.5658915042877197 0.7647318243980408
0.27131783962249756 0.5658915042877197 0.940155029296875
0.27131783962249756 0.5813953876495361 0.7243695259094238
0.27131783962249756 0.5813953876495361 0.9423903226852417
0.27131783962249756 0.5968992710113525 0.6897780299186707
0.27131783962249756 0.5968992710113525 0.9412720203399658
0.27131783962249756 0.612403154373169 0.6779256463050842
0.27131780982017517 0.612403154373169 0.938805878162384
0.27131783962249756 0.6279069185256958 0.679295003414154
0.27131783962249756 0.6279069185256958 0.932609498500824
0.27131783962249756 0.6434108018875122 0.6899396777153015
0.27131783962249756 0.6434108018875122 0.9265108704566956
0.27131783962249756 0.6589146852493286 0.7118268013000488
0.27131783962249756 0.6589146852493286 0.9213511347770691
0.27131783962249756 0.674418568611145 0.7732334136962891
0.27131783962249756 0.674418568611145 0.915046215057373
0.27131783962249756 0.6899224519729614 0.7787947654724121
0.27131783962249756 0.6899224519729614 0.9126955270767212
0.27131783962249756 0.7054263353347778 0.7822231650352478
0.27131783962249756 0.7054263949394226 0.9114195108413696
0.27131783962249756 0.7209302186965942 0.789844274520874
0.27131783962249756 0.7209301590919495 0.9080999493598938
0.27131783962249756 0.7364341020584106 0.7949175834655762
0.27131783962249756 0.7364341020584106 0.8922799229621887
0.27131783962249756 0.751937985420227 0.7980391383171082
0.27131783962249756 0.751937985420227 0.8542354106903076
0.28682172298431396 -0.7364341020584106 0.7921444177627563
0.28682172298431396 -0.7364341020584106 0.8018017411231995
0.28682172298431396 -0.7209302186965942 0.7804522514343262
0.28682172298431396 -0.7209302186965942 0.8178427219390869
0.28682172298431396 -0.7054263353347778 0.7791155576705933
0.28682172298431396 -0.7054263353347778 0.8275814056396484
0.28682172298431396 -0.6899224519729614 0.7793580889701843
0.28682172298431396 -0.6899224519729614 0.8342820405960083
0.28682172298431396 -0.674418568611145 0.7811926007270813
0.28682172298431396 -0.674418568611145 0.8527415990829468
0.28682172298431396 -0.6589146852493286 0.7821493148803711
0.2868216931819916 -0.6589146256446838 0.8770115375518799
0.28682172298431396 -0.643410861492157 0.780586302280426
0.28682172298431396 -0.643410861492157 0.8925014734268188
0.28682172298431396 -0.6279069781303406 0.7766450643539429
0.28682172298431396 -0.6279069781303406 0.9104031920433044
0.28682172298431396 -0.6124030947685242 0.772006630897522
0.28682172298431396 -0.6124030947685242 0.9339461922645569
0.28682172298431396 -0.5968992114067078 0.7694743275642395
0.28682172298431396 -0.596899151802063 0.9445037841796875
0.28682172298431396 -0.5813953876495361 0.771343469619751
0.28682172298431396 -0.5813953876495361 0.9496291875839233
0.28682172298431396 -0.5658915042877197 0.7755249738693237
0.28682172298431396 -0.5658915042877197 0.9539802670478821
0.28682172298431396 -0.5503876209259033 0.7769137620925903
0.28682172298431396 -0.5503876209259033 0.9551854133605957
0.28682172298431396 -0.5348837375640869 0.7714502215385437
0.28682172298431396 -0.5348837375640869 0.9559805393218994
0.28682172298431396 -0.5193798542022705 0.7598798274993896
0.28682172298431396 -0.5193798542022705 0.9566136598587036
0.28682172298431396 -0.5038759708404541 0.7418165802955627
0.28682172298431396 -0.5038759708404541 0.9571309685707092
0.28682172298431396 -0.4883720576763153 0.723429799079895
0.28682172298431396 -0.4883721172809601 0.9578967094421387
0.28682172298431396 -0.4728682041168213 0.7083064317703247
0.28682172298431396 -0.4728682041168213 0.9589686393737793
0.28682172298431396 -0.4573643207550049 0.6994044184684753
0.28682172298431396 -0.4573643207550049 0.9600510597229004
0.28682172298431396 -0.4418604373931885 0.6961541175842285
0.28682172298431396 -0.4418604373931885 0.9605510234832764
0.28682172298431396 -0.42635661363601685 0.697428822517395
0.28682172298431396 -0.42635661363601685 0.9603469967842102
0.28682172298431396 -0.41085273027420044 0.7024756669998169
0.28682172298431396 -0.41085273027420044 0.9591313004493713
0.28682172298431396 -0.39534884691238403 0.7151566743850708
0.28682172298431396 -0.39534884691238403 0.957392692565918
0.28682172298431396 -0.3798449635505676 0.734450101852417
0.28682172298431396 -0.3798449635505676 0.9558342099189758
0.28682172298431396 -0.3643410801887512 -0.6659430265426636
0.28682172298431396 -0.3643410801887512 -0.4406053125858307
0.28682172298431396 -0.3643410801887512 -0.10346850752830505
0.28682172298431396 -0.3643410801887512 -0.02127980813384056
0.28682172298431396 -0.3643410801887512 0.7482361793518066
0.28682172298431396 -0.3643410801887512 0.9563217759132385
0.28682172298431396 -0.3488371968269348 -0.8190096616744995
0.28682172298431396 -0.3488371968269348 -0.3167199194431305
0.28682172298431396 -0.3488371968269348 -0.12679708003997803
0.28682172298431396 -0.3488371968269348 -0.019157875329256058
0.28682172298431396 -0.3488371968269348 0.7492489218711853
0.28682172298431396 -0.3488371968269348 0.9579838514328003
0.28682172298431396 -0.3333333134651184 -0.8942216038703918
0.28682172298431396 -0.3333333134651184 -0.23587900400161743
0.28682172298431396 -0.3333333134651184 -0.14723534882068634
0.28682172298431396 -0.333333283662796 -0.020121067762374878
0.28682172298431396 -0.3333333134651184 0.7450870275497437
0.28682172298431396 -0.3333333134651184 0.9602155685424805
0.28682172298431396 -0.317829430103302 -0.9252992868423462
0.28682172298431396 -0.317829430103302 -0.020292935892939568
0.28682172298431396 -0.317829430103302 0.7376387715339661
0.28682172298431396 -0.317829430103302 0.9620265960693359
0.28682172298431396 -0.30232560634613037 -0.9390721321105957
0.28682172298431396 -0.30232560634613037 -0.01847020909190178
0.28682172298431396 -0.30232560634613037 0.7334963083267212
0.28682172298431396 -0.30232560634613037 0.9634784460067749
0.28682172298431396 -0.28682172298431396 -0.9479647874832153
0.28682172298431396 -0.28682172298431396 -0.01103561744093895
0.28682172298431396 -0.28682172298431396 0.7287623286247253
0.28682172298431396 -0.28682172298431396 0.964996337890625
0.28682172298431396 -0.27131783962249756 -0.9542131423950195
0.28682172298431396 -0.27131783962249756 -0.0042210835963487625
0.28682172298431396 -0.27131783962249756 0.7212963700294495
0.28682172298431396 -0.27131783962249756 0.9665077328681946
0.28682172298431396 -0.25581395626068115 -0.9596908092498779
0.28682172298431396 -0.25581395626068115 0.00441378727555275
0.28682172298431396 -0.25581395626068115 0.2581438720226288
0.28682172298431396 -0.25581395626068115 0.32944729924201965
0.28682172298431396 -0.25581395626068115 0.7190357446670532
0.28682172298431396 -0.25581395626068115 0.968394935131073
0.28682172298431396 -0.24031007289886475 -0.9655388593673706
0.28682172298431396 -0.24031007289886475 0.010624143294990063
0.28682172298431396 -0.24031007289886475 0.14954471588134766
0.28682172298431396 -0.24031007289886475 0.35807180404663086
0.28682172298431396 -0.24031007289886475 0.7178439497947693
0.28682172298431396 -0.24031008780002594 0.9695255756378174
0.28682172298431396 -0.22480618953704834 -0.9697808027267456
0.28682172298431396 -0.22480618953704834 0.013597501441836357
0.28682172298431396 -0.22480618953704834 0.12078998982906342
0.28682172298431396 -0.22480618953704834 0.37578731775283813
0.28682172298431396 -0.22480618953704834 0.718583345413208
0.28682172298431396 -0.22480618953704834 0.9701461791992188
0.28682172298431396 -0.20930230617523193 -0.972108006477356
0.28682172298431396 -0.20930230617523193 0.01659541204571724
0.28682172298431396 -0.20930230617523193 0.10083483159542084
0.28682172298431396 -0.20930230617523193 0.3886069059371948
0.28682172298431396 -0.20930230617523193 0.7209160923957825
0.28682172298431396 -0.20930230617523193 0.9705855846405029
0.28682172298431396 -0.19379842281341553 -0.9768000841140747
0.28682172298431396 -0.19379842281341553 0.01940351538360119
0.28682172298431396 -0.19379842281341553 0.09372378885746002
0.28682172298431396 -0.19379842281341553 0.39774978160858154
0.28682172298431396 -0.19379842281341553 0.728909969329834
0.28682172298431396 -0.19379842281341553 0.9708784818649292
0.28682172298431396 -0.1782945990562439 -0.9848412871360779
0.28682172298431396 -0.1782945990562439 0.020921891555190086
0.28682172298431396 -0.1782945990562439 0.09847873449325562
0.28682172298431396 -0.1782945990562439 0.39994168281555176
0.28682172298431396 -0.1782945990562439 0.73618084192276
0.28682172298431396 -0.1782945990562439 0.9705802202224731
0.28682172298431396 -0.1627907156944275 -0.9866333603858948
0.28682172298431396 -0.1627907156944275 0.021340658888220787
0.28682172298431396 -0.1627907156944275 0.11206135898828506
0.28682172298431396 -0.1627907156944275 0.39756470918655396
0.28682172298431396 -0.1627907156944275 0.7484704256057739
0.28682172298431396 -0.1627907156944275 0.9644637703895569
0.28682172298431396 -0.14728683233261108 -0.9880608320236206
0.28682172298431396 -0.14728683233261108 0.021072737872600555
0.28682172298431396 -0.14728683233261108 0.12675222754478455
0.28682172298431396 -0.14728683233261108 0.3910541832447052
0.28682172298431396 -0.14728683233261108 0.7597594261169434
