-0.3066991865634918 -0.25581395626068115 0.27131783962249756
-0.31279948353767395 -0.24031007289886475 -0.19379842281341553
-0.3104199767112732 -0.24031007289886475 0.27131783962249756
-0.3178165853023529 -0.22480620443820953 -0.30232560634613037
-0.3167443871498108 -0.22480618953704834 -0.20930230617523193
-0.3048074245452881 -0.22480618953704834 0.16279065608978271
-0.31253552436828613 -0.22480618953704834 0.27131783962249756
-0.31461334228515625 -0.20930230617523193 -0.317829430103302
-0.3175431191921234 -0.20930230617523193 -0.22480618953704834
-0.3051133453845978 -0.20930230617523193 0.16279065608978271
-0.31387197971343994 -0.20930230617523193 0.27131783962249756
-0.3107891082763672 -0.19379842281341553 -0.3333333134651184
-0.30587607622146606 -0.19379842281341553 0.16279065608978271
-0.3143860101699829 -0.19379842281341553 0.27131783962249756
-0.3140403628349304 -0.1782945990562439 -0.25581395626068115
-0.30492547154426575 -0.1782945990562439 0.16279065608978271
-0.3138991594314575 -0.1782945990562439 0.27131783962249756
-0.3126246929168701 -0.1627907156944275 -0.3488371968269348
-0.30579137802124023 -0.1627907156944275 -0.27131783962249756
-0.30299463868141174 -0.1627907156944275 0.16279065608978271
-0.3124382495880127 -0.1627907156944275 0.27131783962249756
-0.3161498010158539 -0.14728683233261108 -0.27131783962249756
-0.3147018551826477 -0.14728683233261108 0.1472867727279663
-0.31013792753219604 -0.14728683233261108 0.27131783962249756
-0.3045065104961395 -0.13178294897079468 -0.28682172298431396
-0.3119773268699646 -0.13178294897079468 0.1472867727279663
-0.30617544054985046 -0.13178294897079468 0.27131783962249756
-0.31083959341049194 -0.11627906560897827 -0.28682172298431396
-0.31066370010375977 -0.11627906560897827 0.1472867727279663
-0.3158537447452545 -0.11627906560897827 0.25581395626068115
-0.3169098198413849 -0.10077518224716187 -0.28682172298431396
-0.30621495842933655 -0.10077518224716187 0.1472867727279663
-0.3114977777004242 -0.10077518224716187 0.25581395626068115
-0.3051365613937378 -0.08527129888534546 0.25581395626068115
-0.3032325804233551 -0.06976741552352905 -0.3643410801887512
-0.30547019839286804 -0.06976741552352905 -0.30232560634613037
-0.3145240545272827 -0.06976741552352905 0.1317828893661499
-0.3130533695220947 -0.06976741552352905 0.24031007289886475
-0.3073232173919678 -0.05426359176635742 -0.3643410801887512
-0.31135886907577515 -0.05426359176635742 -0.30232560634613037
-0.3049522638320923 -0.05426359176635742 0.24031007289886475
-0.3097493648529053 -0.038759708404541016 -0.3643410801887512
-0.3162178695201874 -0.038759708404541016 -0.30232560634613037
-0.31052061915397644 -0.038759708404541016 0.22480618953704834
-0.3113345503807068 -0.02325582504272461 -0.3643410801887512
-0.30233216285705566 -0.02325582504272461 -0.317829430103302
-0.3121597170829773 -0.02325582504272461 0.11627913266420364
-0.3145490884780884 -0.02325582504272461 0.20930230617523193
-0.31281355023384094 -0.007751941680908203 -0.3643410801887512
-0.30512553453445435 -0.007751941680908203 -0.317829430103302
-0.3037406802177429 -0.007751941680908203 0.20930230617523193
-0.31333765387535095 0.007751941680908203 -0.3643410801887512
-0.30711624026298523 0.007751941680908203 -0.317829430103302
-0.3074935972690582 0.007751941680908203 0.19379842281341553
-0.3133386969566345 0.02325582504272461 -0.36434105038642883
-0.30628687143325806 0.02325582504272461 -0.317829430103302
-0.3092333674430847 0.02325582504272461 0.10077524185180664
-0.31000176072120667 0.02325582504272461 0.17829453945159912
-0.312879741191864 0.038759708404541016 -0.3643410801887512
-0.30523863434791565 0.038759708404541016 -0.317829430103302
-0.31311744451522827 0.038759708404541016 0.16279065608978271
-0.3120144009590149 0.05426359176635742 -0.3643410801887512
-0.30409106612205505 0.05426359176635742 -0.317829430103302
-0.3096170425415039 0.06976747512817383 -0.3643410801887512
-0.3082003891468048 0.06976747512817383 0.08527135848999023
-0.30705025792121887 0.06976747512817383 0.1472867727279663
-0.30640316009521484 0.08527135848999023 -0.3643410801887512
-0.31491637229919434 0.08527135848999023 -0.30232560634613037
-0.3166128695011139 0.08527135848999023 0.06976747512817383
-0.3158135414123535 0.08527135848999023 0.1317828893661499
-0.30926892161369324 0.10077524185180664 -0.30232560634613037
-0.31115782260894775 0.10077524185180664 0.05426359176635742
-0.3053153157234192 0.11627912521362305 -0.30232560634613037
-0.30725812911987305 0.11627912521362305 0.02325582504272461
-0.31050628423690796 0.11627912521362305 0.11627912521362305
-0.315632700920105 0.1317828893661499 -0.3488371968269348
-0.30564722418785095 0.1317828893661499 -0.30232560634613037
-0.3176683783531189 0.1317828893661499 0.10077524185180664
-0.3079356551170349 0.1472867727279663 -0.3488371968269348
-0.3082427978515625 0.1472867727279663 -0.30232560634613037
-0.3082606792449951 0.16279065608978271 -0.30232560634613037
-0.30312854051589966 0.16279065608978271 0.08527135848999023
-0.31743124127388 0.17829453945159912 -0.3333333134651184
-0.30418190360069275 0.17829453945159912 -0.30232560634613037
-0.3168642520904541 0.17829453945159912 -0.05426359549164772
-0.3047892451286316 0.17829453945159912 0.06976747512817383
-0.30653250217437744 0.19379842281341553 -0.3333333134651184
-0.31426215171813965 0.19379840791225433 -0.28682172298431396
-0.3046815097332001 0.19379842281341553 0.05426359176635742
-0.31680747866630554 0.20930230617523193 -0.27131783962249756
-0.3040271997451782 0.20930230617523193 0.038759708404541016
-0.30245205760002136 0.22480618953704834 -0.317829430103302
-0.3033042848110199 0.22480618953704834 -0.27131783962249756
-0.31528106331825256 0.22480618953704834 -0.25581395626068115
-0.3054826855659485 0.22480618953704834 -0.06976741552352905
-0.3036050796508789 0.22480618953704834 0.02325582504272461
-0.31079262495040894 0.24031007289886475 -0.30232560634613037
-0.3036108613014221 0.24031007289886475 -0.25581395626068115
-0.3144916296005249 0.24031007289886475 -0.24031007289886475
-0.317065954208374 0.24031007289886475 -0.08527129888534546
-0.3037928640842438 0.24031007289886475 0.007751941680908203
-0.31477704644203186 0.25581395626068115 -0.28682172298431396
-0.3041360378265381 0.25581395626068115 -0.24031007289886475
-0.31312984228134155 0.25581395626068115 -0.22480618953704834
-0.30252236127853394 0.25581395626068115 -0.08527129888534546
-0.3037121593952179 0.25581395626068115 -0.007751941680908203
-0.30324089527130127 0.27131783962249756 -0.22480618953704834
-0.3098653554916382 0.27131783962249756 -0.20930230617523193
-0.3163889944553375 0.27131783962249756 -0.19379842281341553
-0.3141874670982361 0.27131783962249756 -0.11627906560897827
-0.30425018072128296 0.27131783962249756 -0.10077518224716187
-0.3048587739467621 0.27131783962249756 -0.02325582504272461
-0.30566754937171936 0.28682172298431396 -0.27131783962249756
-0.303446888923645 0.28682172298431396 -0.19379842281341553
-0.30583980679512024 0.28682172298431396 -0.1782945990562439
-0.307697057723999 0.28682172298431396 -0.1627907156944275
-0.307794451713562 0.28682172298431396 -0.14728683233261108
-0.3050989806652069 0.28682172298431396 -0.13178294897079468
-0.30590951442718506 0.28682172298431396 -0.038759708404541016
-0.3075302243232727 0.30232560634613037 -0.25581395626068115
-0.3062904179096222 0.30232560634613037 -0.05426359176635742
-0.3065856695175171 0.3178294897079468 -0.24031007289886475
-0.31571638584136963 0.3178294897079468 -0.22480618953704834
-0.3156411647796631 0.3178294897079468 -0.08527129888534546
-0.3033749759197235 0.3178294897079468 -0.06976741552352905
-0.302843302488327 0.3333333730697632 -0.22480618953704834
-0.30930960178375244 0.3333333730697632 -0.20930230617523193
-0.3143664002418518 0.3333333730697632 -0.19379842281341553
-0.31413811445236206 0.3333333432674408 -0.11627905815839767
-0.30741173028945923 0.3333333730697632 -0.10077518224716187
-0.302839457988739 0.3488372564315796 -0.1782945990562439
-0.30388563871383667 0.3488372564315796 -0.1627907156944275
-0.3035085201263428 0.3488372564315796 -0.14728683233261108
-0.28787216544151306 -0.4728682041168213 0.038759708404541016
-0.2893420159816742 -0.4728682041168213 0.05426359176635742
-0.2891266345977783 -0.4728682041168213 0.06976747512817383
-0.28837597370147705 -0.4728682041168213 0.08527135848999023
-0.2895072102546692 -0.4573643207550049 -0.02325582504272461
-0.2937384247779846 -0.4573643207550049 -0.007751941680908203
-0.2968313694000244 -0.4573643207550049 0.007751941680908203
-0.29886671900749207 -0.4573643207550049 0.02325582504272461
-0.3004300892353058 -0.4573643207550049 0.038759708404541016
-0.3013230264186859 -0.4573643207550049 0.05426359176635742
-0.3008902966976166 -0.4573642909526825 0.06976747512817383
-0.2999102473258972 -0.4573643207550049 0.08527135848999023
-0.29782184958457947 -0.4573643207550049 0.10077524185180664
-0.2953215539455414 -0.4573643207550049 0.11627912521362305
-0.29139289259910583 -0.4573643207550049 0.1317828893661499
-0.2878791391849518 -0.4573643207550049 0.1472867727279663
-0.2929583191871643 -0.4418604373931885 -0.06976741552352905
-0.29688572883605957 -0.4418604373931885 -0.05426359176635742
-0.299428254365921 -0.4418604373931885 -0.038759708404541016
-0.30208373069763184 -0.4418604373931885 -0.02325582504272461
-0.30168625712394714 -0.4418604373931885 0.1317828893661499
-0.2970750331878662 -0.4418604075908661 0.1472867727279663
-0.2925213873386383 -0.4418604373931885 0.16279065608978271
-0.2882865071296692 -0.4418604373931885 0.17829453945159912
-0.2886751890182495 -0.42635661363601685 -0.11627906560897827
-0.2962638735771179 -0.42635661363601685 -0.10077518224716187
-0.3006059527397156 -0.42635661363601685 -0.08527129888534546
-0.30219370126724243 -0.42635664343833923 0.16279065608978271
-0.29641932249069214 -0.42635661363601685 0.17829453945159912
-0.29196396470069885 -0.42635661363601685 0.19379842281341553
-0.28777921199798584 -0.42635661363601685 0.20930230617523193
-0.2959642708301544 -0.41085273027420044 -0.13178294897079468
-0.30173519253730774 -0.41085273027420044 -0.11627906560897827
-0.29970818758010864 -0.41085273027420044 0.19379842281341553
-0.2945603132247925 -0.41085273027420044 0.20930230617523193
-0.28983861207962036 -0.41085273027420044 0.22480618953704834
-0.2889907956123352 -0.39534884691238403 -0.1627907156944275
-0.2991638779640198 -0.39534884691238403 -0.14728683233261108
-0.3008634150028229 -0.39534884691238403 0.20930230617523193
-0.295204222202301 -0.39534884691238403 0.22480618953704834
-0.290036141872406 -0.39534884691238403 0.24031007289886475
-0.290018767118454 -0.3798449635505676 -0.1782945990562439
-0.30111441016197205 -0.37984499335289 -0.1627907156944275
-0.28888747096061707 -0.3798449635505676 0.007751941680908203
-0.29215165972709656 -0.3798449635505676 0.02325582504272461
-0.2925500273704529 -0.3798449635505676 0.038759708404541016
-0.29267656803131104 -0.3798449635505676 0.05426359176635742
-0.29075711965560913 -0.3798449635505676 0.06976747512817383
-0.2885536551475525 -0.3798449635505676 0.08527135848999023
-0.29956406354904175 -0.3798449635505676 0.22480618953704834
-0.2937714457511902 -0.3798449635505676 0.24031007289886475
-0.28757452964782715 -0.3798449635505676 0.25581395626068115
-0.2891494631767273 -0.3643410801887512 -0.19379842281341553
-0.3012922406196594 -0.36434105038642883 -0.1782945990562439
-0.2899167537689209 -0.3643410801887512 -0.038759708404541016
-0.29360491037368774 -0.3643410801887512 -0.02325582504272461
-0.29848968982696533 -0.3643410801887512 -0.007751941680908203
-0.30045968294143677 -0.3643410801887512 0.08527135848999023
-0.29365164041519165 -0.3643410801887512 0.10077524185180664
-0.2877236306667328 -0.3643410801887512 0.11627912521362305
-0.2965332567691803 -0.3643410801887512 0.24031007289886475
-0.2901791036128998 -0.3643410801887512 0.25581395626068115
-0.30025652050971985 -0.3488371968269348 -0.19379842281341553
-0.2898043692111969 -0.3488371968269348 -0.08527129888534546
-0.2959015965461731 -0.3488371968269348 -0.06976741552352905
-0.29553431272506714 -0.3488371968269348 0.11627912521362305
-0.2877771854400635 -0.3488371968269348 0.1317828893661499
-0.2995156943798065 -0.3488371968269348 0.24031007289886475
-0.29281309247016907 -0.3488371968269348 0.25581395626068115
-0.29892078042030334 -0.3333333134651184 -0.20930230617523193
-0.29519662261009216 -0.3333333134651184 -0.10077518224716187
-0.2937711179256439 -0.3333333134651184 0.1317828893661499
-0.295376718044281 -0.3333333134651184 0.25581395626068115
-0.2870948314666748 -0.3333333134651184 0.27131783962249756
-0.2987820506095886 -0.317829430103302 -0.22480620443820953
-0.2897208333015442 -0.317829430103302 -0.13178294897079468
-0.29853421449661255 -0.317829430103302 -0.11627906560897827
-0.301576167345047 -0.317829430103302 0.1317828893661499
-0.28987836837768555 -0.317829430103302 0.1472867727279663
-0.2988409698009491 -0.317829430103302 0.25581395626068115
-0.2910692095756531 -0.317829430103302 0.27131783962249756
-0.30052700638771057 -0.30232560634613037 -0.24031007289886475
-0.2913816273212433 -0.30232560634613037 -0.14728683233261108
-0.2971280515193939 -0.30232560634613037 0.1472867727279663
-0.2947045564651489 -0.30232560634613037 0.27131783962249756
-0.28803354501724243 -0.28682172298431396 -0.27131783962249756
-0.29044055938720703 -0.28682172298431396 -0.1627907156944275
-0.2895747125148773 -0.28682172298431396 0.16279065608978271
-0.2979394495487213 -0.28682172298431396 0.27131783962249756
-0.28834056854248047 -0.28682172298431396 0.28682172298431396
-0.2894197106361389 -0.27131783962249756 -0.1782945990562439
-0.2929922938346863 -0.27131783962249756 0.16279065608978271
-0.3014087975025177 -0.27131783962249756 0.27131783962249756
-0.2929762899875641 -0.27131783962249756 0.28682172298431396
-0.29181352257728577 -0.25581395626068115 -0.19379842281341553
-0.29667791724205017 -0.25581395626068115 0.16279065608978271
-0.2959586977958679 -0.25581395626068115 0.28682172298431396
-0.30070486664772034 -0.24031007289886475 -0.30232563614845276
-0.29552358388900757 -0.24031007289886475 -0.20930230617523193
-0.30199548602104187 -0.24031007289886475 0.16279065608978271
-0.2983017563819885 -0.24031007289886475 0.28682172298431396
-0.29665377736091614 -0.22480618953704834 -0.317829430103302
-0.29855960607528687 -0.22480617463588715 -0.22480617463588715
-0.2897071838378906 -0.22480618953704834 0.17829453945159912
-0.300197571516037 -0.22480618953704834 0.28682172298431396
-0.28928425908088684 -0.22480618953704834 0.30232560634613037
-0.29313287138938904 -0.20930230617523193 -0.3333333134651184
-0.2989514172077179 -0.20930230617523193 -0.24031005799770355
-0.2912333011627197 -0.20930230617523193 0.17829453945159912
-0.30116331577301025 -0.20930230617523193 0.28682172298431396
-0.2901250720024109 -0.20930230617523193 0.30232560634613037
-0.28725531697273254 -0.19379842281341553 -0.3488371968269348
-0.2993276119232178 -0.19379842281341553 -0.25581395626068115
-0.2936171889305115 -0.19379842281341553 0.17829453945159912
-0.3011963665485382 -0.19379843771457672 0.28682172298431396
-0.2892419099807739 -0.19379842281341553 0.30232560634613037
-0.30176541209220886 -0.1782945990562439 -0.3488371670246124
-0.29590505361557007 -0.1782945990562439 -0.27131783962249756
-0.29362452030181885 -0.1782945990562439 0.17829453945159912
-0.3002316355705261 -0.1782945990562439 0.28682172298431396
-0.2892179787158966 -0.1627907156944275 -0.3643410801887512
-0.2894391417503357 -0.1627907156944275 -0.28682172298431396
-0.29139402508735657 -0.1627907156944275 0.17829453945159912
-0.298292875289917 -0.1627907156944275 0.28682172298431396
-0.29627183079719543 -0.14728683233261108 -0.3643410801887512
-0.297071635723114 -0.14728683233261108 -0.28682172298431396
-0.30156585574150085 -0.1472868174314499 0.16279065608978271
-0.28936484456062317 -0.14728683233261108 0.17829453945159912
-0.29553383588790894 -0.14728683233261108 0.28682172298431396
-0.29944127798080444 -0.13178294897079468 -0.3643411099910736
-0.28718429803848267 -0.13178294897079468 -0.30232560634613037
-0.29915279150009155 -0.13178294897079468 0.16279065608978271
-0.29111939668655396 -0.13178294897079468 0.28682172298431396
-0.29981401562690735 -0.11627906560897827 -0.3643410801887512
-0.2916394770145416 -0.11627906560897827 -0.30232560634613037
-0.2956783175468445 -0.11627906560897827 0.16279065608978271
-0.3005886375904083 -0.11627906560897827 0.27131783962249756
-0.29938673973083496 -0.10077518224716187 -0.3643410801887512
-0.29481542110443115 -0.10077518224716187 -0.30232560634613037
-0.2880922257900238 -0.10077518224716187 0.16279065608978271
-0.29541558027267456 -0.10077518224716187 0.27131783962249756
-0.30023694038391113 -0.08527129888534546 -0.3643410801887512
-0.29940685629844666 -0.08527129888534546 -0.30232560634613037
-0.2950822114944458 -0.08527129888534546 0.1472867727279663
-0.28768742084503174 -0.08527129888534546 0.27131783962249756
-0.29660141468048096 -0.06976741552352905 0.25581395626068115
-0.29136526584625244 -0.05426359176635742 -0.317829430103302
-0.30101051926612854 -0.05426359176635742 0.1317828893661499
-0.2965395450592041 -0.038759708404541016 -0.317829430103302
-0.2944929301738739 -0.038759708404541016 0.24031007289886475
-0.29909297823905945 -0.02325582504272461 0.22480618953704834
-0.2923620939254761 -0.007751941680908203 0.11627912521362305
-0.2903737425804138 0.007751941680908203 0.20930230617523193
-0.2928481101989746 0.02325582504272461 0.19379842281341553
-0.2989475131034851 0.038759708404541016 0.10077524185180664
-0.2954559922218323 0.038759708404541016 0.17829453945159912
-0.28787222504615784 0.05426359176635742 0.10077524185180664
-0.29918330907821655 0.05426359176635742 0.16279065608978271
-0.30064502358436584 0.06976747512817383 -0.317829430103302
-0.2938801646232605 0.08527135848999023 -0.317829430103302
-0.2911142408847809 0.08527135848999023 0.08527135848999023
-0.29242026805877686 0.08527135848999023 0.1472867727279663
-0.3014160692691803 0.10077524930238724 -0.3643411099910736
-0.28809595108032227 0.10077524185180664 -0.317829430103302
-0.29627957940101624 0.10077524185180664 0.06976747512817383
-0.30144208669662476 0.10077524185180664 0.1317828893661499
-0.29436981678009033 0.11627912521362305 -0.3643410801887512
-0.2951691746711731 0.11627912521362305 0.038759708404541016
-0.2875547409057617 0.1317828893661499 -0.007751941680908203
-0.29364898800849915 0.1317828893661499 0.11627912521362305
-0.28838321566581726 0.1472867727279663 -0.02325582504272461
-0.2990310490131378 0.1472867727279663 0.10077524185180664
-0.2972338795661926 0.16279065608978271 -0.3488371968269348
-0.29449155926704407 0.16279065608978271 -0.038759708404541016
-0.2937355041503906 0.19379842281341553 -0.30232560634613037
-0.30023348331451416 0.19379842281341553 -0.05426359176635742
-0.2910340428352356 0.20930230617523193 -0.3333333134651184
-0.3018607497215271 0.20930230617523193 -0.28682172298431396
-0.2870762050151825 0.22480618953704834 -0.28682172298431396
-0.28944990038871765 0.24031007289886475 -0.27131783962249756
-0.29215705394744873 0.24031007289886475 -0.06976741552352905
-0.29473692178726196 0.25581395626068115 -0.30232560634613037
-0.29180315136909485 0.25581395626068115 -0.25581395626068115
-0.30045968294143677 0.27131783962249756 -0.28682172298431396
-0.2934635579586029 0.27131783962249756 -0.24031007289886475
-0.28975600004196167 0.27131783962249756 -0.08527129888534546
-0.287366658449173 0.28682172298431396 -0.28682172298431396
-0.2911674380302429 0.28682172298431396 -0.22480618953704834
-0.2981698513031006 0.28682172298431396 -0.20930230617523193
-0.29986923933029175 0.28682172298431396 -0.11627906560897827
-0.2903369069099426 0.28682172298431396 -0.10077518224716187
-0.29306477308273315 0.30232560634613037 -0.27131783962249756
-0.28948265314102173 0.30232560634613037 -0.19379842281341553
-0.29148349165916443 0.30232560634613037 -0.1782945990562439
-0.292819082736969 0.30232560634613037 -0.1627907156944275
-0.29251500964164734 0.30232560634613037 -0.14728683233261108
-0.28977471590042114 0.30232560634613037 -0.13178294897079468
-0.2869825065135956 0.30232560634613037 -0.038759708404541016
-0.2949034571647644 0.3178294897079468 -0.25581395626068115
-0.28757166862487793 0.3178294897079468 -0.05426359176635742
-0.29418089985847473 0.3333333730697632 -0.24031007289886475
-0.2987290322780609 0.3333333730697632 -0.08527129888534546
-0.2895548939704895 0.3488372564315796 -0.22480618953704834
-0.29518258571624756 0.3488372564315796 -0.20930230617523193
-0.2998667359352112 0.348837286233902 -0.19379842281341553
-0.3015834093093872 0.348837286233902 -0.13178294897079468
-0.29743993282318115 0.3488372564315796 -0.11627905815839767
-0.2906513214111328 0.3488372564315796 -0.10077518224716187
-0.2876318693161011 0.364341139793396 -0.1782945990562439
-0.2881912887096405 0.364341139793396 -0.1627907156944275
-0.2874003052711487 0.364341139793396 -0.14728683233261108
-0.2715832591056824 -0.4883720874786377 0.02325582504272461
-0.2743857502937317 -0.4883720874786377 0.038759708404541016
-0.27639463543891907 -0.4883720874786377 0.05426359176635742
-0.2765977382659912 -0.4883720874786377 0.06976747512817383
-0.2762213349342346 -0.4883720874786377 0.08527135848999023
-0.274433434009552 -0.4883720874786377 0.10077524185180664
-0.27200964093208313 -0.4883720874786377 0.11627912521362305
-0.2714768648147583 -0.4728682041168213 -0.038759708404541016
-0.27614063024520874 -0.4728682041168213 -0.02325582504272461
-0.2801463007926941 -0.4728682041168213 -0.007751941680908203
-0.28328245878219604 -0.4728682041168213 0.007751941680908203
-0.2858361601829529 -0.4728682041168213 0.02325582504272461
-0.2865113914012909 -0.4728682041168213 0.10077524185180664
-0.2840218245983124 -0.4728682041168213 0.11627912521362305
-0.2812301814556122 -0.4728682041168213 0.1317828893661499
-0.27763038873672485 -0.4728682041168213 0.1472867727279663
-0.2739357650279999 -0.4728682041168213 0.16279065608978271
-0.2721060812473297 -0.4573643207550049 -0.08527129888534546
-0.278853178024292 -0.4573643207550049 -0.06976741552352905
-0.28276482224464417 -0.4573643207550049 -0.05426359176635742
-0.28575843572616577 -0.45736435055732727 -0.038759708404541016
-0.28344646096229553 -0.45736435055732727 0.1627906709909439
-0.279410719871521 -0.4573643207550049 0.17829453945159912
-0.2754361629486084 -0.4573643207550049 0.19379842281341553
-0.2717927396297455 -0.4573643207550049 0.20930230617523193
-0.27300968766212463 -0.4418604373931885 -0.11627906560897827
-0.28143060207366943 -0.4418604373931885 -0.10077518224716187
-0.28676265478134155 -0.4418604373931885 -0.08527129888534546
-0.2839784324169159 -0.4418604373931885 0.19379842281341553
-0.2795473039150238 -0.4418604373931885 0.20930230617523193
-0.2757517397403717 -0.4418604373931885 0.22480618953704834
-0.27175450325012207 -0.4418604373931885 0.24031007289886475
-0.2807006537914276 -0.42635661363601685 -0.13178294897079468
-0.2833668887615204 -0.42635661363601685 0.22480618953704834
-0.2790810763835907 -0.42635661363601685 0.24031007289886475
-0.27439793944358826 -0.42635661363601685 0.25581395626068115
-0.27273842692375183 -0.41085273027420044 -0.1627907156944275
-0.285237580537796 -0.41085273027420044 -0.14728683233261108
-0.28547152876853943 -0.41085270047187805 0.24031007289886475
-0.2802303731441498 -0.41085273027420044 0.25581395626068115
-0.27506303787231445 -0.41085273027420044 0.27131783962249756
-0.27488216757774353 -0.39534884691238403 -0.1782945990562439
-0.2724389433860779 -0.39534884691238403 0.02325582504272461
-0.27469760179519653 -0.39534884691238403 0.038759708404541016
-0.27687937021255493 -0.39534884691238403 0.05426359176635742
-0.27606117725372314 -0.39534884691238403 0.06976747512817383
-0.2748541533946991 -0.39534884691238403 0.08527135848999023
-0.28495198488235474 -0.39534884691238403 0.25581395626068115
-0.2793334126472473 -0.39534884691238403 0.27131783962249756
-0.2726004719734192 -0.39534884691238403 0.28682172298431396
-0.2748856544494629 -0.3798449635505676 -0.19379842281341553
-0.27449601888656616 -0.3798449635505676 -0.02325582504272461
-0.2810918688774109 -0.3798449635505676 -0.007751941215246916
-0.28305765986442566 -0.37984499335289 0.10077524185180664
-0.2767276167869568 -0.3798449635505676 0.11627912521362305
-0.2814737856388092 -0.3798449635505676 0.27131783962249756
-0.2748599946498871 -0.3798449635505676 0.28682172298431396
-0.2726809084415436 -0.3643410801887512 -0.20930230617523193
-0.27150288224220276 -0.3643410801887512 -0.08527129888534546
-0.2769315838813782 -0.3643410801887512 -0.06976741552352905
-0.2856060862541199 -0.3643410801887512 -0.05426359176635742
-0.27887266874313354 -0.3643410801887512 0.1317828893661499
-0.2835962474346161 -0.3643410801887512 0.27131783962249756
-0.2766960859298706 -0.3643410801887512 0.28682172298431396
-0.28636154532432556 -0.3488371968269348 -0.20930230617523193
-0.2722713351249695 -0.3488371968269348 -0.11627906560897827
-0.2802999019622803 -0.3488371968269348 -0.10077518224716187
-0.2761095464229584 -0.3488371968269348 0.1472867727279663
-0.28512948751449585 -0.3488371968269348 0.27131783962249756
-0.2779824137687683 -0.3488371968269348 0.28682172298431396
-0.28497257828712463 -0.3333333134651184 -0.22480618953704834
-0.2774582803249359 -0.3333333134651184 -0.13178294897079468
-0.2867484390735626 -0.3333333134651184 -0.11627905815839767
-0.28316307067871094 -0.3333333134651184 0.1472867727279663
-0.2794928550720215 -0.3333333134651184 0.28682172298431396
-0.28501930832862854 -0.317829430103302 -0.24031007289886475
-0.2784236669540405 -0.317829430103302 -0.14728683233261108
-0.27615004777908325 -0.317829430103302 0.16279065608978271
-0.2818276286125183 -0.317829430103302 0.28682172298431396
-0.27187463641166687 -0.317829430103302 0.30232560634613037
-0.2864418625831604 -0.302325576543808 -0.25581395626068115
-0.277942031621933 -0.30232560634613037 -0.1627907156944275
-0.2838938534259796 -0.30232560634613037 0.16279065608978271
-0.28462451696395874 -0.30232560634613037 0.28682172298431396
-0.2754221558570862 -0.30232560634613037 0.30232560634613037
-0.2760407328605652 -0.28682172298431396 -0.1782945990562439
-0.27380287647247314 -0.28682172298431396 0.17829453945159912
-0.2788406312465668 -0.28682172298431396 0.30232560634613037
-0.2852494716644287 -0.27131783962249756 -0.28682172298431396
-0.27547308802604675 -0.27131783962249756 -0.19379842281341553
-0.2770138382911682 -0.27131783962249756 0.17829453945159912
-0.28143322467803955 -0.27131783962249756 0.30232560634613037
-0.27859270572662354 -0.25581395626068115 -0.30232560634613037
-0.2748163342475891 -0.25581395626068115 -0.20930230617523193
-0.2800055742263794 -0.25581395626068115 0.17829453945159912
-0.2841748595237732 -0.25581395626068115 0.30232560634613037
-0.27197110652923584 -0.25581395626068115 0.3178294897079468
-0.2769341766834259 -0.24031007289886475 -0.22480618953704834
-0.2853620946407318 -0.24031007289886475 0.17829453945159912
-0.2865370512008667 -0.24031007289886475 0.30232560634613037
-0.2753005623817444 -0.24031007289886475 0.3178294897079468
-0.27913951873779297 -0.22480618953704834 -0.24031007289886475
-0.27477017045021057 -0.22480618953704834 0.19379842281341553
-0.27726632356643677 -0.22480618953704834 0.3178294897079468
-0.2786681056022644 -0.20930230617523193 -0.25581395626068115
-0.2771489918231964 -0.20930230617523193 0.19379842281341553
-0.27735161781311035 -0.20930230617523193 0.3178294897079468
-0.2816188633441925 -0.19379842281341553 -0.27131783962249756
-0.28117215633392334 -0.19379842281341553 0.19379842281341553
-0.27583038806915283 -0.19379842281341553 0.3178294897079468
-0.2744349539279938 -0.1782945990562439 -0.3643410801887512
-0.2787281274795532 -0.1782945990562439 -0.28682172298431396
-0.28130263090133667 -0.1782945990562439 0.19379842281341553
-0.28657931089401245 -0.1782945990562439 0.30232560634613037
-0.2722545266151428 -0.1782945990562439 0.3178294897079468
-0.2764531373977661 -0.1627907156944275 0.19379842281341553
-0.28380846977233887 -0.1627907156944275 0.30232560634613037
-0.2793857455253601 -0.14728683233261108 -0.30232560634613037
-0.2804647982120514 -0.14728683233261108 0.30232560634613037
-0.28650206327438354 -0.13178294897079468 0.17829453945159912
-0.27524709701538086 -0.13178294897079468 0.30232560634613037
-0.2728303074836731 -0.11627906560897827 -0.3798449635505676
-0.2786036729812622 -0.11627906560897827 0.17829453945159912
-0.28463709354400635 -0.11627906560897827 0.28682172298431396
-0.27279460430145264 -0.10077518224716187 -0.3798449635505676
-0.2740573585033417 -0.10077518224716187 -0.317829430103302
-0.27873119711875916 -0.10077518224716187 0.28682172298431396
-0.2731662094593048 -0.08527129888534546 -0.3798449635505676
-0.2787858843803406 -0.08527129888534546 -0.317829430103302
-0.2742299735546112 -0.08527129888534546 0.16279065608978271
-0.2748326361179352 -0.06976741552352905 -0.3798449635505676
-0.2858579456806183 -0.06976741552352905 -0.317829430103302
-0.2816917300224304 -0.06976741552352905 0.1472867727279663
-0.27906349301338196 -0.06976741552352905 0.27131783962249756
-0.2770322263240814 -0.05426359176635742 -0.3798449635505676
-0.2748088538646698 -0.05426359176635742 0.1472867727279663
-0.28663578629493713 -0.05426359176635742 0.25581395626068115
-0.27913612127304077 -0.038759708404541016 -0.3798449635505676
-0.2736930847167969 -0.038759708404541016 -0.3333333134651184
-0.28420931100845337 -0.038759708404541016 0.1317828893661499
-0.2758473753929138 -0.038759708404541016 0.25581395626068115
-0.2809663414955139 -0.02325582504272461 -0.3798449635505676
-0.27796220779418945 -0.02325582504272461 -0.3333333134651184
-0.2736024260520935 -0.02325582504272461 0.1317828893661499
-0.28173011541366577 -0.02325582504272461 0.24031007289886475
-0.28268247842788696 -0.007751941680908203 -0.3798449635505676
-0.2818409204483032 -0.007751941680908203 -0.3333333134651184
-0.28612515330314636 -0.007751941680908203 0.22480618953704834
-0.2831144332885742 0.007751941680908203 -0.3798449635505676
-0.28478676080703735 0.007751941680908203 -0.3333333134651184
-0.28001171350479126 0.007751941680908203 0.11627912521362305
-0.2829711437225342 0.02325582318007946 -0.3798449635505676
-0.2847720682621002 0.02325582504272461 -0.3333333134651184
-0.27430635690689087 0.02325582504272461 0.20930230617523193
-0.28176629543304443 0.038759708404541016 -0.3798449635505676
-0.2836382985115051 0.038759708404541016 -0.3333333134651184
-0.27695924043655396 0.038759708404541016 0.19379842281341553
-0.2798876464366913 0.05426359176635742 -0.3798449635505676
-0.28179478645324707 0.05426359176635742 -0.3333333134651184
-0.2799578011035919 0.05426359176635742 0.17829453945159912
-0.2756779193878174 0.06976747512817383 -0.3798449635505676
-0.27670156955718994 0.06976747512817383 -0.3333333134651184
-0.2744385004043579 0.06976747512817383 0.10077524185180664
-0.28431573510169983 0.06976747512817383 0.16279065608978271
-0.2740806043148041 0.10077524185180664 0.08527135848999023
-0.2768514156341553 0.10077524185180664 0.1472867727279663
-0.2805168926715851 0.11627912521362305 -0.317829430103302
-0.2859058976173401 0.11627912521362305 0.05426359176635742
-0.2752965986728668 0.11627912521362305 0.06976747512817383
-0.2854646146297455 0.11627912521362305 0.1317828893661499
-0.2851325273513794 0.1317828893661499 -0.3643410801887512
-0.278659462928772 0.1317828893661499 -0.317829430103302
-0.27335241436958313 0.1317828893661499 0.007751941680908203
-0.27545806765556335 0.1472867727279663 -0.3643410801887512
-0.2820858955383301 0.1472867727279663 -0.317829430103302
-0.27484187483787537 0.1472867727279663 0.11627912521362305
-0.2825188934803009 0.16279065608978271 -0.317829430103302
-0.2795262932777405 0.16279065608978271 0.10077524185180664
-0.2864517569541931 0.17829453945159912 -0.3488371968269348
-0.2773052453994751 0.17829453945159912 -0.317829430103302
-0.275197297334671 0.17829453945159912 -0.038759708404541016
-0.2822127044200897 0.17829452455043793 0.08527135848999023
-0.2738269567489624 0.19379842281341553 -0.3488371968269348
-0.2825731337070465 0.19379842281341553 0.06976747512817383
-0.2794329524040222 0.20930230617523193 -0.30232560634613037
-0.2852281332015991 0.20930230617523193 -0.05426359176635742
-0.28160977363586426 0.20930229127407074 0.05426359176635742
-0.2741699814796448 0.22480618953704834 -0.3333333134651184
-0.27468740940093994 0.22480618953704834 -0.05426359176635742
-0.28150320053100586 0.22480618953704834 0.038759708404541016
-0.28487086296081543 0.24031007289886475 -0.317829430103302
-0.2716304361820221 0.24031007289886475 -0.28682172298431396
-0.2817581295967102 0.24031007289886475 0.02325582504272461
-0.2766493260860443 0.25581395626068115 -0.27131783962249756
-0.28075462579727173 0.25581395626068115 -0.06976741552352905
-0.28237834572792053 0.25581395626068115 0.007751941680908203
-0.27987968921661377 0.27131783962249756 -0.30232560634613037
-0.2816174626350403 0.27131783962249756 -0.25581395626068115
-0.28347375988960266 0.27131783962249756 -0.007751941680908203
-0.27136415243148804 0.28682172298431396 -0.25581395626068115
-0.28302276134490967 0.28682172298431396 -0.24031007289886475
-0.2769182622432709 0.28682172298431396 -0.08527129888534546
-0.2851141691207886 0.28682172298431396 -0.02325582504272461
-0.2751343250274658 0.30232560634613037 -0.28682172298431396
-0.27167534828186035 0.30232560634613037 -0.24031007289886475
-0.2790625989437103 0.30232560634613037 -0.22480618953704834
-0.28589165210723877 0.30232560634613037 -0.20930230617523193
-0.28510358929634094 0.30232560634613037 -0.11627906560897827
-0.27552878856658936 0.30232560634613037 -0.10077518224716187
-0.2804073393344879 0.3178294897079468 -0.27131783962249756
-0.27282553911209106 0.3178294897079468 -0.20930230617523193
-0.27591580152511597 0.3178294897079468 -0.19379842281341553
-0.2775436043739319 0.3178294897079468 -0.1782945990562439
-0.27855539321899414 0.3178294897079468 -0.1627907156944275
-0.2778468132019043 0.3178294897079468 -0.14728683233261108
-0.2748582661151886 0.3178294897079468 -0.13178294897079468
-0.28256848454475403 0.3333333730697632 -0.25581395626068115
-0.2855708599090576 0.3333333730697632 -0.06976741552352905
-0.2813267409801483 0.3488372564315796 -0.24031007289886475
-0.28071072697639465 0.3488372564315796 -0.08527129888534546
-0.27650976181030273 0.364341139793396 -0.22480618953704834
-0.28122398257255554 0.364341139793396 -0.20930230617523193
-0.28593137860298157 0.364341139793396 -0.19379842281341553
-0.2848924994468689 0.364341139793396 -0.13178294897079468
-0.2802618741989136 0.364341139793396 -0.11627905815839767
-0.27260443568229675 0.364341139793396 -0.10077518224716187
-0.2716647684574127 0.37984490394592285 -0.1782945990562439
-0.27166348695755005 0.37984490394592285 -0.1627907156944275
-0.256124347448349 -0.5038759708404541 0.02325582504272461
-0.2592642903327942 -0.5038759708404541 0.038759708404541016
-0.2617194354534149 -0.5038759708404541 0.05426359176635742
-0.26229384541511536 -0.5038759708404541 0.06976747512817383
-0.2622516453266144 -0.5038759708404541 0.08527135848999023
-0.26066872477531433 -0.5038759708404541 0.10077524185180664
-0.25841203331947327 -0.5038759708404541 0.11627912521362305
-0.2607027292251587 -0.4883720874786377 -0.02325582504272461
-0.26497209072113037 -0.4883720874786377 -0.007751941680908203
-0.268642395734787 -0.4883720874786377 0.007751941680908203
-0.2692619562149048 -0.4883720874786377 0.1317828893661499
-0.2660830616950989 -0.4883720874786377 0.1472867727279663
-0.26264265179634094 -0.4883720874786377 0.16279065608978271
-0.25924479961395264 -0.4883720874786377 0.17829453945159912
-0.2562248110771179 -0.4883720874786377 0.19379842281341553
-0.26306217908859253 -0.4728682041168213 -0.06976741552352905
-0.267981618642807 -0.4728682041168213 -0.05426359176635742
-0.2703218460083008 -0.4728682041168213 0.17829453945159912
-0.2659668028354645 -0.4728682041168213 0.19379842281341553
-0.26233357191085815 -0.4728682041168213 0.20930230617523193
-0.2588345408439636 -0.4728682041168213 0.22480618953704834
-0.2649151682853699 -0.4573643207550049 -0.10077518224716187
-0.26746517419815063 -0.4573643207550049 0.22480618953704834
-0.26378461718559265 -0.4573643207550049 0.24031007289886475
-0.2595788240432739 -0.4573643207550049 0.25581395626068115
-0.2620300054550171 -0.4418604373931885 -0.13178294897079468
-0.26677411794662476 -0.4418604373931885 0.25581395626068115
-0.26238882541656494 -0.4418604373931885 0.27131783962249756
-0.256384938955307 -0.4418604373931885 0.28682172298431396
-0.2681295871734619 -0.42635661363601685 -0.14728683233261108
-0.2690923511981964 -0.42635658383369446 0.27131783962249756
-0.2636629343032837 -0.42635661363601685 0.28682172298431396
-0.25653186440467834 -0.42635661363601685 0.30232560634613037
-0.2596050500869751 -0.41085273027420044 0.05426359176635742
-0.26121288537979126 -0.41085273027420044 0.06976747512817383
-0.2616592347621918 -0.41085273027420044 0.08527135848999023
-0.25826358795166016 -0.41085273027420044 0.10077524185180664
-0.2688450813293457 -0.41085270047187805 0.28682172298431396
-0.2623833417892456 -0.41085273027420044 0.30232560634613037
-0.2611623704433441 -0.39534884691238403 0.007751941680908203
-0.27118828892707825 -0.39534881711006165 0.10077524185180664
-0.26479846239089966 -0.39534884691238403 0.11627912521362305
-0.2577582597732544 -0.39534884691238403 0.1317828893661499
-0.26533573865890503 -0.39534884691238403 0.30232560634613037
-0.256866991519928 -0.39534884691238403 0.3178294897079468
-0.26494356989860535 -0.3798449635505676 -0.038759708404541016
-0.270170122385025 -0.3798449635505676 0.1317828893661499
-0.2593696117401123 -0.3798449635505676 0.1472867727279663
-0.26693886518478394 -0.37984499335289 0.30232560634613037
-0.2580653429031372 -0.3798449635505676 0.3178294897079468
-0.26056236028671265 -0.3643410801887512 -0.10077518224716187
-0.269228994846344 -0.3643410801887512 0.1472867727279663
-0.25597748160362244 -0.3643410801887512 0.16279065608978271
-0.26802849769592285 -0.3643410801887512 0.30232560634613037
-0.2585281431674957 -0.3643410801887512 0.3178294897079468
-0.26965823769569397 -0.3488371968269348 -0.22480617463588715
-0.2625192403793335 -0.3488371968269348 -0.13178294897079468
-0.26210638880729675 -0.3488371968269348 0.16279065608978271
-0.2685548961162567 -0.3488372266292572 0.30232560634613037
-0.25834810733795166 -0.3488371968269348 0.3178294897079468
-0.267992228269577 -0.3333333134651184 -0.24031007289886475
-0.2652457356452942 -0.3333333134651184 -0.14728683233261108
-0.2694685757160187 -0.3333333134651184 0.16279065608978271
-0.26964128017425537 -0.333333283662796 0.30232560634613037
-0.25913041830062866 -0.3333333134651184 0.3178294897079468
-0.26683250069618225 -0.317829430103302 -0.25581395626068115
-0.26259344816207886 -0.317829430103302 -0.1627907156944275
-0.25991711020469666 -0.317829430103302 0.17829453945159912
-0.26125937700271606 -0.317829430103302 0.3178294897079468
-0.26545950770378113 -0.30232560634613037 -0.27131783962249756
-0.2602316737174988 -0.30232560634613037 -0.1782945990562439
-0.2683684825897217 -0.30232560634613037 0.17829453945159912
-0.2634863555431366 -0.30232560634613037 0.3178294897079468
-0.2576754093170166 -0.28682172298431396 -0.28682172298431396
-0.2558296322822571 -0.28682172298431396 0.19379842281341553
-0.26607200503349304 -0.28682172298431396 0.3178294897079468
-0.2590225636959076 -0.27131783962249756 0.19379842281341553
-0.26896393299102783 -0.27131783962249756 0.3178294897079468
-0.26138201355934143 -0.25581395626068115 0.19379842281341553
-0.25866183638572693 -0.25581395626068115 0.3333333730697632
-0.268248975276947 -0.24031007289886475 0.19379842281341553
-0.2612153887748718 -0.24031007289886475 0.3333333730697632
-0.26254528760910034 -0.22480618953704834 0.3333333730697632
-0.26211556792259216 -0.20930230617523193 0.3333333730697632
-0.2598903179168701 -0.19379842281341553 0.3333333730697632
-0.26954999566078186 -0.1627907156944275 -0.30232560634613037
-0.26812827587127686 -0.1627907156944275 0.3178294897079468
-0.2654988467693329 -0.14728683233261108 -0.3798449635505676
-0.26417943835258484 -0.14728683233261108 0.19379842281341553
-0.2639949917793274 -0.14728683233261108 0.3178294897079468
-0.270896315574646 -0.13178294897079468 -0.3798449635505676
-0.25667670369148254 -0.13178294897079468 -0.317829430103302
-0.25669556856155396 -0.13178294897079468 0.3178294897079468
-0.26918143033981323 -0.11627905815839767 -0.317829430103302
-0.26791393756866455 -0.11627906560897827 0.30232560634613037
-0.26060909032821655 -0.10077518224716187 0.30232560634613037
-0.26957136392593384 -0.08527130633592606 0.28682175278663635
-0.26644667983055115 -0.06976741552352905 0.16279065608978271
-0.25984856486320496 -0.06976741552352905 0.28682172298431396
-0.26647090911865234 -0.05426358804106712 -0.3333333134651184
-0.26277419924736023 -0.05426359176635742 0.16279065608978271
-0.267752468585968 -0.05426359176635742 0.27131783962249756
-0.26669278740882874 -0.038759708404541016 0.1472867727279663
-0.25624412298202515 -0.02325582504272461 0.1472867727279663
-0.2608299255371094 -0.02325582504272461 0.25581395626068115
-0.25925227999687195 -0.007751941680908203 0.1317828893661499
-0.26662635803222656 -0.007751941680908203 0.24031007289886475
-0.27101895213127136 0.007751941680908203 0.22480618953704834
-0.26510369777679443 0.02325582504272461 0.11627911776304245
-0.25892436504364014 0.05426359176635742 0.19379842281341553
-0.2628944218158722 0.06976747512817383 0.17829453945159912
-0.26974135637283325 0.08527135848999023 -0.3798449635505676
-0.2687022387981415 0.08527135848999023 -0.3333333134651184
-0.2573506534099579 0.08527135848999023 0.10077524185180664
-0.2681976854801178 0.08527135848999023 0.16279065608978271
-0.26153600215911865 0.10077524185180664 -0.3798449635505676
-0.2590721845626831 0.11627912521362305 0.1472867727279663
-0.2701684832572937 0.1317828893661499 0.02325582690536976
-0.2662122845649719 0.1317828893661499 0.038759708404541016
-0.2610330581665039 0.1317828893661499 0.05426359176635742
-0.2673394978046417 0.1317828893661499 0.1317828893661499
-0.26188206672668457 0.16279065608978271 -0.3643410801887512
-0.26169055700302124 0.16279065608978271 -0.02325582504272461
-0.25665128231048584 0.17829453945159912 0.10077524185180664
-0.26537445187568665 0.19379842281341553 -0.317829430103302
-0.2597123682498932 0.19379842281341553 -0.038759708404541016
-0.25902634859085083 0.19379842281341553 0.08527135848999023
-0.25809088349342346 0.20930230617523193 0.06976747512817383
-0.2604968845844269 0.22480618953704834 -0.30232560634613037
-0.25796541571617126 0.22480618953704834 0.05426359176635742
-0.26200976967811584 0.24031007289886475 -0.05426359176635742
-0.258583664894104 0.24031007289886475 0.038759708404541016
-0.26860642433166504 0.25581395626068115 -0.317829430103302
-0.2589073181152344 0.25581395626068115 0.02325582504272461
-0.2647947371006012 0.27131783962249756 -0.27131783962249756
-0.2708311676979065 0.27131783962249756 -0.06976740807294846
-0.26009875535964966 0.27131783962249756 0.007751941680908203
-0.265342116355896 0.28682172298431396 -0.30232560634613037
-0.26063457131385803 0.28682172298431396 -0.007751941680908203
-0.25683969259262085 0.30232560634613037 -0.25581395626068115
-0.25933152437210083 0.30232560634613037 -0.08527129888534546
-0.26221397519111633 0.30232560634613037 -0.02325582504272461
-0.26224973797798157 0.3178294897079468 -0.28682172298431396
-0.257233202457428 0.3178294897079468 -0.24031007289886475
-0.2663795053958893 0.3178294897079468 -0.22480617463588715
-0.2702913284301758 0.3178294897079468 -0.11627906560897827
-0.2580318748950958 0.3178294897079468 -0.10077518224716187
-0.2641357183456421 0.3178294897079468 -0.038759708404541016
-0.2684687376022339 0.3333333730697632 -0.27131783962249756
-0.25710463523864746 0.3333333730697632 -0.20930230617523193
-0.26011496782302856 0.3333333730697632 -0.19379842281341553
-0.2614903450012207 0.3333333730697632 -0.1782945990562439
-0.26237982511520386 0.3333333730697632 -0.1627907156944275
-0.2613011598587036 0.3333333730697632 -0.14728683233261108
-0.25769948959350586 0.3333333730697632 -0.13178294897079468
-0.26586341857910156 0.3333333730697632 -0.05426359176635742
-0.2570394277572632 0.3488372564315796 -0.27131783962249756
-0.27069610357284546 0.3488372564315796 -0.25581395626068115
-0.26405489444732666 0.3488372564315796 -0.06976741552352905
-0.25887683033943176 0.364341139793396 -0.25581395626068115
-0.26929476857185364 0.364341139793396 -0.24031005799770355
-0.25892820954322815 0.364341139793396 -0.08527129888534546
-0.25740641355514526 0.37984490394592285 -0.24031007289886475
-0.26308494806289673 0.37984490394592285 -0.22480618953704834
-0.2667121887207031 0.37984490394592285 -0.20930230617523193
-0.2706925570964813 0.37984490394592285 -0.19379842281341553
-0.26972487568855286 0.37984490394592285 -0.14728684723377228
-0.2659100890159607 0.37984490394592285 -0.13178294897079468
-0.26023057103157043 0.37984490394592285 -0.11627906560897827
-0.24198965728282928 -0.5193798542022705 0.038759708404541016
-0.24473020434379578 -0.5193798542022705 0.05426359176635742
-0.24565914273262024 -0.5193798542022705 0.06976747512817383
-0.24596408009529114 -0.5193798542022705 0.08527135848999023
-0.24471154808998108 -0.5193798542022705 0.10077524185180664
-0.24266205728054047 -0.5193798542022705 0.11627912521362305
-0.24379488825798035 -0.5038759708404541 -0.02325582504272461
-0.248826265335083 -0.5038759708404541 -0.007751941680908203
-0.25291314721107483 -0.5038759708404541 0.007751941680908203
-0.255673348903656 -0.5038759708404541 0.1317828744649887
-0.25252705812454224 -0.5038759708404541 0.1472867727279663
-0.24935394525527954 -0.5038759708404541 0.16279065608978271
-0.24607698619365692 -0.5038759708404541 0.17829453945159912
-0.24343246221542358 -0.5038759708404541 0.19379842281341553
-0.2451459765434265 -0.4883720874786377 -0.06976741552352905
-0.25155532360076904 -0.4883720874786377 -0.05426359176635742
-0.2556242048740387 -0.4883720874786377 -0.038759708404541016
-0.25178125500679016 -0.4883720874786377 0.20930230617523193
-0.2484380453824997 -0.4883720874786377 0.22480618953704834
-0.244680255651474 -0.4883720874786377 0.24031007289886475
-0.24608570337295532 -0.4728682041168213 -0.10077518224716187
-0.2552372217178345 -0.4728682041168213 -0.08527129888534546
-0.2549225389957428 -0.4728681743144989 0.24031007289886475
-0.25005078315734863 -0.4728682041168213 0.25581395626068115
-0.24538402259349823 -0.4728682041168213 0.27131783962249756
-0.2541206479072571 -0.4573643207550049 -0.11627906560897827
-0.254237562417984 -0.4573642909526825 0.27131783962249756
-0.24856476485729218 -0.4573643207550049 0.28682172298431396
-0.241427943110466 -0.4573643207550049 0.30232560634613037
-0.24587735533714294 -0.4418604373931885 -0.14728683233261108
-0.24145688116550446 -0.4418604373931885 0.08527135848999023
-0.24937918782234192 -0.4418604373931885 0.30232560634613037
-0.24148154258728027 -0.4418604373931885 0.3178294897079468
-0.2506677210330963 -0.42635661363601685 -0.1627907156944275
-0.24571645259857178 -0.42635661363601685 0.05426359176635742
-0.24876445531845093 -0.42635661363601685 0.06976747512817383
-0.25034719705581665 -0.42635661363601685 0.08527135848999023
-0.24739126861095428 -0.42635661363601685 0.10077524185180664
-0.2433200180530548 -0.42635661363601685 0.11627912521362305
-0.2487354278564453 -0.42635661363601685 0.3178294897079468
-0.2530257999897003 -0.41085273027420044 -0.1782945990562439
-0.2470579743385315 -0.41085273027420044 0.02325582504272461
-0.25360485911369324 -0.41085273027420044 0.038759708404541016
-0.25394243001937866 -0.41085273027420044 0.11627911776304245
-0.24674896895885468 -0.41085273027420044 0.1317828893661499
-0.25388622283935547 -0.41085273027420044 0.3178294897079468
