0.7674418687820435 0.09026984870433807 0.1317828893661499
0.7674418687820435 0.15341545641422272 0.10077524185180664
0.7674418687820435 0.1968434751033783 0.11627912521362305
0.7674418687820435 0.22019857168197632 0.08527135848999023
0.7674418687820435 0.22816714644432068 0.10077524185180664
0.7674418687820435 0.24321706593036652 0.08527135848999023
0.7829457521438599 0.07696577161550522 0.11627912521362305
0.7829457521438599 0.16636556386947632 0.10077524185180664
0.7829457521438599 0.2003224790096283 0.11627911776304245
0.7829457521438599 0.22912892699241638 0.08527135848999023
0.7829457521438599 0.23116791248321533 0.10077524185180664
0.7829457521438599 0.24360030889511108 0.08527135848999023
0.7984496355056763 0.08159948885440826 0.11627912521362305
0.7984496355056763 0.17350435256958008 0.10077524185180664
0.7984496355056763 0.20508582890033722 0.11627912521362305
0.7984496355056763 0.2332857847213745 0.08527135848999023
0.7984496355056763 0.23788298666477203 0.10077524185180664
0.7984496355056763 0.24391555786132812 0.08527135103940964
0.8139535188674927 0.09081825613975525 0.11627912521362305
0.8139535188674927 0.18108956515789032 0.10077524185180664
0.8139535188674927 0.20978187024593353 0.11627912521362305
0.8139535188674927 0.2335224449634552 0.08527135848999023
0.8139535188674927 0.2536849081516266 0.08527135848999023
0.8139535784721375 0.2417224794626236 0.10077524185180664
0.8294574022293091 0.09866990149021149 0.11627912521362305
0.8294574022293091 0.18228645622730255 0.10077523440122604
0.8294574022293091 0.21182233095169067 0.11627912521362305
0.8294574022293091 0.2311302125453949 0.08527135848999023
0.8294574022293091 0.24383027851581573 0.10077524185180664
0.8294574618339539 0.25691571831703186 0.08527135848999023
0.8449612855911255 0.11605394631624222 0.10077524185180664
0.8449612855911255 0.10531593859195709 0.11627911776304245
0.8449612855911255 0.2122725397348404 0.11627912521362305
0.8449612855911255 0.22927924990653992 0.08527135848999023
0.8449612855911255 0.24587494134902954 0.10077524185180664
0.8449612855911255 0.25697219371795654 0.08527135848999023
0.8604651689529419 0.11594989895820618 0.10077524185180664
0.8604651689529419 0.1132657378911972 0.11627912521362305
0.8604651689529419 0.21274054050445557 0.11627912521362305
0.8604651689529419 0.23244568705558777 0.08527135848999023
0.8604651689529419 0.24768692255020142 0.10077524185180664
0.8604651689529419 0.2571122944355011 0.08527135848999023
0.8759689331054688 0.12262160331010818 0.10077524185180664
0.8759689331054688 0.1284462809562683 0.11627912521362305
0.8759689331054688 0.21376842260360718 0.11627912521362305
0.8759689331054688 0.24486044049263 0.08527135848999023
0.8759689331054688 0.24980178475379944 0.10077524185180664
0.8759689331054688 0.2580401301383972 0.08527135848999023
0.8914728164672852 0.14685498178005219 0.11627912521362305
0.8914728164672852 0.15426501631736755 0.10077524185180664
0.8914728164672852 0.18284352123737335 0.10077524185180664
0.8914728164672852 0.20864857733249664 0.11627912521362305
0.8914728164672852 0.20956404507160187 0.10077524930238724
0.8914728164672852 0.2509404718875885 0.08527135848999023
0.8914728164672852 0.2526496350765228 0.10077524185180664
0.8914728164672852 0.26325005292892456 0.08527135848999023
0.9069766998291016 0.16097800433635712 0.10077524185180664
0.9069766998291016 0.1599223017692566 0.11627912521362305
0.9069766998291016 0.17987734079360962 0.10077524185180664
0.9069766998291016 0.18845315277576447 0.11627912521362305
0.9069766998291016 0.23461461067199707 0.10077524185180664
0.9069766998291016 0.2539041042327881 0.08527135848999023
0.9069766998291016 0.25255006551742554 0.10077524185180664
0.9069766998291016 0.26295197010040283 0.08527135848999023
0.922480583190918 0.16001442074775696 0.10077524185180664
0.922480583190918 0.16514350473880768 0.11627912521362305
0.922480583190918 0.18336054682731628 0.10077524185180664
0.922480583190918 0.18579508364200592 0.11627912521362305
0.9379844665527344 0.16068419814109802 0.10077524185180664
0.9379844665527344 0.19496044516563416 0.10077524185180664
0.9534883499145508 0.17451709508895874 0.10077524185180664
0.9534883499145508 0.19494354724884033 0.10077524185180664
-0.9689922332763672 0.24031007289886475 0.08426939696073532
-0.9689922332763672 0.24031007289886475 0.09135915338993073
-0.9379844665527344 0.16279065608978271 0.10055220872163773
-0.9379845261573792 0.16279065608978271 0.10107028484344482
-0.9379844665527344 0.17829453945159912 0.09659004211425781
-0.9379844665527344 0.17829453945159912 0.10732192546129227
-0.9224806427955627 0.16279065608978271 0.09938596189022064
-0.9224806427955627 0.16279065608978271 0.10575444251298904
-0.9224806427955627 0.17829453945159912 0.09845137596130371
-0.9224806427955627 0.17829453945159912 0.11572565138339996
-0.9069767594337463 0.16279065608978271 0.09984525293111801
-0.9069767594337463 0.16279065608978271 0.11485788226127625
-0.9069767594337463 0.17829453945159912 0.09970427304506302
-0.9069767594337463 0.17829453945159912 0.1169956773519516
-0.9069767594337463 0.25581395626068115 0.08517467230558395
-0.9069767594337463 0.25581395626068115 0.08715340495109558
-0.8914728760719299 0.16279065608978271 0.10002202540636063
-0.8914728760719299 0.1627906709909439 0.11738801002502441
-0.8914728760719299 0.17829453945159912 0.10490109026432037
-0.8914728760719299 0.17829453945159912 0.11725743860006332
-0.8914728760719299 0.24031007289886475 0.0993289202451706
-0.8914728760719299 0.24031007289886475 0.1022670716047287
-0.8914728760719299 0.25581395626068115 0.0846056118607521
-0.8914728760719299 0.25581395626068115 0.09343885630369186
-0.8759689927101135 0.1472867727279663 0.10065516084432602
-0.8759689927101135 0.1472867727279663 0.1174207404255867
-0.8759689927101135 0.16279065608978271 0.10007911920547485
-0.8759689927101135 0.1627906709909439 0.11764342337846756
-0.8759689927101135 0.17829453945159912 0.10112574696540833
-0.8759689927101135 0.17829453945159912 0.11749532073736191
-0.8759689927101135 0.19379842281341553 0.10983872413635254
-0.8759689927101135 0.19379842281341553 0.11703784018754959
-0.8759689927101135 0.20930230617523193 0.09947391599416733
-0.8759689927101135 0.20930230617523193 0.11632020026445389
-0.8759689927101135 0.22480618953704834 0.09805186092853546
-0.8759690523147583 0.22480618953704834 0.10799112915992737
-0.8759689331054688 0.24031007289886475 0.09847678244113922
-0.8759689927101135 0.24031007289886475 0.10327066481113434
-0.8604651093482971 0.1317828893661499 0.10023441910743713
-0.8604651093482971 0.1317828893661499 0.11766906827688217
-0.8604651093482971 0.1472867727279663 0.10034485161304474
-0.8604651093482971 0.1472867727279663 0.11778858304023743
-0.8604650497436523 0.16279065608978271 0.09981279075145721
-0.8604651093482971 0.16279065608978271 0.11784768849611282
-0.8604651093482971 0.17829453945159912 0.10000980645418167
-0.8604651093482971 0.17829453945159912 0.1176900863647461
-0.8604651093482971 0.19379842281341553 0.10008213669061661
-0.8604651093482971 0.19379843771457672 0.11738555133342743
-0.8604651093482971 0.20930230617523193 0.0980779305100441
-0.8604651093482971 0.20930232107639313 0.11675351858139038
-0.8604651689529419 0.22480618953704834 0.09631534665822983
-0.8604651093482971 0.22480618953704834 0.11061353981494904
-0.8604650497436523 0.24031007289886475 0.09707949310541153
-0.8604651093482971 0.24031007289886475 0.10399213433265686
-0.8449611663818359 0.11627912521362305 0.10615189373493195
-0.8449612259864807 0.11627912521362305 0.11816783994436264
-0.8449612259864807 0.1317828893661499 0.10072381049394608
-0.8449612259864807 0.1317828893661499 0.11806891858577728
-0.8449612259864807 0.1472867727279663 0.10209890455007553
-0.8449612259864807 0.1472867727279663 0.11820361018180847
-0.8449612259864807 0.16279065608978271 0.10051082819700241
-0.8449612259864807 0.16279065608978271 0.11828377842903137
-0.8449612259864807 0.17829453945159912 0.10053953528404236
-0.8449612259864807 0.17829453945159912 0.11807642877101898
-0.8449612259864807 0.19379842281341553 0.10015184432268143
-0.8449612855911255 0.19379843771457672 0.11768322438001633
-0.8449612259864807 0.20930230617523193 0.0976417139172554
-0.8449612259864807 0.20930230617523193 0.11690857261419296
-0.8449612259864807 0.22480618953704834 0.09515467286109924
-0.8449612855911255 0.22480618953704834 0.11179720610380173
-0.8449612855911255 0.24031007289886475 0.09541930258274078
-0.8449612855911255 0.24031008780002594 0.1043601930141449
-0.8294573426246643 0.10077524185180664 0.11609836667776108
-0.8294573426246643 0.10077524185180664 0.11640665680170059
-0.8294573426246643 0.11627912521362305 0.10981033742427826
-0.8294573426246643 0.11627912521362305 0.11882655322551727
-0.8294574022293091 0.1317828893661499 0.1077623963356018
-0.8294573426246643 0.1317828893661499 0.11887063831090927
-0.8294574022293091 0.1472867727279663 0.10809750854969025
-0.8294573426246643 0.1472867727279663 0.11896278709173203
-0.8294572830200195 0.16279065608978271 0.10548065602779388
-0.8294574022293091 0.16279065608978271 0.11904517561197281
-0.8294572830200195 0.17829453945159912 0.10351642221212387
-0.8294573426246643 0.17829453945159912 0.11872928589582443
-0.8294573426246643 0.19379842281341553 0.10010785609483719
-0.8294573426246643 0.19379842281341553 0.11802534013986588
-0.8294574022293091 0.20930230617523193 0.09761393070220947
-0.8294573426246643 0.20930230617523193 0.1170460656285286
-0.8294574022293091 0.22480618953704834 0.09484301507472992
-0.8294572830200195 0.22480618953704834 0.11235830187797546
-0.8294572830200195 0.24031007289886475 0.09279210865497589
-0.8294573426246643 0.24031007289886475 0.10436641424894333
-0.8139535188674927 0.10077524185180664 0.11407645046710968
-0.8139535188674927 0.10077524185180664 0.1197652518749237
-0.8139535188674927 0.11627912521362305 0.11177217960357666
-0.8139535188674927 0.11627912521362305 0.11996526271104813
-0.8139535188674927 0.1317828893661499 0.11070342361927032
-0.8139535188674927 0.1317828893661499 0.1199118122458458
-0.8139535188674927 0.1472867727279663 0.11008363962173462
-0.8139535188674927 0.1472867727279663 0.12014544755220413
-0.8139535188674927 0.16279065608978271 0.10675501823425293
-0.8139535188674927 0.16279065608978271 0.12022224068641663
-0.8139535188674927 0.17829453945159912 0.10152484476566315
-0.8139535188674927 0.17829453945159912 0.1195005252957344
-0.8139535188674927 0.19379842281341553 0.099612295627594
-0.8139535188674927 0.19379842281341553 0.11821628361940384
-0.8139535188674927 0.20930230617523193 0.09796203672885895
-0.8139535188674927 0.20930229127407074 0.11701410263776779
-0.8139535188674927 0.22480618953704834 0.09614037722349167
-0.8139535188674927 0.22480618953704834 0.1117139682173729
-0.8139535188674927 0.24031007289886475 0.09390722215175629
-0.8139535188674927 0.24031007289886475 0.10362173616886139
-0.7984496355056763 0.08527135848999023 0.11549082398414612
-0.7984496355056763 0.08527135848999023 0.11873133480548859
-0.7984496355056763 0.10077524185180664 0.113514743745327
-0.7984496355056763 0.10077524185180664 0.12244390696287155
-0.7984496355056763 0.11627912521362305 0.11243345588445663
-0.7984496355056763 0.11627912521362305 0.12144699692726135
-0.7984496355056763 0.1317828893661499 0.11119391024112701
-0.7984496355056763 0.1317828893661499 0.12152606248855591
-0.7984496355056763 0.1472867727279663 0.10948975384235382
-0.7984496355056763 0.1472867727279663 0.12160420417785645
-0.7984496355056763 0.16279065608978271 0.10562247037887573
-0.7984496355056763 0.16279065608978271 0.12138080596923828
-0.7984496355056763 0.17829453945159912 0.1003274917602539
-0.7984496355056763 0.17829453945159912 0.12010897696018219
-0.7984496355056763 0.19379842281341553 0.09901832789182663
-0.7984496355056763 0.19379842281341553 0.11830439418554306
-0.7984496355056763 0.20930230617523193 0.09777580201625824
-0.798449695110321 0.20930230617523193 0.11693378537893295
-0.7984496355056763 0.22480618953704834 0.09658480435609818
-0.7984496355056763 0.22480618953704834 0.11043056845664978
-0.7984496355056763 0.24031007289886475 0.09625249356031418
-0.7984496355056763 0.24031007289886475 0.10255484282970428
-0.7829457521438599 0.08527135848999023 0.11438219249248505
-0.7829457521438599 0.08527135848999023 0.12523899972438812
-0.7829457521438599 0.10077524185180664 0.11349701881408691
-0.7829457521438599 0.10077524185180664 0.12431803345680237
-0.7829457521438599 0.11627912521362305 0.11209161579608917
-0.7829457521438599 0.11627912521362305 0.12421491742134094
-0.7829457521438599 0.1317828893661499 0.11010514944791794
-0.7829457521438599 0.1317828893661499 0.12391426414251328
-0.7829457521438599 0.1472867727279663 0.1072831004858017
-0.7829457521438599 0.1472867727279663 0.12319159507751465
-0.7829457521438599 0.16279065608978271 0.1014237105846405
-0.7829457521438599 0.16279065608978271 0.12223479151725769
-0.7829457521438599 0.17829453945159912 0.09961153566837311
-0.7829457521438599 0.17829453945159912 0.12039719521999359
-0.7829457521438599 0.19379842281341553 0.09842529892921448
-0.7829456925392151 0.19379842281341553 0.11829191446304321
-0.7829457521438599 0.20930230617523193 0.09720611572265625
-0.7829457521438599 0.20930230617523193 0.11680683493614197
-0.7829457521438599 0.22480618953704834 0.09557673335075378
-0.7829457521438599 0.22480618953704834 0.10882768034934998
-0.7829457521438599 0.24031007289886475 0.09744207561016083
-0.7829457521438599 0.24031007289886475 0.10107149183750153
-0.7674418687820435 0.08527135848999023 0.114694744348526
-0.7674418687820435 0.08527135848999023 0.12894022464752197
-0.7674418687820435 0.10077524185180664 0.11338496953248978
-0.7674418687820435 0.10077524185180664 0.12797124683856964
-0.7674418687820435 0.11627912521362305 0.11139298975467682
-0.7674418687820435 0.11627912521362305 0.12771926820278168
-0.7674418687820435 0.1317828893661499 0.10856874287128448
-0.7674418687820435 0.1317828893661499 0.12635986506938934
-0.7674418687820435 0.1472867727279663 0.1036638543009758
-0.7674418687820435 0.1472867727279663 0.12449001520872116
-0.7674418687820435 0.16279065608978271 0.09999876469373703
-0.7674418687820435 0.16279065608978271 0.12267384678125381
-0.7674418687820435 0.17829453945159912 0.0986725389957428
-0.7674418687820435 0.17829453945159912 0.12043844908475876
-0.7674418687820435 0.19379842281341553 0.09752309322357178
-0.7674418687820435 0.19379842281341553 0.11817840486764908
-0.7674418687820435 0.20930230617523193 0.09600148350000381
-0.7674418687820435 0.20930230617523193 0.11661582440137863
-0.7674418687820435 0.22480618953704834 0.09213405102491379
-0.7674418687820435 0.22480618953704834 0.10740780830383301
-0.7674418687820435 0.24031007289886475 0.08415386080741882
-0.7674418687820435 0.24031007289886475 0.09518711268901825
-0.751937985420227 0.06976747512817383 0.1206178218126297
-0.751937985420227 0.06976747512817383 0.13211245834827423
-0.751937985420227 0.08527135848999023 0.11494448035955429
-0.751937985420227 0.08527135848999023 0.13187894225120544
-0.751937985420227 0.10077524185180664 0.1133532002568245
-0.751937985420227 0.10077524185180664 0.13158412277698517
-0.751937985420227 0.11627912521362305 0.11092415452003479
-0.751937985420227 0.11627912521362305 0.13023626804351807
-0.751937985420227 0.1317828893661499 0.1071254163980484
-0.751937985420227 0.1317828893661499 0.12784819304943085
-0.751937985420227 0.1472867727279663 0.10039150714874268
-0.751937985420227 0.1472867727279663 0.12503765523433685
-0.751937985420227 0.16279065608978271 0.09895524382591248
-0.751937985420227 0.16279065608978271 0.12268056720495224
-0.751937985420227 0.17829453945159912 0.09746159613132477
-0.751937985420227 0.17829453945159912 0.12027681618928909
-0.751937985420227 0.19379842281341553 0.09601849317550659
-0.751937985420227 0.19379842281341553 0.11800795793533325
-0.751937985420227 0.20930230617523193 0.09289131313562393
-0.751937985420227 0.20930230617523193 0.11645975708961487
-0.751937985420227 0.22480618953704834 0.08452366292476654
-0.751937985420227 0.22480618953704834 0.10628681629896164
-0.751937985420227 0.24031007289886475 0.08214238286018372
-0.751937985420227 0.24031007289886475 0.09395496547222137
-0.7364341020584106 0.06976747512817383 0.12216654419898987
-0.7364341020584106 0.06976747512817383 0.13224810361862183
-0.7364341020584106 0.08527135848999023 0.11524756252765656
-0.7364341616630554 0.08527136594057083 0.13197825849056244
-0.7364341020584106 0.10077524185180664 0.11342811584472656
-0.7364341020584106 0.10077524185180664 0.1318650245666504
-0.7364341020584106 0.11627912521362305 0.10975386202335358
-0.7364341020584106 0.11627912521362305 0.13100667297840118
-0.7364340424537659 0.1317828893661499 0.10438274592161179
-0.7364341020584106 0.1317828893661499 0.12817031145095825
-0.7364341020584106 0.1472867727279663 0.09961860626935959
-0.7364341020584106 0.1472867727279663 0.12510669231414795
-0.7364341020584106 0.16279065608978271 0.09783601760864258
-0.7364341020584106 0.16279065608978271 0.12248837202787399
-0.7364341020584106 0.17829453945159912 0.09602437913417816
-0.7364340424537659 0.17829453945159912 0.1200464516878128
-0.7364341020584106 0.19379842281341553 0.09335190057754517
-0.7364341020584106 0.19379842281341553 0.117820143699646
-0.7364341020584106 0.20930230617523193 0.08512858301401138
-0.7364341020584106 0.20930230617523193 0.11632522940635681
-0.7364341020584106 0.22480618953704834 0.08319514244794846
-0.7364341020584106 0.22480618953704834 0.10536109656095505
-0.7364341020584106 0.24031007289886475 0.0694950744509697
-0.7364341020584106 0.24031007289886475 0.0917510837316513
-0.7364341020584106 0.25581395626068115 0.06954015046358109
-0.7364341020584106 0.25581395626068115 0.07030005753040314
-0.7209302186965942 0.05426359176635742 0.12798753380775452
-0.720930278301239 0.05426359549164772 0.1322559267282486
-0.7209302186965942 0.06976747512817383 0.12323689460754395
-0.7209301590919495 0.06976747512817383 0.1322592794895172
-0.7209302186965942 0.08527135848999023 0.11532457172870636
-0.7209302186965942 0.08527135848999023 0.13206875324249268
-0.7209302186965942 0.10077524185180664 0.11254868656396866
-0.7209301590919495 0.10077524185180664 0.13195379078388214
-0.7209302186965942 0.11627912521362305 0.10629487037658691
-0.7209301590919495 0.11627912521362305 0.13179892301559448
-0.7209302186965942 0.1317828893661499 0.10013551265001297
-0.7209302186965942 0.1317828893661499 0.12860608100891113
-0.7209302186965942 0.1472867727279663 0.09837353229522705
-0.7209302186965942 0.1472867727279663 0.1250978410243988
-0.7209302186965942 0.16279065608978271 0.09632445871829987
-0.7209302186965942 0.16279065608978271 0.12230566889047623
-0.7209302186965942 0.17829453945159912 0.09408028423786163
-0.7209302186965942 0.17829453945159912 0.11976757645606995
-0.7209302186965942 0.19379842281341553 0.08808142691850662
-0.7209301590919495 0.19379842281341553 0.11754190176725388
-0.7209302186965942 0.20930230617523193 0.08402618765830994
-0.7209302186965942 0.20930230617523193 0.11409131437540054
-0.7209302186965942 0.22480618953704834 0.08104601502418518
-0.7209302186965942 0.22480618953704834 0.10430300980806351
-0.7209302186965942 0.24031007289886475 0.06784655153751373
-0.720930278301239 0.24031008780002594 0.08994001895189285
-0.7054263353347778 0.05426359176635742 0.1259005069732666
-0.7054263353347778 0.05426359176635742 0.13259409368038177
-0.7054263353347778 0.06976747512817383 0.12155330181121826
-0.7054263353347778 0.06976748257875443 0.1323108971118927
-0.7054263353347778 0.08527135848999023 0.11490780115127563
-0.7054263353347778 0.08527135848999023 0.13218961656093597
-0.7054263353347778 0.10077524185180664 0.11008676141500473
-0.7054263353347778 0.10077524185180664 0.1321142017841339
-0.7054263353347778 0.11627912521362305 0.10059085488319397
-0.7054263353347778 0.11627912521362305 0.13195256888866425
-0.7054263353347778 0.1317828893661499 0.09836933016777039
-0.7054263353347778 0.1317828893661499 0.12943018972873688
-0.7054263353347778 0.1472867727279663 0.09654691070318222
-0.7054263353347778 0.1472867727279663 0.12522470951080322
-0.7054263353347778 0.16279065608978271 0.09398342669010162
-0.7054263353347778 0.16279065608978271 0.12223230302333832
-0.7054263353347778 0.17829453945159912 0.0911051481962204
-0.7054263353347778 0.17829453945159912 0.11938653886318207
-0.7054263353347778 0.19379842281341553 0.08468106389045715
-0.7054263949394226 0.19379843771457672 0.11720441281795502
-0.7054263353347778 0.20930230617523193 0.08307360857725143
-0.7054263353347778 0.20930230617523193 0.11087512224912643
-0.7054263353347778 0.22480618953704834 0.07759135961532593
-0.7054263353347778 0.22480618953704834 0.10366860032081604
-0.7054263353347778 0.24031007289886475 0.0666014552116394
-0.7054263353347778 0.24031007289886475 0.08939167857170105
-0.6899224519729614 0.038759708404541016 0.12343227118253708
-0.6899224519729614 0.038759708404541016 0.13280686736106873
-0.6899224519729614 0.05426359176635742 0.1228279322385788
-0.6899224519729614 0.05426359176635742 0.13267086446285248
-0.6899224519729614 0.06976747512817383 0.11605069786310196
-0.6899224519729614 0.06976747512817383 0.1324549913406372
-0.6899224519729614 0.08527135848999023 0.11453463137149811
-0.6899224519729614 0.08527135848999023 0.13232536613941193
-0.6899224519729614 0.10077524185180664 0.10991764068603516
-0.6899224519729614 0.10077524185180664 0.13224507868289948
-0.6899224519729614 0.11627912521362305 0.10058330744504929
-0.6899224519729614 0.11627912521362305 0.13202662765979767
-0.6899224519729614 0.1317828893661499 0.09825176745653152
-0.6899224519729614 0.1317828893661499 0.12970487773418427
-0.6899224519729614 0.1472867727279663 0.09558775275945663
-0.6899224519729614 0.1472867727279663 0.12544596195220947
-0.6899224519729614 0.16279065608978271 0.09164446592330933
-0.6899224519729614 0.16279065608978271 0.12207594513893127
-0.6899224519729614 0.17829453945159912 0.08706369251012802
-0.6899224519729614 0.17829453945159912 0.11895135790109634
-0.6899224519729614 0.19379842281341553 0.08405667543411255
-0.6899224519729614 0.19379842281341553 0.11684481054544449
-0.6899224519729614 0.20930230617523193 0.08234825730323792
-0.6899224519729614 0.20930230617523193 0.10953781753778458
-0.6899224519729614 0.22480618953704834 0.07727276533842087
-0.6899224519729614 0.22480618953704834 0.10341078788042068
-0.6899224519729614 0.24031007289886475 0.06615418940782547
-0.6899224519729614 0.24031007289886475 0.08941294252872467
-0.674418568611145 0.02325582504272461 0.1162768080830574
-0.674418568611145 0.02325582690536976 0.13293065130710602
-0.674418568611145 0.038759708404541016 0.11898567527532578
-0.674418568611145 0.038759712129831314 0.1329546570777893
-0.674418568611145 0.05426359176635742 0.11616507917642593
-0.674418568611145 0.05426359176635742 0.1328297108411789
-0.674418568611145 0.06976747512817383 0.11519116163253784
-0.674418568611145 0.06976747512817383 0.1326221376657486
-0.674418568611145 0.08527135848999023 0.11387620121240616
-0.674418568611145 0.08527135848999023 0.13247241079807281
-0.674418568611145 0.10077524185180664 0.11055665463209152
-0.674418568611145 0.10077524185180664 0.13234491646289825
-0.6744185090065002 0.11627912521362305 0.10250537842512131
-0.674418568611145 0.11627912521362305 0.13205885887145996
-0.674418568611145 0.1317828893661499 0.0985470786690712
-0.674418568611145 0.1317828893661499 0.12979945540428162
-0.674418568611145 0.1472867727279663 0.09452298283576965
-0.674418568611145 0.1472867727279663 0.125385582447052
-0.6744185090065002 0.16279065608978271 0.08870358765125275
-0.674418568611145 0.16279065608978271 0.12169681489467621
-0.674418568611145 0.17829453945159912 0.084640271961689
-0.674418568611145 0.17829453945159912 0.11848659813404083
-0.674418568611145 0.19379842281341553 0.08329324424266815
-0.674418568611145 0.19379842281341553 0.1164165735244751
-0.674418568611145 0.20930230617523193 0.08143460750579834
-0.674418568611145 0.20930230617523193 0.1075347363948822
-0.674418568611145 0.22480618953704834 0.07554663717746735
-0.674418568611145 0.22480618953704834 0.10233941674232483
-0.674418568611145 0.24031007289886475 0.06589256227016449
-0.674418568611145 0.24031007289886475 0.08718273788690567
-0.6589146852493286 0.007751941680908203 0.11623769998550415
-0.6589146852493286 0.007751941680908203 0.13220307230949402
-0.6589146852493286 0.02325582504272461 0.11603782325983047
-0.6589146852493286 0.02325582504272461 0.13330242037773132
-0.6589146852493286 0.038759708404541016 0.11584208905696869
-0.6589146852493286 0.038759708404541016 0.1332775354385376
-0.6589146852493286 0.05426359176635742 0.115376777946949
-0.6589146852493286 0.05426359176635742 0.13314175605773926
-0.6589146852493286 0.06976747512817383 0.11451584100723267
-0.6589146852493286 0.06976747512817383 0.13289432227611542
-0.6589146852493286 0.08527135848999023 0.11309094727039337
-0.6589146852493286 0.08527135848999023 0.13271525502204895
-0.6589146852493286 0.10077524185180664 0.1102362722158432
-0.6589146852493286 0.10077523440122604 0.13252703845500946
-0.6589146852493286 0.11627912521362305 0.10351979732513428
-0.6589146852493286 0.11627912521362305 0.1321668177843094
-0.6589146852493286 0.1317828893661499 0.09837054461240768
-0.6589146852493286 0.1317828893661499 0.13018527626991272
-0.6589146852493286 0.1472867727279663 0.09337704628705978
-0.6589146852493286 0.1472867727279663 0.12538033723831177
-0.6589146852493286 0.16279065608978271 0.08598897606134415
-0.6589146852493286 0.16279065608978271 0.1215512603521347
-0.6589146852493286 0.17829453945159912 0.08401523530483246
-0.6589146852493286 0.17829453945159912 0.11830250173807144
-0.6589146852493286 0.19379842281341553 0.08265525847673416
-0.6589146852493286 0.19379842281341553 0.11498259007930756
-0.6589146852493286 0.20930230617523193 0.08039255440235138
-0.6589146852493286 0.20930230617523193 0.10579755902290344
-0.6589146852493286 0.22480618953704834 0.07029951363801956
-0.6589146852493286 0.22480618953704834 0.0999191552400589
-0.6589146852493286 0.24031007289886475 0.06656842678785324
-0.6589146852493286 0.24031007289886475 0.07903075963258743
-0.643410861492157 0.007751941680908203 0.11570988595485687
-0.643410861492157 0.007751941680908203 0.13337409496307373
-0.643410861492157 0.02325582504272461 0.11592382192611694
-0.643410861492157 0.02325582504272461 0.13354402780532837
-0.643410861492157 0.038759708404541016 0.11540558934211731
-0.643410861492157 0.038759708404541016 0.13365846872329712
-0.643410861492157 0.05426359176635742 0.11478280276060104
-0.643410861492157 0.05426359176635742 0.133509561419487
-0.643410861492157 0.06976747512817383 0.11387868225574493
-0.6434109210968018 0.06976747512817383 0.1332595944404602
-0.643410861492157 0.08527135848999023 0.11226292699575424
-0.6434109210968018 0.08527135848999023 0.13305923342704773
-0.643410861492157 0.10077524185180664 0.10927435755729675
-0.6434108018875122 0.10077523440122604 0.13281317055225372
-0.643410861492157 0.11627912521362305 0.10292273759841919
-0.643410861492157 0.11627912521362305 0.13235679268836975
-0.6434109210968018 0.1317828893661499 0.09783300757408142
-0.643410861492157 0.1317828893661499 0.13069264590740204
-0.643410861492157 0.1472867727279663 0.09223633259534836
-0.643410861492157 0.1472867727279663 0.12511196732521057
-0.643410861492157 0.16279065608978271 0.08501671999692917
-0.643410861492157 0.16279065608978271 0.12125715613365173
-0.643410861492157 0.17829453945159912 0.08349217474460602
-0.6434108018875122 0.17829453945159912 0.11808567494153976
-0.643410861492157 0.19379842281341553 0.0821320116519928
-0.643410861492157 0.19379842281341553 0.11237269639968872
-0.643410861492157 0.20930230617523193 0.07917335629463196
-0.6434109210968018 0.20930230617523193 0.10422494262456894
-0.643410861492157 0.22480618953704834 0.06900142133235931
-0.643410861492157 0.22480618953704834 0.09324304759502411
-0.643410861492157 0.24031007289886475 0.06888867169618607
-0.643410861492157 0.24031007289886475 0.07144154608249664
-0.6279069781303406 -0.007751941680908203 0.12908124923706055
-0.6279069781303406 -0.007751941680908203 0.13195818662643433
-0.6279069781303406 0.007751941680908203 0.11584550142288208
-0.6279070377349854 0.007751941680908203 0.13367405533790588
-0.6279069781303406 0.02325582504272461 0.11574427783489227
-0.6279069781303406 0.02325582504272461 0.13399557769298553
-0.6279069781303406 0.038759708404541016 0.11516765505075455
-0.6279069781303406 0.038759708404541016 0.13416054844856262
-0.6279069781303406 0.05426359176635742 0.1142444983124733
-0.6279069781303406 0.05426359176635742 0.133976012468338
-0.6279069781303406 0.06976747512817383 0.11319807171821594
-0.6279069781303406 0.06976747512817383 0.13370545208454132
-0.6279069781303406 0.08527135848999023 0.11159374564886093
-0.6279069185256958 0.08527135848999023 0.1334625631570816
-0.6279069781303406 0.10077524185180664 0.10852307826280594
-0.6279069781303406 0.10077524185180664 0.13313262164592743
-0.6279070377349854 0.11627913266420364 0.10168842226266861
-0.6279069781303406 0.11627912521362305 0.13256776332855225
-0.6279069781303406 0.1317828893661499 0.0972255989909172
-0.6279069781303406 0.1317828893661499 0.13121187686920166
-0.6279069781303406 0.1472867727279663 0.09101741015911102
-0.6279069781303406 0.1472867727279663 0.12471112608909607
-0.6279069781303406 0.16279065608978271 0.08441351354122162
-0.6279069781303406 0.16279065608978271 0.12084008753299713
-0.6279069781303406 0.17829453945159912 0.08256258815526962
-0.6279069781303406 0.17829453945159912 0.11774948984384537
-0.6279069781303406 0.19379842281341553 0.08085796236991882
-0.6279069781303406 0.19379842281341553 0.1096225306391716
-0.6279069781303406 0.20930230617523193 0.07565959542989731
-0.6279069781303406 0.20930229127407074 0.10280493646860123
-0.6279069781303406 0.22480618953704834 0.06799167394638062
-0.6279069781303406 0.22480618953704834 0.08936098217964172
-0.6124030947685242 -0.007751941680908203 0.11829623579978943
-0.6124030947685242 -0.007751941680908203 0.13359703123569489
-0.6124030947685242 0.007751941680908203 0.11592221260070801
-0.6124030351638794 0.007751941680908203 0.13420820236206055
-0.6124030947685242 0.02325582504272461 0.11547446250915527
-0.6124030947685242 0.02325582504272461 0.13477282226085663
-0.6124030947685242 0.038759708404541016 0.11492422223091125
-0.6124030947685242 0.038759708404541016 0.1348547786474228
-0.6124030947685242 0.05426359176635742 0.11404156684875488
-0.6124030947685242 0.05426359176635742 0.13453733921051025
-0.6124030947685242 0.06976747512817383 0.11317425221204758
-0.6124030947685242 0.06976747512817383 0.13417600095272064
-0.6124030947685242 0.08527135848999023 0.1118713915348053
-0.6124030947685242 0.08527135848999023 0.13384079933166504
-0.6124030947685242 0.10077524185180664 0.10915466398000717
-0.6124030947685242 0.10077524185180664 0.13340570032596588
-0.6124030947685242 0.11627912521362305 0.10299259424209595
-0.6124030947685242 0.11627911776304245 0.13274209201335907
-0.6124030947685242 0.1317828893661499 0.09745240956544876
-0.6124030947685242 0.1317828893661499 0.1317833513021469
-0.6124030947685242 0.1472867727279663 0.0909496396780014
-0.6124030947685242 0.1472867727279663 0.12445379048585892
-0.6124030351638794 0.16279065608978271 0.0840267613530159
-0.6124030947685242 0.16279065608978271 0.12046072632074356
-0.6124030947685242 0.17829453945159912 0.08154359459877014
-0.6124030947685242 0.17829453945159912 0.1174209788441658
-0.6124030947685242 0.19379842281341553 0.07864053547382355
-0.6124030947685242 0.19379842281341553 0.10764308273792267
-0.6124030947685242 0.20930230617523193 0.069571353495121
-0.6124030947685242 0.20930230617523193 0.10167419910430908
-0.6124030947685242 0.22480618953704834 0.06619098037481308
-0.6124030947685242 0.22480618953704834 0.08666928112506866
-0.5968992114067078 -0.007751941680908203 0.11818820238113403
-0.596899151802063 -0.007751941680908203 0.1341467946767807
-0.5968992114067078 0.007751941680908203 0.11587326228618622
-0.5968992114067078 0.007751941680908203 0.13499651849269867
-0.5968992114067078 0.02325582504272461 0.11533161252737045
-0.5968992114067078 0.02325582504272461 0.1356125921010971
-0.5968992114067078 0.038759708404541016 0.11485999822616577
-0.5968992114067078 0.038759708404541016 0.13545572757720947
-0.5968992710113525 0.05426359176635742 0.11424478888511658
-0.5968992114067078 0.05426359176635742 0.13492515683174133
-0.5968992114067078 0.06976747512817383 0.1136859655380249
-0.5968992114067078 0.06976747512817383 0.13443657755851746
-0.5968992114067078 0.08527135848999023 0.11272233724594116
-0.5968992710113525 0.08527135848999023 0.133983314037323
-0.5968992114067078 0.10077524185180664 0.11049330234527588
-0.5968992114067078 0.10077524185180664 0.1334497332572937
-0.5968992114067078 0.11627911776304245 0.10553642362356186
-0.596899151802063 0.11627911776304245 0.1327173262834549
-0.5968992114067078 0.1317828893661499 0.09839218109846115
-0.596899151802063 0.1317828893661499 0.13051436841487885
-0.5968992114067078 0.1472867727279663 0.09181490540504456
-0.596899151802063 0.1472867727279663 0.12357351183891296
-0.5968992114067078 0.16279065608978271 0.08387205004692078
-0.5968992114067078 0.16279065608978271 0.1196867823600769
-0.5968992114067078 0.17829453945159912 0.08051096647977829
-0.5968992114067078 0.17829453945159912 0.11671397089958191
-0.5968992114067078 0.19379842281341553 0.07500062137842178
-0.5968992114067078 0.19379842281341553 0.10549995303153992
-0.5968992114067078 0.20930230617523193 0.06835532933473587
-0.5968992114067078 0.20930230617523193 0.09831124544143677
-0.596899151802063 0.22480618953704834 0.058864012360572815
-0.5968992114067078 0.22480618953704834 0.07892416417598724
-0.5813953876495361 -0.007751941680908203 0.11849015951156616
-0.5813953876495361 -0.007751941680908203 0.13442391157150269
-0.5813953876495361 0.007751941680908203 0.11587470769882202
-0.5813953876495361 0.007751941680908203 0.1356135904788971
-0.5813953876495361 0.02325582504272461 0.1153104156255722
-0.5813953876495361 0.02325582504272461 0.13622546195983887
-0.5813953876495361 0.038759708404541016 0.1149054542183876
-0.5813953876495361 0.038759708404541016 0.13589388132095337
-0.5813953876495361 0.05426359176635742 0.11448138952255249
-0.5813953876495361 0.05426359176635742 0.13519145548343658
-0.5813953876495361 0.06976747512817383 0.11416572332382202
-0.5813953876495361 0.06976747512817383 0.13456004858016968
-0.5813953876495361 0.08527135848999023 0.11344655603170395
-0.5813953876495361 0.08527135848999023 0.13398483395576477
-0.5813953876495361 0.10077524185180664 0.1116192638874054
-0.5813953876495361 0.10077524185180664 0.13337111473083496
-0.5813953876495361 0.11627912521362305 0.10754808783531189
-0.5813953876495361 0.11627912521362305 0.13256694376468658
-0.5813953876495361 0.1317828893661499 0.09945786744356155
-0.5813953876495361 0.1317828893661499 0.12855377793312073
-0.5813953876495361 0.1472867727279663 0.09313607960939407
-0.5813953876495361 0.1472867727279663 0.12256166338920593
-0.5813953876495361 0.16279065608978271 0.08406011760234833
-0.5813953876495361 0.16279065608978271 0.11878563463687897
-0.5813953876495361 0.17829453945159912 0.07987821102142334
-0.5813953876495361 0.17829453945159912 0.11291217058897018
-0.5813953876495361 0.19379842281341553 0.07113640010356903
-0.5813953876495361 0.19379842281341553 0.10357298702001572
-0.5813953876495361 0.20930230617523193 0.06682246178388596
-0.5813953876495361 0.20930230617523193 0.09146708995103836
-0.5813953876495361 0.22480618953704834 0.05363426357507706
-0.5813953280448914 0.22480618953704834 0.07145100831985474
-0.5658915042877197 -0.02325582504272461 0.12769721448421478
-0.5658915042877197 -0.02325582504272461 0.13305532932281494
-0.5658915042877197 -0.007751941680908203 0.11793296784162521
-0.5658915042877197 -0.007751941680908203 0.1345464587211609
-0.5658915042877197 0.007751941680908203 0.11578892916440964
-0.5658915042877197 0.007751941680908203 0.13599340617656708
-0.5658915042877197 0.02325582504272461 0.11521503329277039
-0.5658915042877197 0.02325582504272461 0.13659343123435974
-0.5658915042877197 0.038759708404541016 0.11479711532592773
-0.5658915042877197 0.038759708404541016 0.1362154632806778
-0.5658915042877197 0.05426359176635742 0.1144217997789383
-0.5658915042877197 0.05426359176635742 0.13542622327804565
-0.5658915042877197 0.06976747512817383 0.11423605680465698
-0.5658915042877197 0.06976747512817383 0.13464465737342834
-0.5658915042877197 0.08527135848999023 0.11366379261016846
-0.5658915042877197 0.08527135848999023 0.1339508593082428
-0.5658915042877197 0.10077524185180664 0.11207471042871475
-0.5658915042877197 0.10077524185180664 0.13326483964920044
-0.5658915042877197 0.11627912521362305 0.1084689199924469
-0.5658915042877197 0.11627912521362305 0.13236305117607117
-0.5658915042877197 0.1317828893661499 0.09998378157615662
-0.5658915042877197 0.1317828893661499 0.12671200931072235
-0.5658915042877197 0.1472867727279663 0.09373162686824799
-0.5658915042877197 0.1472867727279663 0.12154810130596161
-0.5658915042877197 0.16279065608978271 0.08422049134969711
-0.5658915042877197 0.16279065608978271 0.11794765293598175
-0.5658915042877197 0.17829453945159912 0.07908190786838531
-0.5658915042877197 0.17829453945159912 0.1088593602180481
-0.5658915042877197 0.19379842281341553 0.06930439174175262
-0.5658915042877197 0.19379840791225433 0.10207320749759674
-0.5658915042877197 0.20930230617523193 0.0638459175825119
-0.5658915042877197 0.20930230617523193 0.08785334974527359
-0.5658915042877197 0.22480618953704834 0.05385976284742355
-0.5658915042877197 0.22480620443820953 0.05817572772502899
-0.5503876209259033 -0.02325582504272461 0.1258711963891983
-0.5503876209259033 -0.02325582504272461 0.1333569437265396
-0.5503876209259033 -0.007751941680908203 0.1162235289812088
-0.5503876209259033 -0.007751941680908203 0.1345881223678589
-0.5503876209259033 0.007751941680908203 0.11557026952505112
-0.5503876209259033 0.007751941680908203 0.13610126078128815
-0.5503876209259033 0.02325582504272461 0.11496646702289581
-0.5503876209259033 0.02325582504272461 0.13664191961288452
-0.5503876209259033 0.038759708404541016 0.11446043848991394
-0.5503876209259033 0.038759708404541016 0.13630937039852142
-0.5503876209259033 0.05426359176635742 0.11408457159996033
-0.5503876209259033 0.05426358804106712 0.13547275960445404
-0.5503876209259033 0.06976747512817383 0.11403083056211472
-0.5503876209259033 0.06976747512817383 0.13455751538276672
-0.5503876209259033 0.08527135848999023 0.11355646699666977
-0.5503876209259033 0.08527135848999023 0.13377487659454346
-0.5503876209259033 0.10077524185180664 0.1120816022157669
-0.5503876209259033 0.10077524185180664 0.13301578164100647
-0.5503876209259033 0.11627912521362305 0.10870655626058578
-0.5503876209259033 0.11627912521362305 0.13197001814842224
-0.5503876209259033 0.1317828893661499 0.10005485266447067
-0.5503876209259033 0.1317828893661499 0.12474304437637329
-0.5503876209259033 0.1472867727279663 0.09350435435771942
-0.5503876209259033 0.1472867727279663 0.12030680477619171
-0.5503876209259033 0.16279065608978271 0.08377962559461594
-0.5503875613212585 0.16279064118862152 0.11694976687431335
-0.5503876209259033 0.17829453945159912 0.07738789916038513
-0.5503876209259033 0.17829453945159912 0.10622693598270416
-0.5503876209259033 0.19379842281341553 0.0682639330625534
-0.5503876209259033 0.19379842281341553 0.09991443902254105
-0.5503876209259033 0.20930230617523193 0.054068055003881454
-0.5503876209259033 0.20930230617523193 0.08506213128566742
-0.5348837375640869 -0.02325582504272461 0.12378653883934021
-0.5348837375640869 -0.02325582504272461 0.13337254524230957
-0.5348837375640869 -0.007751941680908203 0.11586818844079971
-0.5348837375640869 -0.007751941680908203 0.13475874066352844
-0.5348837375640869 0.007751941680908203 0.11519697308540344
-0.5348837375640869 0.007751941680908203 0.13629236817359924
-0.5348837375640869 0.02325582504272461 0.11446338891983032
-0.5348837375640869 0.02325582504272461 0.1368282437324524
-0.5348837375640869 0.038759708404541016 0.11375771462917328
-0.5348837375640869 0.038759708404541016 0.13652968406677246
-0.5348837375640869 0.05426359176635742 0.11341717094182968
-0.5348837375640869 0.05426359176635742 0.13557079434394836
-0.5348837375640869 0.06976747512817383 0.11356367915868759
-0.5348837375640869 0.06976747512817383 0.13448767364025116
-0.5348837375640869 0.08527135848999023 0.11323261260986328
-0.5348837375640869 0.08527135848999023 0.13358919322490692
-0.5348837375640869 0.10077524185180664 0.11183692514896393
-0.5348837375640869 0.10077524185180664 0.13270153105258942
-0.5348837375640869 0.11627912521362305 0.10850094258785248
-0.5348837375640869 0.11627912521362305 0.1293106973171234
-0.5348837375640869 0.1317828893661499 0.09975916892290115
-0.5348837375640869 0.1317828893661499 0.12306444346904755
-0.5348837375640869 0.1472867727279663 0.09245171397924423
-0.5348837375640869 0.1472867727279663 0.11900930106639862
-0.5348837375640869 0.16279065608978271 0.08248326182365417
-0.5348837375640869 0.16279065608978271 0.11332409083843231
-0.5348837375640869 0.17829453945159912 0.07429710030555725
-0.5348837375640869 0.17829453945159912 0.10403650999069214
-0.5348837375640869 0.19379842281341553 0.06649504601955414
-0.5348837375640869 0.19379842281341553 0.09329250454902649
-0.5348837375640869 0.20930230617523193 0.05203787982463837
-0.5348837375640869 0.20930230617523193 0.07675838470458984
-0.5193798542022705 -0.02325582504272461 0.11931664496660233
-0.5193798542022705 -0.02325582504272461 0.133646160364151
-0.5193798542022705 -0.007751941680908203 0.11540203541517258
-0.5193798542022705 -0.007751941680908203 0.1353973001241684
-0.5193798542022705 0.007751941680908203 0.11452769488096237
-0.5193798542022705 0.007751941680908203 0.13711398839950562
-0.5193798542022705 0.02325582504272461 0.11344792693853378
-0.5193798542022705 0.02325582504272461 0.13764485716819763
-0.5193798542022705 0.038759708404541016 0.1125575602054596
-0.5193798542022705 0.038759708404541016 0.13717734813690186
-0.5193798542022705 0.05426359176635742 0.11229076236486435
-0.5193798542022705 0.05426359176635742 0.1359775811433792
-0.5193798542022705 0.06976747512817383 0.11266051232814789
-0.5193798542022705 0.06976747512817383 0.13465027511119843
-0.5193798542022705 0.08527135848999023 0.11253725737333298
-0.5193798542022705 0.08527135848999023 0.1335650384426117
-0.5193798542022705 0.10077524185180664 0.11112698912620544
-0.5193798542022705 0.10077524185180664 0.13251976668834686
-0.5193798542022705 0.11627912521362305 0.10748382657766342
-0.5193798542022705 0.11627912521362305 0.12742403149604797
-0.5193798542022705 0.1317828893661499 0.09875654429197311
-0.5193798542022705 0.1317828893661499 0.12192682921886444
-0.5193798542022705 0.1472867727279663 0.09018388390541077
-0.5193798542022705 0.1472867727279663 0.11790010333061218
-0.5193798542022705 0.16279065608978271 0.08055903017520905
-0.5193798542022705 0.16279065608978271 0.10904143005609512
-0.5193798542022705 0.17829453945159912 0.06945636868476868
-0.5193798542022705 0.17829453945159912 0.1022728979587555
-0.5193798542022705 0.19379842281341553 0.06287579983472824
-0.5193798542022705 0.19379842281341553 0.08948627859354019
-0.5193798542022705 0.20930230617523193 0.04876202344894409
-0.5193798542022705 0.20930230617523193 0.07257917523384094
-0.5038759708404541 -0.038759708404541016 0.13089290261268616
-0.5038759708404541 -0.038759708404541016 0.13208571076393127
-0.5038759708404541 -0.02325582504272461 0.11617998033761978
-0.5038759708404541 -0.02325582504272461 0.13413190841674805
-0.5038759708404541 -0.007751941680908203 0.1150449588894844
-0.5038759708404541 -0.007751941680908203 0.13640514016151428
-0.5038759708404541 0.007751941680908203 0.11379661411046982
-0.5038759708404541 0.00775194214656949 0.13841165602207184
-0.5038759708404541 0.02325582504272461 0.11231525242328644
-0.5038759708404541 0.02325582504272461 0.13879023492336273
-0.5038759708404541 0.038759708404541016 0.1114402711391449
-0.5038759708404541 0.038759708404541016 0.13798078894615173
-0.5038759708404541 0.05426359176635742 0.11129076033830643
-0.5038759708404541 0.05426359176635742 0.13644522428512573
-0.5038759708404541 0.06976747512817383 0.11185355484485626
-0.5038759708404541 0.06976747512817383 0.13485434651374817
-0.5038759708404541 0.08527135848999023 0.11189783364534378
-0.5038759708404541 0.08527135848999023 0.13356070220470428
-0.5038759708404541 0.10077524185180664 0.11041828989982605
-0.5038759708404541 0.10077524185180664 0.1323443204164505
-0.5038759708404541 0.11627912521362305 0.10631422698497772
-0.5038759708404541 0.11627912521362305 0.12610235810279846
-0.5038759708404541 0.1317828893661499 0.09755774587392807
-0.5038759708404541 0.1317828893661499 0.12085294723510742
-0.5038759708404541 0.1472867727279663 0.08737632632255554
-0.5038759708404541 0.1472867727279663 0.11691854894161224
-0.5038759708404541 0.16279065608978271 0.07867010682821274
-0.5038759708404541 0.16279065608978271 0.10630546510219574
-0.5038759708404541 0.17829453945159912 0.06805378943681717
-0.5038759708404541 0.17829453945159912 0.10083022713661194
-0.5038759708404541 0.19379842281341553 0.05662711337208748
-0.5038759708404541 0.19379842281341553 0.08714257925748825
-0.5038759708404541 0.20930230617523193 0.03867116570472717
-0.5038759708404541 0.20930230617523193 0.06997104734182358
-0.4883720874786377 -0.038759708404541016 0.1272016167640686
-0.4883720874786377 -0.038759708404541016 0.13325421512126923
-0.4883720874786377 -0.02325582504272461 0.115963876247406
-0.4883720874786377 -0.02325582504272461 0.1348182111978531
-0.4883720874786377 -0.007751941680908203 0.11470970511436462
-0.4883721172809601 -0.007751941680908203 0.13772642612457275
-0.4883720874786377 0.007751941680908203 0.11306127905845642
-0.4883720874786377 0.007751941680908203 0.14017964899539948
-0.4883720874786377 0.02325582504272461 0.11118260025978088
-0.4883720874786377 0.02325582504272461 0.14037060737609863
-0.4883720874786377 0.038759708404541016 0.11042418330907822
-0.4883720874786377 0.038759708404541016 0.13912872970104218
-0.4883720874786377 0.05426359176635742 0.11051981151103973
-0.4883721172809601 0.05426359176635742 0.13714610040187836
-0.4883720874786377 0.06976747512817383 0.11121009290218353
-0.4883720874786377 0.06976747512817383 0.1352165937423706
-0.4883720874786377 0.08527135848999023 0.11130992323160172
-0.4883720874786377 0.08527135848999023 0.13365864753723145
-0.4883720874786377 0.10077524185180664 0.10970723628997803
-0.4883720874786377 0.10077524185180664 0.13224390149116516
-0.4883720874786377 0.11627912521362305 0.10498976707458496
-0.4883720874786377 0.11627912521362305 0.12528614699840546
-0.4883720874786377 0.1317828893661499 0.09623520076274872
-0.4883720874786377 0.1317828893661499 0.1199779063463211
-0.4883720874786377 0.1472867727279663 0.08454328030347824
-0.4883720874786377 0.1472867727279663 0.1149299368262291
-0.4883720874786377 0.16279065608978271 0.07615631818771362
-0.4883720874786377 0.16279065608978271 0.10434672981500626
-0.4883720874786377 0.17829453945159912 0.06625204533338547
-0.4883720874786377 0.17829453945159912 0.09486749768257141
-0.4883720874786377 0.19379842281341553 0.0529160350561142
-0.4883720874786377 0.19379842281341553 0.08548850566148758
-0.4883720874786377 0.20930230617523193 0.03700766712427139
-0.4883720874786377 0.20930230617523193 0.061295896768569946
-0.4728682041168213 -0.038759708404541016 0.12486426532268524
-0.4728682041168213 -0.038759708404541016 0.133869931101799
-0.4728682041168213 -0.02325582504272461 0.11571069806814194
-0.4728682041168213 -0.02325582504272461 0.13562247157096863
