0.27131783962249756 0.31343021988868713 -0.10077518224716187
0.27131783962249756 0.3866080641746521 -0.08527129888534546
0.27131783962249756 0.382048636674881 -0.06976741552352905
0.27131783962249756 0.6582779884338379 -0.05426359176635742
0.27131783962249756 0.671180009841919 -0.038759708404541016
0.27131783962249756 0.6784108877182007 -0.05426359176635742
0.27131783962249756 0.6860517859458923 -0.02325582504272461
0.27131783962249756 0.7018787264823914 -0.038759708404541016
0.27131783962249756 0.703023374080658 -0.007751941680908203
0.27131783962249756 0.7200250029563904 0.007751941680908203
0.27131783962249756 0.7241408824920654 -0.02325582504272461
0.27131783962249756 0.7360610365867615 0.02325582504272461
0.27131783962249756 0.7416733503341675 -0.007751941680908203
0.27131783962249756 0.7562351822853088 0.007751941680908203
0.27131783962249756 0.7581163644790649 0.038759708404541016
0.27131783962249756 0.7704368829727173 0.02325582504272461
0.27131783962249756 0.781226634979248 0.05426359176635742
0.27131783962249756 0.7876869440078735 0.038759708404541016
0.27131783962249756 0.8041073083877563 0.06976747512817383
0.27131780982017517 0.8148956298828125 0.05426359176635742
0.27131783962249756 0.8258883953094482 0.06976747512817383
0.28682172298431396 -0.25936099886894226 0.10077524185180664
0.28682172298431396 -0.26641204953193665 0.11627912521362305
0.28682172298431396 -0.2680293917655945 0.1317828893661499
0.28682172298431396 -0.2640223205089569 0.1472867727279663
0.28682172298431396 -0.24597124755382538 0.08527135848999023
0.28682172298431396 -0.24742856621742249 0.16279065608978271
0.28682172298431396 -0.23005011677742004 0.06976747512817383
0.28682172298431396 -0.21331511437892914 0.05426359176635742
0.28682172298431396 -0.19573020935058594 0.038759708404541016
0.28682172298431396 -0.1743924915790558 0.02325582504272461
0.28682172298431396 -0.1498827487230301 0.007751941680908203
0.28682172298431396 -0.1216566413640976 -0.007751941680908203
0.28682172298431396 -0.09102389216423035 -0.02325582504272461
0.28682172298431396 -0.06022132188081741 -0.038759708404541016
0.28682172298431396 -0.042200397700071335 0.16279065608978271
0.28682172298431396 -0.03392535448074341 -0.05426359176635742
0.28682172298431396 -0.005284261889755726 -0.06976741552352905
0.28682172298431396 -0.0038545073475688696 0.1472867727279663
0.28682172298431396 0.037965089082717896 -0.08527129888534546
0.28682175278663635 0.02442360483109951 0.1317828893661499
0.28682172298431396 0.04653635993599892 0.11627912521362305
0.28682172298431396 0.06373488903045654 0.10077524185180664
0.28682172298431396 0.08294989913702011 -0.10077518224716187
0.28682172298431396 0.07825636863708496 0.08527135848999023
0.28682172298431396 0.09342937171459198 0.06976747512817383
0.28682172298431396 0.11209750920534134 0.05426359176635742
0.28682172298431396 0.13569596409797668 0.038759708404541016
0.28682172298431396 0.15915393829345703 0.02325582504272461
0.28682172298431396 0.17769429087638855 0.007751941680908203
0.28682172298431396 0.1883978247642517 -0.007751941680908203
0.28682172298431396 0.1995014250278473 -0.02325582504272461
0.28682172298431396 0.2155945599079132 -0.038759708404541016
0.28682172298431396 0.23102235794067383 -0.05426359176635742
0.28682172298431396 0.2406655251979828 -0.10077518969774246
0.28682172298431396 0.2690650224685669 -0.06976741552352905
0.28682172298431396 0.28384435176849365 -0.08527129888534546
0.28682172298431396 0.696045458316803 -0.02325582504272461
0.28682172298431396 0.7045092582702637 -0.007751941680908203
0.28682172298431396 0.7146696448326111 -0.02325582504272461
0.28682172298431396 0.7195022702217102 0.007751941680908203
0.28682172298431396 0.7346445918083191 0.02325582504272461
0.28682172298431396 0.7387275695800781 -0.007751941680908203
0.28682172298431396 0.7511463165283203 0.038759708404541016
0.28682172298431396 0.7542006373405457 0.007751941680908203
0.28682172298431396 0.7691811323165894 0.02325582504272461
0.28682172298431396 0.7747929096221924 0.05426359176635742
0.28682172298431396 0.786695122718811 0.038759708404541016
0.28682172298431396 0.797087550163269 0.06976747512817383
0.28682172298431396 0.8150993585586548 0.05426359549164772
0.28682172298431396 0.8253688216209412 0.08527135848999023
0.28682172298431396 0.8329772353172302 0.06976747512817383
0.28682172298431396 0.8351770639419556 0.08527135848999023
0.30232560634613037 -0.2470550835132599 0.10077524185180664
0.30232560634613037 -0.253141850233078 0.11627912521362305
0.30232560634613037 -0.25381332635879517 0.1317828893661499
0.30232560634613037 -0.24727463722229004 0.1472867727279663
0.30232560634613037 -0.2337740659713745 0.08527135848999023
0.30232560634613037 -0.21832439303398132 0.06976747512817383
0.30232560634613037 -0.20121833682060242 0.05426359176635742
0.30232560634613037 -0.18240231275558472 0.038759708404541016
0.30232560634613037 -0.15991808474063873 0.02325582504272461
0.30232560634613037 -0.13409723341464996 0.007751941680908203
0.30232560634613037 -0.13528165221214294 0.16279065608978271
0.30232560634613037 -0.1058751791715622 -0.007751941680908203
0.30232560634613037 -0.07575230300426483 -0.02325582504272461
0.30232560634613037 -0.06592884659767151 0.16279065608978271
0.30232560634613037 -0.04738187789916992 -0.038759708404541016
0.30232560634613037 -0.023394722491502762 -0.05426359176635742
0.30232560634613037 -0.014011513441801071 0.1472867727279663
0.30232560634613037 0.01070280559360981 -0.06976741552352905
0.30232560634613037 0.016477573662996292 0.1317828893661499
0.30232560634613037 0.040474869310855865 0.11627912521362305
0.30232560634613037 0.05634849891066551 -0.08527129143476486
0.30232560634613037 0.05822347104549408 0.10077524185180664
0.30232560634613037 0.07271969318389893 0.08527135848999023
0.30232563614845276 0.08773988485336304 0.06976747512817383
0.30232560634613037 0.10987710952758789 -0.10077518224716187
0.30232560634613037 0.10584871470928192 0.05426359176635742
0.30232560634613037 0.12868615984916687 0.038759708404541016
0.30232563614845276 0.14744260907173157 -0.10077518224716187
0.30232560634613037 0.1520155966281891 0.02325582504272461
0.30232560634613037 0.17127199470996857 0.007751941680908203
0.30232560634613037 0.18342497944831848 -0.007751941680908203
0.30232560634613037 0.20547153055667877 -0.038759708404541016
0.30232560634613037 0.19458192586898804 -0.02325582504272461
0.30232560634613037 0.21580778062343597 -0.05426359176635742
0.30232560634613037 0.23048388957977295 -0.08527129888534546
0.30232560634613037 0.22714072465896606 -0.06976741552352905
0.30232560634613037 0.7193250060081482 -0.007751941680908203
0.30232560634613037 0.7263416051864624 -0.007751941680908203
0.30232560634613037 0.7220140099525452 0.007751941680908203
0.30232560634613037 0.7347224950790405 0.02325582504272461
0.30232560634613037 0.7495510578155518 0.038759708404541016
0.30232560634613037 0.7524358034133911 0.007751941680908203
0.30232560634613037 0.7669225335121155 0.05426359176635742
0.30232560634613037 0.7684213519096375 0.02325582504272461
0.30232560634613037 0.7875142693519592 0.038759708404541016
0.30232560634613037 0.7909576892852783 0.06976747512817383
0.30232560634613037 0.815696120262146 0.05426359549164772
0.30232560634613037 0.819118857383728 0.08527135848999023
0.30232560634613037 0.8372584581375122 0.06976747512817383
0.30232560634613037 0.8513823747634888 0.08527135848999023
0.3178294897079468 -0.2417304962873459 0.11627912521362305
0.3178294897079468 -0.24035537242889404 0.1317828893661499
0.3178294897079468 -0.22512215375900269 0.08527135848999023
0.3178294897079468 -0.23572668433189392 0.10077524185180664
0.3178294897079468 -0.22786514461040497 0.1472867727279663
0.3178294897079468 -0.2097538560628891 0.06976747512817383
0.3178294897079468 -0.19105008244514465 0.05426359176635742
0.3178294897079468 -0.16923248767852783 0.038759708404541016
0.3178294897079468 -0.14534436166286469 0.02325582504272461
0.3178294897079468 -0.11931707710027695 0.007751941680908203
0.3178294897079468 -0.09114176034927368 -0.007751941680908203
0.3178294897079468 -0.06249784678220749 -0.02325582504272461
0.3178294897079468 -0.03427708148956299 -0.038759708404541016
0.3178294897079468 -0.026036996394395828 0.1472867727279663
0.3178294897079468 -0.00501073244959116 -0.05426358804106712
0.3178294897079468 0.008740979246795177 0.1317828893661499
0.3178294897079468 0.03526928648352623 -0.06976741552352905
0.3178294897079468 0.03414658457040787 0.11627912521362305
0.3178294897079468 0.0542680099606514 0.10077524185180664
0.3178294897079468 0.0804348886013031 -0.08527129888534546
0.31782951951026917 0.07017814368009567 0.08527135848999023
0.31782951951026917 0.08638344705104828 0.06976747512817383
0.3178294897079468 0.10524748265743256 0.05426359176635742
0.3178294897079468 0.12773434817790985 0.038759708404541016
0.3178294897079468 0.1512935906648636 0.02325582504272461
0.3178294897079468 0.17130330204963684 0.007751941680908203
0.3178294897079468 0.19049406051635742 -0.08527129888534546
0.3178294897079468 0.1830776035785675 -0.007751941680908203
0.3178294897079468 0.20322367548942566 -0.06976741552352905
0.3178294897079468 0.20167440176010132 -0.05426359176635742
0.3178294897079468 0.19744856655597687 -0.038759708404541016
0.3178294897079468 0.1938294619321823 -0.02325582504272461
0.3178294897079468 0.7397303581237793 0.02325582504272461
0.3178294897079468 0.7498729228973389 0.038759708404541016
0.3178294897079468 0.7635851502418518 0.02325582504272461
0.3178294897079468 0.765034019947052 0.05426359176635742
0.3178294897079468 0.7862672209739685 0.038759708404541016
0.3178294897079468 0.7831499576568604 0.06976747512817383
0.3178294897079468 0.8117572069168091 0.08527135848999023
0.3178294897079468 0.815434455871582 0.05426359176635742
0.3178294897079468 0.8422492146492004 0.06976747512817383
0.3178294897079468 0.8400028944015503 0.10077524185180664
0.3178294897079468 0.8650807738304138 0.08527135848999023
0.3178294897079468 0.8792915940284729 0.10077524185180664
0.3333333730697632 -0.22743725776672363 0.10077524185180664
0.3333333730697632 -0.23074467480182648 0.11627912521362305
0.3333333730697632 -0.2268054187297821 0.1317828893661499
0.3333333730697632 -0.2154260128736496 0.08527135848999023
0.3333333730697632 -0.19949257373809814 0.06976747512817383
0.3333333730697632 -0.20311938226222992 0.1472867727279663
0.3333333730697632 -0.1806672066450119 0.05426359176635742
0.3333333730697632 -0.1564425230026245 0.038759708404541016
0.3333333730697632 -0.1318294107913971 0.02325582504272461
0.3333333730697632 -0.10472826659679413 0.007751941680908203
0.3333333730697632 -0.07828198373317719 -0.007751941680908203
0.3333333730697632 -0.050799090415239334 -0.02325582504272461
0.3333333730697632 -0.03824228048324585 0.1472867727279663
0.33333340287208557 -0.02035227231681347 -0.038759712129831314
0.3333333730697632 0.00159450713545084 0.1317828893661499
0.3333333730697632 0.01595512591302395 -0.05426359176635742
0.3333333730697632 0.030378004536032677 0.11627912521362305
0.3333333730697632 0.05280236154794693 0.10077524185180664
0.3333333730697632 0.057345978915691376 -0.06976741552352905
0.3333333730697632 0.0708257332444191 0.08527135848999023
0.3333333730697632 0.08848176896572113 0.06976747512817383
0.3333333730697632 0.10832373797893524 0.05426359176635742
0.3333333730697632 0.13125720620155334 0.038759708404541016
0.3333333730697632 0.154776930809021 0.02325582504272461
0.3333333730697632 0.1749434620141983 0.007751941680908203
0.3333333730697632 0.19340956211090088 -0.06976741552352905
0.3333333730697632 0.1847628504037857 -0.007751941680908203
0.3333333730697632 0.19676710665225983 -0.05426359176635742
0.3333333730697632 0.1966252326965332 -0.038759708404541016
0.3333333730697632 0.19454655051231384 -0.02325582318007946
0.3333333730697632 0.7573467493057251 0.038759708404541016
0.3333333730697632 0.7658131718635559 0.05426359176635742
0.3333333730697632 0.7812818288803101 0.038759708404541016
0.3333333730697632 0.7817554473876953 0.06976747512817383
0.3333333730697632 0.8093874454498291 0.05426359176635742
0.3333333730697632 0.8051744699478149 0.08527135848999023
0.3333333730697632 0.8413159251213074 0.06976747512817383
0.3333333730697632 0.8299713134765625 0.10077524185180664
0.3333333730697632 0.8745830059051514 0.08527135848999023
0.33333340287208557 0.891567587852478 0.10077524185180664
0.3488372564315796 -0.21761420369148254 0.10077524185180664
0.3488372564315796 -0.2200862467288971 0.11627912521362305
0.3488372564315796 -0.21394968032836914 0.1317828893661499
0.3488372564315796 -0.20605425536632538 0.08527135848999023
0.3488372564315796 -0.18905046582221985 0.06976747512817383
0.3488372564315796 -0.16782280802726746 0.05426359176635742
0.3488372564315796 -0.15126051008701324 0.1472867727279663
0.3488372564315796 -0.14240345358848572 0.038759708404541016
0.3488372564315796 -0.11710111796855927 0.02325582504272461
0.3488372564315796 -0.08984936773777008 0.007751941680908203
0.3488372564315796 -0.06474310904741287 -0.007751941680908203
0.3488372564315796 -0.05531013011932373 0.1472867727279663
0.3488372564315796 -0.0364009290933609 -0.02325582504272461
0.3488372564315796 -0.001386391930282116 -0.038759708404541016
0.3488372564315796 -0.00548945739865303 0.1317828893661499
0.3488372564315796 0.038458194583654404 -0.05426359176635742
0.3488372564315796 0.02686704322695732 0.11627912521362305
0.3488372564315796 0.05183960124850273 0.10077524185180664
0.3488372266292572 0.07217139005661011 0.08527135848999023
0.3488372564315796 0.10008426755666733 -0.06976741552352905
0.3488372564315796 0.09158636629581451 0.06976747512817383
0.3488372564315796 0.11274471879005432 0.05426359176635742
0.3488372564315796 0.13527388870716095 -0.06976741552352905
0.3488372564315796 0.1359480321407318 0.038759708404541016
0.3488372564315796 0.15971092879772186 0.02325582504272461
0.3488372564315796 0.1870230734348297 -0.007751941680908203
0.348837286233902 0.17866823077201843 0.00775194214656949
0.3488372564315796 0.19388262927532196 -0.05426359176635742
0.3488372564315796 0.19627901911735535 -0.038759708404541016
0.3488372564315796 0.19526168704032898 -0.02325582504272461
0.3488372564315796 0.7775770425796509 0.05426359176635742
0.3488372564315796 0.7822299599647522 0.06976747512817383
0.3488372564315796 0.7981123924255371 0.08527135848999023
0.3488372564315796 0.7988176345825195 0.05426359176635742
0.3488372564315796 0.8245389461517334 0.10077524185180664
0.3488372564315796 0.83433598279953 0.06976747512817383
0.3488372266292572 0.8781839609146118 0.08527135848999023
0.3488372564315796 0.8966417908668518 0.10077524185180664
0.364341139793396 -0.21112200617790222 0.11627912521362305
0.364341139793396 -0.1966291069984436 0.08527135848999023
0.3643411099910736 -0.2082006186246872 0.10077524185180664
0.364341139793396 -0.20282073318958282 0.1317828893661499
0.364341139793396 -0.1786046177148819 0.06976747512817383
0.364341139793396 -0.15417546033859253 0.05426359176635742
0.364341139793396 -0.12829722464084625 0.038759708404541016
0.364341139793396 -0.10171350836753845 0.02325582504272461
0.364341139793396 -0.07478921115398407 0.007751941680908203
0.364341139793396 -0.048577260226011276 -0.007751941680908203
0.364341139793396 -0.01727425493299961 -0.02325582504272461
0.364341139793396 -0.011297399178147316 0.1317828893661499
0.364341139793396 0.023267004638910294 -0.038759708404541016
0.364341139793396 0.025034474208950996 0.11627912521362305
0.364341139793396 0.05243642255663872 0.10077524185180664
0.364341139793396 0.08209117501974106 -0.05426359176635742
0.364341139793396 0.07497188448905945 0.08527135848999023
0.364341139793396 0.09674383699893951 0.06976747512817383
0.364341139793396 0.11908195912837982 0.05426359176635742
0.364341139793396 0.14276255667209625 0.038759708404541016
0.364341139793396 0.1561385989189148 -0.05426359176635742
0.364341139793396 0.16545413434505463 0.02325582504272461
0.364341139793396 0.19187217950820923 -0.007751941680908203
0.364341139793396 0.18069185316562653 0.007751941680908203
0.364341139793396 0.19514133036136627 -0.038759708404541016
0.364341139793396 0.19589762389659882 -0.02325582504272461
0.364341139793396 0.7899371385574341 0.06976747512817383
0.364341139793396 0.796092689037323 0.08527135848999023
0.364341139793396 0.8194193840026855 0.06976747512817383
0.364341139793396 0.8185634613037109 0.10077524185180664
0.364341139793396 0.8774109482765198 0.08527135848999023
0.364341139793396 0.9012558460235596 0.10077524185180664
0.37984490394592285 -0.19826483726501465 0.10077524185180664
0.37984490394592285 -0.20099830627441406 0.11627912521362305
0.37984490394592285 -0.1942932903766632 0.1317828893661499
0.37984490394592285 -0.1851448118686676 0.08527135848999023
0.37984490394592285 -0.16639412939548492 0.06976747512817383
0.37984490394592285 -0.1409732848405838 0.05426359549164772
0.37984490394592285 -0.11499936878681183 0.038759708404541016
0.37984490394592285 -0.08647903800010681 0.02325582504272461
0.37984490394592285 -0.05851105973124504 0.007751941680908203
0.37984490394592285 -0.02976207062602043 -0.007751941680908203
0.37984490394592285 -0.013405214995145798 0.1317828893661499
0.37984490394592285 0.007141727022826672 -0.02325582504272461
0.37984490394592285 0.025920717045664787 0.11627912521362305
0.37984490394592285 0.06718915700912476 -0.038759708404541016
0.37984490394592285 0.055896855890750885 0.10077524185180664
0.37984490394592285 0.08043117076158524 0.08527135848999023
0.37984490394592285 0.10374439507722855 0.06976747512817383
0.37984490394592285 0.1270538568496704 0.05426359176635742
0.37984490394592285 0.1517406702041626 0.038759708404541016
0.37984490394592285 0.17367608845233917 0.02325582504272461
0.37984490394592285 0.18224763870239258 -0.038759708404541016
0.37984490394592285 0.18441054224967957 0.007751941680908203
0.37984490394592285 0.1963396966457367 -0.02325582318007946
0.37984490394592285 0.19488731026649475 -0.007751941680908203
0.37984490394592285 0.7951599359512329 0.08527135848999023
0.37984490394592285 0.8137089014053345 0.10077524185180664
0.37984490394592285 0.8576611280441284 0.08527135848999023
0.37984490394592285 0.8913623094558716 0.11627912521362305
0.37984490394592285 0.9065514802932739 0.10077524185180664
0.37984490394592285 0.8915184140205383 0.11627911776304245
0.39534878730773926 -0.1878637969493866 0.10077524185180664
0.39534878730773926 -0.19219912588596344 0.11627912521362305
0.39534878730773926 -0.18356986343860626 0.1317828893661499
0.39534878730773926 -0.17450803518295288 0.08527135848999023
0.39534878730773926 -0.15417733788490295 0.06976747512817383
0.39534878730773926 -0.1290993094444275 0.05426359176635742
0.39534878730773926 -0.10076199471950531 0.038759708404541016
0.39534878730773926 -0.0700293481349945 0.02325582504272461
0.39534878730773926 -0.03967587649822235 0.007751941680908203
0.39534878730773926 -0.013187780976295471 0.1317828893661499
0.39534878730773926 -0.003274589776992798 -0.007751941680908203
0.39534878730773926 0.02935168147087097 0.11627912521362305
0.39534878730773926 0.06330381333827972 -0.02325582504272461
0.39534878730773926 0.06381764262914658 0.10077524185180664
0.39534878730773926 0.09197428822517395 0.08527135848999023
0.39534878730773926 0.11767345666885376 0.06976747512817383
0.39534878730773926 0.14312390983104706 0.05426359176635742
0.39534878730773926 0.1680627465248108 0.038759708404541016
0.39534878730773926 0.18234063684940338 0.02325582504272461
0.39534878730773926 0.19525820016860962 -0.02325582504272461
0.39534878730773926 0.1965576708316803 -0.00775194214656949
0.39534878730773926 0.1942664086818695 0.007751941680908203
0.39534878730773926 0.7966398000717163 0.08527135848999023
0.39534878730773926 0.8121342062950134 0.10077524185180664
0.39534878730773926 0.8426913022994995 0.08527135848999023
0.39534878730773926 0.8827767372131348 0.11627912521362305
0.39534878730773926 0.8966876268386841 0.11627912521362305
0.39534878730773926 0.9095038175582886 0.10077524185180664
0.41085267066955566 -0.17956027388572693 0.10077524185180664
0.41085267066955566 -0.1837269365787506 0.11627912521362305
0.41085267066955566 -0.16538392007350922 0.08527135848999023
0.41085267066955566 -0.17546123266220093 0.1317828893661499
0.41085267066955566 -0.1433306485414505 0.06976747512817383
0.41085267066955566 -0.11754397302865982 0.05426359176635742
0.41085267066955566 -0.0853668749332428 0.038759708404541016
0.4108526408672333 -0.0508115328848362 0.02325582504272461
0.41085267066955566 -0.016943853348493576 0.007751941215246916
0.41085267066955566 -0.01369114313274622 0.1317828893661499
0.41085267066955566 0.03225664049386978 0.11627912521362305
0.41085267066955566 0.051663585007190704 -0.007751941680908203
0.41085267066955566 0.0723826065659523 0.10077524185180664
0.41085267066955566 0.10374938696622849 0.08527135103940964
0.41085267066955566 0.13204123079776764 0.06976748257875443
0.41085267066955566 0.16061630845069885 0.05426359176635742
0.41085267066955566 0.19311797618865967 0.02325582504272461
0.41085267066955566 0.18028242886066437 0.038759708404541016
0.41085267066955566 0.1974291354417801 -0.007751941680908203
0.41085270047187805 0.19603866338729858 0.007751941680908203
0.41085267066955566 0.8068960905075073 0.08527135848999023
0.41085267066955566 0.8117247223854065 0.10077524185180664
0.4108526408672333 0.830107569694519 0.08527135103940964
0.41085267066955566 0.8587751388549805 0.11627912521362305
0.41085267066955566 0.911950945854187 0.10077524185180664
0.41085267066955566 0.9090721607208252 0.11627912521362305
0.42635655403137207 -0.16952544450759888 0.10077524185180664
0.42635655403137207 -0.17555613815784454 0.11627912521362305
0.42635655403137207 -0.1674310714006424 0.1317828893661499
0.42635655403137207 -0.15447898209095 0.08527135848999023
0.42635655403137207 -0.13391149044036865 0.06976747512817383
0.42635655403137207 -0.10466775298118591 0.05426359176635742
0.42635655403137207 -0.07010908424854279 0.038759708404541016
0.42635655403137207 -0.03292393684387207 0.02325582504272461
0.42635655403137207 -0.00956341065466404 0.1317828893661499
0.42635655403137207 0.01615142822265625 0.007751941680908203
0.42635655403137207 0.039168767631053925 0.11627913266420364
0.42635655403137207 0.0841522216796875 0.10077524185180664
0.42635655403137207 0.1174648255109787 0.08527135848999023
0.42635655403137207 0.14892031252384186 0.06976747512817383
0.42635655403137207 0.17777793109416962 -0.007751941680908203
0.42635655403137207 0.17655807733535767 0.05426359176635742
0.42635655403137207 0.18851837515830994 0.038759708404541016
0.42635655403137207 0.19530384242534637 -0.007751941680908203
0.42635655403137207 0.19843047857284546 0.007751941680908203
0.42635655403137207 0.19564707577228546 0.02325582504272461
0.42635655403137207 0.8127043843269348 0.10077524185180664
0.42635655403137207 0.8551929593086243 0.11627912521362305
0.42635655403137207 0.9129533767700195 0.10077524185180664
0.42635655403137207 0.9129486083984375 0.11627912521362305
0.4418604373931885 -0.1667623072862625 0.11627912521362305
0.4418604373931885 -0.15971249341964722 0.10077524930238724
0.4418604373931885 -0.15857642889022827 0.1317828893661499
0.4418604373931885 -0.1444285362958908 0.08527135848999023
0.4418604373931885 -0.1216256320476532 0.06976747512817383
0.4418604373931885 -0.09067809581756592 0.05426359176635742
0.4418604373931885 -0.05284266173839569 0.038759708404541016
0.4418604373931885 -0.01070665568113327 0.02325582504272461
0.4418604373931885 -0.0045462120324373245 0.1317828893661499
0.4418604373931885 0.04620194435119629 0.11627912521362305
0.4418604373931885 0.09517714381217957 0.10077524185180664
0.4418604373931885 0.12499088048934937 0.007751941680908203
0.4418604373931885 0.1309417337179184 0.08527135848999023
0.4418604373931885 0.164251908659935 0.06976747512817383
0.4418604373931885 0.182598277926445 0.05426359176635742
0.4418604373931885 0.20211538672447205 0.007751941680908203
0.44186046719551086 0.19836607575416565 0.02325582504272461
0.4418604373931885 0.19510981440544128 0.038759708404541016
0.4418604373931885 0.8176858425140381 0.10077524185180664
0.4418604373931885 0.8561943769454956 0.11627912521362305
0.4418604373931885 0.9125553965568542 0.10077524185180664
0.4418604373931885 0.9166809320449829 0.11627912521362305
0.4573643207550049 -0.1499069631099701 0.10077524185180664
0.4573642909526825 -0.15672989189624786 0.11627912521362305
0.4573643207550049 -0.15006718039512634 0.1317828893661499
0.4573643207550049 -0.13400410115718842 0.08527135848999023
0.4573643207550049 -0.10905103385448456 0.06976747512817383
0.4573643207550049 -0.07662851363420486 0.05426359176635742
0.4573643207550049 -0.03398188203573227 0.038759708404541016
0.4573643207550049 -0.00010911631397902966 0.1317828893661499
0.4573643207550049 0.053408581763505936 0.11627912521362305
0.4573643207550049 0.10483274608850479 0.02325582504272461
0.4573643207550049 0.1054537445306778 0.10077524185180664
0.4573643207550049 0.14392708241939545 0.08527135848999023
0.4573643207550049 0.17466473579406738 0.06976747512817383
0.4573643207550049 0.20694944262504578 0.02325582504272461
0.4573643207550049 0.1973048448562622 0.038759708404541016
0.4573643207550049 0.19381965696811676 0.05426359549164772
0.4573643207550049 0.8254454135894775 0.10077524185180664
0.4573643207550049 0.8589926958084106 0.11627912521362305
0.4573643207550049 0.9109659790992737 0.10077524185180664
0.4573643207550049 0.9225558638572693 0.11627912521362305
0.4728682041168213 -0.14879335463047028 0.11627912521362305
0.4728682041168213 -0.13846330344676971 0.10077524185180664
0.4728682041168213 -0.1397881805896759 0.1317828893661499
0.4728682041168213 -0.12269172072410583 0.08527135848999023
0.4728682041168213 -0.09916238486766815 0.06976747512817383
0.4728682041168213 -0.06533651053905487 0.05426359176635742
0.4728682041168213 -0.010242479853332043 0.038759708404541016
0.4728681743144989 0.009363691322505474 0.1317828893661499
0.4728682041168213 0.04124081879854202 0.038759712129831314
0.4728682041168213 0.06565234810113907 0.11627912521362305
0.4728682041168213 0.08496879786252975 0.038759708404541016
0.4728682041168213 0.11930816620588303 0.10077524185180664
0.4728682041168213 0.15818797051906586 0.08527135848999023
0.4728682041168213 0.1701936423778534 0.02325582504272461
0.4728682041168213 0.1810452938079834 0.06976747512817383
0.4728682041168213 0.2057589590549469 0.038759708404541016
0.4728682041168213 0.19560718536376953 0.05426359176635742
0.4728682339191437 0.2096894383430481 0.02325582504272461
0.4728682041168213 0.8341662287712097 0.10077524185180664
0.4728682041168213 0.863673746585846 0.11627912521362305
0.4728682041168213 0.9027573466300964 0.10077524185180664
0.4728681743144989 0.9257435202598572 0.11627911776304245
0.4883720874786377 -0.13799938559532166 0.11627912521362305
0.4883720874786377 -0.1298753321170807 0.10077524185180664
0.4883720576763153 -0.13167190551757812 0.1317828744649887
0.4883720874786377 -0.11305610835552216 0.08527135848999023
0.4883720874786377 -0.08844324201345444 0.06976747512817383
0.4883720874786377 -0.05252499878406525 0.05426359549164772
0.4883720874786377 0.01889590546488762 0.1317828893661499
0.4883720874786377 0.08297597616910934 0.11627912521362305
0.4883720874786377 0.1444726437330246 0.038759708404541016
0.4883721172809601 0.13465140759944916 0.10077524185180664
0.4883720874786377 0.16869355738162994 0.08527135848999023
0.4883720874786377 0.19298440217971802 0.06976747512817383
0.4883720874786377 0.1996312439441681 0.05426359176635742
0.4883720874786377 0.21040602028369904 0.038759708404541016
0.4883720874786377 0.8711822032928467 0.11627912521362305
0.4883720874786377 0.9291310906410217 0.11627912521362305
0.5038759708404541 -0.12041962891817093 0.10077524185180664
0.5038759708404541 -0.12973152101039886 0.11627912521362305
0.5038759708404541 -0.12072716653347015 0.1317828893661499
0.5038759708404541 -0.10352963209152222 0.08527135848999023
0.5038759708404541 -0.07685381174087524 0.06976747512817383
0.5038759708404541 -0.06815656274557114 0.1472867727279663
0.5038759708404541 -0.047722674906253815 0.1472867727279663
0.5038759708404541 -0.024938568472862244 0.05426359176635742
0.5038759708404541 0.017826296389102936 0.05426359176635742
0.5038759708404541 0.03069407120347023 0.1317828893661499
0.5038759708404541 0.10232250392436981 0.11627912521362305
0.5038759708404541 0.11699497699737549 0.05426359176635742
0.5038759708404541 0.15006953477859497 0.10077524185180664
0.5038759708404541 0.19181020557880402 0.038759708404541016
0.5038759708404541 0.179019033908844 0.08527135848999023
0.5038759708404541 0.1956951916217804 0.06976747512817383
0.5038759708404541 0.20931996405124664 0.038759712129831314
0.5038759708404541 0.20974090695381165 0.05426359176635742
0.5038759708404541 0.8838260173797607 0.11627912521362305
0.5038759708404541 0.9319588541984558 0.11627912521362305
0.5193798542022705 -0.12029404938220978 0.11627912521362305
0.5193798542022705 -0.1105651706457138 0.10077524185180664
0.5193798542022705 -0.1109294444322586 0.1317828893661499
0.5193798542022705 -0.09251686930656433 0.08527135848999023
0.5193798542022705 -0.06999032199382782 0.1472867727279663
0.5193798542022705 -0.06584077328443527 0.06976747512817383
0.5193798542022705 -0.02947208471596241 0.1472867727279663
0.5193798542022705 0.052187129855155945 0.06976747512817383
0.5193798542022705 0.04678119719028473 0.1317828893661499
0.5193798542022705 0.0849069207906723 0.06976747512817383
0.5193798542022705 0.11885106563568115 0.11627912521362305
0.5193798542022705 0.17156235873699188 0.05426359176635742
0.5193798542022705 0.16282391548156738 0.10077524185180664
0.5193798542022705 0.1850872039794922 0.08527135848999023
0.5193798542022705 0.1997881382703781 0.06976747512817383
0.5193798542022705 0.21022748947143555 0.05426359549164772
0.5193798542022705 0.8983563780784607 0.11627912521362305
0.5193798542022705 0.9378989338874817 0.11627912521362305
0.5348837375640869 -0.10190077871084213 0.10077524185180664
0.5348837375640869 -0.10983110964298248 0.11627913266420364
0.5348837375640869 -0.1026163175702095 0.1317828893661499
0.5348837375640869 -0.08148457854986191 0.08527135848999023
0.5348837375640869 -0.06845483183860779 0.1472867727279663
0.5348837375640869 -0.04205671325325966 0.06976747512817383
0.5348837375640869 -0.008064400404691696 0.1472867727279663
0.5348837375640869 0.0018356528598815203 0.06976747512817383
0.5348837375640869 0.0707111582159996 0.1317828893661499
0.5348837375640869 0.14539305865764618 0.06976747512817383
0.5348837375640869 0.1354435831308365 0.11627913266420364
0.5348837375640869 0.1718539446592331 0.10077524185180664
0.5348837375640869 0.209098681807518 0.06976747512817383
0.5348837375640869 0.19509921967983246 0.08527135848999023
0.5348837375640869 0.9082902073860168 0.11627912521362305
0.5348837375640869 0.9408964514732361 0.11627912521362305
0.5503876209259033 -0.10131222009658813 0.11627912521362305
0.5503876209259033 -0.08926307410001755 0.10077524185180664
0.5503876209259033 -0.0909750759601593 0.1317828893661499
0.5503876209259033 -0.06698255240917206 0.08527135848999023
0.5503876209259033 -0.0620928555727005 0.1472867727279663
0.5503876209259033 0.01033772248774767 0.1472867727279663
0.5503876209259033 0.033563680946826935 0.08527135848999023
0.5503876209259033 0.09663254767656326 0.1317828893661499
0.5503876209259033 0.11060575395822525 0.08527135848999023
0.5503876209259033 0.1504681557416916 0.11627912521362305
0.5503876209259033 0.18684884905815125 0.06976747512817383
0.5503876209259033 0.1806333363056183 0.10077524185180664
0.5503876209259033 0.1993466019630432 0.06976747512817383
0.5503876209259033 0.19692958891391754 0.08527135848999023
0.5503876209259033 0.9181703925132751 0.11627912521362305
0.5503876209259033 0.9429988861083984 0.11627912521362305
0.5658915042877197 -0.08867976814508438 0.11627912521362305
0.5658915042877197 -0.07512842118740082 0.10077524185180664
0.5658915042877197 -0.08246753364801407 0.1317828893661499
0.5658915042877197 -0.05861857160925865 0.1472867727279663
0.5658915042877197 -0.039403002709150314 0.08527135848999023
0.5658915042877197 -0.010656937956809998 0.08527135848999023
0.5658915042877197 0.029239702969789505 0.1472867727279663
0.5658915042877197 0.11771603673696518 0.1317828893661499
0.5658915042877197 0.16053767502307892 0.08527135848999023
0.5658915042877197 0.16377456486225128 0.11627912521362305
0.5658915042877197 0.19306573271751404 0.10077524185180664
0.5658915042877197 0.1974174678325653 0.08527135848999023
0.5658915042877197 0.9249559044837952 0.11627911776304245
0.5658915042877197 0.9457848072052002 0.11627912521362305
0.5813953876495361 -0.0760083869099617 0.11627912521362305
0.5813953876495361 -0.07245467603206635 0.1317828893661499
0.5813953876495361 -0.0571783222258091 0.10077524185180664
0.5813953876495361 -0.05577807500958443 0.1472867727279663
0.5813953876495361 0.020022541284561157 0.10077524185180664
0.5813953876495361 0.07095669955015182 0.1472867727279663
0.5813953876495361 0.12614351511001587 0.10077524185180664
0.5813953876495361 0.1361261010169983 0.1317828893661499
0.5813953876495361 0.17777156829833984 0.11627912521362305
0.5813953876495361 0.1951734721660614 0.10077524185180664
0.5813953876495361 0.9315071105957031 0.11627912521362305
0.5813953876495361 0.9342213273048401 0.1317828893661499
0.5813953876495361 0.9500716924667358 0.1317828893661499
0.5813953280448914 0.9536563754081726 0.11627912521362305
0.5968992710113525 -0.06272293627262115 0.11627912521362305
0.5968992710113525 -0.06307733803987503 0.1317828893661499
0.5968992710113525 -0.05430210381746292 0.1472867727279663
0.5968992710113525 0.04153493791818619 0.11627911776304245
0.5968992710113525 0.10452256351709366 0.11627912521362305
0.5968992710113525 0.10467848181724548 0.1472867727279663
0.5968992710113525 0.15404164791107178 0.1317828893661499
0.5968992710113525 0.17065376043319702 0.10077524185180664
0.5968992710113525 0.18167905509471893 0.11627912521362305
0.5968992710113525 0.19452787935733795 0.10077523440122604
0.612403154373169 -0.05618472769856453 0.1317828893661499
0.612403154373169 -0.04496936872601509 0.11627912521362305
0.612403154373169 -0.04609839618206024 0.1472867727279663
0.612403154373169 -0.013879332691431046 0.16279065608978271
0.612403154373169 0.014748775400221348 0.11627912521362305
0.612403154373169 0.01810835488140583 0.16279065608978271
0.612403154373169 0.12552496790885925 0.1472867727279663
0.6124032139778137 0.13368582725524902 0.11627912521362305
0.612403154373169 0.16843947768211365 0.1317828893661499
0.612403154373169 0.18364529311656952 0.11627912521362305
0.6279069185256958 -0.04447072744369507 0.1317828893661499
0.6279069185256958 -0.041762903332710266 0.1472867727279663
0.6279069185256958 -0.027807185426354408 0.16279065608978271
0.6279069185256958 0.032331351190805435 0.1317828893661499
0.6279069185256958 0.10480376332998276 0.1317828893661499
0.6279069185256958 0.10488337278366089 0.16279065608978271
0.6279069185256958 0.14494086802005768 0.1472867727279663
0.6279069185256958 0.17437535524368286 0.11627912521362305
0.6279069185256958 0.17923496663570404 0.11627912521362305
0.6279069185256958 0.17928695678710938 0.1317828893661499
0.6434108018875122 -0.02749459445476532 0.1317828893661499
0.6434108018875122 -0.037250813096761703 0.1472867876291275
0.6434108018875122 -0.027333945035934448 0.16279065608978271
0.6434107422828674 0.009594996459782124 0.1317828893661499
0.6434108018875122 0.13058720529079437 0.1317828893661499
0.6434108018875122 0.12190144509077072 0.16279065608978271
0.6434108018875122 0.16340632736682892 0.14728675782680511
0.6434108018875122 0.18008601665496826 0.1317828893661499
0.6589146852493286 -0.025826964527368546 0.1472867727279663
0.6589146852493286 -0.0254996158182621 0.16279065608978271
0.6589146852493286 -0.010363182052969933 0.17829453945159912
0.6589146852493286 0.03738170489668846 0.1472867727279663
0.6589146852493286 0.08096928894519806 0.1472867727279663
0.6589146852493286 0.09780280292034149 0.17829453945159912
0.6589146852493286 0.13732990622520447 0.16279065608978271
0.6589146852493286 0.17856764793395996 0.1472867727279663
0.674418568611145 -0.016686616465449333 0.16279065608978271
0.674418568611145 -0.013368146494030952 0.17829453945159912
0.674418568611145 0.11234620958566666 0.1472867727279663
0.674418568611145 0.11692653596401215 0.17829453945159912
0.674418568611145 0.16280335187911987 0.16279064118862152
0.674418568611145 0.17938455939292908 0.1472867727279663
0.6899224519729614 -0.009007279761135578 0.17829453945159912
0.6899224519729614 0.0069791218265891075 0.16279065608978271
0.6899224519729614 0.0006410181522369385 0.19379842281341553
0.6899224519729614 0.02648979425430298 0.16279065608978271
0.6899224519729614 0.0644594132900238 0.19379842281341553
0.6899224519729614 0.07229594141244888 0.16279065608978271
0.6899224519729614 0.13683366775512695 0.17829453945159912
0.6899224519729614 0.1762584000825882 0.16279065608978271
0.7054263353347778 0.006947265937924385 0.17829453945159912
0.7054263353347778 0.004441174678504467 0.19379842281341553
0.7054263353347778 0.11139604449272156 0.16279065608978271
0.7054263353347778 0.10850507766008377 0.19379842281341553
0.7054263353347778 0.17276091873645782 0.16279065608978271
0.7054263353347778 0.16357563436031342 0.17829453945159912
0.7209302186965942 0.022554555907845497 0.19379842281341553
0.7209302186965942 0.028025031089782715 0.20930232107639313
0.7209302186965942 0.07862483710050583 0.20930230617523193
0.7209302186965942 0.09456980228424072 0.17829453945159912
0.7209302186965942 0.14467336237430573 0.19379842281341553
0.7209302186965942 0.16919761896133423 0.17829453945159912
0.7364341020584106 0.051486484706401825 0.20930230617523193
0.7364341020584106 0.07744209468364716 0.19379842281341553
0.7364341020584106 0.12043541669845581 0.20930230617523193
0.7364341020584106 0.16406208276748657 0.19379842281341553
0.751937985420227 0.09326586127281189 0.20930230617523193
0.751937985420227 0.1305508017539978 0.19379842281341553
0.751937985420227 0.14901050925254822 0.20930230617523193
0.751937985420227 0.16716864705085754 0.19379842281341553
0.7674418687820435 0.1275925487279892 0.20930230617523193
0.7674418687820435 0.1797231286764145 0.20930230617523193
-0.7674418687820435 0.1472867727279663 0.20661622285842896
-0.7674418687820435 0.1472867727279663 0.21722382307052612
-0.7674418687820435 0.16279065608978271 0.2059871256351471
-0.7674418687820435 0.16279065608978271 0.2164120078086853
-0.751937985420227 0.10077524185180664 0.20903050899505615
-0.751937985420227 0.10077523440122604 0.20957395434379578
-0.751937985420227 0.11627912521362305 0.20416149497032166
-0.751937985420227 0.11627912521362305 0.21288517117500305
-0.751937985420227 0.1317828893661499 0.1995599865913391
-0.751937985420227 0.1317828893661499 0.21387240290641785
-0.751937985420227 0.1472867727279663 0.19532571732997894
-0.751937985420227 0.1472867727279663 0.21217507123947144
-0.751937985420227 0.16279065608978271 0.19974568486213684
-0.751937985420227 0.16279065608978271 0.2104211300611496
-0.7364341020584106 0.06976747512817383 0.19744941592216492
-0.7364341020584106 0.06976747512817383 0.21270093321800232
-0.7364341020584106 0.08527135848999023 0.1934979110956192
-0.7364341616630554 0.08527135848999023 0.21297648549079895
-0.7364341020584106 0.10077524185180664 0.19143925607204437
-0.7364341020584106 0.10077524185180664 0.21178892254829407
-0.7364341020584106 0.11627912521362305 0.1897314190864563
-0.7364341020584106 0.11627912521362305 0.2109651118516922
-0.7364341020584106 0.1317828893661499 0.18831175565719604
-0.7364341616630554 0.1317828893661499 0.21000991761684418
-0.7364341020584106 0.1472867727279663 0.18799051642417908
-0.7364341020584106 0.1472867727279663 0.2016514539718628
-0.7364341020584106 0.16279065608978271 0.18922385573387146
-0.7364341020584106 0.16279065608978271 0.1968367099761963
-0.7209302186965942 0.038759708404541016 0.1863446831703186
-0.7209302186965942 0.038759712129831314 0.2098485231399536
-0.7209302186965942 0.05426359176635742 0.18630486726760864
-0.7209302186965942 0.05426359176635742 0.21098020672798157
-0.7209302186965942 0.06976747512817383 0.18714459240436554
-0.7209301590919495 0.06976747512817383 0.21046528220176697
-0.7209302186965942 0.08527135848999023 0.1867881566286087
-0.7209302186965942 0.08527135848999023 0.20953524112701416
-0.7209302186965942 0.10077523440122604 0.182889923453331
-0.7209302186965942 0.10077524185180664 0.2041402906179428
-0.7209302186965942 0.11627912521362305 0.17717035114765167
-0.7209302186965942 0.11627912521362305 0.2005552053451538
-0.7209302186965942 0.1317828893661499 0.1757236272096634
-0.7209302186965942 0.1317828893661499 0.1980576366186142
-0.7209302186965942 0.1472867727279663 0.17535817623138428
-0.7209302186965942 0.1472867727279663 0.19586144387722015
-0.7209302186965942 0.16279065608978271 0.1759442687034607
-0.7209302186965942 0.16279065608978271 0.19019530713558197
-0.7054263353347778 0.007751941680908203 0.1779341697692871
-0.7054263949394226 0.00775194214656949 0.1945871263742447
-0.7054263353347778 0.02325582504272461 0.17418736219406128
-0.7054263353347778 0.02325582504272461 0.20197024941444397
-0.7054263353347778 0.038759708404541016 0.17485475540161133
-0.7054263353347778 0.038759708404541016 0.20353078842163086
-0.7054263353347778 0.05426359176635742 0.17563892900943756
-0.7054263353347778 0.05426359176635742 0.20156030356884003
-0.7054263353347778 0.06976747512817383 0.17602379620075226
-0.7054263353347778 0.06976747512817383 0.19932177662849426
-0.7054263353347778 0.08527135848999023 0.17535510659217834
-0.7054263353347778 0.08527135848999023 0.19733282923698425
-0.7054263353347778 0.10077524185180664 0.17339424788951874
-0.7054263353347778 0.10077524185180664 0.19571730494499207
-0.7054263353347778 0.11627912521362305 0.17017966508865356
-0.7054263353347778 0.11627913266420364 0.1946435570716858
-0.7054263353347778 0.1317828893661499 0.16461022198200226
-0.7054263353347778 0.1317828893661499 0.19258688390254974
-0.7054263353347778 0.1472867727279663 0.16268055140972137
-0.7054263353347778 0.1472867727279663 0.18647965788841248
-0.7054262757301331 0.16279065608978271 0.16629578173160553
-0.7054263353347778 0.16279065608978271 0.181345134973526
-0.6899224519729614 -0.007751941680908203 0.17265260219573975
-0.6899224519729614 -0.007751941680908203 0.18210254609584808
-0.6899224519729614 0.007751941680908203 0.16221214830875397
-0.6899224519729614 0.007751941680908203 0.19575947523117065
-0.6899224519729614 0.02325582504272461 0.16333472728729248
-0.6899224519729614 0.02325582504272461 0.1962776482105255
-0.6899224519729614 0.038759708404541016 0.16809362173080444
-0.6899224519729614 0.038759708404541016 0.19573146104812622
-0.6899224519729614 0.05426359176635742 0.17027996480464935
-0.6899224519729614 0.05426359176635742 0.19500687718391418
-0.6899224519729614 0.06976747512817383 0.17017650604248047
-0.6899224519729614 0.06976747512817383 0.19444547593593597
-0.6899225115776062 0.08527135848999023 0.16542991995811462
-0.6899223923683167 0.08527135103940964 0.19387246668338776
-0.6899224519729614 0.10077524185180664 0.1613674908876419
-0.6899224519729614 0.10077524185180664 0.18991702795028687
-0.6899224519729614 0.11627912521362305 0.16022104024887085
-0.6899224519729614 0.11627912521362305 0.1856648027896881
-0.6899224519729614 0.1317828893661499 0.1593724936246872
-0.6899224519729614 0.1317828893661499 0.18235349655151367
-0.6899224519729614 0.1472867727279663 0.15903303027153015
-0.6899224519729614 0.1472867727279663 0.17980965971946716
-0.6899224519729614 0.16279065608978271 0.15927277505397797
-0.6899224519729614 0.16279065608978271 0.17472438514232635
-0.6899224519729614 0.17829453945159912 0.16237801313400269
-0.6899224519729614 0.17829452455043793 0.16317646205425262
-0.674418568611145 -0.007751941680908203 0.15320904552936554
-0.674418568611145 -0.007751941680908203 0.18595585227012634
-0.674418568611145 0.007751941680908203 0.15444114804267883
-0.674418568611145 0.007751941680908203 0.18786588311195374
-0.674418568611145 0.02325582504272461 0.15729865431785583
-0.674418568611145 0.02325582504272461 0.18721430003643036
-0.674418568611145 0.038759708404541016 0.15913733839988708
-0.674418568611145 0.038759708404541016 0.1868220567703247
-0.674418568611145 0.05426359176635742 0.1600208729505539
-0.674418568611145 0.05426359176635742 0.1861896961927414
-0.674418568611145 0.06976747512817383 0.16000354290008545
-0.674418568611145 0.06976747512817383 0.18551701307296753
-0.674418568611145 0.08527135848999023 0.15916508436203003
-0.674418568611145 0.08527135848999023 0.1840951144695282
-0.674418568611145 0.10077524185180664 0.15747550129890442
-0.674418568611145 0.10077524185180664 0.18191729485988617
-0.674418568611145 0.11627912521362305 0.15340866148471832
-0.674418568611145 0.11627912521362305 0.1797078549861908
-0.674418568611145 0.1317828893661499 0.14694491028785706
-0.674418568611145 0.1317828893661499 0.17603468894958496
-0.674418568611145 0.1472867727279663 0.14635802805423737
-0.674418568611145 0.1472867727279663 0.1707431972026825
-0.674418568611145 0.16279065608978271 0.14602215588092804
-0.6744186282157898 0.16279065608978271 0.16612808406352997
-0.6589146852493286 -0.02325582504272461 0.14289480447769165
-0.6589146852493286 -0.02325582504272461 0.1763131469488144
-0.6589146852493286 -0.007751941680908203 0.14109882712364197
-0.6589146852493286 -0.007751941680908203 0.18003535270690918
-0.6589146852493286 0.007751941680908203 0.14312653243541718
-0.6589146852493286 0.007751941680908203 0.17986488342285156
-0.6589146852493286 0.02325582504272461 0.14564137160778046
-0.6589146852493286 0.02325582504272461 0.17992106080055237
-0.6589146256446838 0.038759708404541016 0.15022249519824982
-0.6589146852493286 0.038759708404541016 0.18017908930778503
-0.6589146852493286 0.05426359176635742 0.15436819195747375
-0.6589146852493286 0.05426359176635742 0.18023046851158142
-0.6589146852493286 0.06976747512817383 0.1542338728904724
-0.6589146852493286 0.06976747512817383 0.18024766445159912
-0.6589146852493286 0.08527135848999023 0.14901791512966156
-0.6589146852493286 0.08527135848999023 0.17978306114673615
-0.6589146852493286 0.10077524185180664 0.14580750465393066
-0.6589147448539734 0.10077524185180664 0.17858126759529114
-0.6589146852493286 0.11627912521362305 0.14474059641361237
-0.6589146852493286 0.11627912521362305 0.17262309789657593
-0.6589146852493286 0.1317828893661499 0.1438981294631958
-0.6589146852493286 0.1317828893661499 0.16720259189605713
-0.6589146852493286 0.1472867727279663 0.14312757551670074
-0.6589146256446838 0.1472867727279663 0.1632883995771408
-0.6589146852493286 0.16279065608978271 0.14255937933921814
-0.6589146852493286 0.16279065608978271 0.15707547962665558
-0.6589146852493286 0.17829453945159912 0.14370861649513245
-0.6589146852493286 0.17829453945159912 0.14971022307872772
-0.643410861492157 -0.038759708404541016 0.140839084982872
-0.643410861492157 -0.038759708404541016 0.1538364291191101
-0.643410861492157 -0.02325582504272461 0.12970660626888275
-0.643410861492157 -0.02325582504272461 0.1715480089187622
-0.643410861492157 -0.007751941680908203 0.12947171926498413
-0.643410861492157 -0.007751941680908203 0.17199021577835083
-0.643410861492157 0.007751941680908203 0.1315682977437973
-0.643410861492157 0.007751941680908203 0.17217621207237244
-0.643410861492157 0.02325582504272461 0.1399637758731842
-0.643410861492157 0.02325582504272461 0.17275938391685486
-0.643410861492157 0.038759708404541016 0.14355379343032837
-0.643410861492157 0.038759708404541016 0.17377261817455292
-0.643410861492157 0.05426359176635742 0.14494267106056213
-0.643410861492157 0.05426359176635742 0.17469066381454468
-0.643410861492157 0.06976747512817383 0.1450355499982834
