0.17829453945159912 0.11627912521362305 -0.6220519542694092
0.17829453945159912 0.11627912521362305 -0.21840329468250275
0.17829453945159912 0.11627912521362305 0.2817349135875702
0.17829453945159912 0.1317828893661499 -0.2115078717470169
0.17829452455043793 0.1317828893661499 0.2759142816066742
0.17829453945159912 0.1472867727279663 -0.2032947540283203
0.17829453945159912 0.1472867727279663 0.2677810788154602
0.17829455435276031 0.16279065608978271 -0.19333839416503906
0.17829453945159912 0.16279065608978271 0.25665077567100525
0.17829453945159912 0.17829453945159912 -0.18492570519447327
0.17829453945159912 0.17829453945159912 0.23869779706001282
0.17829453945159912 0.19379842281341553 -0.1735343188047409
0.17829453945159912 0.19379842281341553 0.21224983036518097
0.17829453945159912 0.20930230617523193 -0.1653621792793274
0.17829453945159912 0.20930230617523193 0.18632495403289795
0.17829453945159912 0.22480618953704834 -0.15655222535133362
0.17829453945159912 0.22480618953704834 0.1613118052482605
0.17829453945159912 0.24031007289886475 -0.1480293720960617
0.17829453945159912 0.24031007289886475 0.14100641012191772
0.17829453945159912 0.25581395626068115 -0.1392040103673935
0.17829453945159912 0.25581395626068115 0.11916571110486984
0.17829453945159912 0.27131783962249756 -0.12902206182479858
0.17829453945159912 0.27131783962249756 0.09518544375896454
0.17829453945159912 0.28682172298431396 -0.11897963285446167
0.17829453945159912 0.28682172298431396 0.0685894638299942
0.17829453945159912 0.30232560634613037 -0.10785073041915894
0.17829453945159912 0.30232560634613037 0.04427538067102432
0.17829453945159912 0.3178294897079468 -0.09796220809221268
0.17829453945159912 0.3178294897079468 0.029963798820972443
0.17829453945159912 0.3333333730697632 -0.0891929343342781
0.17829453945159912 0.3333333730697632 0.02478571981191635
0.17829453945159912 0.3488372564315796 -0.07938738167285919
0.17829453945159912 0.3488372564315796 0.01919586956501007
0.17829453945159912 0.364341139793396 -0.07120265066623688
0.17829453945159912 0.364341139793396 0.014065871015191078
0.17829453945159912 0.37984490394592285 -0.05920042097568512
0.17829453945159912 0.37984490394592285 0.011028540320694447
0.17829453945159912 0.39534878730773926 -0.047056980431079865
0.17829453945159912 0.39534878730773926 0.009141301736235619
0.17829453945159912 0.41085267066955566 -0.03310374170541763
0.17829453945159912 0.41085267066955566 0.004052858799695969
0.19379842281341553 -0.3488371968269348 -0.0053032273426651955
0.19379842281341553 -0.3488371968269348 0.024660492315888405
0.19379840791225433 -0.3333333134651184 -0.01937849074602127
0.19379842281341553 -0.3333333134651184 0.034912217408418655
0.19379842281341553 -0.317829430103302 -0.03545713797211647
0.19379842281341553 -0.317829430103302 0.0448184572160244
0.19379842281341553 -0.30232560634613037 -0.05265374109148979
0.19379842281341553 -0.30232560634613037 0.058128222823143005
0.19379842281341553 -0.28682172298431396 -0.07034795731306076
0.19379842281341553 -0.28682172298431396 0.07687833905220032
0.19379842281341553 -0.27131783962249756 -0.08794037997722626
0.19379842281341553 -0.27131783962249756 0.10307933390140533
0.19379842281341553 -0.25581395626068115 -0.105579674243927
0.19379842281341553 -0.25581395626068115 0.13399383425712585
0.19379842281341553 -0.24031007289886475 -0.12077231705188751
0.19379842281341553 -0.24031007289886475 0.16614726185798645
0.19379842281341553 -0.22480618953704834 -0.13318663835525513
0.19379842281341553 -0.22480618953704834 0.1918400526046753
0.19379842281341553 -0.20930230617523193 -0.14331448078155518
0.19379842281341553 -0.20930229127407074 0.21110934019088745
0.19379842281341553 -0.19379842281341553 -0.1531243920326233
0.19379842281341553 -0.19379842281341553 0.22842314839363098
0.19379843771457672 -0.1782945990562439 -0.1593908965587616
0.19379842281341553 -0.1782945990562439 0.24364949762821198
0.19379842281341553 -0.1627907156944275 -0.1685979962348938
0.19379842281341553 -0.1627907156944275 0.2567007839679718
0.19379842281341553 -0.14728683233261108 -0.17528054118156433
0.19379842281341553 -0.14728683233261108 0.26696598529815674
0.19379842281341553 -0.13178294897079468 -0.1853247880935669
0.19379842281341553 -0.13178294897079468 0.2762599587440491
0.19379842281341553 -0.11627906560897827 -0.19196876883506775
0.19379842281341553 -0.11627906560897827 0.2851485311985016
0.19379842281341553 -0.10077518224716187 -0.6291743516921997
0.19379842281341553 -0.10077518224716187 -0.6160283088684082
0.19379842281341553 -0.10077518224716187 -0.20169061422348022
0.19379842281341553 -0.10077518224716187 0.2924041152000427
0.19379842281341553 -0.08527129888534546 -0.6279458999633789
0.19379840791225433 -0.08527129888534546 -0.6276738047599792
0.19379842281341553 -0.08527129888534546 -0.20728477835655212
0.19379842281341553 -0.08527129888534546 0.29833078384399414
0.19379842281341553 -0.06976741552352905 -0.21621817350387573
0.19379842281341553 -0.06976741552352905 0.30425119400024414
0.19379842281341553 -0.05426359176635742 -0.22305724024772644
0.19379842281341553 -0.05426359176635742 0.30949223041534424
0.19379842281341553 -0.038759708404541016 -0.23035156726837158
0.19379842281341553 -0.038759708404541016 0.3127482831478119
0.19379842281341553 -0.02325582504272461 -0.2336103320121765
0.19379842281341553 -0.02325582504272461 0.31550052762031555
0.19379842281341553 -0.007751941680908203 -0.2331041395664215
0.19379842281341553 -0.007751941680908203 0.31703704595565796
0.19379842281341553 0.007751941680908203 -0.23148328065872192
0.19379842281341553 0.007751941680908203 0.3168588876724243
0.19379842281341553 0.02325582504272461 -0.22909453511238098
0.19379842281341553 0.02325582504272461 0.3144338130950928
0.19379842281341553 0.038759708404541016 -0.22553136944770813
0.19379842281341553 0.038759708404541016 0.31139060854911804
0.19379843771457672 0.05426359549164772 -0.22086012363433838
0.19379842281341553 0.05426359176635742 0.30715909600257874
0.19379842281341553 0.06976747512817383 -0.21706832945346832
0.19379842281341553 0.06976747512817383 0.30104756355285645
0.19379842281341553 0.08527135848999023 -0.21453438699245453
0.19379842281341553 0.08527135848999023 0.2953966557979584
0.19379842281341553 0.10077524185180664 -0.6287716627120972
0.19379842281341553 0.10077524185180664 -0.6232028007507324
0.19379842281341553 0.10077524185180664 -0.21194589138031006
0.19379842281341553 0.10077524185180664 0.28995680809020996
0.19379842281341553 0.11627912521362305 -0.6284807920455933
0.19379842281341553 0.11627912521362305 -0.6250216960906982
0.19379842281341553 0.11627912521362305 -0.2073662281036377
0.19379842281341553 0.11627912521362305 0.28392183780670166
0.19379842281341553 0.1317828893661499 -0.20267587900161743
0.19379842281341553 0.1317828893661499 0.27778542041778564
0.19379842281341553 0.1472867727279663 -0.19492481648921967
0.19379842281341553 0.1472867727279663 0.2694844901561737
0.19379842281341553 0.16279065608978271 -0.18731428682804108
0.19379842281341553 0.16279065608978271 0.2577049136161804
0.19379842281341553 0.17829453945159912 -0.1773904412984848
0.19379842281341553 0.17829453945159912 0.23883937299251556
0.19379842281341553 0.19379842281341553 -0.17009761929512024
0.19379843771457672 0.19379843771457672 0.21097880601882935
0.19379842281341553 0.20930230617523193 -0.15974710881710052
0.19379842281341553 0.20930230617523193 0.1839175522327423
0.19379842281341553 0.22480618953704834 -0.15311723947525024
0.19379842281341553 0.22480618953704834 0.1587742418050766
0.19379842281341553 0.24031007289886475 -0.1428728550672531
0.19379842281341553 0.24031007289886475 0.1374659538269043
0.19379842281341553 0.25581395626068115 -0.13370148837566376
0.19379842281341553 0.25581395626068115 0.11352992057800293
0.19379842281341553 0.27131783962249756 -0.12318563461303711
0.19379842281341553 0.27131783962249756 0.08758852630853653
0.19379842281341553 0.28682172298431396 -0.11145547777414322
0.19379842281341553 0.28682172298431396 0.058887407183647156
0.19379842281341553 0.30232563614845276 -0.0999641939997673
0.19379842281341553 0.30232560634613037 0.033556196838617325
0.19379842281341553 0.3178294897079468 -0.08942636847496033
0.19379843771457672 0.3178294897079468 0.023510869592428207
0.19379842281341553 0.3333333730697632 -0.07981091737747192
0.19379842281341553 0.3333333730697632 0.01518672239035368
0.19379842281341553 0.3488372564315796 -0.07224007695913315
0.19379840791225433 0.3488372266292572 0.011752257123589516
0.19379842281341553 0.364341139793396 -0.060912396758794785
0.19379842281341553 0.364341139793396 0.00969281792640686
0.19379842281341553 0.37984490394592285 -0.04638781398534775
0.19379842281341553 0.37984490394592285 0.004576877690851688
0.20930230617523193 -0.30232560634613037 -0.023551782593131065
0.20930230617523193 -0.30232560634613037 0.04420784115791321
0.20930230617523193 -0.28682172298431396 -0.05487457290291786
0.20930230617523193 -0.28682172298431396 0.06511182337999344
0.20930230617523193 -0.27131783962249756 -0.07622918486595154
0.20930230617523193 -0.27131783962249756 0.09490431845188141
0.20930230617523193 -0.25581395626068115 -0.09515619277954102
0.20930230617523193 -0.25581395626068115 0.1295444667339325
0.20930230617523193 -0.24031007289886475 -0.11116866767406464
0.20930232107639313 -0.24031007289886475 0.163820281624794
0.20930230617523193 -0.22480618953704834 -0.1247548907995224
0.20930230617523193 -0.22480618953704834 0.19017517566680908
0.20930230617523193 -0.20930230617523193 -0.13551242649555206
0.20930230617523193 -0.20930230617523193 0.20992769300937653
0.20930230617523193 -0.19379842281341553 -0.14322808384895325
0.20930230617523193 -0.19379842281341553 0.22755134105682373
0.20930230617523193 -0.1782945990562439 -0.15177714824676514
0.20930232107639313 -0.1782945990562439 0.24322925508022308
0.20930232107639313 -0.1627907156944275 -0.15826180577278137
0.20930230617523193 -0.1627907156944275 0.2570004463195801
0.20930230617523193 -0.14728683233261108 -0.16692471504211426
0.20930230617523193 -0.14728683233261108 0.26867642998695374
0.20930230617523193 -0.13178294897079468 -0.1740565150976181
0.20930230617523193 -0.13178294897079468 0.2782859802246094
0.20930230617523193 -0.11627906560897827 -0.18243971467018127
0.20930230617523193 -0.11627906560897827 0.28836187720298767
0.20930230617523193 -0.10077518224716187 -0.6285134553909302
0.20930230617523193 -0.10077518224716187 -0.6123645305633545
0.20930230617523193 -0.10077518224716187 -0.18946325778961182
0.20930230617523193 -0.10077518224716187 0.29602789878845215
0.20930230617523193 -0.08527129888534546 -0.1962355673313141
0.20930232107639313 -0.08527130633592606 0.3033601641654968
0.20930232107639313 -0.06976741552352905 -0.20427927374839783
0.20930230617523193 -0.06976741552352905 0.308851420879364
0.20930230617523193 -0.05426359176635742 -0.21149760484695435
0.20930230617523193 -0.05426359176635742 0.31345388293266296
0.20930230617523193 -0.038759708404541016 -0.21928349137306213
0.20930230617523193 -0.038759708404541016 0.31771522760391235
0.20930230617523193 -0.02325582504272461 -0.22281867265701294
0.20930230617523193 -0.02325582504272461 0.3204766511917114
0.20930230617523193 -0.007751941680908203 -0.2226799726486206
0.20930230617523193 -0.007751941680908203 0.3221991956233978
0.20930230617523193 0.007751941680908203 -0.2213372141122818
0.20930229127407074 0.007751941680908203 0.3221128284931183
0.20930229127407074 0.02325582504272461 -0.21914465725421906
0.20930230617523193 0.02325582504272461 0.3195716440677643
0.20930230617523193 0.038759708404541016 -0.21568214893341064
0.20930230617523193 0.038759708404541016 0.31564468145370483
0.20930230617523193 0.05426359176635742 -0.2110934555530548
0.20930230617523193 0.05426359176635742 0.3110444247722626
0.20930230617523193 0.06976747512817383 -0.2068442702293396
0.20930230617523193 0.06976747512817383 0.3050353229045868
0.20930230617523193 0.08527135848999023 -0.20370452105998993
0.20930230617523193 0.08527135848999023 0.2981188893318176
0.20930230617523193 0.10077524185180664 -0.628789484500885
0.20930230617523193 0.10077524185180664 -0.6176978945732117
0.20930230617523193 0.10077524185180664 -0.20178259909152985
0.20930230617523193 0.10077524185180664 0.2928609549999237
0.20930230617523193 0.11627912521362305 -0.19781044125556946
0.20930230617523193 0.11627912521362305 0.28659266233444214
0.20930230617523193 0.1317828893661499 -0.1915060430765152
0.20930230617523193 0.1317828893661499 0.279571533203125
0.20930230617523193 0.1472867727279663 -0.18671074509620667
0.20930230617523193 0.1472867727279663 0.2714313864707947
0.20930230617523193 0.16279065608978271 -0.1776026338338852
0.20930230617523193 0.16279065608978271 0.2590479552745819
0.20930230617523193 0.17829453945159912 -0.17149370908737183
0.20930230617523193 0.17829453945159912 0.23941195011138916
0.20930230617523193 0.19379842281341553 -0.16184990108013153
0.20930230617523193 0.19379842281341553 0.21018041670322418
0.20930230617523193 0.20930230617523193 -0.15532806515693665
0.20930230617523193 0.20930230617523193 0.1814790666103363
0.20930230617523193 0.22480618953704834 -0.1458858996629715
0.20930230617523193 0.22480618953704834 0.15597669780254364
0.20930230617523193 0.24031007289886475 -0.1377059519290924
0.20930232107639313 0.24031007289886475 0.13239151239395142
0.20930230617523193 0.25581395626068115 -0.12628300487995148
0.20930230617523193 0.25581395626068115 0.10723284631967545
0.20930230617523193 0.27131783962249756 -0.11477412283420563
0.20930230617523193 0.27131783962249756 0.07806278765201569
0.20930230617523193 0.28682172298431396 -0.1012594923377037
0.20930230617523193 0.28682172298431396 0.0460832417011261
0.20930230617523193 0.30232560634613037 -0.08757656812667847
0.20930230617523193 0.30232560634613037 0.022953016683459282
0.20930230617523193 0.3178294897079468 -0.07433561980724335
0.20930230617523193 0.3178294897079468 0.011052226647734642
0.20930230617523193 0.3333333730697632 -0.06231367215514183
0.20930230617523193 0.3333333730697632 0.005266771651804447
0.20930230617523193 0.3488372564315796 -0.05024340748786926
0.20930230617523193 0.3488372564315796 -0.0025790829677134752
0.22480618953704834 -0.28682172298431396 -0.024755563586950302
0.22480618953704834 -0.28682172298431396 0.04631655663251877
0.22480618953704834 -0.27131783962249756 -0.06080339848995209
0.22480618953704834 -0.27131783962249756 0.07748495042324066
0.22480618953704834 -0.25581395626068115 -0.0835418850183487
0.22480617463588715 -0.25581395626068115 0.11924482882022858
0.22480618953704834 -0.24031007289886475 -0.10152271389961243
0.22480618953704834 -0.24031007289886475 0.15944629907608032
0.22480618953704834 -0.22480618953704834 -0.11570066958665848
0.22480618953704834 -0.22480618953704834 0.18671375513076782
0.22480618953704834 -0.20930230617523193 -0.1270287036895752
0.22480618953704834 -0.20930230617523193 0.20763297379016876
0.22480618953704834 -0.19379842281341553 -0.13650965690612793
0.22480618953704834 -0.19379842281341553 0.225802481174469
0.22480620443820953 -0.1782945990562439 -0.14264389872550964
0.22480617463588715 -0.1782945841550827 0.24207273125648499
0.22480618953704834 -0.1627907156944275 -0.15031218528747559
0.22480618953704834 -0.1627907156944275 0.2567932605743408
0.22480618953704834 -0.14728683233261108 -0.15771979093551636
0.22480618953704834 -0.14728683233261108 0.2700232267379761
0.22480618953704834 -0.13178294897079468 -0.16516147553920746
0.22480618953704834 -0.13178294897079468 0.28099775314331055
0.22480618953704834 -0.11627906560897827 -0.17311856150627136
0.22480618953704834 -0.11627905815839767 0.2920185923576355
0.22480618953704834 -0.10077518224716187 -0.6283214688301086
0.22480618953704834 -0.10077518224716187 -0.6144213080406189
0.22480618953704834 -0.10077518224716187 -0.1779583841562271
0.22480618953704834 -0.10077518224716187 0.3020119071006775
0.22480618953704834 -0.08527129888534546 -0.18732458353042603
0.22480618953704834 -0.08527129888534546 0.30835840106010437
0.22480618953704834 -0.06976741552352905 -0.1922854781150818
0.22480618953704834 -0.06976741552352905 0.3139653205871582
0.22480618953704834 -0.05426359176635742 -0.20190218091011047
0.22480618953704834 -0.05426359176635742 0.319381982088089
0.22480618953704834 -0.038759708404541016 -0.2072458565235138
0.22480618953704834 -0.038759708404541016 0.3233630061149597
0.22480618953704834 -0.02325582504272461 -0.21150308847427368
0.22480618953704834 -0.02325582504272461 0.3257789611816406
0.22480618953704834 -0.007751941680908203 -0.21166712045669556
0.22480618953704834 -0.007751941680908203 0.32705050706863403
0.22480618953704834 0.007751941680908203 -0.2103874385356903
0.22480618953704834 0.007751941680908203 0.3270462453365326
0.22480618953704834 0.02325582504272461 -0.20833218097686768
0.22480618953704834 0.02325582504272461 0.32523560523986816
0.22480618953704834 0.038759708404541016 -0.20499636232852936
0.22480618953704834 0.038759708404541016 0.321598619222641
0.22480618953704834 0.05426359176635742 -0.2014797031879425
0.22480618953704834 0.05426359176635742 0.3160254955291748
0.22480618953704834 0.06976747512817383 -0.19779670238494873
0.22480618953704834 0.06976747512817383 0.30973106622695923
0.22480618953704834 0.08527135103940964 -0.19373682141304016
0.22480620443820953 0.08527135848999023 0.3026091456413269
0.22480618953704834 0.10077524185180664 -0.6287091374397278
0.22480618953704834 0.10077524185180664 -0.6124014854431152
0.22480618953704834 0.10077524185180664 -0.1904640942811966
0.22480618953704834 0.10077524185180664 0.29574087262153625
0.22480618953704834 0.11627912521362305 -0.18799644708633423
0.22480618953704834 0.11627912521362305 0.28886958956718445
0.22480618953704834 0.1317828893661499 -0.18351534008979797
0.22480618953704834 0.1317828893661499 0.2810228168964386
0.22480618953704834 0.1472867727279663 -0.17582739889621735
0.22480618953704834 0.1472867727279663 0.27254703640937805
0.22480618953704834 0.16279065608978271 -0.17088386416435242
0.22480618953704834 0.16279065608978271 0.2595948278903961
0.22480618953704834 0.17829453945159912 -0.161648690700531
0.22480618953704834 0.17829453945159912 0.2390582263469696
0.22480618953704834 0.19379842281341553 -0.15579447150230408
0.22480618953704834 0.19379842281341553 0.2087162733078003
0.22480620443820953 0.20930230617523193 -0.14687903225421906
0.22480618953704834 0.20930230617523193 0.1779470145702362
0.22480618953704834 0.22480618953704834 -0.13955387473106384
0.22480617463588715 0.22480617463588715 0.15177446603775024
0.22480618953704834 0.24031007289886475 -0.12868070602416992
0.22480618953704834 0.24031007289886475 0.12670359015464783
0.22480618953704834 0.25581395626068115 -0.11696550995111465
0.22480618953704834 0.25581395626068115 0.0980926901102066
0.22480618953704834 0.27131783962249756 -0.10252043604850769
0.22480618953704834 0.27131783962249756 0.06524298340082169
0.22480618953704834 0.28682172298431396 -0.08564344048500061
0.22480618953704834 0.28682172298431396 0.03074049949645996
0.22480618953704834 0.30232560634613037 -0.06250141561031342
0.22480618953704834 0.30232560634613037 0.00649266317486763
0.22480618953704834 0.3178294897079468 -0.030750103294849396
0.22480618953704834 0.3178294897079468 -0.01894398219883442
0.24031007289886475 -0.27131783962249756 -0.032984595745801926
0.24031007289886475 -0.27131783962249756 0.05232632905244827
0.24031007289886475 -0.25581395626068115 -0.06859217584133148
0.24031007289886475 -0.25581395626068115 0.10024263709783554
0.24031007289886475 -0.24031007289886475 -0.0912306010723114
0.24031007289886475 -0.24031007289886475 0.14956393837928772
0.24031007289886475 -0.22480618953704834 -0.10783465951681137
0.24031007289886475 -0.22480618953704834 0.18161937594413757
0.24031007289886475 -0.20930230617523193 -0.11955831199884415
0.24031007289886475 -0.20930230617523193 0.2038636952638626
0.24031007289886475 -0.19379842281341553 -0.12774616479873657
0.24031007289886475 -0.19379842281341553 0.22312888503074646
0.24031007289886475 -0.1782945990562439 -0.13592635095119476
0.24031007289886475 -0.1782946139574051 0.24039719998836517
0.24031007289886475 -0.1627907156944275 -0.14204153418540955
0.24031007289886475 -0.1627907156944275 0.2562958896160126
0.24031007289886475 -0.14728683233261108 -0.14952142536640167
0.24031007289886475 -0.1472868174314499 0.27133482694625854
0.24031007289886475 -0.13178294897079468 -0.15736958384513855
0.24031007289886475 -0.13178294897079468 0.2850344181060791
0.24031007289886475 -0.11627906560897827 -0.16378730535507202
0.24031007289886475 -0.11627906560897827 0.2961893677711487
0.24031007289886475 -0.10077518224716187 -0.6282208561897278
0.24031008780002594 -0.10077518969774246 -0.6234492063522339
0.24031007289886475 -0.10077518224716187 -0.17221549153327942
0.24031007289886475 -0.10077518224716187 0.3067900538444519
0.24031005799770355 -0.08527129143476486 -0.17605656385421753
0.24031007289886475 -0.08527129888534546 0.3142967224121094
0.24031007289886475 -0.06976741552352905 -0.18512269854545593
0.24031007289886475 -0.06976741552352905 0.32056447863578796
0.24031007289886475 -0.05426359176635742 -0.19042770564556122
0.24031007289886475 -0.05426359176635742 0.32527416944503784
0.24031007289886475 -0.038759708404541016 -0.19767284393310547
0.24031007289886475 -0.038759708404541016 0.32924187183380127
0.24031007289886475 -0.02325582504272461 -0.20178872346878052
0.24031007289886475 -0.02325582504272461 0.332257479429245
0.24031007289886475 -0.007751941680908203 -0.20183779299259186
0.24031007289886475 -0.007751941680908203 0.3341769576072693
0.24031007289886475 0.007751941680908203 -0.20085778832435608
0.24031007289886475 0.007751941680908203 0.3342466354370117
0.24031007289886475 0.02325582504272461 -0.1987278014421463
0.24031007289886475 0.02325582504272461 0.33159375190734863
0.24031007289886475 0.038759708404541016 -0.19489918649196625
0.24031007289886475 0.038759708404541016 0.32755208015441895
0.24031007289886475 0.05426359176635742 -0.19083788990974426
0.24031007289886475 0.05426359176635742 0.32261475920677185
0.24031007289886475 0.06976747512817383 -0.18798913061618805
0.24031007289886475 0.06976747512817383 0.3150215148925781
0.24031007289886475 0.08527135848999023 -0.185824915766716
0.24031007289886475 0.08527135848999023 0.3077315092086792
0.24031007289886475 0.10077524185180664 -0.628072202205658
0.24031007289886475 0.10077524185180664 -0.6251620054244995
0.24031007289886475 0.10077524185180664 -0.18265694379806519
0.24031007289886475 0.10077524185180664 0.2995179295539856
0.24031007289886475 0.11627912521362305 -0.17756308615207672
0.24031007289886475 0.11627912521362305 0.2916747033596039
0.24031007289886475 0.1317828893661499 -0.17359109222888947
0.24031007289886475 0.1317828893661499 0.2823316156864166
0.24031007289886475 0.1472867727279663 -0.16930800676345825
0.24031007289886475 0.1472867727279663 0.2729571759700775
0.24031007289886475 0.16279065608978271 -0.16025158762931824
0.24031008780002594 0.16279065608978271 0.25913575291633606
0.24031007289886475 0.17829453945159912 -0.15525981783866882
0.24031007289886475 0.17829453945159912 0.23746538162231445
0.24031008780002594 0.19379842281341553 -0.14611823856830597
0.24031007289886475 0.19379842281341553 0.20609469711780548
0.24031007289886475 0.20930230617523193 -0.13986310362815857
0.24031007289886475 0.20930230617523193 0.17390653491020203
0.24031007289886475 0.22480620443820953 -0.13000370562076569
0.24031007289886475 0.22480618953704834 0.14555232226848602
0.24031007289886475 0.24031007289886475 -0.11917214095592499
0.24031008780002594 0.24031008780002594 0.11884365230798721
0.24031007289886475 0.25581395626068115 -0.10426109284162521
0.24031008780002594 0.25581395626068115 0.08624954521656036
0.24031007289886475 0.27131783962249756 -0.08582323789596558
0.24031007289886475 0.27131783962249756 0.04792372137308121
0.24031005799770355 0.28682172298431396 -0.05401935055851936
0.24031007289886475 0.28682175278663635 0.008490161038935184
0.25581395626068115 -0.25581395626068115 -0.04576287418603897
0.25581395626068115 -0.25581395626068115 0.06956253200769424
0.25581395626068115 -0.24031007289886475 -0.0771569237112999
0.25581395626068115 -0.24031007289886475 0.1311161369085312
0.25581395626068115 -0.22480618953704834 -0.09742946177721024
0.25581395626068115 -0.22480618953704834 0.17456673085689545
0.25581395626068115 -0.20930230617523193 -0.11085030436515808
0.25581395626068115 -0.20930229127407074 0.19851163029670715
0.25581395626068115 -0.19379842281341553 -0.12078313529491425
0.25581395626068115 -0.19379842281341553 0.21922074258327484
0.25581395626068115 -0.1782945990562439 -0.12722283601760864
0.25581395626068115 -0.1782945990562439 0.23784324526786804
0.25581395626068115 -0.1627907156944275 -0.13478787243366241
0.25581395626068115 -0.1627907156944275 0.25522521138191223
0.25581395626068115 -0.14728683233261108 -0.14180150628089905
0.25581395626068115 -0.14728683233261108 0.27191272377967834
0.25581395626068115 -0.13178294897079468 -0.14933395385742188
0.25581395626068115 -0.13178294897079468 0.2874756157398224
0.25581395626068115 -0.11627906560897827 -0.15730197727680206
0.25581395626068115 -0.11627906560897827 0.30082812905311584
0.25581395626068115 -0.10077518224716187 -0.16270695626735687
0.25581395626068115 -0.10077518224716187 0.310564249753952
0.25581395626068115 -0.08527129888534546 -0.17122329771518707
0.25581395626068115 -0.08527130633592606 0.31961461901664734
0.25581395626068115 -0.06976741552352905 -0.175037682056427
0.25581395626068115 -0.06976741552352905 0.3254634141921997
0.25581395626068115 -0.05426359176635742 -0.18279847502708435
0.25581395626068115 -0.05426359176635742 0.33194613456726074
0.25581395626068115 -0.038759708404541016 -0.18851961195468903
0.25581395626068115 -0.038759708404541016 0.33656883239746094
0.25581395626068115 -0.02325582504272461 -0.19065473973751068
0.25581395626068115 -0.02325582504272461 0.33975690603256226
0.25581395626068115 -0.007751941680908203 -0.19091741740703583
0.25581395626068115 -0.007751941680908203 0.3416427969932556
0.25581395626068115 0.007751941680908203 -0.1902170181274414
0.25581395626068115 0.007751941680908203 0.34181511402130127
0.25581395626068115 0.02325582504272461 -0.18863849341869354
0.25581395626068115 0.02325582504272461 0.3395850360393524
0.25581395626068115 0.038759708404541016 -0.18645036220550537
0.25581395626068115 0.03875970467925072 0.33528003096580505
0.25581395626068115 0.05426359176635742 -0.18308809399604797
0.25581395626068115 0.05426359176635742 0.3289293944835663
0.25581395626068115 0.06976747512817383 -0.17917664349079132
0.25581395626068115 0.06976747512817383 0.32148078083992004
0.25581395626068115 0.08527135848999023 -0.17575475573539734
0.25581395626068115 0.08527135848999023 0.3123966455459595
0.25581395626068115 0.10077524185180664 -0.17371146380901337
0.25581395626068115 0.10077524185180664 0.30397671461105347
0.25581395626068115 0.11627911776304245 -0.171716570854187
0.25581395626068115 0.11627912521362305 0.29400935769081116
0.25581395626068115 0.1317828893661499 -0.16638392210006714
0.25581395626068115 0.1317828893661499 0.2830806374549866
0.25581395626068115 0.1472867727279663 -0.15913376212120056
0.25581395626068115 0.1472867727279663 0.27228420972824097
0.25581395626068115 0.16279065608978271 -0.1542292833328247
0.25581395626068115 0.16279065608978271 0.2572222948074341
0.25581395626068115 0.17829453945159912 -0.14489556849002838
0.25581395626068115 0.17829453945159912 0.2337401807308197
0.25581395626068115 0.19379842281341553 -0.13922104239463806
0.25581395626068115 0.19379842281341553 0.2008386254310608
0.25581395626068115 0.20930230617523193 -0.12969622015953064
0.25581395626068115 0.20930230617523193 0.167429581284523
0.25581395626068115 0.22480618953704834 -0.12053539603948593
0.25581395626068115 0.22480618953704834 0.13889023661613464
0.25581395626068115 0.24031007289886475 -0.10632064938545227
0.25581395626068115 0.24031007289886475 0.10859321057796478
0.25581395626068115 0.25581395626068115 -0.087923064827919
0.25581395626068115 0.25581395626068115 0.07011328637599945
0.25581395626068115 0.27131783962249756 -0.05474754795432091
0.25581395626068115 0.27131786942481995 0.02426510490477085
0.27131783962249756 -0.24031007289886475 -0.057649701833724976
0.27131783962249756 -0.24031007289886475 0.10275165736675262
0.27131783962249756 -0.22480618953704834 -0.08449622988700867
0.27131783962249756 -0.22480618953704834 0.162382572889328
0.27131783962249756 -0.20930230617523193 -0.10084443539381027
0.27131783962249756 -0.20930230617523193 0.1929756999015808
0.27131783962249756 -0.19379842281341553 -0.11181847751140594
0.27131783962249756 -0.19379842281341553 0.21445795893669128
0.27131783962249756 -0.1782945990562439 -0.12013097107410431
0.27131783962249756 -0.1782945990562439 0.2346503883600235
0.27131783962249756 -0.1627907156944275 -0.12652473151683807
0.27131783962249756 -0.1627907156944275 0.25354400277137756
0.27131783962249756 -0.14728683233261108 -0.13446596264839172
0.27131783962249756 -0.14728683233261108 0.2720036506652832
0.27131783962249756 -0.13178294897079468 -0.14193545281887054
0.27131783962249756 -0.13178294897079468 0.28865647315979004
0.27131783962249756 -0.11627906560897827 -0.15010382235050201
0.27131783962249756 -0.11627906560897827 0.3031664788722992
0.27131783962249756 -0.10077518224716187 -0.15729956328868866
0.27131783962249756 -0.10077518224716187 0.3142825961112976
0.27131783962249756 -0.08527129888534546 -0.16194020211696625
0.27131783962249756 -0.08527129888534546 0.32260245084762573
0.27131783962249756 -0.06976741552352905 -0.17037352919578552
0.27131783962249756 -0.06976741552352905 0.3305763304233551
0.27131783962249756 -0.05426359176635742 -0.174318328499794
0.27131783962249756 -0.05426358804106712 0.33749812841415405
0.27131783962249756 -0.038759708404541016 -0.17890021204948425
0.27131783962249756 -0.038759708404541016 0.34279143810272217
0.27131783962249756 -0.02325582504272461 -0.18327642977237701
0.27131783962249756 -0.02325582504272461 0.3473092317581177
0.27131783962249756 -0.007751941680908203 -0.18350832164287567
0.27131783962249756 -0.007751941680908203 0.35033801198005676
0.27131783962249756 0.007751941680908203 -0.1823417991399765
0.27131783962249756 0.00775194214656949 0.3507225215435028
0.27131783962249756 0.02325582504272461 -0.179533913731575
0.27131783962249756 0.02325582504272461 0.3475331664085388
0.27131783962249756 0.038759708404541016 -0.17633096873760223
0.27131783962249756 0.038759708404541016 0.34254390001296997
0.27131783962249756 0.05426359176635742 -0.17381452023983002
0.27131783962249756 0.05426359176635742 0.33633723855018616
0.27131783962249756 0.06976747512817383 -0.17231658101081848
0.27131783962249756 0.06976747512817383 0.3270353376865387
0.27131783962249756 0.08527135848999023 -0.1706470549106598
0.27131783962249756 0.08527135848999023 0.31745344400405884
0.27131783962249756 0.10077524185180664 -0.1678522676229477
0.27131783962249756 0.10077524185180664 0.30720266699790955
0.27131783962249756 0.11627912521362305 -0.16247813403606415
0.27131783962249756 0.11627912521362305 0.2951813340187073
0.27131783962249756 0.1317828893661499 -0.15798363089561462
0.27131783962249756 0.1317828893661499 0.28284984827041626
0.27131783962249756 0.1472867727279663 -0.1533077210187912
0.27131783962249756 0.1472867727279663 0.2703811228275299
0.27131783962249756 0.16279065608978271 -0.1437939703464508
0.27131783962249756 0.16279065608978271 0.25355595350265503
0.27131783962249756 0.17829453945159912 -0.138443261384964
0.27131783962249756 0.17829455435276031 0.22829917073249817
0.27131783962249756 0.19379842281341553 -0.12858664989471436
0.27131783962249756 0.19379842281341553 0.19339866936206818
0.27131783962249756 0.20930230617523193 -0.12045823782682419
0.27131783962249756 0.20930230617523193 0.1595725566148758
0.27131783962249756 0.22480618953704834 -0.10816267132759094
0.27131783962249756 0.22480618953704834 0.12999291718006134
0.27131783962249756 0.24031007289886475 -0.09121550619602203
0.27131783962249756 0.24031007289886475 0.09595785290002823
0.27131783962249756 0.25581395626068115 -0.06457580626010895
0.27131783962249756 0.25581395626068115 0.0502731129527092
0.28682172298431396 -0.24031007289886475 -0.02867608331143856
0.28682172298431396 -0.24031005799770355 0.07088861614465714
0.28682172298431396 -0.22480618953704834 -0.06949479132890701
0.28682172298431396 -0.22480618953704834 0.14646385610103607
0.28682172298431396 -0.20930230617523193 -0.09090718626976013
0.28682172298431396 -0.20930230617523193 0.186263307929039
0.28682172298431396 -0.19379842281341553 -0.10372640192508698
0.28682175278663635 -0.19379842281341553 0.21017535030841827
0.28682172298431396 -0.1782945990562439 -0.11183484643697739
0.28682172298431396 -0.1782945990562439 0.23142942786216736
0.28682172298431396 -0.1627907156944275 -0.11968652158975601
0.28682172298431396 -0.1627907156944275 0.2521924674510956
0.28682172298431396 -0.14728683233261108 -0.12668436765670776
0.28682172298431396 -0.14728683233261108 0.27280116081237793
0.28682172298431396 -0.13178294897079468 -0.1359637826681137
0.28682172298431396 -0.13178294897079468 0.29133468866348267
0.28682172298431396 -0.11627906560897827 -0.14270684123039246
0.28682172298431396 -0.11627906560897827 0.30695101618766785
0.28682172298431396 -0.10077518224716187 -0.1512681394815445
0.28682172298431396 -0.10077518224716187 0.3197824954986572
0.28682172298431396 -0.08527129888534546 -0.15742911398410797
0.28682172298431396 -0.08527129888534546 0.3287983536720276
0.28682172298431396 -0.06976741552352905 -0.16180221736431122
0.28682172298431396 -0.06976741552352905 0.33716487884521484
0.28682172298431396 -0.05426359176635742 -0.1694510281085968
0.28682172298431396 -0.05426359176635742 0.34493935108184814
0.28682172298431396 -0.038759708404541016 -0.17318619787693024
0.28682172298431396 -0.03875970467925072 0.3517860174179077
0.28682172298431396 -0.02325582504272461 -0.17450937628746033
0.28682172298431396 -0.02325582504272461 0.3568818271160126
0.28682172298431396 -0.007751941680908203 -0.1744910627603531
0.28682172298431396 -0.007751941680908203 0.36050945520401
0.28682172298431396 0.007751941680908203 -0.17389272153377533
0.28682172298431396 0.007751941680908203 0.3609377443790436
0.28682172298431396 0.02325582504272461 -0.1726759374141693
0.28682172298431396 0.02325582504272461 0.3574870228767395
0.28682172298431396 0.038759708404541016 -0.17103035748004913
0.28682172298431396 0.038759708404541016 0.3521190285682678
0.28682172298431396 0.05426359176635742 -0.16858911514282227
0.28682172298431396 0.05426359176635742 0.34446102380752563
0.28682172298431396 0.06976747512817383 -0.16581739485263824
0.28682172298431396 0.06976747512817383 0.3353518545627594
0.28682172298431396 0.08527135848999023 -0.16250397264957428
0.28682172298431396 0.08527135848999023 0.32441386580467224
0.28682172298431396 0.10077524185180664 -0.1593225747346878
0.28682172298431396 0.10077524185180664 0.31281715631484985
0.28682172298431396 0.11627912521362305 -0.15693002939224243
0.28682172298431396 0.11627912521362305 0.2998124063014984
0.28682172298431396 0.1317828893661499 -0.15194988250732422
0.28682172298431396 0.1317828893661499 0.2855832576751709
0.28682172298431396 0.1472867727279663 -0.14342385530471802
0.28682172298431396 0.1472867727279663 0.27087295055389404
0.28682172298431396 0.16279065608978271 -0.13809414207935333
0.28682172298431396 0.16279065608978271 0.25138649344444275
0.28682172298431396 0.17829453945159912 -0.1280808001756668
0.28682172298431396 0.17829453945159912 0.22379618883132935
0.28682172298431396 0.19379842281341553 -0.12038475275039673
0.28682172298431396 0.19379842281341553 0.18707068264484406
0.28682172298431396 0.20930230617523193 -0.1091533899307251
0.28682172298431396 0.20930230617523193 0.15239496529102325
0.28682172298431396 0.22480617463588715 -0.09519361704587936
0.28682172298431396 0.22480618953704834 0.12108307331800461
0.28682172298431396 0.24031007289886475 -0.07349485158920288
0.28682172298431396 0.24031007289886475 0.08105406165122986
0.28682172298431396 0.25581395626068115 -0.017347319051623344
0.28682172298431396 0.25581395626068115 0.020732969045639038
0.30232560634613037 -0.22480618953704834 -0.05052189528942108
0.30232560634613037 -0.22480618953704834 0.12673403322696686
0.30232560634613037 -0.20930230617523193 -0.0787009745836258
0.30232560634613037 -0.20930230617523193 0.17852243781089783
0.30232560634613037 -0.19379842281341553 -0.09455904364585876
0.30232560634613037 -0.19379842281341553 0.20583125948905945
0.30232560634613037 -0.1782945990562439 -0.10465972870588303
0.30232560634613037 -0.1782945990562439 0.22845041751861572
0.30232560634613037 -0.1627907156944275 -0.11181654781103134
0.30232560634613037 -0.1627907156944275 0.2512863278388977
0.30232560634613037 -0.14728683233261108 -0.12065340578556061
0.30232560634613037 -0.14728683233261108 0.2747175097465515
0.30232560634613037 -0.13178294897079468 -0.12772494554519653
0.30232560634613037 -0.13178294897079468 0.2975761294364929
0.30232560634613037 -0.11627906560897827 -0.1379244178533554
0.30232560634613037 -0.11627906560897827 0.31593939661979675
0.30232560634613037 -0.10077517479658127 -0.14329594373703003
0.30232560634613037 -0.10077518224716187 0.3288835883140564
0.30232560634613037 -0.08527129888534546 -0.1514097899198532
0.30232560634613037 -0.08527129888534546 0.3387553095817566
0.30232560634613037 -0.06976741552352905 -0.15717335045337677
0.30232560634613037 -0.06976741552352905 0.3475940525531769
0.30232560634613037 -0.05426359176635742 -0.1606413722038269
0.30232560634613037 -0.05426359176635742 0.35562366247177124
0.30232560634613037 -0.038759708404541016 -0.16652590036392212
0.30232560634613037 -0.038759708404541016 0.3630848228931427
0.30232560634613037 -0.02325582504272461 -0.16951319575309753
0.30232560634613037 -0.02325582504272461 0.36944854259490967
0.30232560634613037 -0.007751941680908203 -0.16941732168197632
0.30232560634613037 -0.007751941680908203 0.3736645579338074
0.30232560634613037 0.007751941680908203 -0.16846539080142975
0.30232560634613037 0.007751941680908203 0.3741489052772522
0.30232560634613037 0.02325582504272461 -0.1660413146018982
0.30232560634613037 0.02325582504272461 0.37017470598220825
0.30232560634613037 0.038759708404541016 -0.1629326194524765
0.30232560634613037 0.038759708404541016 0.3635454773902893
0.30232560634613037 0.05426359176635742 -0.16011947393417358
0.30232560634613037 0.05426359176635742 0.355541467666626
0.30232560634613037 0.06976747512817383 -0.1581694483757019
0.30232560634613037 0.06976747512817383 0.3455600440502167
0.30232560634613037 0.08527135848999023 -0.15674445033073425
0.30232560634613037 0.08527135848999023 0.335368275642395
0.30232560634613037 0.10077524185180664 -0.15460532903671265
0.30232560634613037 0.10077524185180664 0.32376372814178467
0.30232560634613037 0.11627912521362305 -0.14896473288536072
0.30232560634613037 0.11627912521362305 0.3092096745967865
0.30232560634613037 0.1317828893661499 -0.14254756271839142
0.30232560634613037 0.1317828893661499 0.2923153340816498
0.30232560634613037 0.1472867727279663 -0.13757269084453583
0.30232560634613037 0.1472867727279663 0.27430209517478943
0.30232560634613037 0.16279065608978271 -0.12740205228328705
0.30232560634613037 0.16279065608978271 0.2517845034599304
0.30232560634613037 0.17829453945159912 -0.1202918142080307
0.30232560634613037 0.17829453945159912 0.2215510904788971
0.30232560634613037 0.19379842281341553 -0.10967987775802612
0.30232560634613037 0.19379842281341553 0.18291157484054565
0.30232560634613037 0.20930230617523193 -0.09749307483434677
0.30232560634613037 0.20930230617523193 0.14693225920200348
0.30232560634613037 0.22480618953704834 -0.08132868260145187
0.30232560634613037 0.22480618953704834 0.11320962011814117
0.30232560634613037 0.24031007289886475 -0.049930788576602936
0.30232560634613037 0.24031007289886475 0.06510913372039795
0.3178294599056244 -0.22480618953704834 -0.021679969504475594
0.3178294897079468 -0.22480618953704834 0.10738283395767212
0.3178294897079468 -0.20930230617523193 -0.06356599926948547
0.3178294897079468 -0.20930230617523193 0.17132827639579773
0.3178294897079468 -0.19379842281341553 -0.08364243060350418
0.3178294897079468 -0.19379842281341553 0.20170852541923523
0.3178294897079468 -0.1782945990562439 -0.09563833475112915
0.3178294897079468 -0.1782945990562439 0.22627043724060059
0.3178294897079468 -0.1627907156944275 -0.10467247664928436
0.3178294897079468 -0.1627907156944275 0.2507971525192261
0.3178294897079468 -0.14728683233261108 -0.11206322908401489
0.3178294897079468 -0.14728683233261108 0.2768823206424713
0.3178294897079468 -0.13178294897079468 -0.12197793275117874
0.3178294897079468 -0.13178293406963348 0.30238959193229675
0.3178294897079468 -0.11627906560897827 -0.12863636016845703
0.3178294897079468 -0.11627906560897827 0.32251816987991333
0.3178294897079468 -0.10077518224716187 -0.13816577196121216
0.3178294897079468 -0.10077518224716187 0.3375016450881958
0.3178294897079468 -0.08527129888534546 -0.14282184839248657
0.3178294897079468 -0.08527129888534546 0.3483533263206482
0.3178294897079468 -0.06976741552352905 -0.14980055391788483
0.3178294897079468 -0.06976741552352905 0.357196569442749
0.3178294897079468 -0.05426359176635742 -0.15601584315299988
0.3178294897079468 -0.05426359176635742 0.36693769693374634
0.3178294897079468 -0.038759708404541016 -0.15854793787002563
0.3178294897079468 -0.038759708404541016 0.37532636523246765
0.3178294897079468 -0.02325582504272461 -0.16004030406475067
0.3178294599056244 -0.02325582318007946 0.38309285044670105
0.3178294897079468 -0.00775194214656949 -0.15989655256271362
0.3178294897079468 -0.007751941680908203 0.38800787925720215
0.3178294897079468 0.007751941680908203 -0.15926289558410645
0.3178294897079468 0.007751941680908203 0.38880401849746704
0.3178294897079468 0.02325582504272461 -0.15804274380207062
0.3178294897079468 0.02325582504272461 0.38457900285720825
0.3178294897079468 0.038759708404541016 -0.15677829086780548
0.3178294897079468 0.038759708404541016 0.3770105242729187
0.3178294897079468 0.05426359176635742 -0.15508362650871277
0.3178294897079468 0.05426359176635742 0.36782458424568176
0.3178294897079468 0.06976747512817383 -0.15265832841396332
0.3178294897079468 0.06976747512817383 0.35677748918533325
0.3178294897079468 0.08527135848999023 -0.1488305628299713
0.3178294897079468 0.08527135848999023 0.34584444761276245
0.3178294897079468 0.10077524185180664 -0.14415140450000763
0.3178294897079468 0.10077524185180664 0.33481886982917786
0.3178294897079468 0.11627912521362305 -0.14096713066101074
0.3178294897079468 0.11627912521362305 0.31976059079170227
0.3178294897079468 0.1317828893661499 -0.13506852090358734
0.3178294897079468 0.1317828893661499 0.3008969724178314
0.3178294897079468 0.1472867727279663 -0.126316636800766
0.3178294897079468 0.1472867727279663 0.2794031500816345
0.3178294897079468 0.16279065608978271 -0.11836661398410797
0.3178294897079468 0.16279065608978271 0.2552373707294464
0.3178294897079468 0.17829453945159912 -0.10907536745071411
0.3178294897079468 0.17829453945159912 0.22395533323287964
0.3178294897079468 0.19379842281341553 -0.09744289517402649
0.3178294897079468 0.19379842281341553 0.18463826179504395
0.3178294897079468 0.20930230617523193 -0.08414626866579056
0.3178294897079468 0.20930230617523193 0.14633679389953613
0.3178294897079468 0.22480618953704834 -0.06427404284477234
0.3178294897079468 0.22480618953704834 0.10891450196504593
0.3178294897079468 0.24031007289886475 -0.01383871678262949
0.3178294897079468 0.24031007289886475 0.046264320611953735
0.3333333730697632 -0.22480618953704834 0.012171629816293716
0.3333333730697632 -0.22480618953704834 0.08241226524114609
0.3333333730697632 -0.20930230617523193 -0.043711572885513306
0.3333333730697632 -0.20930230617523193 0.16607052087783813
0.3333333730697632 -0.19379842281341553 -0.06970760971307755
0.3333333730697632 -0.19379842281341553 0.19956469535827637
0.3333333730697632 -0.1782945990562439 -0.08507576584815979
0.3333333730697632 -0.1782945990562439 0.22589191794395447
0.3333333730697632 -0.1627907156944275 -0.09547677636146545
0.3333333730697632 -0.1627907156944275 0.2518078684806824
0.3333333730697632 -0.14728683233261108 -0.10483159124851227
0.3333333730697632 -0.14728683233261108 0.27993470430374146
0.3333333730697632 -0.13178294897079468 -0.1128411516547203
0.3333333730697632 -0.13178294897079468 0.3066270649433136
0.3333333730697632 -0.11627906560897827 -0.1230643093585968
0.3333333730697632 -0.11627906560897827 0.32874614000320435
0.3333333730697632 -0.10077518969774246 -0.12895578145980835
0.3333333730697632 -0.10077518224716187 0.34442415833473206
0.3333333730697632 -0.08527129888534546 -0.13775858283042908
0.3333333730697632 -0.08527129888534546 0.35625067353248596
0.3333333730697632 -0.06976741552352905 -0.14237026870250702
0.3333333730697632 -0.06976741552352905 0.36723485589027405
0.3333333730697632 -0.05426359176635742 -0.14757123589515686
0.3333333730697632 -0.05426359176635742 0.3778532147407532
0.3333333730697632 -0.038759708404541016 -0.1535518914461136
0.3333333730697632 -0.038759708404541016 0.3881379961967468
0.3333333730697632 -0.02325582504272461 -0.1554642766714096
0.3333333730697632 -0.02325582504272461 0.39670872688293457
0.3333333730697632 -0.007751941680908203 -0.1551266610622406
0.3333333730697632 -0.007751941680908203 0.40157032012939453
0.3333333730697632 0.007751941680908203 -0.15437449514865875
0.3333333730697632 0.007751941680908203 0.402602881193161
0.3333333730697632 0.02325582504272461 -0.15255393087863922
0.3333333730697632 0.02325582504272461 0.399207204580307
0.3333333730697632 0.038759708404541016 -0.14984773099422455
0.3333333730697632 0.038759708404541016 0.3915342688560486
0.3333333432674408 0.05426358804106712 -0.14624008536338806
0.3333333730697632 0.05426359176635742 0.380999892950058
0.3333333730697632 0.06976747512817383 -0.14331689476966858
0.3333333730697632 0.06976747512817383 0.3686734437942505
0.3333333730697632 0.08527135848999023 -0.14117996394634247
0.3333333730697632 0.08527135848999023 0.35661011934280396
0.3333333730697632 0.10077524185180664 -0.13848605751991272
0.3333333730697632 0.10077524185180664 0.34449490904808044
0.3333333730697632 0.11627912521362305 -0.13126036524772644
0.3333333730697632 0.11627912521362305 0.3291708528995514
0.3333333730697632 0.1317828893661499 -0.1250787228345871
0.3333333730697632 0.1317828893661499 0.309450626373291
0.3333333730697632 0.1472867727279663 -0.1158742681145668
0.3333333730697632 0.1472867727279663 0.28645414113998413
0.3333333730697632 0.16279065608978271 -0.10778376460075378
0.3333333730697632 0.16279065608978271 0.2609616219997406
0.3333333730697632 0.17829453945159912 -0.09613525122404099
0.3333333730697632 0.17829453945159912 0.22914493083953857
0.3333333730697632 0.19379842281341553 -0.08403375744819641
0.3333333730697632 0.19379842281341553 0.18936944007873535
0.33333340287208557 0.20930230617523193 -0.06890895962715149
0.3333333730697632 0.20930230617523193 0.1482561081647873
0.3333333730697632 0.22480618953704834 -0.04245854169130325
0.3333333730697632 0.22480618953704834 0.10580623894929886
0.3488372564315796 -0.20930230617523193 -0.019509920850396156
0.3488372564315796 -0.20930230617523193 0.1621141880750656
0.3488372564315796 -0.19379842281341553 -0.05245530232787132
0.3488372564315796 -0.19379842281341553 0.19966816902160645
0.3488372564315796 -0.1782945990562439 -0.07162801921367645
0.3488372266292572 -0.1782945990562439 0.22752708196640015
0.3488372564315796 -0.1627907156944275 -0.08444669842720032
0.3488372564315796 -0.1627907156944275 0.25468385219573975
0.3488372564315796 -0.14728683233261108 -0.09485115110874176
0.3488372564315796 -0.14728683233261108 0.2841664254665375
0.3488372564315796 -0.13178294897079468 -0.10517318546772003
