-0.4728682041168213 -0.4728682041168213 -0.3467543125152588
-0.4728682041168213 -0.45736435055732727 -0.5470004081726074
-0.4728682041168213 -0.4573643207550049 -0.34167999029159546
-0.4728682041168213 -0.4418604373931885 -0.5209323763847351
-0.4728682041168213 -0.4418604373931885 -0.3371202349662781
-0.4728682041168213 -0.42635661363601685 -0.4674328565597534
-0.4728682339191437 -0.42635661363601685 -0.3315524160861969
-0.4728682041168213 -0.41085273027420044 -0.4581355154514313
-0.4728682339191437 -0.41085273027420044 -0.32800614833831787
-0.4728682041168213 -0.39534884691238403 -0.44245558977127075
-0.4728682041168213 -0.39534884691238403 -0.32992035150527954
-0.4728682041168213 -0.3798449635505676 -0.4061814546585083
-0.4728682339191437 -0.37984499335289 -0.3456781506538391
-0.4728682041168213 -0.1782945990562439 -0.40599992871284485
-0.4728682041168213 -0.1782945990562439 -0.32767626643180847
-0.4728682041168213 -0.1627907156944275 -0.42884665727615356
-0.4728682041168213 -0.1627907156944275 -0.3022189736366272
-0.4728682041168213 -0.14728683233261108 -0.4431396722793579
-0.4728682041168213 -0.14728683233261108 -0.2892957925796509
-0.4728682041168213 -0.13178294897079468 -0.4529356360435486
-0.4728681743144989 -0.13178294897079468 -0.28135478496551514
-0.4728682041168213 -0.11627906560897827 -0.4606649875640869
-0.4728682041168213 -0.11627906560897827 -0.2764127254486084
-0.4728682041168213 -0.10077518224716187 -0.4661286473274231
-0.4728682041168213 -0.10077518224716187 -0.2725257873535156
-0.4728682041168213 -0.08527129888534546 -0.4701690077781677
-0.4728682041168213 -0.08527129888534546 -0.2705802619457245
-0.4728682041168213 -0.06976741552352905 -0.4707368314266205
-0.4728682041168213 -0.06976741552352905 -0.2699086666107178
-0.4728682041168213 -0.05426359176635742 -0.4645158350467682
-0.4728682041168213 -0.05426359176635742 -0.27253323793411255
-0.4728681743144989 -0.038759708404541016 -0.4514539837837219
-0.4728682041168213 -0.038759708404541016 -0.2805628776550293
-0.4728682041168213 -0.02325582504272461 -0.4318258464336395
-0.4728682041168213 -0.02325582504272461 -0.29567989706993103
-0.4728682041168213 -0.007751941680908203 -0.4120199382305145
-0.4728682041168213 -0.007751941215246916 -0.31589728593826294
-0.4728682041168213 0.007751941680908203 -0.4110705554485321
-0.4728682041168213 0.007751941215246916 -0.3314880132675171
-0.4728682041168213 0.02325582504272461 -0.42989400029182434
-0.4728682041168213 0.02325582504272461 -0.3401848077774048
-0.4728682041168213 0.038759708404541016 -0.4520467519760132
-0.4728682041168213 0.038759708404541016 -0.33624768257141113
-0.4728682041168213 0.05426359176635742 -0.4672633707523346
-0.4728682041168213 0.05426359176635742 -0.3313692510128021
-0.4728682041168213 0.06976747512817383 -0.47551700472831726
-0.4728681743144989 0.06976747512817383 -0.32925865054130554
-0.4728682041168213 0.08527135848999023 -0.4748058319091797
-0.4728682041168213 0.08527135848999023 -0.3313938081264496
-0.4728682041168213 0.10077524185180664 -0.46326586604118347
-0.4728682041168213 0.10077524185180664 -0.3403378129005432
-0.4728682041168213 0.11627912521362305 -0.44058579206466675
-0.4728682041168213 0.11627912521362305 -0.35905981063842773
-0.4728682041168213 0.3488372564315796 -0.42914971709251404
-0.4728682041168213 0.3488372564315796 -0.3484804332256317
-0.4728682041168213 0.364341139793396 -0.4654839038848877
-0.4728682041168213 0.364341139793396 -0.3275780975818634
-0.4728682041168213 0.37984490394592285 -0.47125139832496643
-0.4728682041168213 0.37984490394592285 -0.3165944516658783
-0.4728682041168213 0.39534878730773926 -0.46401309967041016
-0.4728682041168213 0.39534878730773926 -0.3122134804725647
-0.4728682041168213 0.41085267066955566 -0.45013928413391113
-0.4728682041168213 0.41085267066955566 -0.30957311391830444
-0.4728682041168213 0.42635655403137207 -0.43109220266342163
-0.4728682041168213 0.42635655403137207 -0.3091760575771332
-0.4728682041168213 0.4418604373931885 -0.41605144739151
-0.4728682041168213 0.4418604373931885 -0.310613214969635
-0.4728682041168213 0.4573643207550049 -0.4063251316547394
-0.4728682041168213 0.4573643207550049 -0.31308966875076294
-0.4728682041168213 0.4728682041168213 -0.3985387086868286
-0.4728682339191437 0.4728682339191437 -0.31624653935432434
-0.4728681743144989 0.4883720874786377 -0.3923518657684326
-0.4728682041168213 0.4883720874786377 -0.3240816593170166
-0.4728682041168213 0.5038759708404541 -0.3855682611465454
-0.4728682041168213 0.5038759708404541 -0.33338382840156555
-0.4728682041168213 0.5193798542022705 -0.3644832968711853
-0.4728682041168213 0.5193798542022705 -0.3639841675758362
-0.4573643207550049 -0.5503876209259033 -0.4875822961330414
-0.45736435055732727 -0.5503876209259033 -0.3904982805252075
-0.4573643207550049 -0.5348837375640869 -0.5068358778953552
-0.4573643207550049 -0.5348837375640869 -0.3666943609714508
-0.4573643207550049 -0.5193798542022705 -0.5180556178092957
-0.4573643207550049 -0.5193798542022705 -0.35550177097320557
-0.4573643207550049 -0.5038759708404541 -0.5226997137069702
-0.45736435055732727 -0.5038759708404541 -0.34610164165496826
-0.4573643207550049 -0.4883720874786377 -0.526166558265686
-0.4573643207550049 -0.4883720874786377 -0.3388839066028595
-0.4573643207550049 -0.4728682041168213 -0.5287147760391235
-0.4573643207550049 -0.4728682041168213 -0.33054980635643005
-0.4573643207550049 -0.4573643207550049 -0.5220959186553955
-0.4573643207550049 -0.4573643207550049 -0.32475364208221436
-0.4573643207550049 -0.4418604373931885 -0.48448365926742554
-0.4573643207550049 -0.4418604373931885 -0.3191383481025696
-0.4573643207550049 -0.42635661363601685 -0.46892791986465454
-0.4573643207550049 -0.42635661363601685 -0.3149937391281128
-0.4573643207550049 -0.41085273027420044 -0.46372145414352417
-0.4573643207550049 -0.41085273027420044 -0.3123050034046173
-0.4573643207550049 -0.39534884691238403 -0.5727869272232056
-0.45736435055732727 -0.39534884691238403 -0.518186628818512
-0.4573643207550049 -0.39534884691238403 -0.4497322142124176
-0.4573643207550049 -0.39534884691238403 -0.3135457932949066
-0.4573643207550049 -0.3798449635505676 -0.585727870464325
-0.4573643207550049 -0.3798449635505676 -0.5105422735214233
-0.45736435055732727 -0.3798449635505676 -0.4247172772884369
-0.4573643207550049 -0.3798449635505676 -0.32157838344573975
-0.4573643207550049 -0.3643410801887512 -0.5889973640441895
-0.4573643207550049 -0.3643410801887512 -0.5142109990119934
-0.4573643207550049 -0.3488371968269348 -0.5873035788536072
-0.4573643207550049 -0.3488371968269348 -0.5299062728881836
-0.4573643207550049 -0.1782945990562439 -0.4136471152305603
-0.4573643207550049 -0.1782945990562439 -0.3207949697971344
-0.4573643207550049 -0.1627907156944275 -0.43184328079223633
-0.4573643207550049 -0.1627907156944275 -0.29583972692489624
-0.4573643207550049 -0.14728683233261108 -0.4441162347793579
-0.4573643207550049 -0.14728683233261108 -0.28168749809265137
-0.4573643207550049 -0.13178294897079468 -0.4526001214981079
-0.4573643207550049 -0.13178294897079468 -0.272030234336853
-0.4573643207550049 -0.11627906560897827 -0.4593491852283478
-0.4573643207550049 -0.11627906560897827 -0.2666608989238739
-0.4573643207550049 -0.10077518224716187 -0.4624198079109192
-0.4573643207550049 -0.10077518224716187 -0.26229357719421387
-0.4573643207550049 -0.08527129888534546 -0.4629632830619812
-0.4573643207550049 -0.08527129888534546 -0.2589876651763916
-0.4573643207550049 -0.06976741552352905 -0.4611020088195801
-0.4573643207550049 -0.06976741552352905 -0.25585049390792847
-0.4573643207550049 -0.05426359176635742 -0.4557461738586426
-0.4573643207550049 -0.05426359176635742 -0.2560209333896637
-0.4573643207550049 -0.038759708404541016 -0.4433427155017853
-0.4573643207550049 -0.038759708404541016 -0.26090627908706665
-0.4573643207550049 -0.02325582504272461 -0.4269317388534546
-0.45736435055732727 -0.02325582504272461 -0.2695651948451996
-0.4573643207550049 -0.007751941680908203 -0.41046005487442017
-0.45736435055732727 -0.00775194214656949 -0.28302302956581116
-0.4573643207550049 0.007751941680908203 -0.40842121839523315
-0.4573643207550049 0.007751941680908203 -0.2989678978919983
-0.4573643207550049 0.02325582690536976 -0.4254280626773834
-0.4573643207550049 0.02325582504272461 -0.31347447633743286
-0.4573643207550049 0.038759708404541016 -0.4446866512298584
-0.4573643207550049 0.038759708404541016 -0.31710124015808105
-0.4573643207550049 0.05426359176635742 -0.460191011428833
-0.4573643207550049 0.05426359176635742 -0.3155483603477478
-0.4573643207550049 0.06976747512817383 -0.46764689683914185
-0.4573643207550049 0.06976747512817383 -0.3142424523830414
-0.4573643207550049 0.08527135848999023 -0.46610909700393677
-0.4573643207550049 0.08527135848999023 -0.3173677623271942
-0.4573643207550049 0.10077524185180664 -0.4569225609302521
-0.4573643207550049 0.10077524185180664 -0.32911157608032227
-0.4573643207550049 0.11627912521362305 -0.4287233352661133
-0.4573643207550049 0.11627912521362305 -0.3540157973766327
-0.4573643207550049 0.3333333730697632 -0.37037843465805054
-0.4573643207550049 0.33333340287208557 -0.3625645637512207
-0.4573643207550049 0.3488372564315796 -0.4739637076854706
-0.4573643207550049 0.3488372564315796 -0.31742122769355774
-0.4573643207550049 0.364341139793396 -0.4894082546234131
-0.4573643207550049 0.364341139793396 -0.3055279850959778
-0.4573643207550049 0.37984490394592285 -0.4884524643421173
-0.45736435055732727 0.37984493374824524 -0.29981666803359985
-0.4573643207550049 0.39534878730773926 -0.47640013694763184
-0.4573643207550049 0.39534878730773926 -0.2975471019744873
-0.4573643207550049 0.41085267066955566 -0.46066513657569885
-0.4573643207550049 0.41085267066955566 -0.29667648673057556
-0.4573643207550049 0.42635655403137207 -0.4419732987880707
-0.4573643207550049 0.42635655403137207 -0.297238290309906
-0.4573642909526825 0.4418604075908661 -0.4245474338531494
-0.4573643207550049 0.4418604373931885 -0.2986631989479065
-0.4573643207550049 0.4573643207550049 -0.41324126720428467
-0.45736435055732727 0.45736435055732727 -0.30047693848609924
-0.4573643207550049 0.4728682041168213 -0.4029625654220581
-0.4573643207550049 0.4728682041168213 -0.3035084903240204
-0.4573643207550049 0.4883720874786377 -0.39617273211479187
-0.4573643207550049 0.4883720874786377 -0.31080567836761475
-0.4573643207550049 0.5038759708404541 -0.3871046304702759
-0.4573643207550049 0.5038759708404541 -0.31943267583847046
-0.4573643207550049 0.5193798542022705 -0.3676859140396118
-0.4573643207550049 0.5193798542022705 -0.34280967712402344
-0.4418604373931885 -0.5503876209259033 -0.4487619400024414
-0.4418604373931885 -0.5503876209259033 -0.4237115979194641
-0.4418604373931885 -0.5348837375640869 -0.4820582866668701
-0.4418604373931885 -0.5348837375640869 -0.3660435378551483
-0.4418604373931885 -0.5193798542022705 -0.4915488660335541
-0.4418604373931885 -0.5193798542022705 -0.34714677929878235
-0.4418604373931885 -0.5038759708404541 -0.49312955141067505
-0.4418604373931885 -0.5038759708404541 -0.3341328501701355
-0.4418604373931885 -0.4883720874786377 -0.4916985034942627
-0.4418604373931885 -0.4883720874786377 -0.32515227794647217
-0.4418604373931885 -0.4728682041168213 -0.48924970626831055
-0.4418604075908661 -0.4728681743144989 -0.3158683776855469
-0.4418604373931885 -0.4573643207550049 -0.47594761848449707
-0.4418604373931885 -0.4573643207550049 -0.31108787655830383
-0.4418604373931885 -0.4418604373931885 -0.4645094871520996
-0.4418604373931885 -0.4418604373931885 -0.3065372705459595
-0.4418604373931885 -0.42635661363601685 -0.46473371982574463
-0.4418604373931885 -0.42635664343833923 -0.3014037609100342
-0.4418604373931885 -0.41085273027420044 -0.5739678740501404
-0.4418604373931885 -0.41085273027420044 -0.5070111751556396
-0.4418604373931885 -0.41085273027420044 -0.4668612778186798
-0.4418604373931885 -0.41085273027420044 -0.2999005913734436
-0.4418604373931885 -0.39534884691238403 -0.5975659489631653
-0.4418604373931885 -0.39534884691238403 -0.4840805232524872
-0.4418604373931885 -0.39534884691238403 -0.45715242624282837
-0.44186046719551086 -0.39534884691238403 -0.30075743794441223
-0.4418604373931885 -0.3798449635505676 -0.6060887575149536
-0.4418604373931885 -0.3798449635505676 -0.4811092019081116
-0.4418604373931885 -0.3798449635505676 -0.4324350953102112
-0.4418604373931885 -0.3798449635505676 -0.30828288197517395
-0.4418604373931885 -0.3643410801887512 -0.6126957535743713
-0.4418604373931885 -0.3643410801887512 -0.48493462800979614
-0.4418604373931885 -0.3643410801887512 -0.38943779468536377
-0.4418604373931885 -0.3643410801887512 -0.32659468054771423
-0.4418604373931885 -0.3488371968269348 -0.6139076948165894
-0.4418604373931885 -0.3488371968269348 -0.49594366550445557
-0.4418604373931885 -0.3333333134651184 -0.6137813329696655
-0.4418604373931885 -0.3333333134651184 -0.511968731880188
-0.4418604373931885 -0.317829430103302 -0.6120209097862244
-0.4418604373931885 -0.317829430103302 -0.5278763175010681
-0.44186046719551086 -0.30232560634613037 -0.6068441271781921
-0.4418604373931885 -0.30232560634613037 -0.5390722155570984
-0.4418604373931885 -0.28682172298431396 -0.6000311970710754
-0.4418604373931885 -0.28682172298431396 -0.5479605793952942
-0.4418604075908661 -0.1782945990562439 -0.42607390880584717
-0.4418604373931885 -0.1782945990562439 -0.31226691603660583
-0.4418604373931885 -0.1627907156944275 -0.4401680827140808
-0.4418604373931885 -0.1627907156944275 -0.2861815094947815
-0.4418604373931885 -0.14728683233261108 -0.4485049247741699
-0.4418604373931885 -0.14728683233261108 -0.271504282951355
-0.4418604373931885 -0.13178294897079468 -0.45631930232048035
-0.4418604373931885 -0.13178294897079468 -0.26242542266845703
-0.4418604373931885 -0.11627906560897827 -0.46011361479759216
-0.4418604373931885 -0.11627906560897827 -0.2540089190006256
-0.4418604373931885 -0.10077518224716187 -0.46120375394821167
-0.4418604373931885 -0.10077518224716187 -0.24657097458839417
-0.4418604373931885 -0.08527129888534546 -0.45948526263237
-0.44186046719551086 -0.08527129888534546 -0.23859438300132751
-0.4418604373931885 -0.06976741552352905 -0.4551834464073181
-0.4418604373931885 -0.06976741552352905 -0.22682878375053406
-0.4418604373931885 -0.05426359176635742 -0.4466022253036499
-0.4418604373931885 -0.05426359176635742 -0.21296675503253937
-0.4418604373931885 -0.038759708404541016 -0.4348653256893158
-0.4418604373931885 -0.038759708404541016 -0.21472014486789703
-0.4418604373931885 -0.02325582504272461 -0.41999584436416626
-0.4418604373931885 -0.02325582504272461 -0.23312759399414062
-0.4418604373931885 -0.007751941680908203 -0.4087463319301605
-0.4418604373931885 -0.007751941680908203 -0.24830713868141174
-0.4418604373931885 0.007751941680908203 -0.40637674927711487
-0.4418604373931885 0.007751941680908203 -0.26107531785964966
-0.4418604373931885 0.02325582504272461 -0.41658875346183777
-0.4418604373931885 0.02325582504272461 -0.27346497774124146
-0.4418604373931885 0.038759708404541016 -0.43618881702423096
-0.4418604075908661 0.03875970467925072 -0.284630686044693
-0.4418604373931885 0.05426359176635742 -0.4515537619590759
-0.4418604373931885 0.05426359176635742 -0.29149189591407776
-0.4418604373931885 0.06976747512817383 -0.4595433175563812
-0.4418604373931885 0.06976747512817383 -0.2953283190727234
-0.4418604373931885 0.08527135848999023 -0.4584733843803406
-0.4418604373931885 0.08527135848999023 -0.30196481943130493
-0.4418604373931885 0.10077524185180664 -0.44485074281692505
-0.4418604373931885 0.10077524185180664 -0.31682446599006653
-0.4418604373931885 0.11627912521362305 -0.4110983610153198
-0.4418604373931885 0.11627912521362305 -0.3501254618167877
-0.4418604373931885 0.3333333730697632 -0.4316001832485199
-0.4418604373931885 0.3333333730697632 -0.3274063467979431
-0.4418604373931885 0.3488372564315796 -0.5007350444793701
-0.4418604373931885 0.3488372564315796 -0.30181196331977844
-0.4418604373931885 0.364341139793396 -0.5118368268013
-0.4418604373931885 0.364341139793396 -0.29463648796081543
-0.4418604373931885 0.37984490394592285 -0.5026528835296631
-0.4418604373931885 0.37984490394592285 -0.2886526584625244
-0.4418604075908661 0.39534878730773926 -0.48360028862953186
-0.4418604373931885 0.39534878730773926 -0.28600484132766724
-0.4418604373931885 0.41085267066955566 -0.46393272280693054
-0.4418604373931885 0.41085267066955566 -0.28583964705467224
-0.4418604373931885 0.42635655403137207 -0.4443732500076294
-0.4418604373931885 0.42635655403137207 -0.2873249053955078
-0.4418604373931885 0.4418604373931885 -0.4271881580352783
-0.4418604373931885 0.4418604373931885 -0.291120707988739
-0.4418604373931885 0.4573643207550049 -0.41462501883506775
-0.4418604373931885 0.4573643207550049 -0.29411521553993225
-0.4418604373931885 0.4728682041168213 -0.4041222929954529
-0.4418604373931885 0.4728682041168213 -0.2967588007450104
-0.4418604373931885 0.4883720874786377 -0.39654970169067383
-0.4418604373931885 0.4883720874786377 -0.3004508316516876
-0.4418604373931885 0.5038759708404541 -0.3872888684272766
-0.4418604373931885 0.5038759708404541 -0.3104039430618286
-0.4418604373931885 0.5193798542022705 -0.36889928579330444
-0.4418604373931885 0.5193798542022705 -0.3311956226825714
-0.42635661363601685 -0.5348837375640869 -0.44583117961883545
-0.42635661363601685 -0.5348837375640869 -0.3943832218647003
-0.42635661363601685 -0.5193798542022705 -0.4641876816749573
-0.42635661363601685 -0.5193798542022705 -0.34638500213623047
-0.42635661363601685 -0.5038759708404541 -0.46375149488449097
-0.42635661363601685 -0.5038759708404541 -0.3287356197834015
-0.42635664343833923 -0.4883721172809601 -0.4569190442562103
-0.42635661363601685 -0.4883721172809601 -0.3155708611011505
-0.42635661363601685 -0.4728682339191437 -0.45107051730155945
-0.42635661363601685 -0.4728682041168213 -0.3080054521560669
-0.42635661363601685 -0.4573643207550049 -0.4508701264858246
-0.42635661363601685 -0.4573643207550049 -0.3007469177246094
-0.42635661363601685 -0.4418604373931885 -0.45320409536361694
-0.42635661363601685 -0.4418604373931885 -0.29818058013916016
-0.42635661363601685 -0.42635661363601685 -0.460435152053833
-0.42635661363601685 -0.42635661363601685 -0.2961663007736206
-0.42635661363601685 -0.41085273027420044 -0.5831738114356995
-0.42635661363601685 -0.41085273027420044 -0.2947244644165039
-0.42635661363601685 -0.39534884691238403 -0.6017254590988159
-0.42635661363601685 -0.39534884691238403 -0.29565656185150146
-0.42635661363601685 -0.3798449635505676 -0.6138944625854492
-0.42635661363601685 -0.3798449635505676 -0.2994382977485657
-0.42635661363601685 -0.3643410801887512 -0.6195653676986694
-0.42635661363601685 -0.3643410801887512 -0.4650515913963318
-0.42635661363601685 -0.3643410801887512 -0.4049180746078491
-0.42635661363601685 -0.3643410801887512 -0.3123733103275299
-0.42635661363601685 -0.3488371968269348 -0.6229515671730042
-0.42635661363601685 -0.3488371968269348 -0.4757351279258728
-0.42635661363601685 -0.3333333134651184 -0.6244994401931763
-0.42635661363601685 -0.3333333134651184 -0.48874998092651367
-0.42635658383369446 -0.317829430103302 -0.6240300536155701
-0.42635661363601685 -0.317829430103302 -0.5025382041931152
-0.42635661363601685 -0.30232560634613037 -0.6225842237472534
-0.42635661363601685 -0.30232560634613037 -0.5125560760498047
-0.42635661363601685 -0.28682172298431396 -0.618384838104248
-0.42635661363601685 -0.28682172298431396 -0.5157365202903748
-0.42635664343833923 -0.27131783962249756 -0.6109439134597778
-0.42635661363601685 -0.27131783962249756 -0.5147775411605835
-0.42635661363601685 -0.25581395626068115 -0.5903301239013672
-0.42635661363601685 -0.25581395626068115 -0.5099273324012756
-0.42635661363601685 -0.24031007289886475 -0.556857705116272
-0.42635661363601685 -0.24031007289886475 -0.505761444568634
-0.42635661363601685 -0.19379842281341553 -0.41301554441452026
-0.42635661363601685 -0.19379842281341553 -0.36080509424209595
-0.42635661363601685 -0.1782945990562439 -0.4423821270465851
-0.42635661363601685 -0.1782945990562439 -0.3009084463119507
-0.42635661363601685 -0.1627907156944275 -0.4521208703517914
-0.42635661363601685 -0.1627907156944275 -0.2771461308002472
-0.42635661363601685 -0.14728683233261108 -0.4586823284626007
-0.42635661363601685 -0.14728683233261108 -0.26154810190200806
-0.42635661363601685 -0.13178294897079468 -0.4625493884086609
-0.42635661363601685 -0.13178294897079468 -0.2486725151538849
-0.42635661363601685 -0.11627906560897827 -0.46406733989715576
-0.42635664343833923 -0.11627907305955887 -0.23530353605747223
-0.42635661363601685 -0.10077518224716187 -0.4623591899871826
-0.42635661363601685 -0.10077518224716187 -0.20983904600143433
-0.42635661363601685 -0.08527129888534546 -0.4578755497932434
-0.42635661363601685 -0.08527129888534546 -0.17209848761558533
-0.42635661363601685 -0.06976741552352905 -0.4482409358024597
-0.42635661363601685 -0.06976741552352905 -0.15060637891292572
-0.42635661363601685 -0.05426359176635742 -0.43930783867836
-0.42635661363601685 -0.05426359176635742 -0.13988743722438812
-0.42635661363601685 -0.038759708404541016 -0.42706412076950073
-0.42635661363601685 -0.038759708404541016 -0.13651742041110992
-0.42635661363601685 -0.02325582504272461 -0.4135607182979584
-0.42635661363601685 -0.02325582504272461 -0.1399514526128769
-0.42635658383369446 -0.007751941680908203 -0.4058864414691925
-0.42635661363601685 -0.007751941680908203 -0.14885607361793518
-0.42635661363601685 0.007751941680908203 -0.4035634398460388
-0.42635661363601685 0.007751941680908203 -0.16648484766483307
-0.42635661363601685 0.02325582504272461 -0.40851646661758423
-0.42635661363601685 0.02325582504272461 -0.22833704948425293
-0.42635661363601685 0.038759708404541016 -0.4231053590774536
-0.42635661363601685 0.038759708404541016 -0.2519770860671997
-0.42635661363601685 0.05426359176635742 -0.4384544789791107
-0.42635661363601685 0.05426359176635742 -0.2642102837562561
-0.42635661363601685 0.06976747512817383 -0.4454239308834076
-0.42635661363601685 0.06976747512817383 -0.2725594639778137
-0.42635661363601685 0.08527135848999023 -0.4437864422798157
-0.42635661363601685 0.08527135848999023 -0.28547990322113037
-0.42635661363601685 0.10077524185180664 -0.42872798442840576
-0.42635661363601685 0.10077524185180664 -0.3072637617588043
-0.42635661363601685 0.3333333730697632 -0.48171305656433105
-0.42635661363601685 0.3333333730697632 -0.31602010130882263
-0.42635661363601685 0.3488372564315796 -0.5334627628326416
-0.42635661363601685 0.3488372564315796 -0.29678985476493835
-0.42635661363601685 0.364341139793396 -0.557097852230072
-0.42635661363601685 0.364341139793396 -0.2857828438282013
-0.42635661363601685 0.37984493374824524 -0.5316066741943359
-0.42635658383369446 0.37984490394592285 -0.2823791205883026
-0.42635661363601685 0.39534878730773926 -0.48996224999427795
-0.42635661363601685 0.39534878730773926 -0.2808804512023926
-0.42635661363601685 0.41085267066955566 -0.46323633193969727
-0.42635661363601685 0.41085267066955566 -0.2810797691345215
-0.42635661363601685 0.42635655403137207 -0.442202627658844
-0.42635661363601685 0.4263565242290497 -0.2828350365161896
-0.42635661363601685 0.4418604373931885 -0.4237310290336609
-0.42635661363601685 0.4418604373931885 -0.2850666642189026
-0.42635661363601685 0.4573643207550049 -0.4119783043861389
-0.42635661363601685 0.4573643207550049 -0.2879776060581207
-0.42635661363601685 0.4728682041168213 -0.4003979563713074
-0.42635661363601685 0.4728682041168213 -0.2923908829689026
-0.42635661363601685 0.4883720874786377 -0.39191630482673645
-0.42635661363601685 0.4883720874786377 -0.29747194051742554
-0.42635661363601685 0.5038759708404541 -0.38234731554985046
-0.42635661363601685 0.5038759708404541 -0.3062494099140167
-0.42635661363601685 0.5193798542022705 -0.3585721552371979
-0.42635661363601685 0.5193798542022705 -0.3330869674682617
-0.41085273027420044 -0.5193798542022705 -0.3722297251224518
-0.41085273027420044 -0.5193798542022705 -0.362962007522583
-0.41085273027420044 -0.5038759708404541 -0.4146309494972229
-0.41085273027420044 -0.5038759708404541 -0.32781416177749634
-0.41085273027420044 -0.4883721172809601 -0.41895025968551636
-0.41085273027420044 -0.4883720874786377 -0.3126237094402313
-0.41085273027420044 -0.4728682041168213 -0.4266204535961151
-0.41085273027420044 -0.4728682041168213 -0.3014726936817169
-0.41085273027420044 -0.4573643207550049 -0.4347032904624939
-0.41085273027420044 -0.4573643207550049 -0.2973465025424957
-0.41085273027420044 -0.4418604373931885 -0.44324827194213867
-0.41085273027420044 -0.4418604373931885 -0.29481959342956543
-0.41085273027420044 -0.42635661363601685 -0.5453685522079468
-0.41085273027420044 -0.42635661363601685 -0.5035057663917542
-0.41085273027420044 -0.42635661363601685 -0.4543977379798889
-0.41085273027420044 -0.42635661363601685 -0.29120302200317383
-0.41085273027420044 -0.41085273027420044 -0.5798154473304749
-0.41085273027420044 -0.41085273027420044 -0.28714168071746826
-0.41085273027420044 -0.39534884691238403 -0.5990891456604004
-0.41085273027420044 -0.39534884691238403 -0.28909561038017273
-0.41085273027420044 -0.3798449635505676 -0.6125518083572388
-0.41085273027420044 -0.3798449635505676 -0.29511624574661255
-0.41085273027420044 -0.3643410801887512 -0.6200761795043945
-0.41085273027420044 -0.3643410801887512 -0.4442513883113861
-0.41085273027420044 -0.3643410801887512 -0.4183252155780792
-0.41085273027420044 -0.3643410801887512 -0.30191612243652344
-0.41085273027420044 -0.3488371968269348 -0.6258078217506409
-0.41085273027420044 -0.3488371968269348 -0.45970162749290466
-0.41085273027420044 -0.3488371968269348 -0.3677273094654083
-0.41085273027420044 -0.3488371968269348 -0.32806506752967834
-0.41085273027420044 -0.3333333134651184 -0.6291103959083557
-0.41085273027420044 -0.3333333134651184 -0.4739818871021271
-0.41085273027420044 -0.317829430103302 -0.6301991939544678
-0.41085273027420044 -0.317829430103302 -0.48645269870758057
-0.41085273027420044 -0.30232560634613037 -0.6309542655944824
-0.41085273027420044 -0.30232560634613037 -0.49508604407310486
-0.41085273027420044 -0.28682172298431396 -0.6291747093200684
-0.41085273027420044 -0.28682172298431396 -0.4964900016784668
-0.4108527600765228 -0.27131783962249756 -0.6221907734870911
-0.41085273027420044 -0.27131783962249756 -0.4906604290008545
-0.41085273027420044 -0.25581395626068115 -0.6086512207984924
-0.41085273027420044 -0.25581395626068115 -0.48394957184791565
-0.41085273027420044 -0.24031007289886475 -0.5850553512573242
-0.41085273027420044 -0.24031007289886475 -0.4751121699810028
-0.41085273027420044 -0.22480618953704834 -0.5630819797515869
-0.41085273027420044 -0.22480618953704834 -0.46832287311553955
-0.41085273027420044 -0.20930230617523193 -0.547268271446228
-0.41085273027420044 -0.20930230617523193 -0.45776477456092834
-0.41085273027420044 -0.19379840791225433 -0.5347574353218079
-0.41085273027420044 -0.19379842281341553 -0.3423158526420593
-0.41085273027420044 -0.1782945990562439 -0.5078966617584229
-0.41085273027420044 -0.1782945990562439 -0.29282858967781067
-0.41085273027420044 -0.1627907156944275 -0.47424498200416565
-0.41085273027420044 -0.1627907156944275 -0.26719772815704346
-0.41085273027420044 -0.14728683233261108 -0.4706314206123352
-0.41085273027420044 -0.14728683233261108 -0.24866124987602234
-0.41085273027420044 -0.13178294897079468 -0.4708081781864166
-0.41085273027420044 -0.13178294897079468 -0.22781500220298767
-0.41085273027420044 -0.11627906560897827 -0.46851760149002075
-0.41085273027420044 -0.11627906560897827 -0.17777472734451294
-0.41085273027420044 -0.10077518224716187 -0.4626918435096741
-0.41085273027420044 -0.10077518224716187 -0.13993379473686218
-0.41085273027420044 -0.08527129888534546 -0.4533402621746063
-0.41085273027420044 -0.08527129888534546 -0.11362039297819138
-0.41085273027420044 -0.06976741552352905 -0.44253459572792053
-0.41085273027420044 -0.06976741552352905 -0.09284467250108719
-0.41085273027420044 -0.05426359176635742 -0.4292628765106201
-0.41085273027420044 -0.05426358804106712 -0.08069140464067459
-0.41085273027420044 -0.038759708404541016 -0.41587841510772705
-0.41085273027420044 -0.038759708404541016 -0.07522588968276978
-0.41085270047187805 -0.02325582504272461 -0.4060062766075134
-0.41085273027420044 -0.02325582504272461 -0.07638740539550781
-0.41085273027420044 -0.007751941680908203 -0.401414692401886
-0.41085273027420044 -0.00775194214656949 -0.08230940252542496
-0.41085273027420044 0.007751941680908203 -0.3999997079372406
-0.41085273027420044 0.007751941680908203 -0.09195741266012192
-0.41085273027420044 0.02325582504272461 -0.4003696143627167
-0.41085273027420044 0.02325582504272461 -0.10670973360538483
-0.41085273027420044 0.038759708404541016 -0.40583592653274536
-0.41085273027420044 0.038759708404541016 -0.1252347230911255
-0.41085273027420044 0.05426359176635742 -0.41814517974853516
-0.41085273027420044 0.05426359176635742 -0.16010279953479767
-0.41085273027420044 0.06976747512817383 -0.4277404546737671
-0.41085270047187805 0.06976747512817383 -0.2521995007991791
-0.4108527600765228 0.08527135848999023 -0.4262809455394745
-0.41085273027420044 0.08527135848999023 -0.2698366045951843
-0.41085273027420044 0.10077524930238724 -0.40538495779037476
-0.41085273027420044 0.10077524185180664 -0.2961900532245636
-0.41085273027420044 0.3333333730697632 -0.5206660628318787
-0.41085273027420044 0.3333333730697632 -0.3134794235229492
-0.41085273027420044 0.3488372564315796 -0.593491792678833
-0.41085273027420044 0.3488372564315796 -0.29324692487716675
-0.41085273027420044 0.364341139793396 -0.6675735712051392
-0.41085270047187805 0.364341139793396 -0.283210813999176
-0.41085273027420044 0.37984490394592285 -0.6533608436584473
-0.41085273027420044 0.37984490394592285 -0.2795775234699249
-0.41085273027420044 0.39534878730773926 -0.49992796778678894
-0.41085273027420044 0.39534878730773926 -0.2779119610786438
-0.41085273027420044 0.41085267066955566 -0.4603828489780426
-0.41085273027420044 0.41085267066955566 -0.2788241505622864
-0.41085273027420044 0.42635655403137207 -0.43393293023109436
-0.41085273027420044 0.42635655403137207 -0.2814622223377228
-0.41085273027420044 0.4418604373931885 -0.4157300591468811
-0.41085273027420044 0.4418604373931885 -0.284179151058197
-0.41085273027420044 0.4573643207550049 -0.4028961658477783
-0.41085270047187805 0.4573643207550049 -0.2866407036781311
-0.41085270047187805 0.4728682041168213 -0.39246276021003723
-0.41085273027420044 0.4728682041168213 -0.292062371969223
-0.41085273027420044 0.4883720874786377 -0.3818857967853546
-0.41085273027420044 0.4883720874786377 -0.298477441072464
-0.41085273027420044 0.5038759708404541 -0.3693116307258606
-0.41085273027420044 0.5038759708404541 -0.3121435344219208
-0.39534884691238403 -0.5038759708404541 -0.38085073232650757
-0.39534884691238403 -0.5038759708404541 -0.3289657235145569
-0.39534884691238403 -0.4883720874786377 -0.3977344334125519
-0.39534884691238403 -0.4883720874786377 -0.31116509437561035
-0.39534884691238403 -0.4728682041168213 -0.41237181425094604
-0.39534881711006165 -0.4728682041168213 -0.29922401905059814
-0.39534884691238403 -0.4573643207550049 -0.4241483509540558
-0.39534884691238403 -0.4573643207550049 -0.2950499653816223
-0.39534884691238403 -0.4418604373931885 -0.43388140201568604
-0.39534884691238403 -0.4418604373931885 -0.28970634937286377
-0.39534884691238403 -0.42635661363601685 -0.5420368909835815
-0.39534884691238403 -0.42635661363601685 -0.48411107063293457
-0.39534884691238403 -0.42635661363601685 -0.4504464268684387
-0.39534884691238403 -0.42635661363601685 -0.2851545512676239
-0.39534884691238403 -0.41085273027420044 -0.5733275413513184
-0.39534884691238403 -0.41085273027420044 -0.2838584780693054
-0.39534884691238403 -0.39534884691238403 -0.5927417278289795
-0.39534884691238403 -0.39534884691238403 -0.28419390320777893
-0.39534884691238403 -0.3798449635505676 -0.606519341468811
-0.39534884691238403 -0.3798449635505676 -0.28778886795043945
-0.39534884691238403 -0.3643410801887512 -0.6164882183074951
-0.39534884691238403 -0.3643410801887512 -0.2974018454551697
-0.39534884691238403 -0.3488371968269348 -0.622061550617218
-0.39534884691238403 -0.3488371968269348 -0.44375908374786377
-0.39534884691238403 -0.3488371968269348 -0.3840779662132263
-0.39534884691238403 -0.3488371968269348 -0.31300413608551025
-0.39534884691238403 -0.3333333134651184 -0.6268056631088257
-0.39534884691238403 -0.3333333134651184 -0.46106216311454773
-0.39534884691238403 -0.317829430103302 -0.6298178434371948
-0.39534884691238403 -0.317829430103302 -0.47396987676620483
-0.39534884691238403 -0.30232560634613037 -0.6325659155845642
-0.39534881711006165 -0.30232560634613037 -0.4828181862831116
-0.39534884691238403 -0.28682172298431396 -0.631965696811676
-0.39534884691238403 -0.28682172298431396 -0.48347699642181396
-0.39534884691238403 -0.27131783962249756 -0.6288610100746155
-0.39534884691238403 -0.27131783962249756 -0.47815749049186707
-0.39534884691238403 -0.25581395626068115 -0.616600751876831
-0.39534884691238403 -0.25581395626068115 -0.47049349546432495
-0.39534884691238403 -0.24031007289886475 -0.5989589095115662
-0.39534884691238403 -0.24031007289886475 -0.4631228446960449
-0.39534884691238403 -0.22480618953704834 -0.5802872180938721
-0.39534884691238403 -0.22480618953704834 -0.4540407061576843
-0.39534884691238403 -0.20930230617523193 -0.5663589239120483
-0.39534884691238403 -0.20930230617523193 -0.43852856755256653
-0.39534884691238403 -0.19379842281341553 -0.5529014468193054
-0.39534884691238403 -0.19379842281341553 -0.34032994508743286
-0.39534884691238403 -0.1782945990562439 -0.5368804335594177
-0.39534884691238403 -0.1782945990562439 -0.2873009741306305
-0.39534884691238403 -0.1627907156944275 -0.5092011094093323
-0.39534884691238403 -0.1627907156944275 -0.2589706480503082
-0.39534884691238403 -0.14728683233261108 -0.48172619938850403
-0.39534884691238403 -0.14728683233261108 -0.23086991906166077
-0.39534884691238403 -0.13178294897079468 -0.47448402643203735
-0.39534884691238403 -0.13178294897079468 -0.1503838300704956
-0.39534884691238403 -0.11627906560897827 -0.466548889875412
-0.39534884691238403 -0.11627906560897827 -0.10977429151535034
-0.39534884691238403 -0.10077518224716187 -0.4577120840549469
-0.39534884691238403 -0.10077518224716187 -0.07475072890520096
-0.39534884691238403 -0.08527129888534546 -0.44461941719055176
-0.39534884691238403 -0.08527129888534546 -0.033967360854148865
-0.39534884691238403 -0.06976741552352905 -0.43034979701042175
-0.39534884691238403 -0.06976741552352905 0.016490673646330833
-0.39534884691238403 -0.05426359176635742 -0.41627731919288635
-0.3953488767147064 -0.05426359176635742 0.04126493260264397
-0.39534884691238403 -0.038759708404541016 -0.40284913778305054
-0.39534884691238403 -0.038759708404541016 0.05680771917104721
-0.39534884691238403 -0.02325582504272461 -0.39582425355911255
-0.39534884691238403 -0.02325582504272461 0.06167513504624367
-0.39534884691238403 -0.007751941680908203 -0.3933565020561218
-0.39534884691238403 -0.007751941680908203 0.051857639104127884
-0.39534884691238403 0.007751941680908203 -0.39251643419265747
-0.39534884691238403 0.007751941680908203 0.032346971333026886
-0.39534884691238403 0.02325582504272461 -0.3924310505390167
-0.39534881711006165 0.02325582504272461 0.008797992020845413
-0.39534884691238403 0.038759708404541016 -0.38916707038879395
-0.39534884691238403 0.038759708404541016 -0.0194901954382658
-0.39534884691238403 0.05426359176635742 -0.3880161941051483
-0.39534884691238403 0.05426359176635742 -0.048506420105695724
-0.39534884691238403 0.06976747512817383 -0.3898969292640686
-0.39534884691238403 0.06976747512817383 -0.0780714750289917
-0.39534884691238403 0.08527135848999023 -0.387809157371521
-0.39534884691238403 0.08527135848999023 -0.25193843245506287
-0.39534884691238403 0.08527135848999023 -0.16756293177604675
-0.39534884691238403 0.08527135848999023 -0.12038873881101608
-0.39534884691238403 0.10077524185180664 -0.37169939279556274
-0.39534884691238403 0.10077524185180664 -0.2788492441177368
-0.39534884691238403 0.11627912521362305 -0.3455198407173157
-0.39534884691238403 0.11627912521362305 -0.31652799248695374
-0.39534884691238403 0.16279065608978271 -0.3984948992729187
-0.39534884691238403 0.16279065608978271 -0.36084097623825073
-0.39534884691238403 0.17829453945159912 -0.4130897521972656
-0.39534884691238403 0.17829453945159912 -0.35950228571891785
-0.39534884691238403 0.19379842281341553 -0.41696199774742126
-0.39534884691238403 0.19379842281341553 -0.3658202588558197
-0.39534884691238403 0.20930230617523193 -0.39973583817481995
-0.39534884691238403 0.20930230617523193 -0.3934619426727295
-0.39534884691238403 0.3333333730697632 -0.564292311668396
-0.39534884691238403 0.3333333730697632 -0.3127288818359375
-0.39534884691238403 0.3488372564315796 -0.6984176635742188
-0.39534884691238403 0.3488372564315796 -0.29035037755966187
-0.39534884691238403 0.364341139793396 -0.7009255886077881
-0.39534884691238403 0.364341139793396 -0.28184974193573
-0.39534884691238403 0.37984490394592285 -0.6909187436103821
-0.39534884691238403 0.37984490394592285 -0.27806276082992554
-0.39534884691238403 0.39534878730773926 -0.641851007938385
-0.39534884691238403 0.39534878730773926 -0.2774560749530792
-0.39534884691238403 0.41085267066955566 -0.45042505860328674
-0.39534884691238403 0.41085267066955566 -0.2796761691570282
-0.39534884691238403 0.42635655403137207 -0.4199208617210388
-0.39534884691238403 0.42635658383369446 -0.2830738127231598
-0.39534884691238403 0.4418604373931885 -0.40204107761383057
-0.39534884691238403 0.4418604075908661 -0.28620514273643494
-0.39534884691238403 0.4573643207550049 -0.38916337490081787
-0.39534884691238403 0.4573643207550049 -0.2926643490791321
-0.39534884691238403 0.4728682041168213 -0.3767005503177643
-0.39534884691238403 0.4728682041168213 -0.2989047169685364
-0.39534884691238403 0.4883720874786377 -0.3616875112056732
-0.39534884691238403 0.4883720576763153 -0.3122818171977997
-0.3798449635505676 -0.5038759708404541 -0.37025612592697144
-0.3798449635505676 -0.5038759708404541 -0.3301277756690979
-0.3798449635505676 -0.4883720874786377 -0.3893779218196869
-0.3798449635505676 -0.4883720874786377 -0.3099897503852844
-0.3798449635505676 -0.4728682041168213 -0.40406638383865356
-0.3798449635505676 -0.4728682041168213 -0.29785212874412537
-0.3798449635505676 -0.4573643207550049 -0.4163212776184082
-0.3798449635505676 -0.4573643207550049 -0.29197558760643005
-0.3798449635505676 -0.4418604373931885 -0.4277229309082031
-0.3798449635505676 -0.4418604373931885 -0.28515931963920593
-0.3798449635505676 -0.42635661363601685 -0.536893367767334
-0.3798449635505676 -0.42635661363601685 -0.4756650924682617
-0.3798449635505676 -0.42635661363601685 -0.4435681700706482
-0.3798449635505676 -0.42635661363601685 -0.2832306921482086
-0.3798449635505676 -0.41085273027420044 -0.5689025521278381
-0.3798449635505676 -0.41085273027420044 -0.2821926176548004
-0.3798449635505676 -0.39534884691238403 -0.5878888368606567
-0.3798449635505676 -0.3953488767147064 -0.2822328805923462
-0.3798449635505676 -0.3798449635505676 -0.6023061275482178
-0.3798449635505676 -0.3798449635505676 -0.2839958369731903
-0.3798449635505676 -0.3643410801887512 -0.6129882335662842
-0.3798449635505676 -0.3643410801887512 -0.2919709086418152
-0.3798449635505676 -0.3488371968269348 -0.6176556348800659
-0.3798449635505676 -0.3488371968269348 -0.432736337184906
-0.3798449635505676 -0.3488371968269348 -0.3922480642795563
-0.3798449635505676 -0.3488371670246124 -0.30214226245880127
-0.3798449635505676 -0.3333333134651184 -0.6212625503540039
-0.3798449635505676 -0.3333333134651184 -0.45185989141464233
-0.3798449635505676 -0.317829430103302 -0.626861572265625
-0.3798449635505676 -0.317829430103302 -0.46629610657691956
-0.3798449635505676 -0.30232560634613037 -0.6322540044784546
-0.3798449635505676 -0.30232560634613037 -0.4730558395385742
-0.3798449635505676 -0.28682172298431396 -0.6335574388504028
-0.3798449635505676 -0.28682172298431396 -0.47461479902267456
-0.3798449635505676 -0.27131783962249756 -0.6322424411773682
-0.3798449635505676 -0.27131783962249756 -0.4708159565925598
-0.3798449635505676 -0.25581395626068115 -0.6255610585212708
-0.3798449635505676 -0.25581395626068115 -0.46565720438957214
-0.3798449635505676 -0.24031007289886475 -0.6120628118515015
-0.37984493374824524 -0.24031007289886475 -0.45733967423439026
-0.3798449635505676 -0.22480618953704834 -0.5952451825141907
-0.3798449635505676 -0.22480618953704834 -0.45090654492378235
-0.3798449635505676 -0.20930230617523193 -0.5794849991798401
-0.3798449635505676 -0.20930230617523193 -0.43700024485588074
-0.37984493374824524 -0.19379842281341553 -0.5647059082984924
-0.3798449635505676 -0.19379842281341553 -0.3644934296607971
-0.3798449635505676 -0.1782945990562439 -0.545783281326294
-0.3798449635505676 -0.1782945990562439 -0.2861562967300415
-0.3798449635505676 -0.1627907156944275 -0.5218802094459534
-0.3798449635505676 -0.1627907156944275 -0.2515128254890442
-0.3798449635505676 -0.14728683233261108 -0.47963079810142517
-0.3798449635505676 -0.14728683233261108 -0.12107180804014206
-0.3798449635505676 -0.13178294897079468 -0.4643273949623108
-0.3798449635505676 -0.13178294897079468 -0.07546649873256683
-0.3798449635505676 -0.11627905815839767 -0.45402467250823975
-0.3798449635505676 -0.11627906560897827 0.00017424416728317738
-0.3798449635505676 -0.10077518224716187 -0.44322898983955383
-0.3798449635505676 -0.10077518224716187 0.08144566416740417
-0.3798449635505676 -0.08527129888534546 -0.42982620000839233
-0.3798449635505676 -0.08527129888534546 0.2830078601837158
-0.3798449635505676 -0.06976741552352905 -0.41541236639022827
-0.3798449635505676 -0.06976741552352905 0.3678639531135559
-0.3798449635505676 -0.05426359176635742 -0.4008057117462158
-0.3798449635505676 -0.05426359176635742 0.41061899065971375
-0.3798449635505676 -0.038759708404541016 -0.3887825608253479
-0.3798449635505676 -0.038759708404541016 0.4340066909790039
-0.3798449635505676 -0.02325582504272461 -0.3827587962150574
-0.3798449635505676 -0.02325582504272461 0.44626694917678833
-0.3798449635505676 -0.007751941680908203 -0.3815630376338959
-0.3798449635505676 -0.007751941215246916 0.44520139694213867
-0.3798449635505676 0.007751941680908203 -0.38100534677505493
-0.3798449635505676 0.007751941680908203 0.4291188418865204
-0.3798449635505676 0.02325582504272461 -0.3806726932525635
-0.3798449635505676 0.02325582504272461 0.3906722664833069
-0.3798449635505676 0.038759708404541016 -0.37644100189208984
-0.3798449635505676 0.038759708404541016 0.30483344197273254
-0.3798449635505676 0.05426359176635742 -0.3692736327648163
-0.3798449635505676 0.05426359176635742 0.13922373950481415
-0.3798449635505676 0.06976747512817383 -0.3648820221424103
-0.3798449635505676 0.06976747512817383 0.09581299871206284
-0.3798449635505676 0.08527135848999023 -0.36041074991226196
-0.3798449635505676 0.08527135848999023 0.061245910823345184
-0.3798449635505676 0.10077524185180664 -0.35537001490592957
-0.3798449635505676 0.10077524185180664 -0.24784336984157562
-0.3798449635505676 0.10077524185180664 -0.1976889967918396
-0.3798449635505676 0.10077524185180664 -0.024353809654712677
-0.3798449635505676 0.11627912521362305 -0.3536108434200287
-0.3798449635505676 0.11627912521362305 -0.2704668939113617
-0.3798449635505676 0.11627913266420364 -0.1602848321199417
-0.3798449635505676 0.11627912521362305 -0.10094805806875229
-0.3798449635505676 0.1317828893661499 -0.36674219369888306
-0.3798449635505676 0.1317828893661499 -0.29994088411331177
-0.37984499335289 0.1472867727279663 -0.3953377306461334
-0.3798449635505676 0.1472867727279663 -0.31952008605003357
-0.3798449635505676 0.16279065608978271 -0.4166770577430725
-0.3798449635505676 0.16279065608978271 -0.3306473195552826
-0.3798449635505676 0.17829453945159912 -0.42871010303497314
-0.3798449635505676 0.17829453945159912 -0.3356650471687317
-0.3798449635505676 0.19379842281341553 -0.434575617313385
-0.3798449635505676 0.19379842281341553 -0.34283480048179626
-0.3798449635505676 0.20930230617523193 -0.43612611293792725
-0.3798449635505676 0.20930230617523193 -0.3564520478248596
-0.3798449635505676 0.22480620443820953 -0.4249699115753174
-0.3798449635505676 0.22480618953704834 -0.38511425256729126
-0.3798449635505676 0.3178294897079468 -0.5390017628669739
-0.3798449635505676 0.3178294897079468 -0.4402915835380554
-0.3798449635505676 0.3333333730697632 -0.706741988658905
-0.3798449635505676 0.3333333730697632 -0.3090256154537201
-0.3798449635505676 0.3488372564315796 -0.7181892395019531
-0.3798449635505676 0.3488372564315796 -0.286245733499527
-0.3798449635505676 0.364341139793396 -0.7177032232284546
-0.3798449635505676 0.364341139793396 -0.28026682138442993
-0.3798449635505676 0.37984490394592285 -0.7081056833267212
-0.3798449635505676 0.37984490394592285 -0.27802711725234985
-0.3798449635505676 0.39534878730773926 -0.681550145149231
-0.3798449635505676 0.39534878730773926 -0.279898464679718
-0.3798449635505676 0.41085267066955566 -0.432373046875
-0.3798449635505676 0.41085267066955566 -0.2830476462841034
-0.3798449635505676 0.42635655403137207 -0.4022268056869507
-0.3798449635505676 0.42635655403137207 -0.2868154048919678
-0.3798449635505676 0.4418604373931885 -0.3850775957107544
-0.3798449635505676 0.4418604373931885 -0.29545092582702637
-0.3798449635505676 0.4573643207550049 -0.36886686086654663
-0.3798449635505676 0.4573643207550049 -0.3053125739097595
-0.3798449635505676 0.4728682041168213 -0.33463266491889954
-0.3798449635505676 0.4728682041168213 -0.3326023519039154
-0.3643410801887512 -0.5038759708404541 -0.36120426654815674
-0.3643411099910736 -0.5038759708404541 -0.33215391635894775
-0.3643410801887512 -0.4883720874786377 -0.3824509382247925
-0.3643410801887512 -0.4883720874786377 -0.3093077540397644
-0.3643410801887512 -0.4728682041168213 -0.3970670700073242
-0.3643410801887512 -0.4728681743144989 -0.2970595061779022
-0.3643410801887512 -0.4573643207550049 -0.40981659293174744
-0.3643410801887512 -0.4573643207550049 -0.2884374260902405
-0.3643410801887512 -0.4418604373931885 -0.417830228805542
-0.3643410801887512 -0.4418604373931885 -0.284099280834198
-0.3643410801887512 -0.42635661363601685 -0.5203207731246948
-0.3643410801887512 -0.42635661363601685 -0.48714619874954224
-0.3643410801887512 -0.42635661363601685 -0.430036723613739
-0.3643410801887512 -0.42635661363601685 -0.2825720012187958
-0.3643410801887512 -0.41085273027420044 -0.5624339580535889
-0.3643410801887512 -0.41085273027420044 -0.28165286779403687
-0.3643410801887512 -0.39534884691238403 -0.5831506252288818
-0.3643410801887512 -0.39534884691238403 -0.2814917266368866
-0.3643410801887512 -0.3798449635505676 -0.5981714129447937
-0.3643410801887512 -0.3798449635505676 -0.2826918959617615
-0.3643410801887512 -0.3643410801887512 -0.6070815324783325
-0.36434105038642883 -0.36434105038642883 -0.2866082191467285
-0.3643410801887512 -0.3488371968269348 -0.6130521297454834
-0.3643410801887512 -0.3488371968269348 -0.4325912892818451
-0.3643410801887512 -0.3488371968269348 -0.38733965158462524
-0.3643410801887512 -0.3488371968269348 -0.29948872327804565
-0.3643410801887512 -0.3333333134651184 -0.6158119440078735
-0.3643410801887512 -0.3333333134651184 -0.44996458292007446
-0.3643410801887512 -0.317829430103302 -0.6219397187232971
-0.3643410801887512 -0.317829430103302 -0.46409517526626587
-0.3643410801887512 -0.30232560634613037 -0.6321123838424683
-0.3643410801887512 -0.30232560634613037 -0.47171977162361145
-0.3643410801887512 -0.28682172298431396 -0.6361878514289856
-0.3643410801887512 -0.28682172298431396 -0.47280973196029663
-0.3643410801887512 -0.27131783962249756 -0.6381610631942749
-0.3643410801887512 -0.27131783962249756 -0.4704953134059906
-0.3643410801887512 -0.25581395626068115 -0.6333943009376526
-0.3643410801887512 -0.25581395626068115 -0.46627742052078247
