-0.1627907156944275 -0.1085764467716217 0.30232560634613037
-0.1627907156944275 -0.10637679696083069 0.3178294897079468
-0.1627907156944275 -0.1028272733092308 0.3333333730697632
-0.1627907156944275 -0.08804851025342941 -0.22480618953704834
-0.1627907156944275 -0.08709228783845901 -0.13178294897079468
-0.1627907156944275 -0.08850512653589249 0.10077524185180664
-0.1627907156944275 -0.09296685457229614 0.11627912521362305
-0.1627907156944275 -0.098109170794487 0.1317828893661499
-0.1627907156944275 -0.09823419153690338 0.348837286233902
-0.1627907156944275 -0.09348858147859573 0.364341139793396
-0.1627907156944275 -0.08614810556173325 0.37984490394592285
-0.1627907156944275 -0.07263064384460449 -0.24031007289886475
-0.1627907156944275 -0.07519003003835678 -0.11627906560897827
-0.1627907156944275 -0.0741320326924324 0.05426359176635742
-0.1627907156944275 -0.0794713944196701 0.06976747512817383
-0.1627907156944275 -0.08462586998939514 0.08527136594057083
-0.1627907156944275 -0.07840105146169662 0.39534878730773926
-0.1627907156944275 -0.05664648115634918 -0.25581395626068115
-0.1627907156944275 -0.06906486302614212 -0.10077518224716187
-0.1627907156944275 -0.05814604461193085 -0.08527129888534546
-0.1627907156944275 -0.06145989149808884 0.02325582504272461
-0.1627907156944275 -0.06906402856111526 0.038759708404541016
-0.1627907156944275 -0.06566271185874939 0.41085267066955566
-0.1627907156944275 -0.05026388540863991 -0.06976741552352905
-0.1627907156944275 -0.04026356339454651 -0.05426359176635742
-0.1627907156944275 -0.04188324511051178 -0.007751941680908203
-0.1627907156944275 -0.05308717489242554 0.007751941680908203
-0.1627907156944275 -0.04976785555481911 0.42635655403137207
-0.1627907156944275 -0.025373445823788643 0.4418604373931885
-0.1627907156944275 -0.020168133080005646 -0.05426359176635742
-0.1627907156944275 -0.010492295026779175 -0.007751941680908203
-0.1627907156944275 0.0034765955060720444 -0.08527129888534546
-0.1627907156944275 -0.00749219348654151 -0.06976742297410965
-0.1627907156944275 0.016623884439468384 -0.25581395626068115
-0.1627907156944275 0.01488523930311203 -0.10077518224716187
-0.1627907156944275 0.02176525630056858 0.4573643207550049
-0.1627907156944275 0.027889331802725792 -0.11627906560897827
-0.1627907156944275 0.04941340163350105 -0.24031007289886475
-0.1627907156944275 0.045119933784008026 -0.13178294897079468
-0.1627907156944275 0.04579173028469086 0.007751941680908203
-0.1627907156944275 0.061450473964214325 -0.14728683233261108
-0.1627907156944275 0.07346292585134506 -0.22480618953704834
-0.1627907156944275 0.08260620385408401 -0.20930230617523193
-0.1627907156944275 0.08377338945865631 -0.19379842281341553
-0.1627907156944275 0.08010158687829971 -0.1782945990562439
-0.1627907156944275 0.07332493364810944 -0.1627907156944275
-0.1627907156944275 0.08148619532585144 0.4573643207550049
-0.1627907156944275 0.08575033396482468 0.02325582504272461
-0.1627907156944275 0.10590081661939621 0.038759708404541016
-0.1627907156944275 0.11910739541053772 0.05426359176635742
-0.1627907156944275 0.1290716975927353 0.06976747512817383
-0.1627907156944275 0.11753492802381516 0.4418604373931885
-0.1627907156944275 0.13456764817237854 0.08527135848999023
-0.1627907156944275 0.1379755586385727 0.10077524185180664
-0.1627907156944275 0.14119437336921692 0.11627912521362305
-0.1627907156944275 0.14370638132095337 0.1317828893661499
-0.1627907156944275 0.1456688493490219 0.1472867727279663
-0.1627907156944275 0.14684145152568817 0.41085267066955566
-0.1627907156944275 0.13563773036003113 0.42635655403137207
-0.1627907156944275 0.14751474559307098 0.1627906709909439
-0.1627907156944275 0.15089619159698486 0.17829453945159912
-0.1627907156944275 0.15444937348365784 0.19379842281341553
-0.1627907156944275 0.15762215852737427 0.20930230617523193
-0.1627907156944275 0.16012027859687805 0.22480618953704834
-0.1627907156944275 0.1624811589717865 0.24031007289886475
-0.1627907156944275 0.1624445766210556 0.364341139793396
-0.1627907156944275 0.15928182005882263 0.37984490394592285
-0.1627907156944275 0.1543363779783249 0.39534878730773926
-0.1627907156944275 0.17104461789131165 -0.27131783962249756
-0.1627907156944275 0.17510151863098145 -0.25581395626068115
-0.1627907156944275 0.16474060714244843 0.25581395626068115
-0.1627907156944275 0.16665524244308472 0.27131783962249756
-0.1627907156944275 0.1676834225654602 0.28682172298431396
-0.1627907156944275 0.1687510907649994 0.30232560634613037
-0.1627907156944275 0.16819018125534058 0.3178294897079468
-0.1627907156944275 0.16705381870269775 0.3333333730697632
-0.1627907156944275 0.1653514802455902 0.3488372564315796
-0.1627907156944275 0.18370993435382843 -0.28682172298431396
-0.1627907156944275 0.20577529072761536 -0.27131783962249756
-0.1627907156944275 0.1941816806793213 -0.25581395626068115
-0.1627907156944275 0.20958945155143738 -0.28682172298431396
-0.14728683233261108 -0.6953111886978149 -0.4418604373931885
-0.14728683233261108 -0.699267566204071 -0.42635661363601685
-0.14728683233261108 -0.6997020244598389 -0.41085273027420044
-0.14728683233261108 -0.697650134563446 -0.39534884691238403
-0.14728683233261108 -0.6945421695709229 -0.3798449635505676
-0.14728683233261108 -0.6833114624023438 -0.4573643207550049
-0.1472868174314499 -0.6883515119552612 -0.36434105038642883
-0.14728683233261108 -0.678270161151886 -0.3488371968269348
-0.14728683233261108 -0.6597152948379517 -0.4728682041168213
-0.14728683233261108 -0.6512749195098877 -0.3333333134651184
-0.14728683233261108 -0.5611348152160645 -0.4728682041168213
-0.14728683233261108 -0.5112398862838745 -0.317829430103302
-0.14728683233261108 -0.4968644380569458 -0.4573643207550049
-0.14728683233261108 -0.47269541025161743 -0.30232560634613037
-0.14728683233261108 -0.4327058792114258 -0.4418604373931885
-0.14728683233261108 -0.40420103073120117 -0.42635661363601685
-0.14728683233261108 -0.3868088126182556 -0.41085273027420044
-0.14728683233261108 -0.3706395626068115 -0.39534884691238403
-0.14728683233261108 -0.35075974464416504 -0.3798449635505676
-0.14728683233261108 -0.2928220331668854 -0.28682172298431396
-0.14728683233261108 -0.26291781663894653 -0.27131783962249756
-0.14728683233261108 -0.2496178150177002 -0.3643410801887512
-0.14728683233261108 -0.24204619228839874 -0.25581395626068115
-0.14728683233261108 -0.22698688507080078 -0.3488371968269348
-0.14728683233261108 -0.23003268241882324 -0.24031007289886475
-0.14728683233261108 -0.22122398018836975 -0.22480618953704834
-0.14728683233261108 -0.20875650644302368 -0.3333333134651184
-0.14728683233261108 -0.20844170451164246 -0.20930230617523193
-0.14728683233261108 -0.19160202145576477 -0.317829430103302
-0.14728683233261108 -0.18806158006191254 -0.19379842281341553
-0.14728683233261108 -0.17578734457492828 -0.30232560634613037
-0.14728683233261108 -0.1679704636335373 -0.1782945990562439
-0.14728683233261108 -0.16111916303634644 -0.28682172298431396
-0.14728683233261108 -0.14723938703536987 -0.27131783962249756
-0.14728683233261108 -0.1383742392063141 -0.25581395626068115
-0.14728683233261108 -0.13380001485347748 -0.1627907156944275
-0.14728683233261108 -0.128834068775177 -0.24031007289886475
-0.14728683233261108 -0.12045563012361526 -0.22480618953704834
-0.14728683233261108 -0.13008998334407806 -0.1627907156944275
-0.14728683233261108 -0.11732066422700882 0.17829453945159912
-0.14728683233261108 -0.1196364015340805 0.19379842281341553
-0.14728683233261108 -0.12090127170085907 0.20930230617523193
-0.14728683233261108 -0.12176676094532013 0.22480618953704834
-0.14728683233261108 -0.12234809994697571 0.24031007289886475
-0.14728683233261108 -0.12241527438163757 0.25581395626068115
-0.14728683233261108 -0.12242886424064636 0.27131783962249756
-0.14728683233261108 -0.1214047223329544 0.28682172298431396
-0.14728683233261108 -0.12063323706388474 0.30232560634613037
-0.14728683233261108 -0.11830779910087585 0.3178294897079468
-0.14728683233261108 -0.10636383295059204 -0.20930230617523193
-0.14728683233261108 -0.11366263031959534 -0.1627907156944275
-0.14728683233261108 -0.10364034026861191 0.11627912521362305
-0.14728683233261108 -0.10826708376407623 0.1317828893661499
-0.14728683233261108 -0.11240202933549881 0.1472867727279663
-0.14728683233261108 -0.11522410809993744 0.16279065608978271
-0.14728683233261108 -0.11561648547649384 0.33333340287208557
-0.14728683233261108 -0.1119486540555954 0.3488372564315796
-0.14728683233261108 -0.10790540277957916 0.364341139793396
-0.14728683233261108 -0.10082100331783295 0.37984490394592285
-0.14728683233261108 -0.08573709428310394 -0.22480618953704834
-0.14728683233261108 -0.09862850606441498 -0.20930232107639313
-0.14728683233261108 -0.10007750242948532 -0.14728683233261108
-0.14728683233261108 -0.09065523743629456 -0.13178294897079468
-0.14728683233261108 -0.0893574208021164 0.06976747512817383
-0.14728683233261108 -0.09550869464874268 0.08527135848999023
-0.1472868174314499 -0.10004963725805283 0.10077523440122604
-0.14728683233261108 -0.09424611926078796 0.39534878730773926
-0.14728683233261108 -0.07290155440568924 -0.24031007289886475
-0.14728684723377228 -0.08339235931634903 -0.11627906560897827
-0.14728683233261108 -0.07399919629096985 -0.10077518224716187
-0.14728683233261108 -0.0721457451581955 0.02325582504272461
-0.14728683233261108 -0.07929588854312897 0.038759708404541016
-0.14728683233261108 -0.08520833402872086 0.05426359176635742
-0.14728683233261108 -0.08272124826908112 0.41085267066955566
-0.14728683233261108 -0.054861441254615784 -0.25581395626068115
-0.14728683233261108 -0.06946667283773422 -0.08527129888534546
-0.14728683233261108 -0.06017206609249115 -0.06976741552352905
-0.14728683233261108 -0.05561263486742973 -0.05426359176635742
-0.14728683233261108 -0.054552044719457626 -0.038759708404541016
-0.14728683233261108 -0.05479816719889641 -0.02325582504272461
-0.14728683233261108 -0.057771213352680206 -0.007751941680908203
-0.14728683233261108 -0.06476224958896637 0.007751941680908203
-0.14728683233261108 -0.06964706629514694 0.4263565242290497
-0.14728683233261108 -0.05080035328865051 0.4418604373931885
-0.14728683233261108 -0.022401349619030952 0.4573642909526825
-0.14728683233261108 0.0061088064685463905 -0.25581395626068115
-0.14728683233261108 0.006948081776499748 -0.06976741552352905
-0.14728683233261108 -0.0013147036079317331 -0.05426359176635742
-0.14728683233261108 -0.003295927308499813 -0.038759708404541016
-0.14728683233261108 0.0019295234233140945 -0.02325582504272461
-0.14728683233261108 0.01619993895292282 -0.08527129888534546
-0.14728683233261108 0.02718272991478443 -0.10077518224716187
-0.14728683233261108 0.027593903243541718 -0.007751941680908203
-0.14728683233261108 0.03154894709587097 0.4728682041168213
-0.14728683233261108 0.04340890794992447 -0.24031007289886475
-0.14728683233261108 0.03991752862930298 -0.11627906560897827
-0.14728683233261108 0.06662466377019882 -0.14728683233261108
-0.14728683233261108 0.05434133857488632 -0.13178294897079468
-0.14728683233261108 0.0703326091170311 -0.22480618953704834
-0.14728683233261108 0.07999491691589355 -0.20930230617523193
-0.14728683233261108 0.08245681971311569 -0.19379842281341553
-0.14728683233261108 0.08032312989234924 -0.1782945990562439
-0.14728683233261108 0.07541858404874802 -0.1627907156944275
-0.14728683233261108 0.07217343896627426 0.007751941680908203
-0.14728683233261108 0.07972462475299835 0.4728682041168213
-0.14728683233261108 0.10109493136405945 0.02325582504272461
-0.14728683233261108 0.11823194473981857 0.038759708404541016
-0.14728683233261108 0.13135755062103271 0.05426359176635742
-0.14728683233261108 0.12176575511693954 0.4573643207550049
-0.14728683233261108 0.14165504276752472 0.06976747512817383
-0.14728683233261108 0.14281007647514343 0.4418604373931885
-0.14728684723377228 0.14803098142147064 0.08527135848999023
-0.14728683233261108 0.15186947584152222 0.10077524185180664
-0.14728683233261108 0.15542933344841003 0.11627912521362305
-0.14728683233261108 0.15828078985214233 0.1317828893661499
-0.14728683233261108 0.16018691658973694 0.1472867727279663
-0.14728683233261108 0.16159579157829285 0.16279065608978271
-0.14728683233261108 0.15670819580554962 0.42635655403137207
-0.14728683233261108 0.16455619037151337 0.17829453945159912
-0.14728683233261108 0.1682228147983551 0.19379842281341553
-0.14728683233261108 0.1712675541639328 0.20930230617523193
-0.14728683233261108 0.1739691197872162 0.22480618953704834
-0.14728683233261108 0.17651060223579407 0.24031007289886475
-0.14728683233261108 0.17568662762641907 0.37984490394592285
-0.14728683233261108 0.17191258072853088 0.39534878730773926
-0.14728683233261108 0.16569381952285767 0.4108526408672333
-0.14728683233261108 0.17865341901779175 0.25581395626068115
-0.14728683233261108 0.1804785579442978 0.27131783962249756
-0.14728683233261108 0.18175920844078064 0.28682172298431396
-0.14728683233261108 0.18309210240840912 0.30232560634613037
-0.14728683233261108 0.18278659880161285 0.3178294897079468
-0.14728683233261108 0.1819649040699005 0.3333333730697632
-0.14728683233261108 0.18074825406074524 0.3488372564315796
-0.14728683233261108 0.17839136719703674 0.3643411099910736
-0.13178294897079468 -0.6617963314056396 -0.4418604373931885
-0.13178294897079468 -0.6685608625411987 -0.42635661363601685
-0.13178294897079468 -0.6699826121330261 -0.4108527600765228
-0.13178294897079468 -0.6671882271766663 -0.39534884691238403
-0.13178294897079468 -0.6626080870628357 -0.3798449635505676
-0.13178294897079468 -0.6525514721870422 -0.3643410801887512
-0.13178294897079468 -0.6418812274932861 -0.45736435055732727
-0.13178294897079468 -0.6286346912384033 -0.3488371968269348
-0.13178294897079468 -0.5364428758621216 -0.4573643207550049
-0.13178294897079468 -0.5339400172233582 -0.3333333134651184
-0.13178294897079468 -0.5078673958778381 -0.317829430103302
-0.13178294897079468 -0.4658384323120117 -0.30232560634613037
-0.13178294897079468 -0.4447610378265381 -0.4418604373931885
-0.13178294897079468 -0.4085786044597626 -0.42635661363601685
-0.13178294897079468 -0.38966256380081177 -0.41085273027420044
-0.13178294897079468 -0.3716070055961609 -0.39534884691238403
-0.13178294897079468 -0.37356460094451904 -0.28682172298431396
-0.13178294897079468 -0.3483269214630127 -0.37984499335289
-0.13178294897079468 -0.3448672294616699 -0.28682172298431396
-0.13178294897079468 -0.2891063988208771 -0.28682172298431396
-0.13178294897079468 -0.27337244153022766 -0.3643410801887512
-0.13178294897079468 -0.24212108552455902 -0.3488371968269348
-0.13178294897079468 -0.2557232677936554 -0.27131783962249756
-0.13178294897079468 -0.24109593033790588 -0.25581395626068115
-0.13178294897079468 -0.23116299510002136 -0.24031007289886475
-0.13178294897079468 -0.22268205881118774 -0.333333283662796
-0.13178294897079468 -0.22463582456111908 -0.22480618953704834
-0.13178294897079468 -0.21054331958293915 -0.20930230617523193
-0.13178294897079468 -0.20293694734573364 -0.317829430103302
-0.13178294897079468 -0.18263201415538788 -0.30232560634613037
-0.13178294897079468 -0.1879419982433319 -0.19379842281341553
-0.13178294897079468 -0.16608141362667084 -0.28682172298431396
-0.13178294897079468 -0.15448012948036194 -0.27131783962249756
-0.13178294897079468 -0.1621255725622177 -0.1782945990562439
-0.13178294897079468 -0.1452023833990097 -0.25581395626068115
-0.13178294897079468 -0.13930699229240417 -0.24031007289886475
-0.13178294897079468 -0.13243968784809113 -0.22480618953704834
-0.13178294897079468 -0.14085541665554047 -0.1782945990562439
-0.13178294897079468 -0.12887534499168396 -0.20930230617523193
-0.13178294897079468 -0.12851667404174805 -0.19379842281341553
-0.13178294897079468 -0.11666087806224823 0.1317828893661499
-0.13178294897079468 -0.12002182006835938 0.1472867727279663
-0.13178294897079468 -0.12309227883815765 0.16279065608978271
-0.13178294897079468 -0.12597450613975525 0.17829453945159912
-0.13178294897079468 -0.12828388810157776 0.19379842281341553
-0.13178294897079468 -0.12940648198127747 0.20930230617523193
-0.13178294897079468 -0.1301339566707611 0.22480620443820953
-0.13178294897079468 -0.1306345909833908 0.24031008780002594
-0.13178294897079468 -0.13064685463905334 0.25581395626068115
-0.13178294897079468 -0.13055941462516785 0.27131783962249756
-0.13178294897079468 -0.12963755428791046 0.28682172298431396
-0.13178294897079468 -0.12904416024684906 0.30232560634613037
-0.13178294897079468 -0.12742507457733154 0.3178294897079468
-0.13178294897079468 -0.12554898858070374 0.3333333730697632
-0.13178294897079468 -0.12317165732383728 0.3488372564315796
-0.13178294897079468 -0.11797937750816345 0.364341139793396
-0.13178294897079468 -0.10555294156074524 -0.1782945990562439
-0.13178294897079468 -0.10597386956214905 -0.1627907156944275
-0.13178294897079468 -0.10253356397151947 -0.14728683233261108
-0.13178294897079468 -0.1031700149178505 0.08527135848999023
-0.13178294897079468 -0.10759258270263672 0.10077524185180664
-0.13178294897079468 -0.11254078894853592 0.11627912521362305
-0.13178294897079468 -0.11180329322814941 0.37984490394592285
-0.13178294897079468 -0.10628277063369751 0.39534878730773926
-0.13178294897079468 -0.08625350892543793 -0.22480618953704834
-0.13178294897079468 -0.09442979097366333 -0.20930230617523193
-0.13178294897079468 -0.10036114603281021 -0.19379843771457672
-0.13178294897079468 -0.09629549086093903 -0.13178294897079468
-0.13178294897079468 -0.0882636159658432 -0.11627906560897827
-0.13178294897079468 -0.08727631717920303 0.038759708404541016
-0.13178294897079468 -0.09338662028312683 0.05426359176635742
-0.13178294897079468 -0.0988447293639183 0.06976747512817383
-0.13178294897079468 -0.09592493623495102 0.41085267066955566
-0.13178294897079468 -0.07379412651062012 -0.24031007289886475
-0.13178294897079468 -0.0834583267569542 -0.10077517479658127
-0.13178294897079468 -0.07463514804840088 -0.08527129888534546
-0.13178294897079468 -0.07058897614479065 -0.06976741552352905
-0.13178294897079468 -0.07323725521564484 0.007751941680908203
-0.13178294897079468 -0.08117399364709854 0.02325582504272461
-0.13178294897079468 -0.08332503587007523 0.42635655403137207
-0.13178294897079468 -0.06582382321357727 -0.05426359176635742
-0.13178294897079468 -0.06355281919240952 -0.038759708404541016
-0.13178294897079468 -0.06434545665979385 -0.02325582504272461
-0.13178294897079468 -0.0681702196598053 -0.007751941215246916
-0.13178294897079468 -0.06736909598112106 0.4418604373931885
-0.13178294897079468 -0.05324533209204674 -0.25581395626068115
-0.13178294897079468 -0.04621154069900513 0.4573643207550049
-0.13178294897079468 -0.011916518211364746 0.4728682041168213
-0.13178294897079468 -0.0003221582155674696 -0.25581395626068115
-0.13178294897079468 0.022573957219719887 -0.06976741552352905
-0.13178294897079468 0.016052991151809692 -0.05426359176635742
-0.13178294897079468 0.016997188329696655 -0.038759708404541016
-0.13178294897079468 0.03207521513104439 -0.08527129888534546
-0.13178294897079468 0.028789646923542023 -0.02325582504272461
-0.13178294897079468 0.042313456535339355 -0.24031007289886475
-0.13178294897079468 0.04294784367084503 -0.10077518224716187
-0.13178294897079468 0.06621626019477844 -0.13178294897079468
-0.13178294897079468 0.05462396517395973 -0.11627906560897827
-0.13178294897079468 0.061299216002225876 -0.007751941680908203
-0.13178294897079468 0.06983155012130737 -0.22480618953704834
-0.13178294897079468 0.08021655678749084 -0.20930230617523193
-0.13178294897079468 0.08419753611087799 -0.19379842281341553
-0.13178294897079468 0.08390550315380096 -0.1782945990562439
-0.13178294897079468 0.08125774562358856 -0.1627907156944275
-0.13178294897079468 0.07584863901138306 -0.14728683233261108
-0.13178294897079468 0.0966050922870636 0.007751941680908203
-0.13178294897079468 0.11656219512224197 0.02325582504272461
-0.13178294897079468 0.1309356689453125 0.038759708404541016
-0.13178294897079468 0.11667348444461823 0.4728682041168213
-0.13178294897079468 0.14263471961021423 0.05426359176635742
-0.13178294897079468 0.1423763632774353 0.4573643207550049
-0.13178294897079468 0.15175434947013855 0.06976747512817383
-0.13178294897079468 0.1595529168844223 0.08527135848999023
-0.13178294897079468 0.1592368483543396 0.4418604373931885
-0.13178294897079468 0.1633508801460266 0.10077524185180664
-0.13178294897079468 0.166868656873703 0.11627912521362305
-0.13178294897079468 0.1696704626083374 0.1317828893661499
-0.13178294897079468 0.1719449758529663 0.1472867727279663
-0.13178294897079468 0.17344114184379578 0.16279065608978271
-0.13178294897079468 0.17576350271701813 0.17829453945159912
-0.13178294897079468 0.17167896032333374 0.42635655403137207
-0.13178294897079468 0.1787780076265335 0.19379842281341553
-0.13178294897079468 0.18200041353702545 0.20930230617523193
-0.13178294897079468 0.18475085496902466 0.22480618953704834
-0.13178294897079468 0.18753953278064728 0.24031007289886475
-0.13178294897079468 0.1901196390390396 0.25581395626068115
-0.13178294897079468 0.19190236926078796 0.27131783962249756
-0.13178294897079468 0.1930224895477295 0.28682172298431396
-0.13178294897079468 0.19318193197250366 0.3488372564315796
-0.13178294897079468 0.19120793044567108 0.364341139793396
-0.13178294897079468 0.18867777287960052 0.37984490394592285
-0.13178294897079468 0.18534967303276062 0.39534878730773926
-0.13178294897079468 0.1790689080953598 0.41085270047187805
-0.13178294897079468 0.1941312849521637 0.30232563614845276
-0.13178294897079468 0.19417335093021393 0.3178294897079468
-0.13178294897079468 0.19388511776924133 0.3333333730697632
-0.11627906560897827 -0.6225628852844238 -0.42635661363601685
-0.11627906560897827 -0.6264957189559937 -0.41085273027420044
-0.11627906560897827 -0.6215625405311584 -0.39534884691238403
-0.11627906560897827 -0.6127634048461914 -0.3798449635505676
-0.11627906560897827 -0.59972083568573 -0.4418604373931885
-0.11627906560897827 -0.5752473473548889 -0.3643410801887512
-0.11627906560897827 -0.5450668931007385 -0.44186046719551086
-0.11627906560897827 -0.5343629717826843 -0.3488371968269348
-0.11627906560897827 -0.5166023969650269 -0.3333333134651184
-0.11627906560897827 -0.4933006167411804 -0.317829430103302
-0.11627906560897827 -0.4349847137928009 -0.42635661363601685
-0.11627906560897827 -0.4199562668800354 -0.30232560634613037
-0.11627906560897827 -0.40526020526885986 -0.41085273027420044
-0.11627906560897827 -0.3836219310760498 -0.39534884691238403
-0.11627906560897827 -0.3833869695663452 -0.28682172298431396
-0.11627906560897827 -0.3564533591270447 -0.3798449635505676
-0.11627906560897827 -0.31586354970932007 -0.3643410801887512
-0.11627906560897827 -0.2656901478767395 -0.3488371968269348
-0.11627906560897827 -0.24190494418144226 -0.3333333134651184
-0.11627906560897827 -0.24760127067565918 -0.27131783962249756
-0.11627906560897827 -0.23839028179645538 -0.25581395626068115
-0.11627906560897827 -0.23044806718826294 -0.24031007289886475
-0.11627906560897827 -0.22505317628383636 -0.22480618953704834
-0.11627907305955887 -0.22349552810192108 -0.317829430103302
-0.11627906560897827 -0.21126589179039001 -0.20930230617523193
-0.11627907305955887 -0.19279207289218903 -0.30232560634613037
-0.11627906560897827 -0.18790563941001892 -0.19379842281341553
-0.11627906560897827 -0.17493632435798645 -0.28682172298431396
-0.11627906560897827 -0.16041092574596405 -0.27131783962249756
-0.11627906560897827 -0.15191133320331573 -0.25581395626068115
-0.11627906560897827 -0.15168467164039612 -0.19379842281341553
-0.11627907305955887 -0.1468399614095688 -0.24031007289886475
-0.11627907305955887 -0.1453344076871872 -0.22480620443820953
-0.11627906560897827 -0.1455380767583847 -0.20930230617523193
-0.11627906560897827 -0.13274909555912018 0.17829453945159912
-0.11627906560897827 -0.13499689102172852 0.19379842281341553
-0.11627906560897827 -0.13650882244110107 0.20930230617523193
-0.11627906560897827 -0.13746221363544464 0.22480618953704834
-0.11627906560897827 -0.1381262093782425 0.24031007289886475
-0.11627906560897827 -0.13836120069026947 0.25581395626068115
-0.11627906560897827 -0.1384018361568451 0.27131783962249756
-0.11627906560897827 -0.13771848380565643 0.28682172298431396
-0.11627906560897827 -0.1371496319770813 0.30232560634613037
-0.11627906560897827 -0.13552747666835785 0.3178294897079468
-0.11627906560897827 -0.13357089459896088 0.3333333730697632
-0.11627906560897827 -0.11889816075563431 0.11627912521362305
-0.11627906560897827 -0.1233515664935112 0.1317828893661499
-0.11627905815839767 -0.1274491846561432 0.1472867727279663
-0.11627906560897827 -0.13049748539924622 0.16279065608978271
-0.11627906560897827 -0.13085122406482697 0.3488372564315796
-0.11627906560897827 -0.12635444104671478 0.364341139793396
-0.11627906560897827 -0.12197306007146835 0.37984490394592285
-0.11627906560897827 -0.10239242762327194 -0.1627907156944275
-0.11627906560897827 -0.10215264558792114 -0.14728683233261108
-0.11627906560897827 -0.10111017525196075 0.05426359176635742
-0.11627906560897827 -0.10523907840251923 0.06976747512817383
-0.11627906560897827 -0.11107583343982697 0.08527135848999023
-0.11627907305955887 -0.11551332473754883 0.10077524930238724
-0.11627906560897827 -0.11376339197158813 0.39534878730773926
-0.11627906560897827 -0.10708476603031158 0.41085267066955566
-0.11627906560897827 -0.09009188413619995 -0.20930230617523193
-0.11627905815839767 -0.09515377134084702 -0.19379842281341553
-0.11627906560897827 -0.09961633384227753 -0.1782945990562439
-0.11627905815839767 -0.09928008168935776 -0.13178294897079468
-0.11627906560897827 -0.09186209738254547 -0.11627906560897827
-0.11627906560897827 -0.0871950089931488 -0.10077518224716187
-0.11627906560897827 -0.08758954703807831 0.02325582504272461
-0.11627906560897827 -0.09520462155342102 0.038759708404541016
-0.11627906560897827 -0.09509117901325226 0.42635655403137207
-0.11627906560897827 -0.07153582572937012 -0.24031007289886475
-0.11627906560897827 -0.08395436406135559 -0.22480618953704834
-0.11627906560897827 -0.08156280219554901 -0.08527129888534546
-0.11627906560897827 -0.07464437931776047 -0.06976741552352905
-0.11627906560897827 -0.07134012877941132 -0.05426359176635742
-0.11627906560897827 -0.07037841528654099 -0.038759708404541016
-0.11627906560897827 -0.07054510712623596 -0.02325582504272461
-0.11627906560897827 -0.07338890433311462 -0.007751941680908203
-0.11627906560897827 -0.08005400002002716 0.007751941680908203
-0.11627906560897827 -0.08006644248962402 0.4418604373931885
-0.11627906560897827 -0.061802938580513 0.4573643207550049
-0.11627906560897827 -0.0444369912147522 -0.25581395626068115
-0.11627906560897827 -0.033141493797302246 0.4728682041168213
-0.11627906560897827 -0.009230215102434158 -0.25581395626068115
-0.11627906560897827 0.0113021619617939 0.4883720874786377
-0.11627906560897827 0.03833988681435585 -0.06976741552352905
-0.11627906560897827 0.032073892652988434 -0.05426359176635742
-0.11627906560897827 0.0371294766664505 -0.038759708404541016
-0.11627906560897827 0.03993839770555496 -0.24031007289886475
-0.11627906560897827 0.046838752925395966 -0.08527129888534546
-0.11627906560897827 0.06785820424556732 -0.22480618953704834
-0.11627906560897827 0.06716539710760117 -0.11627906560897827
-0.11627905815839767 0.05708794295787811 -0.10077518224716187
-0.11627906560897827 0.055209942162036896 -0.02325582504272461
-0.11627906560897827 0.07912155240774155 -0.20930230617523193
-0.11627906560897827 0.08454681932926178 -0.19379842281341553
-0.11627906560897827 0.08475209027528763 -0.14728683233261108
-0.11627906560897827 0.07767797261476517 -0.13178294897079468
-0.11627905815839767 0.08617636561393738 -0.1782945990562439
-0.11627906560897827 0.08673396706581116 -0.1627907156944275
-0.11627906560897827 0.09280934184789658 -0.007751941680908203
-0.11627906560897827 0.09918373823165894 0.4883720874786377
-0.11627906560897827 0.11533145606517792 0.007751941680908203
-0.11627906560897827 0.12982474267482758 0.02325582504272461
-0.11627906560897827 0.14189700782299042 0.038759708404541016
-0.11627906560897827 0.13604694604873657 0.4728682041168213
-0.11627907305955887 0.1515677124261856 0.05426359549164772
-0.11627906560897827 0.1609923094511032 0.06976747512817383
-0.11627906560897827 0.1568378210067749 0.4573643207550049
-0.11627906560897827 0.16765965521335602 0.08527135848999023
-0.11627906560897827 0.1723945140838623 0.10077524185180664
-0.11627906560897827 0.17603595554828644 0.11627912521362305
-0.11627906560897827 0.17204223573207855 0.4418604373931885
-0.11627906560897827 0.17864617705345154 0.1317828893661499
-0.11627906560897827 0.1806727945804596 0.1472867727279663
-0.11627906560897827 0.1823214292526245 0.16279065608978271
-0.11627906560897827 0.1846497654914856 0.17829453945159912
-0.11627906560897827 0.1874047815799713 0.19379842281341553
-0.11627906560897827 0.19010747969150543 0.20930230617523193
-0.11627906560897827 0.19257164001464844 0.22480618953704834
-0.11627906560897827 0.18968576192855835 0.41085267066955566
-0.11627906560897827 0.182653546333313 0.42635658383369446
-0.11627906560897827 0.19549734890460968 0.24031007289886475
-0.11627906560897827 0.19853876531124115 0.25581395626068115
-0.11627906560897827 0.20062807202339172 0.27131783962249756
-0.11627906560897827 0.20197433233261108 0.28682172298431396
-0.11627906560897827 0.203261137008667 0.30232560634613037
-0.11627906560897827 0.2035702019929886 0.3178294897079468
-0.11627906560897827 0.20338615775108337 0.3333333730697632
-0.11627906560897827 0.20287461578845978 0.3488372564315796
-0.11627906560897827 0.20152130722999573 0.364341139793396
-0.11627906560897827 0.1991068422794342 0.37984490394592285
-0.11627906560897827 0.19504787027835846 0.39534878730773926
-0.10077518224716187 -0.5179231762886047 -0.39534884691238403
-0.10077518224716187 -0.5174652934074402 -0.3798449635505676
-0.10077518224716187 -0.5120245218276978 -0.3643410801887512
-0.10077518224716187 -0.504688560962677 -0.3488371968269348
-0.10077518224716187 -0.4986703097820282 -0.41085273027420044
-0.10077518224716187 -0.489627480506897 -0.3333333134651184
-0.10077518224716187 -0.4538397192955017 -0.41085273027420044
-0.10077518224716187 -0.4387340545654297 -0.317829430103302
-0.10077518224716187 -0.41419076919555664 -0.39534884691238403
-0.10077518224716187 -0.3990786373615265 -0.30232560634613037
-0.10077518224716187 -0.38260671496391296 -0.3798449635505676
-0.10077518224716187 -0.38139528036117554 -0.28682172298431396
-0.10077518224716187 -0.3507794141769409 -0.27131783962249756
-0.10077518224716187 -0.3240899443626404 -0.3643410801887512
-0.10077518224716187 -0.32943880558013916 -0.27131783962249756
-0.10077518224716187 -0.28310728073120117 -0.3488371968269348
-0.10077518224716187 -0.25784122943878174 -0.3333333134651184
-0.10077518224716187 -0.24468092620372772 -0.317829430103302
-0.10077518224716187 -0.24173179268836975 -0.27131783962249756
-0.10077518224716187 -0.23322299122810364 -0.30232560634613037
-0.10077518224716187 -0.23338672518730164 -0.25581395626068115
-0.10077518224716187 -0.227400541305542 -0.24031007289886475
-0.10077518224716187 -0.2192499041557312 -0.22480618953704834
-0.10077518224716187 -0.20862752199172974 -0.20930230617523193
-0.10077518224716187 -0.18687856197357178 -0.28682172298431396
-0.10077518224716187 -0.1798119992017746 -0.19379842281341553
-0.10077518224716187 -0.16930311918258667 -0.27131783962249756
-0.10077518224716187 -0.17373201251029968 -0.19379842281341553
-0.10077518224716187 -0.15991759300231934 -0.25581395626068115
-0.10077518224716187 -0.15683336555957794 -0.24031007289886475
-0.10077518224716187 -0.15565168857574463 -0.22480618953704834
-0.10077518969774246 -0.15811239182949066 -0.20930230617523193
-0.10077518224716187 -0.1333310604095459 0.1472867727279663
-0.10077518224716187 -0.13640418648719788 0.16279065608978271
-0.10077518224716187 -0.1389138400554657 0.17829453945159912
-0.10077518224716187 -0.14136186242103577 0.19379842281341553
-0.10077518224716187 -0.14282383024692535 0.20930230617523193
-0.10077518224716187 -0.14371490478515625 0.22480618953704834
-0.10077518224716187 -0.14437271654605865 0.24031007289886475
-0.10077518969774246 -0.1446179747581482 0.25581395626068115
-0.10077518224716187 -0.14458134770393372 0.27131783962249756
-0.10077518224716187 -0.1439255028963089 0.28682172298431396
-0.10077518224716187 -0.14341594278812408 0.30232560634613037
-0.10077518224716187 -0.14210467040538788 0.3178294897079468
-0.10077518224716187 -0.14052943885326385 0.3333333730697632
-0.10077518224716187 -0.13857948780059814 0.3488372564315796
-0.10077518224716187 -0.1343264877796173 0.364341139793396
-0.10077518224716187 -0.1173783466219902 0.08527135848999023
-0.10077518224716187 -0.12135304510593414 0.10077524185180664
-0.10077518224716187 -0.12594351172447205 0.11627912521362305
-0.10077518224716187 -0.1302829384803772 0.1317828893661499
-0.10077518224716187 -0.1286972612142563 0.37984490394592285
-0.10077518224716187 -0.1233917772769928 0.39534878730773926
-0.10077518224716187 -0.10088194161653519 -0.14728683233261108
-0.10077518224716187 -0.10180668532848358 0.038759708404541016
-0.10077518224716187 -0.10722946375608444 0.05426359176635742
-0.10077518224716187 -0.11313517391681671 0.06976747512817383
-0.10077517479658127 -0.11337612569332123 0.4108526408672333
-0.10077518224716187 -0.10431887209415436 0.42635655403137207
-0.10077518224716187 -0.08711444586515427 -0.20930230617523193
-0.10077518224716187 -0.0912732183933258 -0.19379842281341553
-0.10077518224716187 -0.09531476348638535 -0.1782945990562439
-0.10077518224716187 -0.09952346980571747 -0.1627907156944275
-0.10077518224716187 -0.09879281371831894 -0.13178294897079468
-0.10077518224716187 -0.093289814889431 -0.11627906560897827
-0.10077518224716187 -0.08873400837182999 -0.10077518224716187
-0.10077518224716187 -0.08551489561796188 -0.08527129888534546
-0.10077518224716187 -0.08555759489536285 0.007751941680908203
-0.10077518224716187 -0.09446217864751816 0.02325582504272461
-0.10077518224716187 -0.09154924750328064 0.4418604373931885
-0.10077517479658127 -0.07994946837425232 -0.22480618953704834
-0.10077518224716187 -0.07843964546918869 -0.06976741552352905
-0.10077518224716187 -0.0738987922668457 -0.05426359176635742
-0.10077518224716187 -0.07273561507463455 -0.038759708404541016
-0.10077518224716187 -0.07355014979839325 -0.02325582504272461
-0.10077518224716187 -0.07782278954982758 -0.007751941680908203
-0.10077518224716187 -0.0737086683511734 0.4573643207550049
-0.10077518224716187 -0.06763556599617004 -0.24031007289886475
-0.10077518224716187 -0.04840207099914551 0.4728682041168213
-0.10077518224716187 -0.011769646778702736 0.4883720874786377
-0.10077518224716187 0.039060015231370926 -0.24031007289886475
-0.10077518224716187 0.04981479048728943 -0.05426359176635742
-0.10077518224716187 0.06876024603843689 -0.22480618953704834
-0.10077518224716187 0.0623166561126709 -0.08527129888534546
-0.10077518224716187 0.0544845275580883 -0.06976740807294846
-0.10077518224716187 0.0568707138299942 -0.038759708404541016
-0.10077518224716187 0.08040156960487366 -0.20930230617523193
-0.10077518224716187 0.0826159119606018 -0.11627906560897827
-0.10077518224716187 0.07219654321670532 -0.10077518224716187
-0.10077518224716187 0.08719731122255325 -0.19379843771457672
-0.10077518224716187 0.09177452325820923 -0.1782945990562439
-0.10077518224716187 0.09689132869243622 -0.1627907156944275
-0.10077518224716187 0.09996169060468674 -0.14728683233261108
-0.10077518224716187 0.09443989396095276 -0.13178294897079468
-0.10077518224716187 0.08647537976503372 -0.02325582504272461
-0.10077518224716187 0.11138680577278137 -0.007751941680908203
-0.10077518224716187 0.12715226411819458 0.007751941680908203
-0.10077518224716187 0.11922260373830795 0.4883720874786377
-0.10077518224716187 0.13896697759628296 0.02325582504272461
-0.10077518224716187 0.1499207317829132 0.038759708404541016
-0.10077518224716187 0.15947087109088898 0.05426359176635742
-0.10077518224716187 0.14954233169555664 0.4728682041168213
-0.10077518224716187 0.16775035858154297 0.06976747512817383
-0.10077518224716187 0.17460103332996368 0.08527135848999023
-0.10077518224716187 0.1683373749256134 0.4573643207550049
-0.10077518224716187 0.17920848727226257 0.10077524185180664
-0.10077518224716187 0.18329638242721558 0.11627912521362305
-0.10077518224716187 0.18608486652374268 0.1317828893661499
-0.10077518224716187 0.18836352229118347 0.1472867727279663
-0.10077518224716187 0.1896965652704239 0.16279065608978271
-0.10077518224716187 0.19164247810840607 0.17829453945159912
-0.10077518224716187 0.19065645337104797 0.42635655403137207
-0.10077518224716187 0.18156452476978302 0.4418604373931885
-0.10077518224716187 0.19449220597743988 0.19379842281341553
-0.10077518224716187 0.19744783639907837 0.20930230617523193
-0.10077518224716187 0.19995561242103577 0.22480618953704834
-0.10077518224716187 0.20256516337394714 0.24031007289886475
-0.10077518224716187 0.2050572633743286 0.25581395626068115
-0.10077518224716187 0.207025945186615 0.27131783962249756
-0.10077518224716187 0.20865051448345184 0.28682172298431396
-0.10077518224716187 0.20720882713794708 0.37984490394592285
-0.10077518224716187 0.2037975937128067 0.39534878730773926
-0.10077518224716187 0.19904574751853943 0.41085267066955566
-0.10077518224716187 0.21009384095668793 0.30232560634613037
-0.10077518224716187 0.21064512431621552 0.3178294897079468
-0.10077518224716187 0.21074827015399933 0.3333333730697632
-0.10077518224716187 0.21051234006881714 0.3488372564315796
-0.10077518224716187 0.2093699872493744 0.364341139793396
-0.08527129888534546 -0.4294796586036682 -0.3488371968269348
-0.08527129888534546 -0.4191513657569885 -0.3643410801887512
-0.08527129888534546 -0.41246920824050903 -0.3333333134651184
-0.08527129888534546 -0.4012565016746521 -0.317829430103302
-0.08527129888534546 -0.38879650831222534 -0.30232560634613037
-0.08527129888534546 -0.37373918294906616 -0.28682172298431396
-0.08527129888534546 -0.34945687651634216 -0.27131783962249756
-0.08527129888534546 -0.3443377912044525 -0.3643410801887512
-0.08527129888534546 -0.2906150221824646 -0.3488371968269348
-0.08527129888534546 -0.26416414976119995 -0.3333333134651184
-0.08527129888534546 -0.2488797903060913 -0.317829430103302
-0.08527129888534546 -0.23835188150405884 -0.30232560634613037
-0.08527129888534546 -0.22829970717430115 -0.28682172298431396
-0.08527129888534546 -0.2388187050819397 -0.25581395626068115
-0.08527129143476486 -0.22447507083415985 -0.24031007289886475
-0.08527129888534546 -0.21407397091388702 -0.22480618953704834
-0.08527129888534546 -0.19872954487800598 -0.20930230617523193
-0.08527129888534546 -0.1797892153263092 -0.27131783962249756
-0.08527129888534546 -0.16981178522109985 -0.25581395626068115
-0.08527129888534546 -0.16406291723251343 -0.24031007289886475
-0.08527129888534546 -0.16325731575489044 -0.22480618953704834
-0.08527129888534546 -0.17022661864757538 -0.20930230617523193
-0.08527129888534546 -0.1476467400789261 0.19379842281341553
-0.08527129888534546 -0.1488783359527588 0.20930230617523193
-0.08527129888534546 -0.14990553259849548 0.22480618953704834
-0.08527129888534546 -0.1508040875196457 0.24031007289886475
-0.08527129888534546 -0.15128949284553528 0.25581395626068115
-0.08527129888534546 -0.1513877958059311 0.27131783962249756
-0.08527129888534546 -0.15078803896903992 0.28682172298431396
-0.08527129888534546 -0.15029992163181305 0.30232560634613037
-0.08527129888534546 -0.14908283948898315 0.3178294897079468
-0.08527129888534546 -0.1476622223854065 0.3333333730697632
-0.08527129888534546 -0.13221600651741028 0.11627912521362305
-0.08527129888534546 -0.13578975200653076 0.1317828893661499
-0.08527129888534546 -0.13925966620445251 0.1472867727279663
-0.08527129888534546 -0.1424800455570221 0.16279065608978271
-0.08527129888534546 -0.14512968063354492 0.17829453945159912
-0.08527129143476486 -0.14478135108947754 0.3488372564315796
-0.08527129888534546 -0.14114272594451904 0.364341139793396
-0.08527129888534546 -0.13695648312568665 0.37984490394592285
-0.08527129888534546 -0.11902066320180893 0.06976747512817383
-0.08527129888534546 -0.12407441437244415 0.08527135848999023
-0.08527129888534546 -0.12868571281433105 0.10077524185180664
-0.08527129888534546 -0.1295945942401886 0.39534878730773926
-0.08527129888534546 -0.12279556691646576 0.41085267066955566
-0.08527129888534546 -0.10166776180267334 0.02325582504272461
-0.08527129888534546 -0.10868047177791595 0.038759708404541016
-0.08527129888534546 -0.11526916176080704 0.05426359176635742
-0.08527129888534546 -0.11122472584247589 0.42635655403137207
-0.08527129888534546 -0.08776197582483292 -0.19379842281341553
-0.08527129888534546 -0.09116030484437943 -0.1782945990562439
-0.08527129888534546 -0.09475670754909515 -0.1627907156944275
-0.08527129888534546 -0.09675022214651108 -0.14728683233261108
-0.08527129888534546 -0.09600745141506195 -0.13178294897079468
-0.08527129888534546 -0.09257589280605316 -0.11627906560897827
-0.08527129888534546 -0.08914265781641006 -0.10077518224716187
-0.08527129888534546 -0.0861530676484108 -0.08527129888534546
-0.08527129888534546 -0.09171585738658905 0.007751941680908203
-0.08527129888534546 -0.09744340181350708 0.44186046719551086
-0.08527129888534546 -0.0748048797249794 -0.22480618953704834
-0.08527129888534546 -0.08417586982250214 -0.20930232107639313
-0.08527129888534546 -0.08074473589658737 -0.06976741552352905
-0.08527129888534546 -0.07656483352184296 -0.05426359176635742
-0.08527129888534546 -0.07570883631706238 -0.038759708404541016
-0.08527129888534546 -0.07726603746414185 -0.02325582504272461
-0.08527129888534546 -0.08299966156482697 -0.00775194214656949
-0.08527129888534546 -0.08120898902416229 0.4573643207550049
-0.08527129888534546 -0.06028688699007034 -0.24031007289886475
-0.08527129888534546 -0.06108000501990318 0.4728682041168213
-0.08527129888534546 -0.027658209204673767 0.4883720874786377
-0.08527129888534546 0.03856543079018593 -0.24031007289886475
-0.08527129888534546 0.06960082799196243 -0.05426359176635742
-0.08527129888534546 0.07004524022340775 -0.22480617463588715
-0.08527129888534546 0.08465776592493057 -0.20930230617523193
-0.08527129888534546 0.08271616697311401 -0.08527129888534546
-0.08527129888534546 0.07265578955411911 -0.06976741552352905
-0.08527129888534546 0.08334392309188843 -0.038759708404541016
-0.08527129888534546 0.09430085122585297 -0.19379842281341553
-0.08527129888534546 0.09771186113357544 -0.10077518224716187
-0.08527129888534546 0.10905590653419495 -0.1782945990562439
-0.08527129888534546 0.10659793019294739 -0.02325582504272461
-0.08527129888534546 0.129655122756958 -0.1627907156944275
-0.08527129888534546 0.11980491876602173 -0.11627906560897827
-0.08527129888534546 0.12286645174026489 -0.007751941680908203
-0.08527129888534546 0.1353600025177002 -0.14728683233261108
-0.08527129888534546 0.13329093158245087 -0.13178294897079468
-0.08527129888534546 0.1356945037841797 0.007751941680908203
-0.08527130633592606 0.13340650498867035 0.4883721172809601
-0.08527129888534546 0.14741623401641846 0.02325582504272461
-0.08527129888534546 0.15707659721374512 0.038759708404541016
-0.08527129888534546 0.15907979011535645 0.4728682041168213
-0.08527129888534546 0.16573472321033478 0.05426359176635742
-0.08527129888534546 0.17393821477890015 0.06976747512817383
-0.08527129888534546 0.17553524672985077 0.4573643207550049
-0.08527129888534546 0.18044975399971008 0.08527135848999023
-0.08527129888534546 0.18537436425685883 0.10077524185180664
-0.08527129888534546 0.18938706815242767 0.11627912521362305
-0.08527129888534546 0.19233331084251404 0.1317828893661499
-0.08527129888534546 0.18882213532924652 0.4418604373931885
-0.08527129888534546 0.19491000473499298 0.1472867727279663
-0.08527129888534546 0.1966530978679657 0.1627906709909439
-0.08527129888534546 0.19891594350337982 0.17829453945159912
-0.08527129888534546 0.2012273073196411 0.19379842281341553
-0.08527129888534546 0.20359298586845398 0.20930230617523193
-0.08527129888534546 0.2056027501821518 0.22480618953704834
-0.08527129888534546 0.2080356627702713 0.24031007289886475
-0.08527129888534546 0.2057337462902069 0.41085267066955566
-0.08527129888534546 0.19934362173080444 0.42635655403137207
-0.08527129888534546 0.2109156847000122 0.25581395626068115
-0.08527129888534546 0.21346275508403778 0.27131783962249756
-0.08527129888534546 0.21512967348098755 0.28682172298431396
-0.08527129888534546 0.21644620597362518 0.30232560634613037
-0.08527129888534546 0.21717166900634766 0.3178294897079468
-0.08527129888534546 0.217487171292305 0.3333333730697632
-0.08527129888534546 0.2174946665763855 0.3488372564315796
-0.08527129888534546 0.2166283130645752 0.364341139793396
-0.08527129888534546 0.21472591161727905 0.37984490394592285
-0.08527129143476486 0.21112404763698578 0.39534878730773926
-0.06976741552352905 -0.38173601031303406 -0.3488371968269348
-0.06976741552352905 -0.387851357460022 -0.3333333134651184
-0.06976741552352905 -0.38495391607284546 -0.317829430103302
-0.06976741552352905 -0.3764938414096832 -0.30232560634613037
-0.06976740807294846 -0.36319467425346375 -0.2868216931819916
-0.06976741552352905 -0.3394436538219452 -0.27131783962249756
-0.06976741552352905 -0.30502527952194214 -0.3488371968269348
-0.06976741552352905 -0.29687318205833435 -0.25581395626068115
-0.06976741552352905 -0.27395644783973694 -0.24031007289886475
-0.06976741552352905 -0.26760488748550415 -0.3333333134651184
-0.06976741552352905 -0.24646532535552979 -0.317829430103302
-0.06976741552352905 -0.25263702869415283 -0.22480618953704834
-0.06976741552352905 -0.23420120775699615 -0.30232560634613037
-0.06976741552352905 -0.22182029485702515 -0.28682172298431396
-0.06976741552352905 -0.19720670580863953 -0.27131783962249756
-0.06976741552352905 -0.201726496219635 -0.20930230617523193
-0.06976741552352905 -0.1817898452281952 -0.25581395626068115
-0.06976741552352905 -0.18106141686439514 -0.20930230617523193
-0.06976741552352905 -0.17665977776050568 -0.24031007289886475
-0.06976741552352905 -0.17604829370975494 -0.22480618953704834
-0.06976741552352905 -0.14777299761772156 0.16279065608978271
-0.06976741552352905 -0.1500798463821411 0.17829453945159912
-0.06976741552352905 -0.1525139957666397 0.19379842281341553
-0.06976741552352905 -0.1539595127105713 0.20930230617523193
-0.06976741552352905 -0.1550561785697937 0.22480618953704834
-0.06976741552352905 -0.1560530960559845 0.24031007289886475
-0.06976741552352905 -0.15669333934783936 0.25581395626068115
-0.06976741552352905 -0.15687745809555054 0.27131783962249756
-0.06976741552352905 -0.15648581087589264 0.28682172298431396
-0.06976741552352905 -0.15606477856636047 0.30232560634613037
-0.06976741552352905 -0.15502019226551056 0.3178294897079468
-0.06976741552352905 -0.1537812352180481 0.3333333730697632
-0.06976741552352905 -0.15141430497169495 0.3488372564315796
-0.06976741552352905 -0.14773844182491302 0.364341139793396
-0.06976741552352905 -0.13390587270259857 0.10077524185180664
-0.06976741552352905 -0.13730883598327637 0.11627912521362305
-0.06976741552352905 -0.14130833745002747 0.1317828893661499
-0.06976741552352905 -0.14468178153038025 0.1472867727279663
-0.06976741552352905 -0.14230649173259735 0.37984490394592285
-0.06976741552352905 -0.13712570071220398 0.39534878730773926
-0.06976741552352905 -0.11668369919061661 0.038759708404541016
-0.06976741552352905 -0.12104871869087219 0.05426359176635742
-0.06976741552352905 -0.12632152438163757 0.06976747512817383
-0.06976741552352905 -0.13106539845466614 0.08527135848999023
-0.06976741552352905 -0.12768632173538208 0.41085267066955566
-0.06976741552352905 -0.11796615272760391 0.42635655403137207
-0.06976741552352905 -0.10124792158603668 0.007751941680908203
-0.06976741552352905 -0.1094883605837822 0.02325582504272461
-0.06976741552352905 -0.10629032552242279 0.4418604373931885
-0.06976741552352905 -0.08600873500108719 -0.19379842281341553
-0.06976741552352905 -0.08859338611364365 -0.1782945990562439
