-0.6589146852493286 0.00817787740379572 -0.5038759708404541
-0.6589146852493286 0.019015513360500336 -0.4883720874786377
-0.6589146852493286 0.01997181959450245 -0.4728682041168213
-0.6589146852493286 0.013155000284314156 -0.4573643207550049
-0.6589146852493286 0.378498375415802 -0.5348837375640869
-0.6589146852493286 0.3778148889541626 -0.5193798542022705
-0.6589146852493286 0.3919503390789032 -0.5503876209259033
-0.6589146852493286 0.38766032457351685 -0.5038759708404541
-0.6589146852493286 0.436729371547699 -0.5503876209259033
-0.6589146852493286 0.4401342272758484 -0.5193798542022705
-0.6589146852493286 0.4299931526184082 -0.5038759708404541
-0.6589146852493286 0.4427633583545685 -0.5348837375640869
-0.643410861492157 -0.17960795760154724 -0.39534884691238403
-0.643410861492157 -0.17083927989006042 -0.41085273027420044
-0.6434108018875122 -0.15861248970031738 -0.42635661363601685
-0.6434108018875122 -0.1401621699333191 -0.4418604373931885
-0.643410861492157 -0.11654182523488998 -0.4728682041168213
-0.643410861492157 -0.12603291869163513 -0.4573643207550049
-0.643410861492157 -0.1028510108590126 -0.4883720874786377
-0.6434108018875122 -0.08280058950185776 -0.5038759708404541
-0.643410861492157 -0.05401838570833206 -0.39534884691238403
-0.6434108018875122 -0.022807296365499496 -0.41085273027420044
-0.6434108018875122 -0.001983976224437356 -0.5038759708404541
-0.643410861492157 -0.004824494943022728 -0.42635661363601685
-0.643410861492157 0.01819932833313942 -0.4883720874786377
-0.643410861492157 0.01754889078438282 -0.4573643207550049
-0.643410861492157 0.009601014666259289 -0.4418604373931885
-0.643410861492157 0.023645155131816864 -0.4728682041168213
-0.643410861492157 0.37982407212257385 -0.5193798542022705
-0.643410861492157 0.3879301846027374 -0.5348837375640869
-0.643410861492157 0.3904782831668854 -0.5038759708404541
-0.643410861492157 0.4225155711174011 -0.5038759708404541
-0.6434109210968018 0.43280094861984253 -0.5348837375640869
-0.643410861492157 0.4318179488182068 -0.5193798542022705
-0.6279069781303406 -0.18016211688518524 -0.41085273027420044
-0.6279069781303406 -0.18899434804916382 -0.39534884691238403
-0.6279069185256958 -0.19209164381027222 -0.3798449635505676
-0.6279069781303406 -0.17851939797401428 -0.3643410801887512
-0.6279069781303406 -0.1671299785375595 -0.42635661363601685
-0.6279069781303406 -0.14957195520401 -0.4418604373931885
-0.6279069185256958 -0.16087985038757324 -0.3643410801887512
-0.6279069781303406 -0.1285710483789444 -0.4573643207550049
-0.6279069781303406 -0.1303652971982956 -0.3798449635505676
-0.6279069781303406 -0.11449769139289856 -0.4728682041168213
-0.6279069781303406 -0.09841088950634003 -0.4883720874786377
-0.6279069781303406 -0.07101885974407196 -0.5038759708404541
-0.6279069781303406 -0.04265131801366806 -0.39534884691238403
-0.6279069781303406 -0.018821774050593376 -0.5038759708404541
-0.6279069781303406 -0.020016109570860863 -0.4108527600765228
-0.6279069781303406 -0.0012695612385869026 -0.42635661363601685
-0.6279069781303406 0.016430478543043137 -0.4883720874786377
-0.6279069781303406 0.014191287569701672 -0.4418604373931885
-0.6279069781303406 0.02469119243323803 -0.4728682041168213
-0.6279069781303406 0.024028345942497253 -0.4573643207550049
-0.6279069781303406 0.38642561435699463 -0.5193798542022705
-0.6279069781303406 0.3937268853187561 -0.5038759708404541
-0.6279069781303406 0.40123558044433594 -0.5348837375640869
-0.6279069781303406 0.4212754964828491 -0.5348837375640869
-0.6279069781303406 0.41277095675468445 -0.5038759708404541
-0.6279069781303406 0.42645010352134705 -0.5193798542022705
-0.6124030947685242 -0.19530513882637024 -0.39534884691238403
-0.6124030947685242 -0.19677671790122986 -0.3798449635505676
-0.6124030947685242 -0.1938927173614502 -0.3643410801887512
-0.6124030947685242 -0.18566860258579254 -0.41085273027420044
-0.6124030947685242 -0.17414933443069458 -0.42635661363601685
-0.6124030947685242 -0.1574220061302185 -0.4418604373931885
-0.6124030947685242 -0.13326415419578552 -0.4573643207550049
-0.6124030947685242 -0.13695165514945984 -0.3643410801887512
-0.6124030947685242 -0.11282318830490112 -0.4728682041168213
-0.6124030947685242 -0.10260292887687683 -0.3798449635505676
-0.6124030947685242 -0.09340149164199829 -0.4883720874786377
-0.6124030947685242 -0.03852172568440437 -0.39534884691238403
-0.6124030947685242 -0.019045580178499222 -0.41085273027420044
-0.6124030947685242 0.004647028632462025 -0.42635661363601685
-0.6124030947685242 0.013348402455449104 -0.4883720874786377
-0.612403154373169 0.027095429599285126 -0.4728682339191437
-0.6124030947685242 0.029752276837825775 -0.4573642909526825
-0.6124030947685242 0.02537926845252514 -0.4418604373931885
-0.6124030947685242 0.40796947479248047 -0.5193798542022705
-0.6124030351638794 0.41114872694015503 -0.5193798542022705
-0.6124030947685242 0.6902483701705933 -0.5193798542022705
-0.6124030947685242 0.7037392258644104 -0.5038759708404541
-0.6124030947685242 0.7172932624816895 -0.5193798542022705
-0.6124030947685242 0.709895670413971 -0.5038759708404541
-0.5968992114067078 -0.19796469807624817 -0.39534884691238403
-0.5968992114067078 -0.20013561844825745 -0.3798449635505676
-0.5968992114067078 -0.1968240737915039 -0.3643410801887512
-0.5968992114067078 -0.17951427400112152 -0.42635661363601685
-0.5968992114067078 -0.191263347864151 -0.41085273027420044
-0.5968992114067078 -0.1823621392250061 -0.3488371968269348
-0.5968992114067078 -0.1647416055202484 -0.4418604373931885
-0.5968992114067078 -0.13906383514404297 -0.4573643207550049
-0.5968992114067078 -0.1470814198255539 -0.3488371968269348
-0.5968992114067078 -0.12373781949281693 -0.3643410801887512
-0.5968992114067078 -0.1112314835190773 -0.4728682041168213
-0.5968992710113525 -0.08741393685340881 -0.4883720874786377
-0.5968992114067078 -0.07348638772964478 -0.3798449635505676
-0.5968992114067078 -0.03866017982363701 -0.39534884691238403
-0.5968992114067078 -0.01909131184220314 -0.41085273027420044
-0.5968992114067078 0.008793273009359837 -0.4883720874786377
-0.5968992114067078 0.019575897604227066 -0.42635661363601685
-0.5968992114067078 0.03836073353886604 -0.4728682041168213
-0.5968992114067078 0.04187891632318497 -0.4573643207550049
-0.5968992710113525 0.04108314961194992 -0.4418604373931885
-0.5968992114067078 0.6667547225952148 -0.5348837375640869
-0.5968992114067078 0.6627967357635498 -0.5193798542022705
-0.5968992114067078 0.6697249412536621 -0.5038759708404541
-0.5968992114067078 0.6840128898620605 -0.4883720874786377
-0.5968992114067078 0.7282218933105469 -0.5348837375640869
-0.5968992114067078 0.7377972602844238 -0.5193798542022705
-0.5968992114067078 0.7389077544212341 -0.5038759708404541
-0.5968992114067078 0.7368325591087341 -0.4883720576763153
-0.5813953876495361 -0.19454334676265717 -0.41085273027420044
-0.5813953876495361 -0.19966211915016174 -0.39534884691238403
-0.5813953876495361 -0.20299580693244934 -0.3798449635505676
-0.5813953876495361 -0.19909605383872986 -0.3643410801887512
-0.5813953876495361 -0.183196023106575 -0.42635661363601685
-0.5813953876495361 -0.1899055689573288 -0.3488371968269348
-0.5813953876495361 -0.1696760654449463 -0.4418604373931885
-0.5813953876495361 -0.14540034532546997 -0.4573643207550049
-0.5813953876495361 -0.137247234582901 -0.3488371968269348
-0.5813953876495361 -0.10852797329425812 -0.4728682041168213
-0.5813953876495361 -0.11246305704116821 -0.3643410801887512
-0.5813953876495361 -0.07872138917446136 -0.4883720874786377
-0.5813953876495361 -0.06479638814926147 -0.37984493374824524
-0.5813953876495361 -0.038870297372341156 -0.39534884691238403
-0.5813953876495361 -0.018316088244318962 -0.41085273027420044
-0.5813953876495361 0.0026064133271574974 -0.4883720874786377
-0.5813953876495361 0.04645754396915436 -0.4728682041168213
-0.5813953876495361 0.051508449018001556 -0.42635661363601685
-0.5813953876495361 0.05567963048815727 -0.4573643207550049
-0.5813953876495361 0.05594736337661743 -0.4418604373931885
-0.5813953876495361 0.6532272100448608 -0.5348837375640869
-0.5813953876495361 0.651089608669281 -0.5193798542022705
-0.5813953876495361 0.6549416780471802 -0.5038759708404541
-0.5813953876495361 0.6645380258560181 -0.4883720874786377
-0.5813953876495361 0.6776914596557617 -0.4728682041168213
-0.5813953876495361 0.7012503147125244 -0.4573643207550049
-0.5813953876495361 0.7268670201301575 -0.4573643207550049
-0.5813953876495361 0.7370394468307495 -0.5348837375640869
-0.5813953876495361 0.7458832859992981 -0.5193798542022705
-0.5813953876495361 0.7509292960166931 -0.5038759708404541
-0.5813953876495361 0.7502328157424927 -0.4883720874786377
-0.5813953876495361 0.7432093620300293 -0.4728682041168213
-0.5658915042877197 -0.19537171721458435 -0.41085273027420044
-0.5658915042877197 -0.20018284022808075 -0.39534884691238403
-0.5658915042877197 -0.20387142896652222 -0.3798449635505676
-0.5658915042877197 -0.20072858035564423 -0.3643410801887512
-0.5658915042877197 -0.19432513415813446 -0.3488371968269348
-0.5658915042877197 -0.18520838022232056 -0.42635661363601685
-0.5658915042877197 -0.17215117812156677 -0.4418604373931885
-0.5658915042877197 -0.1446545124053955 -0.4573642909526825
-0.5658915042877197 -0.12883977591991425 -0.3488371968269348
-0.5658915042877197 -0.10263187438249588 -0.4728682041168213
-0.5658915042877197 -0.10281496495008469 -0.3643410801887512
-0.5658915042877197 -0.06136627495288849 -0.4883720874786377
-0.5658915042877197 -0.05898742750287056 -0.3798449635505676
-0.5658915042877197 -0.03788885474205017 -0.39534881711006165
-0.5658915042877197 -0.015286237932741642 -0.4883720874786377
-0.5658915042877197 -0.0131609458476305 -0.41085273027420044
-0.5658915042877197 0.03801889345049858 -0.41085273027420044
-0.5658915042877197 0.05759640410542488 -0.4728682339191437
-0.5658915042877197 0.06476736068725586 -0.4573643207550049
-0.5658915042877197 0.06780818104743958 -0.4418604373931885
-0.5658915042877197 0.06558780372142792 -0.42635661363601685
-0.5658915042877197 0.055072955787181854 -0.41085270047187805
-0.5658915042877197 0.6512576341629028 -0.5348837375640869
-0.5658915042877197 0.6476001143455505 -0.5193798542022705
-0.5658915042877197 0.6495072841644287 -0.5038759708404541
-0.5658915042877197 0.6546839475631714 -0.4883720874786377
-0.5658915042877197 0.664192259311676 -0.4728682339191437
-0.5658915042877197 0.6767500042915344 -0.4573643207550049
-0.5658915042877197 0.7020880579948425 -0.4418604373931885
-0.5658915042877197 0.7324024438858032 -0.5348837375640869
-0.5658915042877197 0.7239403128623962 -0.4418604373931885
-0.5658915042877197 0.7509598135948181 -0.5193798542022705
-0.5658915042877197 0.7446073889732361 -0.4573643207550049
-0.5658915042877197 0.7566090822219849 -0.5038759708404541
-0.5658915042877197 0.7583548426628113 -0.4883720874786377
-0.5658915042877197 0.7543517351150513 -0.4728682041168213
-0.5503876209259033 -0.19501352310180664 -0.41085273027420044
-0.5503876209259033 -0.19910842180252075 -0.39534884691238403
-0.5503876209259033 -0.20196384191513062 -0.3798449635505676
-0.5503876209259033 -0.1995021104812622 -0.3643410801887512
-0.5503876209259033 -0.19435687363147736 -0.3488371968269348
-0.5503876209259033 -0.18498444557189941 -0.42635661363601685
-0.5503876209259033 -0.17135559022426605 -0.4418604373931885
-0.5503876209259033 -0.16601349413394928 -0.3333333134651184
-0.5503876209259033 -0.1597113013267517 -0.333333283662796
-0.5503876209259033 -0.13057419657707214 -0.4573643207550049
-0.5503876209259033 -0.12522387504577637 -0.3488371968269348
-0.5503876209259033 -0.09190455079078674 -0.4728682041168213
-0.5503876209259033 -0.09221574664115906 -0.3643410801887512
-0.5503876209259033 -0.05418414622545242 -0.3798449635505676
-0.5503876209259033 -0.036509957164525986 -0.39534881711006165
-0.5503876209259033 0.0023495089262723923 -0.41085273027420044
-0.5503876209259033 0.010454420000314713 -0.41085270047187805
-0.5503876209259033 0.06812901794910431 -0.4728682041168213
-0.5503876209259033 0.07334167510271072 -0.4573643207550049
-0.5503876209259033 0.07434000819921494 -0.4418604373931885
-0.5503876209259033 0.07454459369182587 -0.42635661363601685
-0.5503876209259033 0.07225855439901352 -0.41085273027420044
-0.5503876209259033 0.1464877724647522 -0.28682172298431396
-0.5503876209259033 0.14624722301959991 -0.27131783962249756
-0.5503876209259033 0.15545985102653503 -0.30232560634613037
-0.5503876209259033 0.14953568577766418 -0.25581395626068115
-0.5503876209259033 0.1580139845609665 -0.24031007289886475
-0.5503876209259033 0.1922353208065033 -0.24031007289886475
-0.5503876209259033 0.2040347456932068 -0.25581395626068115
-0.5503876209259033 0.21122977137565613 -0.30232560634613037
-0.5503876209259033 0.21515747904777527 -0.28682172298431396
-0.5503876209259033 0.21209461987018585 -0.27131783962249756
-0.5503876209259033 0.6553757190704346 -0.5348837375640869
-0.5503876209259033 0.6479171514511108 -0.5193798542022705
-0.5503876209259033 0.6459447145462036 -0.5038759708404541
-0.5503876209259033 0.6507893204689026 -0.4883720874786377
-0.5503876209259033 0.6562488079071045 -0.4728682041168213
-0.5503876209259033 0.6667355895042419 -0.4573643207550049
-0.5503876209259033 0.6804463267326355 -0.4418604373931885
-0.5503876209259033 0.7197633385658264 -0.5348837375640869
-0.5503876209259033 0.7456163167953491 -0.5193798542022705
-0.5503876209259033 0.7398611307144165 -0.4418604373931885
-0.5503876209259033 0.758675217628479 -0.5038759708404541
-0.5503876209259033 0.7642102241516113 -0.4883720874786377
-0.5503876209259033 0.7610377073287964 -0.4728682041168213
-0.5503876209259033 0.7532935738563538 -0.45736435055732727
-0.5348837375640869 -0.19682078063488007 -0.39534884691238403
-0.5348837375640869 -0.1983013153076172 -0.3798449635505676
-0.5348837375640869 -0.196734219789505 -0.3643410801887512
-0.5348837375640869 -0.18262898921966553 -0.42635661363601685
-0.5348837375640869 -0.1929216980934143 -0.41085273027420044
-0.5348837375640869 -0.18979179859161377 -0.3488371968269348
-0.5348837375640869 -0.1660689115524292 -0.4418604373931885
-0.5348837375640869 -0.1266317367553711 -0.3488371968269348
-0.5348837375640869 -0.10736969113349915 -0.4573643207550049
-0.5348837375640869 -0.09094762802124023 -0.3643410801887512
-0.5348837375640869 -0.07623682916164398 -0.4728682041168213
-0.5348837375640869 -0.05393516272306442 -0.3798449635505676
-0.5348837375640869 -0.03640415146946907 -0.39534884691238403
-0.5348837375640869 0.05174478143453598 -0.39534884691238403
-0.5348837375640869 0.07384659349918365 -0.4728682041168213
-0.5348837375640869 0.08347312361001968 -0.4573643207550049
-0.5348837375640869 0.07359734177589417 -0.39534884691238403
-0.5348837375640869 0.08583451807498932 -0.4418604075908661
-0.5348837971687317 0.08605796843767166 -0.42635661363601685
-0.5348836779594421 0.08528327941894531 -0.41085273027420044
-0.5348837375640869 0.1313202977180481 -0.28682172298431396
-0.5348837375640869 0.13134260475635529 -0.27131783962249756
-0.5348837375640869 0.1459857076406479 -0.317829430103302
-0.5348837375640869 0.13592331111431122 -0.30232560634613037
-0.5348837375640869 0.13429906964302063 -0.25581395626068115
-0.5348837375640869 0.13918103277683258 -0.24031007289886475
-0.5348837375640869 0.14393609762191772 -0.22480618953704834
-0.5348837375640869 0.15277358889579773 -0.20930230617523193
-0.5348837375640869 0.1777794361114502 -0.3333333134651184
-0.5348837375640869 0.18524622917175293 -0.3333333134651184
-0.5348837375640869 0.18872299790382385 -0.20930230617523193
-0.5348837375640869 0.202792227268219 -0.22480618953704834
-0.5348837375640869 0.22422648966312408 -0.25581395626068115
-0.5348837375640869 0.21324175596237183 -0.24031007289886475
-0.5348837375640869 0.22649696469306946 -0.317829430103302
-0.5348837375640869 0.23523321747779846 -0.30232560634613037
-0.5348837375640869 0.2351798713207245 -0.28682172298431396
-0.5348837375640869 0.2296718955039978 -0.27131783962249756
-0.5348837375640869 0.6512978076934814 -0.5193798542022705
-0.5348837375640869 0.6450607776641846 -0.5038759708404541
-0.5348837375640869 0.6474177241325378 -0.4883720874786377
-0.5348837375640869 0.6528080701828003 -0.4728682041168213
-0.5348837375640869 0.6586304306983948 -0.4573643207550049
-0.5348837375640869 0.6686193346977234 -0.5348837375640869
-0.5348837375640869 0.6706892848014832 -0.4418604373931885
-0.5348837375640869 0.6891942620277405 -0.42635661363601685
-0.5348837375640869 0.7065452933311462 -0.5348837375640869
-0.5348837375640869 0.723486065864563 -0.42635661363601685
-0.5348837375640869 0.7371286749839783 -0.5193798542022705
-0.5348837375640869 0.7443772554397583 -0.4418604373931885
-0.5348837375640869 0.7563566565513611 -0.5038759708404541
-0.5348837375640869 0.7661978006362915 -0.4883720874786377
-0.5348837375640869 0.764816403388977 -0.4728682041168213
-0.5348837375640869 0.756376326084137 -0.4573643207550049
-0.5193798542022705 -0.19436393678188324 -0.39534884691238403
-0.5193798542022705 -0.19547969102859497 -0.3798449635505676
-0.5193798542022705 -0.19440144300460815 -0.3643410801887512
-0.5193798542022705 -0.17868156731128693 -0.42635661363601685
-0.5193798542022705 -0.18657054007053375 -0.41085273027420044
-0.5193798542022705 -0.18298250436782837 -0.3488371968269348
-0.5193798542022705 -0.13016049563884735 -0.44186046719551086
-0.5193798542022705 -0.13027988374233246 -0.3488371968269348
-0.5193798542022705 -0.10378428548574448 -0.3643410801887512
-0.5193798542022705 -0.08900836110115051 -0.4573643207550049
-0.5193798542022705 -0.05601734295487404 -0.3798449635505676
-0.5193798542022705 -0.0380566231906414 -0.4728682041168213
-0.5193798542022705 -0.03835752606391907 -0.39534884691238403
-0.5193798542022705 0.04766660928726196 -0.39534884691238403
-0.5193798542022705 0.07667756825685501 -0.4728682041168213
-0.5193798542022705 0.08813898265361786 -0.4573643207550049
-0.5193798542022705 0.08951117843389511 -0.4418604075908661
-0.5193798542022705 0.08980098366737366 -0.42635661363601685
-0.5193798542022705 0.08851344883441925 -0.41085273027420044
-0.5193798542022705 0.08532396703958511 -0.39534884691238403
-0.5193798542022705 0.1293172687292099 -0.30232560634613037
-0.5193798542022705 0.12753866612911224 -0.28682172298431396
-0.5193798542022705 0.12813223898410797 -0.27131783962249756
-0.5193798542022705 0.1294935941696167 -0.25581395626068115
-0.5193798542022705 0.1308029592037201 -0.24031007289886475
-0.5193798542022705 0.13519445061683655 -0.317829430103302
-0.5193798542022705 0.13524571061134338 -0.22480618953704834
-0.5193798542022705 0.14167125523090363 -0.20930230617523193
-0.5193798542022705 0.1495371311903 -0.3333333134651184
-0.5193798542022705 0.15015867352485657 -0.19379842281341553
-0.5193798542022705 0.18911325931549072 -0.19379842281341553
-0.5193798542022705 0.2027747631072998 -0.20930230617523193
-0.5193798542022705 0.21278902888298035 -0.22480618953704834
-0.5193798542022705 0.22582638263702393 -0.3333333134651184
-0.5193798542022705 0.231345534324646 -0.25581395626068115
-0.5193798542022705 0.22494728863239288 -0.24031008780002594
-0.5193798542022705 0.24231907725334167 -0.317829430103302
-0.5193798542022705 0.24836084246635437 -0.30232560634613037
-0.5193798542022705 0.24597933888435364 -0.28682172298431396
-0.5193798542022705 0.24162140488624573 -0.27131783962249756
-0.5193798542022705 0.6571705341339111 -0.5193798542022705
-0.5193798542022705 0.6495048403739929 -0.5038759708404541
-0.5193798542022705 0.6475063562393188 -0.4883720874786377
-0.5193798542022705 0.6513634920120239 -0.4728682041168213
-0.5193798542022705 0.6569995284080505 -0.4573643207550049
-0.5193798542022705 0.6679704189300537 -0.4418604373931885
-0.5193798542022705 0.6843170523643494 -0.42635661363601685
-0.5193798542022705 0.7286539077758789 -0.5193798542022705
-0.5193798542022705 0.7259646654129028 -0.42635661363601685
-0.5193798542022705 0.7515943646430969 -0.5038759708404541
-0.5193798542022705 0.7449158430099487 -0.4418604373931885
-0.5193798542022705 0.7644659280776978 -0.4883720874786377
-0.5193798542022705 0.7649771571159363 -0.4728682041168213
-0.5193798542022705 0.7566565275192261 -0.4573643207550049
-0.5038759708404541 -0.18032792210578918 -0.41085273027420044
-0.5038759708404541 -0.1856852024793625 -0.39534884691238403
-0.5038759708404541 -0.18883490562438965 -0.37984499335289
-0.5038759708404541 -0.18558821082115173 -0.3643410801887512
-0.5038759708404541 -0.17843927443027496 -0.3488371968269348
-0.5038759708404541 -0.16320683062076569 -0.42635661363601685
-0.5038759708404541 -0.13890883326530457 -0.3488371968269348
-0.5038759708404541 -0.11441036313772202 -0.3643410801887512
-0.5038759708404541 -0.09429851174354553 -0.4418604373931885
-0.5038759708404541 -0.06447012722492218 -0.4573643207550049
-0.5038759708404541 -0.060653600841760635 -0.3798449635505676
-0.5038759708404541 -0.04323588311672211 -0.39534884691238403
-0.5038759708404541 -0.015105713158845901 -0.41085273027420044
-0.5038759708404541 0.010561729781329632 -0.41085273027420044
-0.5038759708404541 0.031981684267520905 -0.4728682041168213
-0.5038759708404541 0.0482034832239151 -0.39534884691238403
-0.5038759708404541 0.07016842067241669 -0.4728682041168213
-0.5038759708404541 0.09046648442745209 -0.4573642909526825
-0.5038759708404541 0.09576383978128433 -0.4418604373931885
-0.5038759708404541 0.09634289890527725 -0.42635661363601685
-0.5038759708404541 0.09343664348125458 -0.41085273027420044
-0.5038759708404541 0.08712838590145111 -0.39534884691238403
-0.5038759708404541 0.13084086775779724 -0.317829430103302
-0.5038759708404541 0.1266961395740509 -0.30232560634613037
-0.5038759708404541 0.12517544627189636 -0.28682172298431396
-0.5038759708404541 0.1264786571264267 -0.27131783962249756
-0.5038759708404541 0.12865394353866577 -0.25581395626068115
-0.5038759708404541 0.13020969927310944 -0.24031007289886475
-0.5038759708404541 0.14400377869606018 -0.3333333134651184
-0.5038759708404541 0.13296329975128174 -0.22480618953704834
-0.5038759708404541 0.14005038142204285 -0.20930230617523193
-0.5038759708404541 0.14550115168094635 -0.19379842281341553
-0.5038759708404541 0.16277611255645752 -0.3488371968269348
-0.5038759708404541 0.19719617068767548 -0.19379842281341553
-0.5038759708404541 0.21142803132534027 -0.3488371968269348
-0.5038759708404541 0.2163260579109192 -0.22480618953704834
-0.5038759708404541 0.2095431685447693 -0.20930232107639313
-0.5038759708404541 0.23468637466430664 -0.3333333134651184
-0.5038759708404541 0.23763149976730347 -0.25581395626068115
-0.5038759708404541 0.22759659588336945 -0.24031007289886475
-0.5038759708404541 0.25337085127830505 -0.317829430103302
-0.5038759708404541 0.2553643584251404 -0.28682172298431396
-0.5038759708404541 0.2455509454011917 -0.27131783962249756
-0.5038759708404541 0.2603198289871216 -0.30232560634613037
-0.5038759708404541 0.6534732580184937 -0.5038759708404541
-0.5038759708404541 0.6495710611343384 -0.4883720874786377
-0.5038759708404541 0.6511015892028809 -0.4728682041168213
-0.5038759708404541 0.6565073728561401 -0.4573643207550049
-0.5038759708404541 0.6671446561813354 -0.5193798542022705
-0.5038759708404541 0.6673957109451294 -0.4418604373931885
-0.5038759708404541 0.6849056482315063 -0.42635661363601685
-0.5038759708404541 0.7205767631530762 -0.42635661363601685
-0.5038759708404541 0.7211161851882935 -0.5193798542022705
-0.5038759708404541 0.7455282211303711 -0.5038759708404541
-0.5038759708404541 0.7394252419471741 -0.4418604373931885
-0.5038759708404541 0.7599356174468994 -0.4883720874786377
-0.5038759708404541 0.7606050968170166 -0.4728682041168213
-0.5038759708404541 0.7526211738586426 -0.4573643207550049
-0.4883720874786377 -0.17896808683872223 -0.39534884691238403
-0.4883720874786377 -0.18077994883060455 -0.3798449635505676
-0.4883720874786377 -0.17910610139369965 -0.3643410801887512
-0.4883720874786377 -0.1643366813659668 -0.41085273027420044
-0.4883720874786377 -0.16344571113586426 -0.3488371968269348
-0.4883720874786377 -0.1595218926668167 -0.3488371968269348
-0.4883720874786377 -0.12144339829683304 -0.41085273027420044
-0.4883720874786377 -0.12738069891929626 -0.3643411099910736
-0.4883720874786377 -0.11224938184022903 -0.41085273027420044
-0.4883720874786377 -0.10503409802913666 -0.3798449635505676
-0.4883720874786377 -0.09234336018562317 -0.42635661363601685
-0.4883720874786377 -0.09795322269201279 -0.3798449635505676
-0.4883720874786377 -0.07033199816942215 -0.4418604373931885
-0.4883720874786377 -0.06531430780887604 -0.3798449635505676
-0.4883720874786377 -0.04825935140252113 -0.39534884691238403
-0.4883720874786377 -0.02835482731461525 -0.41085273027420044
-0.4883721172809601 -0.0009760193061083555 -0.4573643207550049
-0.4883720874786377 0.01744874194264412 -0.41085273027420044
-0.4883720874786377 0.050043217837810516 -0.39534884691238403
-0.4883720874786377 0.08787229657173157 -0.4573643207550049
-0.4883720874786377 0.09976354986429214 -0.4418604373931885
-0.4883720874786377 0.09723333269357681 -0.41085273027420044
-0.4883720576763153 0.08812357485294342 -0.39534881711006165
-0.4883720874786377 0.10118501633405685 -0.42635661363601685
-0.4883720874786377 0.12931866943836212 -0.317829430103302
-0.4883720874786377 0.1251288205385208 -0.30232560634613037
-0.4883720874786377 0.12433135509490967 -0.28682172298431396
-0.4883720874786377 0.12642964720726013 -0.27131783962249756
-0.4883720874786377 0.12892967462539673 -0.25581395626068115
-0.4883720874786377 0.13065455853939056 -0.24031007289886475
-0.4883720874786377 0.1397058218717575 -0.3333333134651184
-0.4883720874786377 0.1361159384250641 -0.22480617463588715
-0.4883720874786377 0.1421010047197342 -0.20930230617523193
-0.4883720874786377 0.1458747684955597 -0.19379842281341553
-0.4883720874786377 0.15766654908657074 -0.3488371968269348
-0.4883720874786377 0.16015784442424774 -0.1782945990562439
-0.4883720874786377 0.1829744130373001 -0.1782945990562439
-0.4883720874786377 0.1990915834903717 -0.19379842281341553
-0.4883720874786377 0.2185409963130951 -0.3488371968269348
-0.4883720874786377 0.21706819534301758 -0.22480618953704834
-0.4883721172809601 0.21011605858802795 -0.20930232107639313
-0.4883720576763153 0.2284175157546997 -0.24031007289886475
-0.4883720874786377 0.24335375428199768 -0.3333333134651184
-0.4883720874786377 0.24883121252059937 -0.27131783962249756
-0.4883720874786377 0.24079614877700806 -0.25581395626068115
-0.4883720874786377 0.26088160276412964 -0.28682172298431396
-0.4883720874786377 0.2752072513103485 -0.3333333134651184
-0.4883720874786377 0.28414973616600037 -0.30232560634613037
-0.4883720874786377 0.29858124256134033 -0.3488371968269348
-0.4883720874786377 0.3175135850906372 -0.3488371968269348
-0.4883720874786377 0.3139724135398865 -0.317829430103302
-0.4883720874786377 0.32338014245033264 -0.3333333134651184
-0.4883720874786377 0.3939141035079956 -0.4418604373931885
-0.4883720874786377 0.3828452527523041 -0.42635661363601685
-0.4883720874786377 0.386873334646225 -0.41085273027420044
-0.4883720874786377 0.40314435958862305 -0.4418604373931885
-0.4883720874786377 0.4047704339027405 -0.41085273027420044
-0.4883720874786377 0.4133588671684265 -0.42635661363601685
-0.4883720874786377 0.656883955001831 -0.5038759708404541
-0.4883720874786377 0.6522603034973145 -0.4883720874786377
-0.4883720874786377 0.652549147605896 -0.4728682041168213
-0.4883720874786377 0.6576021313667297 -0.4573643207550049
-0.4883720874786377 0.6701886653900146 -0.4418604373931885
-0.4883720874786377 0.675454318523407 -0.5193798542022705
-0.4883720576763153 0.7072163224220276 -0.5193798542022705
-0.4883720874786377 0.7254307866096497 -0.4418604373931885
-0.4883720874786377 0.7366107106208801 -0.5038759708404541
-0.4883720874786377 0.7507060766220093 -0.4883720874786377
-0.4883720874786377 0.7505156993865967 -0.4728682041168213
-0.4883720874786377 0.7404156923294067 -0.4573643207550049
-0.4728682041168213 -0.16745343804359436 -0.3798449635505676
-0.4728682041168213 -0.16433057188987732 -0.3643410801887512
-0.4728682041168213 -0.13499225676059723 -0.3798449635505676
-0.4728682041168213 -0.14589658379554749 -0.3643410801887512
-0.4728682041168213 -0.08572899550199509 -0.41085273027420044
-0.4728682041168213 -0.08989785611629486 -0.39534884691238403
-0.4728682041168213 -0.07906730473041534 -0.3798449635505676
-0.4728682041168213 -0.06685584038496017 -0.42635661363601685
-0.4728682041168213 -0.06883134692907333 -0.3798449635505676
-0.4728681743144989 -0.05256020650267601 -0.39534881711006165
-0.4728682041168213 -0.027979474514722824 -0.42635661363601685
-0.4728682041168213 -0.03857554495334625 -0.41085273027420044
-0.4728682041168213 0.004721984267234802 -0.4418604373931885
-0.4728682041168213 -0.003654202213510871 -0.42635664343833923
-0.4728682041168213 0.026242665946483612 -0.41085273027420044
-0.4728682041168213 0.05395760014653206 -0.39534884691238403
-0.4728682041168213 0.09017549455165863 -0.4418604373931885
-0.4728682041168213 0.09790284931659698 -0.42635661363601685
-0.4728682041168213 0.09428179264068604 -0.41085273027420044
-0.4728682041168213 0.08579326421022415 -0.39534884691238403
-0.4728682041168213 0.12676012516021729 -0.317829430103302
-0.4728682041168213 0.12325933575630188 -0.30232560634613037
-0.4728682041168213 0.12344378232955933 -0.28682172298431396
-0.4728682041168213 0.12653848528862 -0.27131783962249756
-0.4728682041168213 0.1293037235736847 -0.25581395626068115
-0.4728682041168213 0.13127414882183075 -0.24031007289886475
-0.4728682339191437 0.13336612284183502 -0.3333333134651184
-0.4728682041168213 0.13954585790634155 -0.22480618953704834
-0.4728682041168213 0.14465002715587616 -0.20930230617523193
-0.4728682041168213 0.1508336067199707 -0.3488371968269348
-0.4728682041168213 0.1481824815273285 -0.19379842281341553
-0.4728682041168213 0.16023066639900208 -0.1782945990562439
-0.4728682339191437 0.18465568125247955 -0.1782945990562439
-0.4728682041168213 0.20640894770622253 -0.20930230617523193
-0.4728682041168213 0.19697070121765137 -0.19379842281341553
-0.4728682041168213 0.22161495685577393 -0.3488371968269348
-0.4728682041168213 0.21478670835494995 -0.22480618953704834
-0.4728682041168213 0.24028292298316956 -0.25581395626068115
-0.4728682041168213 0.2275518923997879 -0.24031007289886475
-0.4728682041168213 0.24984455108642578 -0.27131783962249756
-0.4728682041168213 0.26859307289123535 -0.28682172298431396
-0.4728682041168213 0.2789475917816162 -0.3488371968269348
-0.4728682041168213 0.30917835235595703 -0.30232560634613037
-0.4728682041168213 0.3314199149608612 -0.317829430103302
-0.4728682041168213 0.33913758397102356 -0.3488371968269348
-0.4728682041168213 0.3399422764778137 -0.3333333134651184
-0.4728682041168213 0.37277406454086304 -0.42635661363601685
-0.4728681743144989 0.3710670471191406 -0.41085273027420044
-0.4728682041168213 0.37650156021118164 -0.39534884691238403
-0.4728682041168213 0.38467007875442505 -0.4418604373931885
-0.4728682041168213 0.41055557131767273 -0.39534884691238403
-0.4728682041168213 0.421362042427063 -0.4418604373931885
-0.4728682041168213 0.42122235894203186 -0.41085273027420044
-0.4728682041168213 0.42693930864334106 -0.42635661363601685
-0.4728682041168213 0.6551951766014099 -0.4883720874786377
-0.4728682041168213 0.6557272672653198 -0.4728682041168213
-0.4728681743144989 0.6621527075767517 -0.5038759708404541
-0.4728682041168213 0.6630795001983643 -0.4573643207550049
-0.4728682041168213 0.6870039105415344 -0.4418604373931885
-0.4728682041168213 0.692714512348175 -0.4418604373931885
-0.4728682041168213 0.715167224407196 -0.5038759708404541
-0.4728682041168213 0.7167927026748657 -0.4573643207550049
-0.4728682041168213 0.7281409502029419 -0.4883720874786377
-0.4728682041168213 0.727023720741272 -0.4728682041168213
-0.4573643207550049 -0.07391887903213501 -0.39534884691238403
-0.4573643207550049 -0.061748649924993515 -0.39534884691238403
-0.4573643207550049 0.021887097507715225 -0.42635661363601685
-0.4573643207550049 0.033656682819128036 -0.41085273027420044
-0.4573643207550049 0.06442736089229584 -0.39534884691238403
-0.4573643207550049 0.07366885244846344 -0.39534884691238403
-0.4573643207550049 0.08765177428722382 -0.42635661363601685
-0.4573643207550049 0.08854988217353821 -0.41085273027420044
-0.4573643207550049 0.1272820085287094 -0.3333333134651184
-0.4573643207550049 0.12035390734672546 -0.317829430103302
-0.4573642909526825 0.11764341592788696 -0.30232560634613037
-0.4573643207550049 0.12012583017349243 -0.28682172298431396
-0.4573643207550049 0.12551309168338776 -0.27131783962249756
-0.4573643207550049 0.12931649386882782 -0.25581395626068115
-0.4573643207550049 0.13175487518310547 -0.24031007289886475
-0.4573643207550049 0.14161896705627441 -0.3488371968269348
-0.4573643207550049 0.14219257235527039 -0.22480618953704834
-0.4573643207550049 0.14694349467754364 -0.20930230617523193
-0.4573643207550049 0.1576390266418457 -0.19379842281341553
-0.4573643207550049 0.1741073727607727 -0.3643410801887512
-0.4573643207550049 0.18973639607429504 -0.3643410801887512
-0.4573643207550049 0.18967539072036743 -0.19379842281341553
-0.4573643207550049 0.19864165782928467 -0.20930230617523193
-0.4573643207550049 0.22316715121269226 -0.3488371968269348
-0.45736435055732727 0.21162623167037964 -0.22480618953704834
-0.4573643207550049 0.23524686694145203 -0.25581395626068115
-0.45736435055732727 0.22543096542358398 -0.24031007289886475
-0.4573643207550049 0.2492431402206421 -0.27131783962249756
-0.4573643207550049 0.2668572962284088 -0.3488371968269348
-0.4573643207550049 0.28910163044929504 -0.3643410801887512
-0.4573643207550049 0.28755757212638855 -0.28682172298431396
-0.4573643207550049 0.32361841201782227 -0.30232560634613037
-0.4573643207550049 0.3430793881416321 -0.317829430103302
-0.4573643207550049 0.3635920584201813 -0.41085273027420044
-0.4573643207550049 0.3642885982990265 -0.39534884691238403
-0.4573643207550049 0.35143426060676575 -0.3643410801887512
-0.4573643207550049 0.3571746349334717 -0.3488371968269348
-0.4573643207550049 0.3537929654121399 -0.3333333134651184
-0.4573643207550049 0.3686257302761078 -0.42635661363601685
-0.4573643207550049 0.37287813425064087 -0.3798449635505676
-0.4573643207550049 0.3824111521244049 -0.4418604373931885
-0.4573643207550049 0.4023692011833191 -0.3798449635505676
-0.4573643207550049 0.4217507541179657 -0.39534884691238403
-0.4573643207550049 0.43203800916671753 -0.4418604373931885
-0.4573643207550049 0.435651034116745 -0.42635661363601685
-0.4573643207550049 0.43187862634658813 -0.41085273027420044
-0.4573643207550049 0.6578992605209351 -0.4883720874786377
-0.4573643207550049 0.6588086485862732 -0.4728682041168213
-0.4573643207550049 0.6948155164718628 -0.4883720874786377
-0.4573643207550049 0.6930391192436218 -0.4728682339191437
-0.4418604373931885 0.04268631711602211 -0.41085273027420044
-0.4418604373931885 0.07733048498630524 -0.41085273027420044
-0.4418604373931885 0.11514759063720703 -0.3333333134651184
-0.4418604373931885 0.11320170760154724 -0.317829430103302
-0.4418604373931885 0.11375043541193008 -0.30232560634613037
-0.4418604373931885 0.11525186151266098 -0.28682172298431396
-0.4418604373931885 0.1261850893497467 -0.3488371968269348
-0.4418604373931885 0.12266761064529419 -0.27131783962249756
-0.4418604373931885 0.12890005111694336 -0.25581395626068115
-0.4418604373931885 0.13402006030082703 -0.24031007289886475
-0.4418604373931885 0.14506907761096954 -0.22480618953704834
-0.4418604373931885 0.15263263881206512 -0.3643410801887512
-0.4418604373931885 0.15771062672138214 -0.20930230617523193
-0.4418604373931885 0.18932229280471802 -0.20930230617523193
-0.44186046719551086 0.19518998265266418 -0.3643410801887512
-0.4418604373931885 0.20438070595264435 -0.22480618953704834
-0.4418604373931885 0.21778561174869537 -0.24031007289886475
-0.4418604373931885 0.22509780526161194 -0.3488371968269348
-0.4418604373931885 0.23106876015663147 -0.25581395626068115
-0.4418604373931885 0.2478211224079132 -0.27131783962249756
-0.44186046719551086 0.2590993344783783 -0.3488372266292572
-0.4418604373931885 0.28335708379745483 -0.3643410801887512
-0.4418604373931885 0.3041627109050751 -0.28682172298431396
-0.4418604373931885 0.333126962184906 -0.3798449635505676
-0.4418604373931885 0.3352243900299072 -0.30232560634613037
-0.4418604373931885 0.3624303340911865 -0.41085273027420044
-0.4418604373931885 0.3596818745136261 -0.39534884691238403
-0.4418604075908661 0.35321953892707825 -0.317829430103302
-0.4418604373931885 0.3689882755279541 -0.42635661363601685
-0.4418604373931885 0.37547487020492554 -0.3488371968269348
-0.4418604373931885 0.3663853704929352 -0.333333283662796
-0.4418604373931885 0.38408032059669495 -0.4418604373931885
-0.4418604373931885 0.39605140686035156 -0.3643410801887512
-0.4418604373931885 0.4176127314567566 -0.3798449635505676
-0.4418604373931885 0.4326187074184418 -0.39534884691238403
-0.4418604373931885 0.4436192214488983 -0.4418604373931885
-0.4418604373931885 0.4461643695831299 -0.42635664343833923
-0.4418604373931885 0.44280561804771423 -0.41085273027420044
-0.42635661363601685 -0.1653832197189331 -0.317829430103302
-0.42635661363601685 -0.17000128328800201 -0.30232560634613037
-0.42635661363601685 -0.16718050837516785 -0.28682172298431396
-0.42635661363601685 -0.14931508898735046 -0.27131783962249756
-0.42635661363601685 -0.12805819511413574 -0.27131783962249756
-0.42635661363601685 -0.11052513122558594 -0.3333333134651184
-0.42635661363601685 -0.08751837909221649 -0.3488371968269348
-0.42635661363601685 -0.08696299046278 -0.28682172298431396
-0.42635661363601685 -0.06899673491716385 -0.3488371968269348
-0.42635661363601685 -0.0657844990491867 -0.3333333134651184
-0.42635661363601685 -0.06486958265304565 -0.317829430103302
-0.42635658383369446 -0.06908003985881805 -0.30232560634613037
-0.42635661363601685 0.11158786714076996 -0.3333333134651184
-0.42635661363601685 0.11024148762226105 -0.317829430103302
-0.42635661363601685 0.11195974051952362 -0.30232560634613037
-0.42635661363601685 0.11467738449573517 -0.28682172298431396
-0.42635661363601685 0.11779897660017014 -0.3488371968269348
-0.42635661363601685 0.12278105318546295 -0.27131783962249756
-0.42635661363601685 0.13000118732452393 -0.25581395626068115
-0.42635661363601685 0.1419508308172226 -0.3643410801887512
-0.42635661363601685 0.14149564504623413 -0.24031007289886475
-0.42635661363601685 0.15761986374855042 -0.22480618953704834
-0.42635661363601685 0.187333881855011 -0.3643410801887512
-0.42635661363601685 0.19060465693473816 -0.22480618953704834
-0.42635661363601685 0.21911849081516266 -0.3488371968269348
-0.42635661363601685 0.21030233800411224 -0.24031007289886475
-0.42635664343833923 0.22533054649829865 -0.25581395626068115
-0.42635661363601685 0.24096111953258514 -0.27131783962249756
-0.42635661363601685 0.2586309313774109 -0.3488371968269348
-0.42635661363601685 0.28546544909477234 -0.3643410801887512
-0.42635661363601685 0.31176504492759705 -0.28682172298431396
-0.42635661363601685 0.33123719692230225 -0.3798449635505676
-0.42635661363601685 0.3408321142196655 -0.30232560634613037
-0.42635661363601685 0.36122044920921326 -0.39534884691238403
-0.42635661363601685 0.36027878522872925 -0.317829430103302
-0.42635661363601685 0.3751685619354248 -0.42635661363601685
-0.42635661363601685 0.3667984902858734 -0.41085273027420044
-0.42635661363601685 0.37414854764938354 -0.3333333134651184
-0.42635661363601685 0.3915944993495941 -0.4418604373931885
-0.42635661363601685 0.3875734806060791 -0.3488371968269348
-0.42635661363601685 0.40765446424484253 -0.3643410801887512
-0.42635661363601685 0.4276776909828186 -0.3798449635505676
-0.42635661363601685 0.451183557510376 -0.4418604373931885
-0.42635661363601685 0.4547143578529358 -0.42635661363601685
-0.42635661363601685 0.4504372179508209 -0.41085273027420044
-0.42635658383369446 0.4421670138835907 -0.39534884691238403
-0.41085273027420044 -0.17989617586135864 -0.317829430103302
-0.41085273027420044 -0.18347255885601044 -0.30232560634613037
-0.41085273027420044 -0.18403877317905426 -0.28682172298431396
-0.41085273027420044 -0.18126851320266724 -0.27131783962249756
-0.41085273027420044 -0.16359874606132507 -0.3333333134651184
-0.41085273027420044 -0.17586389183998108 -0.25581395626068115
-0.41085273027420044 -0.16469572484493256 -0.24031007289886475
-0.41085273027420044 -0.10245867073535919 -0.3488371968269348
-0.41085273027420044 -0.10982166975736618 -0.24031007289886475
-0.41085273027420044 -0.08669363707304001 -0.25581395626068115
-0.41085273027420044 -0.07194771617650986 -0.3643410801887512
-0.41085273027420044 -0.0687800943851471 -0.3643410801887512
-0.41085273027420044 -0.058893825858831406 -0.3488371968269348
-0.41085273027420044 -0.058943189680576324 -0.28682172298431396
-0.41085270047187805 -0.06874983012676239 -0.27131783962249756
-0.41085273027420044 -0.053535230457782745 -0.3333333134651184
-0.41085273027420044 -0.05264218524098396 -0.317829430103302
-0.41085270047187805 -0.05341728404164314 -0.30232560634613037
-0.41085273027420044 0.11277622729539871 -0.3333333134651184
-0.41085273027420044 0.11101680994033813 -0.317829430103302
-0.41085273027420044 0.11270420998334885 -0.30232560634613037
-0.41085273027420044 0.11562803387641907 -0.28682172298431396
-0.41085273027420044 0.12249775230884552 -0.3488371968269348
-0.41085273027420044 0.1259533017873764 -0.27131783962249756
-0.4108527600765228 0.136705219745636 -0.25581395626068115
-0.41085273027420044 0.15596884489059448 -0.24031007289886475
-0.41085273027420044 0.2062334418296814 -0.3488371968269348
-0.41085273027420044 0.1943955272436142 -0.24031008780002594
-0.41085273027420044 0.21256744861602783 -0.25581395626068115
-0.41085273027420044 0.228721484541893 -0.27131783962249756
-0.41085273027420044 0.26808962225914 -0.3488371968269348
-0.41085273027420044 0.29853540658950806 -0.3643410801887512
-0.41085270047187805 0.3182174563407898 -0.28682172298431396
-0.41085273027420044 0.346375048160553 -0.30232560634613037
-0.41085273027420044 0.34955358505249023 -0.3798449635505676
-0.41085273027420044 0.3764515817165375 -0.41085273027420044
-0.41085273027420044 0.3700437545776367 -0.39534884691238403
-0.41085273027420044 0.36563369631767273 -0.317829430103302
-0.41085273027420044 0.3859531283378601 -0.42635664343833923
-0.41085273027420044 0.3806654214859009 -0.333333283662796
-0.41085273027420044 0.4049775004386902 -0.4418604373931885
-0.41085273027420044 0.39558058977127075 -0.3488371968269348
-0.41085273027420044 0.41427862644195557 -0.3643410801887512
-0.41085273027420044 0.4334476888179779 -0.3798449635505676
-0.41085273027420044 0.4483491778373718 -0.39534884691238403
-0.41085270047187805 0.4588131606578827 -0.4418604373931885
-0.41085273027420044 0.4625351130962372 -0.42635661363601685
-0.41085270047187805 0.458514004945755 -0.41085270047187805
-0.39534884691238403 -0.19487467408180237 -0.28682172298431396
-0.39534884691238403 -0.19427424669265747 -0.27131783962249756
-0.39534884691238403 -0.18602608144283295 -0.317829430103302
-0.3953488767147064 -0.19337907433509827 -0.30232560634613037
-0.39534884691238403 -0.1905226707458496 -0.25581395626068115
-0.39534884691238403 -0.18538248538970947 -0.24031007289886475
-0.39534884691238403 -0.1796739399433136 -0.22480618953704834
-0.39534884691238403 -0.17149299383163452 -0.3333333134651184
-0.39534884691238403 -0.1662173718214035 -0.20930230617523193
-0.39534884691238403 -0.11224044859409332 -0.3488371968269348
-0.39534884691238403 -0.09941890835762024 -0.20930230617523193
-0.39534884691238403 -0.08171170949935913 -0.3643410801887512
-0.39534884691238403 -0.0805702954530716 -0.22480620443820953
-0.39534884691238403 -0.05975158512592316 -0.3643410801887512
-0.39534884691238403 -0.05856213718652725 -0.25581395626068115
-0.39534884691238403 -0.06780639290809631 -0.24031005799770355
-0.39534884691238403 -0.05271202698349953 -0.3488371968269348
-0.39534884691238403 -0.05025620758533478 -0.3333333134651184
-0.39534884691238403 -0.0476316474378109 -0.317829430103302
-0.39534884691238403 -0.04690822213888168 -0.30232560634613037
-0.39534884691238403 -0.04828934371471405 -0.28682172298431396
-0.39534884691238403 -0.05188850313425064 -0.27131783962249756
-0.39534884691238403 0.11608625948429108 -0.317829430103302
-0.39534884691238403 0.12304152548313141 -0.3333333134651184
-0.3953488767147064 0.11728113889694214 -0.30232560634613037
-0.39534884691238403 0.1240292489528656 -0.28682172298431396
-0.39534884691238403 0.1408073753118515 -0.3488371968269348
-0.39534884691238403 0.13352473080158234 -0.27131783962249756
-0.39534884691238403 0.15400397777557373 -0.25581395626068115
-0.39534884691238403 0.18196463584899902 -0.3488371968269348
-0.39534884691238403 0.19780877232551575 -0.25581395626068115
-0.3953488767147064 0.211617574095726 -0.3333333134651184
-0.39534884691238403 0.21574681997299194 -0.27131783962249756
-0.39534884691238403 0.23987658321857452 -0.317829430103302
-0.39534884691238403 0.2314467877149582 -0.28682172298431396
-0.39534884691238403 0.24062593281269073 -0.317829430103302
-0.39534884691238403 0.2635378837585449 -0.3333333134651184
-0.39534884691238403 0.2672962248325348 -0.28682172298431396
-0.39534884691238403 0.28825369477272034 -0.3488371968269348
-0.39534881711006165 0.32303857803344727 -0.3643410801887512
-0.39534884691238403 0.318060964345932 -0.28682172298431396
-0.39534884691238403 0.34930261969566345 -0.30232560634613037
-0.39534884691238403 0.378607839345932 -0.39534884691238403
-0.39534884691238403 0.367175817489624 -0.3798449635505676
-0.3953488767147064 0.3676069974899292 -0.317829430103302
-0.39534884691238403 0.3873955011367798 -0.41085273027420044
-0.39534884691238403 0.38308703899383545 -0.3333333134651184
-0.39534884691238403 0.3968952000141144 -0.42635661363601685
-0.39534884691238403 0.3986876904964447 -0.3488371968269348
-0.39534884691238403 0.41965964436531067 -0.4418604373931885
-0.39534884691238403 0.41979461908340454 -0.3643410801887512
-0.39534884691238403 0.4432464838027954 -0.37984499335289
-0.39534884691238403 0.4641384482383728 -0.39534884691238403
-0.39534884691238403 0.5014845728874207 -0.4573643207550049
-0.39534884691238403 0.5691496133804321 -0.41085273027420044
-0.39534884691238403 0.583504319190979 -0.4573643207550049
-0.39534884691238403 0.5920783281326294 -0.4418604373931885
-0.39534884691238403 0.5846691727638245 -0.42635661363601685
-0.3798449635505676 -0.19420842826366425 -0.317829430103302
-0.3798449635505676 -0.19909673929214478 -0.30232560634613037
-0.3798449635505676 -0.2029849886894226 -0.28682172298431396
-0.3798449635505676 -0.203311949968338 -0.27131783962249756
-0.3798449635505676 -0.20113128423690796 -0.25581395626068115
-0.3798449635505676 -0.19779081642627716 -0.24031007289886475
-0.3798449635505676 -0.19500118494033813 -0.22480618953704834
-0.3798449635505676 -0.1795383244752884 -0.3333333134651184
-0.3798449635505676 -0.18768563866615295 -0.20930230617523193
-0.37984499335289 -0.1741534322500229 -0.19379843771457672
-0.37984493374824524 -0.14607256650924683 -0.1782945990562439
-0.3798449635505676 -0.1237204521894455 -0.3488371968269348
-0.3798449635505676 -0.10158192366361618 -0.1782945990562439
-0.3798449635505676 -0.085433728992939 -0.3643410801887512
-0.3798449635505676 -0.078743115067482 -0.19379842281341553
-0.3798449635505676 -0.06379993259906769 -0.20930230617523193
-0.3798449635505676 -0.053326837718486786 -0.3643410801887512
-0.3798449635505676 -0.049516744911670685 -0.3488371968269348
-0.3798449635505676 -0.04443972557783127 -0.3333333134651184
-0.3798449635505676 -0.041409075260162354 -0.27131783962249756
-0.3798449635505676 -0.04537879303097725 -0.25581395626068115
-0.37984493374824524 -0.049389682710170746 -0.24031007289886475
-0.3798449635505676 -0.05348566919565201 -0.22480618953704834
-0.3798449635505676 -0.038728006184101105 -0.317829430103302
-0.37984499335289 -0.038061775267124176 -0.30232563614845276
-0.37984493374824524 -0.0382201261818409 -0.2868216931819916
-0.3798449635505676 0.13176032900810242 -0.317829430103302
