0.4728682339191437 0.5044715404510498 0.06976747512817383
0.4728682041168213 0.5127078294754028 0.08527135848999023
0.4728682041168213 0.5168257355690002 0.10077524185180664
0.4728682041168213 0.5181204080581665 0.4728682041168213
0.4728682041168213 0.5097097754478455 0.4883720874786377
0.4728682041168213 0.5210094451904297 0.11627911776304245
0.4728682041168213 0.5243208408355713 0.1317828893661499
0.4728682041168213 0.5265921354293823 0.1472867727279663
0.4728682041168213 0.5279884338378906 0.16279065608978271
0.4728682041168213 0.52973473072052 0.17829453945159912
0.4728682041168213 0.5322257280349731 0.19379842281341553
0.4728682041168213 0.5325868129730225 0.4418604373931885
0.4728682041168213 0.5264198780059814 0.4573643207550049
0.4728681743144989 0.5351486206054688 0.20930230617523193
0.4728682041168213 0.5389796495437622 0.22480618953704834
0.4728682041168213 0.5421007871627808 0.24031007289886475
0.4728682041168213 0.544665515422821 0.25581395626068115
0.4728682041168213 0.5463060140609741 0.27131783962249756
0.4728682041168213 0.5477852821350098 0.28682172298431396
0.4728682041168213 0.5489928722381592 0.30232560634613037
0.4728682041168213 0.5494263172149658 0.3178294897079468
0.4728682041168213 0.5494636297225952 0.3333333730697632
0.4728682041168213 0.5495188236236572 0.3488372564315796
0.4728682041168213 0.5486783981323242 0.364341139793396
0.4728682041168213 0.5476869940757751 0.37984490394592285
0.4728682041168213 0.5459094643592834 0.39534878730773926
0.4728682041168213 0.5428603887557983 0.41085267066955566
0.4728682041168213 0.5376933217048645 0.4263565242290497
0.4728682041168213 0.6266063451766968 -0.5813953876495361
0.4728682041168213 0.6233539581298828 -0.5658915042877197
0.4728682041168213 0.6255778670310974 -0.5503876209259033
0.4728682041168213 0.6427960395812988 -0.6124030947685242
0.4728682041168213 0.6351498961448669 -0.5968992114067078
0.4728682041168213 0.6539372205734253 -0.6279069781303406
0.4728682041168213 0.6737518906593323 -0.6589146852493286
0.4728682041168213 0.6634336709976196 -0.643410861492157
0.4728682041168213 0.6850907206535339 -0.5503876209259033
0.4728682041168213 0.6926112771034241 -0.6744185090065002
0.4728682041168213 0.7077375650405884 -0.5658915042877197
0.4728682041168213 0.7256767153739929 -0.5813953876495361
0.4728682041168213 0.7506965398788452 -0.674418568611145
0.4728682041168213 0.7410630583763123 -0.5968992114067078
0.4728682041168213 0.7628899812698364 -0.6589146852493286
0.4728682041168213 0.7654793858528137 -0.643410861492157
0.4728682041168213 0.7612737417221069 -0.6279069781303406
0.4728682041168213 0.7537054419517517 -0.6124030351638794
0.4883720874786377 -0.9577168226242065 -0.674418568611145
0.4883720874786377 -0.9645386934280396 -0.6589146852493286
0.4883720874786377 -0.9659498333930969 -0.643410861492157
0.4883720874786377 -0.9637453556060791 -0.6279069781303406
0.4883720874786377 -0.9570512771606445 -0.6124030947685242
0.4883720874786377 -0.9331840872764587 -0.674418568611145
0.4883720874786377 -0.9270544052124023 -0.6589146852493286
0.4883720874786377 -0.9236575365066528 -0.643410861492157
0.4883720874786377 -0.9241904020309448 -0.6279069781303406
0.4883720874786377 -0.9312648773193359 -0.6124030947685242
0.4883720874786377 -0.16285762190818787 -0.5038759708404541
0.4883720874786377 -0.1632547527551651 -0.4883720874786377
0.4883720874786377 -0.1628233790397644 -0.4728682041168213
0.4883720874786377 -0.16343791782855988 -0.3333333134651184
0.4883720874786377 -0.16721558570861816 -0.317829430103302
0.4883720874786377 -0.17327921092510223 -0.30232560634613037
0.4883720874786377 -0.17438943684101105 -0.28682172298431396
0.4883720874786377 -0.16859577596187592 -0.27131783962249756
0.4883720874786377 -0.15657339990139008 -0.5193798542022705
0.4883720874786377 -0.16168160736560822 -0.4573643207550049
0.4883720874786377 -0.15963716804981232 -0.4418604373931885
0.4883720874786377 -0.15744300186634064 -0.42635661363601685
0.4883720874786377 -0.15443098545074463 -0.41085273027420044
0.4883720874786377 -0.15055982768535614 -0.39534884691238403
0.4883720874786377 -0.14892145991325378 -0.3798449635505676
0.4883720874786377 -0.14967454969882965 -0.3643410801887512
0.4883720874786377 -0.1549646109342575 -0.3488371968269348
0.4883720874786377 -0.15712282061576843 -0.25581395626068115
0.4883720874786377 -0.14977464079856873 0.10077524185180664
0.4883720874786377 -0.1509188711643219 0.11627912521362305
0.4883720874786377 -0.15049701929092407 0.1317828893661499
0.4883720874786377 -0.15005341172218323 0.1472867727279663
0.4883720874786377 -0.14923304319381714 0.16279065608978271
0.4883720874786377 -0.14817644655704498 0.17829453945159912
0.4883720874786377 -0.1479034423828125 0.19379842281341553
0.4883720874786377 -0.1389520764350891 -0.5348837375640869
0.4883720874786377 -0.13752183318138123 0.05426359176635742
0.4883720874786377 -0.1432080864906311 0.06976747512817383
0.4883720874786377 -0.14719274640083313 0.08527135848999023
0.4883720576763153 -0.14728383719921112 0.20930229127407074
0.4883720874786377 -0.1455611288547516 0.22480618953704834
0.4883720874786377 -0.1430109441280365 0.24031007289886475
0.4883720576763153 -0.14136847853660583 0.25581395626068115
0.4883720874786377 -0.13896238803863525 0.27131783962249756
0.4883720874786377 -0.13401859998703003 0.28682172298431396
0.4883720874786377 -0.12779223918914795 -0.5348837375640869
0.4883720874786377 -0.11942708492279053 0.02325582504272461
0.4883720874786377 -0.12851229310035706 0.038759708404541016
0.4883720874786377 -0.12959489226341248 0.30232560634613037
0.4883720874786377 -0.12731656432151794 0.3178294897079468
0.4883720874786377 -0.12411532551050186 0.3333333730697632
0.4883720874786377 -0.11830170452594757 0.3488372564315796
0.4883720874786377 -0.10726562142372131 -0.5193798542022705
0.4883720874786377 -0.10166425257921219 -0.39534884691238403
0.4883720874786377 -0.101567842066288 -0.3798449635505676
0.4883720874786377 -0.10089416056871414 -0.007751941680908203
0.4883720874786377 -0.11035683751106262 0.007751941680908203
0.4883720874786377 -0.1134047880768776 0.364341139793396
0.4883721172809601 -0.11063477396965027 0.37984490394592285
0.4883720874786377 -0.10466703027486801 0.39534878730773926
0.4883720874786377 -0.09675565361976624 -0.5038759708404541
0.4883720874786377 -0.09263269603252411 -0.4883720874786377
0.4883720874786377 -0.09160570055246353 -0.4728682041168213
0.4883720874786377 -0.09228779375553131 -0.4573643207550049
0.4883720874786377 -0.09453942626714706 -0.4418604373931885
0.4883720874786377 -0.09731844067573547 -0.42635661363601685
0.4883720874786377 -0.0994199737906456 -0.41085273027420044
0.4883720576763153 -0.09970836341381073 -0.36434105038642883
0.4883720874786377 -0.0966915562748909 -0.3488372266292572
0.4883720874786377 -0.09163510799407959 -0.3333333134651184
0.4883720874786377 -0.08695553243160248 -0.317829430103302
0.4883720874786377 -0.0897093266248703 -0.27131783962249756
0.4883720874786377 -0.09792699664831161 -0.25581395626068115
0.4883720874786377 -0.08627671003341675 -0.038759708404541016
0.4883720874786377 -0.09328260272741318 -0.02325582504272461
0.4883720874786377 -0.09763801097869873 0.41085267066955566
0.4883720874786377 -0.09184811264276505 0.42635655403137207
0.4883720874786377 -0.08424384891986847 -0.30232560634613037
0.4883720874786377 -0.08453971892595291 -0.28682172298431396
0.4883720874786377 -0.07818958908319473 -0.05426359176635742
0.4883720874786377 -0.08241274207830429 0.4418604373931885
0.4883720874786377 -0.07482439279556274 0.4573643207550049
0.4883720874786377 -0.06490811705589294 0.4728682339191437
0.4883720874786377 -0.05283002927899361 0.4883720874786377
0.4883720874786377 -0.04240477830171585 0.5038759708404541
0.4883720874786377 -0.029833152890205383 0.5193798542022705
0.4883720874786377 -0.015270179137587547 0.5348837375640869
0.4883720874786377 -0.004748409613966942 -0.06976741552352905
0.4883720874786377 0.0006856985855847597 0.5503876209259033
0.4883720874786377 0.01885928399860859 -0.08527129888534546
0.4883720874786377 0.01720103807747364 0.5658915042877197
0.4883720874786377 0.034906055778265 0.5813953876495361
0.4883720874786377 0.045859359204769135 -0.10077518224716187
0.4883720874786377 0.06926217675209045 -0.317829430103302
0.4883720874786377 0.06902376562356949 -0.30232560634613037
0.4883720874786377 0.055514201521873474 0.5968992710113525
0.4883720874786377 0.08408373594284058 -0.3798449635505676
0.4883720874786377 0.07956746220588684 -0.3643410801887512
0.4883720874786377 0.07525894790887833 -0.3488371968269348
0.4883720874786377 0.07127858698368073 -0.3333333134651184
0.4883721172809601 0.07064098864793777 -0.28682172298431396
0.4883720874786377 0.07725479453802109 -0.27131783962249756
0.4883720874786377 0.0850580558180809 -0.25581395626068115
0.4883720874786377 0.07962410897016525 -0.11627906560897827
0.4883720874786377 0.07666383683681488 0.612403154373169
0.4883720874786377 0.10049154609441757 -0.4573643207550049
0.4883720874786377 0.0993170365691185 -0.4418604373931885
0.4883720874786377 0.09751232713460922 -0.42635661363601685
0.4883720874786377 0.0941021516919136 -0.41085273027420044
0.4883720874786377 0.08926383405923843 -0.39534884691238403
0.4883720874786377 0.11478855460882187 -0.5193798542022705
0.4883720874786377 0.11058579385280609 -0.5038759708404541
0.4883720874786377 0.10661903023719788 -0.4883720874786377
0.4883720874786377 0.1031208336353302 -0.4728682041168213
0.4883720576763153 0.10151486843824387 -0.24031005799770355
0.4883720874786377 0.10568560659885406 0.6279069185256958
0.4883720874786377 0.1244603767991066 -0.5348837375640869
0.4883720874786377 0.13150125741958618 -0.13178294897079468
0.4883721172809601 0.13252323865890503 -0.13178294897079468
0.4883720874786377 0.15457457304000854 -0.5348837375640869
0.4883720874786377 0.16039256751537323 -0.25581395626068115
0.4883720874786377 0.1496444195508957 -0.24031007289886475
0.4883720874786377 0.16340279579162598 -0.5193798542022705
0.4883720874786377 0.1671883463859558 -0.5038759708404541
0.4883720874786377 0.17064425349235535 -0.4883720874786377
0.4883720874786377 0.17404653131961823 -0.4728682041168213
0.4883720874786377 0.17719900608062744 -0.4573643207550049
0.4883720874786377 0.17477765679359436 -0.30232560634613037
0.4883720874786377 0.1697021722793579 -0.28682172298431396
0.4883720874786377 0.16564880311489105 -0.27131783962249756
0.4883720874786377 0.177407369017601 -0.11627906560897827
0.4883720874786377 0.17871074378490448 -0.4418604373931885
0.4883720874786377 0.17918682098388672 -0.42635661363601685
0.4883720874786377 0.1794712394475937 -0.41085273027420044
0.4883720874786377 0.17987963557243347 -0.39534884691238403
0.4883720874786377 0.18032866716384888 -0.3798449635505676
0.4883720874786377 0.18059401214122772 -0.3643410801887512
0.4883720874786377 0.18050362169742584 -0.3488371968269348
0.4883720874786377 0.18002396821975708 -0.3333333134651184
0.4883720874786377 0.1789911687374115 -0.317829430103302
0.4883720874786377 0.20071548223495483 -0.10077518224716187
0.4883720874786377 0.2214331179857254 -0.08527129888534546
0.4883720576763153 0.24200817942619324 -0.06976741552352905
0.4883720874786377 0.2556065618991852 0.6279069185256958
0.4883720874786377 0.26540660858154297 -0.05426359176635742
0.4883720874786377 0.29155927896499634 -0.038759708404541016
0.4883720874786377 0.31446343660354614 -0.02325582504272461
0.4883720874786377 0.3194695711135864 0.612403154373169
0.4883720874786377 0.3436141312122345 -0.007751941680908203
0.4883720874786377 0.3566758632659912 0.5968992710113525
0.4883720874786377 0.37492066621780396 0.007751941680908203
0.4883720874786377 0.38295093178749084 0.5813953876495361
0.4883720874786377 0.4073798954486847 0.02325582504272461
0.4883720874786377 0.40439021587371826 0.5658915042877197
0.4883720874786377 0.42178595066070557 0.5503876209259033
0.4883720874786377 0.43520212173461914 0.038759708404541016
0.4883720874786377 0.43818190693855286 0.5348837375640869
0.4883720874786377 0.4544872045516968 0.05426359176635742
0.4883720874786377 0.45377132296562195 0.5193798542022705
0.4883720874786377 0.46789759397506714 0.06976747512817383
0.4883720874786377 0.4676893949508667 0.5038759708404541
0.4883720874786377 0.4785289168357849 0.08527135848999023
0.4883720874786377 0.4835604727268219 0.10077524185180664
0.4883720874786377 0.48749709129333496 0.11627912521362305
0.4883720874786377 0.48024681210517883 0.4883720874786377
0.4883720874786377 0.4916827976703644 0.1317828893661499
0.4883720874786377 0.4948005676269531 0.1472867727279663
0.4883720874786377 0.4965769946575165 0.16279065608978271
0.4883720874786377 0.4985787868499756 0.17829453945159912
0.4883720874786377 0.5014368295669556 0.19379842281341553
0.4883720874786377 0.49928784370422363 0.4573643207550049
0.4883720874786377 0.48936206102371216 0.4728682041168213
0.4883721172809601 0.5051597356796265 0.20930232107639313
0.4883720874786377 0.5096404552459717 0.22480618953704834
0.4883720874786377 0.5128867030143738 0.24031007289886475
0.4883720874786377 0.5157095193862915 0.25581395626068115
0.4883720874786377 0.5183643698692322 0.27131783962249756
0.4883720874786377 0.5170980095863342 0.41085267066955566
0.4883720874786377 0.5132241249084473 0.42635655403137207
0.4883720874786377 0.506401002407074 0.4418604373931885
0.4883720874786377 0.5212860703468323 0.28682172298431396
0.4883720874786377 0.523673951625824 0.30232560634613037
0.4883720874786377 0.5249142050743103 0.3178294897079468
0.4883720874786377 0.5254095792770386 0.3333333730697632
0.4883720874786377 0.525755763053894 0.3488372564315796
0.4883720874786377 0.5248199105262756 0.364341139793396
0.4883720874786377 0.5234490036964417 0.37984490394592285
0.4883720874786377 0.5204983353614807 0.39534878730773926
0.4883720874786377 0.6405856609344482 -0.5968992114067078
0.4883720874786377 0.6397935152053833 -0.5813953876495361
0.4883720874786377 0.6433166861534119 -0.5658915042877197
0.4883720874786377 0.6581391096115112 -0.643410861492157
0.4883720874786377 0.6526881456375122 -0.6279069781303406
0.4883720874786377 0.6455771923065186 -0.6124030947685242
0.4883720874786377 0.6683441400527954 -0.6589146852493286
0.4883720874786377 0.678617000579834 -0.674418568611145
0.4883720874786377 0.6942700147628784 -0.6899224519729614
0.4883720576763153 0.6907268166542053 -0.5658915042877197
0.4883720874786377 0.7149234414100647 -0.5813953876495361
0.4883720874786377 0.7357654571533203 -0.5968992114067078
0.4883720874786377 0.7653501629829407 -0.6899224519729614
0.4883720874786377 0.7651878595352173 -0.6279069781303406
0.4883721172809601 0.7526004314422607 -0.6124030947685242
0.4883720874786377 0.7753584980964661 -0.674418568611145
0.4883720874786377 0.7777552604675293 -0.6589146852493286
0.4883721172809601 0.7741525173187256 -0.6434109210968018
0.5038759708404541 -0.9699279069900513 -0.6589146852493286
0.5038759708404541 -0.9715249538421631 -0.643410861492157
0.5038759708404541 -0.9710409641265869 -0.6279069781303406
0.5038759708404541 -0.956035852432251 -0.674418568611145
0.5038759708404541 -0.9608317613601685 -0.6124030947685242
0.5038759708404541 -0.9483078718185425 -0.674418568611145
0.5038759708404541 -0.9458678960800171 -0.612403154373169
0.5038759708404541 -0.9352322816848755 -0.6589146852493286
0.5038759708404541 -0.9333503842353821 -0.643410861492157
0.5038759708404541 -0.9350041747093201 -0.6279069781303406
0.5038759708404541 -0.1789366900920868 -0.28682172298431396
0.5038759708404541 -0.16411246359348297 -0.3333333134651184
0.5038759708404541 -0.16992446780204773 -0.317829430103302
0.5038759708404541 -0.17786909639835358 -0.30232560634613037
0.5038759708404541 -0.17402684688568115 -0.27131783962249756
0.5038759708404541 -0.16422531008720398 -0.25581395626068115
0.5038759708404541 -0.15055261552333832 -0.5193798542022705
0.5038759708404541 -0.15374764800071716 -0.5038759708404541
0.5038759708404541 -0.15417668223381042 -0.4883720874786377
0.5038759708404541 -0.15349383652210236 -0.4728682041168213
0.5038759708404541 -0.15268172323703766 -0.4573643207550049
0.5038759708404541 -0.15123099088668823 -0.4418604373931885
0.5038759708404541 -0.14951372146606445 -0.42635661363601685
0.5038759708404541 -0.14748558402061462 -0.41085273027420044
0.5038759708404541 -0.14835162460803986 -0.3643410801887512
0.5038759708404541 -0.1550532579421997 -0.3488371968269348
0.5038759708404541 -0.13296227157115936 -0.5348837375640869
0.5038759708404541 -0.14048218727111816 -0.39534884691238403
0.5038759708404541 -0.141353040933609 -0.3798449635505676
0.5038759708404541 -0.14048713445663452 -0.24031007289886475
0.5038759708404541 -0.1310577541589737 -0.5348837375640869
0.5038759708404541 -0.11698023974895477 0.06976747512817383
0.5038759708404541 -0.1229550912976265 0.08527135848999023
0.5038759708404541 -0.12493736296892166 0.10077524185180664
0.5038759708404541 -0.12572017312049866 0.11627912521362305
0.5038759708404541 -0.1255475878715515 0.1317828893661499
0.5038759708404541 -0.12543058395385742 0.1472867727279663
0.5038759708404541 -0.12516406178474426 0.16279065608978271
0.5038759708404541 -0.1251138299703598 0.17829453945159912
0.5038759708404541 -0.12570035457611084 0.19379842281341553
0.5038759708404541 -0.12603095173835754 0.20930230617523193
0.5038759708404541 -0.12550847232341766 0.22480618953704834
0.5038759708404541 -0.12345990538597107 0.24031007289886475
0.5038759708404541 -0.1211385428905487 0.25581395626068115
0.5038759708404541 -0.11751672625541687 0.27131783962249756
0.5038759708404541 -0.1128455251455307 -0.5193798542022705
0.5038759708404541 -0.10498158633708954 -0.5038759708404541
0.5038759708404541 -0.10365079343318939 -0.4418604373931885
0.5038759708404541 -0.10814628005027771 -0.42635661363601685
0.5038759708404541 -0.11156512796878815 -0.41085273027420044
0.5038759708404541 -0.11408796906471252 -0.39534884691238403
0.5038759708404541 -0.11255989968776703 -0.3798449635505676
0.5038759708404541 -0.10612407326698303 -0.3643410801887512
0.5038759708404541 -0.11054912209510803 -0.24031007289886475
0.5038759708404541 -0.10300655663013458 0.038759708404541016
0.5038759708404541 -0.11157149076461792 0.05426358804106712
0.5038759708404541 -0.11370203644037247 0.28682172298431396
0.5038759708404541 -0.11131850630044937 0.30232560634613037
0.5038759708404541 -0.10817812383174896 0.3178294897079468
0.5038759708404541 -0.10305042564868927 0.3333333730697632
0.5038759708404541 -0.10049831867218018 -0.4883720874786377
0.5038759708404541 -0.09994841367006302 -0.4728682041168213
0.5038759708404541 -0.1003931388258934 -0.4573643207550049
0.5038759708404541 -0.09883272647857666 -0.3488371968269348
0.5038759708404541 -0.09342509508132935 -0.3333333134651184
0.5038759708404541 -0.08802717179059982 -0.317829430103302
0.5038759708404541 -0.08702635020017624 -0.27131783962249756
0.5038759708404541 -0.09510160237550735 -0.25581395626068115
0.5038759708404541 -0.09372398257255554 0.02325582504272461
0.5038759708404541 -0.09800566732883453 0.3488372564315796
0.5038759708404541 -0.09471122920513153 0.364341139793396
0.5038759708404541 -0.08996351808309555 0.37984490394592285
0.5038759708404541 -0.08414780348539352 -0.30232560634613037
0.5038759708404541 -0.08387468010187149 -0.28682172298431396
0.5038759708404541 -0.06988508254289627 -0.007751941680908203
0.5038759708404541 -0.08260276168584824 0.007751941680908203
0.5038759708404541 -0.08307621628046036 0.39534878730773926
0.5038759708404541 -0.07826856523752213 0.41085267066955566
0.5038759708404541 -0.06866258382797241 0.42635655403137207
0.5038759708404541 -0.06211572140455246 0.4418604373931885
0.5038759708404541 -0.041996609419584274 -0.02325582504272461
0.5038759708404541 -0.050948597490787506 0.4573643207550049
0.5038759708404541 -0.04088275879621506 0.4728682041168213
0.5038759708404541 -0.029608462005853653 0.4883720874786377
0.5038759708404541 -0.015794698148965836 0.5038759708404541
0.5038759708404541 -0.0021254434250295162 -0.038759708404541016
0.5038759708404541 -0.0005560163408517838 0.5193798542022705
0.5038759708404541 0.020154258236289024 -0.05426359176635742
0.5038759708404541 0.016403505578637123 0.5348837375640869
0.5038759708404541 0.035562727600336075 0.5503876209259033
0.5038759708404541 0.039883218705654144 -0.06976741552352905
0.5038759708404541 0.05824608355760574 -0.08527129888534546
0.5038759708404541 0.05632741004228592 0.5658915042877197
0.5038759708404541 0.08324078470468521 -0.3488371968269348
0.5038759708404541 0.07947370409965515 -0.3333333134651184
0.5038759708404541 0.0769859030842781 -0.317829430103302
0.5038759708404541 0.07601731270551682 -0.30232560634613037
0.5038759708404541 0.0772763267159462 -0.28682172298431396
0.5038759708404541 0.08179327100515366 -0.27131783962249756
0.5038759708404541 0.07842829078435898 -0.10077518224716187
0.5038759708404541 0.07717066258192062 0.5813953876495361
0.5038759708404541 0.10073646157979965 -0.4573643207550049
0.5038759708404541 0.10019402951002121 -0.4418604373931885
0.5038759708404541 0.09935382008552551 -0.42635661363601685
0.5038759708404541 0.09788665175437927 -0.41085273027420044
0.5038759708404541 0.09485089778900146 -0.39534884691238403
0.5038759708404541 0.09098533540964127 -0.3798449635505676
0.5038759708404541 0.08681763708591461 -0.3643410801887512
0.5038759708404541 0.09155634045600891 -0.25581395626068115
0.5038759708404541 0.11606178432703018 -0.5348837375640869
0.5038759708404541 0.1116119995713234 -0.5193798542022705
0.5038759708404541 0.10787107795476913 -0.5038759708404541
0.5038759708404541 0.10454541444778442 -0.4883720874786377
0.5038759708404541 0.10231289267539978 -0.4728682041168213
0.5038759708404541 0.11051459610462189 -0.24031007289886475
0.5038759708404541 0.10798550397157669 -0.11627906560897827
0.5038759708404541 0.1044459268450737 0.5968992710113525
0.5038759708404541 0.12499824166297913 -0.5503876209259033
0.5038759708404541 0.13424406945705414 -0.5658915042877197
0.5038759708404541 0.1466006338596344 -0.24031007289886475
0.5038759708404541 0.14911361038684845 -0.5658915042877197
0.5038759708404541 0.15795549750328064 -0.5503876209259033
0.5038759708404541 0.15700221061706543 -0.25581395626068115
0.5038759708404541 0.16206391155719757 0.612403154373169
0.5038759708404541 0.16479992866516113 -0.5348837375640869
0.5038759708404541 0.16941380500793457 -0.5193798542022705
0.5038759708404541 0.17434921860694885 -0.5038759708404541
0.5038759708404541 0.17360608279705048 -0.30232560634613037
0.5038759708404541 0.16865751147270203 -0.28682172298431396
0.5038759708404541 0.164677694439888 -0.27131783962249756
0.5038759708404541 0.16486376523971558 -0.11627906560897827
0.5038759708404541 0.17859311401844025 -0.4883720874786377
0.5038759708404541 0.17991453409194946 -0.4728682041168213
0.5038759708404541 0.1806894838809967 -0.4573643207550049
0.5038759708404541 0.18102596700191498 -0.44186046719551086
0.5038759708404541 0.18111255764961243 -0.42635661363601685
0.5038759708404541 0.1809891313314438 -0.41085273027420044
0.5038759708404541 0.18104389309883118 -0.39534884691238403
0.5038759708404541 0.1812167912721634 -0.3798449635505676
0.5038759708404541 0.1811898946762085 -0.3643410801887512
0.5038759708404541 0.18079383671283722 -0.3488371968269348
0.5038759708404541 0.18004536628723145 -0.3333333134651184
0.5038759708404541 0.17879487574100494 -0.317829430103302
0.5038759708404541 0.18522681295871735 -0.10077518224716187
0.5038759708404541 0.18619999289512634 0.612403154373169
0.5038759708404541 0.20338250696659088 -0.08527129888534546
0.5038759708404541 0.22025229036808014 -0.06976741552352905
0.5038759708404541 0.23646733164787292 -0.05426359176635742
0.5038759708404541 0.25470930337905884 -0.038759708404541016
0.5038759708404541 0.268697053194046 0.5968992710113525
0.5038759708404541 0.2755366563796997 -0.02325582318007946
0.5038759708404541 0.2999184727668762 -0.007751941680908203
0.5038759708404541 0.3245735764503479 0.007751941680908203
0.5038759708404541 0.3234768807888031 0.5813953876495361
0.5038759708404541 0.34934142231941223 0.02325582504272461
0.5038759708404541 0.35498011112213135 0.5658915042877197
0.5038759708404541 0.37355080246925354 0.038759708404541016
0.5038759708404541 0.37691181898117065 0.5503876209259033
0.5038759708404541 0.3971448540687561 0.05426359176635742
0.5038759708404541 0.3962770104408264 0.5348837375640869
0.5038759708404541 0.4161037802696228 0.06976747512817383
0.5038759708404541 0.4144408702850342 0.5193798542022705
0.5038759708404541 0.43025046586990356 0.08527135848999023
0.5038759708404541 0.43873828649520874 0.10077524185180664
0.5038759708404541 0.44134125113487244 0.4883720874786377
0.5038759708404541 0.42823612689971924 0.5038759708404541
0.5038759708404541 0.4459390640258789 0.11627912521362305
0.5038759708404541 0.449829638004303 0.1317828893661499
0.5038759708404541 0.4526137709617615 0.1472867727279663
0.5038759708404541 0.45502007007598877 0.16279065608978271
0.5038759708404541 0.45421507954597473 0.4728682041168213
0.5038759708404541 0.4588768780231476 0.17829453945159912
0.5038759708404541 0.4639711380004883 0.19379842281341553
0.5038759708404541 0.4678150415420532 0.20930230617523193
0.5038759708404541 0.4721978008747101 0.22480618953704834
0.5038759708404541 0.46572673320770264 0.4573643207550049
0.5038759708404541 0.47836142778396606 0.24031005799770355
0.5038759708404541 0.48291176557540894 0.25581395626068115
0.5038759708404541 0.48616474866867065 0.27131783962249756
0.5038759708404541 0.4868200719356537 0.41085267066955566
0.5038759708404541 0.482258141040802 0.42635655403137207
0.5038759708404541 0.47382569313049316 0.4418604373931885
0.5038759708404541 0.48996633291244507 0.28682172298431396
0.5038759708404541 0.49363940954208374 0.30232560634613037
0.5038759708404541 0.4956812858581543 0.3178294897079468
0.5038759708404541 0.4965697228908539 0.3333333730697632
0.5038759708404541 0.4970775246620178 0.3488372564315796
0.5038759708404541 0.4963763356208801 0.364341139793396
0.5038759708404541 0.4951756000518799 0.37984490394592285
0.5038759708404541 0.49176308512687683 0.39534878730773926
0.5038759708404541 0.6561950445175171 -0.6279069781303406
0.5038759708404541 0.6547821760177612 -0.6124030947685242
0.5038759708404541 0.6567168235778809 -0.5968992114067078
0.5038759708404541 0.6678560972213745 -0.6589146852493286
0.5038759708404541 0.6603308916091919 -0.643410861492157
0.5038759708404541 0.6728873252868652 -0.5813953876495361
0.5038759708404541 0.6864184141159058 -0.6899224519729614
0.5038759708404541 0.6745156049728394 -0.674418568611145
0.5038759708404541 0.6812517642974854 -0.5813953876495361
0.5038759708404541 0.7025894522666931 -0.7054263353347778
0.5038759708404541 0.721388041973114 -0.5968992114067078
0.5038759708404541 0.7426626682281494 -0.6124030947685242
0.5038759708404541 0.7595258951187134 -0.6279069781303406
0.5038759708404541 0.7782598733901978 -0.7054263353347778
0.5038759708404541 0.7733103036880493 -0.643410861492157
0.5038759708404541 0.7876589298248291 -0.6899224519729614
0.5038759708404541 0.788071870803833 -0.674418568611145
0.5038759708404541 0.7843508720397949 -0.6589146852493286
0.5193798542022705 -0.9715628623962402 -0.6434108018875122
0.5193798542022705 -0.9719132781028748 -0.6279069781303406
0.5193798542022705 -0.9503009915351868 -0.643410861492157
0.5193798542022705 -0.9532380700111389 -0.6279070377349854
0.5193798542022705 -0.4439602792263031 -0.3798449635505676
0.5193798542022705 -0.4490740895271301 -0.3643410801887512
0.5193798542022705 -0.451387494802475 -0.3488371968269348
0.5193798542022705 -0.449958860874176 -0.3333333134651184
0.5193798542022705 -0.4450260400772095 -0.317829430103302
0.5193798542022705 -0.43068647384643555 -0.39534884691238403
0.5193798542022705 -0.4348262548446655 -0.30232560634613037
0.5193798542022705 -0.4185078740119934 -0.28682172298431396
0.5193798542022705 -0.404524028301239 -0.39534884691238403
0.5193798542022705 -0.3905581831932068 -0.3798449635505676
0.5193798542022705 -0.38184458017349243 -0.3643410801887512
0.5193798542022705 -0.3867354989051819 -0.28682172298431396
0.5193798542022705 -0.3779579997062683 -0.3488371968269348
0.5193798542022705 -0.3766135573387146 -0.3333333134651184
0.5193798542022705 -0.3769635856151581 -0.317829430103302
0.5193798542022705 -0.3789823353290558 -0.30232560634613037
0.5193798542022705 -0.17886443436145782 -0.30232560634613037
0.5193798542022705 -0.17997530102729797 -0.28682172298431396
0.5193798542022705 -0.1643861085176468 -0.3333333134651184
0.5193798542022705 -0.17117294669151306 -0.317829430103302
0.5193799138069153 -0.17795126140117645 -0.27131783962249756
0.5193798542022705 -0.16641207039356232 -0.25581395626068115
0.5193798542022705 -0.15464085340499878 -0.3488371968269348
0.5193798542022705 -0.1476593315601349 -0.24031007289886475
0.5193798542022705 -0.13801701366901398 -0.5193798542022705
0.5193798542022705 -0.1460806131362915 -0.5038759708404541
0.5193798542022705 -0.14578741788864136 -0.4883720874786377
0.5193798542022705 -0.1432856023311615 -0.4728682041168213
0.5193798542022705 -0.14064224064350128 -0.45736435055732727
0.5193798542022705 -0.13663384318351746 -0.4418604373931885
0.5193798542022705 -0.13305941224098206 -0.3798449635505676
0.5193798542022705 -0.14720210433006287 -0.3643410801887512
0.5193798542022705 -0.12758952379226685 -0.5193798542022705
0.5193798542022705 -0.12173083424568176 -0.4418604373931885
0.5193798542022705 -0.12798652052879333 -0.3798449635505676
0.5193798542022705 -0.11604763567447662 -0.5038759708404541
0.5193798542022705 -0.11431511491537094 -0.4883721172809601
0.5193798542022705 -0.11426613479852676 -0.4728682041168213
0.5193798542022705 -0.11523459106683731 -0.4573643207550049
0.5193798542022705 -0.11224959045648575 -0.3643410801887512
0.5193798542022705 -0.10101526975631714 -0.3488371968269348
0.5193798542022705 -0.10524517297744751 -0.24031007289886475
0.5193798542022705 -0.10138367116451263 0.19379842281341553
0.5193798542022705 -0.10274748504161835 0.20930230617523193
0.5193798542022705 -0.10252261161804199 0.22480618953704834
0.5193798542022705 -0.09559614211320877 -0.3333333134651184
0.5193798542022705 -0.09017379581928253 -0.317829430103302
0.5193798542022705 -0.08614052832126617 -0.27131783962249756
0.5193798542022705 -0.09351936727762222 -0.25581395626068115
0.5193798542022705 -0.09107549488544464 0.06976747512817383
0.5193798542022705 -0.09580228477716446 0.08527135848999023
0.5193798542022705 -0.09782053530216217 0.10077524185180664
0.5193798542022705 -0.09896865487098694 0.11627912521362305
0.5193798542022705 -0.09913258254528046 0.1317828893661499
0.5193798542022705 -0.09939256310462952 0.1472867727279663
0.5193798542022705 -0.09941158443689346 0.16279065608978271
0.5193798542022705 -0.09990181028842926 0.17829453945159912
0.5193798542022705 -0.10029911994934082 0.24031007289886475
0.5193798542022705 -0.09880509227514267 0.25581395626068115
0.5193798542022705 -0.09696244448423386 0.27131783962249756
0.5193798542022705 -0.09447093307971954 0.28682172298431396
0.5193798542022705 -0.09056040644645691 0.30232560634613037
0.5193798542022705 -0.08527685701847076 0.3178294897079468
0.5193798542022705 -0.08487766236066818 -0.30232560634613037
0.5193798542022705 -0.08411509543657303 -0.28682172298431396
0.5193798542022705 -0.07298222184181213 0.038759708404541016
0.5193798542022705 -0.08280838280916214 0.05426359176635742
0.5193798542022705 -0.08155598491430283 0.33333340287208557
0.5193798542022705 -0.07802281528711319 0.3488372564315796
0.5193798542022705 -0.07164105772972107 0.364341139793396
0.5193798542022705 -0.05688244476914406 0.02325582504272461
0.5193798542022705 -0.06648664176464081 0.37984490394592285
0.5193798542022705 -0.062181517481803894 0.39534878730773926
0.5193798542022705 -0.0530998557806015 0.41085267066955566
0.5193798542022705 -0.04689782112836838 0.42635655403137207
0.5193798542022705 -0.02868734672665596 0.007751941680908203
0.5193798542022705 -0.03599260374903679 0.4418604373931885
0.5193798542022705 -0.026160815730690956 0.4573643207550049
0.5193798542022705 -0.014474589377641678 0.4728682041168213
0.5193798542022705 0.006893989630043507 -0.007751941680908203
0.5193798542022705 -0.0002781993243843317 0.4883720874786377
0.5193798542022705 0.015468386933207512 0.5038759708404541
0.5193798542022705 0.03393436595797539 -0.02325582504272461
0.5193798542022705 0.03272511065006256 0.5193798542022705
0.5193798542022705 0.052166324108839035 -0.038759708404541016
0.5193798542022705 0.05325435847043991 0.5348837375640869
0.5193798542022705 0.06529615074396133 -0.05426359176635742
0.5193798542022705 0.08524821698665619 -0.317829430103302
0.5193798542022705 0.08387553691864014 -0.30232560634613037
0.5193798542022705 0.08431091159582138 -0.28682172298431396
0.5193798542022705 0.07851922512054443 -0.06976741552352905
0.5193798542022705 0.07582128047943115 0.5503876209259033
0.5193798542022705 0.09914262592792511 -0.3798449635505676
0.5193798542022705 0.09593848139047623 -0.3643410801887512
0.5193798542022705 0.09242536872625351 -0.3488371968269348
0.5193798542022705 0.0884111076593399 -0.3333333134651184
0.5193798542022705 0.08951834589242935 -0.27131783962249756
0.5193798542022705 0.10012694448232651 -0.25581395626068115
0.5193798542022705 0.09539538621902466 -0.08527129888534546
0.5193798542022705 0.11415813118219376 -0.5348837375640869
0.5193798542022705 0.11053217947483063 -0.5193798542022705
0.5193798542022705 0.10788571089506149 -0.5038759708404541
0.5193798542022705 0.10605810582637787 -0.4883720874786377
0.5193798542022705 0.10522095859050751 -0.4728682041168213
0.5193798542022705 0.1050039753317833 -0.4573643207550049
0.5193798542022705 0.10511963069438934 -0.44186046719551086
0.5193798542022705 0.10478483885526657 -0.42635661363601685
0.5193798542022705 0.10372672975063324 -0.41085273027420044
0.5193798542022705 0.1017053872346878 -0.39534884691238403
0.5193798542022705 0.10151523351669312 0.5658915042877197
0.5193798542022705 0.1265409290790558 -0.5658915042877197
0.5193798542022705 0.11916403472423553 -0.5503876209259033
0.5193798542022705 0.12307979166507721 -0.10077518224716187
0.5193798542022705 0.13802945613861084 -0.5813953876495361
0.5193798542022705 0.15069854259490967 -0.5813953876495361
0.5193798542022705 0.1620059311389923 -0.5658915042877197
0.5193798542022705 0.1525755375623703 -0.25581395626068115
0.5193798542022705 0.15653270483016968 -0.10077518224716187
0.5193798542022705 0.1475144326686859 0.5813953876495361
0.5193798542022705 0.16665102541446686 -0.5503876209259033
0.5193798542022705 0.17146244645118713 -0.5348837375640869
0.5193798542022705 0.1720380336046219 -0.30232560634613037
0.5193798542022705 0.16714707016944885 -0.28682172298431396
0.5193798542022705 0.1631762683391571 -0.27131783962249756
0.5193798542022705 0.17775429785251617 -0.08527129888534546
0.5193797945976257 0.1783304214477539 -0.5193797945976257
0.5193798542022705 0.18043473362922668 -0.5038759708404541
0.5193798542022705 0.18203561007976532 -0.4883720874786377
0.5193798542022705 0.18332770466804504 -0.4728682041168213
0.5193798542022705 0.18404117226600647 -0.4573643207550049
0.5193798542022705 0.1841702163219452 -0.4418604373931885
0.5193798542022705 0.18379493057727814 -0.42635661363601685
0.5193798542022705 0.18296989798545837 -0.41085273027420044
0.5193798542022705 0.18251626193523407 -0.3953488767147064
0.5193798542022705 0.1823226660490036 -0.3798449635505676
0.5193798542022705 0.18187420070171356 -0.3643410801887512
0.5193798542022705 0.18105855584144592 -0.3488371968269348
0.5193798542022705 0.17998555302619934 -0.333333283662796
0.5193797945976257 0.1784495711326599 -0.3178294003009796
0.5193798542022705 0.1929742395877838 -0.06976741552352905
0.5193798542022705 0.20618994534015656 -0.05426359176635742
0.5193798542022705 0.2070520967245102 0.5813953876495361
0.5193798542022705 0.2197398692369461 -0.038759708404541016
0.5193798542022705 0.2336309850215912 -0.02325582504272461
0.5193798542022705 0.25198543071746826 -0.007751941680908203
0.5193798542022705 0.2737106680870056 0.007751941680908203
0.5193798542022705 0.2768942415714264 0.5658915042877197
0.5193798542022705 0.2969962954521179 0.02325582504272461
0.5193798542022705 0.3189643919467926 0.038759708404541016
0.5193798542022705 0.31815382838249207 0.5503875613212585
0.5193798542022705 0.340404748916626 0.05426359176635742
0.5193798542022705 0.3467262089252472 0.5348837375640869
0.5193798542022705 0.3576837182044983 0.06976747512817383
0.5193798542022705 0.3718697428703308 0.08527135848999023
0.5193798542022705 0.36957788467407227 0.5193798542022705
0.5193798542022705 0.38255733251571655 0.10077524185180664
0.5193798542022705 0.38922831416130066 0.11627912521362305
0.5193798542022705 0.39453986287117004 0.1317828893661499
0.5193798542022705 0.38603711128234863 0.5038759708404541
0.5193798542022705 0.3998364806175232 0.1472867727279663
0.5193798542022705 0.4028986096382141 0.16279065608978271
0.5193798542022705 0.40641385316848755 0.17829453945159912
0.5193798542022705 0.40114447474479675 0.4883720874786377
0.5193798542022705 0.41220390796661377 0.19379842281341553
0.5193798542022705 0.41828441619873047 0.20930230617523193
0.5193798542022705 0.4239593744277954 0.22480618953704834
0.5193798542022705 0.42403849959373474 0.4573643207550049
0.5193798542022705 0.41347917914390564 0.4728682041168213
0.5193798542022705 0.432142972946167 0.24031007289886475
0.5193798542022705 0.4388470947742462 0.25581395626068115
0.5193798542022705 0.4354586601257324 0.4418604373931885
0.5193798542022705 0.4463423192501068 0.27131783962249756
0.5193798542022705 0.45160001516342163 0.28682172298431396
0.5193798542022705 0.4552680253982544 0.30232560634613037
0.5193798542022705 0.4554034173488617 0.39534878730773926
0.5193798542022705 0.4510287046432495 0.41085267066955566
0.5193798542022705 0.4426961839199066 0.42635655403137207
0.5193798542022705 0.45882511138916016 0.3178294897079468
0.5193798542022705 0.46141308546066284 0.3333333730697632
0.5193798542022705 0.4626277685165405 0.3488372564315796
0.5193798542022705 0.4614335000514984 0.364341139793396
0.5193798542022705 0.4592265784740448 0.37984490394592285
0.5193798542022705 0.6721801161766052 -0.674418568611145
0.5193798542022705 0.6671748161315918 -0.6589146852493286
0.5193798542022705 0.663841962814331 -0.643410861492157
0.5193798542022705 0.6650010347366333 -0.6279069781303406
0.5193798542022705 0.6708370447158813 -0.6124030947685242
0.5193798542022705 0.6818599104881287 -0.6899224519729614
0.5193798542022705 0.7052354216575623 -0.7209302186965942
0.5193798542022705 0.6914929747581482 -0.7054263353347778
0.5193798542022705 0.727810263633728 -0.7364341020584106
0.5193798542022705 0.7233121395111084 -0.612403154373169
0.5193798542022705 0.7473707795143127 -0.6279069781303406
0.5193798542022705 0.765995979309082 -0.643410861492157
0.5193798542022705 0.7771334052085876 -0.7364341020584106
0.5193798542022705 0.7818989753723145 -0.6589146852493286
0.5193798542022705 0.7958059310913086 -0.7209302186965942
0.5193798542022705 0.7941066026687622 -0.674418568611145
0.5193798542022705 0.8038451671600342 -0.7054263353347778
0.5193798542022705 0.8028472661972046 -0.6899224519729614
0.5193798542022705 0.8871643543243408 -0.7674418687820435
0.5193798542022705 0.8839743137359619 -0.751937985420227
0.5193798542022705 0.8844538927078247 -0.7364341020584106
0.5193798542022705 0.9062843322753906 -0.7984496355056763
0.5193798542022705 0.8948144912719727 -0.7829456925392151
0.5193798542022705 0.9213585257530212 -0.8139535188674927
0.5193798542022705 0.9167441725730896 -0.7364341020584106
0.5193798542022705 0.9234727025032043 -0.8139535188674927
0.5193798542022705 0.9324294924736023 -0.7984496355056763
0.5193798542022705 0.9301575422286987 -0.751937985420227
0.5193798542022705 0.9382207989692688 -0.7829457521438599
0.5193798542022705 0.93858402967453 -0.7674418687820435
0.5348837375640869 -0.45822861790657043 -0.39534884691238403
0.5348837375640869 -0.46172237396240234 -0.3798449635505676
0.5348837375640869 -0.46474331617355347 -0.3643410801887512
0.5348837375640869 -0.46571779251098633 -0.3488371968269348
0.5348837375640869 -0.4638148546218872 -0.3333333134651184
0.5348837375640869 -0.4592564105987549 -0.317829430103302
0.5348837375640869 -0.448178768157959 -0.41085273027420044
0.5348837375640869 -0.4493149518966675 -0.30232560634613037
0.5348837375640869 -0.4332670569419861 -0.42635661363601685
0.5348837375640869 -0.4354175329208374 -0.28682172298431396
0.5348837375640869 -0.4155498147010803 -0.27131783962249756
0.5348837375640869 -0.4035457968711853 -0.42635661363601685
0.5348837375640869 -0.3889462351799011 -0.41085273027420044
0.5348837375640869 -0.37772002816200256 -0.39534884691238403
0.5348837375640869 -0.3699657917022705 -0.3798449635505676
0.5348837375640869 -0.3697499632835388 -0.28682172298431396
0.5348837375640869 -0.37844908237457275 -0.27131783962249756
0.5348837375640869 -0.3638901710510254 -0.36434105038642883
0.5348837375640869 -0.36201220750808716 -0.3488371968269348
0.5348837375640869 -0.3614988327026367 -0.3333333134651184
0.5348837375640869 -0.3621949553489685 -0.317829430103302
0.5348837375640869 -0.36376243829727173 -0.30232560634613037
0.5348837375640869 -0.17895285785198212 -0.28682172298431396
0.5348837375640869 -0.163173109292984 -0.3333333134651184
0.5348837375640869 -0.16869887709617615 -0.317829430103302
0.5348837375640869 -0.17694224417209625 -0.30232560634613037
0.5348837375640869 -0.17452041804790497 -0.27131783962249756
0.5348837375640869 -0.16400086879730225 -0.25581395626068115
0.5348837375640869 -0.15084776282310486 -0.3488371968269348
0.5348837375640869 -0.13454186916351318 -0.3643410801887512
0.5348837375640869 -0.13911820948123932 -0.24031007289886475
0.5348837375640869 -0.12779127061367035 -0.3643410801887512
0.5348837375640869 -0.1106206476688385 -0.3488371968269348
0.5348837375640869 -0.11108149588108063 -0.24031007289886475
0.5348837375640869 -0.0999794527888298 -0.3333333134651184
0.5348837375640869 -0.09543855488300323 -0.317829430103302
0.5348837375640869 -0.09130123257637024 -0.30232560634613037
0.5348837375640869 -0.08917978405952454 -0.28682172298431396
0.5348837375640869 -0.09119310975074768 -0.27131783962249756
0.5348837375640869 -0.09649010747671127 -0.25581395626068115
0.5348837375640869 -0.0707612931728363 0.19379842281341553
0.5348837375640869 -0.07403688132762909 0.20930230617523193
0.5348837375640869 -0.07546375691890717 0.22480618953704834
0.5348837375640869 -0.07495640218257904 0.24031007289886475
0.5348837375640869 -0.07412354648113251 0.25581395626068115
0.5348837375640869 -0.07134227454662323 0.27131783962249756
0.5348837375640869 -0.05806412547826767 0.08527135848999023
0.5348837375640869 -0.06207115948200226 0.10077524185180664
0.5348837375640869 -0.06410183757543564 0.11627911776304245
0.5348837375640869 -0.06463427096605301 0.1317828893661499
0.5348837375640869 -0.06557486206293106 0.1472867727279663
0.5348837375640869 -0.06601139903068542 0.16279065608978271
0.5348837375640869 -0.06765756011009216 0.17829453945159912
0.5348837375640869 -0.06715552508831024 0.28682172298431396
0.5348837375640869 -0.06387428194284439 0.30232560634613037
0.5348837375640869 -0.06072026863694191 0.3178294897079468
0.5348837375640869 -0.055335767567157745 0.3333333730697632
0.5348837375640869 -0.04913590848445892 0.06976747512817383
0.5348837375640869 -0.04961264505982399 0.3488372564315796
0.5348837375640869 -0.04519108682870865 0.364341139793396
0.5348837375640869 -0.03928220644593239 0.37984490394592285
0.5348837375640869 -0.033744364976882935 0.05426359176635742
0.5348837375640869 -0.03284193575382233 0.39534878730773926
0.5348837375640869 -0.025559911504387856 0.41085267066955566
0.5348837375640869 -0.00850632879883051 0.038759708404541016
0.5348837375640869 -0.016414305195212364 0.42635655403137207
0.5348837375640869 -0.005590518936514854 0.4418604373931885
0.5348837375640869 0.005663583055138588 0.4573643207550049
0.5348837375640869 0.021257057785987854 0.02325582504272461
0.5348837375640869 0.0188419409096241 0.4728682041168213
0.5348837375640869 0.03429877758026123 0.4883720874786377
0.5348837375640869 0.046898163855075836 0.007751941680908203
0.5348837375640869 0.05259759724140167 0.5038759708404541
0.5348837375640869 0.06612282991409302 -0.007751941680908203
0.5348837375640869 0.08221893757581711 -0.02325582504272461
0.5348837375640869 0.0729922205209732 0.5193798542022705
0.5348837375640869 0.10048369318246841 -0.317829430103302
0.5348837375640869 0.09987973421812057 -0.30232560634613037
0.5348837375640869 0.09806282073259354 -0.038759708404541016
0.5348837375640869 0.09722115099430084 0.5348837375640869
0.5348837375640869 0.11467541754245758 -0.5348837375640869
0.5348837375640869 0.1126817837357521 -0.5193798542022705
0.5348837375640869 0.11148738861083984 -0.5038759708404541
0.5348837375640869 0.11138686537742615 -0.4883720874786377
0.5348837375640869 0.11217263340950012 -0.4728682041168213
0.5348837375640869 0.11341508477926254 -0.4573643207550049
0.5348837375640869 0.11470191925764084 -0.4418604373931885
0.5348837375640869 0.11560217291116714 -0.42635661363601685
0.5348837375640869 0.11595265567302704 -0.41085273027420044
0.5348837375640869 0.11558465659618378 -0.39534884691238403
0.5348837375640869 0.1136416643857956 -0.3798449635505676
0.5348837375640869 0.11140645295381546 -0.3643410801887512
0.5348837375640869 0.10769391804933548 -0.3488371968269348
0.5348837375640869 0.10337673872709274 -0.3333333134651184
0.5348837375640869 0.10154400765895844 -0.28682172298431396
0.5348837375640869 0.1107754111289978 -0.27131783962249756
0.5348837375640869 0.1295928955078125 -0.5813953876495361
0.5348837375640869 0.12396929413080215 -0.5658915042877197
0.5348837375640869 0.11772574484348297 -0.5503876209259033
0.5348837375640869 0.12575143575668335 -0.05426359176635742
0.5348837375640869 0.14308679103851318 -0.5968992114067078
0.5348837375640869 0.14151974022388458 0.5503876209259033
0.5348837375640869 0.150428906083107 -0.5968992114067078
0.5348837375640869 0.15963920950889587 -0.28682172298431396
0.5348837375640869 0.1500982642173767 -0.27131783962249756
0.5348837375640869 0.15031054615974426 -0.05426359176635742
0.5348837375640869 0.1630905270576477 -0.5813953876495361
0.5348837375640869 0.16744907200336456 -0.5658915042877197
0.5348837375640869 0.17249567806720734 -0.5503876209259033
0.5348837375640869 0.1755908876657486 -0.3333333134651184
0.5348837375640869 0.17058411240577698 -0.317829430103302
0.5348837375640869 0.16559147834777832 -0.30232560634613037
0.5348837375640869 0.17323364317417145 -0.038759708404541016
0.5348837375640869 0.17877157032489777 -0.5348837375640869
0.5348837375640869 0.18111181259155273 -0.5193798542022705
0.5348837375640869 0.1832084059715271 -0.5038759708404541
0.5348837375640869 0.18519021570682526 -0.4883720874786377
0.5348837375640869 0.18695145845413208 -0.4728682041168213
0.5348837375640869 0.18735738098621368 -0.4573643207550049
0.5348837375640869 0.18633630871772766 -0.4418604373931885
0.5348837375640869 0.18439212441444397 -0.42635661363601685
0.5348837375640869 0.18232271075248718 -0.41085273027420044
0.5348837375640869 0.18119382858276367 -0.39534884691238403
0.5348837375640869 0.1806330680847168 -0.3798449635505676
0.5348837375640869 0.1798652857542038 -0.3643410801887512
0.5348837375640869 0.17885375022888184 -0.3488371968269348
0.5348837375640869 0.18783235549926758 -0.02325582504272461
0.5348837375640869 0.20357678830623627 -0.007751941680908203
0.5348837375640869 0.22029438614845276 0.007751941680908203
0.5348837375640869 0.2113235592842102 0.5503876209259033
0.5348837375640869 0.23860378563404083 0.02325582504272461
0.5348837375640869 0.25873011350631714 0.038759708404541016
0.5348837375640869 0.27906644344329834 0.05426359176635742
0.5348837375640869 0.2715110778808594 0.5348837375640869
0.5348837375640869 0.2971881628036499 0.06976747512817383
0.5348837375640869 0.3116934597492218 0.08527135848999023
0.5348837375640869 0.30927178263664246 0.5193798542022705
