0.16279065608978271 0.039548590779304504 0.41085267066955566
0.16279065608978271 0.0397198311984539 0.42635655403137207
0.16279065608978271 0.03989982604980469 0.4418604373931885
0.16279064118862152 0.04027824103832245 0.4573643207550049
0.16279065608978271 0.04064438119530678 0.4728682041168213
0.16279065608978271 0.04121097922325134 0.4883720874786377
0.16279065608978271 0.042179591953754425 0.5038759708404541
0.16279065608978271 0.04276964068412781 0.5193798542022705
0.16279065608978271 0.04333934187889099 0.5348837375640869
0.16279065608978271 0.04369187355041504 0.5503876209259033
0.16279065608978271 0.043926775455474854 0.5658915042877197
0.16279065608978271 0.04378217086195946 0.5813953876495361
0.16279065608978271 0.043929435312747955 0.5968992710113525
0.16279065608978271 0.04390505701303482 0.612403154373169
0.16279065608978271 0.0442681610584259 0.6279069185256958
0.16279065608978271 0.044668663293123245 0.6434108018875122
0.16279065608978271 0.04516905918717384 0.6589146852493286
0.16279065608978271 0.04564743489027023 0.674418568611145
0.16279065608978271 0.046161849051713943 0.6899224519729614
0.16279065608978271 0.04670824110507965 0.7054263353347778
0.16279065608978271 0.04699285328388214 0.7209302186965942
0.16279065608978271 0.04691746458411217 0.7364341020584106
0.16279065608978271 0.04599781334400177 0.751937985420227
0.16279065608978271 0.043718740344047546 0.7674418687820435
0.16279065608978271 0.040311336517333984 0.7829457521438599
0.16279065608978271 0.2850628197193146 -0.9689922332763672
0.16279065608978271 0.276528924703598 -0.9534883499145508
0.16279065608978271 0.2752572000026703 -0.9379844069480896
0.16279065608978271 0.27489373087882996 -0.9224806427955627
0.16279065608978271 0.2751907706260681 -0.9069768190383911
0.16279065608978271 0.27589017152786255 -0.8914728164672852
0.16279065608978271 0.276866614818573 -0.8759689927101135
0.16279065608978271 0.2782830595970154 -0.8604651093482971
0.16279065608978271 0.27948543429374695 -0.8449612259864807
0.16279065608978271 0.2809292674064636 -0.8294574022293091
0.16279065608978271 0.28239625692367554 -0.8139535188674927
0.16279065608978271 0.2830970883369446 -0.7984496355056763
0.16279065608978271 0.28320667147636414 -0.7829457521438599
0.16279065608978271 0.2831082344055176 -0.7674418687820435
0.16279065608978271 0.2825791537761688 -0.751937985420227
0.16279065608978271 0.2821900248527527 -0.7364341020584106
0.16279065608978271 0.28218013048171997 -0.7209302186965942
0.16279065608978271 0.28224509954452515 -0.7054263353347778
0.16279065608978271 0.2823426127433777 -0.6899224519729614
0.16279065608978271 0.28217607736587524 -0.674418568611145
0.16279065608978271 0.2824314832687378 -0.6589146852493286
0.16279065608978271 0.28303757309913635 -0.643410861492157
0.16279065608978271 0.28301775455474854 -0.6279069781303406
0.16279065608978271 0.2829511761665344 -0.6124030947685242
0.16279065608978271 0.2838331162929535 -0.5968992114067078
0.16279065608978271 0.28359460830688477 -0.5813953876495361
0.16279065608978271 0.28309744596481323 -0.5658915042877197
0.16279065608978271 0.282736212015152 -0.5503876209259033
0.16279065608978271 0.2821868658065796 -0.5348837375640869
0.16279065608978271 0.2820034623146057 -0.5193798542022705
0.16279065608978271 0.2818942368030548 -0.5038759708404541
0.16279065608978271 0.2819712162017822 -0.4883720874786377
0.16279065608978271 0.2819713354110718 -0.4728682041168213
0.16279065608978271 0.28229984641075134 -0.4573643207550049
0.16279065608978271 0.2828046381473541 -0.4418604373931885
0.16279065608978271 0.28312578797340393 -0.42635661363601685
0.16279065608978271 0.28357452154159546 -0.41085273027420044
0.16279065608978271 0.2835221290588379 -0.39534884691238403
0.16279065608978271 0.2834455072879791 -0.3798449635505676
0.16279065608978271 0.2832152545452118 -0.3643410801887512
0.16279065608978271 0.28376784920692444 -0.3488371968269348
0.16279065608978271 0.284696489572525 -0.3333333134651184
0.16279065608978271 0.2854023873806 -0.317829430103302
0.16279065608978271 0.2861635386943817 -0.30232560634613037
0.16279065608978271 0.28656822443008423 -0.28682172298431396
0.16279065608978271 0.2865753769874573 -0.24031007289886475
0.16279065608978271 0.28591546416282654 -0.22480618953704834
0.16279065608978271 0.2861115634441376 -0.20930230617523193
0.16279065608978271 0.2850067913532257 -0.19379842281341553
0.16279065608978271 0.2839767634868622 -0.1782945990562439
0.16279065608978271 0.28412675857543945 -0.1627907156944275
0.16279065608978271 0.2846730053424835 -0.14728683233261108
0.16279065608978271 0.2853781282901764 -0.13178294897079468
0.16279065608978271 0.2860088050365448 -0.11627906560897827
0.16279065608978271 0.2862200438976288 -0.10077518224716187
0.16279065608978271 0.28624284267425537 -0.08527129888534546
0.16279065608978271 0.28644439578056335 -0.06976741552352905
0.16279065608978271 0.2861899137496948 -0.05426359176635742
0.16279065608978271 0.2849893271923065 -0.038759708404541016
0.16279065608978271 0.28486594557762146 -0.02325582504272461
0.16279065608978271 0.28545117378234863 -0.007751941680908203
0.16279065608978271 0.2854088246822357 0.007751941680908203
0.16279065608978271 0.2855421304702759 0.02325582504272461
0.16279065608978271 0.28623101115226746 0.038759708404541016
0.16279065608978271 0.2868201434612274 0.05426359176635742
0.16279065608978271 0.2951356768608093 -0.9844961166381836
0.16279065608978271 0.28712230920791626 -0.27131783962249756
0.16279065608978271 0.2873189449310303 -0.25581395626068115
0.16279065608978271 0.28777867555618286 0.06976747512817383
0.16279065608978271 0.29384106397628784 0.08527135848999023
0.16279065608978271 0.3021484315395355 0.10077524185180664
0.16279065608978271 0.29279354214668274 0.11627912521362305
0.17829453945159912 -0.24145174026489258 0.08527135848999023
0.17829453945159912 -0.2467249184846878 0.10077524185180664
0.17829453945159912 -0.2348582148551941 -0.9844961166381836
0.17829453945159912 -0.22516776621341705 -0.9689922332763672
0.17829453945159912 -0.22499607503414154 -0.7829457521438599
0.17829453945159912 -0.22569747269153595 -0.7674418687820435
0.17829453945159912 -0.2252383977174759 -0.751937985420227
0.17829453945159912 -0.22491371631622314 -0.7364341020584106
0.17829453945159912 -0.22485128045082092 -0.7209302186965942
0.17829453945159912 -0.22512947022914886 -0.6589146852493286
0.17829453945159912 -0.22535990178585052 -0.6434108018875122
0.17829453945159912 -0.22513388097286224 -0.6279069781303406
0.17829453945159912 -0.22508028149604797 -0.11627906560897827
0.17829453945159912 -0.2260848879814148 -0.10077518224716187
0.17829453945159912 -0.22735247015953064 -0.08527129888534546
0.17829453945159912 -0.2286335825920105 -0.06976741552352905
0.17829453945159912 -0.22977247834205627 -0.05426359176635742
0.17829453945159912 -0.22927457094192505 -0.038759708404541016
0.17829453945159912 -0.23000407218933105 -0.02325582504272461
0.17829453945159912 -0.23072899878025055 -0.007751941680908203
0.17829453945159912 -0.2311866134405136 0.007751941680908203
0.17829453945159912 -0.23198220133781433 0.02325582504272461
0.17829453945159912 -0.23299741744995117 0.038759708404541016
0.17829453945159912 -0.2339128851890564 0.05426359176635742
0.17829453945159912 -0.23489414155483246 0.06976747512817383
0.17829453945159912 -0.23528140783309937 0.11627913266420364
0.17829453945159912 -0.21941927075386047 -0.9534883499145508
0.17829453945159912 -0.21819496154785156 -0.9379844665527344
0.17829453945159912 -0.2170349657535553 -0.9224806427955627
0.17829453945159912 -0.21645039319992065 -0.9069767594337463
0.17829453945159912 -0.21684697270393372 -0.8914728760719299
0.17829453945159912 -0.2181686908006668 -0.8759690523147583
0.17829453945159912 -0.21963536739349365 -0.8604651093482971
0.17829453945159912 -0.2211652398109436 -0.8449612259864807
0.17829453945159912 -0.22288161516189575 -0.8294573426246643
0.17829453945159912 -0.22393223643302917 -0.8139535784721375
0.17829453945159912 -0.2244809865951538 -0.7984496355056763
0.17829452455043793 -0.22477971017360687 -0.7054262757301331
0.17829453945159912 -0.224602609872818 -0.6899225115776062
0.17829453945159912 -0.22471429407596588 -0.674418568611145
0.17829453945159912 -0.22464466094970703 -0.6124030947685242
0.17829453945159912 -0.22454021871089935 -0.596899151802063
0.17829453945159912 -0.2238900363445282 -0.5813953876495361
0.17829453945159912 -0.22326558828353882 -0.5658915042877197
0.17829453945159912 -0.22267526388168335 -0.5503876209259033
0.17829453945159912 -0.2215304970741272 -0.5348837375640869
0.17829453945159912 -0.22059416770935059 -0.5193798542022705
0.17829453945159912 -0.21997405588626862 -0.5038759708404541
0.17829453945159912 -0.21997202932834625 -0.4883720874786377
0.17829453945159912 -0.2198818475008011 -0.4728682339191437
0.17829453945159912 -0.22038201987743378 -0.4573643207550049
0.17829453945159912 -0.2211582064628601 -0.4418604373931885
0.17829453945159912 -0.2213515043258667 -0.42635661363601685
0.17829453945159912 -0.22182036936283112 -0.41085273027420044
0.17829453945159912 -0.2218150794506073 -0.39534884691238403
0.17829453945159912 -0.2221631109714508 -0.3798449635505676
0.17829453945159912 -0.22204707562923431 -0.3643410801887512
0.17829453945159912 -0.22262978553771973 -0.3488372266292572
0.17829453945159912 -0.22319793701171875 -0.3333333134651184
0.17829452455043793 -0.2233435958623886 -0.317829430103302
0.17829453945159912 -0.22369244694709778 -0.30232560634613037
0.17829453945159912 -0.22389738261699677 -0.28682172298431396
0.17829453945159912 -0.2245170921087265 -0.27131783962249756
0.17829453945159912 -0.2245643138885498 -0.25581395626068115
0.17829453945159912 -0.22369533777236938 -0.24031007289886475
0.17829453945159912 -0.22264797985553741 -0.22480618953704834
0.17829453945159912 -0.22227144241333008 -0.20930230617523193
0.17829453945159912 -0.2212696224451065 -0.19379842281341553
0.17829453945159912 -0.22064904868602753 -0.1782945990562439
0.17829453945159912 -0.22173333168029785 -0.1627907156944275
0.17829452455043793 -0.2225639671087265 -0.1472868174314499
0.17829453945159912 -0.22390300035476685 -0.13178294897079468
0.17829453945159912 -0.044899579137563705 0.1317828893661499
0.17829453945159912 -0.044009849429130554 0.1472867727279663
0.17829453945159912 -0.04310118407011032 0.16279065608978271
0.17829453945159912 -0.042061109095811844 0.17829453945159912
0.17829453945159912 -0.04076637327671051 0.19379842281341553
0.17829453945159912 -0.0398746132850647 0.20930230617523193
0.17829453945159912 -0.03913642093539238 0.22480618953704834
0.17829453945159912 -0.03900226205587387 0.6279069185256958
0.17829453945159912 -0.03994091600179672 0.6434108018875122
0.17829453945159912 -0.04098447412252426 0.6589146852493286
0.17829453945159912 -0.041978444904088974 0.674418568611145
0.17829453945159912 -0.042468853294849396 0.6899224519729614
0.17829453945159912 -0.042167481034994125 0.7054263353347778
0.17829453945159912 -0.04066435247659683 0.7209302186965942
0.17829453945159912 -0.0385582260787487 0.24031007289886475
0.17829453945159912 -0.03802380710840225 0.25581395626068115
0.17829453945159912 -0.037762369960546494 0.27131783962249756
0.17829453945159912 -0.037466779351234436 0.28682172298431396
0.17829452455043793 -0.03733616694808006 0.302325576543808
0.17829453945159912 -0.03743704780936241 0.3178294897079468
0.17829453945159912 -0.03726734220981598 0.3333333730697632
0.17829453945159912 -0.036913253366947174 0.3488372564315796
0.17829453945159912 -0.03683837503194809 0.364341139793396
0.17829453945159912 -0.03667331114411354 0.37984490394592285
0.17829453945159912 -0.0365392304956913 0.39534878730773926
0.17829453945159912 -0.03645101562142372 0.41085267066955566
0.17829452455043793 -0.036467935889959335 0.42635655403137207
0.17829453945159912 -0.0365435816347599 0.4418604373931885
0.17829453945159912 -0.03670450299978256 0.4573643207550049
0.17829453945159912 -0.03688710555434227 0.4728682041168213
0.17829452455043793 -0.03714674711227417 0.4883720576763153
0.17829453945159912 -0.037675920873880386 0.5038759708404541
0.17829452455043793 -0.03813070058822632 0.5193798542022705
0.17829453945159912 -0.03825271874666214 0.5348836779594421
0.17829453945159912 -0.038282472640275955 0.5503876209259033
0.17829453945159912 -0.038426581770181656 0.5658915042877197
0.17829453945159912 -0.038262467831373215 0.5813953876495361
0.17829453945159912 -0.038348451256752014 0.5968992710113525
0.17829452455043793 -0.03857265040278435 0.6124030947685242
0.17829453945159912 -0.03864588588476181 0.7364341020584106
0.17829453945159912 -0.03630700334906578 0.7519380450248718
0.17829453945159912 -0.03136778622865677 0.7674418687820435
0.17829453945159912 -0.025674887001514435 0.7829457521438599
0.17829453945159912 -0.010725138708949089 0.7984496355056763
0.17829453945159912 0.020720727741718292 0.7829457521438599
0.17829453945159912 0.009185532107949257 0.7984496355056763
0.17829453945159912 0.038377758115530014 0.1472867727279663
0.17829453945159912 0.03872429206967354 0.16279065608978271
0.17829453945159912 0.03728381171822548 0.17829453945159912
0.17829453945159912 0.03560350835323334 0.19379842281341553
0.17829453945159912 0.03443828970193863 0.20930230617523193
0.17829453945159912 0.033857524394989014 0.22480618953704834
0.17829453945159912 0.03366880118846893 0.24031007289886475
0.17829453945159912 0.03369196504354477 0.25581395626068115
0.17829453945159912 0.033893898129463196 0.27131783962249756
0.17829453945159912 0.03401794657111168 0.28682172298431396
0.17829453945159912 0.03416290506720543 0.30232560634613037
0.17829453945159912 0.034269724041223526 0.3178294897079468
0.17829453945159912 0.03427558019757271 0.3333333730697632
0.17829453945159912 0.03418227657675743 0.3488372564315796
0.17829453945159912 0.03423970192670822 0.364341139793396
0.17829453945159912 0.034229934215545654 0.37984490394592285
0.17829453945159912 0.034284137189388275 0.39534878730773926
0.17829453945159912 0.03438844531774521 0.41085267066955566
0.17829453945159912 0.03453470766544342 0.42635655403137207
0.17829453945159912 0.03468522056937218 0.4418604373931885
0.17829453945159912 0.03489251062273979 0.4573643207550049
0.17829453945159912 0.03506871685385704 0.4728682041168213
0.17829453945159912 0.035233888775110245 0.4883720874786377
0.17829453945159912 0.03561972454190254 0.5038759708404541
0.17829453945159912 0.03586046025156975 0.5193798542022705
0.17829453945159912 0.035948723554611206 0.5348837375640869
0.17829453945159912 0.03605011850595474 0.5503876209259033
0.17829453945159912 0.036173347383737564 0.5658915042877197
0.17829453945159912 0.03596452996134758 0.5813953876495361
0.17829453945159912 0.03593161702156067 0.5968992710113525
0.17829453945159912 0.035857558250427246 0.612403154373169
0.17829453945159912 0.03596188873052597 0.6279069185256958
0.17829453945159912 0.03618359938263893 0.6434108018875122
0.17829453945159912 0.03638528287410736 0.6589146852493286
0.17829453945159912 0.036442384123802185 0.674418568611145
0.17829453945159912 0.03645769879221916 0.6899224519729614
0.17829453945159912 0.036271050572395325 0.7054263353347778
0.17829453945159912 0.03567006438970566 0.7209302186965942
0.17829453945159912 0.03450746461749077 0.7364341020584106
0.17829453945159912 0.031749848276376724 0.751937985420227
0.17829453945159912 0.02720954269170761 0.7674418687820435
0.17829453945159912 0.03949263319373131 0.1317828893661499
0.17829453945159912 0.23314526677131653 -0.9534883499145508
0.17829453945159912 0.23186519742012024 -0.9379844665527344
0.17829453945159912 0.23148560523986816 -0.9224807024002075
0.17829453945159912 0.2318268120288849 -0.9069766998291016
0.17829453945159912 0.2325035035610199 -0.8914728760719299
0.17829453945159912 0.2335089147090912 -0.8759689927101135
0.17829453945159912 0.23497408628463745 -0.8604650497436523
0.17829453945159912 0.2361837923526764 -0.8449612855911255
0.17829453945159912 0.23766300082206726 -0.8294573426246643
0.17829453945159912 0.2390647977590561 -0.8139535188674927
0.17829453945159912 0.23980216681957245 -0.7984496355056763
0.17829453945159912 0.24002152681350708 -0.7829457521438599
0.17829453945159912 0.24012285470962524 -0.7674418687820435
0.17829453945159912 0.23976749181747437 -0.751937985420227
0.17829453945159912 0.23962810635566711 -0.7364341020584106
0.17829453945159912 0.23961511254310608 -0.7209302186965942
0.17829453945159912 0.23961393535137177 -0.7054263353347778
0.17829453945159912 0.23960986733436584 -0.6899224519729614
0.17829453945159912 0.2393081784248352 -0.674418568611145
0.17829453945159912 0.23951570689678192 -0.6589146852493286
0.17829453945159912 0.24014180898666382 -0.643410861492157
0.17829453945159912 0.24009154736995697 -0.6279069781303406
0.17829453945159912 0.23993338644504547 -0.6124030947685242
0.17829453945159912 0.24024039506912231 -0.5658915042877197
0.17829453945159912 0.23994044959545135 -0.5503876209259033
0.17829453945159912 0.23943591117858887 -0.5348837375640869
0.17829453945159912 0.23934072256088257 -0.5193798542022705
0.17829453945159912 0.23903560638427734 -0.5038759708404541
0.17829453945159912 0.23902469873428345 -0.4883720874786377
0.17829453945159912 0.23898650705814362 -0.4728682041168213
0.17829453945159912 0.23922380805015564 -0.4573643207550049
0.17829453945159912 0.23981359601020813 -0.4418604373931885
0.17829453945159912 0.24022679030895233 -0.42635661363601685
0.17829453945159912 0.2506852149963379 -0.9844961166381836
0.17829453945159912 0.24165621399879456 -0.9689922332763672
0.17829453945159912 0.24081747233867645 -0.596899151802063
0.17829453945159912 0.2406306266784668 -0.5813953876495361
0.17829453945159912 0.2407868355512619 -0.41085273027420044
0.17829453945159912 0.2407054454088211 -0.39534884691238403
0.17829453945159912 0.24070656299591064 -0.3798449635505676
0.17829453945159912 0.24038654565811157 -0.3643410801887512
0.17829453945159912 0.2406807690858841 -0.3488371968269348
0.17829453945159912 0.24115493893623352 -0.3333333134651184
0.17829453945159912 0.24120713770389557 -0.317829430103302
0.17829453945159912 0.2417490929365158 -0.30232560634613037
0.17829453945159912 0.24186210334300995 -0.28682172298431396
0.17829453945159912 0.24254243075847626 -0.27131783962249756
0.17829453945159912 0.2429407835006714 -0.25581395626068115
0.17829453945159912 0.24241280555725098 -0.24031007289886475
0.17829453945159912 0.24201920628547668 -0.22480618953704834
0.17829453945159912 0.24238020181655884 -0.20930229127407074
0.17829453945159912 0.24159593880176544 -0.19379842281341553
0.17829453945159912 0.24058397114276886 -0.1782945990562439
0.17829453945159912 0.2405741810798645 -0.1627907156944275
0.17829453945159912 0.24060885608196259 -0.14728683233261108
0.17829453945159912 0.24085402488708496 -0.13178294897079468
0.17829453945159912 0.24094855785369873 -0.11627905815839767
0.17829453945159912 0.24097032845020294 -0.10077518224716187
0.17829452455043793 0.24123278260231018 -0.08527129888534546
0.17829453945159912 0.2417093813419342 -0.06976741552352905
0.17829453945159912 0.24208509922027588 -0.05426359176635742
0.17829453945159912 0.24151869118213654 -0.03875970467925072
0.17829455435276031 0.24189940094947815 -0.02325582690536976
0.17829453945159912 0.24271421134471893 -0.007751941680908203
0.17829453945159912 0.24299871921539307 0.00775194214656949
0.17829453945159912 0.24329543113708496 0.02325582504272461
0.17829453945159912 0.2441226691007614 0.038759708404541016
0.17829453945159912 0.24546529352664948 0.05426359176635742
0.17829453945159912 0.24811622500419617 0.06976747512817383
0.17829453945159912 0.255659282207489 0.08527135848999023
0.17829453945159912 0.253149151802063 0.11627912521362305
0.17829453945159912 0.25949472188949585 0.10077524185180664
0.19379842281341553 -0.19652940332889557 0.08527135848999023
0.19379842281341553 -0.20400968194007874 0.10077524185180664
0.19379842281341553 -0.18956539034843445 -0.9844961166381836
0.19379842281341553 -0.1787247657775879 -0.9689922332763672
0.19379842281341553 -0.17885421216487885 -0.7829457521438599
0.19379842281341553 -0.17962497472763062 -0.7674418687820435
0.19379842281341553 -0.1790536344051361 -0.751937985420227
0.19379842281341553 -0.17844316363334656 -0.7364341020584106
0.19379842281341553 -0.17860767245292664 -0.643410861492157
0.19379842281341553 -0.17951461672782898 -0.05426359176635742
0.19379842281341553 -0.1793464720249176 -0.038759708404541016
0.19379842281341553 -0.18040111660957336 -0.02325582504272461
0.19379842281341553 -0.18158148229122162 -0.007751941680908203
0.19379842281341553 -0.18235214054584503 0.007751941680908203
0.19379842281341553 -0.18330475687980652 0.02325582504272461
0.19379842281341553 -0.1845589578151703 0.038759708404541016
0.19379842281341553 -0.18607795238494873 0.05426359176635742
0.19379842281341553 -0.1884462535381317 0.06976747512817383
0.19379842281341553 -0.1914421170949936 0.11627912521362305
0.19379842281341553 -0.17079800367355347 -0.9534883499145508
0.19379842281341553 -0.16907083988189697 -0.9379844665527344
0.19379842281341553 -0.16769656538963318 -0.9224807024002075
0.19379842281341553 -0.16702184081077576 -0.9069766998291016
0.19379842281341553 -0.16744227707386017 -0.8914728760719299
0.19379842281341553 -0.16879096627235413 -0.8759689331054688
0.19379842281341553 -0.17069798707962036 -0.8604651689529419
0.19379842281341553 -0.17269109189510345 -0.8449612259864807
0.19379842281341553 -0.17531484365463257 -0.8294573426246643
0.19379842281341553 -0.17696624994277954 -0.8139535188674927
0.19379842281341553 -0.1779763549566269 -0.7984496355056763
0.19379842281341553 -0.1781320422887802 -0.7209302186965942
0.19379842281341553 -0.17772828042507172 -0.7054263353347778
0.19379842281341553 -0.177345409989357 -0.6899224519729614
0.19379842281341553 -0.17741511762142181 -0.674418568611145
0.19379842281341553 -0.17808645963668823 -0.6589146852493286
0.19379842281341553 -0.17823922634124756 -0.6279069781303406
0.19379842281341553 -0.17731910943984985 -0.6124030947685242
0.19379842281341553 -0.17691464722156525 -0.5968992114067078
0.19379842281341553 -0.1758265346288681 -0.5813953876495361
0.19379842281341553 -0.17480796575546265 -0.5658915042877197
0.19379842281341553 -0.17378060519695282 -0.5503876209259033
0.19379842281341553 -0.17233692109584808 -0.5348837375640869
0.19379842281341553 -0.17112840712070465 -0.5193798542022705
0.19379842281341553 -0.1704980432987213 -0.5038759708404541
0.19379842281341553 -0.17056310176849365 -0.4883720874786377
0.19379842281341553 -0.17062979936599731 -0.4728682041168213
0.19379842281341553 -0.17143574357032776 -0.4573643207550049
0.19379842281341553 -0.1727253645658493 -0.4418604373931885
0.19379842281341553 -0.17317062616348267 -0.42635661363601685
0.19379842281341553 -0.17373745143413544 -0.41085273027420044
0.19379842281341553 -0.1737661212682724 -0.39534884691238403
0.19379843771457672 -0.17383749783039093 -0.3798449635505676
0.19379842281341553 -0.17325612902641296 -0.3643410801887512
0.19379843771457672 -0.1732424944639206 -0.3488371968269348
0.19379842281341553 -0.17343832552433014 -0.3333333134651184
0.19379842281341553 -0.1730615198612213 -0.317829430103302
0.19379840791225433 -0.17321805655956268 -0.30232560634613037
0.19379842281341553 -0.17332156002521515 -0.28682172298431396
0.19379842281341553 -0.17401230335235596 -0.27131783962249756
0.19379842281341553 -0.17384830117225647 -0.25581395626068115
0.19379842281341553 -0.17273762822151184 -0.24031007289886475
0.19379842281341553 -0.17156070470809937 -0.22480618953704834
0.19379842281341553 -0.17118266224861145 -0.20930230617523193
0.19379842281341553 -0.1699959635734558 -0.19379842281341553
0.19379842281341553 -0.1689971387386322 -0.1782945990562439
0.19379842281341553 -0.1694919466972351 -0.1627907156944275
0.19379842281341553 -0.16997581720352173 -0.14728683233261108
0.19379842281341553 -0.17131078243255615 -0.13178294897079468
0.19379842281341553 -0.1728196144104004 -0.11627906560897827
0.19379842281341553 -0.17448553442955017 -0.10077518224716187
0.19379842281341553 -0.1763087511062622 -0.08527129888534546
0.19379842281341553 -0.1780948042869568 -0.06976741552352905
0.19379842281341553 -0.0339592769742012 0.1317828893661499
0.19379842281341553 -0.031372666358947754 0.1472867727279663
0.19379842281341553 -0.03128737956285477 0.16279065608978271
0.19379842281341553 -0.029569536447525024 0.17829453945159912
0.19379842281341553 -0.026763062924146652 0.19379842281341553
0.19379842281341553 -0.024480096995830536 0.20930230617523193
0.19379842281341553 -0.022343145683407784 0.22480618953704834
0.19379842281341553 -0.0204441137611866 0.24031007289886475
0.19379842281341553 -0.019444935023784637 0.25581395626068115
0.19379842281341553 -0.018759777769446373 0.27131783962249756
0.19379842281341553 -0.01800544373691082 0.28682172298431396
0.19379842281341553 -0.0170572679489851 0.30232560634613037
0.19379842281341553 -0.01707714982330799 0.3178294897079468
0.19379842281341553 -0.01636887528002262 0.3333333730697632
0.19379842281341553 -0.015136966481804848 0.3488372564315796
0.19379842281341553 -0.014238858595490456 0.364341139793396
0.19379842281341553 -0.01379308383911848 0.37984490394592285
0.19379842281341553 -0.01330828107893467 0.39534878730773926
0.19379842281341553 -0.012647856026887894 0.41085267066955566
0.19379842281341553 -0.012502011843025684 0.42635655403137207
0.19379842281341553 -0.012465216219425201 0.4418604373931885
0.19379842281341553 -0.012254608795046806 0.4573643207550049
0.19379842281341553 -0.012390926480293274 0.4728682041168213
0.19379842281341553 -0.01264929212629795 0.4883720874786377
0.19379842281341553 -0.01281183771789074 0.5038759708404541
0.19379842281341553 -0.013114778324961662 0.5193798542022705
0.19379842281341553 -0.013044439256191254 0.5348837375640869
0.19379842281341553 -0.012783512473106384 0.5503876209259033
0.19379842281341553 -0.012734873220324516 0.5658915042877197
0.19379842281341553 -0.012385054491460323 0.5813953876495361
0.19379842281341553 -0.012351613491773605 0.5968992710113525
0.19379842281341553 -0.012553172186017036 0.612403154373169
0.19379842281341553 -0.01275175902992487 0.6279069185256958
0.19379842281341553 -0.013546044938266277 0.6434108018875122
0.19379842281341553 -0.01398327387869358 0.6589146852493286
0.19379842281341553 -0.013204557821154594 0.674418568611145
0.19379842281341553 -0.011665012687444687 0.6899224519729614
0.19379842281341553 -0.008947496302425861 0.7054263353347778
0.19379842281341553 0.002054511336609721 0.7054263353347778
0.19379842281341553 0.02213273197412491 0.19379842281341553
0.19379842281341553 0.01980241946876049 0.20930230617523193
0.19379842281341553 0.018033578991889954 0.22480618953704834
0.19379842281341553 0.016658777371048927 0.24031007289886475
0.19379842281341553 0.015880821272730827 0.25581395626068115
0.19379842281341553 0.015332309529185295 0.27131783962249756
0.19379842281341553 0.014663860201835632 0.28682172298431396
0.19379842281341553 0.013928575441241264 0.30232560634613037
0.19379842281341553 0.013772143051028252 0.3178294897079468
0.19379842281341553 0.013079086318612099 0.3333333730697632
0.19379840791225433 0.012049149721860886 0.3488372564315796
0.19379842281341553 0.011325204744935036 0.364341139793396
0.19379842281341553 0.010913567617535591 0.37984490394592285
0.19379842281341553 0.010489515960216522 0.39534878730773926
0.19379842281341553 0.009987615048885345 0.4108526408672333
0.19379842281341553 0.009863751009106636 0.42635655403137207
0.19379842281341553 0.009875628165900707 0.44186046719551086
0.19379842281341553 0.00974277127534151 0.4573643207550049
0.19379842281341553 0.009903175756335258 0.4728682041168213
0.19379840791225433 0.01012168824672699 0.4883720874786377
0.19379842281341553 0.010323054157197475 0.5038759708404541
0.19379842281341553 0.010645153932273388 0.5193798542022705
0.19379842281341553 0.010643688961863518 0.5348837375640869
0.19379842281341553 0.01066851057112217 0.5503876209259033
0.19379843771457672 0.010763118043541908 0.5658915042877197
0.19379842281341553 0.010472675785422325 0.5813953876495361
0.19379842281341553 0.01042959839105606 0.5968992710113525
0.19379842281341553 0.010474065318703651 0.612403154373169
0.19379842281341553 0.010588551871478558 0.6279069185256958
0.19379842281341553 0.011052777990698814 0.6434108018875122
0.19379842281341553 0.011269801296293736 0.6589146852493286
0.19379842281341553 0.010600968264043331 0.6744186282157898
0.19379843771457672 0.00946228951215744 0.6899224519729614
0.19379842281341553 0.026857445016503334 0.1317828893661499
0.19379843771457672 0.025142064318060875 0.1472867727279663
0.19379842281341553 0.0249381922185421 0.16279065608978271
0.19379842281341553 0.024051405489444733 0.17829453945159912
0.19379842281341553 0.1873963624238968 -0.9534883499145508
0.19379842281341553 0.18553750216960907 -0.9379844665527344
0.19379842281341553 0.18473570048809052 -0.9224806427955627
0.19379842281341553 0.18483570218086243 -0.9069768190383911
0.19379842281341553 0.18529340624809265 -0.8914729356765747
0.19379842281341553 0.1861003041267395 -0.8759689927101135
0.19379842281341553 0.18773658573627472 -0.8604650497436523
0.19379842281341553 0.18905943632125854 -0.8449612259864807
0.19379842281341553 0.1909632682800293 -0.8294572830200195
0.19379842281341553 0.19251929223537445 -0.8139535188674927
0.19379842281341553 0.19346380233764648 -0.7984496355056763
0.19379842281341553 0.19362260401248932 -0.7829457521438599
0.19379842281341553 0.1932566612958908 -0.7674418687820435
0.19379842281341553 0.19230113923549652 -0.751937985420227
0.19379842281341553 0.19163778424263 -0.7364341020584106
0.19379842281341553 0.19092388451099396 -0.7209302186965942
0.19379842281341553 0.1903550922870636 -0.7054263353347778
0.19379842281341553 0.19005370140075684 -0.6899224519729614
0.19379842281341553 0.1894855797290802 -0.674418568611145
0.19379842281341553 0.18968646228313446 -0.6589146852493286
0.19379842281341553 0.1905694603919983 -0.643410861492157
0.19379842281341553 0.19041810929775238 -0.6279069781303406
0.19379842281341553 0.18987205624580383 -0.6124030947685242
0.19379842281341553 0.1907052993774414 -0.5968992114067078
0.19379842281341553 0.18998786807060242 -0.5813953876495361
0.19379842281341553 0.18902263045310974 -0.5658915042877197
0.19379842281341553 0.18820127844810486 -0.5503876209259033
0.19379842281341553 0.18739011883735657 -0.5348837375640869
0.19379842281341553 0.18719172477722168 -0.5193798542022705
0.19379842281341553 0.18658478558063507 -0.5038759708404541
0.19379842281341553 0.18643274903297424 -0.4883720874786377
0.19379842281341553 0.18667307496070862 -0.4728682041168213
0.19379842281341553 0.18717370927333832 -0.4573643207550049
0.19379842281341553 0.18814557790756226 -0.4418604373931885
0.19379842281341553 0.18897537887096405 -0.42635661363601685
0.19379842281341553 0.18996690213680267 -0.41085273027420044
0.19379842281341553 0.1896117627620697 -0.39534884691238403
0.19379842281341553 0.18936383724212646 -0.3798449635505676
0.19379842281341553 0.1885647475719452 -0.3643410801887512
0.19379842281341553 0.18829190731048584 -0.3488371968269348
0.19379842281341553 0.188248872756958 -0.3333333134651184
0.19379842281341553 0.18756741285324097 -0.317829430103302
0.19379842281341553 0.18807730078697205 -0.30232560634613037
0.19379842281341553 0.18789640069007874 -0.28682172298431396
0.19379842281341553 0.18869492411613464 -0.27131783962249756
0.19379842281341553 0.1894243061542511 -0.25581395626068115
0.19379842281341553 0.18915368616580963 -0.24031007289886475
0.19379842281341553 0.18881067633628845 -0.22480618953704834
0.19379842281341553 0.189382404088974 -0.20930230617523193
0.19379842281341553 0.18848931789398193 -0.19379842281341553
0.19379842281341553 0.18684932589530945 -0.1782945990562439
0.19379842281341553 0.18651525676250458 -0.1627907156944275
0.19379842281341553 0.18607959151268005 -0.14728683233261108
0.19379842281341553 0.1861841380596161 -0.13178294897079468
0.19379842281341553 0.18600578606128693 -0.11627906560897827
0.19379842281341553 0.1861540973186493 -0.10077518224716187
0.19379842281341553 0.18698301911354065 -0.08527129888534546
0.19379842281341553 0.18782800436019897 -0.06976741552352905
0.19379842281341553 0.1886402666568756 -0.05426359176635742
0.19379842281341553 0.18863464891910553 -0.038759708404541016
0.19379842281341553 0.18971452116966248 -0.02325582504272461
0.19379842281341553 0.19088461995124817 -0.007751941680908203
0.19379842281341553 0.19152683019638062 0.007751941680908203
0.19379842281341553 0.19218853116035461 0.02325582504272461
0.19379842281341553 0.19317862391471863 0.038759708404541016
0.19379842281341553 0.20668235421180725 -0.9844961166381836
0.19379842281341553 0.19650861620903015 -0.9689922332763672
0.19379842281341553 0.1950901597738266 0.05426359549164772
0.19379840791225433 0.19874870777130127 0.06976747512817383
0.19379842281341553 0.2073490172624588 0.08527135848999023
0.19379842281341553 0.20766860246658325 0.11627912521362305
0.19379842281341553 0.21182675659656525 0.10077524185180664
0.20930230617523193 -0.1361585259437561 0.10077524185180664
0.20930230617523193 -0.12706434726715088 -0.9844961166381836
0.20930230617523193 -0.12885254621505737 0.08527135848999023
0.20930230617523193 -0.11485210806131363 -0.9689922332763672
0.20930230617523193 -0.10393331944942474 -0.9534883499145508
0.20930230617523193 -0.10222787410020828 -0.9379844665527344
0.20930230617523193 -0.10078868269920349 -0.9224806427955627
0.20930230617523193 -0.10152923315763474 -0.8759689927101135
0.20930230617523193 -0.1031285896897316 -0.8604650497436523
0.20930230617523193 -0.1045672744512558 -0.8449612259864807
0.20930230617523193 -0.10678908973932266 -0.8294572830200195
0.20930230617523193 -0.10838793963193893 -0.8139535188674927
0.20930230617523193 -0.1095418632030487 -0.7984496355056763
0.20930230617523193 -0.11051260679960251 -0.7829457521438599
0.20930230617523193 -0.11083938181400299 -0.7674418687820435
0.20930230617523193 -0.11013154685497284 -0.751937985420227
0.20930230617523193 -0.10929368436336517 -0.7364341020584106
0.20930230617523193 -0.10867278277873993 -0.7209302186965942
0.20930230617523193 -0.10809995234012604 -0.7054263353347778
0.20930230617523193 -0.10762399435043335 -0.6899224519729614
0.20930230617523193 -0.10772208869457245 -0.674418568611145
0.20930230617523193 -0.10831539332866669 -0.6589146852493286
0.20930230617523193 -0.10929218679666519 -0.6434108018875122
0.20930230617523193 -0.10909663140773773 -0.6279069781303406
0.20930230617523193 -0.10842426121234894 -0.6124030947685242
0.20930230617523193 -0.10820289701223373 -0.5968992114067078
0.20930230617523193 -0.10729334503412247 -0.5813953876495361
0.20930230617523193 -0.10629849135875702 -0.5658915042877197
0.20930230617523193 -0.10522817075252533 -0.5503876209259033
0.20930230617523193 -0.10439947247505188 -0.5348837375640869
0.20930230617523193 -0.10354436933994293 -0.5193798542022705
0.20930230617523193 -0.10305006802082062 -0.5038759708404541
0.20930230617523193 -0.10311101377010345 -0.4883720874786377
0.20930230617523193 -0.10344280302524567 -0.4728682041168213
0.20930230617523193 -0.10421827435493469 -0.4573643207550049
0.20930230617523193 -0.10543027520179749 -0.4418604373931885
0.20930230617523193 -0.10610709339380264 -0.42635661363601685
0.20930230617523193 -0.10686977207660675 -0.41085273027420044
0.20930230617523193 -0.10671044141054153 -0.39534884691238403
0.20930230617523193 -0.10648408532142639 -0.3798449635505676
0.20930230617523193 -0.10594628006219864 -0.3643410801887512
0.20930230617523193 -0.10576523095369339 -0.3488371968269348
0.20930230617523193 -0.10550457239151001 -0.3333333134651184
0.20930230617523193 -0.1049470603466034 -0.317829430103302
0.20930230617523193 -0.1047457605600357 -0.30232560634613037
0.20930230617523193 -0.10423682630062103 -0.28682172298431396
0.20930230617523193 -0.10428749769926071 -0.27131783962249756
0.20930230617523193 -0.10357499122619629 -0.25581395626068115
0.20930230617523193 -0.10128654539585114 -0.24031007289886475
0.20930230617523193 -0.10202841460704803 -0.08527129888534546
0.20930230617523193 -0.10318580269813538 -0.06976741552352905
0.20930230617523193 -0.1034545749425888 -0.05426359176635742
0.20930230617523193 -0.1017429530620575 -0.038759708404541016
0.20930230617523193 -0.10220019519329071 -0.02325582504272461
0.20930230617523193 -0.10334985703229904 -0.007751941680908203
0.20930230617523193 -0.10385331511497498 0.007751941680908203
0.20930230617523193 -0.10540036857128143 0.02325582504272461
0.20930230617523193 -0.10722598433494568 0.038759708404541016
0.20930230617523193 -0.10886238515377045 0.05426359176635742
0.20930230617523193 -0.11280161887407303 0.06976747512817383
0.20930230617523193 -0.10015424340963364 -0.9069766998291016
0.20930230617523193 -0.10050347447395325 -0.8914728760719299
0.20930230617523193 -0.09888839721679688 -0.22480617463588715
0.20930232107639313 -0.09847069531679153 -0.20930232107639313
0.20930232107639313 -0.0965457558631897 -0.19379842281341553
0.20930230617523193 -0.09496136009693146 -0.1782945990562439
0.20930230617523193 -0.09519602358341217 -0.1627907156944275
0.20930230617523193 -0.09602008759975433 -0.14728683233261108
0.20930230617523193 -0.09737549722194672 -0.13178294897079468
0.20930230617523193 -0.09882436692714691 -0.11627905815839767
0.20930229127407074 -0.10051967948675156 -0.10077518224716187
0.20930230617523193 -0.08672641962766647 0.11627912521362305
0.20930230617523193 0.07937848567962646 0.11627912521362305
0.20930230617523193 0.10026393085718155 -0.02325582504272461
0.20930230617523193 0.09962128847837448 -0.007751941680908203
0.20930230617523193 0.09754660725593567 0.007751941680908203
0.20930230617523193 0.09609276801347733 0.02325582504272461
0.20930230617523193 0.09532363712787628 0.038759708404541016
0.20930230617523193 0.09464996308088303 0.05426359176635742
0.20930230617523193 0.09652044624090195 0.06976747512817383
0.20930230617523193 0.11429180204868317 -0.922480583190918
0.20930230617523193 0.1137004867196083 -0.9069767594337463
0.20930230617523193 0.11357685923576355 -0.8914728760719299
0.20930230617523193 0.11417467892169952 -0.8759689331054688
0.20930230617523193 0.11567787826061249 -0.674418568611145
0.20930230617523193 0.11622168123722076 -0.6589146852493286
0.20930230617523193 0.11561916768550873 -0.6124030947685242
0.20930230617523193 0.11557600647211075 -0.5813953876495361
0.20930230617523193 0.11381486058235168 -0.5658915042877197
0.20930230617523193 0.11246857047080994 -0.5503876209259033
0.20930230617523193 0.11176543682813644 -0.5348837375640869
0.20930230617523193 0.1116195023059845 -0.5193798542022705
0.20930230617523193 0.11105924099683762 -0.5038759708404541
0.20930230617523193 0.11091472208499908 -0.4883720874786377
0.20930230617523193 0.11163519322872162 -0.4728682041168213
0.20930230617523193 0.11262314766645432 -0.4573643207550049
0.20930230617523193 0.113946333527565 -0.4418604373931885
0.20930230617523193 0.11524907499551773 -0.42635661363601685
0.20930230617523193 0.11596379429101944 -0.39534884691238403
0.20930230617523193 0.11532342433929443 -0.3798449635505676
0.20930230617523193 0.1143423467874527 -0.3643410801887512
0.20930230617523193 0.11374592036008835 -0.3488371968269348
0.20930230617523193 0.11306633055210114 -0.3333333134651184
0.20930230617523193 0.11194270849227905 -0.317829430103302
0.20930230617523193 0.11197472363710403 -0.30232560634613037
0.20930230617523193 0.11118581891059875 -0.28682172298431396
0.20930230617523193 0.11150085926055908 -0.27131783962249756
0.20930230617523193 0.11170986294746399 -0.25581395626068115
0.20930230617523193 0.10952724516391754 -0.24031007289886475
0.20930230617523193 0.10757923126220703 -0.22480618953704834
0.20930230617523193 0.10793477296829224 -0.20930230617523193
0.20930230617523193 0.10606445372104645 -0.19379842281341553
0.20930229127407074 0.10391101986169815 -0.1782945990562439
0.20930232107639313 0.10369239002466202 -0.16279073059558868
0.20930230617523193 0.1038006842136383 -0.14728683233261108
0.20930230617523193 0.10407787561416626 -0.13178294897079468
0.20930230617523193 0.10396267473697662 -0.11627905815839767
0.20930230617523193 0.10377848148345947 -0.10077518224716187
0.20930230617523193 0.10413108021020889 -0.08527129888534546
0.20930230617523193 0.10452283918857574 -0.06976741552352905
0.20930230617523193 0.10389019548892975 -0.05426359176635742
0.20930230617523193 0.10111828148365021 -0.038759708404541016
0.20930230617523193 0.11222288012504578 0.08527135848999023
0.20930230617523193 0.120256707072258 -0.953488290309906
0.20930230617523193 0.1164868175983429 -0.9379844665527344
0.20930230617523193 0.11639989912509918 -0.8604651093482971
0.20930232107639313 0.11776413023471832 -0.8449612259864807
0.20930230617523193 0.1200600415468216 -0.8294573426246643
0.20930230617523193 0.12193994969129562 -0.8139535188674927
0.20930230617523193 0.12302003055810928 -0.7984496355056763
0.20930230617523193 0.12315000593662262 -0.7829457521438599
0.20930232107639313 0.12169124186038971 -0.7674418687820435
0.20930230617523193 0.12010490894317627 -0.751937985420227
0.20930230617523193 0.11875929683446884 -0.7364341020584106
0.20930230617523193 0.1174226701259613 -0.7209301590919495
0.20930230617523193 0.11664901673793793 -0.7054263353347778
0.20930230617523193 0.11631638556718826 -0.6899224519729614
0.20930230617523193 0.11803136765956879 -0.643410861492157
0.20930232107639313 0.11723672598600388 -0.6279069781303406
0.20930232107639313 0.11657834053039551 -0.5968992114067078
0.20930230617523193 0.11664576828479767 -0.41085273027420044
0.20930230617523193 0.1171148344874382 0.10077524185180664
0.20930230617523193 0.13596169650554657 -0.9689922332763672
0.20930230617523193 0.1510263830423355 -0.9844961166381836
0.22480618953704834 -0.03543272241950035 -0.9844961166381836
0.22480618953704834 0.04166553169488907 -0.9844961166381836
-0.22480618953704834 -0.02325582504272461 -0.9859243631362915
-0.22480618953704834 -0.02325582504272461 -0.9742281436920166
-0.22480618953704834 -0.007751941680908203 -0.9877405762672424
-0.22480618953704834 -0.007751941680908203 -0.969321608543396
-0.22480618953704834 0.007751941680908203 -0.9881837964057922
-0.22480618953704834 0.007751941680908203 -0.9668595194816589
-0.22480618953704834 0.02325582504272461 -0.9874547719955444
-0.22480618953704834 0.02325582504272461 -0.9696322679519653
-0.22480618953704834 0.038759708404541016 -0.9858112335205078
-0.22480618953704834 0.038759708404541016 -0.9749537706375122
-0.20930230617523193 -0.13178294897079468 -0.9862905740737915
-0.20930230617523193 -0.13178294897079468 -0.9739004373550415
-0.20930230617523193 -0.11627906560897827 -0.9897547960281372
-0.20930230617523193 -0.11627906560897827 -0.9620460271835327
-0.20930230617523193 -0.10077518224716187 -0.9911502003669739
-0.20930230617523193 -0.10077518224716187 -0.6151731610298157
-0.20930230617523193 -0.10077518224716187 0.09469397366046906
-0.20930230617523193 -0.10077518224716187 0.10324878990650177
-0.20930230617523193 -0.08527129888534546 -0.9916434288024902
-0.20930230617523193 -0.08527129888534546 -0.17829996347427368
-0.20930230617523193 -0.08527129888534546 -0.15893155336380005
-0.20930230617523193 -0.08527129888534546 -0.04285210743546486
-0.20930230617523193 -0.08527129888534546 0.0765337198972702
-0.20930230617523193 -0.08527129888534546 0.11021119356155396
-0.20930230617523193 -0.06976741552352905 -0.9918473362922668
-0.20930230617523193 -0.06976741552352905 0.11489762365818024
-0.20930230617523193 -0.05426359176635742 -0.9919459819793701
-0.20930230617523193 -0.05426359176635742 0.1168958768248558
-0.20930230617523193 -0.038759708404541016 -0.9919874668121338
-0.20930230617523193 -0.038759708404541016 0.1175883486866951
-0.20930230617523193 -0.02325582504272461 -0.9919989705085754
-0.20930230617523193 -0.02325582318007946 0.11868755519390106
-0.20930230617523193 -0.007751941680908203 -0.9919988512992859
-0.20930230617523193 -0.007751941680908203 0.1212414801120758
-0.20930230617523193 0.007751941680908203 -0.9920049905776978
-0.20930230617523193 0.007751941680908203 0.1206684410572052
-0.20930230617523193 0.02325582504272461 -0.9919984936714172
-0.20930230617523193 0.02325582504272461 0.11820048838853836
-0.20930230617523193 0.038759708404541016 -0.9919938445091248
-0.20930230617523193 0.038759708404541016 0.11744125932455063
-0.20930230617523193 0.05426359176635742 -0.9919678568840027
-0.20930230617523193 0.05426359176635742 0.11712230741977692
-0.20930230617523193 0.06976747512817383 -0.9919204115867615
-0.20930230617523193 0.06976746767759323 0.11649160087108612
-0.20930230617523193 0.08527135848999023 -0.9918165802955627
-0.20930230617523193 0.08527135848999023 0.11201445013284683
-0.20930230617523193 0.10077524185180664 -0.9916099309921265
-0.20930230617523193 0.10077524185180664 0.10865184664726257
-0.20930230617523193 0.11627912521362305 -0.9912006258964539
-0.20930230617523193 0.11627912521362305 -0.5953885912895203
-0.20930230617523193 0.11627912521362305 -0.31945711374282837
-0.20930230617523193 0.11627912521362305 -0.2411218136548996
-0.20930230617523193 0.11627912521362305 0.08072088658809662
-0.20930230617523193 0.11627912521362305 0.10514597594738007
-0.20930230617523193 0.1317828893661499 -0.9902493357658386
-0.20930230617523193 0.1317828893661499 -0.954980194568634
-0.20930230617523193 0.1317828893661499 0.09569524973630905
-0.20930232107639313 0.1317828893661499 0.10199907422065735
-0.20930230617523193 0.1472867727279663 -0.9880425333976746
-0.20930230617523193 0.1472867727279663 -0.9694467186927795
-0.19379842281341553 -0.19379842281341553 0.09319694340229034
-0.19379842281341553 -0.19379842281341553 0.11114108562469482
-0.19379842281341553 -0.1782945990562439 -0.9908396005630493
-0.19379842281341553 -0.1782945990562439 -0.9590936899185181
-0.19379842281341553 -0.1782945990562439 0.04959101974964142
-0.19379842281341553 -0.1782945841550827 0.1168772429227829
-0.19379842281341553 -0.1627907156944275 -0.9918202757835388
-0.19379843771457672 -0.16279073059558868 0.11742111295461655
-0.19379842281341553 -0.14728683233261108 -0.9919826984405518
-0.19379842281341553 -0.14728683233261108 0.11738958954811096
-0.19379842281341553 -0.13178294897079468 -0.9920175671577454
-0.19379842281341553 -0.13178294897079468 0.11714853346347809
-0.19379842281341553 -0.11627906560897827 -0.9920163750648499
-0.19379842281341553 -0.11627906560897827 0.11692611873149872
-0.19379842281341553 -0.10077518224716187 -0.9920117855072021
-0.19379842281341553 -0.10077518224716187 0.11684322357177734
-0.19379842281341553 -0.08527129888534546 -0.9919835925102234
-0.19379842281341553 -0.08527129888534546 0.11682164669036865
-0.19379842281341553 -0.06976741552352905 -0.9919543862342834
-0.19379842281341553 -0.06976742297410965 0.11685251444578171
-0.19379842281341553 -0.05426359176635742 -0.9919273853302002
-0.19379842281341553 -0.05426358804106712 0.11691146343946457
-0.19379842281341553 -0.038759708404541016 -0.9919069409370422
-0.19379842281341553 -0.038759708404541016 0.11788827925920486
-0.19379842281341553 -0.02325582504272461 -0.9918853044509888
-0.19379842281341553 -0.02325582504272461 0.2012919783592224
-0.19379842281341553 -0.007751941680908203 -0.9918754696846008
-0.19379842281341553 -0.007751941680908203 0.7051257491111755
-0.19379842281341553 0.007751941680908203 -0.9918836951255798
-0.19379842281341553 0.007751941680908203 0.6918110847473145
-0.19379842281341553 0.02325582504272461 -0.9918833374977112
-0.19379842281341553 0.02325582504272461 0.1712646484375
-0.19379842281341553 0.038759708404541016 -0.9918924570083618
-0.19379842281341553 0.038759708404541016 0.11746750771999359
-0.19379842281341553 0.05426359176635742 -0.9918873310089111
-0.19379842281341553 0.05426359176635742 0.1168900579214096
-0.19379842281341553 0.06976747512817383 -0.9919018745422363
-0.19379842281341553 0.06976747512817383 0.11671759188175201
