0.08527135848999023 0.08527135848999023 0.07526472210884094
0.08527135848999023 0.08527135848999023 0.13264138996601105
0.08527135848999023 0.10077524185180664 -0.9797206521034241
0.08527135848999023 0.10077523440122604 -0.9028457999229431
0.08527135848999023 0.10077524185180664 0.07187072932720184
0.08527135848999023 0.10077524185180664 0.13253383338451385
0.08527135848999023 0.11627912521362305 -0.9810783267021179
0.08527135848999023 0.11627912521362305 -0.899476170539856
0.08527135848999023 0.11627912521362305 0.06437551230192184
0.08527135848999023 0.11627912521362305 0.13242873549461365
0.08527135848999023 0.1317828893661499 -0.9846935868263245
0.08527135848999023 0.1317828893661499 -0.9052683711051941
0.08527135848999023 0.1317828893661499 0.05353604257106781
0.08527135848999023 0.1317829042673111 0.1323859989643097
0.08527135848999023 0.1472867727279663 -0.9852879047393799
0.08527135848999023 0.1472867727279663 -0.9258175492286682
0.08527135848999023 0.1472867727279663 0.03182170167565346
0.08527135848999023 0.1472867727279663 0.13247165083885193
0.08527135848999023 0.16279065608978271 -0.9854496717453003
0.08527135848999023 0.16279065608978271 -0.9184613227844238
0.08527135848999023 0.16279065608978271 -0.010494675487279892
0.08527135848999023 0.16279065608978271 0.13266156613826752
0.08527135848999023 0.17829453945159912 -0.985582709312439
0.08527135848999023 0.17829453945159912 -0.902780294418335
0.08527135848999023 0.17829453945159912 -0.2800464630126953
0.08527135848999023 0.17829453945159912 -0.22360625863075256
0.08527135848999023 0.17829453945159912 -0.1977878212928772
0.08527135848999023 0.17829453945159912 0.13275015354156494
0.08527135848999023 0.19379842281341553 -0.9859015941619873
0.08527135848999023 0.19379842281341553 -0.8046907782554626
0.08527135103940964 0.19379842281341553 -0.7359467148780823
0.08527135848999023 0.19379842281341553 0.1326783001422882
0.08527135848999023 0.20930230617523193 -0.9859279990196228
0.08527135848999023 0.20930230617523193 0.13254408538341522
0.08527135848999023 0.22480618953704834 -0.986506462097168
0.08527135848999023 0.22480620443820953 0.13236626982688904
0.08527135848999023 0.24031007289886475 -0.970434844493866
0.08527135848999023 0.24031007289886475 -0.963549017906189
0.08527135848999023 0.24031007289886475 0.11609724164009094
0.08527135848999023 0.24031007289886475 0.11631731688976288
0.10077524185180664 -0.24031007289886475 -0.6654214859008789
0.10077524185180664 -0.24031007289886475 -0.4363260269165039
0.10077524185180664 -0.22480618953704834 -0.6803344488143921
0.10077524185180664 -0.22480618953704834 -0.35103628039360046
0.10077524185180664 -0.22480618953704834 -0.28516802191734314
0.10077524185180664 -0.22480618953704834 -0.20029708743095398
0.10077524185180664 -0.20930230617523193 -0.7042123079299927
0.10077524185180664 -0.20930230617523193 0.13144108653068542
0.10077524930238724 -0.19379842281341553 -0.7953386306762695
0.10077524185180664 -0.19379842281341553 0.13073472678661346
0.10077524185180664 -0.1782945990562439 -0.9830045104026794
0.10077524185180664 -0.1782945990562439 0.12955991923809052
0.10077524185180664 -0.16279073059558868 -0.9818716645240784
0.10077524185180664 -0.1627907156944275 0.1272767037153244
0.10077524185180664 -0.14728683233261108 -0.9793698787689209
0.10077524185180664 -0.14728683233261108 0.1252778023481369
0.10077524185180664 -0.13178294897079468 -0.9779634475708008
0.10077524185180664 -0.13178294897079468 0.12439998984336853
0.10077524185180664 -0.11627905815839767 -0.9773750305175781
0.10077524185180664 -0.11627906560897827 -0.8288426995277405
0.10077524185180664 -0.11627906560897827 -0.6883845329284668
0.10077524185180664 -0.11627906560897827 -0.5708882808685303
0.10077524185180664 -0.11627906560897827 -0.4040485620498657
0.10077524185180664 -0.11627906560897827 0.1243707537651062
0.10077524185180664 -0.10077518224716187 -0.9769291877746582
0.10077524185180664 -0.10077518224716187 -0.8560840487480164
0.10077524185180664 -0.10077518224716187 -0.3708418607711792
0.10077524185180664 -0.10077518224716187 -0.10356681048870087
0.10077524185180664 -0.10077518224716187 -0.01706567592918873
0.10077524185180664 -0.10077518224716187 0.125570610165596
0.10077524185180664 -0.08527129888534546 -0.976667582988739
0.10077524185180664 -0.08527129888534546 -0.8704545497894287
0.10077524185180664 -0.08527129888534546 -0.2839727997779846
0.10077524185180664 -0.08527129888534546 -0.12415926903486252
0.10077524185180664 -0.08527129888534546 0.01579727977514267
0.10077524185180664 -0.08527129888534546 0.12714481353759766
0.10077524185180664 -0.06976741552352905 -0.9762953519821167
0.10077524185180664 -0.06976741552352905 -0.8794103264808655
0.10077524185180664 -0.06976741552352905 -0.26181739568710327
0.10077524185180664 -0.06976741552352905 -0.16656708717346191
0.10077524185180664 -0.06976741552352905 0.04250841587781906
0.10077524185180664 -0.06976741552352905 0.12911085784435272
0.10077524185180664 -0.05426359176635742 -0.9757924675941467
0.10077524185180664 -0.05426359176635742 -0.8847768306732178
0.10077524185180664 -0.05426359176635742 -0.23651552200317383
0.10077524185180664 -0.05426359176635742 -0.2078423798084259
0.10077524185180664 -0.05426359176635742 0.05884817987680435
0.10077524185180664 -0.05426359176635742 0.13163574039936066
0.10077524185180664 -0.05426359176635742 0.8723323941230774
0.10077524185180664 -0.05426359176635742 0.9344397783279419
0.10077524185180664 -0.038759708404541016 -0.9754899740219116
0.10077524185180664 -0.038759708404541016 -0.8910915851593018
0.10077524185180664 -0.038759708404541016 0.07214823365211487
0.10077524185180664 -0.038759708404541016 0.13227252662181854
0.10077524185180664 -0.038759708404541016 0.8555757999420166
0.10077524185180664 -0.038759708404541016 0.9599182605743408
0.10077524185180664 -0.02325582504272461 -0.9753780364990234
0.10077524185180664 -0.02325582504272461 -0.9020476341247559
0.10077524185180664 -0.02325582504272461 0.08107094466686249
0.10077524185180664 -0.02325582504272461 0.1328289657831192
0.10077524185180664 -0.02325582504272461 0.8451486229896545
0.10077524185180664 -0.02325582504272461 0.9688669443130493
0.10077524185180664 -0.007751941680908203 -0.9754146933555603
0.10077524185180664 -0.007751941680908203 -0.9126525521278381
0.10077524185180664 -0.007751941680908203 0.08518768846988678
0.10077524185180664 -0.007751941680908203 0.13311606645584106
0.10077524185180664 -0.007751941680908203 0.8415323495864868
0.10077524185180664 -0.007751941680908203 0.9712211489677429
0.10077524185180664 0.007751941680908203 -0.9754853844642639
0.10077524185180664 0.007751941680908203 -0.9198259115219116
0.10077524185180664 0.007751941680908203 0.085466168820858
0.10077524185180664 0.007751941215246916 0.132955402135849
0.10077524185180664 0.007751941680908203 0.8410874009132385
0.10077524185180664 0.007751941680908203 0.9708514213562012
0.10077524185180664 0.02325582504272461 -0.975985586643219
0.10077523440122604 0.02325582504272461 -0.9222010374069214
0.10077524185180664 0.02325582504272461 0.08349913358688354
0.10077524185180664 0.02325582504272461 0.13261356949806213
0.10077524185180664 0.02325582504272461 0.8434221744537354
0.10077524185180664 0.02325582504272461 0.9677550792694092
0.10077524185180664 0.038759708404541016 -0.9762865304946899
0.10077524185180664 0.038759708404541016 -0.9196729063987732
0.10077524185180664 0.038759708404541016 0.08017690479755402
0.10077524930238724 0.038759708404541016 0.13237981498241425
0.10077524185180664 0.038759708404541016 0.851794421672821
0.10077524185180664 0.038759708404541016 0.9583383202552795
0.10077524185180664 0.05426359176635742 -0.976474404335022
0.10077524185180664 0.05426359176635742 -0.9143955111503601
0.10077524185180664 0.05426359176635742 0.07802949845790863
0.10077524185180664 0.05426359176635742 0.13231006264686584
0.10077524185180664 0.05426359176635742 0.8684679269790649
0.10077524185180664 0.05426359176635742 0.9335695505142212
0.10077524185180664 0.06976747512817383 -0.9756416082382202
0.10077524185180664 0.06976747512817383 -0.9086806774139404
0.10077524185180664 0.06976747512817383 0.07756194472312927
0.10077524185180664 0.06976747512817383 0.132428377866745
0.10077524185180664 0.08527135848999023 -0.9753879308700562
0.10077524185180664 0.08527135848999023 -0.903618574142456
0.10077524185180664 0.08527135848999023 0.07677260041236877
0.10077524185180664 0.08527135848999023 0.13243716955184937
0.10077524185180664 0.10077524185180664 -0.9761399030685425
0.10077524185180664 0.10077524185180664 -0.9000053405761719
0.10077524185180664 0.10077524185180664 0.07388070225715637
0.10077523440122604 0.10077523440122604 0.1323661357164383
0.10077524185180664 0.11627912521362305 -0.9774800539016724
0.10077524185180664 0.11627912521362305 -0.8970197439193726
0.10077524185180664 0.11627912521362305 0.066768579185009
0.10077524185180664 0.11627913266420364 0.13229641318321228
0.10077524185180664 0.1317828893661499 -0.9802513122558594
0.10077524185180664 0.1317828893661499 -0.9007210731506348
0.10077524185180664 0.1317828893661499 0.05647691711783409
0.10077524185180664 0.1317828893661499 0.13228045403957367
0.10077524185180664 0.1472867727279663 -0.9816016554832458
0.10077524185180664 0.1472867727279663 -0.9245977401733398
0.10077524185180664 0.1472867727279663 0.03690231218934059
0.10077524185180664 0.1472867727279663 0.13238480687141418
0.10077524185180664 0.16279065608978271 -0.9824656248092651
0.10077524185180664 0.16279065608978271 -0.9180919528007507
0.10077524185180664 0.16279065608978271 -0.0056142122484743595
0.10077524185180664 0.16279065608978271 0.13258479535579681
0.10077524185180664 0.17829453945159912 -0.9830771088600159
0.10077524185180664 0.17829453945159912 -0.899729311466217
0.10077524185180664 0.17829453945159912 -0.28058215975761414
0.10077524185180664 0.17829453945159912 0.13267728686332703
0.10077524185180664 0.19379842281341553 -0.9839487671852112
0.10077524185180664 0.19379842281341553 -0.7714592814445496
0.10077523440122604 0.19379842281341553 -0.7487900853157043
0.10077524185180664 0.19379840791225433 0.13259461522102356
0.10077524185180664 0.20930230617523193 -0.9846600890159607
0.10077524185180664 0.20930230617523193 0.13242559134960175
0.10077524185180664 0.22480618953704834 -0.985289990901947
0.10077524185180664 0.22480618953704834 0.13218410313129425
0.11627912521362305 -0.24031007289886475 -0.6609569191932678
0.11627912521362305 -0.24031005799770355 -0.4384746849536896
0.11627912521362305 -0.22480618953704834 -0.6760638952255249
0.11627912521362305 -0.22480618953704834 -0.3816405236721039
0.11627912521362305 -0.20930230617523193 -0.702112078666687
0.11627912521362305 -0.20930230617523193 0.13089920580387115
0.11627912521362305 -0.19379842281341553 -0.7946589589118958
0.11627912521362305 -0.19379842281341553 0.13014695048332214
0.11627912521362305 -0.1782945990562439 -0.9777395129203796
0.11627912521362305 -0.1782945990562439 0.1289324164390564
0.11627912521362305 -0.1627907156944275 -0.9776245355606079
0.11627912521362305 -0.1627907156944275 0.12657055258750916
0.11627912521362305 -0.14728683233261108 -0.9758117198944092
0.11627912521362305 -0.14728683233261108 0.12466023862361908
0.11627912521362305 -0.13178294897079468 -0.9747134447097778
0.11627912521362305 -0.13178294897079468 0.12388768047094345
0.11627912521362305 -0.11627906560897827 -0.9742845296859741
0.11627912521362305 -0.11627906560897827 -0.8215494751930237
0.11627912521362305 -0.11627906560897827 -0.6991007328033447
0.11627912521362305 -0.11627906560897827 -0.5480453372001648
0.11627912521362305 -0.11627906560897827 -0.4279784560203552
0.11627912521362305 -0.11627906560897827 0.1237909197807312
0.11627912521362305 -0.10077518224716187 -0.9740362167358398
0.11627912521362305 -0.10077518224716187 -0.8543233871459961
0.11627913266420364 -0.10077518224716187 -0.6555907726287842
0.11627912521362305 -0.10077518224716187 -0.6133848428726196
0.11627912521362305 -0.10077518224716187 -0.39128607511520386
0.11627912521362305 -0.10077518224716187 -0.10105229169130325
0.11627912521362305 -0.10077518224716187 -0.010123442858457565
0.11627912521362305 -0.10077518224716187 0.1247914582490921
0.11627912521362305 -0.08527129888534546 -0.9740115404129028
0.11627912521362305 -0.08527129888534546 -0.8699263334274292
0.11627912521362305 -0.08527129888534546 -0.3495786190032959
0.11627912521362305 -0.08527129888534546 -0.11621587723493576
0.11627912521362305 -0.08527129888534546 0.017406785860657692
0.11627912521362305 -0.08527129888534546 0.1262178122997284
0.11627912521362305 -0.06976741552352905 -0.9738675355911255
0.11627912521362305 -0.06976741552352905 -0.8793485760688782
0.11627912521362305 -0.06976741552352905 -0.2653614580631256
0.11627912521362305 -0.06976741552352905 -0.15063349902629852
0.11627912521362305 -0.06976741552352905 0.040554046630859375
0.11627912521362305 -0.06976741552352905 0.1280791461467743
0.11627912521362305 -0.05426359176635742 -0.9734635353088379
0.11627912521362305 -0.05426359176635742 -0.8838446140289307
0.11627912521362305 -0.05426359176635742 -0.2442777454853058
0.11627912521362305 -0.05426359176635742 -0.19548480212688446
0.11627912521362305 -0.05426359549164772 0.05615425854921341
0.11627912521362305 -0.05426359176635742 0.13025589287281036
0.11627912521362305 -0.05426359176635742 0.8686531186103821
0.11627912521362305 -0.05426359176635742 0.9310172200202942
0.11627912521362305 -0.038759708404541016 -0.972952663898468
0.11627912521362305 -0.038759708404541016 -0.8884580135345459
0.11627912521362305 -0.038759708404541016 0.06875717639923096
0.11627912521362305 -0.038759708404541016 0.132090762257576
0.11627912521362305 -0.038759708404541016 0.8504601716995239
0.11627912521362305 -0.038759708404541016 0.9534486532211304
0.11627912521362305 -0.02325582504272461 -0.9725021123886108
0.11627912521362305 -0.02325582504272461 -0.8977540731430054
0.11627912521362305 -0.02325582504272461 0.07821060717105865
0.11627912521362305 -0.02325582690536976 0.13265109062194824
0.11627912521362305 -0.02325582504272461 0.8406260013580322
0.11627912521362305 -0.02325582504272461 0.9669034481048584
0.11627912521362305 -0.007751941680908203 -0.9722417593002319
0.11627912521362305 -0.007751941680908203 -0.9071928858757019
0.11627912521362305 -0.007751941680908203 0.08273720741271973
0.11627912521362305 -0.007751941680908203 0.13297897577285767
0.11627912521362305 -0.007751941680908203 0.8365969061851501
0.11627912521362305 -0.007751941680908203 0.9687855243682861
0.11627912521362305 0.007751941680908203 -0.9721496105194092
0.11627912521362305 0.007751941680908203 -0.913966178894043
0.11627912521362305 0.007751941680908203 0.0830749124288559
0.11627911776304245 0.007751941215246916 0.13280782103538513
0.11627912521362305 0.007751941680908203 0.8362450003623962
0.11627912521362305 0.007751941680908203 0.9683912992477417
0.11627912521362305 0.02325582504272461 -0.9724549055099487
0.11627913266420364 0.02325582504272461 -0.9162858724594116
0.11627912521362305 0.02325582504272461 0.08123715221881866
0.11627912521362305 0.02325582504272461 0.1324424147605896
0.11627912521362305 0.02325582504272461 0.8390302658081055
0.11627912521362305 0.02325582504272461 0.9650247097015381
0.11627912521362305 0.038759708404541016 -0.972726047039032
0.11627912521362305 0.038759708404541016 -0.9136744141578674
0.11627912521362305 0.038759708404541016 0.0782560333609581
0.11627912521362305 0.038759712129831314 0.13219501078128815
0.11627913266420364 0.038759708404541016 0.8454601168632507
0.11627912521362305 0.038759708404541016 0.9536191821098328
0.11627912521362305 0.05426359176635742 -0.9730440974235535
0.11627912521362305 0.05426359176635742 -0.9083878993988037
0.11627912521362305 0.05426359176635742 0.0766095221042633
0.11627913266420364 0.05426359176635742 0.13211515545845032
0.11627912521362305 0.05426359176635742 0.8636881709098816
0.11627912521362305 0.05426359176635742 0.9301108121871948
0.11627912521362305 0.06976747512817383 -0.9728853702545166
0.11627912521362305 0.06976747512817383 -0.9032432436943054
0.11627912521362305 0.06976747512817383 0.07674522697925568
0.11627912521362305 0.06976746767759323 0.132216677069664
0.11627912521362305 0.08527135848999023 -0.973179042339325
0.11627912521362305 0.08527135848999023 -0.8994784951210022
0.11627912521362305 0.08527135848999023 0.07653366029262543
0.11627912521362305 0.08527135848999023 0.13222962617874146
0.11627912521362305 0.10077524185180664 -0.973995566368103
0.11627912521362305 0.10077524185180664 -0.8969589471817017
0.11627912521362305 0.10077524185180664 0.07392388582229614
0.11627912521362305 0.10077524185180664 0.13217870891094208
0.11627912521362305 0.11627912521362305 -0.9749586582183838
0.11627912521362305 0.11627912521362305 -0.8943536877632141
0.11627912521362305 0.11627912521362305 0.06696458160877228
0.11627912521362305 0.11627912521362305 0.13212916254997253
0.11627912521362305 0.1317828893661499 -0.9774410724639893
0.11627912521362305 0.1317828893661499 -0.8961005210876465
0.11627912521362305 0.1317828893661499 0.057208504527807236
0.11627912521362305 0.1317828893661499 0.13212816417217255
0.11627912521362305 0.1472867727279663 -0.9784731864929199
0.11627912521362305 0.1472867727279663 -0.9231241345405579
0.11627912521362305 0.1472867727279663 0.03935955464839935
0.11627913266420364 0.1472867727279663 0.13224074244499207
0.11627912521362305 0.16279065608978271 -0.978933572769165
0.11627911776304245 0.16279065608978271 -0.9179151654243469
0.11627913266420364 0.16279065608978271 -0.0033132117241621017
0.11627912521362305 0.16279065608978271 0.1324334293603897
0.11627912521362305 0.17829453945159912 -0.9792542457580566
0.11627912521362305 0.17829453945159912 -0.8940576314926147
0.11627912521362305 0.17829453945159912 -0.6511420607566833
0.11627912521362305 0.17829453945159912 -0.6147300601005554
0.11627912521362305 0.17829453945159912 -0.29552483558654785
0.11627912521362305 0.17829455435276031 0.13252748548984528
0.11627912521362305 0.19379842281341553 -0.9795992374420166
0.11627912521362305 0.19379840791225433 0.1324494332075119
0.11627912521362305 0.20930230617523193 -0.9802652597427368
0.11627912521362305 0.20930229127407074 0.1322752833366394
0.11627912521362305 0.22480618953704834 -0.9807876348495483
0.11627912521362305 0.22480618953704834 0.1319805383682251
0.1317828893661499 -0.24031007289886475 -0.6583640575408936
0.1317828893661499 -0.24031007289886475 -0.4513603150844574
0.1317828893661499 -0.22480618953704834 -0.6685628890991211
0.1317828893661499 -0.22480618953704834 -0.3962435722351074
0.1317828893661499 -0.20930230617523193 -0.7018160223960876
0.1317828893661499 -0.20930230617523193 0.1310156136751175
0.1317828893661499 -0.19379842281341553 -0.7972919940948486
0.1317828893661499 -0.19379842281341553 0.1303543746471405
0.1317828893661499 -0.1782945990562439 -0.9740074872970581
0.1317828893661499 -0.1782945990562439 0.12927843630313873
0.1317828893661499 -0.1627907156944275 -0.9731614589691162
0.1317828893661499 -0.1627907156944275 0.12688162922859192
0.1317828893661499 -0.14728683233261108 -0.9715571403503418
0.1317828893661499 -0.14728683233261108 0.12494044005870819
0.1317828893661499 -0.13178294897079468 -0.970740556716919
0.1317828893661499 -0.13178294897079468 0.12415845692157745
0.1317828893661499 -0.11627906560897827 -0.9705381393432617
0.1317828893661499 -0.11627907305955887 -0.8071783781051636
0.1317828893661499 -0.11627905815839767 -0.7138983011245728
0.1317828893661499 -0.11627906560897827 -0.5174643397331238
0.1317828893661499 -0.11627906560897827 -0.46467122435569763
0.1317828893661499 -0.11627906560897827 -0.07196871936321259
0.1317828893661499 -0.11627907305955887 -0.03621856868267059
0.1317828893661499 -0.11627906560897827 0.12408025562763214
0.1317828893661499 -0.10077518224716187 -0.9705352783203125
0.1317828893661499 -0.10077518224716187 -0.8504362106323242
0.1317828893661499 -0.10077518224716187 -0.6710497140884399
0.1317828893661499 -0.10077518224716187 -0.596961498260498
0.1317828744649887 -0.10077518224716187 -0.4105309844017029
0.1317828893661499 -0.10077518224716187 -0.09838072955608368
0.1317828893661499 -0.10077518224716187 -0.003868174972012639
0.1317828893661499 -0.10077518224716187 0.12511488795280457
0.1317828893661499 -0.08527129888534546 -0.9707399010658264
0.1317828893661499 -0.08527129888534546 -0.8680449724197388
0.1317828893661499 -0.08527129888534546 -0.36626067757606506
0.1317828893661499 -0.08527129888534546 -0.11074962466955185
0.1317828893661499 -0.08527129888534546 0.018803348764777184
0.1317828893661499 -0.08527129888534546 0.12657079100608826
0.1317828893661499 -0.06976741552352905 -0.9708742499351501
0.1317828893661499 -0.06976741552352905 -0.8784700036048889
0.1317828893661499 -0.06976741552352905 -0.2658096253871918
0.1317828893661499 -0.06976741552352905 -0.13448700308799744
0.1317828893661499 -0.06976741552352905 0.038702476769685745
0.1317828893661499 -0.06976741552352905 0.12844468653202057
0.1317828893661499 -0.05426359176635742 -0.9707695841789246
0.1317828893661499 -0.05426359176635742 -0.882132887840271
0.1317828893661499 -0.05426359176635742 -0.2465468943119049
0.1317828893661499 -0.05426359176635742 -0.18068590760231018
0.1317828893661499 -0.05426359176635742 0.05277499556541443
0.1317828893661499 -0.05426359176635742 0.13063591718673706
0.1317828893661499 -0.05426359176635742 0.8620449304580688
0.1317828893661499 -0.05426359176635742 0.9281133413314819
0.1317828893661499 -0.038759708404541016 -0.9704180359840393
0.1317828893661499 -0.038759708404541016 -0.8852768540382385
0.1317828893661499 -0.038759708404541016 0.0645928829908371
0.1317828893661499 -0.038759708404541016 0.1321531981229782
0.1317828893661499 -0.038759708404541016 0.8430701494216919
0.1317828893661499 -0.038759708404541016 0.951015830039978
0.1317828893661499 -0.02325582504272461 -0.9700228571891785
0.1317828893661499 -0.02325582504272461 -0.8935173749923706
0.1317828893661499 -0.02325582504272461 0.07585512101650238
0.1317828893661499 -0.02325582504272461 0.13282117247581482
0.1317828893661499 -0.02325582690536976 0.8340165019035339
0.1317828893661499 -0.02325582504272461 0.9624134302139282
0.1317828893661499 -0.007751941680908203 -0.9697854518890381
0.1317828893661499 -0.007751941680908203 -0.9032760858535767
0.1317828893661499 -0.007751941680908203 0.08196647465229034
0.1317828893661499 -0.00775194214656949 0.13327853381633759
0.1317828893661499 -0.007751941680908203 0.8279668092727661
0.1317828893661499 -0.007751941680908203 0.9666374325752258
0.1317828893661499 0.007751941680908203 -0.9696518778800964
0.1317828893661499 0.007751941680908203 -0.9104747176170349
0.1317828893661499 0.007751941680908203 0.0821622759103775
0.1317828893661499 0.007751941680908203 0.13304801285266876
0.1317828893661499 0.007751941680908203 0.8278149366378784
0.1317828893661499 0.007751941680908203 0.9660671949386597
0.1317828893661499 0.02325582504272461 -0.969785749912262
0.1317828893661499 0.02325582504272461 -0.912773609161377
0.1317828893661499 0.02325582504272461 0.07925274968147278
0.1317828893661499 0.02325582504272461 0.13255499303340912
0.1317828893661499 0.02325582504272461 0.8324647545814514
0.1317828893661499 0.02325582504272461 0.9607887268066406
0.1317828893661499 0.038759708404541016 -0.9699918031692505
0.1317828893661499 0.038759708404541016 -0.9098239541053772
0.1317828893661499 0.038759708404541016 0.07600158452987671
0.1317828893661499 0.038759708404541016 0.1322392374277115
0.1317828893661499 0.038759708404541016 0.8405507802963257
0.1317828893661499 0.038759708404541016 0.9504785537719727
0.1317828893661499 0.05426359176635742 -0.9703569412231445
0.1317828893661499 0.05426359176635742 -0.9038393497467041
0.1317828893661499 0.05426359549164772 0.07500845938920975
0.1317828893661499 0.05426359176635742 0.13213986158370972
0.1317828893661499 0.05426359176635742 0.8584119081497192
0.1317828893661499 0.05426359176635742 0.9270812273025513
0.1317828893661499 0.06976747512817383 -0.9704368710517883
0.1317828893661499 0.06976747512817383 -0.8988598585128784
0.1317828893661499 0.06976747512817383 0.07626897096633911
0.1317828744649887 0.06976747512817383 0.13224194943904877
0.1317828893661499 0.08527135848999023 -0.9707973599433899
0.1317828893661499 0.08527135848999023 -0.89555823802948
0.1317828893661499 0.08527135848999023 0.07696660608053207
0.1317828893661499 0.08527135848999023 0.13225701451301575
0.1317828893661499 0.10077524185180664 -0.9714326858520508
0.1317828893661499 0.10077524185180664 -0.8936309814453125
0.1317828893661499 0.10077524185180664 0.07491243630647659
0.1317828893661499 0.10077524185180664 0.13220852613449097
0.1317828893661499 0.11627912521362305 -0.9719648361206055
0.1317828893661499 0.11627912521362305 -0.8914228081703186
0.1317828893661499 0.11627912521362305 0.06841792166233063
0.1317828893661499 0.11627912521362305 0.13215601444244385
0.1317828893661499 0.1317828893661499 -0.9738515615463257
0.1317828893661499 0.1317828893661499 -0.8914324641227722
0.1317828893661499 0.1317828893661499 0.05887450650334358
0.1317828893661499 0.1317828893661499 0.13214555382728577
0.1317828893661499 0.1472867727279663 -0.9753366708755493
0.1317828893661499 0.1472867727279663 -0.919079065322876
0.1317828893661499 0.1472867727279663 0.04202396422624588
0.1317828893661499 0.1472867727279663 0.13225489854812622
0.1317828893661499 0.16279065608978271 -0.97593092918396
0.1317828893661499 0.16279065608978271 -0.9173021912574768
0.1317828893661499 0.16279065608978271 9.428896009922028e-05
0.1317828893661499 0.16279065608978271 0.13244734704494476
0.1317828893661499 0.17829453945159912 -0.9762910604476929
0.1317828893661499 0.17829453945159912 -0.8802652359008789
0.1317828893661499 0.17829453945159912 -0.6753398180007935
0.1317828893661499 0.17829455435276031 -0.3942148685455322
0.1317828893661499 0.17829453945159912 -0.34944403171539307
0.1317828893661499 0.17829453945159912 0.13253237307071686
0.1317828893661499 0.19379842281341553 -0.9764137268066406
0.1317828893661499 0.19379842281341553 0.13243868947029114
0.1317828893661499 0.20930230617523193 -0.9762781858444214
0.1317828893661499 0.20930230617523193 0.13224203884601593
0.1317828893661499 0.22480618953704834 -0.9753340482711792
0.1317828893661499 0.22480617463588715 0.13185366988182068
0.1472867727279663 -0.24031007289886475 -0.6456460952758789
0.1472867727279663 -0.24031007289886475 -0.5136690735816956
0.1472867727279663 -0.22480617463588715 -0.6584309935569763
0.1472867727279663 -0.22480620443820953 -0.4062283933162689
0.1472867727279663 -0.20930230617523193 -0.7029207944869995
0.1472867727279663 -0.20930230617523193 0.13096417486667633
0.1472867727279663 -0.19379842281341553 -0.8009180426597595
0.1472867727279663 -0.19379842281341553 0.1303430199623108
0.1472867727279663 -0.1782945990562439 -0.9714446663856506
0.1472867727279663 -0.1782945990562439 0.12948337197303772
0.1472867727279663 -0.1627907156944275 -0.9696646928787231
0.1472867727279663 -0.1627907156944275 0.1271035522222519
0.1472867727279663 -0.14728683233261108 -0.9685041904449463
0.1472867727279663 -0.14728683233261108 0.12513267993927002
0.1472867727279663 -0.13178294897079468 -0.9680743217468262
0.1472867727279663 -0.13178294897079468 0.12433303147554398
0.1472867727279663 -0.11627906560897827 -0.9680547118186951
0.1472867876291275 -0.11627906560897827 -0.7810029983520508
0.1472867727279663 -0.11627906560897827 -0.731684684753418
0.1472867727279663 -0.11627907305955887 -0.0645667016506195
0.1472867727279663 -0.11627907305955887 -0.03703946992754936
0.1472867727279663 -0.11627906560897827 0.12429716438055038
0.1472867727279663 -0.10077518224716187 -0.9681974053382874
0.1472867727279663 -0.10077518224716187 -0.8463538885116577
0.1472867727279663 -0.10077518224716187 -0.6853116750717163
0.1472867727279663 -0.10077518224716187 -0.5626612901687622
0.1472867727279663 -0.10077518224716187 -0.43372058868408203
0.1472867727279663 -0.10077518224716187 -0.09447206556797028
0.1472867727279663 -0.10077518224716187 -0.005807877518236637
0.1472867727279663 -0.10077518224716187 0.1254311501979828
0.1472867727279663 -0.08527129888534546 -0.9684337973594666
0.1472867727279663 -0.08527129888534546 -0.8658977746963501
0.1472867727279663 -0.08527129888534546 -0.6470276117324829
0.1472867727279663 -0.08527129888534546 -0.6249149441719055
0.1472867727279663 -0.08527129888534546 -0.381461501121521
0.1472867727279663 -0.08527129888534546 -0.10629723966121674
0.1472867727279663 -0.08527129888534546 0.010172514244914055
0.1472867727279663 -0.08527129888534546 0.12696456909179688
0.1472867727279663 -0.06976741552352905 -0.9686399698257446
0.1472867727279663 -0.06976741552352905 -0.8775829076766968
0.1472867727279663 -0.06976741552352905 -0.2665243148803711
0.1472867727279663 -0.06976741552352905 -0.12512245774269104
0.1472867727279663 -0.06976741552352905 0.0312928706407547
0.1472867727279663 -0.06976741552352905 0.1288442760705948
0.1472867727279663 -0.05426359176635742 -0.9687749743461609
0.1472867727279663 -0.05426359176635742 -0.8806313872337341
0.1472867727279663 -0.05426359176635742 -0.248172789812088
0.1472867727279663 -0.05426359176635742 -0.16539758443832397
0.1472867727279663 -0.05426359176635742 0.047166235744953156
0.1472867727279663 -0.05426359176635742 0.13102059066295624
0.1472867727279663 -0.05426359176635742 0.856358528137207
0.1472867727279663 -0.05426359176635742 0.924716591835022
0.1472867727279663 -0.038759708404541016 -0.9687677621841431
0.1472867727279663 -0.038759708404541016 -0.8827197551727295
0.1472867727279663 -0.038759708404541016 0.060115180909633636
0.1472867727279663 -0.038759708404541016 0.13223962485790253
0.1472867727279663 -0.038759708404541016 0.8369635939598083
0.1472867727279663 -0.038759708404541016 0.9484188556671143
0.1472867727279663 -0.02325582504272461 -0.9685549736022949
0.1472867727279663 -0.02325582504272461 -0.8913828134536743
0.1472867727279663 -0.02325582504272461 0.07418588548898697
0.1472867727279663 -0.02325582504272461 0.13307905197143555
0.1472867727279663 -0.02325582504272461 0.825985848903656
0.1472867727279663 -0.02325582318007946 0.954938530921936
0.1472867727279663 -0.007751941680908203 -0.9683487415313721
0.1472867727279663 -0.007751941680908203 -0.9038619995117188
0.1472867727279663 -0.007751941680908203 0.08332391828298569
0.1472867727279663 -0.007751941680908203 0.1336977630853653
0.1472867727279663 -0.007751941680908203 0.8220563530921936
0.1472867727279663 -0.007751941680908203 0.9616655111312866
0.1472867727279663 0.007751941680908203 -0.9680901169776917
0.1472867727279663 0.007751941680908203 -0.91214919090271
0.1472867727279663 0.007751941680908203 0.08325204998254776
0.1472867727279663 0.00775194214656949 0.13338463008403778
0.1472867727279663 0.007751941680908203 0.8220333456993103
0.1472867727279663 0.007751941680908203 0.961193323135376
0.1472867727279663 0.02325582504272461 -0.9679495096206665
0.1472867727279663 0.02325582504272461 -0.9145668745040894
0.1472867727279663 0.02325582504272461 0.07816065847873688
0.1472867727279663 0.02325582504272461 0.13269828259944916
0.1472867727279663 0.02325582504272461 0.825207531452179
0.1472867727279663 0.02325582504272461 0.9546284675598145
0.1472867727279663 0.038759708404541016 -0.9677340388298035
0.1472867727279663 0.038759708404541016 -0.9112366437911987
0.1472867727279663 0.038759708404541016 0.07362789660692215
0.1472867727279663 0.038759708404541016 0.13226820528507233
0.1472867727279663 0.038759708404541016 0.8346527218818665
0.1472867727279663 0.038759708404541016 0.9465233087539673
0.1472867727279663 0.05426359176635742 -0.9676917791366577
0.1472867727279663 0.05426359176635742 -0.9039500951766968
0.1472867727279663 0.05426359176635742 0.07301956415176392
0.1472867727279663 0.05426359176635742 0.13214193284511566
0.1472867727279663 0.05426359176635742 0.8534748554229736
0.1472867727279663 0.05426359176635742 0.9218167066574097
0.1472867727279663 0.06976747512817383 -0.9675036072731018
0.1472867727279663 0.06976747512817383 -0.8974440097808838
0.1472867727279663 0.06976747512817383 0.07544074952602386
0.1472867727279663 0.06976747512817383 0.13224253058433533
0.1472867876291275 0.08527135848999023 -0.9677652716636658
0.1472867727279663 0.08527135848999023 -0.8935633897781372
0.1472867727279663 0.08527135848999023 0.0771036148071289
0.1472867727279663 0.08527135103940964 0.13225722312927246
0.1472867727279663 0.10077524185180664 -0.9684467315673828
0.1472867727279663 0.10077524185180664 -0.8915820121765137
0.1472867727279663 0.10077524185180664 0.07561124861240387
0.1472867727279663 0.10077524185180664 0.13220348954200745
0.1472867876291275 0.11627912521362305 -0.9688765406608582
0.1472867727279663 0.11627912521362305 -0.889862596988678
0.1472867727279663 0.11627912521362305 0.06958632171154022
0.1472867727279663 0.11627912521362305 0.1321473866701126
0.1472867727279663 0.1317828893661499 -0.9695385098457336
0.1472867727279663 0.1317828893661499 -0.8891041278839111
0.1472867727279663 0.1317828893661499 0.059707581996917725
0.1472867727279663 0.1317828893661499 0.1321307122707367
0.1472867727279663 0.1472867727279663 -0.970713198184967
0.1472867727279663 0.1472867727279663 -0.9121092557907104
0.1472867727279663 0.1472867727279663 0.042639270424842834
0.1472867876291275 0.1472867876291275 0.1322343796491623
0.1472867727279663 0.16279065608978271 -0.9714248180389404
0.1472867727279663 0.16279065608978271 -0.916282594203949
0.1472867727279663 0.16279065608978271 0.0016864314675331116
0.1472867727279663 0.16279065608978271 0.1324269026517868
0.1472867727279663 0.17829453945159912 -0.9719477295875549
0.1472867727279663 0.17829453945159912 -0.8666272163391113
0.1472867727279663 0.17829453945159912 -0.6931147575378418
0.1472867727279663 0.17829453945159912 0.1325129121541977
0.1472867727279663 0.19379842281341553 -0.9722146987915039
0.1472867727279663 0.19379842281341553 0.1324177384376526
0.1472867727279663 0.20930230617523193 -0.9723236560821533
0.1472867727279663 0.20930232107639313 0.13221271336078644
0.1472867727279663 0.22480618953704834 -0.9719123840332031
0.1472867727279663 0.22480618953704834 0.13131685554981232
0.16279065608978271 -0.24031007289886475 -0.6237993836402893
0.16279065608978271 -0.24031007289886475 -0.5622348785400391
0.16279065608978271 -0.22480618953704834 -0.6359788775444031
0.16279065608978271 -0.22480618953704834 -0.4230331480503082
0.16279065608978271 -0.20930230617523193 -0.7025100588798523
0.16279065608978271 -0.20930230617523193 0.13046510517597198
0.16279065608978271 -0.19379842281341553 -0.8045508861541748
0.16279065608978271 -0.19379842281341553 0.12992717325687408
0.16279065608978271 -0.1782945990562439 -0.9696479439735413
0.16279065608978271 -0.1782945990562439 0.12915544211864471
0.16279065608978271 -0.1627907156944275 -0.9673787951469421
0.16279065608978271 -0.1627907156944275 0.12686625123023987
0.16279065608978271 -0.14728683233261108 -0.9659046530723572
0.16279065608978271 -0.14728683233261108 0.12494911253452301
0.16279065608978271 -0.13178294897079468 -0.965097188949585
0.16279065608978271 -0.13178294897079468 0.12419344484806061
0.16279065608978271 -0.11627906560897827 -0.9651079177856445
0.16279065608978271 -0.11627906560897827 0.12425967305898666
0.16279065608978271 -0.10077518224716187 -0.9655815958976746
0.16279065608978271 -0.10077518224716187 -0.8401862382888794
0.16279065608978271 -0.10077518224716187 -0.7037136554718018
0.16279065608978271 -0.10077518224716187 -0.5093861818313599
0.16279064118862152 -0.10077518224716187 -0.47233015298843384
0.16279065608978271 -0.10077518224716187 -0.08551215380430222
0.16279064118862152 -0.10077517479658127 -0.021684562787413597
0.16279065608978271 -0.10077518224716187 0.12553781270980835
0.16279065608978271 -0.08527129888534546 -0.9662063121795654
0.16279065608978271 -0.08527129888534546 -0.8620300889015198
0.16279065608978271 -0.08527129888534546 -0.6643442511558533
0.16279065608978271 -0.08527129888534546 -0.5891082882881165
0.16279065608978271 -0.08527129888534546 -0.40803253650665283
0.16279065608978271 -0.08527129888534546 -0.09795311838388443
0.16279065608978271 -0.08527129888534546 -0.010964779183268547
0.16279065608978271 -0.08527129888534546 0.12717002630233765
0.16279065608978271 -0.06976741552352905 -0.9665634036064148
0.16279065608978271 -0.06976741552352905 -0.875368058681488
0.16279065608978271 -0.06976741552352905 -0.27428343892097473
0.16279065608978271 -0.06976741552352905 -0.11489696055650711
0.16279065608978271 -0.06976741552352905 0.008860595524311066
0.16279065608978271 -0.06976741552352905 0.1289745420217514
0.16279065608978271 -0.05426358804106712 -0.9666864275932312
0.16279065608978271 -0.05426359176635742 -0.8786485195159912
0.1627906709909439 -0.05426359549164772 -0.2537768483161926
0.16279065608978271 -0.05426359176635742 -0.14509987831115723
0.16279065608978271 -0.05426359176635742 0.03757515177130699
0.16279065608978271 -0.05426359176635742 0.13095711171627045
0.16279065608978271 -0.05426359176635742 0.8492112159729004
0.16279065608978271 -0.05426359176635742 0.9187731742858887
0.16279065608978271 -0.038759708404541016 -0.9666726589202881
0.16279065608978271 -0.038759708404541016 -0.8811557292938232
0.16279065608978271 -0.038759708404541016 -0.23151034116744995
0.16279065608978271 -0.03875970467925072 -0.1924068033695221
0.16279065608978271 -0.038759708404541016 0.05392700433731079
0.16279065608978271 -0.038759708404541016 0.13220548629760742
0.16279065608978271 -0.038759708404541016 0.8279427886009216
0.16279065608978271 -0.038759708404541016 0.9404178261756897
0.16279065608978271 -0.02325582504272461 -0.9664885997772217
0.16279065608978271 -0.02325582504272461 -0.8935478925704956
0.16279065608978271 -0.02325582504272461 0.07086231559515
0.16279065608978271 -0.02325582504272461 0.13302500545978546
0.16279065608978271 -0.02325582504272461 0.8183181285858154
0.16279065608978271 -0.02325582504272461 0.9521251320838928
0.16279065608978271 -0.007751941680908203 -0.9663202166557312
0.16279065608978271 -0.007751941680908203 -0.9102340340614319
0.16279065608978271 -0.007751941680908203 0.0840175449848175
0.16279065608978271 -0.00775194214656949 0.13361400365829468
0.16279065608978271 -0.007751941680908203 0.8122695684432983
0.1627906709909439 -0.00775194214656949 0.954513430595398
0.16279065608978271 0.007751941680908203 -0.9659298658370972
0.16279065608978271 0.007751941680908203 -0.9177661538124084
0.16279065608978271 0.007751941680908203 0.08398419618606567
0.16279065608978271 0.007751941680908203 0.13327404856681824
0.16279065608978271 0.007751941680908203 0.8122904300689697
0.16279064118862152 0.007751941680908203 0.9543629884719849
0.16279065608978271 0.02325582504272461 -0.9655488133430481
0.16279065608978271 0.02325582504272461 -0.9198387265205383
0.16279065608978271 0.02325582504272461 0.07602408528327942
0.16279064118862152 0.02325582504272461 0.13258688151836395
0.16279065608978271 0.02325582504272461 0.81772381067276
0.16279065608978271 0.02325582504272461 0.9512157440185547
0.16279065608978271 0.038759708404541016 -0.9648724794387817
0.16279065608978271 0.038759708404541016 -0.9164125323295593
0.16279065608978271 0.038759708404541016 0.0695403665304184
0.16279065608978271 0.038759708404541016 0.13216307759284973
0.16279065608978271 0.038759708404541016 0.8264689445495605
0.16279065608978271 0.038759708404541016 0.9388943314552307
0.16279065608978271 0.05426359176635742 -0.9644467830657959
0.16279065608978271 0.05426359176635742 -0.9091605544090271
0.16279065608978271 0.05426359176635742 0.06903383135795593
0.16279065608978271 0.05426359549164772 0.1320490837097168
0.16279065608978271 0.05426359176635742 0.8464468121528625
0.16279065608978271 0.05426359176635742 0.9149341583251953
0.16279065608978271 0.06976747512817383 -0.9640799760818481
0.16279065608978271 0.06976747512817383 -0.8991010189056396
0.16279065608978271 0.06976747512817383 0.0729176253080368
0.16279064118862152 0.06976747512817383 0.13215254247188568
0.16279065608978271 0.08527135848999023 -0.9644137024879456
0.16279065608978271 0.08527135848999023 -0.8926250338554382
0.16279065608978271 0.08527135848999023 0.07553824782371521
0.16279065608978271 0.08527135848999023 0.1321619153022766
0.16279065608978271 0.10077524185180664 -0.9652976393699646
0.16279065608978271 0.10077524185180664 -0.8897724747657776
0.16279065608978271 0.10077524185180664 0.07423558086156845
0.16279065608978271 0.10077524185180664 0.13209381699562073
0.16279065608978271 0.11627912521362305 -0.9660133123397827
0.16279065608978271 0.11627912521362305 -0.8877712488174438
0.16279065608978271 0.11627912521362305 0.06778177618980408
0.16279065608978271 0.11627912521362305 0.13203075528144836
0.1627906709909439 0.1317828893661499 -0.9668671488761902
0.16279065608978271 0.1317828893661499 -0.8861373662948608
0.16279065608978271 0.1317828893661499 0.05732106789946556
0.16279065608978271 0.1317828893661499 0.1320142298936844
0.16279064118862152 0.1472867727279663 -0.9671772718429565
0.16279065608978271 0.1472867727279663 -0.8942592740058899
0.16279065608978271 0.1472867727279663 0.039080530405044556
0.16279065608978271 0.1472867727279663 0.13211290538311005
0.16279065608978271 0.16279065608978271 -0.9676228761672974
0.16279065608978271 0.16279065608978271 -0.9099690318107605
0.16279065608978271 0.16279065608978271 -0.0033872632775455713
0.1627906709909439 0.1627906709909439 0.13229964673519135
0.16279065608978271 0.17829453945159912 -0.9681078195571899
0.16279065608978271 0.17829453945159912 -0.8544192910194397
0.16279065608978271 0.17829453945159912 -0.7162517309188843
0.16279065608978271 0.17829453945159912 0.13240095973014832
0.16279065608978271 0.19379842281341553 -0.9687323570251465
0.16279065608978271 0.19379842281341553 0.1323329359292984
0.16279065608978271 0.20930230617523193 -0.9695042371749878
0.16279065608978271 0.20930232107639313 0.1321462094783783
0.16279065608978271 0.22480618953704834 -0.970262348651886
0.16279065608978271 0.22480618953704834 0.13002589344978333
0.17829453945159912 -0.22480618953704834 -0.5992510318756104
0.17829453945159912 -0.22480618953704834 -0.46348947286605835
0.17829453945159912 -0.20930230617523193 -0.6959890127182007
0.17829453945159912 -0.20930230617523193 0.12945616245269775
0.17829453945159912 -0.19379842281341553 -0.8079807758331299
0.17829453945159912 -0.19379842281341553 0.128841370344162
0.17829453945159912 -0.1782945990562439 -0.9637477397918701
0.17829453945159912 -0.1782945990562439 0.1279556155204773
0.17829453945159912 -0.1627907156944275 -0.9620971083641052
0.17829453945159912 -0.1627907156944275 0.1258581578731537
0.17829453945159912 -0.14728683233261108 -0.9598952531814575
0.17829453945159912 -0.14728683233261108 0.12416821718215942
0.17829453945159912 -0.13178294897079468 -0.9588117003440857
0.17829453945159912 -0.13178294897079468 0.12349976599216461
0.17829453945159912 -0.11627906560897827 -0.9589512348175049
0.17829453945159912 -0.11627906560897827 0.123571015894413
0.17829453945159912 -0.10077518224716187 -0.9597302675247192
0.17829453945159912 -0.10077518224716187 -0.837582528591156
0.17829453945159912 -0.10077518224716187 -0.7206137180328369
0.17829453945159912 -0.10077518224716187 0.12478318065404892
0.17829453945159912 -0.08527129888534546 -0.9609183073043823
0.17829453945159912 -0.08527129888534546 -0.8587340712547302
0.17829453945159912 -0.08527129888534546 -0.6788820028305054
0.17829453945159912 -0.08527129888534546 -0.5551102757453918
0.17829453945159912 -0.08527129888534546 -0.4235858917236328
0.17829453945159912 -0.08527129888534546 -0.0856158584356308
0.17829455435276031 -0.08527130633592606 -0.03794112429022789
0.17829453945159912 -0.08527129888534546 0.1264263540506363
0.17829453945159912 -0.06976741552352905 -0.9618211984634399
0.17829455435276031 -0.06976741552352905 -0.8735227584838867
0.17829453945159912 -0.06976741552352905 -0.6397517919540405
0.17829452455043793 -0.06976741552352905 -0.6087152361869812
0.17829453945159912 -0.06976741552352905 -0.35432785749435425
0.17829453945159912 -0.06976741552352905 -0.30809423327445984
0.17829453945159912 -0.06976741552352905 -0.28839734196662903
0.17829453945159912 -0.06976741552352905 -0.10592100769281387
0.17829453945159912 -0.06976741552352905 -0.015208335593342781
0.17829453945159912 -0.06976741552352905 0.12817338109016418
0.17829453945159912 -0.05426359176635742 -0.9622079133987427
0.17829453945159912 -0.05426359176635742 -0.877508819103241
0.17829453945159912 -0.05426359176635742 -0.25952115654945374
0.17829453945159912 -0.05426359176635742 -0.13051965832710266
0.17829453945159912 -0.05426359176635742 0.014116479083895683
0.17829453945159912 -0.05426359176635742 0.12986412644386292
0.17829453945159912 -0.05426359176635742 0.8407139182090759
0.17829453945159912 -0.05426359176635742 0.9134930372238159
0.17829453945159912 -0.038759708404541016 -0.9622617959976196
0.17829453945159912 -0.038759708404541016 -0.8826023936271667
0.17829455435276031 -0.038759708404541016 -0.23984786868095398
0.17829453945159912 -0.038759708404541016 -0.18242628872394562
0.17829453945159912 -0.038759708404541016 0.041589125990867615
0.17829453945159912 -0.03875970467925072 0.13193947076797485
0.17829453945159912 -0.038759708404541016 0.8205240964889526
0.17829453945159912 -0.038759708404541016 0.9347928166389465
0.17829453945159912 -0.02325582504272461 -0.9621178507804871
0.17829453945159912 -0.02325582504272461 -0.904346764087677
0.17829453945159912 -0.02325582504272461 0.06152133271098137
0.17829453945159912 -0.02325582504272461 0.13247506320476532
0.17829453945159912 -0.02325582504272461 0.8091907501220703
0.17829453945159912 -0.02325582504272461 0.946965217590332
0.17829453945159912 -0.007751941680908203 -0.9622092247009277
0.17829453945159912 -0.007751941680908203 -0.9169340133666992
0.17829453945159912 -0.007751941680908203 0.07883327454328537
0.17829453945159912 -0.007751941680908203 0.13281439244747162
0.17829453945159912 -0.007751941680908203 0.8049489855766296
0.17829453945159912 -0.007751941680908203 0.9517025947570801
0.17829453945159912 0.007751941680908203 -0.9618274569511414
0.17829453945159912 0.007751941680908203 -0.9228761196136475
0.17829453945159912 0.007751941680908203 0.07976420223712921
0.17829453945159912 0.007751941680908203 0.13255108892917633
0.17829453945159912 0.007751941680908203 0.8049526214599609
0.17829453945159912 0.007751941680908203 0.9513434767723083
0.17829453945159912 0.02325582504272461 -0.9612401723861694
0.17829453945159912 0.02325582504272461 -0.9236668348312378
0.17829453945159912 0.02325582504272461 0.06999623775482178
0.17829452455043793 0.02325582504272461 0.1321323812007904
0.17829453945159912 0.02325582504272461 0.8085262775421143
0.17829453945159912 0.02325582504272461 0.9451169371604919
0.17829453945159912 0.038759708404541016 -0.959976077079773
0.17829453945159912 0.038759708404541016 -0.9215289950370789
0.17829453945159912 0.038759708404541016 0.06340388208627701
0.17829453945159912 0.038759712129831314 0.13188853859901428
0.17829453945159912 0.038759708404541016 0.8187141418457031
0.17829453945159912 0.038759708404541016 0.9333304166793823
0.17829453945159912 0.05426359176635742 -0.9591200351715088
0.17829453945159912 0.05426359176635742 -0.9152055382728577
0.17829453945159912 0.05426359176635742 0.0636686384677887
0.17829453945159912 0.05426359176635742 0.1318240910768509
0.17829453945159912 0.05426359176635742 0.8391553163528442
0.17829453945159912 0.05426359176635742 0.9087807536125183
0.17829453945159912 0.06976747512817383 -0.9585859179496765
0.17829453945159912 0.06976747512817383 -0.9071813821792603
0.17829453945159912 0.06976747512817383 0.06928344815969467
0.17829453945159912 0.06976747512817383 0.13192041218280792
0.17829453945159912 0.08527135848999023 -0.9589601755142212
0.17829453945159912 0.08527135848999023 -0.8951175212860107
0.17829453945159912 0.08527135848999023 0.07299298793077469
0.17829452455043793 0.08527135848999023 0.13191254436969757
