0.3178294897079468 0.21739059686660767 -0.3333333134651184
0.3178294897079468 0.2176000326871872 -0.317829430103302
0.3178294897079468 0.2175959348678589 -0.30232560634613037
0.3178294897079468 0.21748211979866028 -0.28682172298431396
0.3178294897079468 0.2169952392578125 -0.27131783962249756
0.3178294897079468 0.21689537167549133 -0.25581395626068115
0.3178294897079468 0.21690545976161957 -0.24031007289886475
0.3178294897079468 0.2169676125049591 -0.22480618953704834
0.3178294897079468 0.21701321005821228 -0.20930230617523193
0.3178294897079468 0.2172878086566925 -0.19379842281341553
0.3178294897079468 0.21778050065040588 -0.1782945990562439
0.3178294897079468 0.21812660992145538 -0.1627907156944275
0.3178294897079468 0.21861517429351807 -0.14728683233261108
0.3178294897079468 0.21887508034706116 -0.13178294897079468
0.3178294897079468 0.2189362347126007 -0.11627906560897827
0.3178294897079468 0.21884505450725555 -0.10077518224716187
0.3178294897079468 0.21836917102336884 -0.08527129888534546
0.3178294897079468 0.2179296612739563 -0.06976741552352905
0.3178294897079468 0.21769088506698608 -0.05426359176635742
0.3178294897079468 0.21774129569530487 -0.038759708404541016
0.3178294897079468 0.21786612272262573 -0.02325582504272461
0.3178294897079468 0.21824616193771362 -0.007751941680908203
0.3178294897079468 0.21861261129379272 0.007751941680908203
0.3178294897079468 0.2189236283302307 0.02325582504272461
0.3178294897079468 0.21912860870361328 0.038759708404541016
0.3178294897079468 0.2209351807832718 0.05426359176635742
0.3178294897079468 0.22032678127288818 0.08527135848999023
0.3178294599056244 0.22680094838142395 -0.9844961166381836
0.3178294897079468 0.22481867671012878 -0.968992292881012
0.3178294897079468 0.22501298785209656 0.06976747512817383
0.3333333730697632 -0.2303209751844406 -0.9844961166381836
0.3333333730697632 -0.22624047100543976 -0.9689922332763672
0.3333333730697632 -0.2255060374736786 -0.9534883499145508
0.3333333730697632 -0.22540882229804993 -0.9379844665527344
0.3333333730697632 -0.2254096269607544 -0.9224806427955627
0.3333333730697632 -0.2253675013780594 -0.9069768190383911
0.3333333730697632 -0.2253553867340088 -0.8914728760719299
0.3333333730697632 -0.22534702718257904 -0.8759689927101135
0.3333333730697632 -0.22535866498947144 -0.8604651093482971
0.3333333730697632 -0.22535113990306854 -0.8449612259864807
0.3333333730697632 -0.2253851443529129 -0.8294573426246643
0.3333333730697632 -0.22542355954647064 -0.8139535188674927
0.3333333730697632 -0.2254137098789215 -0.7984496355056763
0.3333333730697632 -0.225456103682518 -0.7829457521438599
0.3333333730697632 -0.2254386842250824 -0.7674418687820435
0.3333333730697632 -0.2254774421453476 -0.751937985420227
0.3333333730697632 -0.22546376287937164 -0.7364341020584106
0.3333333730697632 -0.2254927009344101 -0.7209302186965942
0.3333333730697632 -0.2255185842514038 -0.7054263353347778
0.3333333730697632 -0.22558341920375824 -0.6899224519729614
0.3333333730697632 -0.22562281787395477 -0.674418568611145
0.3333333730697632 -0.22570626437664032 -0.6589146852493286
0.3333333730697632 -0.2257435917854309 -0.643410861492157
0.3333333730697632 -0.22573544085025787 -0.6279069781303406
0.3333333730697632 -0.22572442889213562 -0.6124030947685242
0.3333333730697632 -0.22570489346981049 -0.5968992114067078
0.3333333730697632 -0.2256939560174942 -0.5813953876495361
0.3333333730697632 -0.22564858198165894 -0.5658915042877197
0.3333333730697632 -0.22559532523155212 -0.5503876209259033
0.3333333730697632 -0.2255900502204895 -0.5348837375640869
0.3333333730697632 -0.22558128833770752 -0.5193798542022705
0.3333333730697632 -0.22553613781929016 -0.5038759708404541
0.3333333730697632 -0.22557559609413147 -0.4883720874786377
0.3333333730697632 -0.2255697101354599 -0.4728682041168213
0.3333333730697632 -0.2255687713623047 -0.4573643207550049
0.3333333730697632 -0.22552676498889923 -0.4418604373931885
0.3333333730697632 -0.22552244365215302 -0.42635661363601685
0.3333333730697632 -0.22546832263469696 -0.41085273027420044
0.3333333730697632 -0.22544646263122559 -0.39534884691238403
0.3333333730697632 -0.2253820151090622 -0.3798449635505676
0.3333333730697632 -0.22538238763809204 -0.3643410801887512
0.3333333730697632 -0.22536863386631012 -0.3488371968269348
0.3333333730697632 -0.2253049910068512 -0.3333333134651184
0.3333333730697632 -0.22533833980560303 -0.317829430103302
0.3333333730697632 -0.22533303499221802 -0.30232560634613037
0.3333333730697632 -0.2253539264202118 -0.28682172298431396
0.3333333730697632 -0.2252887785434723 -0.27131783962249756
0.3333333730697632 -0.22525733709335327 -0.25581395626068115
0.3333333730697632 -0.2251555323600769 -0.24031007289886475
0.3333333730697632 -0.22507396340370178 -0.22480618953704834
0.3333333730697632 -0.22497472167015076 -0.20930230617523193
0.3333333730697632 -0.22495867311954498 -0.19379842281341553
0.3333333730697632 -0.22501325607299805 -0.1782945990562439
0.3333333730697632 -0.2250785231590271 -0.1627907156944275
0.3333333730697632 -0.22514432668685913 -0.14728683233261108
0.3333333730697632 -0.22519317269325256 -0.13178294897079468
0.3333333730697632 -0.22522525489330292 -0.11627906560897827
0.3333333730697632 -0.22528764605522156 -0.10077518224716187
0.3333333730697632 -0.22531461715698242 -0.08527129888534546
0.3333333730697632 -0.22530154883861542 -0.06976741552352905
0.3333333730697632 -0.22530899941921234 -0.05426359176635742
0.3333333730697632 -0.22527840733528137 -0.038759708404541016
0.3333333730697632 -0.22526204586029053 -0.02325582504272461
0.3333333730697632 -0.22523073852062225 -0.007751941680908203
0.3333333730697632 -0.22519785165786743 0.007751941680908203
0.3333333730697632 -0.22505426406860352 0.02325582504272461
0.3333333730697632 -0.22507041692733765 0.038759708404541016
0.3333333730697632 -0.22559483349323273 0.05426359176635742
0.3333333730697632 -0.2266145497560501 0.06976747512817383
0.3333333730697632 -0.22536413371562958 0.08527135848999023
0.3333333730697632 -0.1511555314064026 -0.20930230617523193
0.3333333730697632 -0.15262463688850403 -0.19379842281341553
0.3333333730697632 -0.15237835049629211 -0.1782945990562439
0.3333333730697632 -0.1504201889038086 -0.1627907156944275
0.3333333730697632 -0.14141257107257843 -0.22480618953704834
0.3333333730697632 -0.1277269721031189 -0.1627907156944275
0.3333333730697632 -0.11088122427463531 -0.22480618953704834
0.3333333730697632 -0.11488363146781921 -0.1782946139574051
0.3333333730697632 -0.09663888812065125 -0.22480618953704834
0.3333333730697632 -0.0884077325463295 -0.1782945990562439
0.3333333730697632 -0.07738229632377625 -0.24031007289886475
0.3333333730697632 -0.07274684309959412 -0.1627907156944275
0.3333333730697632 -0.06543546915054321 -0.25581395626068115
0.3333333730697632 -0.06030640751123428 -0.14728683233261108
0.3333333730697632 -0.05619565397500992 0.6899224519729614
0.3333333730697632 -0.058352336287498474 0.7054263353347778
0.3333333730697632 -0.05950808525085449 0.7209302186965942
0.3333333730697632 -0.05991522967815399 0.7364341020584106
0.3333333730697632 -0.059737592935562134 0.751937985420227
0.3333333730697632 -0.058467794209718704 0.7674418687820435
0.3333333730697632 -0.05624058470129967 0.7829457521438599
0.3333333730697632 -0.04490135610103607 -0.13178294897079468
0.3333333730697632 -0.04274279251694679 0.6434108018875122
0.3333333730697632 -0.0477030873298645 0.6589146852493286
0.3333333730697632 -0.052046552300453186 0.674418568611145
0.3333333730697632 -0.05256009101867676 0.7984496355056763
0.3333333730697632 -0.04721873998641968 0.8139535188674927
0.3333333730697632 -0.03582591190934181 -0.11627906560897827
0.3333333730697632 -0.033603038638830185 -0.10077518224716187
0.3333333730697632 -0.03061140701174736 -0.08527129888534546
0.3333333730697632 -0.023404410108923912 -0.06976741552352905
0.3333333730697632 -0.037155959755182266 0.10077523440122604
0.3333333730697632 -0.03499278798699379 0.11627912521362305
0.3333333730697632 -0.03429007902741432 0.1317828893661499
0.3333333730697632 -0.03187542408704758 0.1472867727279663
0.3333333730697632 -0.028128840029239655 0.16279065608978271
0.3333333730697632 -0.02385054901242256 0.17829453945159912
0.3333333730697632 -0.02913311868906021 0.612403154373169
0.3333333730697632 -0.03599824383854866 0.6279069185256958
0.3333333730697632 -0.03819941356778145 0.8294574022293091
0.3333333730697632 -0.02336217276751995 0.8449612855911255
0.3333333730697632 -0.022818801924586296 -0.25581395626068115
0.3333333730697632 -0.01105842087417841 -0.24031007289886475
0.3333333730697632 -0.018350593745708466 0.19379842281341553
0.3333333730697632 -0.014450781978666782 0.20930230617523193
0.3333333730697632 -0.010677361860871315 0.22480618953704834
0.3333333730697632 -0.009713781997561455 0.5813953876495361
0.3333333730697632 -0.0221735630184412 0.5968992710113525
0.3333333730697632 0.0006989771500229836 0.22480618953704834
0.3333333730697632 0.0027091754600405693 0.5813953876495361
0.3333333730697632 0.022387376055121422 -0.24031007289886475
0.3333333730697632 0.020858870819211006 -0.11627906560897827
0.3333333730697632 0.01929810270667076 -0.10077518224716187
0.3333333730697632 0.016407886520028114 -0.08527129888534546
0.3333333730697632 0.010990727692842484 -0.06976741552352905
0.3333333730697632 0.02054997906088829 0.16279065608978271
0.3333333730697632 0.016401279717683792 0.17829453945159912
0.3333333730697632 0.011930344626307487 0.19379842281341553
0.3333333730697632 0.008631650358438492 0.20930230617523193
0.3333333730697632 0.015698662027716637 0.5968992710113525
0.3333333730697632 0.01888611540198326 0.8449612855911255
0.3333333432674408 0.025287624448537827 -0.13178294897079468
0.3333333730697632 0.029988490045070648 0.10077524185180664
0.3333333730697632 0.028891347348690033 0.11627912521362305
0.33333340287208557 0.026652604341506958 0.1317828893661499
0.3333333730697632 0.024259867146611214 0.1472867727279663
0.3333333730697632 0.024355506524443626 0.612403154373169
0.3333333730697632 0.029906688258051872 0.6279069185256958
0.3333333730697632 0.03513283282518387 0.6434108018875122
0.3333333730697632 0.033697083592414856 0.8294574022293091
0.3333333432674408 0.04254285991191864 -0.24031007289886475
0.3333333432674408 0.04098528251051903 -0.14728683233261108
0.3333333432674408 0.041298575699329376 0.6589146852493286
0.3333333730697632 0.04615788161754608 0.674418568611145
0.3333333730697632 0.04966503754258156 0.6899224519729614
0.3333333730697632 0.053583499044179916 0.7054263353347778
0.3333333730697632 0.05162933096289635 0.7829457521438599
0.3333333730697632 0.04822523146867752 0.7984496355056763
0.3333333730697632 0.042396873235702515 0.8139535188674927
0.3333333730697632 0.06022807955741882 -0.22480618953704834
0.3333333730697632 0.05700445547699928 -0.1627907156944275
0.3333333730697632 0.05577321723103523 0.7209302186965942
0.3333333432674408 0.05655669420957565 0.7364340424537659
0.3333333730697632 0.05606882646679878 0.751937985420227
0.3333333730697632 0.05479171872138977 0.7674418687820435
0.3333333730697632 0.07377215474843979 -0.1782945990562439
0.3333333730697632 0.09079451113939285 -0.1782945990562439
0.3333333730697632 0.10309838503599167 -0.22480618953704834
0.3333333730697632 0.1078389585018158 -0.1627907156944275
0.3333333730697632 0.1228649839758873 -0.24031007289886475
0.3333333730697632 0.1279107928276062 -0.14728683233261108
0.3333333730697632 0.13763684034347534 -0.24031007289886475
0.3333333730697632 0.13406117260456085 -0.14728683233261108
0.3333333730697632 0.1513354331254959 -0.22480617463588715
0.3333333730697632 0.15571191906929016 -0.20930230617523193
0.3333333730697632 0.15554073452949524 -0.19379842281341553
0.3333333730697632 0.15331465005874634 -0.1782945990562439
0.3333333730697632 0.14752721786499023 -0.1627907156944275
0.3333333730697632 0.220419242978096 -0.9534883499145508
0.3333333730697632 0.2200666218996048 -0.9379844665527344
0.3333333730697632 0.22011753916740417 -0.922480583190918
0.3333333730697632 0.22003985941410065 -0.9069766998291016
0.3333333730697632 0.22002238035202026 -0.8914728164672852
0.3333333730697632 0.21998456120491028 -0.8759689927101135
0.3333333730697632 0.2198970913887024 -0.8604651093482971
0.3333333730697632 0.21976269781589508 -0.8449612855911255
0.3333333730697632 0.2196781486272812 -0.8294573426246643
0.3333333730697632 0.21949604153633118 -0.8139535188674927
0.3333333730697632 0.21923938393592834 -0.7984496355056763
0.3333333730697632 0.219058096408844 -0.7829457521438599
0.3333333730697632 0.21870899200439453 -0.7674418687820435
0.3333333730697632 0.2185335010290146 -0.751937985420227
0.3333333730697632 0.21821165084838867 -0.7364341020584106
0.3333333730697632 0.2180478274822235 -0.7209302186965942
0.3333333730697632 0.21795983612537384 -0.7054263353347778
0.3333333730697632 0.21782028675079346 -0.6899224519729614
0.3333333730697632 0.21770550310611725 -0.674418568611145
0.3333333730697632 0.2174694836139679 -0.6589146852493286
0.3333333730697632 0.2176119089126587 -0.643410861492157
0.3333333730697632 0.2176387906074524 -0.6279069781303406
0.3333333730697632 0.21760696172714233 -0.6124030947685242
0.3333333730697632 0.2173309326171875 -0.5968992114067078
0.3333333730697632 0.217207670211792 -0.5813953876495361
0.3333333730697632 0.2170543670654297 -0.5658915042877197
0.3333333730697632 0.21684250235557556 -0.5503876209259033
0.3333333730697632 0.21671569347381592 -0.5348837375640869
0.3333333730697632 0.21652434766292572 -0.5193798542022705
0.3333333730697632 0.21636691689491272 -0.5038759708404541
0.3333333730697632 0.21637937426567078 -0.4883720874786377
0.3333333730697632 0.21641099452972412 -0.4728682041168213
0.3333333730697632 0.21653315424919128 -0.4573643207550049
0.3333333730697632 0.21663182973861694 -0.4418604373931885
0.3333333730697632 0.2167329490184784 -0.42635661363601685
0.3333333730697632 0.21685229241847992 -0.41085273027420044
0.3333333730697632 0.21707642078399658 -0.39534884691238403
0.3333333730697632 0.21724441647529602 -0.3798449635505676
0.3333333730697632 0.2175372838973999 -0.3643410801887512
0.3333333730697632 0.21779406070709229 -0.3488371968269348
0.3333333730697632 0.21791979670524597 -0.3333333134651184
0.3333333730697632 0.21811771392822266 -0.317829430103302
0.3333333730697632 0.21816757321357727 -0.30232560634613037
0.3333333730697632 0.21815484762191772 -0.28682172298431396
0.3333333730697632 0.21777302026748657 -0.27131783962249756
0.3333333730697632 0.21776840090751648 -0.25581395626068115
0.3333333730697632 0.217842698097229 -0.24031007289886475
0.3333333730697632 0.21797265112400055 -0.22480618953704834
0.3333333730697632 0.2180757224559784 -0.20930230617523193
0.3333333730697632 0.21841320395469666 -0.19379842281341553
0.3333333730697632 0.2189185917377472 -0.1782945990562439
0.3333333730697632 0.21920987963676453 -0.1627907156944275
0.3333333730697632 0.21962353587150574 -0.14728683233261108
0.3333333730697632 0.21981382369995117 -0.13178294897079468
0.3333333730697632 0.2198220193386078 -0.11627906560897827
0.3333333730697632 0.21971715986728668 -0.10077518224716187
0.3333333730697632 0.21930113434791565 -0.08527129888534546
0.3333333730697632 0.21893516182899475 -0.06976741552352905
0.3333333730697632 0.21871015429496765 -0.05426359176635742
0.3333333730697632 0.21873408555984497 -0.038759708404541016
0.3333333730697632 0.21882987022399902 -0.02325582504272461
0.3333333730697632 0.2191319763660431 -0.007751941680908203
0.3333333730697632 0.21940584480762482 0.007751941680908203
0.3333333730697632 0.2196444571018219 0.02325582504272461
0.3333333730697632 0.21988365054130554 0.038759708404541016
0.3333333730697632 0.22186429798603058 0.05426359176635742
0.3333333730697632 0.2208634614944458 0.08527135848999023
0.3333333730697632 0.22743070125579834 -0.9844961166381836
0.3333333432674408 0.22488436102867126 -0.9689922332763672
0.3333333730697632 0.22522325813770294 0.06976747512817383
0.3488372564315796 -0.23088675737380981 -0.9844961166381836
0.3488372564315796 -0.22614645957946777 -0.9689922332763672
0.3488372564315796 -0.22539915144443512 -0.9534883499145508
0.3488372564315796 -0.2253018319606781 -0.9379844665527344
0.3488372564315796 -0.22531433403491974 -0.9224806427955627
0.3488372564315796 -0.22528347373008728 -0.9069767594337463
0.3488372564315796 -0.22527138888835907 -0.8914728760719299
0.3488372564315796 -0.2252586930990219 -0.8759689927101135
0.3488372564315796 -0.2252638190984726 -0.8604651093482971
0.3488372564315796 -0.22525261342525482 -0.8449612259864807
0.3488372564315796 -0.2252812534570694 -0.8294573426246643
0.3488372564315796 -0.2253151386976242 -0.8139535188674927
0.3488372564315796 -0.22530978918075562 -0.7984496355056763
0.3488372564315796 -0.22535201907157898 -0.7829457521438599
0.3488372564315796 -0.22534511983394623 -0.7674418687820435
0.3488372564315796 -0.22538934648036957 -0.751937985420227
0.3488372564315796 -0.2253829687833786 -0.7364341020584106
0.3488372564315796 -0.22541266679763794 -0.7209302186965942
0.3488372564315796 -0.2254307121038437 -0.7054263353347778
0.3488372564315796 -0.22548232972621918 -0.6899224519729614
0.3488372564315796 -0.2255205661058426 -0.674418568611145
0.3488372564315796 -0.22558799386024475 -0.6589146852493286
0.3488372564315796 -0.22560535371303558 -0.643410861492157
0.3488372564315796 -0.225600004196167 -0.6279069781303406
0.3488372564315796 -0.2255987823009491 -0.6124030947685242
0.3488372564315796 -0.22558990120887756 -0.5968992114067078
0.3488372564315796 -0.22558988630771637 -0.5813953876495361
0.3488372564315796 -0.22555740177631378 -0.5658915042877197
0.3488372564315796 -0.22551459074020386 -0.5503876209259033
0.3488372564315796 -0.22551290690898895 -0.5348837375640869
0.3488372564315796 -0.225507915019989 -0.5193798542022705
0.3488372564315796 -0.22546729445457458 -0.5038759708404541
0.3488372564315796 -0.22550177574157715 -0.4883720874786377
0.3488372564315796 -0.22549453377723694 -0.4728682041168213
0.3488372564315796 -0.22549331188201904 -0.4573643207550049
0.3488372564315796 -0.22546595335006714 -0.4418604373931885
0.3488372564315796 -0.22547565400600433 -0.42635661363601685
0.3488372564315796 -0.22543834149837494 -0.41085273027420044
0.3488372564315796 -0.2254270613193512 -0.39534884691238403
0.3488372564315796 -0.22537386417388916 -0.3798449635505676
0.3488372564315796 -0.22536970674991608 -0.3643410801887512
0.3488372564315796 -0.2253580391407013 -0.3488371968269348
0.3488372564315796 -0.22530440986156464 -0.3333333134651184
0.3488372564315796 -0.22534139454364777 -0.317829430103302
0.3488372564315796 -0.22534620761871338 -0.30232560634613037
0.3488372564315796 -0.22538255155086517 -0.28682172298431396
0.3488372564315796 -0.22534407675266266 -0.27131783962249756
0.3488372564315796 -0.22531642019748688 -0.25581395626068115
0.3488372564315796 -0.22522197663784027 -0.24031007289886475
0.3488372564315796 -0.22515763342380524 -0.22480618953704834
0.3488372564315796 -0.22507256269454956 -0.20930230617523193
0.3488372564315796 -0.22506031394004822 -0.19379842281341553
0.3488372564315796 -0.2251105159521103 -0.1782945990562439
0.3488372564315796 -0.2251693606376648 -0.1627907156944275
0.3488372564315796 -0.2252272367477417 -0.14728683233261108
0.3488372564315796 -0.2252630591392517 -0.13178294897079468
0.3488372564315796 -0.22527097165584564 -0.11627906560897827
0.3488372564315796 -0.22529973089694977 -0.10077518224716187
0.3488372564315796 -0.22530297935009003 -0.08527129888534546
0.3488372564315796 -0.22526699304580688 -0.06976741552352905
0.3488372564315796 -0.22527800500392914 -0.05426359176635742
0.3488372564315796 -0.22525978088378906 -0.038759708404541016
0.3488372564315796 -0.22526083886623383 -0.02325582504272461
0.3488372564315796 -0.22525039315223694 -0.007751941680908203
0.3488372564315796 -0.2252429872751236 0.007751941680908203
0.3488372564315796 -0.2251330316066742 0.02325582504272461
0.3488372564315796 -0.225166916847229 0.038759708404541016
0.3488372564315796 -0.2256648689508438 0.05426359176635742
0.3488372564315796 -0.22668959200382233 0.06976747512817383
0.3488372564315796 -0.22586122155189514 0.08527135848999023
0.3488372564315796 -0.14761942625045776 -0.19379842281341553
0.3488372564315796 -0.14722321927547455 -0.20930230617523193
0.3488372564315796 -0.12067773938179016 -0.20930230617523193
0.3488372564315796 -0.12426944077014923 -0.19379842281341553
0.3488372564315796 -0.08603718876838684 -0.20930230617523193
0.3488372564315796 -0.07747974991798401 -0.22480618953704834
0.3488372564315796 -0.08272755146026611 -0.19379842281341553
0.3488372564315796 -0.0733945369720459 -0.1782945990562439
0.3488372564315796 -0.05653711408376694 -0.24031007289886475
0.3488372564315796 -0.05504443496465683 0.6589146852493286
0.3488372564315796 -0.05698777735233307 0.674418568611145
0.3488372564315796 -0.058342523872852325 0.6899224519729614
0.3488372564315796 -0.05903007835149765 0.7054263353347778
0.3488372564315796 -0.05925552919507027 0.7209302186965942
0.3488372564315796 -0.058641962707042694 0.7364341020584106
0.3488372564315796 -0.05697861686348915 0.751937985420227
0.3488372564315796 -0.054855767637491226 0.7674418687820435
0.3488372564315796 -0.05350201576948166 -0.24031007289886475
0.3488372564315796 -0.046158939599990845 -0.22480618953704834
0.3488372564315796 -0.04013628140091896 -0.20930230617523193
0.3488372564315796 -0.04019578918814659 -0.1782945990562439
0.3488372564315796 -0.04704418033361435 0.10077524185180664
0.3488372564315796 -0.04603849723935127 0.11627912521362305
0.3488372564315796 -0.04597250372171402 0.1317828893661499
0.3488372564315796 -0.04562738910317421 0.1472867727279663
0.3488372564315796 -0.043386444449424744 0.16279065608978271
0.3488372564315796 -0.041051194071769714 0.17829453945159912
0.3488372564315796 -0.039171259850263596 0.19379842281341553
0.3488372564315796 -0.040646642446517944 0.5503876209259033
0.3488372564315796 -0.04260098934173584 0.5658915042877197
0.3488372564315796 -0.04436781257390976 0.5813953876495361
0.3488372564315796 -0.0463302880525589 0.5968992710113525
0.3488372564315796 -0.048029154539108276 0.612403154373169
0.3488372564315796 -0.049954384565353394 0.6279069185256958
0.3488372564315796 -0.052304793149232864 0.643410861492157
0.3488372564315796 -0.04924018308520317 0.7829457521438599
0.3488372564315796 -0.04553351178765297 0.7984496355056763
0.3488372266292572 -0.03721904382109642 -0.1782945841550827
0.3488372564315796 -0.033919014036655426 -0.1627907156944275
0.3488372564315796 -0.032743580639362335 -0.14728683233261108
0.3488372564315796 -0.03089902549982071 -0.13178294897079468
0.3488372564315796 -0.028900574892759323 -0.11627906560897827
0.3488372564315796 -0.026871584355831146 -0.10077518224716187
0.3488372564315796 -0.03748205676674843 0.20930230617523193
0.348837286233902 -0.03606486693024635 0.22480618953704834
0.3488372564315796 -0.035218652337789536 0.24031007289886475
0.348837286233902 -0.0345686674118042 0.25581395626068115
0.3488372564315796 -0.03434895724058151 0.27131783962249756
0.3488372564315796 -0.03411111608147621 0.28682172298431396
0.3488372564315796 -0.03391106426715851 0.30232560634613037
0.3488372564315796 -0.03369467332959175 0.3178294897079468
0.3488372564315796 -0.03340600058436394 0.3333333730697632
0.3488372564315796 -0.032958924770355225 0.3488372564315796
0.3488372564315796 -0.03259315714240074 0.364341139793396
0.3488372564315796 -0.032011717557907104 0.37984490394592285
0.3488372564315796 -0.03149959444999695 0.39534878730773926
0.3488372564315796 -0.031207986176013947 0.41085267066955566
0.3488372564315796 -0.030991174280643463 0.42635655403137207
0.3488372564315796 -0.030985279008746147 0.4418604373931885
0.3488372564315796 -0.03141837194561958 0.4573643207550049
0.3488372564315796 -0.03203173354268074 0.4728682041168213
0.3488372564315796 -0.03308185562491417 0.4883720874786377
0.3488372564315796 -0.03444533795118332 0.5038759708404541
0.3488372564315796 -0.03600376471877098 0.5193798542022705
0.3488372564315796 -0.038757819682359695 0.5348837375640869
0.3488372564315796 -0.03514867275953293 0.8139535188674927
0.3488372564315796 -0.020664865151047707 -0.20930229127407074
0.3488372564315796 -0.01971503160893917 -0.08527129143476486
0.3488372564315796 -0.018060332164168358 0.8294574022293091
0.3488372564315796 0.007888132706284523 -0.20930230617523193
0.3488372564315796 0.015918204560875893 -0.19379842281341553
0.3488372564315796 0.01966564543545246 -0.1782945990562439
0.3488372564315796 0.020481327548623085 -0.1627907156944275
0.3488372564315796 0.021248629316687584 -0.14728683233261108
0.3488372564315796 0.020491017028689384 -0.13178294897079468
0.3488372564315796 0.0185410026460886 -0.11627906560897827
0.3488372564315796 0.016081413254141808 -0.10077518224716187
0.3488372564315796 0.011059394106268883 -0.08527129888534546
0.3488372564315796 0.015116987749934196 0.8294574022293091
0.3488372564315796 0.03833320364356041 0.11627912521362305
0.3488372564315796 0.03747409209609032 0.1317828893661499
0.3488372564315796 0.037375111132860184 0.1472867727279663
0.3488372564315796 0.035548754036426544 0.16279065608978271
0.3488372564315796 0.0336424894630909 0.17829453945159912
0.3488372564315796 0.03240404278039932 0.19379842281341553
0.3488372564315796 0.03167133033275604 0.20930230617523193
0.3488372564315796 0.03099782019853592 0.22480618953704834
0.3488372564315796 0.03050367347896099 0.24031007289886475
0.3488372564315796 0.03004799410700798 0.25581395626068115
0.3488372564315796 0.029892783612012863 0.27131783962249756
0.3488372564315796 0.029583115130662918 0.28682172298431396
0.3488372564315796 0.029284680262207985 0.30232560634613037
0.3488372564315796 0.028994500637054443 0.3178294897079468
0.3488372564315796 0.028717704117298126 0.3333333730697632
0.3488372564315796 0.028231127187609673 0.3488372564315796
0.3488372564315796 0.027991298586130142 0.364341139793396
0.3488372564315796 0.027485329657793045 0.37984490394592285
0.3488372564315796 0.027163513004779816 0.39534878730773926
0.3488372564315796 0.027137871831655502 0.41085267066955566
0.3488372564315796 0.027120128273963928 0.42635655403137207
0.3488372564315796 0.027368711307644844 0.4418604373931885
0.3488372564315796 0.02801339700818062 0.4573643207550049
0.3488372564315796 0.0288257896900177 0.4728682041168213
0.3488372564315796 0.029881050810217857 0.4883720576763153
0.3488372564315796 0.03093307465314865 0.5038759708404541
0.3488372564315796 0.0319385901093483 0.5193798542022705
0.3488372564315796 0.03344501554965973 0.5348837375640869
0.3488372564315796 0.03497069329023361 0.5503876209259033
0.3488372564315796 0.03723584860563278 0.5658915042877197
0.3488372564315796 0.038263335824012756 0.7984496355056763
0.3488372564315796 0.03086828626692295 0.8139535188674927
0.348837286233902 0.04133705049753189 0.10077524185180664
0.3488372564315796 0.03963351622223854 0.5813953876495361
0.3488372564315796 0.04206419363617897 0.5968992710113525
0.3488372564315796 0.044195741415023804 0.612403154373169
0.3488372564315796 0.0465470552444458 0.6279069185256958
0.3488372564315796 0.048390258103609085 0.6434108018875122
0.3488372564315796 0.05019797384738922 0.6589146852493286
0.3488372564315796 0.05235008895397186 0.674418568611145
0.3488372564315796 0.053090281784534454 0.751937985420227
0.3488372564315796 0.049624282866716385 0.7674418687820435
0.3488372564315796 0.04591389745473862 0.7829457521438599
0.3488372564315796 0.0545990988612175 0.6899224519729614
0.3488372564315796 0.05563021078705788 0.7054263353347778
0.3488372564315796 0.055823199450969696 0.7209302186965942
0.3488372266292572 0.055092427879571915 0.7364341020584106
0.3488372564315796 0.11626622080802917 -0.22480618953704834
0.3488372564315796 0.10456867516040802 -0.20930230617523193
0.3488372564315796 0.10395413637161255 -0.19379842281341553
0.3488372564315796 0.11154729872941971 -0.1782945990562439
0.3488372564315796 0.13924989104270935 -0.22480618953704834
0.3488372564315796 0.14721548557281494 -0.19379842281341553
0.3488372564315796 0.14192521572113037 -0.1782945990562439
0.3488372564315796 0.14789526164531708 -0.20930230617523193
0.3488372564315796 0.22067378461360931 -0.9534883499145508
0.3488372564315796 0.22023993730545044 -0.9379844665527344
0.3488372564315796 0.2203027755022049 -0.9224806427955627
0.3488372564315796 0.22028754651546478 -0.9069767594337463
0.3488372564315796 0.22031553089618683 -0.8914728760719299
0.3488372564315796 0.22032591700553894 -0.8759689331054688
0.3488372564315796 0.2203543782234192 -0.8604651093482971
0.3488372564315796 0.22038432955741882 -0.8449612259864807
0.3488372564315796 0.22049492597579956 -0.8294573426246643
0.3488372564315796 0.2204771637916565 -0.8139535188674927
0.3488372564315796 0.22036296129226685 -0.7984496355056763
0.3488372564315796 0.2203698605298996 -0.7829457521438599
0.3488372564315796 0.22016119956970215 -0.7674418687820435
0.3488372564315796 0.22005599737167358 -0.751937985420227
0.3488372564315796 0.21981558203697205 -0.7364341020584106
0.3488372564315796 0.21965542435646057 -0.7209302186965942
0.3488372564315796 0.21960121393203735 -0.7054263353347778
0.3488372564315796 0.21947458386421204 -0.6899224519729614
0.3488372564315796 0.21939070522785187 -0.674418568611145
0.3488372564315796 0.2192363739013672 -0.6589146852493286
0.3488372564315796 0.2193000316619873 -0.643410861492157
0.3488372564315796 0.2191617488861084 -0.6279069781303406
0.3488372564315796 0.21897879242897034 -0.6124030947685242
0.3488372564315796 0.21865712106227875 -0.5968992114067078
0.3488372564315796 0.21858066320419312 -0.5813953876495361
0.3488372564315796 0.2184433788061142 -0.5658915042877197
0.3488372564315796 0.21820417046546936 -0.5503876209259033
0.3488372564315796 0.21816612780094147 -0.5348837375640869
0.3488372564315796 0.21805839240550995 -0.5193798542022705
0.3488372564315796 0.21796131134033203 -0.5038759708404541
0.3488372564315796 0.2180507481098175 -0.4883720874786377
0.3488372564315796 0.21813923120498657 -0.4728682041168213
0.3488372564315796 0.21829986572265625 -0.4573643207550049
0.3488372564315796 0.2184068262577057 -0.4418604373931885
0.3488372564315796 0.2184632420539856 -0.42635661363601685
0.3488372564315796 0.2184969186782837 -0.41085273027420044
0.3488372564315796 0.21858450770378113 -0.39534884691238403
0.3488372564315796 0.21854567527770996 -0.3798449635505676
0.3488372564315796 0.21866241097450256 -0.3643410801887512
0.3488372564315796 0.21880289912223816 -0.3488371968269348
0.3488372564315796 0.218840554356575 -0.3333333134651184
0.3488372564315796 0.21900489926338196 -0.317829430103302
0.3488372564315796 0.2191559076309204 -0.30232560634613037
0.3488372564315796 0.21933504939079285 -0.28682172298431396
0.3488372564315796 0.21940532326698303 -0.27131783962249756
0.3488372564315796 0.2195930778980255 -0.25581395626068115
0.3488372564315796 0.21965369582176208 -0.24031007289886475
0.3488372564315796 0.21978801488876343 -0.22480618953704834
0.3488372564315796 0.2199164628982544 -0.20930230617523193
0.3488372564315796 0.22018155455589294 -0.19379842281341553
0.3488372564315796 0.22048917412757874 -0.1782945990562439
0.3488372564315796 0.22061094641685486 -0.1627907156944275
0.3488372564315796 0.22085034847259521 -0.14728683233261108
0.3488372564315796 0.22100433707237244 -0.13178294897079468
0.3488372564315796 0.22102409601211548 -0.11627906560897827
0.3488372564315796 0.22103555500507355 -0.10077518224716187
0.3488372564315796 0.2209194004535675 -0.08527129888534546
0.3488372564315796 0.22091855108737946 -0.06976741552352905
0.3488372564315796 0.22083771228790283 -0.05426359176635742
0.3488372564315796 0.22078236937522888 -0.038759708404541016
0.3488372564315796 0.2207161784172058 -0.02325582504272461
0.3488372564315796 0.22071146965026855 -0.007751941680908203
0.3488372564315796 0.22065678238868713 0.007751941680908203
0.3488372564315796 0.2206265777349472 0.02325582504272461
0.3488372564315796 0.2208118438720703 0.038759708404541016
0.3488372564315796 0.22271905839443207 0.05426359176635742
0.3488372564315796 0.22170737385749817 0.08527135848999023
0.3488372564315796 0.22815018892288208 -0.9844961166381836
0.3488372266292572 0.2248649299144745 -0.9689922332763672
0.3488372564315796 0.2253793627023697 0.06976747512817383
0.364341139793396 -0.23115397989749908 -0.9844961166381836
0.364341139793396 -0.2260066717863083 -0.9689922332763672
0.364341139793396 -0.22525474429130554 -0.9534883499145508
0.364341139793396 -0.22518445551395416 -0.9379844665527344
0.364341139793396 -0.2252214103937149 -0.9224806427955627
0.364341139793396 -0.22520408034324646 -0.9069767594337463
0.364341139793396 -0.2251976877450943 -0.8914728760719299
0.364341139793396 -0.22518548369407654 -0.8759689927101135
0.364341139793396 -0.22518861293792725 -0.8604651093482971
0.364341139793396 -0.22517530620098114 -0.8449612259864807
0.364341139793396 -0.2252044528722763 -0.8294573426246643
0.364341139793396 -0.22523586452007294 -0.8139535188674927
0.364341139793396 -0.22523297369480133 -0.7984496355056763
0.364341139793396 -0.22528019547462463 -0.7829457521438599
0.364341139793396 -0.22527974843978882 -0.7674418687820435
0.364341139793396 -0.22532905638217926 -0.751937985420227
0.364341139793396 -0.22532092034816742 -0.7364341020584106
0.364341139793396 -0.22534146904945374 -0.7209302186965942
0.364341139793396 -0.22534653544425964 -0.7054263353347778
0.364341139793396 -0.22537970542907715 -0.6899224519729614
0.364341139793396 -0.22540031373500824 -0.674418568611145
0.364341139793396 -0.22545126080513 -0.6589146852493286
0.364341139793396 -0.2254589945077896 -0.643410861492157
0.364341139793396 -0.22544193267822266 -0.6279069185256958
0.364341139793396 -0.22543811798095703 -0.6124030947685242
0.364341139793396 -0.2254335731267929 -0.5968992114067078
0.364341139793396 -0.22544443607330322 -0.5813953876495361
0.364341139793396 -0.22542104125022888 -0.5658915042877197
0.364341139793396 -0.22538067400455475 -0.5503876209259033
0.364341139793396 -0.22538092732429504 -0.5348837375640869
0.364341139793396 -0.2253742814064026 -0.5193798542022705
0.364341139793396 -0.22533509135246277 -0.5038759708404541
0.364341139793396 -0.22536538541316986 -0.4883720874786377
0.364341139793396 -0.2253543585538864 -0.4728682041168213
0.364341139793396 -0.22535036504268646 -0.4573643207550049
0.364341139793396 -0.22532214224338531 -0.4418604373931885
0.364341139793396 -0.225333571434021 -0.42635661363601685
0.364341139793396 -0.22530017793178558 -0.41085273027420044
0.364341139793396 -0.22530025243759155 -0.39534884691238403
0.364341139793396 -0.22525069117546082 -0.3798449635505676
0.364341139793396 -0.22525067627429962 -0.3643410801887512
0.364341139793396 -0.2252407670021057 -0.3488371968269348
0.364341139793396 -0.22518181800842285 -0.3333333134651184
0.364341139793396 -0.22521214187145233 -0.317829430103302
0.364341139793396 -0.22520405054092407 -0.30232560634613037
0.364341139793396 -0.22522762417793274 -0.28682172298431396
0.364341139793396 -0.22517840564250946 -0.27131783962249756
0.364341139793396 -0.22515320777893066 -0.25581395626068115
0.364341139793396 -0.22505590319633484 -0.24031007289886475
0.364341139793396 -0.22499951720237732 -0.22480618953704834
0.364341139793396 -0.22492502629756927 -0.20930230617523193
0.364341139793396 -0.22491642832756042 -0.19379842281341553
0.364341139793396 -0.22497205436229706 -0.1782945990562439
0.364341139793396 -0.22502563893795013 -0.1627907156944275
0.364341139793396 -0.22507749497890472 -0.14728683233261108
0.364341139793396 -0.22510850429534912 -0.13178294897079468
0.364341139793396 -0.2251165509223938 -0.11627906560897827
0.364341139793396 -0.2251480668783188 -0.10077518224716187
0.364341139793396 -0.22516773641109467 -0.08527129888534546
0.364341139793396 -0.2251596599817276 -0.06976741552352905
0.364341139793396 -0.22517719864845276 -0.05426359176635742
0.364341139793396 -0.22515463829040527 -0.038759708404541016
0.364341139793396 -0.22514797747135162 -0.02325582504272461
0.364341139793396 -0.22512204945087433 -0.007751941680908203
0.364341139793396 -0.2250939905643463 0.007751941680908203
0.364341139793396 -0.22496028244495392 0.02325582504272461
0.364341139793396 -0.22496825456619263 0.038759708404541016
0.364341139793396 -0.22553454339504242 0.05426359176635742
0.364341139793396 -0.22660043835639954 0.06976747512817383
0.364341139793396 -0.22587190568447113 0.08527135848999023
0.364341139793396 -0.05432996153831482 0.5968992710113525
0.364341139793396 -0.05487737059593201 0.612403154373169
0.364341139793396 -0.05538194999098778 0.6279069185256958
0.364341139793396 -0.05600977689027786 0.6434108018875122
0.364341139793396 -0.056588366627693176 0.6589146852493286
0.364341139793396 -0.05718541145324707 0.674418568611145
0.364341139793396 -0.05749954655766487 0.6899224519729614
0.364341139793396 -0.057209908962249756 0.7054263353347778
0.364341139793396 -0.056287653744220734 0.7209302186965942
0.364341139793396 -0.05478210002183914 0.7364341020584106
0.364341139793396 -0.052426256239414215 0.10077524185180664
0.364341139793396 -0.05178704112768173 0.11627912521362305
0.364341139793396 -0.051746916025877 0.1317828893661499
0.364341139793396 -0.05218948796391487 0.1472867727279663
0.364341139793396 -0.050653938204050064 0.16279065608978271
0.364341139793396 -0.04919672757387161 0.17829453945159912
0.364341139793396 -0.04841846227645874 0.19379842281341553
0.364341139793396 -0.04790164530277252 0.20930230617523193
0.364341139793396 -0.04731345921754837 0.22480618953704834
0.364341139793396 -0.04680614173412323 0.24031007289886475
0.364341139793396 -0.046429216861724854 0.25581395626068115
0.364341139793396 -0.046277329325675964 0.27131783962249756
0.364341139793396 -0.046194061636924744 0.28682172298431396
0.364341139793396 -0.04617178440093994 0.30232560634613037
0.364341139793396 -0.0462053157389164 0.3178294897079468
0.364341139793396 -0.04615887254476547 0.3333333730697632
0.364341139793396 -0.04590224847197533 0.3488372564315796
0.364341139793396 -0.045777007937431335 0.364341139793396
0.364341139793396 -0.045588407665491104 0.37984490394592285
0.364341139793396 -0.04557109996676445 0.39534878730773926
0.364341139793396 -0.04561098664999008 0.41085267066955566
0.364341139793396 -0.04587089270353317 0.42635655403137207
0.364341139793396 -0.0460902601480484 0.4418604373931885
0.364341139793396 -0.04671895503997803 0.4573643207550049
0.364341139793396 -0.047359637916088104 0.4728682041168213
0.364341139793396 -0.04799686744809151 0.4883720874786377
0.364341139793396 -0.04865130037069321 0.5038759708404541
0.364341139793396 -0.0492439791560173 0.5193798542022705
0.364341139793396 -0.050052329897880554 0.5348837375640869
0.364341139793396 -0.05079391226172447 0.5503876209259033
0.364341139793396 -0.05184551700949669 0.5658915042877197
0.364341139793396 -0.05289968475699425 0.5813954472541809
0.364341139793396 -0.05135417357087135 0.751937985420227
0.364341139793396 -0.04666874185204506 0.7674418687820435
0.364341139793396 -0.041884250938892365 0.7829457521438599
0.364341139793396 -0.023870320990681648 -0.14728683233261108
0.364341139793396 -0.03144117444753647 0.7984496355056763
0.364341139793396 -0.01163596659898758 -0.1782945990562439
0.364341139793396 -0.021056823432445526 -0.1627907007932663
0.364341139793396 -0.016714340075850487 -0.13178294897079468
0.364341139793396 -0.011909913271665573 0.8139535188674927
0.364341139793396 0.00022929790429770947 -0.1782945990562439
0.3643411099910736 0.010544633492827415 -0.1627907007932663
0.364341139793396 0.012474697083234787 -0.14728683233261108
0.364341139793396 0.01056276448071003 -0.13178294897079468
0.364341139793396 0.007828979752957821 0.8139535188674927
0.364341139793396 0.038427550345659256 0.22480618953704834
0.364341139793396 0.03778922185301781 0.24031007289886475
0.364341139793396 0.03732126206159592 0.25581395626068115
0.364341139793396 0.037470247596502304 0.27131783962249756
0.364341139793396 0.03775107488036156 0.28682172298431396
0.364341139793396 0.038049355149269104 0.30232560634613037
0.364341139793396 0.038649268448352814 0.3178294897079468
0.364341139793396 0.034256186336278915 0.7829457521438599
0.3643411695957184 0.024378890171647072 0.7984496355056763
0.364341139793396 0.046130429953336716 0.10077524185180664
0.364341139793396 0.04370414465665817 0.11627912521362305
0.364341139793396 0.04213935509324074 0.1317828893661499
0.364341139793396 0.042094651609659195 0.1472867727279663
0.364341139793396 0.04110121354460716 0.16279065608978271
0.364341139793396 0.04003257676959038 0.17829455435276031
0.364341139793396 0.039366450160741806 0.19379842281341553
0.364341139793396 0.039008378982543945 0.20930230617523193
0.364341139793396 0.03915076702833176 0.3333333730697632
0.3643411099910736 0.03926839679479599 0.3488372564315796
0.364341139793396 0.03952539712190628 0.364341139793396
0.364341139793396 0.03969917446374893 0.37984490394592285
0.364341139793396 0.04002988338470459 0.39534878730773926
0.364341139793396 0.040447261184453964 0.41085267066955566
0.364341139793396 0.040937237441539764 0.42635655403137207
0.3643411099910736 0.04143951088190079 0.4418604075908661
0.364341139793396 0.04230152815580368 0.4573643207550049
0.364341139793396 0.0431598462164402 0.4728682041168213
0.364341139793396 0.043986618518829346 0.4883721172809601
0.364341139793396 0.04476546123623848 0.5038759708404541
0.364341139793396 0.045429475605487823 0.5193798542022705
0.364341139793396 0.046429865062236786 0.5348837375640869
0.364341139793396 0.047259945422410965 0.5503876209259033
0.364341139793396 0.04807637259364128 0.5658915042877197
0.364341139793396 0.04863046482205391 0.5813953876495361
0.364341139793396 0.04943091422319412 0.5968992710113525
0.364341139793396 0.05024908855557442 0.612403154373169
0.364341139793396 0.05131556838750839 0.6279069185256958
0.364341139793396 0.052428193390369415 0.6434108018875122
0.364341139793396 0.0535171814262867 0.6589146852493286
0.364341139793396 0.05422607436776161 0.7054263353347778
0.364341139793396 0.0529857873916626 0.7209302186965942
0.364341139793396 0.05059563368558884 0.7364341020584106
0.364341139793396 0.04765615984797478 0.751937985420227
0.364341139793396 0.04264133423566818 0.7674418687820435
0.3643411099910736 0.05430236831307411 0.6744185090065002
0.364341139793396 0.054494038224220276 0.6899225115776062
0.364341139793396 0.22106310725212097 -0.9534883499145508
0.364341139793396 0.22067385911941528 -0.9379844665527344
0.364341139793396 0.22074958682060242 -0.9224806427955627
0.364341139793396 0.22076165676116943 -0.9069767594337463
0.364341139793396 0.22082015872001648 -0.8914728760719299
0.364341139793396 0.2208555042743683 -0.8759689331054688
0.364341139793396 0.22097811102867126 -0.8604651093482971
0.364341139793396 0.22112785279750824 -0.8449611663818359
0.364341139793396 0.22136837244033813 -0.8294574022293091
0.364341139793396 0.22148746252059937 -0.8139535188674927
0.364341139793396 0.22150002419948578 -0.7984496355056763
0.364341139793396 0.22162899374961853 -0.7829457521438599
0.364341139793396 0.2215440571308136 -0.7674418687820435
0.364341139793396 0.22153854370117188 -0.751937985420227
0.364341139793396 0.2213706374168396 -0.7364341020584106
0.364341139793396 0.22121189534664154 -0.7209302186965942
0.364341139793396 0.2210862934589386 -0.7054263353347778
0.364341139793396 0.22098469734191895 -0.6899224519729614
0.364341139793396 0.22100746631622314 -0.674418568611145
0.364341139793396 0.220949187874794 -0.6589146852493286
0.364341139793396 0.22084833681583405 -0.643410861492157
0.364341139793396 0.2206774801015854 -0.6279069781303406
0.364341139793396 0.2204607129096985 -0.6124030947685242
0.364341139793396 0.22016793489456177 -0.5968992114067078
0.364341139793396 0.22009804844856262 -0.5813953876495361
0.364341139793396 0.21997147798538208 -0.5658915042877197
0.364341139793396 0.21974292397499084 -0.5503876209259033
0.364341139793396 0.21977105736732483 -0.5348837375640869
0.364341139793396 0.21972791850566864 -0.5193798542022705
0.364341139793396 0.2196824848651886 -0.5038759708404541
0.364341139793396 0.21978946030139923 -0.4883720874786377
0.364341139793396 0.2198956310749054 -0.4728682041168213
0.364341139793396 0.22004082798957825 -0.4573643207550049
0.364341139793396 0.22013337910175323 -0.4418604373931885
0.364341139793396 0.2201685905456543 -0.42635661363601685
0.364341139793396 0.22015342116355896 -0.41085273027420044
0.364341139793396 0.22016820311546326 -0.39534884691238403
0.364341139793396 0.2200358808040619 -0.3798449635505676
0.364341139793396 0.22006911039352417 -0.3643410801887512
0.364341139793396 0.22013959288597107 -0.3488371968269348
0.364341139793396 0.22013267874717712 -0.3333333134651184
0.364341139793396 0.22024062275886536 -0.317829430103302
0.364341139793396 0.2203875482082367 -0.30232560634613037
0.364341139793396 0.22062712907791138 -0.28682172298431396
0.364341139793396 0.22079481184482574 -0.27131783962249756
0.364341139793396 0.22093094885349274 -0.25581395626068115
0.364341139793396 0.22097699344158173 -0.24031007289886475
0.364341139793396 0.22106386721134186 -0.22480618953704834
0.364341139793396 0.22113414108753204 -0.20930230617523193
0.364341139793396 0.22134163975715637 -0.19379842281341553
0.364341139793396 0.22159641981124878 -0.1782945990562439
0.364341139793396 0.22169966995716095 -0.1627907156944275
0.364341139793396 0.22194169461727142 -0.14728683233261108
0.364341139793396 0.2221124917268753 -0.13178294897079468
0.364341139793396 0.22213676571846008 -0.11627906560897827
0.364341139793396 0.22225087881088257 -0.10077518224716187
0.364341139793396 0.222245991230011 -0.08527129888534546
0.364341139793396 0.2222897708415985 -0.06976741552352905
0.364341139793396 0.222247913479805 -0.05426359176635742
0.364341139793396 0.22215569019317627 -0.038759708404541016
0.364341139793396 0.22201797366142273 -0.02325582504272461
0.364341139793396 0.22191263735294342 -0.007751941680908203
0.364341139793396 0.22171927988529205 0.007751941680908203
0.364341139793396 0.2215057909488678 0.02325582504272461
0.364341139793396 0.22155310213565826 0.038759708404541016
0.364341139793396 0.22303393483161926 0.05426359176635742
0.364341139793396 0.22284914553165436 0.08527135848999023
0.364341139793396 0.22853806614875793 -0.9844961166381836
0.364341139793396 0.22480656206607819 -0.9689922332763672
0.3643411695957184 0.2252819687128067 0.06976748257875443
0.37984490394592285 -0.23123027384281158 -0.9844961166381836
0.37984490394592285 -0.22594396770000458 -0.9689922332763672
0.37984490394592285 -0.22517462074756622 -0.9534883499145508
0.37984490394592285 -0.22511708736419678 -0.9379844665527344
0.37984490394592285 -0.22516195476055145 -0.9224806427955627
0.37984490394592285 -0.22514739632606506 -0.9069767594337463
0.37984490394592285 -0.22514033317565918 -0.8914728760719299
0.37984490394592285 -0.22512385249137878 -0.8759689927101135
0.37984490394592285 -0.22512288391590118 -0.8604651093482971
0.37984490394592285 -0.2251049131155014 -0.8449612259864807
0.37984490394592285 -0.22513358294963837 -0.8294573426246643
0.37984490394592285 -0.225161612033844 -0.8139535188674927
0.37984490394592285 -0.2251565307378769 -0.7984496355056763
0.37984490394592285 -0.22520537674427032 -0.7829457521438599
0.37984490394592285 -0.22520646452903748 -0.7674418687820435
0.37984490394592285 -0.22525277733802795 -0.751937985420227
0.37984490394592285 -0.2252352237701416 -0.7364341020584106
0.37984490394592285 -0.2252427190542221 -0.7209302186965942
0.37984490394592285 -0.22523337602615356 -0.7054263353347778
0.37984490394592285 -0.22524791955947876 -0.6899224519729614
0.37984490394592285 -0.22524696588516235 -0.674418568611145
0.37984490394592285 -0.22528183460235596 -0.6589146852493286
0.37984490394592285 -0.22528785467147827 -0.643410861492157
0.37984490394592285 -0.2252582460641861 -0.6279069781303406
0.37984490394592285 -0.2252565622329712 -0.6124030947685242
0.37984490394592285 -0.22525879740715027 -0.5968992114067078
