-0.3374226987361908 0.19379842281341553 -0.8604651093482971
-0.3379842936992645 0.19379842281341553 -0.8449611663818359
-0.33991146087646484 0.19379842281341553 -0.8294573426246643
-0.33369991183280945 0.20930230617523193 -0.8914728760719299
-0.33564016222953796 0.20930230617523193 -0.8759690523147583
-0.33773571252822876 0.20930230617523193 -0.8604651093482971
-0.33873894810676575 0.20930230617523193 -0.8449611663818359
-0.3404167890548706 0.20930230617523193 -0.8294573426246643
-0.34826746582984924 0.20930232107639313 -0.8139535188674927
-0.33627867698669434 0.20930230617523193 -0.10077518224716187
-0.33439531922340393 0.22480618953704834 -0.8759689927101135
-0.33736470341682434 0.22480618953704834 -0.8604651689529419
-0.33918464183807373 0.22480618953704834 -0.8449612259864807
-0.3408721685409546 0.22480618953704834 -0.8294573426246643
-0.3467307388782501 0.22480618953704834 -0.8139535188674927
-0.3364470601081848 0.24031007289886475 -0.8604651689529419
-0.33956581354141235 0.24031007289886475 -0.8449612259864807
-0.3418712019920349 0.24031007289886475 -0.8294573426246643
-0.3471893072128296 0.24031007289886475 -0.8139535188674927
-0.33978739380836487 0.24031007289886475 -0.1782945990562439
-0.33475643396377563 0.25581395626068115 -0.8604651093482971
-0.33944812417030334 0.25581395626068115 -0.8449611663818359
-0.3428589105606079 0.25581395626068115 -0.8294574022293091
-0.3485740125179291 0.25581392645835876 -0.8139535188674927
-0.33838972449302673 0.27131783962249756 -0.8449611663818359
-0.34338152408599854 0.27131783962249756 -0.8294572830200195
-0.3400266766548157 0.27131783962249756 -0.27131783962249756
-0.33569279313087463 0.28682172298431396 -0.8449612259864807
-0.3429996967315674 0.28682172298431396 -0.8294573426246643
-0.3397251069545746 0.30232560634613037 -0.8294573426246643
-0.3471928834915161 0.30232560634613037 -0.8139535188674927
-0.34109264612197876 0.3178294897079468 -0.8139535188674927
-0.3401535153388977 0.3333333730697632 -0.42635661363601685
-0.33570075035095215 0.3488372564315796 -0.4728682041168213
-0.3207339346408844 -0.3643410801887512 -0.5193798542022705
-0.32533496618270874 -0.3488371968269348 -0.751937985420227
-0.33152714371681213 -0.333333283662796 -0.7984496355056763
-0.32364344596862793 -0.317829430103302 -0.8294573426246643
-0.323333740234375 -0.30232560634613037 -0.8449612259864807
-0.33134740591049194 -0.30232560634613037 -0.8294573426246643
-0.3199155330657959 -0.28682172298431396 -0.8604651093482971
-0.3252221345901489 -0.28682172298431396 -0.8449612259864807
-0.32896512746810913 -0.28682172298431396 -0.8294574022293091
-0.3218033015727997 -0.28682172298431396 -0.30232560634613037
-0.3182748258113861 -0.27131783962249756 -0.8759689927101135
-0.32113566994667053 -0.27131783962249756 -0.8604651093482971
-0.32528603076934814 -0.27131783962249756 -0.8449612259864807
-0.32861119508743286 -0.27131783962249756 -0.8294573426246643
-0.31812915205955505 -0.25581395626068115 -0.8914728760719299
-0.31936895847320557 -0.25581395626068115 -0.8759689927101135
-0.3232448101043701 -0.25581395626068115 -0.8604651689529419
-0.3263993561267853 -0.25581395626068115 -0.8449611663818359
-0.3303871750831604 -0.25581395626068115 -0.8294573426246643
-0.31813445687294006 -0.24031007289886475 -0.9069767594337463
-0.31941768527030945 -0.24031007289886475 -0.8914728760719299
-0.3218443989753723 -0.24031007289886475 -0.8759689927101135
-0.32493892312049866 -0.24031007289886475 -0.8604651093482971
-0.32765960693359375 -0.24031007289886475 -0.8449612855911255
-0.31923574209213257 -0.24031007289886475 -0.1782945990562439
-0.32022029161453247 -0.22480618953704834 -0.9069767594337463
-0.32231515645980835 -0.22480618953704834 -0.8914729356765747
-0.32405728101730347 -0.22480618953704834 -0.8759689927101135
-0.3262082040309906 -0.22480618953704834 -0.8604650497436523
-0.32897064089775085 -0.22480618953704834 -0.8449612259864807
-0.3252999782562256 -0.22480618953704834 -0.13178294897079468
-0.3206998109817505 -0.20930230617523193 -0.9224807024002075
-0.323190301656723 -0.20930230617523193 -0.9069767594337463
-0.3244832754135132 -0.20930230617523193 -0.8914729356765747
-0.32545265555381775 -0.20930230617523193 -0.8759689927101135
-0.3272334039211273 -0.20930230617523193 -0.8604651093482971
-0.3303891122341156 -0.20930230617523193 -0.8449612259864807
-0.32793688774108887 -0.20930230617523193 -0.08527129888534546
-0.3193368911743164 -0.19379842281341553 -0.9379844665527344
-0.3238871097564697 -0.19379842281341553 -0.9224806427955627
-0.32503175735473633 -0.19379842281341553 -0.9069767594337463
-0.3254762887954712 -0.19379842281341553 -0.8914728760719299
-0.3261479139328003 -0.19379842281341553 -0.8759689331054688
-0.3279222846031189 -0.19379842281341553 -0.8604651689529419
-0.331634521484375 -0.19379842281341553 -0.8449612259864807
-0.32289835810661316 -0.1782945990562439 -0.9379844665527344
-0.3258418142795563 -0.1782945990562439 -0.9224806427955627
-0.32582974433898926 -0.1782945990562439 -0.9069767594337463
-0.3259568214416504 -0.1782945990562439 -0.8914729356765747
-0.326444149017334 -0.1782945990562439 -0.8759689927101135
-0.3281014561653137 -0.1782945990562439 -0.8604650497436523
-0.33203306794166565 -0.1782945990562439 -0.8449611663818359
-0.3180849850177765 -0.1627907156944275 -0.9534883499145508
-0.32535338401794434 -0.1627907156944275 -0.9379844665527344
-0.3264486789703369 -0.1627907156944275 -0.9224807024002075
-0.326110303401947 -0.1627907156944275 -0.9069766998291016
-0.3259785771369934 -0.1627907156944275 -0.8914728760719299
-0.32622337341308594 -0.1627907156944275 -0.8759689927101135
-0.32752326130867004 -0.1627907156944275 -0.8604651689529419
-0.3306024968624115 -0.1627907156944275 -0.8449612259864807
-0.3197113871574402 -0.14728683233261108 -0.9534883499145508
-0.32667526602745056 -0.14728683233261108 -0.9379844069480896
-0.326748251914978 -0.14728683233261108 -0.9224807024002075
-0.32623255252838135 -0.14728683233261108 -0.9069767594337463
-0.32582223415374756 -0.14728683233261108 -0.8914728760719299
-0.32588255405426025 -0.14728683233261108 -0.8759689331054688
-0.32688671350479126 -0.14728683233261108 -0.8604650497436523
-0.3290484547615051 -0.14728683233261108 -0.8449612259864807
-0.3227112591266632 -0.13178294897079468 -0.9534883499145508
-0.327219694852829 -0.13178294897079468 -0.9379844665527344
-0.3269754648208618 -0.13178294897079468 -0.9224807024002075
-0.3262864947319031 -0.13178294897079468 -0.9069766998291016
-0.3256625831127167 -0.13178294897079468 -0.8914729356765747
-0.3256063461303711 -0.13178294897079468 -0.8759689331054688
-0.3264164328575134 -0.13178294897079468 -0.8604651093482971
-0.32806092500686646 -0.13178294897079468 -0.8449612259864807
-0.3248651921749115 -0.11627906560897827 -0.9534883499145508
-0.32754674553871155 -0.11627906560897827 -0.9379844665527344
-0.32733994722366333 -0.11627906560897827 -0.9224807024002075
-0.3264842629432678 -0.11627906560897827 -0.9069768190383911
-0.32568639516830444 -0.11627906560897827 -0.8914728760719299
-0.32552570104599 -0.11627906560897827 -0.8759689927101135
-0.3261721730232239 -0.11627907305955887 -0.8604651689529419
-0.3275788724422455 -0.11627906560897827 -0.8449612855911255
-0.3181554675102234 -0.10077518224716187 -0.9689922332763672
-0.3265063166618347 -0.10077518224716187 -0.9534883499145508
-0.3279109299182892 -0.10077518224716187 -0.9379844665527344
-0.3278880715370178 -0.10077518969774246 -0.9224807024002075
-0.3268452286720276 -0.10077518224716187 -0.9069768190383911
-0.3259037435054779 -0.10077518224716187 -0.8914728164672852
-0.3256705403327942 -0.10077518224716187 -0.8759689927101135
-0.3262295722961426 -0.10077518224716187 -0.8604651689529419
-0.32767799496650696 -0.10077518224716187 -0.8449612259864807
-0.32015562057495117 -0.10077518224716187 -0.3798449635505676
-0.3195578157901764 -0.08527129888534546 -0.9689922332763672
-0.32734569907188416 -0.08527129888534546 -0.9534883499145508
-0.3283329904079437 -0.08527129888534546 -0.9379844665527344
-0.32849955558776855 -0.08527129888534546 -0.922480583190918
-0.32726147770881653 -0.08527129888534546 -0.9069766998291016
-0.32622021436691284 -0.08527129888534546 -0.8914729356765747
-0.32599642872810364 -0.08527129888534546 -0.8759689927101135
-0.3266217112541199 -0.08527129888534546 -0.8604651093482971
-0.328400194644928 -0.08527129888534546 -0.8449611663818359
-0.3291603922843933 -0.08527129888534546 -0.3643410801887512
-0.3221900165081024 -0.06976741552352905 -0.9689922332763672
-0.3276851773262024 -0.06976741552352905 -0.9534883499145508
-0.32899513840675354 -0.06976741552352905 -0.9379844665527344
-0.3294423222541809 -0.06976741552352905 -0.9224806427955627
-0.3279530704021454 -0.06976741552352905 -0.9069767594337463
-0.32678544521331787 -0.06976741552352905 -0.8914728164672852
-0.32660725712776184 -0.06976741552352905 -0.8759689927101135
-0.3274221122264862 -0.06976741552352905 -0.8604651689529419
-0.32976120710372925 -0.06976741552352905 -0.8449612855911255
-0.32512325048446655 -0.06976741552352905 -0.3643410801887512
-0.3238467574119568 -0.05426359176635742 -0.9689922332763672
-0.327636182308197 -0.05426359176635742 -0.9534883499145508
-0.32966548204421997 -0.05426359176635742 -0.9379844665527344
-0.33055028319358826 -0.05426359549164772 -0.9224807024002075
-0.3287775218486786 -0.05426359176635742 -0.9069767594337463
-0.32743388414382935 -0.05426359176635742 -0.8914729356765747
-0.32728949189186096 -0.05426359176635742 -0.8759689331054688
-0.3283418118953705 -0.05426359176635742 -0.8604651093482971
-0.3312207758426666 -0.05426359549164772 -0.8449612259864807
-0.32776448130607605 -0.05426359176635742 -0.42635661363601685
-0.3309054672718048 -0.05426358804106712 -0.39534884691238403
-0.32918304204940796 -0.05426359549164772 0.6899225115776062
-0.3212519586086273 -0.05426359176635742 0.7054263353347778
-0.3319413661956787 -0.05426359176635742 0.7829457521438599
-0.31903648376464844 -0.05426359176635742 0.7984496355056763
-0.3252548575401306 -0.038759708404541016 -0.9689922332763672
-0.3276788592338562 -0.038759708404541016 -0.9534883499145508
-0.33046501874923706 -0.038759708404541016 -0.9379844665527344
-0.33193299174308777 -0.038759708404541016 -0.9224806427955627
-0.3298344612121582 -0.038759708404541016 -0.9069766998291016
-0.3281683027744293 -0.038759708404541016 -0.8914728760719299
-0.3280176818370819 -0.038759708404541016 -0.8759690523147583
-0.3293839991092682 -0.038759708404541016 -0.8604651093482971
-0.33290937542915344 -0.038759712129831314 -0.8449612855911255
-0.329196959733963 -0.038759708404541016 0.6279069185256958
-0.32327982783317566 -0.038759708404541016 0.6434108018875122
-0.32808494567871094 -0.038759708404541016 0.8294574022293091
-0.3264341950416565 -0.02325582504272461 -0.9689922332763672
-0.3278542459011078 -0.02325582504272461 -0.9534883499145508
-0.33129239082336426 -0.02325582504272461 -0.9379844665527344
-0.3309793770313263 -0.02325582318007946 -0.9069766998291016
-0.32893121242523193 -0.02325582504272461 -0.8914728760719299
-0.32877179980278015 -0.02325582504272461 -0.8759689331054688
-0.3305460214614868 -0.02325582504272461 -0.8604651093482971
-0.3300539553165436 -0.02325582690536976 0.5968992710113525
-0.324689120054245 -0.02325582504272461 0.612403154373169
-0.31810957193374634 -0.02325582504272461 0.6279069185256958
-0.3293117880821228 -0.02325582504272461 0.8449612855911255
-0.32772326469421387 -0.00775194214656949 -0.968992292881012
-0.32838737964630127 -0.007751941680908203 -0.9534883499145508
-0.33254846930503845 -0.007751941680908203 -0.9379844665527344
-0.33238548040390015 -0.007751941680908203 -0.9069767594337463
-0.32989394664764404 -0.007751941680908203 -0.8914728760719299
-0.3296821713447571 -0.007751941680908203 -0.8759689927101135
-0.33192360401153564 -0.007751941680908203 -0.8604650497436523
-0.33065474033355713 -0.007751941680908203 0.5813953876495361
-0.3256929814815521 -0.007751941680908203 0.5968992710113525
-0.32019785046577454 -0.007751941680908203 0.612403154373169
-0.3227900266647339 -0.007751941680908203 0.8604651689529419
-0.32834821939468384 0.007751941680908203 -0.9689922332763672
-0.32877618074417114 0.007751941680908203 -0.9534883499145508
-0.33314239978790283 0.00775194214656949 -0.9379845261573792
-0.33261680603027344 0.007751941680908203 -0.9069767594337463
-0.32994356751441956 0.007751941215246916 -0.8914728164672852
-0.32960760593414307 0.007751941215246916 -0.8759689927101135
-0.33167675137519836 0.007751941215246916 -0.8604651093482971
-0.33073776960372925 0.007751941680908203 0.5813953876495361
-0.3258160352706909 0.007751941680908203 0.5968992710113525
-0.32037198543548584 0.007751941680908203 0.612403154373169
-0.32203584909439087 0.007751941680908203 0.8604651689529419
-0.32861560583114624 0.02325582504272461 -0.9689922332763672
-0.32921600341796875 0.02325582504272461 -0.9534883499145508
-0.33203765749931335 0.02325582504272461 -0.9069766998291016
-0.32938164472579956 0.02325582504272461 -0.8914729356765747
-0.32885628938674927 0.02325582504272461 -0.8759689927101135
-0.3303358554840088 0.02325582318007946 -0.8604651093482971
-0.3312671482563019 0.02325582504272461 0.5968992710113525
-0.3255992531776428 0.02325582504272461 0.612403154373169
-0.3194379210472107 0.02325582504272461 0.6279069185256958
-0.3287554383277893 0.02325582504272461 0.8449612855911255
-0.3281325101852417 0.038759708404541016 -0.9689922332763672
-0.32949140667915344 0.038759708404541016 -0.9534883499145508
-0.3328786790370941 0.038759708404541016 -0.9379844069480896
-0.3310302793979645 0.038759708404541016 -0.9069767594337463
-0.328713595867157 0.038759708404541016 -0.8914728164672852
-0.32811567187309265 0.038759708404541016 -0.8759689927101135
-0.3290914297103882 0.038759708404541016 -0.8604651689529419
-0.332014799118042 0.038759708404541016 -0.8449612259864807
-0.327848881483078 0.038759708404541016 0.6434108018875122
-0.3214060068130493 0.038759708404541016 0.6589146852493286
-0.323982834815979 0.038759708404541016 0.8294574022293091
-0.3267984092235565 0.05426359176635742 -0.9689921736717224
-0.3296094536781311 0.05426359176635742 -0.9534883499145508
-0.33205094933509827 0.05426358804106712 -0.9379844069480896
-0.332603394985199 0.05426359176635742 -0.922480583190918
-0.33018219470977783 0.05426358804106712 -0.9069767594337463
-0.32829540967941284 0.05426359176635742 -0.8914728760719299
-0.3277287781238556 0.05426359176635742 -0.8759689927101135
-0.32848989963531494 0.05426359176635742 -0.8604651689529419
-0.33111459016799927 0.05426359176635742 -0.8449612259864807
-0.32425442337989807 0.06976747512817383 -0.9689922332763672
-0.3296184241771698 0.06976747512817383 -0.9534883499145508
-0.33111292123794556 0.06976747512817383 -0.9379845261573792
-0.3313971757888794 0.06976747512817383 -0.9224806427955627
-0.32950109243392944 0.06976747512817383 -0.9069768190383911
-0.32802334427833557 0.06976747512817383 -0.8914728760719299
-0.32757288217544556 0.06976747512817383 -0.8759689927101135
-0.3282915949821472 0.06976747512817383 -0.8604651689529419
-0.3307989239692688 0.06976747512817383 -0.8449612259864807
-0.3208072781562805 0.08527135848999023 -0.9689922332763672
-0.32962766289711 0.08527135848999023 -0.9534883499145508
-0.330268919467926 0.08527135848999023 -0.9379845261573792
-0.33048009872436523 0.08527135848999023 -0.9224806427955627
-0.32897651195526123 0.08527135848999023 -0.9069766998291016
-0.32780715823173523 0.08527135848999023 -0.8914729356765747
-0.32749372720718384 0.08527135848999023 -0.8759690523147583
-0.3281865417957306 0.08527135848999023 -0.8604651093482971
-0.3304537236690521 0.08527135848999023 -0.8449612259864807
-0.32871556282043457 0.08527135848999023 -0.39534884691238403
-0.3188892900943756 0.10077524185180664 -0.9689922332763672
-0.32958224415779114 0.10077524185180664 -0.9534884095191956
-0.3297363221645355 0.10077524185180664 -0.9379844665527344
-0.32996124029159546 0.10077524185180664 -0.9224806427955627
-0.3287952244281769 0.10077524930238724 -0.9069768190383911
-0.3278951048851013 0.10077524185180664 -0.8914728760719299
-0.3277416229248047 0.10077524185180664 -0.8759689331054688
-0.32849544286727905 0.10077524185180664 -0.8604651689529419
-0.3306240141391754 0.10077524185180664 -0.8449612855911255
-0.32788628339767456 0.10077524185180664 -0.42635661363601685
-0.3288482427597046 0.10077524185180664 -0.3798449635505676
-0.32877811789512634 0.11627912521362305 -0.9534883499145508
-0.3292609453201294 0.11627913266420364 -0.9379844665527344
-0.32949578762054443 0.11627913266420364 -0.9224807024002075
-0.3287707567214966 0.11627912521362305 -0.9069767594337463
-0.32824695110321045 0.11627912521362305 -0.8914728760719299
-0.32833459973335266 0.11627912521362305 -0.8759689331054688
-0.3293122351169586 0.11627912521362305 -0.8604651689529419
-0.3313903212547302 0.11627911776304245 -0.8449612259864807
-0.33288121223449707 0.11627912521362305 -0.41085273027420044
-0.3308238089084625 0.11627911776304245 -0.39534884691238403
-0.32683753967285156 0.1317828893661499 -0.9534883499145508
-0.32911497354507446 0.1317828893661499 -0.9379844665527344
-0.32940101623535156 0.1317828893661499 -0.9224807024002075
-0.3292444348335266 0.1317828893661499 -0.9069767594337463
-0.32924696803092957 0.1317828893661499 -0.8914728164672852
-0.3296999931335449 0.1317828893661499 -0.8759690523147583
-0.33120784163475037 0.1317828893661499 -0.8604651689529419
-0.32191386818885803 0.1472867727279663 -0.9534883499145508
-0.32930073142051697 0.1472867727279663 -0.9379844069480896
-0.32955294847488403 0.1472867727279663 -0.9224806427955627
-0.33003881573677063 0.1472867727279663 -0.9069767594337463
-0.33068209886550903 0.1472867727279663 -0.8914728760719299
-0.3316184878349304 0.1472867727279663 -0.8759689927101135
-0.3297637104988098 0.16279065608978271 -0.9379844665527344
-0.33004382252693176 0.16279065608978271 -0.9224806427955627
-0.33124127984046936 0.16279065608978271 -0.9069767594337463
-0.33302170038223267 0.16279065608978271 -0.8914729356765747
-0.32678133249282837 0.17829453945159912 -0.9379844665527344
-0.3304116129875183 0.17829452455043793 -0.922480583190918
-0.3323933184146881 0.17829453945159912 -0.9069767594337463
-0.3303788900375366 0.19379842281341553 -0.9224806427955627
-0.3321118652820587 0.19379842281341553 -0.9069767594337463
-0.3203802704811096 0.19379842281341553 -0.08527129888534546
-0.32347074151039124 0.20930230617523193 -0.922480583190918
-0.33084067702293396 0.20930230617523193 -0.9069767594337463
-0.326667845249176 0.22480620443820953 -0.9069768190383911
-0.3315487802028656 0.22480618953704834 -0.8914728760719299
-0.32139623165130615 0.22480618953704834 -0.14728683233261108
-0.32879412174224854 0.24031007289886475 -0.8914728760719299
-0.33243852853775024 0.24031005799770355 -0.8759689331054688
-0.33054959774017334 0.25581395626068115 -0.8759689331054688
-0.3265446722507477 0.25581395626068115 -0.22480617463588715
-0.3196541965007782 0.27131783962249756 -0.8759689331054688
-0.3325273096561432 0.27131786942481995 -0.8604651689529419
-0.3236868977546692 0.28682172298431396 -0.8604651093482971
-0.3277451992034912 0.28682172298431396 -0.317829430103302
-0.3236786127090454 0.30232560634613037 -0.8449612855911255
-0.30454155802726746 -0.317829430103302 -0.8294573426246643
-0.30506759881973267 -0.22480618953704834 -0.9224806427955627
-0.30590274930000305 -0.11627906560897827 -0.9689922332763672
-0.310833603143692 -0.10077518224716187 -0.06976741552352905
-0.3072415292263031 -0.05426359176635742 -0.3798449635505676
-0.31189215183258057 -0.05426359176635742 0.7209302186965942
-0.3049503564834595 -0.05426359176635742 0.8139535188674927
-0.3049051761627197 -0.038759708404541016 -0.9844961166381836
-0.31603166460990906 -0.038759708404541016 0.6589146852493286
-0.30871057510375977 -0.038759708404541016 0.674418568611145
-0.3144906759262085 -0.038759708404541016 0.8449612855911255
-0.309863805770874 -0.02325582504272461 -0.9844961166381836
-0.31145593523979187 -0.02325582504272461 0.6434108018875122
-0.3045986294746399 -0.02325582504272461 0.6589146852493286
-0.31457898020744324 -0.02325582504272461 0.8604651689529419
-0.3126719295978546 -0.007751941680908203 -0.9844961166381836
-0.31321725249290466 -0.007751941680908203 0.6279069185256958
-0.30679449439048767 -0.007751941680908203 0.6434108018875122
-0.3069562017917633 -0.007751941680908203 0.8759689331054688
-0.3118377923965454 0.007751941680908203 -0.9844961166381836
-0.31331509351730347 0.007751941680908203 0.6279069185256958
-0.30696719884872437 0.007751941680908203 0.6434108018875122
-0.3059369921684265 0.007751941680908203 0.8759689331054688
-0.3074653744697571 0.02325582504272461 -0.9844961166381836
-0.31230661273002625 0.02325582504272461 0.6434108018875122
-0.3056109547615051 0.02325582504272461 0.6589146852493286
-0.31371399760246277 0.02325582504272461 0.8604652285575867
-0.3131796419620514 0.038759708404541016 0.674418568611145
-0.3062102496623993 0.038759708404541016 0.6899224519729614
-0.310363233089447 0.038759708404541016 0.8449612855911255
-0.3091323971748352 0.08527135848999023 -0.42635661363601685
-0.3101743757724762 0.08527135848999023 -0.3798449635505676
-0.30838391184806824 0.11627912521362305 -0.3798449635505676
-0.3095504939556122 0.20930230617523193 -0.11627906560897827
-0.3023125231266022 -0.333333283662796 -0.41085273027420044
-0.28697124123573303 -0.317829430103302 -0.3798449635505676
-0.3014666736125946 -0.25581395626068115 -0.22480617463588715
-0.29941973090171814 -0.22480618953704834 -0.9224806427955627
-0.2895432114601135 -0.20930230617523193 -0.10077518224716187
-0.2891896367073059 -0.19379842281341553 -0.08527129888534546
-0.286893367767334 -0.1627907156944275 -0.9534883499145508
-0.294154554605484 -0.11627906560897827 -0.9689922332763672
-0.2945202887058258 -0.10077518224716187 -0.007751941680908203
-0.298053115606308 -0.05426359176635742 0.7364341616630554
-0.2915884554386139 -0.05426359176635742 0.8294574022293091
-0.300115168094635 -0.03875970467925072 0.6899224519729614
-0.2902328372001648 -0.038759708404541016 0.7054263353347778
-0.2996894121170044 -0.038759708404541016 0.8604651689529419
-0.2961646020412445 -0.02325582504272461 0.674418568611145
-0.2869531512260437 -0.02325582504272461 0.6899224519729614
-0.2988555431365967 -0.02325582504272461 0.8759689331054688
-0.2987857460975647 -0.007751941680908203 0.6589146852493286
-0.2907734811306 -0.007751941680908203 0.674418568611145
-0.2896360158920288 -0.007751941680908203 0.8914728164672852
-0.29889923334121704 0.007751941680908203 0.6589146852493286
-0.29106342792510986 0.007751941680908203 0.674418568611145
-0.28847458958625793 0.007751941680908203 0.8914728164672852
-0.297163188457489 0.02325582504272461 0.674418568611145
-0.28889182209968567 0.02325582504272461 0.6899224519729614
-0.2977560758590698 0.02325582504272461 0.8759689331054688
-0.2964962422847748 0.038759708404541016 0.7054263353347778
-0.2950069010257721 0.038759708404541016 0.8604651689529419
-0.2868455648422241 0.08527135848999023 -0.06976741552352905
-0.28853318095207214 0.27131783962249756 -0.8759689927101135
-0.2988475561141968 0.30232560634613037 -0.8449612855911255
-0.2852790653705597 -0.3643410801887512 -0.6899224519729614
-0.2852811813354492 -0.3488372266292572 -0.45736435055732727
-0.28432804346084595 -0.1627907156944275 -0.9534883499145508
-0.28478705883026123 -0.05426359176635742 -0.9844961166381836
-0.2819741368293762 -0.05426359176635742 0.751937985420227
-0.27966949343681335 -0.05426359176635742 0.8449612855911255
-0.27811479568481445 -0.038759708404541016 0.7209302186965942
-0.28385838866233826 -0.038759708404541016 0.8759689331054688
-0.27617311477661133 -0.02325582504272461 0.7054263353347778
-0.2825767993927002 -0.02325582504272461 0.8914728164672852
-0.28076380491256714 -0.00775194214656949 0.6899224519729614
-0.27189987897872925 -0.007751941680908203 0.9069766998291016
-0.28103986382484436 0.007751941680908203 0.6899224519729614
-0.2779650390148163 0.02325582504272461 0.7054263353347778
-0.2807161808013916 0.02325582504272461 0.8914728760719299
-0.2793581485748291 0.038759708404541016 -0.9844961166381836
-0.2858717441558838 0.038759708404541016 0.7209302186965942
-0.2783750891685486 0.038759708404541016 0.8759689331054688
-0.27440765500068665 0.05426359176635742 0.7984496355056763
-0.274836927652359 0.05426359176635742 0.8139535188674927
-0.27225765585899353 0.08527135848999023 0.05426359176635742
-0.2785504460334778 0.10077524185180664 -0.038759708404541016
-0.27531957626342773 0.10077524185180664 -0.02325582504272461
-0.2801516056060791 0.24031007289886475 -0.19379842281341553
-0.2770683169364929 0.3488372564315796 -0.4728682041168213
-0.27096158266067505 -0.30232560634613037 -0.3488371968269348
-0.2654620110988617 -0.27131783962249756 -0.27131783962249756
-0.25962400436401367 -0.22480618953704834 -0.14728683233261108
-0.2692452073097229 -0.1627907156944275 -0.9534883499145508
-0.2581210732460022 -0.11627906560897827 -0.06976741552352905
-0.26493895053863525 -0.05426359176635742 0.7674418687820435
-0.2662122845649719 -0.05426359176635742 0.8604651689529419
-0.2629823684692383 -0.038759708404541016 0.7364341020584106
-0.2669234275817871 -0.038759708404541016 0.8914728164672852
-0.2630866765975952 -0.02325582504272461 0.7209302186965942
-0.2651340365409851 -0.02325582504272461 0.9069766998291016
-0.2690611481666565 -0.007751941215246916 0.7054263353347778
-0.26942500472068787 0.007751941680908203 0.7054263353347778
-0.2562573254108429 0.007751941680908203 0.7209302186965942
-0.2711026072502136 0.007751941680908203 0.9069767594337463
-0.26535695791244507 0.02325582504272461 0.7209302186965942
-0.26134827733039856 0.02325582504272461 0.9069766998291016
-0.2712617814540863 0.038759712129831314 0.7364341020584106
-0.2589855194091797 0.038759708404541016 0.8914728164672852
-0.26518088579177856 0.05426359176635742 0.7984496355056763
-0.26778146624565125 0.05426359176635742 0.8294574022293091
-0.25701794028282166 0.05426359176635742 0.8449612855911255
-0.2567277252674103 0.10077524185180664 -0.06976741552352905
-0.2602594792842865 0.10077524185180664 -0.05426359176635742
-0.26067617535591125 0.10077524185180664 -0.007751941680908203
-0.25066518783569336 -0.24031007289886475 -0.9069767594337463
-0.2493366003036499 -0.08527129888534546 0.05426359176635742
-0.24833479523658752 -0.05426359176635742 -0.3798449635505676
-0.24441653490066528 -0.05426359176635742 0.7829457521438599
-0.24954816699028015 -0.05426359176635742 0.8759689331054688
-0.24676784873008728 -0.038759708404541016 0.751937985420227
-0.24810856580734253 -0.038759708404541016 0.9069766998291016
-0.24677245318889618 -0.02325582504272461 0.7364341020584106
-0.24295416474342346 -0.02325582504272461 0.922480583190918
-0.25555315613746643 -0.00775194214656949 0.7209302186965942
-0.2531346380710602 -0.007751941680908203 0.922480583190918
-0.252257376909256 0.007751941680908203 0.922480583190918
-0.24917849898338318 0.02325582504272461 0.7364341020584106
-0.2536024749279022 0.038759708404541016 0.751937985420227
-0.24056649208068848 0.05426359176635742 0.8604651689529419
-0.24437043070793152 0.08527135848999023 -0.42635661363601685
-0.2454487383365631 0.08527135848999023 -0.3798449635505676
-0.2473001927137375 0.10077524185180664 0.007751941680908203
-0.2528213560581207 0.11627912521362305 -0.3798449635505676
-0.2476118803024292 0.3333333730697632 -0.42635661363601685
-0.22705164551734924 -0.3333333134651184 -0.7829457521438599
-0.22903913259506226 -0.19379842281341553 -0.9379844665527344
-0.22885558009147644 -0.11627906560897827 -0.05426359176635742
-0.2393139898777008 -0.10077518224716187 0.007751941680908203
-0.2313540130853653 -0.05426359176635742 0.8914728164672852
-0.22755765914916992 -0.038759708404541016 0.7674418687820435
-0.22865627706050873 -0.02325582504272461 0.751937985420227
-0.23879428207874298 -0.00775194214656949 0.7364341020584106
-0.22840097546577454 -0.007751941680908203 0.9379844665527344
-0.2394886165857315 0.007751941680908203 0.7364341020584106
-0.22640381753444672 0.007751941680908203 0.9379844665527344
-0.23092946410179138 0.02325582504272461 0.751937985420227
-0.23850029706954956 0.02325582504272461 0.922480583190918
-0.23390623927116394 0.038759708404541016 0.7674418687820435
-0.2371755838394165 0.038759708404541016 0.9069766998291016
-0.2256576269865036 0.20930230617523193 -0.9224806427955627
-0.23527057468891144 0.27131783962249756 -0.28682172298431396
-0.2363511472940445 0.28682172298431396 -0.8604651093482971
-0.23454684019088745 0.3333333730697632 -0.7829457521438599
-0.21679246425628662 -0.30232560634613037 -0.8449612259864807
-0.2215404510498047 -0.28682172298431396 -0.317829430103302
-0.21818915009498596 -0.25581395626068115 -0.8914729356765747
-0.21588337421417236 -0.24031007289886475 -0.19379842281341553
-0.21975862979888916 -0.20930230617523193 -0.11627906560897827
-0.21816551685333252 -0.05426359176635742 -0.3798449635505676
-0.21918198466300964 -0.05426359176635742 0.7984496355056763
-0.21057350933551788 -0.05426359176635742 0.9069766998291016
-0.22190451622009277 -0.038759708404541016 0.922480583190918
-0.21657809615135193 -0.02325582504272461 0.9379844665527344
-0.22025486826896667 -0.007751941680908203 0.751937985420227
-0.22099705040454865 0.007751941680908203 0.751937985420227
-0.21038827300071716 0.02325582504272461 0.7674418687820435
-0.21100686490535736 0.02325582504272461 0.9379844665527344
-0.2110593318939209 0.038759708404541016 0.7829457521438599
-0.21253618597984314 0.038759708404541016 0.922480583190918
-0.22403839230537415 0.05426359176635742 0.8139534592628479
-0.22109702229499817 0.05426359176635742 0.8759689331054688
-0.21754799783229828 0.08527135848999023 -0.42635661363601685
-0.21593903005123138 0.08527135848999023 -0.3798449635505676
-0.21517658233642578 0.10077524185180664 -0.9689922332763672
-0.22465500235557556 0.11627912521362305 -0.06976740807294846
-0.21656936407089233 0.3488372564315796 -0.7364341020584106
-0.20381134748458862 -0.11627906560897827 -0.05426359176635742
-0.19462616741657257 -0.10077518224716187 0.007751941680908203
-0.19729813933372498 -0.05426359176635742 0.8139535188674927
-0.2052774429321289 -0.038759708404541016 0.7829457521438599
-0.20792154967784882 -0.02325582504272461 0.7674418687820435
-0.20010286569595337 -0.007751941680908203 0.7674418687820435
-0.1967279464006424 -0.007751941680908203 0.9534883499145508
-0.20126359164714813 0.007751941680908203 0.7674418687820435
-0.19516709446907043 0.007751941680908203 0.9534883499145508
-0.20157518982887268 0.05426359176635742 0.8294574022293091
-0.19886904954910278 0.05426359176635742 0.8914728164672852
-0.20190566778182983 0.11627912521362305 -0.3798449635505676
-0.2076481729745865 0.25581395626068115 -0.24031007289886475
-0.18744122982025146 -0.3643410801887512 -0.5348837375640869
-0.19081804156303406 -0.1782945990562439 -0.08527129888534546
-0.1790408194065094 -0.05426359176635742 0.8294574022293091
-0.18202564120292664 -0.05426359176635742 0.922480583190918
-0.1833852231502533 -0.038759708404541016 0.7984496355056763
-0.19087034463882446 -0.038759708404541016 0.9379844665527344
-0.18703864514827728 -0.02325582504272461 0.7829457521438599
-0.18183180689811707 -0.02325582504272461 0.9534883499145508
-0.17999033629894257 0.007751941680908203 0.7829457521438599
-0.18981236219406128 0.02325582690536976 0.7829457521438599
-0.18921977281570435 0.038759708404541016 0.7984496355056763
-0.18303245306015015 0.038759708404541016 0.9379844665527344
-0.18141399323940277 0.05426359176635742 0.8449612855911255
-0.1787274032831192 0.08527135848999023 -0.42635661363601685
-0.17989115417003632 0.08527135848999023 -0.3798449635505676
-0.1904124915599823 0.11627912521362305 -0.37984499335289
-0.1920502483844757 0.19379842281341553 -0.10077517479658127
-0.17893412709236145 0.22480618953704834 -0.1627907156944275
-0.17572036385536194 -0.25581395626068115 -0.24031007289886475
-0.16754132509231567 -0.10077518224716187 -0.42635661363601685
-0.16580460965633392 -0.10077518224716187 -0.3798449635505676
-0.16393014788627625 -0.06976741552352905 -0.3643410801887512
-0.1633225381374359 -0.05426359176635742 -0.42635661363601685
-0.1757119745016098 -0.05426359176635742 -0.3798449635505676
-0.16386732459068298 -0.02325582504272461 0.7984496355056763
-0.17812615633010864 -0.007751941680908203 0.7829458117485046
-0.16777656972408295 0.02325582504272461 0.7984496355056763
-0.17817650735378265 0.02325582504272461 0.9534883499145508
-0.16838473081588745 0.038759708404541016 0.8139535188674927
-0.17682452499866486 0.05426359176635742 0.9069766998291016
-0.17122048139572144 0.10077524185180664 -0.42635661363601685
-0.16504916548728943 0.10077524185180664 -0.3798449635505676
-0.17741110920906067 0.10077524185180664 0.00775194214656949
-0.17160336673259735 0.11627912521362305 -0.41085273027420044
-0.16946014761924744 0.11627912521362305 -0.39534884691238403
-0.16923686861991882 0.3178294897079468 -0.8139535188674927
-0.16747339069843292 0.3333333730697632 -0.42635661363601685
-0.16024701297283173 -0.19379842281341553 -0.10077518224716187
-0.1549348384141922 -0.08527129888534546 -0.3643410801887512
-0.15844079852104187 -0.05426359176635742 -0.9844961166381836
-0.15192052721977234 -0.05426359176635742 -0.39534884691238403
-0.1601567566394806 -0.05426359176635742 0.8449612855911255
-0.1618029773235321 -0.038759708404541016 0.8139535784721375
-0.14746324717998505 -0.038759708404541016 0.9534883499145508
-0.15441370010375977 -0.007751941680908203 0.7984496355056763
-0.1477755308151245 -0.007751941680908203 0.9689922332763672
-0.1561434268951416 0.007751941680908203 0.7984496355056763
-0.16152149438858032 0.038759712129831314 -0.9844961166381836
-0.1573713719844818 0.05426359176635742 0.8604651689529419
-0.14856193959712982 0.08527135848999023 -0.41085273027420044
-0.15588951110839844 0.08527135848999023 -0.39534884691238403
-0.1599053144454956 0.17829453945159912 -0.08527129888534546
-0.1410859376192093 -0.3488371968269348 -0.7364341020584106
-0.1395634412765503 -0.10077518224716187 -0.41085273027420044
-0.14183330535888672 -0.10077518224716187 -0.39534884691238403
-0.14688575267791748 -0.08527129888534546 -0.4418604373931885
-0.1428622007369995 -0.06976741552352905 -0.4418604373931885
-0.14080403745174408 -0.05426359176635742 -0.41085273027420044
-0.14219626784324646 -0.05426359176635742 0.9379844665527344
-0.13774359226226807 -0.038759708404541016 0.8294574022293091
-0.13918845355510712 -0.02325582504272461 0.8139535188674927
-0.14282935857772827 0.007751941680908203 0.9689922332763672
-0.14284448325634003 0.02325582504272461 0.8139535188674927
-0.1444283276796341 0.038759708404541016 0.8294574022293091
-0.13995064795017242 0.038759708404541016 0.9534883499145508
-0.14430826902389526 0.05426359176635742 0.922480583190918
-0.13589143753051758 0.10077524185180664 -0.41085273027420044
-0.13587981462478638 0.10077524185180664 -0.39534884691238403
-0.145853653550148 0.20930230617523193 -0.13178294897079468
-0.14448298513889313 0.28682172298431396 -0.3333333134651184
-0.12069842219352722 -0.08527129888534546 -0.42635661363601685
-0.12019465118646622 -0.08527129888534546 -0.3798449635505676
-0.11981694400310516 -0.06976741552352905 -0.42635661363601685
-0.12351949512958527 -0.06976741552352905 -0.3798449635505676
-0.13156376779079437 -0.05426359176635742 0.8604651093482971
-0.12809592485427856 -0.02325582504272461 0.9689922332763672
-0.12644991278648376 -0.007751941680908203 0.8139535188674927
-0.1284157633781433 0.007751941680908203 0.8139535188674927
-0.11638897657394409 0.02325582504272461 0.9689922332763672
-0.12508626282215118 0.05426359176635742 0.8759689331054688
-0.1168627142906189 0.08527135848999023 0.05426359176635742
-0.12429624795913696 0.11627912521362305 -0.06976741552352905
-0.11733157932758331 0.1472867727279663 -0.9534883499145508
-0.10512089729309082 -0.25581395626068115 -0.24031007289886475
-0.11581026017665863 -0.10077518224716187 -0.9689922332763672
-0.1068982481956482 -0.08527129888534546 -0.41085273027420044
-0.10951888561248779 -0.08527129888534546 -0.39534884691238403
-0.10794542729854584 -0.06976741552352905 -0.41085273027420044
-0.11320748925209045 -0.06976741552352905 -0.39534884691238403
-0.1062498539686203 -0.038759708404541016 0.8449612855911255
-0.10791541635990143 -0.02325582504272461 0.8294574022293091
-0.11348214745521545 0.02325582504272461 0.8294574022293091
-0.11494201421737671 0.038759708404541016 0.8449613451957703
-0.10369477421045303 0.11627912521362305 -0.06976741552352905
-0.08967030048370361 -0.19379842281341553 -0.10077518224716187
-0.09157422184944153 -0.007751941680908203 0.8294574022293091
-0.09474723041057587 0.007751941680908203 0.8294574022293091
-0.08640588819980621 0.05426359176635742 0.9379844665527344
-0.09169845283031464 0.10077524185180664 -0.007751941680908203
-0.09625935554504395 0.27131783962249756 -0.30232560634613037
-0.08799679577350616 0.3333333730697632 -0.42635661363601685
-0.07083707302808762 -0.11627906560897827 -0.05426359176635742
-0.08162907510995865 -0.10077517479658127 -0.9689922332763672
-0.07566061615943909 -0.05426359176635742 0.9534883499145508
-0.08127422630786896 -0.038759708404541016 0.9689922332763672
-0.07528756558895111 -0.007751941680908203 0.9844961166381836
-0.07299254834651947 0.007751941680908203 0.9844961166381836
-0.07505587488412857 0.02325582504272461 0.8449612855911255
-0.0712471455335617 0.038759708404541016 0.8604651689529419
-0.0794052705168724 0.1472867727279663 -0.9534883499145508
-0.0710635706782341 0.27131783962249756 -0.30232560634613037
-0.06330275535583496 -0.30232560634613037 -0.8449612259864807
-0.06061355024576187 -0.05426359176635742 0.8759689331054688
-0.06359447538852692 -0.02325582504272461 0.8449612855911255
-0.057162072509527206 0.038759708404541016 0.9689922332763672
-0.06457225978374481 0.3333333730697632 -0.42635661363601685
-0.05439429357647896 0.364341139793396 -0.5348837375640869
-0.048565372824668884 -0.3488371968269348 -0.7364341020584106
-0.052517421543598175 -0.13178294897079468 -0.06976741552352905
-0.04584307223558426 -0.038759708404541016 0.8604651689529419
-0.04650329798460007 -0.02325582504272461 0.9844961166381836
-0.03960408642888069 0.007751941680908203 0.8449612855911255
-0.04301426559686661 0.10077524185180664 -0.9689922332763672
-0.02729889191687107 -0.30232560634613037 -0.8449612259864807
-0.025142842903733253 -0.007751941680908203 0.8449612855911255
-0.032395265996456146 0.02325582504272461 0.9844961762428284
-0.027115952223539352 0.038759708404541016 -0.9844961166381836
-0.03643897548317909 0.3488372564315796 -0.4728682041168213
-0.013921128585934639 -0.08527129888534546 0.05426359176635742
-0.021073807030916214 -0.05426359176635742 -0.9844961166381836
-0.017642760649323463 0.20930232107639313 -0.13178294897079468
-0.0035755187273025513 -0.08527129888534546 -0.41085273027420044
-0.00014210958033800125 -0.08527129888534546 -0.39534884691238403
0.001957731554284692 -0.06976741552352905 -0.41085273027420044
0.006864880211651325 -0.007751941680908203 0.8449612855911255
0.023234134539961815 -0.08527129888534546 -0.42635661363601685
0.01479620672762394 -0.08527129888534546 0.05426359176635742
0.012385593727231026 -0.06976741552352905 -0.39534884691238403
0.018559327349066734 0.007751941680908203 0.8449612855911255
0.01692623645067215 0.3488372564315796 -0.4728682041168213
0.012026326730847359 0.364341139793396 -0.5348837375640869
0.03669630363583565 -0.30232560634613037 -0.8449612259864807
0.02535318396985531 -0.08527129888534546 -0.3798449635505676
0.027274012565612793 -0.06976741552352905 -0.42635661363601685
0.026237469166517258 -0.038759708404541016 0.8604651689529419
0.03162867948412895 0.02325582504272461 0.9844961166381836
0.036517515778541565 0.10077524185180664 -0.007751941680908203
0.043974049389362335 -0.05426359176635742 -0.9844961166381836
0.042404696345329285 -0.05426359176635742 0.8759689331054688
0.05054200068116188 -0.02325582504272461 0.8449612855911255
0.045556627213954926 -0.02325582504272461 0.9844961166381836
0.04542165249586105 0.038759708404541016 -0.9844961166381836
0.06482939422130585 -0.3488371968269348 -0.7364341020584106
0.06529809534549713 -0.30232560634613037 -0.8449611663818359
0.06513768434524536 -0.13178294897079468 -0.06976741552352905
0.062035951763391495 0.02325582504272461 0.8449612855911255
0.054401885718107224 0.038759708404541016 0.8604651093482971
0.054776355624198914 0.038759708404541016 0.9689921736717224
0.06190880388021469 0.10077524185180664 -0.9689922332763672
0.05590217933058739 0.3333333730697632 -0.42635661363601685
0.07284073531627655 -0.05426359176635742 0.9534883499145508
0.07815298438072205 -0.038759708404541016 0.9689922332763672
0.08109379559755325 -0.007751941680908203 0.8294574022293091
0.07423064112663269 -0.007751941680908203 0.9844961166381836
0.08386804163455963 0.007751941680908203 0.8294574022293091
0.07134070992469788 0.007751941680908203 0.9844961166381836
0.09850027412176132 -0.06976741552352905 -0.3798449635505676
0.09560245275497437 -0.038759708404541016 0.8449612855911255
0.09744354337453842 -0.02325582504272461 0.8294574022293091
0.08766331523656845 0.05426359176635742 0.8759689331054688
0.09101845324039459 0.05426359176635742 0.9379844665527344
0.08749338984489441 0.08527135848999023 0.05426359176635742
0.0895877555012703 0.17829453945159912 -0.08527129888534546
0.08603408187627792 0.28682172298431396 -0.3333333134651184
0.11523609608411789 -0.007751941680908203 0.8139535188674927
0.1020909994840622 0.02325582504272461 0.8294574022293091
0.11518700420856476 0.02325582504272461 0.9689922332763672
0.10240374505519867 0.038759708404541016 0.8449612855911255
0.11168471723794937 0.22480618953704834 -0.1627907156944275
0.12802070379257202 -0.3643410801887512 -0.5348837375640869
0.12970291078090668 -0.25581395626068115 -0.8914728760719299
0.1185198575258255 -0.05426359176635742 0.8604651093482971
0.12745018303394318 -0.038759708404541016 0.8294574022293091
0.12834282219409943 -0.02325582504272461 0.8139535188674927
0.1266639679670334 -0.02325582504272461 0.9689922332763672
0.1171705424785614 0.007751941215246916 0.8139535188674927
0.13147421181201935 0.02325582504272461 0.8139535188674927
0.12633466720581055 0.10077524185180664 0.007751941680908203
0.12066514790058136 0.1317828893661499 -0.06976741552352905
0.11963909864425659 0.19379842281341553 -0.10077518224716187
0.12380637973546982 0.25581395626068115 -0.24031007289886475
0.13987630605697632 -0.3488371968269348 -0.7364341020584106
0.1440557986497879 -0.30232560634613037 -0.8449612259864807
0.1426476687192917 -0.1782945990562439 -0.08527129888534546
0.1431966871023178 -0.13178294897079468 -0.06976741552352905
0.14028403162956238 -0.11627906560897827 -0.038759708404541016
0.14568185806274414 -0.10077518224716187 -0.41085273027420044
0.13946744799613953 -0.10077518224716187 0.007751941680908203
0.14702028036117554 -0.05426359176635742 -0.9844961166381836
0.13874375820159912 -0.05426359176635742 0.9379844665527344
0.1457940936088562 -0.038759708404541016 0.9534883499145508
0.14335913956165314 -0.007751941680908203 0.7984496355056763
0.14495109021663666 0.007751941680908203 0.7984496355056763
0.14384204149246216 0.007751941680908203 0.9689922332763672
0.13368894159793854 0.038759708404541016 0.8294574022293091
0.1375214010477066 0.038759708404541016 0.9534883499145508
0.14218492805957794 0.05426359176635742 0.8604651689529419
0.14607356488704681 0.10077524185180664 -0.9689922332763672
0.1386333703994751 0.10077524185180664 -0.41085273027420044
0.13957485556602478 0.10077524185180664 -0.39534884691238403
0.14990289509296417 -0.10077518224716187 -0.39534884691238403
0.1571422815322876 -0.08527129888534546 -0.4418604373931885
0.15678440034389496 -0.06976741552352905 -0.4418604373931885
0.15972542762756348 -0.05426359176635742 -0.41085273027420044
0.1500851958990097 -0.05426359176635742 0.8449612855911255
0.1524149477481842 -0.038759708404541016 0.8139535188674927
0.15397512912750244 -0.02325582504272461 0.7984496355056763
0.14873234927654266 -0.00775194214656949 0.9689922332763672
0.15687823295593262 0.02325582504272461 0.7984496355056763
0.15201933681964874 0.038759708404541016 -0.9844960570335388
0.15857136249542236 0.038759708404541016 0.8139535188674927
0.14788731932640076 0.05426359176635742 0.922480583190918
0.16246925294399261 0.08527135848999023 -0.41085273027420044
0.1492277979850769 0.27131783962249756 -0.28682172298431396
0.16445982456207275 -0.10077518224716187 -0.42635661363601685
0.16526596248149872 -0.10077518224716187 -0.3798449635505676
0.16287875175476074 -0.08527129888534546 -0.3643410801887512
0.16581080853939056 -0.06976741552352905 -0.3643410801887512
0.16721515357494354 -0.05426359549164772 -0.42635661363601685
0.16508540511131287 -0.05426359176635742 -0.39534884691238403
0.17433197796344757 -0.05426359176635742 -0.3798449635505676
0.17051851749420166 -0.05426359176635742 0.8294574022293091
0.17492173612117767 -0.038759708404541016 0.7984496355056763
0.17796358466148376 -0.02325582504272461 0.7829457521438599
0.16896729171276093 -0.007751941680908203 0.7829457521438599
0.1704288274049759 0.007751941680908203 0.7829457521438599
0.16762274503707886 0.05426359176635742 0.8449612855911255
0.17290176451206207 0.08527135848999023 -0.42635661363601685
0.16357700526714325 0.08527135848999023 -0.39534884691238403
0.17354467511177063 0.08527135848999023 -0.3798449635505676
0.16824978590011597 0.10077524185180664 -0.42635661363601685
0.16565930843353271 0.10077524185180664 -0.3798449635505676
0.16800519824028015 0.11627912521362305 -0.41085273027420044
0.16702929139137268 0.11627912521362305 -0.39534884691238403
0.17587901651859283 0.11627912521362305 -0.3798449635505676
0.17585870623588562 0.24031007289886475 -0.19379842281341553
0.17684397101402283 0.3178294897079468 -0.8139535188674927
0.19184252619743347 -0.3333333134651184 -0.7829457521438599
0.19086503982543945 -0.24031007289886475 -0.19379842281341553
0.18191801011562347 -0.10077518224716187 -0.4418604373931885
0.1852026730775833 -0.10077518224716187 -0.3643410801887512
0.18419742584228516 -0.08527129888534546 -0.4573643207550049
0.1900242120027542 -0.08527129888534546 -0.3488371968269348
0.18276436626911163 -0.06976741552352905 -0.4573643207550049
0.19193704426288605 -0.06976741552352905 -0.3488371968269348
0.18154047429561615 -0.05426359176635742 -0.44186046719551086
0.19030337035655975 -0.05426359176635742 0.8139535188674927
0.18148018419742584 -0.05426359176635742 0.922480583190918
0.19160747528076172 -0.038759708404541016 0.9379844665527344
0.18202315270900726 -0.02325582504272461 0.9534883499145508
0.19249804317951202 -0.007751941680908203 0.7674418687820435
0.19361679255962372 0.007751941680908203 0.7674418687820435
0.1810547411441803 0.02325582504272461 0.7829457521438599
0.17841851711273193 0.02325582504272461 0.9534883499145508
0.18119065463542938 0.03875970467925072 0.7984496355056763
0.1843748539686203 0.038759708404541016 0.9379844665527344
0.18926776945590973 0.05426359176635742 0.8294574022293091
0.1841759979724884 0.05426359176635742 0.9069766998291016
0.1897888332605362 0.06976747512817383 -0.41085273027420044
0.1933530867099762 0.06976747512817383 -0.39534884691238403
0.193758025765419 0.08527135848999023 -0.4418604373931885
0.18988576531410217 0.10077524185180664 -0.4418604373931885
0.18686652183532715 0.10077524185180664 -0.3643410801887512
0.18244127929210663 0.10077524185180664 0.02325582504272461
0.18150970339775085 0.11627912521362305 -0.42635661363601685
0.20606213808059692 -0.3643410801887512 -0.6899224519729614
0.20899179577827454 -0.28682172298431396 -0.317829430103302
0.1985870748758316 -0.20930230617523193 -0.11627906560897827
0.2047061324119568 -0.19379842281341553 -0.9379844665527344
0.19887325167655945 -0.05426359176635742 -0.3643410801887512
0.19918209314346313 -0.038759708404541016 0.7829456925392151
0.202487051486969 -0.02325582504272461 0.7674418687820435
0.19959262013435364 -0.007751941680908203 0.9534883499145508
0.19827261567115784 0.007751941680908203 0.9534883499145508
