-0.01778748817741871 0.7674418687820435 -0.27131783962249756
-0.016764208674430847 0.7674418687820435 -0.25581395626068115
-0.009905660524964333 0.7984496355056763 0.24031007289886475
-0.011811906471848488 0.7984496355056763 0.30232560634613037
-0.02071603387594223 0.8139535188674927 0.19379842281341553
-0.021320829167962074 0.8139535188674927 0.20930232107639313
-0.01340666227042675 0.8139535188674927 0.3488372564315796
-0.01538301445543766 0.8294574022293091 0.37984490394592285
-0.012166019529104233 0.8294574022293091 0.39534878730773926
-0.010155092924833298 0.8294574022293091 0.41085267066955566
-0.008520564064383507 0.8294574022293091 0.42635655403137207
-0.012208253145217896 0.8449612855911255 0.06976747512817383
-0.02323065511882305 0.8449612855911255 0.4883720874786377
-0.019739387556910515 0.8449612855911255 0.5038759708404541
-0.017295850440859795 0.8449612855911255 0.5193798542022705
-0.015418237075209618 0.8449612855911255 0.5348837375640869
-0.013578996062278748 0.8449612855911255 0.5503876209259033
-0.012199755758047104 0.8449612855911255 0.5658915042877197
-0.010625063441693783 0.8449612855911255 0.5813953876495361
-0.009428810328245163 0.8449612855911255 0.5968992710113525
-0.007938043214380741 0.8449612855911255 0.612403154373169
-0.00846464280039072 0.8604651689529419 0.1472867727279663
-0.020240863785147667 0.8604651689529419 0.4728682041168213
-0.016606176272034645 0.8604651689529419 0.4883720874786377
-0.014882720075547695 0.8604651689529419 0.5038759708404541
-0.013971470296382904 0.8604651689529419 0.5193798542022705
-0.012599186971783638 0.8604651689529419 0.5348837375640869
-0.011659722775220871 0.8604651689529419 0.5503876209259033
-0.010454542934894562 0.8604651689529419 0.5658915042877197
-0.00930812582373619 0.8604651689529419 0.5813953876495361
-0.008198355324566364 0.8604651689529419 0.5968992710113525
-0.015326928347349167 0.8759689331054688 0.19379842281341553
-0.021121984347701073 0.875968873500824 0.39534878730773926
-0.01479441300034523 0.8759689331054688 0.41085267066955566
-0.018595518544316292 0.8914728164672852 0.24031005799770355
-0.015519967302680016 0.8914728164672852 0.364341139793396
-0.005462333559989929 -0.7364341020584106 -0.5813953876495361
-0.00035160756669938564 -0.7364341020584106 -0.24031007289886475
-0.002395444782450795 -0.7364341020584106 -0.22480618953704834
-0.005356418900191784 -0.7364341020584106 -0.20930230617523193
0.0023885394912213087 0.7984496355056763 0.24031007289886475
0.0042885541915893555 0.8294574022293091 0.42635655403137207
-0.0042008282616734505 0.8449613451957703 0.612403154373169
-0.0011515680234879255 0.8604651689529419 0.1472867727279663
0.019301220774650574 -0.8759689927101135 0.22480618953704834
0.017283814027905464 -0.8759689331054688 0.41085267066955566
0.012292937375605106 -0.8759689331054688 0.42635655403137207
0.01012895442545414 -0.8604651093482971 0.16279065608978271
0.02085837349295616 -0.8604651093482971 0.4728682041168213
0.016594011336565018 -0.8604651093482971 0.4883720874786377
0.014639357104897499 -0.8604651093482971 0.5038759708404541
0.012839116156101227 -0.8604650497436523 0.5193798542022705
0.011464261449873447 -0.8604651093482971 0.5348837375640869
0.01034711766988039 -0.8604650497436523 0.5503876209259033
0.009054722264409065 -0.8604651093482971 0.5658915638923645
0.013768565841019154 -0.8449612259864807 0.02325582504272461
0.02112276293337345 -0.8449612259864807 0.038759708404541016
0.019991038367152214 -0.8449612259864807 0.41085267066955566
0.014751011505723 -0.8449612259864807 0.42635655403137207
0.011442100629210472 -0.8449612259864807 0.4418604373931885
0.009037056006491184 -0.8449612259864807 0.4573643207550049
0.019886432215571404 -0.8294573426246643 -0.06976741552352905
0.010618466883897781 -0.8294573426246643 0.3643411695957184
0.021155906841158867 -0.7984496355056763 0.3178294897079468
0.009468475356698036 -0.751937985420227 -0.06976741552352905
0.01271656434983015 0.7209302186965942 -0.37984499335289
0.01747714914381504 0.7674418687820435 -0.3798449635505676
0.009065662510693073 0.7674418687820435 -0.3643411099910736
0.010188087821006775 0.7674419283866882 -0.3488372266292572
0.015167569741606712 0.7674418687820435 -0.3333333134651184
0.020636223256587982 0.7674418687820435 -0.317829430103302
0.02018493413925171 0.7674418687820435 -0.30232560634613037
0.01592644862830639 0.7674418687820435 -0.28682172298431396
0.012971829622983932 0.7674418687820435 -0.27131783962249756
0.012428663671016693 0.7674418687820435 -0.25581395626068115
0.023195704445242882 0.7674418687820435 -0.24031007289886475
0.021647857502102852 0.7984496355056763 0.25581395626068115
0.022725874558091164 0.7984496355056763 0.28682172298431396
0.008917182683944702 0.7984496355056763 0.30232560634613037
0.019601458683609962 0.8139535188674927 0.19379842281341553
0.020047323778271675 0.8139535188674927 0.20930230617523193
0.012052824720740318 0.8139535188674927 0.3488372564315796
0.013681503012776375 0.8294574022293091 0.37984490394592285
0.01073276624083519 0.8294574022293091 0.39534878730773926
0.008965306915342808 0.8294574022293091 0.41085267066955566
0.010652110911905766 0.8449612855911255 0.06976747512817383
0.022266922518610954 0.8449612855911255 0.08527135848999023
0.021536599844694138 0.8449612855911255 0.4728682041168213
0.01872570440173149 0.8449612855911255 0.4883720874786377
0.016629645600914955 0.8449612855911255 0.5038759708404541
0.014310013502836227 0.8449612855911255 0.5193798542022705
0.013019436970353127 0.8449612855911255 0.5348837375640869
0.01139880158007145 0.8449612855911255 0.5503876209259033
0.010186760686337948 0.8449612855911255 0.5658915042877197
0.009209384210407734 0.8449612855911255 0.5813953876495361
0.008448854088783264 0.8449612259864807 0.5968992114067078
0.023169349879026413 0.8604651689529419 0.4573643207550049
0.01799129508435726 0.8604651689529419 0.4728682041168213
0.015038029290735722 0.8604651689529419 0.4883720874786377
0.01319602970033884 0.8604651689529419 0.5038759708404541
0.012007780373096466 0.8604652285575867 0.5193798542022705
0.010853741317987442 0.8604651689529419 0.5348837375640869
0.010168710723519325 0.8604651689529419 0.5503876209259033
0.009392675012350082 0.8604651689529419 0.5658915042877197
0.008663274347782135 0.8604651689529419 0.5813953876495361
0.007861138321459293 0.8604651689529419 0.5968992710113525
0.01211767178028822 0.875968873500824 0.19379842281341553
0.01942763663828373 0.8759689331054688 0.39534878730773926
0.013578240759670734 0.8759689927101135 0.41085267066955566
0.01339924056082964 0.8914728760719299 0.24031007289886475
0.014871949329972267 0.8914728164672852 0.364341139793396
0.0331910103559494 -0.8759689331054688 0.24031007289886475
0.029278982430696487 -0.8759690523147583 0.364341139793396
0.02455762028694153 -0.8759689927101135 0.37984490394592285
0.02345026656985283 -0.8759689927101135 0.39534878730773926
0.026934336870908737 -0.8604651093482971 0.17829453945159912
0.030157318338751793 -0.8604651093482971 0.37984490394592285
0.0281539149582386 -0.8604651689529419 0.39534878730773926
0.026736784726381302 -0.8604651093482971 0.41085267066955566
0.025598015636205673 -0.8604651093482971 0.42635655403137207
0.02465362474322319 -0.8604651093482971 0.4418604373931885
0.02366335317492485 -0.8604651093482971 0.4573643207550049
0.024492774158716202 -0.8449612259864807 0.05426358804106712
0.026159726083278656 -0.8449611663818359 0.06976747512817383
0.02928868681192398 -0.8449612855911255 0.08527135848999023
0.03383137285709381 -0.8449611663818359 0.10077524185180664
0.03761369735002518 -0.8449612259864807 0.364341139793396
0.025765055790543556 -0.8449612855911255 0.37984490394592285
0.02400057576596737 -0.8449612259864807 0.39534878730773926
0.03497900441288948 -0.7984496355056763 0.30232560634613037
0.03027302771806717 -0.7829457521438599 -0.643410861492157
0.026764146983623505 -0.7829457521438599 0.16279065608978271
0.03842567652463913 -0.7364341020584106 -0.25581395626068115
0.03287866711616516 0.7209302186965942 -0.41085273027420044
0.024560635909438133 0.7209302186965942 -0.39534884691238403
0.026151277124881744 0.7209302186965942 -0.28682172298431396
0.034078195691108704 0.7209302186965942 -0.27131783962249756
0.032903071492910385 0.7674418687820435 -0.39534884691238403
0.03396240621805191 0.7984496355056763 -0.13178294897079468
0.03197425603866577 0.7984496355056763 0.17829453945159912
0.026628658175468445 0.7984496355056763 0.27131783962249756
0.03023860976099968 0.8139535188674927 0.19379842281341553
0.02812383882701397 0.8294574022293091 -0.038759708404541016
0.023888802155852318 0.8294574022293091 0.364341139793396
0.030541228130459785 0.8449612855911255 0.10077524185180664
0.027594486251473427 0.8449612855911255 0.37984487414360046
0.024685490876436234 0.8449612855911255 0.39534881711006165
0.024461306631565094 0.8449612855911255 0.41085267066955566
0.024412691593170166 0.8449612855911255 0.42635655403137207
0.02409139834344387 0.8449612855911255 0.4418604373931885
0.02360781468451023 0.8449612855911255 0.4573643207550049
0.027754195034503937 0.8604651689529419 0.16279065608978271
0.03467172384262085 0.8604651689529419 0.37984490394592285
0.02740408107638359 0.8604651689529419 0.39534878730773926
0.02614915929734707 0.8604651689529419 0.41085267066955566
0.02533794566988945 0.8604651093482971 0.42635655403137207
0.02429085038602352 0.8604651689529419 0.4418604373931885
0.03755525127053261 0.8759689331054688 0.20930230617523193
0.027388175949454308 0.8759689331054688 0.37984490394592285
0.02841688133776188 0.8914728164672852 0.25581395626068115
0.03583822399377823 0.8914728164672852 0.27131783962249756
0.033565886318683624 0.8914728164672852 0.3488372564315796
0.04271911084651947 -0.8759690523147583 0.25581395626068115
0.048684798181056976 -0.8759689927101135 0.27131783962249756
0.05174736678600311 -0.8759690523147583 0.28682172298431396
0.052202463150024414 -0.8759689927101135 0.3488372564315796
0.04061511531472206 -0.8604651093482971 0.19379842281341553
0.05337422341108322 -0.8604651093482971 0.20930230617523193
0.04460015892982483 -0.8604651093482971 0.364341139793396
0.03971323370933533 -0.8449612259864807 0.11627912521362305
0.045990437269210815 -0.8449612259864807 0.1317828893661499
0.04773363471031189 -0.8294573426246643 -0.05426359176635742
0.04757530242204666 -0.8294573426246643 0.3488372564315796
0.042860500514507294 -0.8139535784721375 0.3333333730697632
0.04394274950027466 -0.7984496355056763 0.28682172298431396
0.04219314455986023 -0.7829457521438599 -0.20930230617523193
0.05052772909402847 -0.751937985420227 -0.06976741552352905
0.04576544463634491 -0.7364341020584106 -0.5813953876495361
0.03876834735274315 -0.7364341020584106 -0.25581395626068115
0.051661550998687744 -0.7364341020584106 -0.22480618953704834
0.05323066934943199 -0.7364341020584106 -0.20930230617523193
0.04983742907643318 0.7209302186965942 -0.4418604373931885
0.042452335357666016 0.7209302186965942 -0.42635661363601685
0.03933103382587433 0.7209302186965942 -0.25581395626068115
0.04018730670213699 0.7209302186965942 -0.24031007289886475
0.04119524359703064 0.7209302186965942 -0.22480618953704834
0.049595464020967484 0.7209302186965942 -0.20930230617523193
0.052166301757097244 0.7209302186965942 -0.19379842281341553
0.04721856117248535 0.7364341020584106 -0.038759708404541016
0.04782789945602417 0.751937985420227 0.06976747512817383
0.047076378017663956 0.7674418687820435 -0.41085273027420044
0.040302202105522156 0.8139535188674927 0.20930230617523193
0.03950372338294983 0.8139535188674927 0.33333340287208557
0.052043721079826355 0.8294574022293091 -0.02325582504272461
0.04394076019525528 0.8449612855911255 0.11627913266420364
0.050150249153375626 0.8449612855911255 0.364341139793396
0.03993437811732292 0.8914728164672852 0.28682172298431396
0.04249003902077675 0.8914728760719299 0.30232560634613037
0.04316866397857666 0.8914728164672852 0.3178294897079468
0.040429551154375076 0.8914728164672852 0.3333333730697632
0.05435357242822647 -0.8759689927101135 0.30232560634613037
0.05623145028948784 -0.8759689927101135 0.3178294897079468
0.0581984668970108 -0.8759689927101135 0.3333333730697632
0.06677579134702682 -0.8604651689529419 0.22480618953704834
0.05523195490241051 -0.8449612259864807 0.1472867727279663
0.06834811717271805 -0.8449612259864807 0.16279065608978271
0.05958588421344757 -0.8294573426246643 -0.038759708404541016
0.06509595364332199 -0.8294572830200195 -0.02325582504272461
0.06602255254983902 -0.8294572830200195 -0.007751941680908203
0.0694434642791748 -0.8294573426246643 0.007751941680908203
0.06252903491258621 -0.8139535188674927 0.3178294897079468
0.05708117038011551 -0.7984496355056763 0.27131783962249756
0.05973926931619644 -0.7674418687820435 0.10077524930238724
0.0687708780169487 -0.7364341020584106 -0.643410861492157
0.06788688898086548 -0.7364341020584106 -0.6124030947685242
0.058423809707164764 -0.7364341020584106 -0.5968992114067078
0.055408183485269547 -0.7364341020584106 -0.24031008780002594
0.06236061826348305 -0.7364341020584106 -0.19379842281341553
0.0638783723115921 0.7209302186965942 -0.4728682041168213
0.05794518068432808 0.7209302186965942 -0.4573643207550049
0.05448086932301521 0.7209302186965942 -0.1782945990562439
0.06850481033325195 0.7209302186965942 -0.1627907156944275
0.05908428505063057 0.7674418091773987 -0.6589146852493286
0.06440643966197968 0.7674418687820435 -0.42635661363601685
0.057760123163461685 0.7674418687820435 -0.22480617463588715
0.06014148145914078 0.7674418687820435 0.11627912521362305
0.05757151171565056 0.8294574022293091 0.3488372564315796
0.05895395949482918 0.8449612855911255 0.1317828893661499
0.0562940314412117 0.8604651689529419 0.17829453945159912
0.06771835684776306 0.8604651689529419 0.364341139793396
0.060950350016355515 0.8759689331054688 0.22480618953704834
0.05761832743883133 0.8759689331054688 0.364341139793396
0.0793454721570015 -0.8604651689529419 0.24031007289886475
0.07262866944074631 -0.8604650497436523 0.3488372564315796
0.08427057415246964 -0.8449612259864807 0.17829453945159912
0.07242681831121445 -0.8449612259864807 0.348837286233902
0.07290042191743851 -0.8294573426246643 0.02325582504272461
0.07540875673294067 -0.8294572830200195 0.038759708404541016
0.07806786894798279 -0.8294573426246643 0.05426359176635742
0.08063122630119324 -0.8294573426246643 0.06976747512817383
0.07625165581703186 -0.8294573426246643 0.3333333730697632
0.07562921941280365 -0.8139535188674927 0.30232560634613037
0.07730330526828766 -0.7984496355056763 0.24031007289886475
0.07105379551649094 -0.7984496355056763 0.25581395626068115
0.07783323526382446 -0.7829457521438599 0.16279065608978271
0.0726967453956604 -0.7674418687820435 -0.6589146852493286
0.07601538300514221 -0.7674418687820435 0.08527135848999023
0.08487996459007263 -0.751937985420227 -0.05426359176635742
0.07427334785461426 -0.7364341020584106 -0.6279069781303406
0.08079612255096436 -0.7364341020584106 -0.1782945990562439
0.07834984362125397 0.7209302186965942 -0.5038759708404541
0.06985154747962952 0.7209302186965942 -0.4883720874786377
0.07129785418510437 0.7519380450248718 0.05426359176635742
0.08101747930049896 0.7674418687820435 -0.4418604373931885
0.08121846616268158 0.7829457521438599 0.1472867727279663
0.08177356421947479 0.8139535188674927 0.30232560634613037
0.07081562280654907 0.8139535188674927 0.31782951951026917
0.07009103894233704 0.8294574022293091 -0.007751941680908203
0.08340121805667877 0.8294574022293091 0.007751941680908203
0.07495687901973724 0.8449612855911255 0.1472867727279663
0.08460802584886551 0.8449612855911255 0.3488372564315796
0.07711124420166016 0.8759689331054688 0.24031007289886475
0.08026397973299026 0.8759689331054688 0.3488372564315796
0.09074584394693375 -0.8604651093482971 0.25581395626068115
0.09822843968868256 -0.8604651093482971 0.27131783962249756
0.1003747433423996 -0.8604651093482971 0.28682172298431396
0.09762099385261536 -0.8604651093482971 0.30232560634613037
0.09223420917987823 -0.8604651093482971 0.3178294897079468
0.08677750825881958 -0.8604651093482971 0.3333333730697632
0.09000977873802185 -0.8449612855911255 0.3333333730697632
0.08655387163162231 -0.8294573426246643 0.08527135848999023
0.09442012012004852 -0.8294573426246643 0.10077524185180664
0.09161463379859924 -0.8294573426246643 0.3178294897079468
0.08998700231313705 -0.8139535188674927 -0.10077518224716187
0.10023681074380875 -0.8139535188674927 0.27131783962249756
0.08824779838323593 -0.8139535188674927 0.28682172298431396
0.09689830988645554 -0.7984496355056763 0.20930230617523193
0.0864374041557312 -0.7984496355056763 0.22480618953704834
0.08991266787052155 -0.7829458117485046 0.1472867727279663
0.09101973474025726 -0.7674418687820435 0.06976747512817383
0.0999518558382988 0.7209302186965942 -0.5658915042877197
0.09707866609096527 0.7209302186965942 -0.5503876209259033
0.09413443505764008 0.7209302186965942 -0.5348837375640869
0.0866163894534111 0.7209302186965942 -0.5193798542022705
0.09398059546947479 0.7209302186965942 -0.14728683233261108
0.09726502746343613 0.7209302186965942 -0.11627906560897827
0.0923539251089096 0.7209302186965942 -0.10077518224716187
0.09907008707523346 0.751937985420227 0.02325582504272461
0.0896071270108223 0.751937985420227 0.038759708404541016
0.10015992075204849 0.7674418687820435 -0.5348837375640869
0.09701806306838989 0.7674418687820435 -0.5193798542022705
0.09692049026489258 0.7674418687820435 -0.5038759708404541
0.09635264426469803 0.7674418687820435 -0.4883720874786377
0.0948246419429779 0.7674418687820435 -0.4728682041168213
0.09107080101966858 0.7674418687820435 -0.4573643207550049
0.08658444881439209 0.7674418687820435 0.10077524185180664
0.08671730756759644 0.7984496355056763 0.17829452455043793
0.09635090827941895 0.8139535188674927 0.27131783962249756
0.08970575779676437 0.8139535784721375 0.28682172298431396
0.08953991532325745 0.8294574022293091 0.02325582318007946
0.09008131176233292 0.8294574022293091 0.038759708404541016
0.08905589580535889 0.8294574022293091 0.05426358804106712
0.09090547263622284 0.8294574022293091 0.06976747512817383
0.09434877336025238 0.8294574022293091 0.08527135848999023
0.10002799332141876 0.8294574022293091 0.3178294897079468
0.085799939930439 0.8294574022293091 0.3333333730697632
0.09044402837753296 0.8449612855911255 0.16279065608978271
0.0876510739326477 0.8604651689529419 0.19379840791225433
0.09079240262508392 0.8604651689529419 0.3488372564315796
0.09079807996749878 0.875968873500824 0.25581395626068115
0.0981992855668068 0.8759689331054688 0.27131783962249756
0.09344026446342468 0.8759689331054688 0.3333333730697632
0.1063409149646759 -0.8449612855911255 0.19379842281341553
0.11018119752407074 -0.8449612855911255 0.30232560634613037
0.10328332334756851 -0.8449612259864807 0.3178294897079468
0.10804649442434311 -0.8294574022293091 0.11627912521362305
0.1131882593035698 -0.8294573426246643 0.28682172298431396
0.10396916419267654 -0.8294574022293091 0.30232560634613037
0.11460360884666443 -0.8139535188674927 0.24031007289886475
0.10702626407146454 -0.8139535188674927 0.25581395626068115
0.11593030393123627 -0.7984496355056763 0.17829453945159912
0.10590533167123795 -0.7984496355056763 0.19379842281341553
0.10310880094766617 -0.7829457521438599 -0.19379842281341553
0.10322688519954681 -0.7829457521438599 0.1317828893661499
0.11510490626096725 -0.7674418687820435 -0.4728682041168213
0.1157652735710144 -0.7674418687820435 -0.4573643207550049
0.1157192513346672 -0.7674418687820435 -0.4418604373931885
0.11544312536716461 -0.7674418687820435 -0.42635661363601685
0.1045348197221756 -0.7674418091773987 0.05426359176635742
0.11070507764816284 0.7209302186965942 -0.5968992114067078
0.1064305454492569 0.7209302186965942 -0.5813953876495361
0.10845455527305603 0.7209302186965942 -0.13178294897079468
0.10866528004407883 0.7209302186965942 -0.08527129888534546
0.10871924459934235 0.7674418687820435 -0.5658915042877197
0.10383498668670654 0.7674418687820435 -0.5503876209259033
0.10454927384853363 0.7674418687820435 -0.20930230617523193
0.10972271114587784 0.7829457521438599 -0.1627907156944275
0.11021529883146286 0.7829457521438599 0.1317828893661499
0.10434390604496002 0.7984496355056763 0.16279065608978271
0.11263112723827362 0.8139535188674927 0.16279065608978271
0.10548706352710724 0.8139535188674927 0.17829453945159912
0.1018543541431427 0.8139535784721375 0.19379842281341553
0.10097614675760269 0.8139535188674927 0.20930230617523193
0.10096827149391174 0.8139535188674927 0.22480618953704834
0.10127516835927963 0.8139535784721375 0.24031007289886475
0.10092073678970337 0.8139534592628479 0.25581395626068115
0.10096355527639389 0.8294574618339539 0.10077524930238724
0.10598786920309067 0.8294574022293091 0.11627912521362305
0.10817849636077881 0.8294574022293091 0.1317828893661499
0.10878776013851166 0.8294574022293091 0.1472867727279663
0.10910936444997787 0.8294574022293091 0.16279065608978271
0.10879389941692352 0.8294574022293091 0.17829453945159912
0.10870631039142609 0.8294574022293091 0.19379842281341553
0.11009034514427185 0.8294574022293091 0.20930230617523193
0.1123223677277565 0.8294574022293091 0.22480618953704834
0.11500227451324463 0.8294574022293091 0.24031007289886475
0.1151154488325119 0.8294574022293091 0.27131783962249756
0.11102692037820816 0.8294574022293091 0.28682172298431396
0.10628639161586761 0.8294574022293091 0.30232560634613037
0.1032315120100975 0.8449612855911255 0.17829453945159912
0.1098005622625351 0.8449612855911255 0.19379842281341553
0.11075665801763535 0.8449612855911255 0.3178294897079468
0.1026795282959938 0.8449612855911255 0.3333333730697632
0.10482561588287354 0.8604651689529419 0.20930230617523193
0.11387953907251358 0.8604651689529419 0.22480618953704834
0.11366275697946548 0.8604651689529419 0.3178294897079468
0.10701295733451843 0.8604651689529419 0.3333333730697632
0.10170044749975204 0.8759689927101135 0.28682172298431396
0.10190480947494507 0.8759689331054688 0.30232560634613037
0.10109986364841461 0.8759689331054688 0.31782951951026917
0.11693760007619858 -0.8449612259864807 0.20930230617523193
0.11815500259399414 -0.8449612259864807 0.22480618953704834
0.11891447752714157 -0.8449612259864807 0.24031007289886475
0.11905842274427414 -0.8449612259864807 0.25581395626068115
0.11849547177553177 -0.8449611663818359 0.27131783962249756
0.11717468500137329 -0.8449611663818359 0.28682172298431396
0.12014632672071457 -0.8294574022293091 0.1317828893661499
0.12308570742607117 -0.8294573426246643 0.1472867727279663
0.12430816888809204 -0.8294573426246643 0.16279065608978271
0.12439313530921936 -0.8294573426246643 0.17829453945159912
0.12396237254142761 -0.8294573426246643 0.19379842281341553
0.1233678013086319 -0.8294573426246643 0.20930230617523193
0.12263458967208862 -0.8294572830200195 0.22480618953704834
0.12169090658426285 -0.8294574022293091 0.24031007289886475
0.12036322057247162 -0.8294573426246643 0.25581395626068115
0.1181616336107254 -0.8294573426246643 0.27131783962249756
0.12782326340675354 -0.8139535188674927 0.16279065608978271
0.12436528503894806 -0.8139535188674927 0.17829453945159912
0.12175681442022324 -0.8139535188674927 0.19379842281341553
0.11986753344535828 -0.8139535188674927 0.20930230617523193
0.11800596117973328 -0.8139535784721375 0.22480620443820953
0.12643951177597046 -0.7984496355056763 -0.14728683233261108
0.1290532350540161 -0.7984496355056763 0.1317828893661499
0.12287291884422302 -0.7984496355056763 0.1472867727279663
0.11936724185943604 -0.7984496355056763 0.16279065608978271
0.1250174194574356 -0.7829457521438599 0.10077524185180664
0.11649089306592941 -0.7829458117485046 0.11627913266420364
0.13148276507854462 -0.7674418687820435 -0.6124030947685242
0.13130588829517365 -0.7674418687820435 -0.5968992114067078
0.13040423393249512 -0.7674418687820435 -0.5658915042877197
0.12804237008094788 -0.7674418687820435 -0.5503876209259033
0.12398209422826767 -0.7674418687820435 -0.5348837375640869
0.12151624262332916 -0.7674418687820435 -0.5193798542022705
0.11846951395273209 -0.7674418687820435 -0.5038759708404541
0.11678214371204376 -0.7674418687820435 -0.4883720874786377
0.116570845246315 -0.7674419283866882 -0.4108527600765228
0.11757861077785492 -0.7674418687820435 -0.3953488767147064
0.11845690757036209 -0.7674418687820435 -0.3798449635505676
0.11873124539852142 -0.7674418091773987 -0.3643410801887512
0.12045429646968842 -0.7674418687820435 -0.3488371968269348
0.1212497279047966 -0.7674418687820435 -0.3333333134651184
0.12189127504825592 -0.7674418687820435 -0.317829430103302
0.11994278430938721 -0.7674418687820435 -0.30232560634613037
0.11751896142959595 -0.7674418687820435 -0.28682172298431396
0.11767220497131348 -0.7674419283866882 -0.27131783962249756
0.12447741627693176 -0.7674418687820435 -0.25581395626068115
0.12145239114761353 -0.7674418687820435 0.038759708404541016
0.13002966344356537 -0.7364341020584106 -0.6589146852493286
0.1264796108007431 -0.7209302186965942 -0.4883720874786377
0.1220904141664505 -0.7209302186965942 -0.4728682041168213
0.11899185180664062 -0.7209302186965942 -0.4573643207550049
0.11715506762266159 -0.7209302186965942 -0.4418604373931885
0.11835933476686478 -0.7209302186965942 -0.42635661363601685
0.12091164290904999 -0.7209302186965942 -0.41085273027420044
0.12304006516933441 -0.7209302186965942 -0.39534884691238403
0.125171959400177 -0.7209302186965942 -0.3798449635505676
0.1292775273323059 -0.7209302186965942 -0.3643410801887512
0.12143851816654205 0.7209302186965942 -0.6434108018875122
0.12358355522155762 0.7209302186965942 -0.6279070377349854
0.11770565807819366 0.7209302186965942 -0.6124030947685242
0.11939448118209839 0.7364341020584106 -0.6589146852493286
0.1183459460735321 0.751937985420227 0.007751941680908203
0.125139981508255 0.7674418687820435 -0.5968992114067078
0.1170562356710434 0.7674418687820435 -0.5813953876495361
0.12662957608699799 0.7829457521438599 0.11627912521362305
0.12485313415527344 0.7984496355056763 0.1317828893661499
0.11701451241970062 0.7984496355056763 0.1472867876291275
0.12627282738685608 0.8139535188674927 -0.08527129888534546
0.13125407695770264 0.8139535188674927 0.11627912521362305
0.12304101884365082 0.8139535188674927 0.1317828893661499
0.11857272684574127 0.8139534592628479 0.1472867727279663
0.11635056883096695 0.8294574618339539 0.25581395626068115
0.11647715419530869 0.8449613451957703 0.20930230617523193
0.11819709837436676 0.8449612855911255 0.22480618953704834
0.11960072070360184 0.8449612855911255 0.24031007289886475
0.1202593743801117 0.8449613451957703 0.25581395626068115
0.12010394036769867 0.8449612855911255 0.27131783962249756
0.11886309087276459 0.8449612855911255 0.28682172298431396
0.11680202186107635 0.8449612855911255 0.30232560634613037
0.11811225861310959 0.8604651689529419 0.24031007289886475
0.11975359171628952 0.8604651093482971 0.25581395626068115
0.1199169009923935 0.8604651689529419 0.27131783962249756
0.11896586418151855 0.8604651689529419 0.28682172298431396
0.11730895936489105 0.8604651689529419 0.30232560634613037
0.14577268064022064 -0.8139535188674927 0.10077524185180664
0.13726407289505005 -0.8139535188674927 0.11627912521362305
0.13395899534225464 -0.8139535188674927 0.1317828893661499
0.13209204375743866 -0.8139535188674927 0.14728675782680511
0.14305222034454346 -0.7984496355056763 0.10077524185180664
0.13492225110530853 -0.7984496355056763 0.11627912521362305
0.13563379645347595 -0.7829457521438599 0.08527135848999023
0.13766004145145416 -0.7674418687820435 -0.6279070377349854
0.13183771073818207 -0.7674418687820435 -0.5813953876495361
0.14456088840961456 -0.7674418687820435 -0.24031007289886475
0.13926246762275696 -0.7674418687820435 0.02325582504272461
0.13211648166179657 -0.7364341020584106 -0.1627907156944275
0.14714758098125458 -0.7209302186965942 -0.5503876209259033
0.1442779302597046 -0.7209302186965942 -0.5348837375640869
0.13961568474769592 -0.7209302186965942 -0.5193798542022705
0.13333866000175476 -0.7209302186965942 -0.5038759708404541
0.1348712146282196 -0.7209302186965942 -0.3488371968269348
0.13962200284004211 -0.7209302186965942 -0.3333333134651184
0.14370179176330566 -0.7209302186965942 -0.317829430103302
0.14405307173728943 0.7054263353347778 -0.41085273027420044
0.14003582298755646 0.7054263353347778 -0.39534884691238403
0.13821959495544434 0.7054263353347778 -0.3798449635505676
0.137778639793396 0.7054263353347778 -0.3643410801887512
0.13698932528495789 0.7054263353347778 -0.3488371968269348
0.13636597990989685 0.7054263353347778 -0.3333333134651184
0.13824155926704407 0.7054263353347778 -0.317829430103302
0.14342591166496277 0.7054263353347778 -0.30232560634613037
0.1344509869813919 0.7674418687820435 -0.6124030947685242
0.1426883339881897 0.7674418687820435 0.06976747512817383
0.1325553059577942 0.7674418687820435 0.08527135848999023
0.1370197981595993 0.7829457521438599 0.10077524185180664
0.1413307934999466 0.7984496355056763 0.10077524185180664
0.13413459062576294 0.7984495759010315 0.11627912521362305
0.14400310814380646 0.8139535188674927 0.06976747512817383
0.13770753145217896 0.8139535188674927 0.08527135848999023
0.13436952233314514 0.8139535188674927 0.10077524185180664
0.16232937574386597 -0.8139535188674927 0.06976747512817383
0.15160216391086578 -0.8139535188674927 0.08527135848999023
0.15153411030769348 -0.7984495759010315 0.08527135848999023
0.1591816246509552 -0.7829457521438599 0.05426359176635742
0.1482338309288025 -0.7829457521438599 0.06976747512817383
0.14899824559688568 -0.7674418687820435 -0.643410861492157
0.14825722575187683 -0.751937985420227 -0.038759708404541016
0.15471342206001282 -0.7364341020584106 -0.14728683233261108
0.1598057746887207 -0.7364341020584106 -0.13178294897079468
0.15922176837921143 -0.7364341020584106 -0.11627906560897827
0.1583663523197174 -0.7364341020584106 -0.10077518224716187
0.16191130876541138 -0.7364341020584106 -0.08527129888534546
0.16135847568511963 -0.7209302186965942 -0.643410861492157
0.16267713904380798 -0.7209302186965942 -0.6279069781303406
0.1600107103586197 -0.7209302186965942 -0.6124030947685242
0.15639257431030273 -0.7209302186965942 -0.5968992114067078
0.15269403159618378 -0.7209302186965942 -0.5813953876495361
0.14827750623226166 -0.7209302186965942 -0.5658915042877197
0.1476321667432785 -0.7209302186965942 -0.30232560634613037
0.1535009741783142 -0.7209302186965942 -0.28682172298431396
0.15770800411701202 -0.7209302186965942 -0.27131783962249756
0.16261711716651917 -0.7209302186965942 -0.25581395626068115
0.16232791543006897 0.7054263353347778 -0.4728682041168213
0.15775242447853088 0.7054263353347778 -0.4573643207550049
0.15232449769973755 0.7054263353347778 -0.4418604373931885
0.1483035385608673 0.7054263353347778 -0.42635661363601685
0.1507338136434555 0.7054263353347778 -0.28682172298431396
0.15410064160823822 0.7054263353347778 -0.27131783962249756
0.15648967027664185 0.7054263353347778 -0.25581395626068115
0.15842871367931366 0.7054263353347778 -0.24031007289886475
0.16095589101314545 0.7054263353347778 -0.22480618953704834
0.15759839117527008 0.7209302186965942 -0.06976741552352905
0.14783766865730286 0.7674418687820435 -0.6279069781303406
0.1506742537021637 0.7674418687820435 -0.19379842281341553
0.16237086057662964 0.7674418687820435 0.038759708404541016
0.15125414729118347 0.7674418687820435 0.05426359176635742
0.1543283313512802 0.7829457521438599 0.06976747512817383
0.14781233668327332 0.7829457521438599 0.08527135848999023
0.15538424253463745 0.7984496355056763 0.06976747512817383
0.14947190880775452 0.7984496355056763 0.08527135848999023
0.1506444364786148 0.8139535188674927 0.038759708404541016
0.1475050300359726 0.8139535188674927 0.05426359176635742
0.16982239484786987 -0.8139535188674927 0.05426359176635742
0.17256873846054077 -0.7984496355056763 0.05426359176635742
0.16292493045330048 -0.7984495759010315 0.06976747512817383
0.17251187562942505 -0.7829457521438599 -0.1782945990562439
0.1742636114358902 -0.7829457521438599 0.038759708404541016
0.16806559264659882 -0.7674418687820435 -0.22480618953704834
0.17053896188735962 -0.751937985420227 -0.6589146852493286
0.1770554631948471 -0.751937985420227 -0.02325582504272461
0.1736002266407013 -0.7364341020584106 -0.06976741552352905
0.1666804850101471 -0.7209302186965942 -0.24031007289886475
0.1682661771774292 -0.7209302186965942 -0.22480618953704834
0.17012019455432892 -0.7209302186965942 -0.20930230617523193
0.17501096427440643 -0.7209302186965942 -0.19379842281341553
0.17828914523124695 -0.7054263353347778 -0.4418604373931885
0.17813727259635925 -0.7054263353347778 -0.42635661363601685
0.1754254698753357 0.7054263353347778 -0.5193798542022705
0.1713586449623108 0.7054263353347778 -0.5038759708404541
0.16665038466453552 0.7054263353347778 -0.4883720874786377
0.16986098885536194 0.7054263353347778 -0.20930230617523193
0.16633108258247375 0.7364341020584106 -0.02325582504272461
0.17634855210781097 0.751937985420227 -0.6589146852493286
0.175833061337471 0.751937985420227 -0.42635661363601685
0.17270883917808533 0.751937985420227 -0.41085273027420044
0.17154844105243683 0.751937985420227 -0.39534884691238403
0.1712201088666916 0.751937985420227 -0.3798449635505676
0.17158693075180054 0.751937985420227 -0.3643410801887512
0.17327851057052612 0.751937985420227 -0.3488371968269348
0.17533577978610992 0.751937985420227 -0.3333333134651184
0.17730149626731873 0.751937985420227 -0.317829430103302
0.17712943255901337 0.751937985420227 -0.30232560634613037
0.1754959523677826 0.751937985420227 -0.28682172298431396
0.17401207983493805 0.751937985420227 -0.27131783962249756
0.17335368692874908 0.751937985420227 -0.25581395626068115
0.17818768322467804 0.751937985420227 -0.24031007289886475
0.1634874790906906 0.7674418687820435 -0.6434109210968018
0.17494162917137146 0.7829457521438599 0.038759708404541016
0.16342666745185852 0.7829457521438599 0.05426359176635742
0.1738833785057068 0.7984496355056763 0.038759708404541016
0.16380086541175842 0.7984496355056763 0.05426359176635742
0.16377858817577362 0.8139535784721375 0.02325582504272461
0.1848444640636444 -0.8139535188674927 -0.08527129888534546
0.18341219425201416 -0.8139535188674927 0.038759708404541016
0.18612098693847656 -0.7984496355056763 -0.13178294897079468
0.18812119960784912 -0.7984496355056763 0.038759708404541016
0.187254399061203 -0.7674418687820435 -0.20930230617523193
0.19241133332252502 -0.7674418687820435 0.007751941680908203
0.19334901869297028 -0.751937985420227 -0.5193798542022705
0.1929648369550705 -0.751937985420227 -0.5038759708404541
0.19353610277175903 -0.751937985420227 -0.4883720874786377
0.1924198716878891 -0.7209302186965942 -0.6589146852493286
0.18693149089813232 -0.7209302186965942 -0.1782945990562439
0.1888227015733719 -0.7054263353347778 -0.4883720874786377
0.18467110395431519 -0.7054263353347778 -0.4728682041168213
0.18112118542194366 -0.7054263353347778 -0.4573643207550049
0.17893639206886292 -0.7054263353347778 -0.41085273027420044
0.18035200238227844 -0.7054263353347778 -0.39534884691238403
0.18143145740032196 -0.7054263353347778 -0.37984499335289
0.18369369208812714 -0.7054263353347778 -0.3643410801887512
0.18684260547161102 -0.7054263353347778 -0.3488371968269348
0.1900004744529724 -0.7054263353347778 -0.3333333134651184
0.19279569387435913 -0.7054263353347778 -0.317829430103302
0.18937620520591736 0.7054263353347778 -0.643410861492157
0.19168101251125336 0.7054263353347778 -0.6279069781303406
0.1899719536304474 0.7054263353347778 -0.6124030947685242
0.1871379017829895 0.7054263353347778 -0.5968992114067078
0.18582700192928314 0.7054263353347778 -0.5813953876495361
0.18379974365234375 0.7054263353347778 -0.5658915042877197
0.1827911138534546 0.7054263353347778 -0.5503876209259033
0.17990221083164215 0.7054263353347778 -0.5348837375640869
0.1791478842496872 0.7054263353347778 -0.19379843771457672
0.1844273805618286 0.7054263353347778 -0.1782945990562439
0.19160573184490204 0.751937985420227 -0.5658915042877197
0.18852300941944122 0.751937985420227 -0.5503876209259033
0.18665146827697754 0.751937985420227 -0.5348837375640869
0.18591585755348206 0.751937985420227 -0.5193798542022705
0.1854492425918579 0.751937985420227 -0.5038759708404541
0.18448202311992645 0.751937985420227 -0.4883720874786377
0.18330329656600952 0.751937985420227 -0.4728682339191437
0.18218272924423218 0.751937985420227 -0.4573643207550049
0.17936652898788452 0.751937985420227 -0.4418604373931885
0.18731552362442017 0.751937985420227 -0.22480618953704834
0.1904255598783493 0.7674418687820435 -0.1782945990562439
0.18449178338050842 0.7674418687820435 0.02325582504272461
0.17910927534103394 0.7829457521438599 -0.14728683233261108
0.1807888001203537 0.7984496355056763 -0.11627906560897827
0.20530453324317932 -0.8139535188674927 0.02325582504272461
0.2069011777639389 -0.7984496355056763 -0.11627906560897827
0.2007160782814026 -0.7829457521438599 -0.1627907156944275
0.20498570799827576 -0.7829457521438599 0.02325582504272461
0.20455653965473175 -0.7674418687820435 -0.19379842281341553
0.20349913835525513 -0.7674418687820435 0.007751941680908203
0.20713435113430023 -0.751937985420227 -0.6279069781303406
0.2020910382270813 -0.751937985420227 -0.6124030947685242
0.20084640383720398 -0.751937985420227 -0.5968992114067078
0.19982744753360748 -0.751937985420227 -0.5813953876495361
0.19801761209964752 -0.751937985420227 -0.5658915042877197
0.19615858793258667 -0.751937985420227 -0.5503876209259033
0.19426606595516205 -0.751937985420227 -0.5348837375640869
0.1940716654062271 -0.751937985420227 -0.4728682041168213
0.1953948438167572 -0.751937985420227 -0.4573643207550049
0.19582614302635193 -0.751937985420227 -0.4418604373931885
0.19633327424526215 -0.7519380450248718 -0.42635664343833923
0.19735485315322876 -0.7519380450248718 -0.41085273027420044
0.1987171471118927 -0.751937985420227 -0.39534884691238403
0.20012715458869934 -0.751937985420227 -0.3798449635505676
0.2017287015914917 -0.751937985420227 -0.3643410801887512
0.20379605889320374 -0.751937985420227 -0.3488371968269348
0.2045809030532837 -0.751937985420227 -0.3333333134651184
0.20448285341262817 -0.751937985420227 -0.317829430103302
0.20194675028324127 -0.751937985420227 -0.30232560634613037
0.1993454396724701 -0.751937985420227 -0.28682172298431396
0.19792839884757996 -0.751937985420227 -0.27131783962249756
0.19899678230285645 -0.751937985420227 -0.25581395626068115
0.20464776456356049 -0.751937985420227 -0.24031007289886475
0.19583529233932495 -0.7364341020584106 -0.05426359549164772
0.20364344120025635 -0.7209302186965942 -0.1627907156944275
0.20745988190174103 -0.7054263353347778 -0.5658915042877197
0.2063412070274353 -0.7054263353347778 -0.5503876209259033
0.2038557082414627 -0.7054263353347778 -0.5348837375640869
0.19984759390354156 -0.7054263353347778 -0.5193798542022705
0.19481401145458221 -0.7054263353347778 -0.5038759708404541
0.19604827463626862 -0.7054263353347778 -0.30232560634613037
0.20269054174423218 -0.7054263353347778 -0.28682172298431396
0.20776569843292236 -0.7054263353347778 -0.27131783962249756
0.20764848589897156 0.6899224519729614 -0.4418604373931885
0.20486123859882355 0.6899224519729614 -0.42635661363601685
0.2021954357624054 0.6899224519729614 -0.41085273027420044
0.20003756880760193 0.6899224519729614 -0.39534884691238403
0.19888079166412354 0.6899224519729614 -0.3798449635505676
0.19909977912902832 0.6899224519729614 -0.3643410801887512
0.19924595952033997 0.6899224519729614 -0.3488371968269348
0.20014670491218567 0.6899224519729614 -0.3333333134651184
0.2025202214717865 0.6899224519729614 -0.317829430103302
0.20597730576992035 0.6899224519729614 -0.30232560634613037
0.19531100988388062 0.7054263353347778 -0.1627907156944275
0.1965302675962448 0.7209302186965942 -0.6589146852493286
0.20669829845428467 0.7209302186965942 -0.05426359176635742
0.20728646218776703 0.751937985420227 -0.6124030947685242
0.20181486010551453 0.751937985420227 -0.5968992114067078
0.196894109249115 0.7519379258155823 -0.5813953876495361
0.20051878690719604 0.751937985420227 -0.20930230617523193
0.20238547027111053 0.7829457521438599 0.02325582504272461
0.19749629497528076 0.7984496355056763 0.02325582504272461
0.19640108942985535 0.8139535784721375 -0.06976741552352905
0.20811469852924347 0.8139535188674927 0.007751941680908203
0.2105713039636612 -0.8139535188674927 -0.06976741552352905
0.22084355354309082 -0.7829457521438599 -0.14728683233261108
0.2204587310552597 -0.7829457521438599 0.02325582504272461
0.22283264994621277 -0.7674418687820435 -0.1782945990562439
0.21351949870586395 -0.751937985420227 -0.643410861492157
0.21659111976623535 -0.751937985420227 -0.22480618953704834
0.21650907397270203 -0.7209302186965942 -0.14728683233261108
0.2189200520515442 -0.7209302186965942 -0.13178294897079468
0.2184520959854126 -0.7209302186965942 -0.11627906560897827
0.22100716829299927 -0.7209302186965942 -0.10077518224716187
0.21078842878341675 -0.7054263353347778 -0.643410861492157
0.21363481879234314 -0.7054263353347778 -0.6279069781303406
0.2128450870513916 -0.7054263353347778 -0.6124030947685242
0.21096105873584747 -0.7054263353347778 -0.5968992114067078
0.20946308970451355 -0.7054263353347778 -0.5813953876495361
0.2148401141166687 -0.7054263353347778 -0.25581395626068115
0.22102771699428558 -0.7054263353347778 -0.24031007289886475
0.22356504201889038 -0.7054263353347778 -0.22480618953704834
0.22404001653194427 0.6899224519729614 -0.5038759708404541
0.22024016082286835 0.6899224519729614 -0.4883720874786377
0.2167588770389557 0.6899224519729614 -0.4728682041168213
0.21263988316059113 0.6899224519729614 -0.4573643207550049
0.21214601397514343 0.6899224519729614 -0.28682172298431396
0.21634390950202942 0.6899224519729614 -0.27131783962249756
0.2202771157026291 0.6899224519729614 -0.25581395626068115
0.22356370091438293 0.6899224519729614 -0.24031007289886475
0.21514394879341125 0.7054263353347778 -0.14728683233261108
0.22048571705818176 0.751937985420227 -0.6279069781303406
0.22007089853286743 0.751937985420227 -0.19379842281341553
0.21647700667381287 0.7674418687820435 -0.1627907156944275
0.21326389908790588 0.7829457521438599 -0.13178294897079468
0.2130616009235382 0.7984496355056763 -0.10077518224716187
0.21732372045516968 0.8139535188674927 -0.05426359176635742
0.22941003739833832 -0.8139535188674927 -0.05426359176635742
0.23966310918331146 -0.8139535188674927 -0.038759708404541016
0.23886717855930328 -0.8139535188674927 0.007751941680908203
0.2256590873003006 -0.7984496355056763 -0.10077518224716187
0.23885589838027954 -0.7829457521438599 -0.13178294897079468
0.23993121087551117 -0.7674418687820435 -0.1627907156944275
0.230699360370636 -0.751937985420227 -0.20930230617523193
0.2284276932477951 -0.7364340424537659 -0.6589146852493286
0.2356102168560028 -0.7209302186965942 -0.08527129888534546
0.23869039118289948 -0.7054263353347778 -0.6589146852493286
0.22586429119110107 -0.7054263353347778 -0.20930230617523193
0.23209835588932037 -0.7054263353347778 -0.19379842281341553
0.23689880967140198 -0.6899224519729614 -0.4883720874786377
0.23426192998886108 -0.6899224519729614 -0.4728682041168213
0.23193210363388062 -0.6899224519729614 -0.4573643207550049
0.22961431741714478 -0.6899224519729614 -0.4418604373931885
0.22900429368019104 -0.6899224519729614 -0.42635661363601685
0.22927752137184143 -0.6899224519729614 -0.41085273027420044
0.23013938963413239 -0.6899224519729614 -0.39534884691238403
0.23108866810798645 -0.6899224519729614 -0.3798449635505676
0.23311445116996765 -0.6899224519729614 -0.3643410801887512
0.23603959381580353 -0.6899224519729614 -0.3488371968269348
0.23918306827545166 -0.6899224519729614 -0.3333333134651184
0.236122265458107 0.6899224519729614 -0.643410861492157
0.2377605438232422 0.6899224519729614 -0.6279069781303406
0.23666787147521973 0.6899224519729614 -0.6124030947685242
0.23469863831996918 0.6899224519729614 -0.5968992114067078
0.23373734951019287 0.6899224519729614 -0.5813953876495361
0.23228827118873596 0.6899224519729614 -0.5658915042877197
0.2315431535243988 0.6899224519729614 -0.5503876209259033
0.23011191189289093 0.6899224519729614 -0.5348837375640869
0.2275652289390564 0.6899223923683167 -0.5193798542022705
0.22707012295722961 0.6899224519729614 -0.22480618953704834
0.23745957016944885 0.6899224519729614 -0.20930230617523193
0.23889704048633575 0.7054263353347778 -0.6589146852493286
0.23189827799797058 0.7364341020584106 -0.6589146852493286
0.23996464908123016 0.7364341020584106 -0.5038759708404541
0.23828138411045074 0.7364341020584106 -0.4883720874786377
0.2365117371082306 0.7364341020584106 -0.4728682041168213
0.23532462120056152 0.7364341020584106 -0.4573643207550049
0.2332972288131714 0.7364341020584106 -0.4418604373931885
0.2314474731683731 0.7364341020584106 -0.42635661363601685
0.22956055402755737 0.7364341020584106 -0.41085273027420044
0.22900690138339996 0.7364341020584106 -0.39534884691238403
0.22940197587013245 0.7364341020584106 -0.3798449635505676
0.2303936779499054 0.7364341020584106 -0.3643410801887512
0.23219934105873108 0.7364341020584106 -0.3488371968269348
0.2338983416557312 0.7364341020584106 -0.3333333134651184
0.2344394326210022 0.7364341020584106 -0.317829430103302
0.232272669672966 0.7364341020584106 -0.30232560634613037
0.22886577248573303 0.7364341020584106 -0.28682172298431396
0.22641386091709137 0.7364341020584106 -0.27131783962249756
0.2258628010749817 0.7364341020584106 -0.25581395626068115
0.22933560609817505 0.7364341020584106 -0.24031007289886475
0.23839367926120758 0.7364341020584106 -0.22480618953704834
0.2284712791442871 0.751937985420227 -0.643410861492157
0.23557785153388977 0.751937985420227 0.007751941680908203
0.23757536709308624 0.7674418687820435 -0.14728683233261108
0.23489288985729218 0.7984496355056763 -0.08527129888534546
0.23242150247097015 0.8139535188674927 -0.038759708404541016
0.23861917853355408 0.8139535188674927 -0.02325582504272461
0.23809127509593964 0.8139535188674927 -0.007751941680908203
0.24483457207679749 -0.8139535188674927 -0.02325582504272461
0.2465929239988327 -0.8139535188674927 -0.007751941680908203
0.24323806166648865 -0.7984496355056763 -0.08527129888534546
0.2551848888397217 -0.7829457521438599 -0.11627906560897827
0.24423091113567352 -0.751937985420227 -0.19379842281341553
0.2509174346923828 -0.751937985420227 -0.007751941680908203
0.2539236843585968 -0.7364341020584106 -0.5658915042877197
0.25106221437454224 -0.7364341020584106 -0.5503876209259033
0.24870949983596802 -0.7364341020584106 -0.5348837375640869
0.2469327449798584 -0.7364341020584106 -0.5193798542022705
0.24603663384914398 -0.7364341020584106 -0.5038759708404541
0.2454342395067215 -0.7364341020584106 -0.4883720874786377
0.245364248752594 -0.7364341020584106 -0.4728682041168213
0.24595868587493896 -0.7364341020584106 -0.4573643207550049
0.24566376209259033 -0.7364341020584106 -0.4418604373931885
0.24564200639724731 -0.7364341020584106 -0.42635661363601685
0.2459222674369812 -0.7364341020584106 -0.41085273027420044
0.24692028760910034 -0.7364341020584106 -0.39534884691238403
0.24795296788215637 -0.7364341020584106 -0.3798449635505676
0.2495676875114441 -0.7364341020584106 -0.3643410801887512
0.2512805461883545 -0.7364341020584106 -0.3488371968269348
0.2514585852622986 -0.7364341020584106 -0.3333333134651184
0.25052332878112793 -0.7364341020584106 -0.317829430103302
0.24708876013755798 -0.7364341020584106 -0.30232560634613037
0.2439262568950653 -0.7364341020584106 -0.28682172298431396
0.24180562794208527 -0.7364341020584106 -0.27131783962249756
0.24207882583141327 -0.7364341020584106 -0.25581395626068115
0.2454521209001541 -0.7364341020584106 -0.24031008780002594
0.255741149187088 -0.7364341020584106 -0.22480618953704834
0.24551983177661896 -0.7364341020584106 -0.038759708404541016
0.24279853701591492 -0.7054263353347778 -0.1782945990562439
0.2545202970504761 -0.6899224519729614 -0.5968992114067078
0.2524499297142029 -0.6899224519729614 -0.5813953876495361
0.2501242160797119 -0.6899224519729614 -0.5658915042877197
