-0.8394923210144043 0.11627912521362305 -0.27131783962249756
-0.8421632051467896 0.11627912521362305 -0.25581395626068115
-0.844550609588623 0.11627912521362305 -0.24031007289886475
-0.8302626013755798 0.1317828893661499 -0.41085273027420044
-0.8315893411636353 0.1317828893661499 -0.39534884691238403
-0.8330718278884888 0.1317828893661499 -0.3798449635505676
-0.8346148133277893 0.1317828893661499 -0.3643410801887512
-0.8344312906265259 0.1317828893661499 -0.3488371968269348
-0.834123969078064 0.1317828893661499 -0.3333333134651184
-0.833471417427063 0.1317828893661499 -0.317829430103302
-0.8325477242469788 0.1317828893661499 -0.30232560634613037
-0.8333014845848083 0.1317828893661499 -0.28682172298431396
-0.8355509042739868 0.1317828893661499 -0.27131783962249756
-0.8388192653656006 0.1317828893661499 -0.25581395626068115
-0.8416147828102112 0.1317828893661499 -0.24031007289886475
-0.8432577252388 0.1317828893661499 -0.22480618953704834
-0.8437032699584961 0.1317828893661499 -0.20930230617523193
-0.8436464667320251 0.1317828893661499 -0.19379842281341553
-0.8435969352722168 0.1317828893661499 -0.1782945990562439
-0.8437249660491943 0.1317828893661499 -0.1627907156944275
-0.844115674495697 0.1317828893661499 -0.14728683233261108
-0.8448975682258606 0.1317829042673111 -0.13178294897079468
-0.8299490809440613 0.1472867727279663 -0.27131783962249756
-0.8346971273422241 0.1472867727279663 -0.25581395626068115
-0.8380059003829956 0.1472867727279663 -0.24031007289886475
-0.8398226499557495 0.1472867727279663 -0.22480618953704834
-0.8403840661048889 0.1472867727279663 -0.20930230617523193
-0.840487003326416 0.1472867727279663 -0.19379842281341553
-0.8404728770256042 0.1472867727279663 -0.1782945990562439
-0.8406155705451965 0.1472867727279663 -0.1627907156944275
-0.841076135635376 0.1472867727279663 -0.14728683233261108
-0.8418945074081421 0.1472867727279663 -0.13178294897079468
-0.8428789377212524 0.14728675782680511 -0.11627906560897827
-0.8442001342773438 0.1472867727279663 -0.10077518224716187
-0.8330676555633545 0.16279065608978271 -0.24031007289886475
-0.8349361419677734 0.16279065608978271 -0.22480618953704834
-0.8355516195297241 0.16279065608978271 -0.20930230617523193
-0.8354822397232056 0.16279065608978271 -0.19379842281341553
-0.8350025415420532 0.16279065608978271 -0.1782945990562439
-0.8350645303726196 0.16279065608978271 -0.1627907156944275
-0.835881233215332 0.16279065608978271 -0.14728683233261108
-0.8373469114303589 0.16279065608978271 -0.13178294897079468
-0.8390307426452637 0.16279065608978271 -0.11627906560897827
-0.840957760810852 0.16279065608978271 -0.10077518224716187
-0.8430137038230896 0.16279065608978271 -0.08527129888534546
-0.8326457738876343 0.17829453945159912 -0.10077518224716187
-0.8388292789459229 0.17829453945159912 -0.08527129888534546
-0.8429589867591858 0.17829453945159912 -0.06976741552352905
-0.834945559501648 0.19379842281341553 -0.06976741552352905
-0.8425417542457581 0.20930230617523193 -0.7829457521438599
-0.8431204557418823 0.20930230617523193 -0.13178294897079468
-0.8399760723114014 0.20930230617523193 -0.11627906560897827
-0.8376125693321228 0.20930230617523193 -0.10077518224716187
-0.835330605506897 0.20930230617523193 -0.08527129888534546
-0.8336514830589294 0.20930230617523193 -0.06976741552352905
-0.8310261964797974 0.20930230617523193 -0.05426359176635742
-0.837064266204834 0.22480618953704834 -0.7829457521438599
-0.8435515761375427 0.22480618953704834 -0.643410861492157
-0.8405133485794067 0.22480618953704834 -0.6279069781303406
-0.8424974679946899 0.22480618953704834 -0.6124030947685242
-0.8441073298454285 0.22480618953704834 -0.5968992114067078
-0.8443413376808167 0.22480618953704834 -0.5813953280448914
-0.844287633895874 0.22480617463588715 -0.5658915042877197
-0.8444625735282898 0.22480618953704834 -0.5503876209259033
-0.8448566794395447 0.22480618953704834 -0.5348837375640869
-0.8423713445663452 0.22480618953704834 -0.1627907156944275
-0.8384023308753967 0.22480618953704834 -0.14728683233261108
-0.8345086574554443 0.22480618953704834 -0.13178294897079468
-0.8318885564804077 0.22480618953704834 -0.11627906560897827
-0.8301800489425659 0.22480618953704834 -0.10077518224716187
-0.829707682132721 0.24031007289886475 -0.7829457521438599
-0.8404792547225952 0.24031007289886475 -0.7674418687820435
-0.84297776222229 0.24031007289886475 -0.751937985420227
-0.8441436290740967 0.24031007289886475 -0.7364341020584106
-0.8432826995849609 0.24031007289886475 -0.6589146852493286
-0.8380697965621948 0.24031007289886475 -0.643410861492157
-0.8355201482772827 0.24031007289886475 -0.6279069781303406
-0.8377856016159058 0.24031007289886475 -0.6124030947685242
-0.8399959802627563 0.24031007289886475 -0.5968992114067078
-0.8404212594032288 0.24031007289886475 -0.5813953876495361
-0.840365469455719 0.24031007289886475 -0.5658915042877197
-0.8405192494392395 0.24031007289886475 -0.5503876209259033
-0.8408948183059692 0.24031007289886475 -0.5348837375640869
-0.8414261937141418 0.24031007289886475 -0.5193798542022705
-0.8423400521278381 0.24031007289886475 -0.5038759708404541
-0.8436042666435242 0.24031007289886475 -0.4883720576763153
-0.8449529409408569 0.24031007289886475 -0.4728682041168213
-0.8380104303359985 0.24031007289886475 -0.22480618953704834
-0.8374588489532471 0.24031007289886475 -0.20930230617523193
-0.83885258436203 0.24031007289886475 -0.19379842281341553
-0.837597668170929 0.24031007289886475 -0.1782945990562439
-0.8338183760643005 0.24031007289886475 -0.1627907156944275
-0.8304346799850464 0.24031007289886475 -0.14728683233261108
-0.8333421349525452 0.25581395626068115 -0.7674418687820435
-0.836631178855896 0.25581395626068115 -0.751937985420227
-0.8382248878479004 0.25581395626068115 -0.7364341020584106
-0.839937686920166 0.25581395626068115 -0.7209302186965942
-0.8409688472747803 0.25581395626068115 -0.7054263353347778
-0.8413393497467041 0.25581395626068115 -0.6899224519729614
-0.8404845595359802 0.25581395626068115 -0.674418568611145
-0.8376755714416504 0.25581395626068115 -0.6589146852493286
-0.8308432698249817 0.25581395626068115 -0.643410861492157
-0.8307320475578308 0.25581395626068115 -0.6124030947685242
-0.832664966583252 0.25581395626068115 -0.5968992114067078
-0.8329887390136719 0.25581395626068115 -0.5813953876495361
-0.8328094482421875 0.25581395626068115 -0.5658915042877197
-0.8330152630805969 0.25581395626068115 -0.5503876209259033
-0.8336823582649231 0.25581395626068115 -0.5348837375640869
-0.834754467010498 0.25581395626068115 -0.5193798542022705
-0.8364949226379395 0.25581395626068115 -0.5038759708404541
-0.8384894728660583 0.25581395626068115 -0.4883720874786377
-0.8402494192123413 0.25581395626068115 -0.4728682041168213
-0.8419880867004395 0.25581395626068115 -0.4573643207550049
-0.8442515134811401 0.25581395626068115 -0.4418604373931885
-0.836932897567749 0.25581395626068115 -0.24031007289886475
-0.8322352170944214 0.25581395626068115 -0.22480618953704834
-0.8328045606613159 0.25581395626068115 -0.20930230617523193
-0.8324892520904541 0.25581395626068115 -0.19379842281341553
-0.8301945328712463 0.25581395626068115 -0.1782945990562439
-0.8302460312843323 0.27131783962249756 -0.751937985420227
-0.8308026790618896 0.27131783962249756 -0.7364341020584106
-0.8325501084327698 0.27131783962249756 -0.7209302186965942
-0.8339728116989136 0.27131783962249756 -0.7054263353347778
-0.8343160152435303 0.27131783962249756 -0.6899224519729614
-0.8334449529647827 0.27131783962249756 -0.674418568611145
-0.8303889036178589 0.27131783962249756 -0.6589146852493286
-0.8295406699180603 0.27131783962249756 -0.5038759708404541
-0.8308683633804321 0.27131783962249756 -0.4883720874786377
-0.8328698873519897 0.27131783962249756 -0.4728682041168213
-0.8362764120101929 0.27131783962249756 -0.4573643207550049
-0.8398383855819702 0.27131783962249756 -0.4418604075908661
-0.842513382434845 0.27131783962249756 -0.42635661363601685
-0.8320136070251465 0.27131783962249756 -0.24031007289886475
-0.8299503922462463 0.28682172298431396 -0.4573643207550049
-0.8331810832023621 0.28682172298431396 -0.4418604373931885
-0.8378878235816956 0.28682172298431396 -0.42635661363601685
-0.8416889905929565 0.28682172298431396 -0.41085273027420044
-0.8446184992790222 0.28682172298431396 -0.39534884691238403
-0.8299143314361572 0.28682172298431396 -0.24031007289886475
-0.8315499424934387 0.30232560634613037 -0.42635661363601685
-0.8366944789886475 0.30232560634613037 -0.41085273027420044
-0.8417587876319885 0.30232560634613037 -0.3953488767147064
-0.8446494936943054 0.30232560634613037 -0.3798449635505676
-0.8415355086326599 0.30232560634613037 -0.25581395626068115
-0.8308834433555603 0.3178294897079468 -0.41085273027420044
-0.8374140858650208 0.3178294897079468 -0.39534884691238403
-0.8422826528549194 0.3178294897079468 -0.3798449635505676
-0.837963879108429 0.3178294897079468 -0.25581395626068115
-0.8310904502868652 0.3333333730697632 -0.39534884691238403
-0.8375502824783325 0.3333333730697632 -0.3798449635505676
-0.8422921895980835 0.3333333730697632 -0.3643410801887512
-0.8445510268211365 0.3333333730697632 -0.3488371968269348
-0.8423820734024048 0.3333333432674408 -0.27131783962249756
-0.8343215584754944 0.3333333730697632 -0.25581395626068115
-0.8310132622718811 0.3488372564315796 -0.3798449635505676
-0.836040735244751 0.3488372564315796 -0.3643410801887512
-0.8405193090438843 0.3488372564315796 -0.3488371968269348
-0.8423747420310974 0.3488372564315796 -0.3333333134651184
-0.8431726098060608 0.3488372564315796 -0.317829430103302
-0.8433268666267395 0.3488372564315796 -0.30232560634613037
-0.8424237370491028 0.348837286233902 -0.28682172298431396
-0.8381227850914001 0.3488372564315796 -0.27131783962249756
-0.8298031687736511 0.364341139793396 -0.3643410801887512
-0.8327962160110474 0.364341139793396 -0.3488371968269348
-0.8358336091041565 0.364341139793396 -0.3333333134651184
-0.8369637727737427 0.364341139793396 -0.317829430103302
-0.8370633721351624 0.364341139793396 -0.30232560634613037
-0.8358713388442993 0.364341139793396 -0.28682172298431396
-0.8305383324623108 0.364341139793396 -0.27131783962249756
-0.8295832872390747 0.37984490394592285 -0.317829430103302
-0.8296815156936646 0.37984490394592285 -0.30232560634613037
-0.8140388131141663 -0.39534884691238403 -0.3488371968269348
-0.8173315525054932 -0.39534884691238403 -0.3333333134651184
-0.8205279111862183 -0.39534884691238403 -0.317829430103302
-0.8214703798294067 -0.39534884691238403 -0.30232560634613037
-0.8218181729316711 -0.39534884691238403 -0.28682172298431396
-0.8180674910545349 -0.39534884691238403 -0.27131783962249756
-0.8156591057777405 -0.3798449635505676 -0.3643410801887512
-0.8219048976898193 -0.3798449635505676 -0.3488371968269348
-0.8258326053619385 -0.3798449635505676 -0.3333333134651184
-0.8275107145309448 -0.3798449635505676 -0.317829430103302
-0.8283810019493103 -0.3798449635505676 -0.30232560634613037
-0.8286048173904419 -0.3798449635505676 -0.2868216931819916
-0.8260166645050049 -0.37984499335289 -0.27131783962249756
-0.8186020851135254 -0.3798449635505676 -0.25581395626068115
-0.8144251108169556 -0.3643410801887512 -0.39534884691238403
-0.8173263072967529 -0.3643410801887512 -0.3798449635505676
-0.8238822221755981 -0.3643410801887512 -0.3643410801887512
-0.8279074430465698 -0.3643410801887512 -0.3488371968269348
-0.8247620463371277 -0.3643410801887512 -0.25581395626068115
-0.8161301016807556 -0.3643410801887512 -0.24031007289886475
-0.814382791519165 -0.3488371968269348 -0.41085273027420044
-0.8194005489349365 -0.3488371968269348 -0.39534884691238403
-0.8256804943084717 -0.3488371968269348 -0.3798449635505676
-0.8288299441337585 -0.3488371968269348 -0.3643410801887512
-0.8294408917427063 -0.3488371968269348 -0.25581395626068115
-0.8217917084693909 -0.3488371968269348 -0.24031007289886475
-0.8149831295013428 -0.3333333134651184 -0.42635661363601685
-0.8202871680259705 -0.3333333134651184 -0.41085273027420044
-0.8260460495948792 -0.3333333134651184 -0.39534884691238403
-0.8244343996047974 -0.3333333134651184 -0.24031007289886475
-0.8196114301681519 -0.3333333134651184 -0.22480618953704834
-0.8151324987411499 -0.317829430103302 -0.7209302186965942
-0.815933108329773 -0.317829430103302 -0.7054263353347778
-0.8161261081695557 -0.317829430103302 -0.6899224519729614
-0.8143676519393921 -0.317829430103302 -0.674418568611145
-0.8139539957046509 -0.317829430103302 -0.4573643207550049
-0.8172236680984497 -0.317829430103302 -0.4418604373931885
-0.8221640586853027 -0.317829430103302 -0.42635661363601685
-0.8270865678787231 -0.317829430103302 -0.4108527600765228
-0.8229275941848755 -0.317829430103302 -0.22480618953704834
-0.8194236755371094 -0.317829430103302 -0.20930230617523193
-0.8152860403060913 -0.317829430103302 -0.19379842281341553
-0.8152850270271301 -0.30232560634613037 -0.7674418687820435
-0.8171108961105347 -0.30232560634613037 -0.751937985420227
-0.819329023361206 -0.30232560634613037 -0.7364341020584106
-0.8217934370040894 -0.30232560634613037 -0.7209302186965942
-0.8229814767837524 -0.30232560634613037 -0.7054263353347778
-0.8228535652160645 -0.30232560634613037 -0.6899224519729614
-0.8211067914962769 -0.30232560634613037 -0.674418568611145
-0.8140084147453308 -0.30232560634613037 -0.6589146852493286
-0.8142210245132446 -0.30232560634613037 -0.5813953876495361
-0.8141522407531738 -0.30232560634613037 -0.5658915042877197
-0.8140850067138672 -0.30232560634613037 -0.5503876209259033
-0.8142244815826416 -0.30232560634613037 -0.5348837375640869
-0.8144851922988892 -0.30232560634613037 -0.5193798542022705
-0.8150179386138916 -0.30232560634613037 -0.5038759708404541
-0.8159767985343933 -0.30232560634613037 -0.4883720874786377
-0.8174613118171692 -0.30232560634613037 -0.4728682041168213
-0.8207644820213318 -0.30232560634613037 -0.4573643207550049
-0.8253804445266724 -0.30232560634613037 -0.4418604373931885
-0.8292625546455383 -0.30232560634613037 -0.42635661363601685
-0.824207603931427 -0.30232560634613037 -0.20930229127407074
-0.8219619393348694 -0.30232560634613037 -0.19379842281341553
-0.8181920051574707 -0.30232560634613037 -0.1782945990562439
-0.8146207332611084 -0.28682172298431396 -0.7829457521438599
-0.8214683532714844 -0.28682172298431396 -0.7674418687820435
-0.8257454037666321 -0.28682172298431396 -0.751937985420227
-0.8273141980171204 -0.28682172298431396 -0.7364341020584106
-0.8290678858757019 -0.28682172298431396 -0.7209302186965942
-0.8279848694801331 -0.28682172298431396 -0.674418568611145
-0.8222747445106506 -0.28682172298431396 -0.6589146852493286
-0.8173089623451233 -0.28682172298431396 -0.6124030947685242
-0.8207429647445679 -0.28682172298431396 -0.5968992114067078
-0.8216969966888428 -0.28682172298431396 -0.5813953876495361
-0.8213832974433899 -0.28682172298431396 -0.5658915042877197
-0.8211826086044312 -0.28682172298431396 -0.5503876209259033
-0.8214641809463501 -0.28682172298431396 -0.5348837375640869
-0.8219566345214844 -0.28682172298431396 -0.5193798542022705
-0.8227673768997192 -0.28682172298431396 -0.5038759708404541
-0.8240184187889099 -0.28682172298431396 -0.4883720874786377
-0.8256509900093079 -0.28682172298431396 -0.4728682041168213
-0.8281223773956299 -0.28682172298431396 -0.4573643207550049
-0.8273451328277588 -0.28682172298431396 -0.19379842281341553
-0.8247188925743103 -0.28682172298431396 -0.1782945990562439
-0.8193727731704712 -0.28682172298431396 -0.1627907156944275
-0.8143660426139832 -0.28682172298431396 -0.14728683233261108
-0.820367157459259 -0.27131783962249756 -0.7829457521438599
-0.8277220726013184 -0.27131783962249756 -0.6589146852493286
-0.8187447786331177 -0.27131783962249756 -0.643410861492157
-0.818405032157898 -0.27131783962249756 -0.6279069781303406
-0.8233977556228638 -0.27131783962249756 -0.6124030947685242
-0.8273398280143738 -0.27131783962249756 -0.5968992114067078
-0.8284102082252502 -0.27131783962249756 -0.5813953876495361
-0.828327476978302 -0.27131780982017517 -0.5658915042877197
-0.8282480239868164 -0.27131780982017517 -0.5503876209259033
-0.8284204006195068 -0.27131786942481995 -0.5348837375640869
-0.8287240862846375 -0.27131783962249756 -0.5193798542022705
-0.8292829394340515 -0.27131783962249756 -0.5038759708404541
-0.8289560079574585 -0.27131783962249756 -0.1782945841550827
-0.8244583606719971 -0.27131783962249756 -0.1627907156944275
-0.8195487260818481 -0.27131783962249756 -0.14728683233261108
-0.8154572248458862 -0.27131783962249756 -0.13178294897079468
-0.8139954805374146 -0.27131783962249756 0.02325582504272461
-0.8140481114387512 -0.27131783962249756 0.038759708404541016
-0.8292995095252991 -0.25581395626068115 -0.7829457521438599
-0.8249605298042297 -0.25581395626068115 -0.643410861492157
-0.8238539695739746 -0.25581395626068115 -0.6279069185256958
-0.8281598687171936 -0.25581395626068115 -0.1627907156944275
-0.8234307765960693 -0.25581395626068115 -0.14728683233261108
-0.8193340301513672 -0.25581395626068115 -0.13178294897079468
-0.8170521855354309 -0.25581395626068115 -0.11627906560897827
-0.8162521719932556 -0.25581395626068115 -0.10077518224716187
-0.8159122467041016 -0.25581395626068115 -0.08527129888534546
-0.8165795207023621 -0.25581395626068115 -0.06976741552352905
-0.8174958229064941 -0.25581395626068115 -0.05426359176635742
-0.8185567855834961 -0.25581395626068115 -0.038759708404541016
-0.8195585012435913 -0.25581395626068115 -0.02325582504272461
-0.8204504251480103 -0.25581395626068115 -0.007751941680908203
-0.8212566375732422 -0.25581395626068115 0.007751941680908203
-0.8215748071670532 -0.25581395626068115 0.02325582504272461
-0.8213063478469849 -0.25581395626068115 0.038759708404541016
-0.8202024698257446 -0.25581395626068115 0.05426359176635742
-0.8183852434158325 -0.25581395626068115 0.06976747512817383
-0.8146718740463257 -0.24031007289886475 -0.27131783962249756
-0.8166341781616211 -0.24031007289886475 -0.25581395626068115
-0.828284740447998 -0.24031005799770355 -0.14728683233261108
-0.8218249082565308 -0.24031007289886475 -0.13178294897079468
-0.8190472722053528 -0.24031007289886475 -0.11627906560897827
-0.8189610242843628 -0.24031007289886475 -0.10077518224716187
-0.8201286792755127 -0.24031007289886475 -0.08527129888534546
-0.8222007751464844 -0.24031008780002594 -0.06976741552352905
-0.8241540789604187 -0.24031005799770355 -0.05426359176635742
-0.8267726302146912 -0.24031005799770355 -0.03875970467925072
-0.818557620048523 -0.24031007289886475 0.02325582504272461
-0.8227089047431946 -0.24031007289886475 0.038759708404541016
-0.8270741105079651 -0.24031007289886475 0.05426359176635742
-0.8174523115158081 -0.22480618953704834 -0.317829430103302
-0.8182076215744019 -0.22480618953704834 -0.30232560634613037
-0.8188441395759583 -0.22480618953704834 -0.28682172298431396
-0.8208896517753601 -0.22480618953704834 -0.27131783962249756
-0.8225317597389221 -0.22480618953704834 -0.25581395626068115
-0.8206514120101929 -0.22480618953704834 -0.24031007289886475
-0.8179353475570679 -0.22480618953704834 -0.22480618953704834
-0.8149034380912781 -0.22480618953704834 -0.20930230617523193
-0.8164995908737183 -0.22480618953704834 -0.13178294897079468
-0.8215294480323792 -0.22480618953704834 -0.11627906560897827
-0.8224778175354004 -0.22480618953704834 -0.10077518224716187
-0.8221901655197144 -0.22480618953704834 -0.08527129888534546
-0.8217284083366394 -0.22480618953704834 -0.06976741552352905
-0.8216644525527954 -0.22480618953704834 -0.05426359176635742
-0.8220905065536499 -0.22480618953704834 -0.038759708404541016
-0.8232051730155945 -0.22480618953704834 -0.02325582504272461
-0.8247060775756836 -0.22480618953704834 -0.007751941680908203
-0.8259400725364685 -0.22480617463588715 0.007751941680908203
-0.8268449306488037 -0.22480618953704834 0.02325582504272461
-0.8276228904724121 -0.22480617463588715 0.038759708404541016
-0.8289018273353577 -0.22480618953704834 0.05426358804106712
-0.8142789602279663 -0.20930230617523193 -0.3488371968269348
-0.8171972632408142 -0.20930230617523193 -0.3333333134651184
-0.8204509019851685 -0.20930230617523193 -0.317829430103302
-0.8220418095588684 -0.20930230617523193 -0.30232560634613037
-0.8230804204940796 -0.20930230617523193 -0.28682172298431396
-0.8247913718223572 -0.20930230617523193 -0.27131783962249756
-0.8263370990753174 -0.20930229127407074 -0.25581395626068115
-0.825806736946106 -0.20930230617523193 -0.24031007289886475
-0.8246666193008423 -0.20930230617523193 -0.22480618953704834
-0.8234738111495972 -0.20930230617523193 -0.20930230617523193
-0.8229619264602661 -0.20930230617523193 -0.19379842281341553
-0.822834849357605 -0.20930230617523193 -0.1782945990562439
-0.8234694004058838 -0.20930230617523193 -0.1627907156944275
-0.8244848251342773 -0.20930230617523193 -0.14728683233261108
-0.8255230188369751 -0.20930230617523193 -0.13178294897079468
-0.8260981440544128 -0.20930230617523193 -0.11627906560897827
-0.826440691947937 -0.20930230617523193 -0.10077518224716187
-0.8267129063606262 -0.20930230617523193 -0.08527129888534546
-0.8269768953323364 -0.20930230617523193 -0.06976741552352905
-0.82725989818573 -0.20930229127407074 -0.05426359176635742
-0.8276196122169495 -0.20930232107639313 -0.038759708404541016
-0.8283325433731079 -0.20930230617523193 -0.02325582504272461
-0.81533282995224 -0.19379842281341553 -0.3798449635505676
-0.8179947137832642 -0.19379842281341553 -0.3643410801887512
-0.8192178010940552 -0.19379842281341553 -0.3488371968269348
-0.8206334114074707 -0.19379842281341553 -0.3333333134651184
-0.8231661319732666 -0.19379842281341553 -0.317829430103302
-0.82515949010849 -0.19379840791225433 -0.30232560634613037
-0.8264669179916382 -0.19379842281341553 -0.28682172298431396
-0.8279749155044556 -0.19379842281341553 -0.27131783962249756
-0.8293188214302063 -0.19379842281341553 -0.25581395626068115
-0.8293746113777161 -0.19379842281341553 -0.24031007289886475
-0.8290582299232483 -0.19379840791225433 -0.22480618953704834
-0.8286067247390747 -0.19379843771457672 -0.20930230617523193
-0.8284053802490234 -0.19379840791225433 -0.19379840791225433
-0.8284959197044373 -0.19379842281341553 -0.1782945990562439
-0.8288578391075134 -0.19379842281341553 -0.1627907156944275
-0.8292034864425659 -0.19379840791225433 -0.14728683233261108
-0.818080484867096 -0.1782945990562439 -0.643410861492157
-0.8190624713897705 -0.1782945990562439 -0.6279069781303406
-0.8170565366744995 -0.1782945990562439 -0.6124030947685242
-0.8141447305679321 -0.1782945990562439 -0.5968992114067078
-0.8142328858375549 -0.1782945990562439 -0.5038759708404541
-0.8150485157966614 -0.1782945990562439 -0.4883720874786377
-0.8155031800270081 -0.1782945990562439 -0.4728682041168213
-0.8163648247718811 -0.1782945990562439 -0.4573643207550049
-0.8164915442466736 -0.1782945990562439 -0.4418604373931885
-0.8168736696243286 -0.1782945990562439 -0.42635661363601685
-0.8178296685218811 -0.1782945990562439 -0.41085273027420044
-0.8192974925041199 -0.1782945990562439 -0.39534884691238403
-0.8209218978881836 -0.1782945990562439 -0.3798449635505676
-0.8226302862167358 -0.1782945990562439 -0.3643410801887512
-0.8226174712181091 -0.1782945990562439 -0.3488371968269348
-0.8229681253433228 -0.1782945990562439 -0.3333333134651184
-0.8249322175979614 -0.1782945990562439 -0.317829430103302
-0.8271164894104004 -0.1782945990562439 -0.30232560634613037
-0.8286442756652832 -0.1782946139574051 -0.28682172298431396
-0.8185842633247375 -0.1627907156944275 -0.7829457521438599
-0.8180227279663086 -0.1627907156944275 -0.6589146852493286
-0.8228327035903931 -0.1627907156944275 -0.643410861492157
-0.823733389377594 -0.1627907156944275 -0.6279069781303406
-0.8220622539520264 -0.1627907156944275 -0.6124030947685242
-0.8202106952667236 -0.1627907156944275 -0.5968992114067078
-0.8190027475357056 -0.1627907156944275 -0.5813953876495361
-0.8184568881988525 -0.1627907156944275 -0.5658915042877197
-0.8186219930648804 -0.1627907156944275 -0.5503876209259033
-0.8188139200210571 -0.1627907156944275 -0.5348837375640869
-0.8195945620536804 -0.1627907156944275 -0.5193798542022705
-0.8204128742218018 -0.1627907156944275 -0.5038759708404541
-0.8208478689193726 -0.1627907156944275 -0.4883720874786377
-0.8210465312004089 -0.1627907156944275 -0.4728682041168213
-0.8215920925140381 -0.1627907156944275 -0.4573643207550049
-0.8216768503189087 -0.1627907156944275 -0.4418604373931885
-0.8220256567001343 -0.1627907156944275 -0.42635661363601685
-0.8229056596755981 -0.1627907156944275 -0.41085273027420044
-0.824213445186615 -0.1627907156944275 -0.39534884691238403
-0.8256030082702637 -0.1627907156944275 -0.3798449635505676
-0.8266299962997437 -0.1627907156944275 -0.3643410801887512
-0.825793445110321 -0.1627907156944275 -0.3488371968269348
-0.8254610896110535 -0.1627907156944275 -0.3333333134651184
-0.8269354104995728 -0.1627907156944275 -0.317829430103302
-0.8288276195526123 -0.1627907156944275 -0.30232563614845276
-0.8243169784545898 -0.14728683233261108 -0.7829457521438599
-0.8176664710044861 -0.14728683233261108 -0.7674418687820435
-0.8172321915626526 -0.14728683233261108 -0.751937985420227
-0.817061722278595 -0.14728683233261108 -0.7364341020584106
-0.8179816603660583 -0.14728683233261108 -0.7209302186965942
-0.8178925514221191 -0.14728683233261108 -0.7054263353347778
-0.8163009285926819 -0.14728683233261108 -0.6899224519729614
-0.8173758387565613 -0.14728683233261108 -0.674418568611145
-0.8227131962776184 -0.14728683233261108 -0.6589146852493286
-0.8266801238059998 -0.14728683233261108 -0.643410861492157
-0.8275924324989319 -0.14728683233261108 -0.6279069781303406
-0.8261694312095642 -0.14728683233261108 -0.6124030947685242
-0.8244107961654663 -0.14728683233261108 -0.5968992114067078
-0.8234727382659912 -0.14728683233261108 -0.5813953876495361
-0.8231392502784729 -0.14728683233261108 -0.5658915042877197
-0.8233169317245483 -0.14728683233261108 -0.5503876209259033
-0.8234449625015259 -0.14728683233261108 -0.5348837375640869
-0.8239963054656982 -0.14728683233261108 -0.5193798542022705
-0.8246350288391113 -0.14728683233261108 -0.5038759708404541
-0.8250104188919067 -0.14728683233261108 -0.4883721172809601
-0.8252224922180176 -0.14728683233261108 -0.4728682041168213
-0.8257829546928406 -0.14728683233261108 -0.4573643207550049
-0.8259074091911316 -0.14728683233261108 -0.4418604373931885
-0.826271653175354 -0.14728683233261108 -0.42635661363601685
-0.827176034450531 -0.14728683233261108 -0.41085273027420044
-0.8283978700637817 -0.14728684723377228 -0.39534884691238403
-0.8294486403465271 -0.14728683233261108 -0.3798449635505676
-0.8290534615516663 -0.14728683233261108 -0.3488372266292572
-0.8285307884216309 -0.14728683233261108 -0.3333333134651184
-0.8294388651847839 -0.14728683233261108 -0.317829430103302
-0.8270375728607178 -0.13178294897079468 -0.7829457521438599
-0.8216919898986816 -0.13178294897079468 -0.7674418687820435
-0.8212348818778992 -0.13178294897079468 -0.751937985420227
-0.8212389945983887 -0.13178294897079468 -0.7364341020584106
-0.822097897529602 -0.13178294897079468 -0.7209302186965942
-0.8222039937973022 -0.13178294897079468 -0.7054263353347778
-0.8211318254470825 -0.13178294897079468 -0.6899224519729614
-0.8219166994094849 -0.13178294897079468 -0.674418568611145
-0.8259963989257812 -0.13178294897079468 -0.6589146256446838
-0.8293118476867676 -0.13178294897079468 -0.643410861492157
-0.8292202949523926 -0.13178296387195587 -0.6124030947685242
-0.8276888132095337 -0.13178294897079468 -0.5968992710113525
-0.8267292976379395 -0.13178294897079468 -0.5813953876495361
-0.8264204859733582 -0.13178294897079468 -0.5658915042877197
-0.8266232013702393 -0.13178294897079468 -0.5503876209259033
-0.8267771005630493 -0.13178294897079468 -0.5348837375640869
-0.8273882865905762 -0.13178294897079468 -0.5193798542022705
-0.8280839920043945 -0.13178294897079468 -0.5038759708404541
-0.8285114169120789 -0.13178294897079468 -0.4883721172809601
-0.8287825584411621 -0.13178293406963348 -0.4728681743144989
-0.8293386101722717 -0.13178294897079468 -0.4573643207550049
-0.828781247138977 -0.11627907305955887 -0.7829458117485046
-0.8248515725135803 -0.11627906560897827 -0.7674418687820435
-0.8242015838623047 -0.11627906560897827 -0.751937985420227
-0.824209451675415 -0.11627906560897827 -0.7364341020584106
-0.8251544237136841 -0.11627906560897827 -0.7209302186965942
-0.8253159523010254 -0.11627906560897827 -0.7054263353347778
-0.8243842124938965 -0.11627906560897827 -0.6899224519729614
-0.82502681016922 -0.11627906560897827 -0.674418568611145
-0.8285081386566162 -0.11627906560897827 -0.6589146852493286
-0.8293505907058716 -0.11627906560897827 -0.5813953876495361
-0.829118549823761 -0.11627906560897827 -0.5658915042877197
-0.8293625712394714 -0.11627906560897827 -0.5503876209259033
-0.8269773721694946 -0.10077518969774246 -0.7674418687820435
-0.826488733291626 -0.10077518224716187 -0.751937985420227
-0.8265258073806763 -0.10077518224716187 -0.7364341020584106
-0.8274314403533936 -0.10077518224716187 -0.7209302186965942
-0.8275454640388489 -0.10077518224716187 -0.7054263353347778
-0.8266196250915527 -0.10077518224716187 -0.6899224519729614
-0.8271522521972656 -0.10077518224716187 -0.674418568611145
-0.8288602232933044 -0.08527129888534546 -0.7674419283866882
-0.8283270597457886 -0.08527129888534546 -0.751937985420227
-0.8283378481864929 -0.08527129143476486 -0.7364341020584106
-0.8291584253311157 -0.08527129888534546 -0.7209302186965942
-0.8292421102523804 -0.08527129888534546 -0.7054263353347778
-0.8284252882003784 -0.08527130633592606 -0.6899224519729614
-0.8288612961769104 -0.08527129888534546 -0.674418568611145
-0.8288862705230713 0.08527136594057083 -0.751937985420227
-0.8290149569511414 0.08527135848999023 -0.7364341020584106
-0.8292590379714966 0.08527135848999023 -0.6899224519729614
-0.8293634057044983 0.08527135848999023 -0.674418568611145
-0.8278286457061768 0.10077524185180664 -0.7674418687820435
-0.8272382616996765 0.10077524185180664 -0.751937985420227
-0.8274039030075073 0.10077524185180664 -0.7364341020584106
-0.8282991647720337 0.10077524185180664 -0.7209302186965942
-0.8282902836799622 0.10077524185180664 -0.7054263353347778
-0.8274170160293579 0.10077524185180664 -0.6899224519729614
-0.8275396823883057 0.10077524185180664 -0.674418568611145
-0.8288843035697937 0.11627912521362305 -0.7829456925392151
-0.8255798816680908 0.11627912521362305 -0.7674418687820435
-0.8249042630195618 0.11627912521362305 -0.751937985420227
-0.8250064253807068 0.11627912521362305 -0.7364341020584106
-0.8259373903274536 0.11627912521362305 -0.7209302186965942
-0.8258147835731506 0.11627912521362305 -0.7054263353347778
-0.8247182369232178 0.11627912521362305 -0.6899224519729614
-0.8248769640922546 0.11627911776304245 -0.674418568611145
-0.828048586845398 0.11627912521362305 -0.6589147448539734
-0.8292561173439026 0.11627912521362305 -0.5968992114067078
-0.8285908699035645 0.11627911776304245 -0.5813953280448914
-0.8284573554992676 0.11627912521362305 -0.5658915042877197
-0.8287307620048523 0.11627912521362305 -0.5503876209259033
-0.8289110660552979 0.11627912521362305 -0.5348837375640869
-0.8272283673286438 0.1317828893661499 -0.7829457521438599
-0.8226839900016785 0.1317828893661499 -0.7674418687820435
-0.8218626976013184 0.1317828893661499 -0.751937985420227
-0.8219478130340576 0.1317828893661499 -0.7364341020584106
-0.8228260278701782 0.1317828893661499 -0.7209302186965942
-0.8225993514060974 0.1317828893661499 -0.7054263353347778
-0.8211861848831177 0.1317828893661499 -0.6899224519729614
-0.8212566375732422 0.1317828893661499 -0.674418568611145
-0.824928343296051 0.1317828893661499 -0.6589146852493286
-0.8281551599502563 0.1317828893661499 -0.643410861492157
-0.8289995193481445 0.1317828893661499 -0.6279069781303406
-0.8277244567871094 0.1317828893661499 -0.6124030947685242
-0.8264300227165222 0.1317828893661499 -0.5968992114067078
-0.8257782459259033 0.1317828893661499 -0.5813953876495361
-0.8256452083587646 0.1317828893661499 -0.5658915042877197
-0.8258906006813049 0.1317828893661499 -0.5503876209259033
-0.8260468244552612 0.1317828893661499 -0.5348837375640869
-0.8267135620117188 0.1317828893661499 -0.5193798542022705
-0.8274363279342651 0.1317828893661499 -0.5038759708404541
-0.8278959393501282 0.1317828893661499 -0.4883721172809601
-0.8282055258750916 0.1317828893661499 -0.4728682041168213
-0.828919529914856 0.1317828893661499 -0.4573643207550049
-0.8290674090385437 0.1317828744649887 -0.4418604373931885
-0.8292801976203918 0.1317828893661499 -0.42635661363601685
-0.824626088142395 0.1472867727279663 -0.7829456925392151
-0.8186550736427307 0.1472867727279663 -0.7674418687820435
-0.8175223469734192 0.1472867727279663 -0.751937985420227
-0.817438542842865 0.1472867727279663 -0.7364341020584106
-0.8184579014778137 0.1472867727279663 -0.7209302186965942
-0.8177601099014282 0.1472867727279663 -0.7054263353347778
-0.8149827122688293 0.1472867727279663 -0.6899224519729614
-0.8148406744003296 0.1472867727279663 -0.674418568611145
-0.8207145929336548 0.1472867727279663 -0.6589146852493286
-0.824641227722168 0.1472867727279663 -0.643410861492157
-0.8256042003631592 0.1472867727279663 -0.6279069781303406
-0.8243616819381714 0.1472867727279663 -0.6124030947685242
-0.8232284188270569 0.1472867727279663 -0.5968992114067078
-0.8225692510604858 0.1472867727279663 -0.5813953876495361
-0.8223798274993896 0.1472867727279663 -0.5658915042877197
-0.8226292133331299 0.1472867727279663 -0.5503876209259033
-0.8227700591087341 0.1472867727279663 -0.5348837375640869
-0.8234139680862427 0.1472867727279663 -0.5193798542022705
-0.8240457773208618 0.1472867727279663 -0.5038759708404541
-0.8244044780731201 0.1472867727279663 -0.4883720874786377
-0.8246215581893921 0.1472867727279663 -0.4728682041168213
-0.8252472281455994 0.1472867727279663 -0.4573642909526825
-0.8253606557846069 0.1472867727279663 -0.4418604373931885
-0.8255385160446167 0.1472867727279663 -0.42635661363601685
-0.8261037468910217 0.1472867727279663 -0.41085273027420044
-0.8269056677818298 0.1472867727279663 -0.3953488767147064
-0.8279154896736145 0.1472867727279663 -0.3798449635505676
-0.8289685845375061 0.1472867727279663 -0.3643410801887512
-0.8289046287536621 0.1472867727279663 -0.3488372266292572
-0.8288475871086121 0.1472867727279663 -0.3333333134651184
-0.8287147879600525 0.1472867727279663 -0.317829430103302
-0.8283469080924988 0.1472867727279663 -0.30232560634613037
-0.8286386728286743 0.1472867876291275 -0.28682172298431396
-0.8186731338500977 0.16279065608978271 -0.7829457521438599
-0.8200697302818298 0.16279065608978271 -0.643410861492157
-0.8214989900588989 0.16279065608978271 -0.6279069781303406
-0.8202221393585205 0.16279065608978271 -0.6124030947685242
-0.8185462355613708 0.16279065608978271 -0.5968992114067078
-0.8173196315765381 0.16279065608978271 -0.5813953876495361
-0.8167967796325684 0.16279065608978271 -0.5658915042877197
-0.8171467781066895 0.16279065608978271 -0.5503876209259033
-0.817415177822113 0.16279065608978271 -0.5348837375640869
-0.8185127973556519 0.16279065608978271 -0.5193798542022705
-0.8194513320922852 0.16279065608978271 -0.5038759708404541
-0.8199419975280762 0.16279065608978271 -0.4883720874786377
-0.8202018737792969 0.16279065608978271 -0.4728682041168213
-0.8209457993507385 0.16279065608978271 -0.4573643207550049
-0.8210725784301758 0.16279065608978271 -0.4418604373931885
-0.8212606906890869 0.16279065608978271 -0.42635661363601685
-0.8218424320220947 0.16279065608978271 -0.41085273027420044
-0.8226053714752197 0.16279065608978271 -0.39534884691238403
-0.823634147644043 0.16279065608978271 -0.3798449635505676
-0.8249673843383789 0.16279065608978271 -0.3643410801887512
-0.8252590894699097 0.16279065608978271 -0.3488371968269348
-0.8254843950271606 0.16279065608978271 -0.3333333134651184
-0.8257247805595398 0.16279065608978271 -0.317829430103302
-0.8256534337997437 0.16279065608978271 -0.30232560634613037
-0.826238751411438 0.16279065608978271 -0.28682172298431396
-0.8274491429328918 0.1627906709909439 -0.27131783962249756
-0.8293852210044861 0.16279065608978271 -0.25581395626068115
-0.8159728646278381 0.17829453945159912 -0.6279069781303406
-0.8147321343421936 0.17829453945159912 -0.4573643207550049
-0.8151244521141052 0.17829453945159912 -0.4418604373931885
-0.8154921531677246 0.17829453945159912 -0.42635661363601685
-0.816362202167511 0.17829453945159912 -0.41085273027420044
-0.817341685295105 0.17829453945159912 -0.39534884691238403
-0.8185579776763916 0.17829453945159912 -0.3798449635505676
-0.8201907277107239 0.17829453945159912 -0.3643410801887512
-0.8208020925521851 0.17829453945159912 -0.3488371968269348
-0.8214972615242004 0.17829453945159912 -0.3333333134651184
-0.822293758392334 0.17829453945159912 -0.317829430103302
-0.822456955909729 0.17829453945159912 -0.30232560634613037
-0.8234145641326904 0.17829453945159912 -0.28682172298431396
-0.8251669406890869 0.17829453945159912 -0.27131783962249756
-0.8276575803756714 0.17829453945159912 -0.25581395626068115
-0.8287001252174377 0.17829453945159912 -0.24031007289886475
-0.8288096189498901 0.17829455435276031 -0.22480618953704834
-0.8286356925964355 0.17829453945159912 -0.20930230617523193
-0.8282434940338135 0.17829453945159912 -0.19379843771457672
-0.8278987407684326 0.17829453945159912 -0.1782945990562439
-0.8278353810310364 0.17829453945159912 -0.1627907156944275
-0.8279711008071899 0.17829453945159912 -0.14728683233261108
-0.8283423185348511 0.17829453945159912 -0.13178294897079468
-0.8289985060691833 0.17829453945159912 -0.11627906560897827
-0.8142517805099487 0.19379842281341553 -0.3488371968269348
-0.8156020045280457 0.19379842281341553 -0.3333333134651184
-0.8174377083778381 0.19379842281341553 -0.317829430103302
-0.8179141283035278 0.19379842281341553 -0.30232560634613037
-0.8195737600326538 0.19379842281341553 -0.28682172298431396
-0.8224475383758545 0.19379842281341553 -0.27131783962249756
-0.8258005380630493 0.19379842281341553 -0.25581395626068115
-0.8268069624900818 0.19379842281341553 -0.24031007289886475
-0.8263071775436401 0.19379842281341553 -0.22480618953704834
-0.8256217837333679 0.19379842281341553 -0.20930232107639313
-0.8250399827957153 0.19379843771457672 -0.19379843771457672
-0.8245869278907776 0.19379843771457672 -0.1782945990562439
-0.8242806196212769 0.19379842281341553 -0.1627907156944275
-0.8239490985870361 0.19379842281341553 -0.14728683233261108
-0.8237960338592529 0.19379842281341553 -0.13178294897079468
-0.8240814805030823 0.19379842281341553 -0.11627906560897827
-0.8251117467880249 0.19379842281341553 -0.10077518224716187
-0.8268869519233704 0.19379842281341553 -0.08527129143476486
-0.8290285468101501 0.19379843771457672 -0.06976741552352905
-0.8172945976257324 0.20930230617523193 -0.27131783962249756
-0.8226825594902039 0.20930230617523193 -0.25581395626068115
-0.8239706754684448 0.20930230617523193 -0.24031007289886475
-0.8224027752876282 0.20930230617523193 -0.22480618953704834
-0.8206498622894287 0.20930230617523193 -0.20930230617523193
-0.818972110748291 0.20930230617523193 -0.19379842281341553
-0.8169511556625366 0.20930230617523193 -0.1782945990562439
-0.8145893216133118 0.20930230617523193 -0.1627907156944275
-0.8216298818588257 0.20930230617523193 -0.06976741552352905
-0.827406644821167 0.20930230617523193 -0.05426359176635742
-0.8170862197875977 0.22480618953704834 -0.25581395626068115
-0.8194119930267334 0.22480618953704834 -0.24031007289886475
-0.814680278301239 0.22480618953704834 -0.22480618953704834
-0.828058123588562 0.22480618953704834 -0.08527129888534546
-0.8263404965400696 0.22480618953704834 -0.06976741552352905
-0.8240923285484314 0.22480618953704834 -0.05426359176635742
-0.821631669998169 0.22480618953704834 -0.038759708404541016
-0.818882942199707 0.22480618953704834 -0.02325582504272461
-0.8158986568450928 0.22480618953704834 -0.007751941680908203
-0.8155298829078674 0.22480618953704834 0.05426359176635742
-0.8195697069168091 0.22480618953704834 0.06976747512817383
-0.8267355561256409 0.24031005799770355 -0.13178294897079468
-0.8242863416671753 0.24031007289886475 -0.11627906560897827
-0.8223345875740051 0.24031007289886475 -0.10077518224716187
-0.8205937743186951 0.24031007289886475 -0.08527129888534546
-0.81969153881073 0.24031007289886475 -0.06976741552352905
-0.8190091252326965 0.24031007289886475 -0.05426359176635742
-0.8184980154037476 0.24031007289886475 -0.038759708404541016
-0.8183895945549011 0.24031007289886475 -0.02325582504272461
-0.8187650442123413 0.24031007289886475 -0.007751941680908203
-0.819507360458374 0.24031007289886475 0.007751941680908203
-0.8204373121261597 0.24031007289886475 0.02325582504272461
-0.8212342858314514 0.24031007289886475 0.038759708404541016
-0.8217741847038269 0.24031007289886475 0.05426359176635742
-0.8223546147346497 0.24031007289886475 0.06976747512817383
-0.8223520517349243 0.24031007289886475 0.08527135848999023
-0.8210523724555969 0.24031007289886475 0.10077524185180664
-0.8263325095176697 0.25581395626068115 -0.7829457521438599
-0.8280879855155945 0.25581395626068115 -0.6279069781303406
-0.8263684511184692 0.25581395626068115 -0.1627907156944275
-0.8232022523880005 0.25581395626068115 -0.14728683233261108
-0.8197988271713257 0.25581395626068115 -0.13178294897079468
-0.8174020648002625 0.25581395626068115 -0.11627906560897827
-0.8155720829963684 0.25581395626068115 -0.10077518224716187
-0.8140504360198975 0.25581395626068115 -0.08527129888534546
-0.8146547675132751 0.25581395626068115 0.02325582504272461
-0.815593421459198 0.25581395626068115 0.038759708404541016
-0.8162078857421875 0.25581395626068115 0.05426359176635742
-0.8166903853416443 0.25581395626068115 0.06976747512817383
-0.8165069818496704 0.25581395626068115 0.08527135848999023
-0.815445065498352 0.25581395626068115 0.10077524185180664
-0.8183442950248718 0.27131783962249756 -0.7829457521438599
-0.8286992907524109 0.27131783962249756 -0.7674418687820435
-0.8239609599113464 0.27131783962249756 -0.643410861492157
-0.8223709464073181 0.27131783962249756 -0.6279070377349854
-0.825131893157959 0.27131783962249756 -0.6124030947685242
-0.8273420333862305 0.27131783962249756 -0.5968992114067078
-0.8277809023857117 0.27131783962249756 -0.5813953876495361
-0.8277304172515869 0.27131783962249756 -0.5658915042877197
-0.8278102874755859 0.27131783962249756 -0.5503876209259033
-0.8281214833259583 0.27131783962249756 -0.5348837375640869
-0.8286182880401611 0.27131780982017517 -0.5193798542022705
-0.8286447525024414 0.27131783962249756 -0.22480618953704834
-0.8275526762008667 0.27131783962249756 -0.20930230617523193
-0.8258039951324463 0.27131783962249756 -0.19379842281341553
-0.8232780694961548 0.27131783962249756 -0.1782945990562439
-0.8193237781524658 0.27131783962249756 -0.1627907156944275
-0.815846860408783 0.27131783962249756 -0.14728683233261108
-0.8221392631530762 0.28682172298431396 -0.7674418687820435
-0.825373649597168 0.28682172298431396 -0.751937985420227
-0.8264366984367371 0.28682172298431396 -0.7364341020584106
-0.8278272151947021 0.28682172298431396 -0.7209302186965942
-0.8287646174430847 0.28682172298431396 -0.7054263353347778
-0.8289852142333984 0.28682172298431396 -0.6899224519729614
-0.8280289173126221 0.2868216931819916 -0.6744185090065002
-0.8254745602607727 0.28682172298431396 -0.6589146852493286
-0.8191399574279785 0.28682172298431396 -0.643410861492157
-0.8176831603050232 0.28682172298431396 -0.6279069781303406
-0.8205321431159973 0.28682172298431396 -0.6124030947685242
-0.8231011033058167 0.28682172298431396 -0.5968992114067078
-0.8235794305801392 0.28682172298431396 -0.5813953876495361
-0.8234949707984924 0.28682172298431396 -0.5658915042877197
-0.8235780000686646 0.28682172298431396 -0.5503876209259033
-0.8239659070968628 0.28682172298431396 -0.5348837375640869
-0.8245728015899658 0.28682172298431396 -0.5193798542022705
-0.8254803419113159 0.28682172298431396 -0.5038759708404541
-0.8264569640159607 0.28682172298431396 -0.4883720874786377
-0.8277087211608887 0.28682172298431396 -0.4728682041168213
-0.8220654726028442 0.28682172298431396 -0.22480618953704834
-0.8217649459838867 0.28682172298431396 -0.20930230617523193
-0.8205467462539673 0.28682172298431396 -0.19379842281341553
-0.8165761232376099 0.28682172298431396 -0.1782945990562439
-0.8159863352775574 0.30232560634613037 -0.7674418687820435
-0.817888617515564 0.30232560634613037 -0.751937985420227
-0.8200421929359436 0.30232560634613037 -0.7364341020584106
-0.8220414519309998 0.30232560634613037 -0.7209302186965942
-0.8231531381607056 0.30232560634613037 -0.7054263353347778
-0.8236278295516968 0.30232560634613037 -0.6899224519729614
-0.8227534294128418 0.30232560634613037 -0.674418568611145
-0.8193641901016235 0.30232560634613037 -0.6589146852493286
-0.8157954216003418 0.30232560634613037 -0.5968992114067078
-0.8160858154296875 0.30232560634613037 -0.5813953876495361
-0.8159236311912537 0.30232560634613037 -0.5658915042877197
-0.8160807490348816 0.30232560634613037 -0.5503876209259033
-0.8166810870170593 0.30232560634613037 -0.5348837375640869
-0.8176566958427429 0.30232560634613037 -0.5193798542022705
-0.8193610906600952 0.30232560634613037 -0.5038759708404541
-0.8214926719665527 0.30232560634613037 -0.4883720874786377
-0.8236363530158997 0.30232560634613037 -0.4728682041168213
-0.8259603977203369 0.30232560634613037 -0.4573643207550049
-0.8282437324523926 0.30232560634613037 -0.4418604373931885
-0.8267126083374023 0.30232560634613037 -0.24031007289886475
-0.8188917636871338 0.30232560634613037 -0.22480618953704834
-0.8181771039962769 0.30232560634613037 -0.20930230617523193
-0.8156285881996155 0.30232560634613037 -0.19379842281341553
-0.8141856789588928 0.3178294897079468 -0.7364341020584106
-0.8151238560676575 0.3178294897079468 -0.7209302186965942
-0.816413164138794 0.3178294897079468 -0.7054263353347778
-0.8172190189361572 0.3178294897079468 -0.6899224519729614
-0.8164137601852417 0.3178294897079468 -0.674418568611145
-0.8151684999465942 0.3178294897079468 -0.4883720874786377
-0.8174753189086914 0.3178294897079468 -0.4728682041168213
-0.821342945098877 0.3178294897079468 -0.4573643207550049
-0.8249503374099731 0.3178294897079468 -0.4418604075908661
-0.8274734020233154 0.3178294897079468 -0.42635664343833923
-0.8241109848022461 0.3178294897079468 -0.24031007289886475
-0.8173364400863647 0.3178294897079468 -0.22480618953704834
-0.8144930601119995 0.3178294897079468 -0.20930230617523193
-0.815185546875 0.3333333730697632 -0.4573643207550049
-0.8192691802978516 0.3333333730697632 -0.4418604373931885
-0.8240412473678589 0.3333333730697632 -0.42635661363601685
-0.8273962140083313 0.3333333730697632 -0.41085273027420044
-0.8217290043830872 0.3333333730697632 -0.24031007289886475
-0.8151404857635498 0.3333333730697632 -0.22480618953704834
-0.8174905776977539 0.3488372564315796 -0.42635661363601685
-0.8233678340911865 0.3488372564315796 -0.41085273027420044
-0.8280394077301025 0.348837286233902 -0.3953488767147064
-0.8284255266189575 0.3488372564315796 -0.25581395626068115
-0.8201265335083008 0.3488372564315796 -0.24031007289886475
-0.8154526948928833 0.364341139793396 -0.41085273027420044
-0.8230464458465576 0.364341139793396 -0.39534884691238403
-0.8275514245033264 0.364341139793396 -0.3798449635505676
-0.8237971067428589 0.364341139793396 -0.25581395626068115
-0.8159950375556946 0.364341139793396 -0.24031007289886475
-0.8146191239356995 0.37984490394592285 -0.39534884691238403
-0.8189399242401123 0.37984490394592285 -0.3798449635505676
-0.8245441913604736 0.37984490394592285 -0.3643410801887512
-0.8272963762283325 0.37984490394592285 -0.3488371968269348
-0.8286559581756592 0.37984490394592285 -0.3333333134651184
-0.8287904262542725 0.37984493374824524 -0.28682172298431396
-0.8249835968017578 0.37984493374824524 -0.27131783962249756
-0.8174580335617065 0.37984490394592285 -0.25581395626068115
-0.8150297403335571 0.39534878730773926 -0.3643410801887512
-0.8181740045547485 0.39534878730773926 -0.3488371968269348
-0.8206882476806641 0.39534878730773926 -0.3333333134651184
-0.8219114542007446 0.39534878730773926 -0.317829430103302
-0.8223397731781006 0.39534878730773926 -0.30232560634613037
