-0.0418924018740654 -0.8294573426246643 0.1317828893661499
-0.05398807302117348 -0.8139535188674927 0.20930230617523193
-0.04117394983768463 0.8139535188674927 0.24031007289886475
-0.04834030196070671 0.8294574022293091 0.22480618953704834
-0.042601920664310455 0.8604651689529419 0.06976747512817383
-0.04933953657746315 0.8759689331054688 0.007751941215246916
-0.0454818457365036 0.8759689331054688 0.16279065608978271
-0.049344502389431 0.8914728164672852 -0.038759708404541016
-0.04894782602787018 0.9379844665527344 -0.30232560634613037
-0.04069599136710167 0.9379844665527344 -0.28682172298431396
-0.04969114065170288 0.9379844665527344 -0.22480618953704834
-0.04383891820907593 0.9534883499145508 0.007751941680908203
-0.03942962363362312 0.9844961166381836 -0.10077518224716187
-0.025303158909082413 -0.9844961166381836 -0.13178294897079468
-0.038494762033224106 -0.9844961166381836 -0.11627907305955887
-0.0347636342048645 -0.9844961166381836 -0.06976741552352905
-0.03520976006984711 -0.9534883499145508 -0.20930230617523193
-0.031064163893461227 -0.9379844665527344 0.038759708404541016
-0.028634097427129745 -0.8604651689529419 0.19379842281341553
-0.032246753573417664 -0.8294573426246643 0.24031007289886475
-0.028651203960180283 -0.8139535188674927 0.24031007289886475
-0.026383575052022934 -0.8139535188674927 0.25581395626068115
-0.028393689543008804 0.8139535188674927 0.25581395626068115
-0.03309036046266556 0.8294574022293091 0.1472867727279663
-0.03664753958582878 0.8449612855911255 0.20930230617523193
-0.0259970985352993 0.9689922332763672 -0.14728683233261108
-0.02532975748181343 0.9689922332763672 -0.02325582504272461
-0.03548617660999298 0.9844961166381836 -0.11627906560897827
-0.037086308002471924 0.9844961166381836 -0.08527129888534546
-0.03145092725753784 0.9844961166381836 -0.06976741552352905
-0.022488553076982498 -0.9844961166381836 -0.05426359176635742
-0.01720963418483734 -0.9689922332763672 -0.1627907156944275
-0.012011991813778877 -0.9534883499145508 -0.22480618953704834
-0.015425167977809906 -0.9534883499145508 0.007751941680908203
-0.012446003034710884 -0.8914729356765747 -0.038759708404541016
-0.019222546368837357 -0.8449611663818359 0.22480618953704834
-0.013401821255683899 -0.8294572830200195 0.25581395626068115
-0.01550232246518135 -0.8139535188674927 0.22480618953704834
-0.02160671167075634 -0.8139535188674927 0.27131783962249756
-0.011716492474079132 -0.8139535188674927 0.28682172298431396
-0.011411575600504875 0.8139535188674927 0.19379842281341553
-0.014846159145236015 0.8139535188674927 0.27131783962249756
-0.019427990540862083 0.8294574022293091 0.24031007289886475
-0.019286030903458595 0.9379844069480896 -0.27131783962249756
-0.01924271509051323 0.953488290309906 -0.1627907156944275
-0.012385784648358822 0.9844961166381836 -0.13178294897079468
-0.01633250154554844 0.9844961166381836 -0.05426359176635742
0.005221109837293625 -0.9689922332763672 -0.02325582504272461
0.000905896769836545 -0.8139535188674927 0.20930230617523193
-0.005254565738141537 0.8604651689529419 0.19379842281341553
0.02316468209028244 -0.9844961166381836 -0.05426359176635742
0.017576012760400772 -0.9689922332763672 -0.1627907156944275
0.008868142031133175 -0.9689921736717224 -0.02325582504272461
0.013823248445987701 -0.9534883499145508 -0.22480618953704834
0.015287096612155437 -0.8294573426246643 0.25581395626068115
0.00914941169321537 -0.8139535188674927 0.20930230617523193
0.012630680575966835 -0.8139535188674927 0.28682172298431396
0.011722603812813759 0.8139535188674927 0.19379842281341553
0.014258842915296555 0.8139535188674927 0.27131783962249756
0.020490402355790138 0.8294574022293091 0.24031007289886475
0.012678928673267365 0.8604651689529419 0.06976747512817383
0.009509813040494919 0.8604651689529419 0.19379842281341553
0.008619560860097408 0.922480583190918 0.08527135848999023
0.01627276837825775 0.9379844665527344 -0.27131783962249756
0.017884258180856705 0.9534883499145508 -0.1627907156944275
0.022602058947086334 0.9689922332763672 -0.14728683233261108
0.0214060191065073 0.9689922332763672 -0.02325582504272461
0.011233929544687271 0.9844961166381836 -0.13178294897079468
0.014298373833298683 0.9844961166381836 -0.05426359176635742
0.025588389486074448 -0.9844961166381836 -0.13178294897079468
0.035458359867334366 -0.9844961166381836 -0.06976741552352905
0.0364251434803009 -0.9534883499145508 -0.20930230617523193
0.023305758833885193 -0.9534883499145508 0.007751941680908203
0.03319167345762253 -0.8604651689529419 0.05426359176635742
0.03331224247813225 -0.8604651689529419 0.19379842281341553
0.023457907140254974 -0.8449612259864807 0.22480618953704834
0.037267059087753296 -0.8294573426246643 0.24031007289886475
0.03666526451706886 -0.8139535188674927 0.20930230617523193
0.029328012838959694 -0.8139535188674927 0.25581395626068115
0.02397117204964161 -0.8139535188674927 0.27131783962249756
0.02755388617515564 0.8139535188674927 0.25581395626068115
0.037453241646289825 0.9379844665527344 -0.28682172298431396
0.03502253443002701 0.9534883499145508 0.007751941680908203
0.03450392559170723 0.9844961166381836 -0.11627906560897827
0.03855270892381668 0.9844961166381836 -0.10077518224716187
0.036380406469106674 0.9844961166381836 -0.08527129888534546
0.029735203832387924 0.9844961166381836 -0.06976741552352905
0.03921037167310715 -0.9844961166381836 -0.11627906560897827
0.04624533653259277 -0.9844961166381836 -0.10077518224716187
0.04182548448443413 -0.9844961166381836 -0.08527129888534546
0.04374416172504425 -0.9689922332763672 -0.14728683233261108
0.045952580869197845 -0.9689922332763672 -0.038759708404541016
0.05330882966518402 -0.9534883499145508 -0.19379842281341553
0.042162928730249405 -0.9379844665527344 0.038759708404541016
0.04453399404883385 -0.9069766998291016 -0.3333333134651184
0.04029292240738869 -0.8914728760719299 -0.20930230617523193
0.041746534407138824 -0.8914728164672852 -0.19379842281341553
0.04857141897082329 -0.8914728164672852 -0.1782945990562439
0.05230466276407242 -0.8914728760719299 -0.1627907156944275
0.049187611788511276 -0.8914728164672852 -0.14728683233261108
0.047092292457818985 -0.8914728760719299 -0.13178294897079468
0.051723137497901917 -0.8914728760719299 -0.11627906560897827
0.047652389854192734 -0.8914728164672852 -0.05426359176635742
0.049724675714969635 -0.8759689927101135 -0.007751941680908203
0.0430852472782135 -0.8294573426246643 0.1317828893661499
0.05254695937037468 -0.8139535188674927 0.19379842281341553
0.04355678707361221 -0.8139535188674927 0.24031007289886475
0.039790309965610504 0.8139535188674927 0.24031007289886475
0.04611867293715477 0.8294574022293091 0.22480618953704834
0.0392458550632 0.8449612855911255 0.20930230617523193
0.04977532476186752 0.8604651689529419 0.05426359176635742
0.043708063662052155 0.875968873500824 0.007751941215246916
0.04784150794148445 0.8759689331054688 0.16279065608978271
0.04924173653125763 0.8914728164672852 -0.20930230617523193
0.05410563573241234 0.8914728164672852 -0.19379842281341553
0.05401633307337761 0.8914728164672852 -0.1627907156944275
0.050484295934438705 0.8914728164672852 -0.14728683233261108
0.0494677871465683 0.8914728164672852 -0.13178294897079468
0.05411404371261597 0.8914728164672852 -0.11627906560897827
0.05234365165233612 0.8914728164672852 -0.05426359176635742
0.04279472306370735 0.8914728164672852 -0.038759708404541016
0.039045825600624084 0.9224805235862732 0.08527135848999023
0.04776556044816971 0.9379844665527344 -0.30232560634613037
0.04611525312066078 0.9379844665527344 -0.22480618953704834
0.0520639605820179 0.9689922332763672 -0.038759708404541016
0.06747426092624664 -0.9689922332763672 -0.05426359176635742
0.06667478382587433 -0.9534883499145508 -0.1782945990562439
0.06659474223852158 -0.9534883499145508 -0.007751941680908203
0.06744652986526489 -0.9379844665527344 -0.30232560634613037
0.06281750649213791 -0.9379844665527344 -0.28682172298431396
0.058047376573085785 -0.9379844069480896 -0.27131783962249756
0.056572891771793365 -0.9379844665527344 -0.25581395626068115
0.06514360010623932 -0.9379844665527344 -0.24031007289886475
0.057545147836208344 -0.9224806427955627 0.06976747512817383
0.06499932706356049 -0.9069767594337463 0.10077524185180664
0.06545472890138626 -0.8914728760719299 -0.24031007289886475
0.05591544508934021 -0.8914728760719299 -0.22480618953704834
0.054490987211465836 -0.8914728760719299 -0.10077518224716187
0.054535236209630966 -0.8914728760719299 -0.08527129888534546
0.054328497499227524 -0.8914728760719299 -0.06976741552352905
0.0659443736076355 -0.8914728760719299 0.1317828893661499
0.055296678096055984 -0.8759689927101135 0.16279065608978271
0.06160726770758629 -0.8604650497436523 0.038759708404541016
0.06691475957632065 -0.8449612259864807 0.08527135848999023
0.055672578513622284 -0.8449612259864807 0.20930230617523193
0.06419578194618225 -0.8294572830200195 0.22480618953704834
0.06835789233446121 0.8139535188674927 0.19379842281341553
0.05430642142891884 0.8139535188674927 0.22480618953704834
0.056446101516485214 0.8449612855911255 0.10077524185180664
0.06555653363466263 0.8604651689529419 0.038759708404541016
0.06502732634544373 0.8604651689529419 0.17829453945159912
0.06680557876825333 0.8759689331054688 -0.007751941680908203
0.06111163645982742 0.8914728164672852 -0.22480618953704834
0.057919956743717194 0.8914728164672852 -0.1782945990562439
0.060673922300338745 0.8914728164672852 -0.10077518224716187
0.061956532299518585 0.8914728164672852 -0.08527129888534546
0.05769466608762741 0.8914728164672852 -0.06976741552352905
0.06912384927272797 0.9069766998291016 -0.3333333134651184
0.0663248673081398 0.9689922332763672 -0.13178294897079468
0.07017548382282257 -0.9689921736717224 -0.13178294897079468
0.08411119133234024 -0.9689922332763672 -0.11627906560897827
0.07911496609449387 -0.9689922332763672 -0.06976741552352905
0.0776870995759964 -0.9534883499145508 -0.1627907156944275
0.07069309055805206 -0.9379844665527344 -0.317829430103302
0.07838203758001328 -0.9379844665527344 0.02325582504272461
0.07940544188022614 -0.922480583190918 -0.3333333134651184
0.07343000918626785 -0.8914728760719299 -0.317829430103302
0.07635852694511414 -0.8914729356765747 -0.30232560634613037
0.07792465388774872 -0.8914728760719299 -0.28682172298431396
0.07505768537521362 -0.8914728760719299 -0.27131783962249756
0.07021228224039078 -0.8914729356765747 -0.25581395626068115
0.08310049772262573 -0.8759689927101135 -0.02325582504272461
0.07537785172462463 -0.8604651093482971 0.17829453945159912
0.07937292009592056 -0.8139535188674927 0.17829453945159912
0.07241369038820267 -0.8139535188674927 0.22480618953704834
0.08144508302211761 0.8294574022293091 0.20930230617523193
0.0766349732875824 0.8449612855911255 0.08527135848999023
0.07725949585437775 0.8449612855911255 0.19379842281341553
0.08276818692684174 0.8914728164672852 -0.317829430103302
0.08380629122257233 0.8914728164672852 -0.30232560634613037
0.08232995122671127 0.8914728164672852 -0.28682172298431396
0.08140172809362411 0.8914728164672852 -0.27131783962249756
0.08331042528152466 0.8914728164672852 -0.25581395626068115
0.0782097652554512 0.8914728164672852 -0.24031007289886475
0.07541677355766296 0.8914728164672852 0.1317828893661499
0.0699598491191864 0.9379844665527344 -0.317829430103302
0.07460686564445496 0.9379844665527344 -0.20930230617523193
0.07318087667226791 0.9379844665527344 0.038759708404541016
0.08041492849588394 0.9534883499145508 -0.007751941680908203
0.08163368701934814 0.9689922332763672 -0.11627906560897827
0.08432724326848984 0.9689922332763672 -0.06976741552352905
0.07539050281047821 0.9689922332763672 -0.05426359176635742
0.08985042572021484 -0.9689922332763672 -0.10077518224716187
0.08738355338573456 -0.9689922332763672 -0.08527129888534546
0.10023503750562668 -0.9534883499145508 -0.14728683233261108
0.09200839698314667 -0.953488290309906 -0.02325582504272461
0.08621898293495178 -0.9379844665527344 -0.22480617463588715
0.0981217548251152 -0.9379844665527344 -0.20930230617523193
0.08970439434051514 -0.922480583190918 0.05426359176635742
0.09387709945440292 -0.9069768190383911 0.08527135848999023
0.09460156410932541 -0.8914728164672852 0.11627912521362305
0.09962955117225647 -0.8759689927101135 -0.14728683233261108
0.09560514986515045 -0.8759689927101135 -0.13178294897079468
0.09889280050992966 -0.8759689331054688 -0.11627906560897827
0.09509362280368805 -0.8759689331054688 -0.038759708404541016
0.08743941783905029 -0.8759689927101135 0.1472867727279663
0.09770847856998444 -0.8604650497436523 0.16279065608978271
0.08584171533584595 -0.8449612259864807 0.19379842281341553
0.08798360079526901 -0.8294573426246643 0.20930230617523193
0.08530572801828384 0.8139535188674927 0.19379840791225433
0.08581539243459702 0.8139535188674927 0.20930230617523193
0.09459036588668823 0.8294574022293091 0.1472867727279663
0.10030215233564377 0.8294574022293091 0.19379842281341553
0.09739136695861816 0.8449612855911255 0.17829453945159912
0.0914015993475914 0.8604651689529419 0.16279065608978271
0.09114057570695877 0.8759689331054688 -0.02325582504272461
0.08642636239528656 0.8759689331054688 0.14728675782680511
0.08836189657449722 0.9069767594337463 0.10077524185180664
0.0869271382689476 0.922480583190918 0.06976747512817383
0.08891353756189346 0.9379844665527344 -0.19379842281341553
0.09749837964773178 0.9379844665527344 -0.1782945990562439
0.09695440530776978 0.9379844665527344 0.02325582504272461
0.09817677736282349 0.9534883499145508 -0.14728683233261108
0.10011008381843567 0.9534883499145508 -0.02325582504272461
0.08687374740839005 0.9689922332763672 -0.10077518224716187
0.08878908306360245 0.9689922332763672 -0.08527129888534546
0.11524440348148346 -0.9534883499145508 -0.13178294897079468
0.10769026726484299 -0.9534883499145508 -0.038759708404541016
0.10843954980373383 -0.9379844665527344 -0.19379842281341553
0.11504556983709335 -0.9379844665527344 -0.1782945990562439
0.1054554209113121 -0.9379844665527344 0.007751941680908203
0.11159314215183258 -0.922480583190918 0.038759708404541016
0.11480775475502014 -0.9069767594337463 0.06976747512817383
0.11561280488967896 -0.8914728760719299 0.10077524185180664
0.11163096129894257 -0.8759689927101135 -0.20930230617523193
0.10932628810405731 -0.8759689927101135 -0.19379842281341553
0.10694082081317902 -0.8759690523147583 -0.1782945990562439
0.10651248693466187 -0.8759689331054688 -0.1627907156944275
0.1030489131808281 -0.8759689331054688 -0.10077517479658127
0.10743271559476852 -0.8759689927101135 -0.08527129888534546
0.1085057407617569 -0.8759690523147583 -0.06976741552352905
0.10316066443920135 -0.8759689331054688 -0.05426359176635742
0.10776674747467041 -0.8759689927101135 0.1317828893661499
0.10382264852523804 -0.8604651093482971 0.02325582504272461
0.11078953742980957 -0.8604650497436523 0.1472867727279663
0.10297629982233047 -0.8449612259864807 0.17829453945159912
0.1066766083240509 -0.8294572830200195 0.19379842281341553
0.10131824016571045 -0.8139535188674927 0.20930230617523193
0.10081329941749573 0.8294574022293091 0.16279065608978271
0.10229376703500748 0.8294573426246643 0.17829453945159912
0.11518650501966476 0.8449612855911255 0.06976747512817383
0.11257834732532501 0.8449612855911255 0.1317828893661499
0.10683976113796234 0.8449612259864807 0.1472867727279663
0.1029810756444931 0.8449612855911255 0.16279065608978271
0.11166058480739594 0.8604651689529419 0.02325582504272461
0.11312544345855713 0.8604651689529419 0.1317828893661499
0.10340270400047302 0.8604652285575867 0.1472867727279663
0.10424716025590897 0.8759689331054688 0.1317828893661499
0.10371215641498566 0.8914728164672852 0.11627912521362305
0.11123757064342499 0.9069766998291016 0.08527135848999023
0.1144961416721344 0.922480583190918 -0.3333333134651184
0.10701432079076767 0.922480583190918 0.05426359176635742
0.1127239391207695 0.9379844665527344 0.007751941680908203
0.11455416679382324 0.9534883499145508 -0.038759708404541016
0.1242656260728836 -0.9534883499145508 -0.11627906560897827
0.12900547683238983 -0.9534883499145508 -0.10077518224716187
0.12762542068958282 -0.9534883499145508 -0.08527129888534546
0.12418857216835022 -0.9534883499145508 -0.06976741552352905
0.11746838688850403 -0.9534883499145508 -0.05426359176635742
0.12410718202590942 -0.9379844665527344 -0.1627907156944275
0.12227474898099899 -0.9379844665527344 -0.007751941680908203
0.13175642490386963 -0.9224806427955627 -0.317829430103302
0.1284581422805786 -0.9224806427955627 -0.30232560634613037
0.12360630929470062 -0.9224806427955627 -0.28682172298431396
0.11904086917638779 -0.9224806427955627 -0.27131783962249756
0.11655407398939133 -0.9224806427955627 -0.25581395626068115
0.12089985609054565 -0.9224806427955627 -0.24031007289886475
0.13080129027366638 -0.9224806427955627 -0.22480618953704834
0.12860409915447235 -0.9224806427955627 0.02325582504272461
0.13173715770244598 -0.9069767594337463 0.05426359176635742
0.12222953885793686 -0.8914728164672852 -0.3333333134651184
0.12996791303157806 -0.8759689927101135 -0.25581395626068115
0.1268470287322998 -0.8759689927101135 -0.24031007289886475
0.12164448201656342 -0.8759689927101135 -0.22480618953704834
0.1246349886059761 -0.8759689927101135 0.11627912521362305
0.12171826511621475 -0.8604651093482971 0.02325582504272461
0.12243829667568207 -0.8604651093482971 0.1317828893661499
0.12258673459291458 -0.8449612259864807 0.08527135848999023
0.13055753707885742 -0.8449612259864807 0.11627912521362305
0.12583361566066742 -0.8449611663818359 0.1317828893661499
0.12077474594116211 -0.8449612259864807 0.1472867727279663
0.11663687229156494 -0.8449612259864807 0.16279065608978271
0.11740746349096298 -0.8294573426246643 0.1317828893661499
0.1236245334148407 -0.8294574022293091 0.1472867727279663
0.12542149424552917 -0.8294573426246643 0.16279065608978271
0.11975862830877304 -0.8294573426246643 0.17829453945159912
0.12648020684719086 -0.8139535188674927 0.17829453945159912
0.12208621203899384 -0.8139535188674927 0.19379842281341553
0.13017486035823822 0.8449612855911255 0.10077524185180664
0.12060071527957916 0.8449612855911255 0.11627912521362305
0.12274570763111115 0.8604651689529419 0.11627912521362305
0.12166652083396912 0.8759689331054688 -0.20930230617523193
0.12406399846076965 0.8759689331054688 -0.19379842281341553
0.12831799685955048 0.8759689331054688 -0.1782945990562439
0.12247326225042343 0.8759689331054688 -0.1627907156944275
0.11902876943349838 0.8759689927101135 -0.14728683233261108
0.12043837457895279 0.8759689331054688 -0.13178294897079468
0.13125066459178925 0.8759689331054688 -0.038759708404541016
0.11898237466812134 0.8759689331054688 0.11627912521362305
0.12173528224229813 0.8914728760719299 0.10077524930238724
0.12796375155448914 0.9069766998291016 0.06976747512817383
0.12832334637641907 0.922480583190918 -0.25581395626068115
0.12631946802139282 0.922480583190918 -0.24031007289886475
0.1229136660695076 0.922480583190918 0.038759708404541016
0.12422282993793488 0.9379844665527344 -0.1627907156944275
0.1273173987865448 0.9379844665527344 -0.007751941680908203
0.11771046370267868 0.953488290309906 -0.13178294897079468
0.13070660829544067 0.9534883499145508 -0.11627906560897827
0.12658020853996277 0.9534883499145508 -0.05426359176635742
0.1384720355272293 -0.9379844665527344 -0.14728683233261108
0.14560890197753906 -0.9379844665527344 -0.038759708404541016
0.13415896892547607 -0.9379844665527344 -0.02325582504272461
0.14022324979305267 -0.9224806427955627 -0.20930230617523193
0.14043618738651276 -0.922480583190918 0.007751941680908203
0.13720561563968658 -0.9069766998291016 -0.3333333134651184
0.14305897057056427 -0.9069767594337463 0.038759708404541016
0.14264413714408875 -0.8914728760719299 0.06976747512817383
0.13237729668617249 -0.8914728760719299 0.08527135848999023
0.14406894147396088 -0.8759689927101135 -0.317829430103302
0.14507631957530975 -0.8759690523147583 -0.30232560634613037
0.1419716477394104 -0.8759689927101135 -0.28682172298431396
0.13544107973575592 -0.8759689331054688 -0.27131783962249756
0.1443634182214737 -0.8759689927101135 0.08527135848999023
0.13592681288719177 -0.8759689331054688 0.10077524185180664
0.1398460865020752 -0.8604651093482971 0.038759708404541016
0.14389745891094208 -0.8604651093482971 0.05426359176635742
0.14539816975593567 -0.8604651689529419 0.06976747512817383
0.14307019114494324 -0.8604651093482971 0.08527135848999023
0.13886940479278564 -0.8604651093482971 0.10077524185180664
0.13349376618862152 -0.8604651093482971 0.11627912521362305
0.1326313465833664 -0.8449612259864807 0.10077524185180664
0.1337631195783615 0.8449612259864807 0.06976747512817383
0.13524197041988373 0.8449612855911255 0.08527135848999023
0.1469229757785797 0.8604651689529419 0.007751941680908203
0.14158044755458832 0.8604651689529419 0.08527135848999023
0.1340058594942093 0.8604651689529419 0.10077524185180664
0.14685073494911194 0.8759689331054688 -0.27131783962249756
0.14471979439258575 0.8759689331054688 -0.24031007289886475
0.13249129056930542 0.8759689331054688 -0.22480618953704834
0.13678982853889465 0.8759689331054688 -0.11627906560897827
0.1417311578989029 0.8759689331054688 0.08527135848999023
0.13232740759849548 0.8759689331054688 0.10077523440122604
0.14533089101314545 0.8914728164672852 -0.3333333134651184
0.14567428827285767 0.8914728164672852 0.06976747512817383
0.13483920693397522 0.8914728164672852 0.08527135848999023
0.13924309611320496 0.9069766998291016 0.05426359176635742
0.14203400909900665 0.922480583190918 -0.317829430103302
0.13571353256702423 0.922480583190918 -0.30232560634613037
0.13517554104328156 0.922480583190918 -0.28682172298431396
0.13255901634693146 0.922480583190918 -0.27131783962249756
0.1368395984172821 0.922480583190918 -0.22480618953704834
0.1444091945886612 0.922480583190918 -0.20930230617523193
0.1434580683708191 0.922480583190918 0.007751941680908203
0.1342582255601883 0.922480583190918 0.02325582504272461
0.1377951204776764 0.9379844665527344 -0.02325582504272461
0.13709408044815063 0.953488290309906 -0.10077518224716187
0.13711333274841309 0.9534883499145508 -0.08527129888534546
0.1322765201330185 0.9534883499145508 -0.06976742297410965
0.15156608819961548 -0.9379844665527344 -0.13178294897079468
0.16007255017757416 -0.9379844665527344 -0.11627906560897827
0.1620894968509674 -0.9379844665527344 -0.10077518224716187
0.1571449488401413 -0.9379844665527344 -0.08527129888534546
0.15374216437339783 -0.9379844665527344 -0.06976741552352905
0.15190979838371277 -0.9379844665527344 -0.05426359176635742
0.14751194417476654 -0.9224806427955627 -0.19379842281341553
0.1535544991493225 -0.9224807024002075 -0.1782945990562439
0.15731939673423767 -0.9224806427955627 -0.1627907156944275
0.1556210219860077 -0.9224806427955627 -0.02325582504272461
0.14831140637397766 -0.9224806427955627 -0.007751941680908203
0.16199873387813568 -0.9069767594337463 -0.27131783962249756
0.15924924612045288 -0.9069766998291016 -0.25581395626068115
0.16079044342041016 -0.9069767594337463 -0.24031007289886475
0.1619706004858017 -0.9069767594337463 -0.007751941680908203
0.15643812716007233 -0.9069767594337463 0.007751941680908203
0.15017922222614288 -0.9069768190383911 0.02325582504272461
0.15643611550331116 -0.8914729356765747 0.038759708404541016
0.14962047338485718 -0.8914729356765747 0.05426359176635742
0.16269011795520782 -0.8759689927101135 0.02325582504272461
0.15827903151512146 -0.8759689331054688 0.038759708404541016
0.1535264253616333 -0.8759689331054688 0.05426359176635742
0.14980168640613556 -0.8759689331054688 0.06976747512817383
0.16173061728477478 -0.8604651093482971 -0.13178294897079468
0.15487048029899597 0.8604651689529419 0.05426359176635742
0.15059636533260345 0.8604651689529419 0.06976747512817383
0.1547185778617859 0.8759689331054688 -0.317829430103302
0.1531156301498413 0.8759689331054688 -0.30232560634613037
0.14975836873054504 0.8759689331054688 -0.28682172298431396
0.14748606085777283 0.8759689927101135 -0.25581395626068115
0.14929501712322235 0.8759689331054688 -0.10077518224716187
0.1519082933664322 0.8759689331054688 -0.08527129888534546
0.15461969375610352 0.8759689331054688 -0.06976741552352905
0.1553645133972168 0.8759689331054688 -0.05426359176635742
0.15647192299365997 0.8759689331054688 0.05426359176635742
0.15049117803573608 0.8759689331054688 0.06976747512817383
0.1582537591457367 0.8914728164672852 0.038759708404541016
0.1520792841911316 0.8914728164672852 0.05426359176635742
0.16036668419837952 0.9069766998291016 -0.007751941680908203
0.1571105420589447 0.9069766998291016 0.007751941680908203
0.15291473269462585 0.9069766998291016 0.02325582504272461
0.1479487270116806 0.9069766998291016 0.038759708404541016
0.15012630820274353 0.922480583190918 -0.19379842281341553
0.15424668788909912 0.922480583190918 -0.1782945990562439
0.15340587496757507 0.922480583190918 -0.02325582504272461
0.14930760860443115 0.922480583190918 -0.007751941680908203
0.14851008355617523 0.9379844665527344 -0.14728683233261108
0.15652404725551605 0.9379844665527344 -0.05426359176635742
0.14742687344551086 0.9379844665527344 -0.038759708404541016
0.17397180199623108 -0.922480583190918 -0.14728683233261108
0.17431491613388062 -0.9224806427955627 -0.06976741552352905
0.16928929090499878 -0.922480583190918 -0.05426359176635742
0.1641649603843689 -0.9224806427955627 -0.038759708404541016
0.17562741041183472 -0.9069767594337463 -0.30232560634613037
0.16919048130512238 -0.9069767594337463 -0.28682172298431396
0.17132478952407837 -0.9069767594337463 -0.22480618953704834
0.17801207304000854 -0.9069767594337463 -0.20930230617523193
0.1741366982460022 -0.9069767594337463 -0.038759708404541016
0.16602566838264465 -0.9069766998291016 -0.02325582318007946
0.17103886604309082 -0.8914728760719299 -0.02325582504272461
0.16660700738430023 -0.8914728164672852 -0.007751941680908203
0.16530855000019073 -0.8914729356765747 0.007751941680908203
0.16281092166900635 -0.8914728164672852 0.02325582504272461
0.17285281419754028 -0.8759689331054688 -0.3333333134651184
0.17014911770820618 -0.8759689927101135 -0.02325582504272461
0.16500867903232574 -0.8759689927101135 -0.007751941680908203
0.16397391259670258 -0.8759689331054688 0.007751941680908203
0.1737295687198639 -0.8604650497436523 -0.27131783962249756
0.17073825001716614 -0.8604651093482971 -0.25581395626068115
0.16990961134433746 -0.8604651093482971 -0.24031007289886475
0.1690848171710968 -0.8604651093482971 -0.22480618953704834
0.1670697033405304 -0.8604651093482971 -0.20930230617523193
0.16921988129615784 -0.8604651093482971 -0.19379842281341553
0.17038941383361816 -0.8604651093482971 -0.1782945990562439
0.17029348015785217 -0.8604651689529419 -0.1627907156944275
0.16549798846244812 -0.8604651689529419 -0.14728683233261108
0.16433998942375183 -0.8604651689529419 -0.11627906560897827
0.16823385655879974 -0.8604651093482971 -0.10077518224716187
0.1729750782251358 -0.8604651093482971 -0.08527129888534546
0.17736759781837463 0.8604651689529419 -0.22480618953704834
0.1738843321800232 0.8604651689529419 -0.20930230617523193
0.17524179816246033 0.8604651689529419 -0.19379842281341553
0.17715001106262207 0.8604651689529419 -0.1782945990562439
0.1777423620223999 0.8604651689529419 -0.1627907156944275
0.16511358320713043 0.8604651689529419 0.007751941680908203
0.16547034680843353 0.8604651689529419 0.02325582504272461
0.16293342411518097 0.8604652285575867 0.038759708404541016
0.16925260424613953 0.8759689331054688 -0.038759708404541016
0.168688103556633 0.8759689331054688 -0.02325582504272461
0.16985496878623962 0.8759689331054688 -0.007751941680908203
0.16966968774795532 0.8759689331054688 0.007751941680908203
0.16748085618019104 0.8759689927101135 0.02325582504272461
0.16343478858470917 0.8759689331054688 0.038759708404541016
0.17119020223617554 0.8914728164672852 -0.038759708404541016
0.16676649451255798 0.8914728164672852 -0.02325582504272461
0.16665974259376526 0.8914728164672852 -0.007751941680908203
0.16623330116271973 0.8914728164672852 0.007751941680908203
0.16365234553813934 0.8914728164672852 0.02325582318007946
0.17285919189453125 0.9069766998291016 -0.3333333134651184
0.16864323616027832 0.9069766998291016 -0.038759708404541016
0.1635674089193344 0.9069767594337463 -0.02325582504272461
0.17618951201438904 0.922480583190918 -0.1627907156944275
0.17679595947265625 0.922480583190918 -0.05426359176635742
0.16353461146354675 0.922480583190918 -0.038759708404541016
0.16452309489250183 0.9379845261573792 -0.13178294897079468
0.1745029091835022 0.9379844665527344 -0.11627906560897827
0.176783949136734 0.9379844665527344 -0.10077518224716187
0.17335838079452515 0.9379844665527344 -0.08527129888534546
0.16494260728359222 0.9379844665527344 -0.06976741552352905
0.1820513904094696 -0.922480583190918 -0.13178294897079468
0.1872078776359558 -0.922480583190918 -0.11627906560897827
0.18828341364860535 -0.9224807024002075 -0.10077518224716187
0.1833817958831787 -0.9224806427955627 -0.08527129888534546
0.1795944720506668 -0.9069767594337463 -0.317829430103302
0.18294855952262878 -0.9069768190383911 -0.19379842281341553
0.18264873325824738 -0.9069768190383911 -0.1782945990562439
0.18651419878005981 -0.9069767594337463 -0.1627907156944275
0.1841055154800415 -0.9069768190383911 -0.05426359176635742
0.18685086071491241 -0.8914728760719299 -0.3333333134651184
0.18173560500144958 -0.8914729356765747 -0.038759708404541016
0.18238602578639984 -0.8759690523147583 -0.038759708404541016
0.18845787644386292 -0.8604650497436523 -0.317829430103302
0.18616381287574768 -0.8604651093482971 -0.30232560634613037
0.17854203283786774 -0.8604651689529419 -0.28682175278663635
0.18162328004837036 -0.8604651689529419 -0.06976741552352905
0.19294801354408264 0.8604651689529419 -0.30232560634613037
0.19036659598350525 0.8604651689529419 -0.28682172298431396
0.1872466504573822 0.8604651689529419 -0.27131783962249756
0.18689411878585815 0.8604651689529419 -0.25581395626068115
0.18434375524520874 0.8604651689529419 -0.24031007289886475
0.1797536462545395 0.8604651689529419 -0.14728683233261108
0.1823091059923172 0.8604651689529419 -0.13178294897079468
0.18572494387626648 0.8604651689529419 -0.11627906560897827
0.1853022575378418 0.8604651689529419 -0.10077518224716187
0.1829325407743454 0.8604651689529419 -0.08527129888534546
0.18535487353801727 0.8604651689529419 -0.06976741552352905
0.19303181767463684 0.8604651689529419 -0.05426359176635742
0.18994435667991638 0.9069766998291016 -0.30232560634613037
0.18880417943000793 0.9069766998291016 -0.28682172298431396
0.18808111548423767 0.9069766998291016 -0.27131783962249756
0.18670201301574707 0.9069766998291016 -0.25581395626068115
0.18627312779426575 0.9069766998291016 -0.24031007289886475
0.19115766882896423 0.922480583190918 -0.14728683233261108
0.20062094926834106 -0.9069766998291016 -0.14728683233261108
0.20644116401672363 -0.9069767594337463 -0.13178294897079468
0.2087574154138565 -0.9069767594337463 -0.11627906560897827
0.2092020958662033 -0.9069767594337463 -0.10077518224716187
0.2071518898010254 -0.9069767594337463 -0.08527129888534546
0.19795572757720947 -0.9069766998291016 -0.06976741552352905
0.20915581285953522 -0.8914728760719299 -0.30232560634613037
0.20423638820648193 -0.8914728760719299 -0.28682172298431396
0.2013404369354248 -0.8914728760719299 -0.27131783962249756
0.20009827613830566 -0.8914728164672852 -0.25581395626068115
0.19935517013072968 -0.8914729356765747 -0.24031007289886475
0.2026597410440445 -0.8914728760719299 -0.22480618953704834
0.20682592689990997 -0.8914728760719299 -0.20930230617523193
0.20909173786640167 -0.8914728760719299 -0.19379842281341553
0.20766842365264893 -0.8914729356765747 -0.1782945990562439
0.19795763492584229 -0.8914728760719299 -0.05426359176635742
0.2046503871679306 -0.8759690523147583 -0.05426359176635742
0.20552678406238556 -0.8449611663818359 -0.27131783962249756
0.20319613814353943 -0.8449612259864807 -0.25581395626068115
0.20260384678840637 -0.8449612259864807 -0.24031007289886475
0.2022368460893631 -0.8449612259864807 -0.22480618953704834
0.20093607902526855 -0.8449612855911255 -0.20930230617523193
0.20240837335586548 -0.8449612259864807 -0.19379842281341553
0.20267874002456665 -0.8449612259864807 -0.1782945990562439
0.20231980085372925 -0.8449612259864807 -0.1627907156944275
0.19957518577575684 -0.8449612855911255 -0.14728683233261108
0.1984325349330902 -0.8449611663818359 -0.13178294897079468
0.20112816989421844 -0.8449611663818359 -0.11627906560897827
0.2038731575012207 -0.8449612259864807 -0.10077518224716187
0.2083306461572647 -0.8449612259864807 -0.08527129888534546
0.20888502895832062 0.8449612855911255 -0.1627907156944275
0.20923931896686554 0.8449612855911255 -0.14728683233261108
0.19604885578155518 0.8604651689529419 -0.317829430103302
0.1939059942960739 0.8759689331054688 -0.3333333134651184
0.1952647566795349 0.9069766998291016 -0.3178294599056244
0.19460482895374298 0.9069766998291016 -0.22480618953704834
0.20146116614341736 0.9069766998291016 -0.20930230617523193
0.2041967362165451 0.9069766998291016 -0.19379842281341553
0.20333772897720337 0.9069766998291016 -0.1782945990562439
0.19628018140792847 0.9069766998291016 -0.05426359176635742
0.19871868193149567 0.922480583190918 -0.13178294897079468
0.2029503583908081 0.922480583190918 -0.11627906560897827
0.20406398177146912 0.922480583190918 -0.10077518224716187
0.20321497321128845 0.922480583190918 -0.08527129888534546
0.19410471618175507 0.9224806427955627 -0.06976741552352905
0.2133360505104065 -0.8914729356765747 -0.317829430103302
0.21630093455314636 -0.8914728760719299 -0.1627907156944275
0.22035814821720123 -0.8914728760719299 -0.06976741552352905
0.22460968792438507 -0.8759689927101135 -0.3333333134651184
0.2100675404071808 -0.8604651093482971 -0.3333333134651184
0.22157596051692963 -0.8449612259864807 -0.317829430103302
0.21816620230674744 -0.8449612259864807 -0.30232560634613037
0.21033646166324615 -0.8449611663818359 -0.2868216931819916
0.21964502334594727 -0.8449612259864807 -0.06976741552352905
0.22279927134513855 0.8449612855911255 -0.27131783962249756
0.22235573828220367 0.8449612855911255 -0.25581395626068115
0.2203030288219452 0.8449612855911255 -0.24031007289886475
0.21456460654735565 0.8449612855911255 -0.22480618953704834
0.2093905806541443 0.8449612855911255 -0.20930230617523193
0.21037283539772034 0.8449612855911255 -0.19379842281341553
0.2098950296640396 0.8449613451957703 -0.1782945990562439
0.21124663949012756 0.8449612855911255 -0.13178294897079468
0.21433845162391663 0.8449612855911255 -0.11627906560897827
0.21385318040847778 0.8449612855911255 -0.10077518224716187
0.21206361055374146 0.8449612855911255 -0.08527129888534546
0.21506115794181824 0.8449612855911255 -0.06976741552352905
0.22014862298965454 0.8914728164672852 -0.3333333134651184
0.22478443384170532 0.8914728164672852 -0.25581395626068115
0.21358299255371094 0.8914727568626404 -0.05426358804106712
0.2117040604352951 0.9069766998291016 -0.1627907156944275
0.21961067616939545 0.9069766998291016 -0.14728683233261108
0.2231873869895935 0.9069766998291016 -0.13178294897079468
0.2212364822626114 0.9069766998291016 -0.06976741552352905
0.22657185792922974 -0.8914728760719299 -0.14728683233261108
0.23110449314117432 -0.8914728760719299 -0.13178294897079468
0.23257800936698914 -0.8914728760719299 -0.11627906560897827
0.23306065797805786 -0.8914728760719299 -0.10077518224716187
0.23009467124938965 -0.8914728164672852 -0.08527129888534546
0.23832254111766815 -0.8759689927101135 -0.30232560634613037
0.2345794141292572 -0.8759690523147583 -0.28682172298431396
0.23204940557479858 -0.8759689927101135 -0.27131783962249756
0.23063787817955017 -0.8759689331054688 -0.25581395626068115
0.22982308268547058 -0.8759689331054688 -0.24031007289886475
0.23180952668190002 -0.8759689331054688 -0.22480618953704834
0.2350533902645111 -0.8759689927101135 -0.20930230617523193
0.23656389117240906 -0.8759689927101135 -0.19379842281341553
0.23780126869678497 -0.8759689331054688 -0.1782945990562439
0.23988282680511475 -0.8294573426246643 -0.28682172298431396
0.23563255369663239 -0.8294574022293091 -0.27131783962249756
0.2334282249212265 -0.8294573426246643 -0.25581395626068115
0.23254795372486115 -0.8294573426246643 -0.24031007289886475
0.23191237449645996 -0.8294573426246643 -0.22480618953704834
0.23025628924369812 -0.8294572830200195 -0.20930230617523193
0.23133881390094757 -0.8294572830200195 -0.19379842281341553
0.23119044303894043 -0.8294572830200195 -0.1782945990562439
0.23141926527023315 -0.8294574022293091 -0.1627907156944275
0.22966992855072021 -0.8294573426246643 -0.14728683233261108
0.22997865080833435 -0.8294572830200195 -0.13178294897079468
0.2328307032585144 -0.8294573426246643 -0.11627906560897827
0.23514744639396667 -0.8294572830200195 -0.10077518224716187
0.23854799568653107 -0.8294573426246643 -0.08527129888534546
0.23981216549873352 0.8294574022293091 -0.1782945990562439
0.23725084960460663 0.8294574022293091 -0.1627907156944275
0.23618650436401367 0.8294574022293091 -0.14728683233261108
0.23656396567821503 0.8294574022293091 -0.13178294897079468
0.2388816475868225 0.8294574022293091 -0.11627906560897827
0.24010542035102844 0.8294574022293091 -0.10077518224716187
0.2348497360944748 0.8449612855911255 -0.317829430103302
0.23121550679206848 0.8449612855911255 -0.30232560634613037
0.2265113741159439 0.8449612855911255 -0.28682172298431396
0.23299917578697205 0.8604651689529419 -0.3333333134651184
0.23112279176712036 0.8604651093482971 -0.05426358804106712
0.2263372838497162 0.8759689927101135 -0.05426359176635742
0.2344738245010376 0.8914728164672852 -0.317829430103302
0.22963950037956238 0.8914728164672852 -0.30232560634613037
0.22760029137134552 0.8914728164672852 -0.28682172298431396
0.2263067215681076 0.8914728164672852 -0.27131783962249756
0.22555899620056152 0.8914728164672852 -0.24031007289886475
0.23343048989772797 0.8914728164672852 -0.22480618953704834
0.23744933307170868 0.8914728164672852 -0.20930230617523193
0.2389911264181137 0.8914728164672852 -0.19379842281341553
0.23764461278915405 0.8914728164672852 -0.1782945990562439
0.22601011395454407 0.9069766998291016 -0.11627906560897827
0.22822242975234985 0.9069766998291016 -0.10077518224716187
0.22715280950069427 0.9069766998291016 -0.08527129888534546
0.2441178858280182 -0.8759689331054688 -0.317829430103302
0.2472757250070572 -0.8759689331054688 -0.1627907156944275
0.25431376695632935 -0.8759689927101135 -0.14728683233261108
0.2537645101547241 -0.8759689927101135 -0.08527129888534546
0.2408471703529358 -0.8759690523147583 -0.06976742297410965
0.24439096450805664 -0.8449612259864807 -0.3333333134651184
0.2526533007621765 -0.8294573426246643 -0.317829430103302
0.24841302633285522 -0.8294573426246643 -0.30232560634613037
0.24700474739074707 -0.8294573426246643 -0.06976741552352905
0.2541932761669159 0.8294574022293091 -0.27131783962249756
0.2538871169090271 0.8294574022293091 -0.25581395626068115
0.25248274207115173 0.8294574022293091 -0.24031007289886475
0.24834060668945312 0.8294574022293091 -0.22480618953704834
0.24400576949119568 0.8294574022293091 -0.20930229127407074
0.24277746677398682 0.8294574022293091 -0.19379842281341553
0.2429560422897339 0.8294574022293091 -0.08527129888534546
0.2510542571544647 0.8294574022293091 -0.06976741552352905
0.24461977183818817 0.8914728164672852 -0.1627907156944275
0.25064313411712646 0.8914728164672852 -0.14728683233261108
0.2525581121444702 0.8914728164672852 -0.13178294897079468
0.2546725273132324 0.8914728164672852 -0.11627906560897827
0.25476959347724915 0.8914728164672852 -0.08527129888534546
0.2461317479610443 0.8914728164672852 -0.06976741552352905
0.2573709487915039 -0.8759689927101135 -0.13178294897079468
0.25746387243270874 -0.8759689927101135 -0.11627906560897827
0.25685858726501465 -0.8759690523147583 -0.10077518224716187
0.2610034644603729 -0.8604651093482971 -0.3333333134651184
0.27034473419189453 -0.8604651093482971 -0.30232560634613037
0.2664441466331482 -0.8604651093482971 -0.28682172298431396
0.2637690305709839 -0.8604651093482971 -0.27131783962249756
0.26245415210723877 -0.8604651689529419 -0.25581395626068115
0.2623559832572937 -0.8604650497436523 -0.24031007289886475
0.2640489339828491 -0.8604651093482971 -0.22480618953704834
0.26669520139694214 -0.8604651689529419 -0.20930230617523193
0.26889288425445557 -0.8604650497436523 -0.19379842281341553
0.2609488368034363 -0.8604651689529419 -0.06976741552352905
0.27016016840934753 -0.8139535188674927 -0.28682172298431396
0.26517218351364136 -0.8139535188674927 -0.27131783962249756
0.26262545585632324 -0.8139535188674927 -0.25581395626068115
0.26167750358581543 -0.8139535188674927 -0.24031007289886475
0.2613578140735626 -0.8139535188674927 -0.22480618953704834
0.2598043978214264 -0.8139535188674927 -0.20930230617523193
0.2613303065299988 -0.8139535188674927 -0.19379842281341553
0.26090866327285767 -0.8139535188674927 -0.1782945990562439
0.2615399956703186 -0.8139535188674927 -0.1627907156944275
0.25964152812957764 -0.8139535188674927 -0.14728683233261108
0.26015329360961914 -0.8139535188674927 -0.13178294897079468
0.26315972208976746 -0.8139535188674927 -0.11627906560897827
0.26508277654647827 -0.8139535188674927 -0.10077518224716187
0.2682962119579315 -0.8139535188674927 -0.08527129888534546
0.2693539559841156 0.8139535188674927 -0.1782945990562439
0.2652025818824768 0.8139535188674927 -0.1627907156944275
0.26243987679481506 0.8139535188674927 -0.14728683233261108
0.26199567317962646 0.8139535188674927 -0.13178294897079468
0.2656087875366211 0.8139535188674927 -0.11627906560897827
0.2689211368560791 0.8139535188674927 -0.10077518224716187
0.26627781987190247 0.8294574022293091 -0.317829430103302
0.2622799873352051 0.8294574022293091 -0.30232560634613037
0.2576115131378174 0.8294574022293091 -0.2868216931819916
0.26745983958244324 0.8449612855911255 -0.3333333134651184
0.2583848834037781 0.8759689331054688 -0.3333333134651184
0.2656734585762024 0.8759689331054688 -0.30232560634613037
0.2633603811264038 0.8759689331054688 -0.28682172298431396
0.26240676641464233 0.8759689331054688 -0.27131783962249756
0.26158764958381653 0.8759689331054688 -0.25581395626068115
0.26275870203971863 0.8759689331054688 -0.24031007289886475
0.26820772886276245 0.8759689331054688 -0.22480618953704834
0.25651082396507263 0.8914728164672852 -0.10077517479658127
0.27766597270965576 -0.8604651093482971 -0.317829430103302
0.27143970131874084 -0.8604651093482971 -0.1782945990562439
0.2793842554092407 -0.8604651093482971 -0.1627907156944275
0.28487199544906616 -0.8604651093482971 -0.14728683233261108
0.2863323390483856 -0.8604651093482971 -0.11627906560897827
0.28476858139038086 -0.8604651093482971 -0.10077518224716187
0.2800770401954651 -0.8604651093482971 -0.08527129888534546
0.2777024209499359 -0.8294572830200195 -0.3333333134651184
0.2839363217353821 -0.8139535188674927 -0.317829430103302
0.27926236391067505 -0.8139535188674927 -0.30232560634613037
0.2732387185096741 -0.8139535188674927 -0.06976741552352905
0.28476226329803467 -0.8139535188674927 -0.05426359176635742
0.28463268280029297 0.8139535188674927 -0.27131783962249756
0.2846050262451172 0.8139535188674927 -0.25581395626068115
0.2833825349807739 0.8139535188674927 -0.24031007289886475
0.2790200710296631 0.8139535188674927 -0.22480618953704834
0.2738840878009796 0.8139535188674927 -0.20930230617523193
0.2720736563205719 0.8139535188674927 -0.19379842281341553
0.27440086007118225 0.8139534592628479 -0.08527129888534546
0.2824786305427551 0.8139535188674927 -0.06976741552352905
0.2716553807258606 0.8759689331054688 -0.317829430103302
0.2716110944747925 0.8759689331054688 -0.20930230617523193
0.2737920582294464 0.8759689331054688 -0.19379842281341553
0.2742865979671478 0.8759689331054688 -0.1782945990562439
0.27999502420425415 0.8759689331054688 -0.1627907156944275
0.28265005350112915 0.8759689331054688 -0.14728683233261108
0.2835353910923004 0.8759689331054688 -0.13178294897079468
0.28478047251701355 0.8759689331054688 -0.11627906560897827
0.2856563925743103 0.8759689331054688 -0.10077518224716187
0.28371989727020264 0.8759689331054688 -0.08527129888534546
0.2744249701499939 0.8759689331054688 -0.06976741552352905
0.28708091378211975 -0.8604651093482971 -0.13178294897079468
0.2961454391479492 -0.8449612259864807 -0.3333333134651184
0.3014550507068634 -0.8449612259864807 -0.30232560634613037
0.29751724004745483 -0.8449612259864807 -0.28682172298431396
0.29497212171554565 -0.8449612259864807 -0.27131783962249756
0.29392579197883606 -0.8449612259864807 -0.25581395626068115
0.2945038676261902 -0.8449612855911255 -0.24031007289886475
0.2964560389518738 -0.8449612855911255 -0.22480618953704834
0.29870519042015076 -0.8449612259864807 -0.20930230617523193
0.30107614398002625 -0.8449612259864807 -0.19379842281341553
0.2880646288394928 -0.8449612259864807 -0.06976741552352905
0.3020632266998291 -0.7984496355056763 -0.28682172298431396
0.2964858114719391 -0.7984496355056763 -0.27131783962249756
0.29387593269348145 -0.7984496355056763 -0.25581395626068115
0.2932713031768799 -0.7984496355056763 -0.24031007289886475
0.293709933757782 -0.7984496355056763 -0.22480618953704834
0.2929057478904724 -0.7984496355056763 -0.20930230617523193
0.29515132308006287 -0.7984496355056763 -0.19379842281341553
0.295818567276001 -0.7984496355056763 -0.1782945990562439
0.2973831295967102 -0.7984496355056763 -0.1627907156944275
0.29526975750923157 -0.7984496355056763 -0.14728683233261108
0.29485803842544556 -0.7984496355056763 -0.13178294897079468
0.2966501712799072 -0.7984496355056763 -0.11627906560897827
0.2971675395965576 -0.7984496355056763 -0.10077518224716187
0.2986930310726166 -0.7984496355056763 -0.08527129888534546
0.2998541593551636 -0.7984496355056763 -0.06976741552352905
0.3013915419578552 -0.7984496355056763 -0.05426359176635742
0.30107977986335754 0.7984496355056763 -0.1782945990562439
0.29617661237716675 0.7984496355056763 -0.1627907156944275
0.2919045388698578 0.798449695110321 -0.14728683233261108
0.2904183268547058 0.7984496355056763 -0.13178294897079468
0.2943992614746094 0.7984496355056763 -0.11627906560897827
0.29879459738731384 0.7984496355056763 -0.10077518224716187
0.30162423849105835 0.7984496355056763 -0.08527129888534546
0.30111074447631836 0.7984496355056763 -0.06976741552352905
0.29913681745529175 0.7984496355056763 -0.05426359176635742
0.30118051171302795 0.7984496355056763 -0.038759708404541016
0.29541289806365967 0.8139535188674927 -0.317829430103302
0.291337251663208 0.8139534592628479 -0.30232560634613037
0.28743982315063477 0.8139535188674927 -0.2868216931819916
0.29059159755706787 0.8139535188674927 -0.05426359176635742
0.29888683557510376 0.8294574022293091 -0.3333333134651184
0.3021240234375 0.8294574022293091 -0.05426359176635742
0.2941826581954956 0.8604651689529419 -0.3333333134651184
0.2987174689769745 0.8604651689529419 -0.30232560634613037
0.29594606161117554 0.8604651689529419 -0.28682172298431396
0.2946746051311493 0.8604651689529419 -0.27131783962249756
0.2939022481441498 0.8604651689529419 -0.25581395626068115
0.2946532368659973 0.8604651689529419 -0.24031007289886475
0.29890814423561096 0.8604651689529419 -0.22480618953704834
0.30143630504608154 0.8604651689529419 -0.20930230617523193
0.3000546991825104 0.8604651689529419 -0.06976741552352905
0.30911964178085327 -0.8449612259864807 -0.317829430103302
0.30368441343307495 -0.8449612855911255 -0.1782945990562439
0.31094682216644287 -0.8449612259864807 -0.1627907156944275
0.3156678080558777 -0.8449612259864807 -0.14728683233261108
0.31720051169395447 -0.8449612259864807 -0.13178294897079468
0.3167916536331177 -0.8449611663818359 -0.11627906560897827
0.3150779902935028 -0.8449612259864807 -0.10077518224716187
0.30899322032928467 -0.8449611663818359 -0.08527129888534546
0.3094487488269806 -0.8139535188674927 -0.3333333134651184
0.3103594183921814 -0.8139535188674927 -0.038759708404541016
0.3150855004787445 -0.7984496355056763 -0.317829430103302
0.31119516491889954 -0.7984496355056763 -0.30232560634613037
