0.8018462061882019 -0.39534884691238403 -0.14728683233261108
0.8064016699790955 -0.39534884691238403 -0.13178294897079468
0.8102322816848755 -0.39534884691238403 -0.11627906560897827
0.8110225200653076 -0.39534884691238403 -0.10077518224716187
0.8085038661956787 -0.39534884691238403 -0.08527129888534546
0.801251232624054 -0.39534884691238403 -0.06976741552352905
0.8068172931671143 -0.3798449635505676 -0.5038759708404541
0.812053918838501 -0.3798449635505676 -0.4573643207550049
0.8101092576980591 -0.3798449635505676 -0.4418604373931885
0.8080621361732483 -0.3798449635505676 -0.42635661363601685
0.805838942527771 -0.3798449635505676 -0.41085273027420044
0.8043237924575806 -0.3798449635505676 -0.39534884691238403
0.8031952381134033 -0.37984493374824524 -0.37984493374824524
0.80267733335495 -0.37984493374824524 -0.3643410801887512
0.8023528456687927 -0.3798449635505676 -0.3488371670246124
0.801988422870636 -0.3798449635505676 -0.333333283662796
0.8012893199920654 -0.3798449635505676 -0.317829430103302
0.8003511428833008 -0.3798449635505676 -0.30232560634613037
0.7992227673530579 -0.3798449635505676 -0.28682172298431396
0.7985627055168152 -0.3798449635505676 -0.1782945990562439
0.803473174571991 -0.3798449635505676 -0.1627907156944275
0.8082845211029053 -0.3798449635505676 -0.14728683233261108
0.8128271102905273 -0.3798449635505676 -0.13178294897079468
0.812483012676239 -0.3798449635505676 -0.08527129888534546
0.8042791485786438 -0.3798449635505676 -0.06976741552352905
0.812627911567688 -0.3643410801887512 -0.41085273027420044
0.8115293383598328 -0.3643410801887512 -0.39534884691238403
0.8106237649917603 -0.3643410801887512 -0.3798449635505676
0.8101807832717896 -0.3643410801887512 -0.3643410801887512
0.8100295066833496 -0.3643410801887512 -0.3488371968269348
0.8097882270812988 -0.3643410801887512 -0.3333333134651184
0.8088855743408203 -0.3643410801887512 -0.317829430103302
0.806999683380127 -0.3643410801887512 -0.30232560634613037
0.8051272630691528 -0.3643410801887512 -0.28682172298431396
0.8027123212814331 -0.3643410801887512 -0.27131783962249756
0.7998708486557007 -0.3643410801887512 -0.25581395626068115
0.7991482019424438 -0.3643410801887512 -0.24031007289886475
0.8000465035438538 -0.3643410801887512 -0.22480618953704834
0.8004762530326843 -0.3643410801887512 -0.20930230617523193
0.800787091255188 -0.3643410801887512 -0.19379842281341553
0.8046129941940308 -0.3643410801887512 -0.1782945990562439
0.810919463634491 -0.3643410801887512 -0.1627907156944275
0.808312714099884 -0.3643410801887512 -0.06976741552352905
0.802793562412262 -0.3488371968269348 -0.5038759708404541
0.8134188652038574 -0.3488371968269348 -0.30232560634613037
0.8116471171379089 -0.3488371968269348 -0.28682172298431396
0.8093973994255066 -0.3488371968269348 -0.27131783962249756
0.8063535094261169 -0.3488371968269348 -0.25581395626068115
0.8049435615539551 -0.3488371968269348 -0.24031007289886475
0.8055180311203003 -0.3488371968269348 -0.22480618953704834
0.8060821294784546 -0.3488371968269348 -0.20930230617523193
0.8067378401756287 -0.3488371968269348 -0.19379842281341553
0.8108242154121399 -0.3488371968269348 -0.1782945990562439
0.8109128475189209 -0.3333333134651184 -0.5038759708404541
0.8072906732559204 -0.3333333134651184 -0.4883720874786377
0.8043758869171143 -0.3333333134651184 -0.4728682041168213
0.7991645336151123 -0.333333283662796 -0.4573643207550049
0.8117653131484985 -0.3333333134651184 -0.25581395626068115
0.8107692003250122 -0.3333333134651184 -0.24031007289886475
0.8114439249038696 -0.3333333134651184 -0.22480618953704834
0.8113985061645508 -0.3333333134651184 -0.20930230617523193
0.8113082647323608 -0.3333333134651184 -0.19379842281341553
0.7993006706237793 -0.3333333134651184 -0.05426359176635742
0.8135893940925598 -0.317829430103302 -0.5038759708404541
0.8108872175216675 -0.317829430103302 -0.4883720874786377
0.8095872402191162 -0.317829430103302 -0.4728682041168213
0.8076596260070801 -0.317829430103302 -0.4573643207550049
0.8053396940231323 -0.317829430103302 -0.4418604373931885
0.8033969402313232 -0.317829430103302 -0.42635661363601685
0.8014323115348816 -0.317829430103302 -0.41085273027420044
0.7995747327804565 -0.317829430103302 -0.39534884691238403
0.8001154661178589 -0.317829430103302 -0.05426359176635742
0.8129112124443054 -0.30232560634613037 -0.4573643207550049
0.8108036518096924 -0.30232560634613037 -0.4418604373931885
0.8091467618942261 -0.30232560634613037 -0.42635661363601685
0.8080552220344543 -0.30232560634613037 -0.41085273027420044
0.8075275421142578 -0.30232560634613037 -0.39534884691238403
0.8068254590034485 -0.30232560634613037 -0.3798449635505676
0.806111216545105 -0.30232560634613037 -0.3643410801887512
0.8048530220985413 -0.30232560634613037 -0.3488371968269348
0.8033660650253296 -0.30232560634613037 -0.3333333134651184
0.8019302487373352 -0.30232560634613037 -0.317829430103302
0.8000329732894897 -0.30232560634613037 -0.30232560634613037
0.7997084856033325 -0.30232560634613037 -0.1627907007932663
0.803382933139801 -0.30232560634613037 -0.14728683233261108
0.8041524887084961 -0.30232560634613037 -0.13178294897079468
0.8029163479804993 -0.30232560634613037 -0.11627906560897827
0.8006725311279297 -0.30232560634613037 -0.10077517479658127
0.8131698966026306 -0.28682172298431396 -0.39534884691238403
0.8120603561401367 -0.28682172298431396 -0.3798449635505676
0.8110955357551575 -0.28682172298431396 -0.3643410801887512
0.809760332107544 -0.28682172298431396 -0.3488371968269348
0.8085262775421143 -0.28682172298431396 -0.3333333134651184
0.80753493309021 -0.28682172298431396 -0.317829430103302
0.8066596984863281 -0.28682172298431396 -0.30232560634613037
0.806207001209259 -0.28682172298431396 -0.28682172298431396
0.8054377436637878 -0.28682172298431396 -0.27131783962249756
0.8054554462432861 -0.28682172298431396 -0.25581395626068115
0.8056021928787231 -0.28682172298431396 -0.24031007289886475
0.8059101104736328 -0.28682172298431396 -0.22480618953704834
0.8060789108276367 -0.28682172298431396 -0.20930230617523193
0.8061078190803528 -0.28682172298431396 -0.19379842281341553
0.8065581917762756 -0.28682172298431396 -0.1782945990562439
0.807118833065033 -0.28682172298431396 -0.1627907156944275
0.8086037635803223 -0.28682172298431396 -0.14728683233261108
0.8096076250076294 -0.28682172298431396 -0.13178294897079468
0.8094944953918457 -0.28682172298431396 -0.11627906560897827
0.8088226318359375 -0.28682172298431396 -0.10077518224716187
0.8082109689712524 -0.28682172298431396 -0.08527129888534546
0.8094462752342224 -0.28682172298431396 -0.06976741552352905
0.8138514757156372 -0.27131783962249756 -0.317829430103302
0.8122553825378418 -0.27131783962249756 -0.30232560634613037
0.8112292289733887 -0.27131783962249756 -0.28682172298431396
0.8097809553146362 -0.27131783962249756 -0.27131783962249756
0.8093754053115845 -0.27131783962249756 -0.25581395626068115
0.8092949390411377 -0.27131783962249756 -0.24031007289886475
0.8095729351043701 -0.27131783962249756 -0.22480618953704834
0.8098140358924866 -0.27131783962249756 -0.20930230617523193
0.8100879192352295 -0.27131783962249756 -0.19379842281341553
0.8105716705322266 -0.27131783962249756 -0.1782945990562439
0.8115202188491821 -0.27131783962249756 -0.1627907156944275
0.8135742545127869 0.27131783962249756 -0.30232560634613037
0.8126350045204163 0.27131783962249756 -0.28682172298431396
0.8111478090286255 0.27131783962249756 -0.27131783962249756
0.8107882738113403 0.27131783962249756 -0.25581395626068115
0.8108333349227905 0.27131783962249756 -0.24031007289886475
0.8106290698051453 0.27131783962249756 -0.22480618953704834
0.8107630610466003 0.27131783962249756 -0.20930230617523193
0.8113794922828674 0.27131783962249756 -0.19379842281341553
0.8122041821479797 0.27131783962249756 -0.1782945990562439
0.8135741949081421 0.27131783962249756 -0.1627907156944275
0.8137335181236267 0.27131783962249756 -0.13178294897079468
0.8133995532989502 0.28682172298431396 -0.39534884691238403
0.8119891881942749 0.28682172298431396 -0.3798449635505676
0.8107598423957825 0.28682172298431396 -0.3643410801887512
0.8094167709350586 0.28682172298431396 -0.3488371968269348
0.8084343075752258 0.28682172298431396 -0.3333333134651184
0.8077379465103149 0.28682172298431396 -0.317829430103302
0.8072633743286133 0.28682172298431396 -0.30232560634613037
0.8068040609359741 0.28682172298431396 -0.28682172298431396
0.8059676885604858 0.28682172298431396 -0.27131783962249756
0.8059333562850952 0.28682172298431396 -0.25581395626068115
0.8062546253204346 0.28682172298431396 -0.24031007289886475
0.8061971068382263 0.28682172298431396 -0.22480618953704834
0.8062090873718262 0.28682172298431396 -0.20930230617523193
0.8064371347427368 0.28682172298431396 -0.19379842281341553
0.8067171573638916 0.28682172298431396 -0.1782945990562439
0.8076022863388062 0.28682172298431396 -0.1627907156944275
0.8081525564193726 0.28682172298431396 -0.14728683233261108
0.8082109689712524 0.28682172298431396 -0.13178294897079468
0.8091216087341309 0.28682172298431396 -0.11627906560897827
0.8104877471923828 0.28682172298431396 -0.10077518224716187
0.8116308450698853 0.28682172298431396 -0.08527129888534546
0.8136184215545654 0.28682172298431396 -0.06976741552352905
0.8127062320709229 0.30232560634613037 -0.4573643207550049
0.8104069828987122 0.30232560634613037 -0.4418604373931885
0.8083786964416504 0.30232560634613037 -0.42635661363601685
0.8071545362472534 0.30232560634613037 -0.41085273027420044
0.806430995464325 0.30232560634613037 -0.39534884691238403
0.805594801902771 0.30232560634613037 -0.3798449635505676
0.8047858476638794 0.30232560634613037 -0.3643410801887512
0.8037252426147461 0.30232560634613037 -0.3488371968269348
0.8026831150054932 0.30232560634613037 -0.3333333134651184
0.8017692565917969 0.30232560634613037 -0.317829430103302
0.8010146617889404 0.30232560634613037 -0.30232560634613037
0.7999871373176575 0.30232560634613037 -0.2868216931819916
0.798976719379425 0.30232560634613037 -0.19379842281341553
0.799957811832428 0.30232560634613037 -0.1782945990562439
0.8006442785263062 0.30232560634613037 -0.1627907156944275
0.8010813593864441 0.30232560634613037 -0.14728683233261108
0.8007194995880127 0.30232560634613037 -0.13178294897079468
0.8017417192459106 0.30232560634613037 -0.11627906560897827
0.8031461238861084 0.30232560634613037 -0.10077518224716187
0.804275631904602 0.30232560634613037 -0.08527129888534546
0.8069710731506348 0.30232560634613037 -0.06976741552352905
0.8129491806030273 0.3178294897079468 -0.5038759708404541
0.8093639612197876 0.3178294897079468 -0.4883720874786377
0.8086844682693481 0.3178294897079468 -0.4728682041168213
0.806962788105011 0.3178294897079468 -0.4573643207550049
0.8045229911804199 0.3178294897079468 -0.4418604373931885
0.8024030923843384 0.3178294897079468 -0.42635661363601685
0.8005417585372925 0.3178294897079468 -0.41085273027420044
0.798726499080658 0.3178294897079468 -0.39534881711006165
0.8091776967048645 0.3333333730697632 -0.5038759708404541
0.8037745952606201 0.3333333730697632 -0.4883720874786377
0.8019217252731323 0.3333333730697632 -0.4728682041168213
0.7985637187957764 0.3333333730697632 -0.4573643207550049
0.8130760192871094 0.3488372564315796 -0.25581395626068115
0.8117680549621582 0.3488372564315796 -0.24031007289886475
0.8126308917999268 0.3488372564315796 -0.22480618953704834
0.8129865527153015 0.3488372564315796 -0.20930230617523193
0.8132882118225098 0.3488372564315796 -0.19379842281341553
0.8134247660636902 0.364341139793396 -0.317829430103302
0.812535285949707 0.364341139793396 -0.30232560634613037
0.8114701509475708 0.364341139793396 -0.28682172298431396
0.8095669150352478 0.364341139793396 -0.27131783962249756
0.8069156408309937 0.364341139793396 -0.25581395626068115
0.8053733110427856 0.364341139793396 -0.24031007289886475
0.8063772916793823 0.364341139793396 -0.22480618953704834
0.8078553676605225 0.364341139793396 -0.20930230617523193
0.8086091876029968 0.364341139793396 -0.19379842281341553
0.811415433883667 0.364341139793396 -0.1782945990562439
0.8110568523406982 0.37984490394592285 -0.5038759708404541
0.8135554790496826 0.37984490394592285 -0.42635661363601685
0.8126047253608704 0.37984490394592285 -0.41085273027420044
0.8118330240249634 0.37984490394592285 -0.39534884691238403
0.8105939626693726 0.37984490394592285 -0.3798449635505676
0.8097527027130127 0.37984490394592285 -0.3643410801887512
0.8087680339813232 0.37984490394592285 -0.3488371968269348
0.8076665997505188 0.37984490394592285 -0.3333333134651184
0.8063089847564697 0.37984490394592285 -0.317829430103302
0.804996907711029 0.37984490394592285 -0.30232560634613037
0.8035464882850647 0.37984490394592285 -0.28682172298431396
0.8015029430389404 0.37984490394592285 -0.27131783962249756
0.7993900775909424 0.37984490394592285 -0.25581395626068115
0.7987479567527771 0.37984490394592285 -0.22480618953704834
0.7990288138389587 0.37984490394592285 -0.20930230617523193
0.7991743683815002 0.37984490394592285 -0.19379843771457672
0.8038374185562134 0.37984490394592285 -0.1782945990562439
0.8094900846481323 0.37984490394592285 -0.1627907156944275
0.8123177886009216 0.37984490394592285 -0.14728683233261108
0.8020317554473877 0.39534878730773926 -0.5038759708404541
0.8088723421096802 0.39534878730773926 -0.4883720874786377
0.8102289438247681 0.39534878730773926 -0.4728682041168213
0.8091371655464172 0.39534878730773926 -0.4573643207550049
0.8079162836074829 0.39534878730773926 -0.4418604373931885
0.8066053986549377 0.39534878730773926 -0.42635661363601685
0.8048840761184692 0.39534878730773926 -0.41085273027420044
0.8033673763275146 0.39534878730773926 -0.39534884691238403
0.8015891313552856 0.39534878730773926 -0.3798449635505676
0.8007487058639526 0.39534878730773926 -0.3643410801887512
0.7999079823493958 0.39534878730773926 -0.3488372266292572
0.7992204427719116 0.39534878730773926 -0.333333283662796
0.7986125349998474 0.39534881711006165 -0.317829430103302
0.7999148368835449 0.39534878730773926 -0.1627907156944275
0.8040241599082947 0.39534881711006165 -0.14728683233261108
0.807832658290863 0.39534878730773926 -0.13178294897079468
0.8111207485198975 0.39534878730773926 -0.11627906560897827
0.8130800724029541 0.39534878730773926 -0.10077518224716187
0.8135209679603577 0.39534878730773926 -0.08527129888534546
0.8096749782562256 0.39534878730773926 -0.06976741552352905
0.8010061383247375 0.41085267066955566 -0.4883720874786377
0.8019538521766663 0.41085270047187805 -0.4728682041168213
0.8008831143379211 0.41085267066955566 -0.4573643207550049
0.7998014688491821 0.41085267066955566 -0.4418604373931885
0.7987673878669739 0.41085267066955566 -0.42635661363601685
0.7991576194763184 0.41085267066955566 -0.13178294897079468
0.8029547929763794 0.41085267066955566 -0.11627906560897827
0.8061720132827759 0.41085267066955566 -0.10077518224716187
0.8072159886360168 0.41085267066955566 -0.08527129888534546
0.8049287796020508 0.41085267066955566 -0.06976741552352905
0.7991824150085449 0.42635655403137207 -0.10077518224716187
0.8008573055267334 0.42635655403137207 -0.08527129888534546
0.8002942800521851 0.42635658383369446 -0.06976741552352905
0.814018189907074 -0.3798449635505676 -0.4883720874786377
0.8144352436065674 -0.3798449635505676 -0.4728682339191437
0.8153577446937561 -0.3798449635505676 -0.11627906560897827
0.8155393600463867 -0.3798449635505676 -0.10077518224716187
0.8146010041236877 -0.3643410801887512 -0.5038759708404541
0.8184810876846313 -0.3643410801887512 -0.4883720874786377
0.8193303346633911 -0.3643410801887512 -0.4728682041168213
0.8175946474075317 -0.3643410801887512 -0.4573643207550049
0.8157143592834473 -0.3643410801887512 -0.4418604373931885
0.8142967224121094 -0.3643410801887512 -0.42635661363601685
0.8146515488624573 -0.3643410801887512 -0.1472868174314499
0.8173311352729797 -0.3643410801887512 -0.13178294897079468
0.8202532529830933 -0.3643410801887512 -0.11627906560897827
0.8207141757011414 -0.3643410801887512 -0.10077518224716187
0.8169879913330078 -0.3643410801887512 -0.08527129888534546
0.8196995854377747 -0.3488371968269348 -0.5038759708404541
0.8256665468215942 -0.3488371968269348 -0.4883720874786377
0.8272911310195923 -0.3488371968269348 -0.4728682041168213
0.8248826265335083 -0.3488371968269348 -0.4573643207550049
0.822428822517395 -0.3488371968269348 -0.4418604373931885
0.8196911215782166 -0.3488371968269348 -0.42635661363601685
0.817218542098999 -0.3488371968269348 -0.41085273027420044
0.8160060048103333 -0.3488371968269348 -0.39534884691238403
0.8154247403144836 -0.3488371968269348 -0.3798449635505676
0.8152252435684204 -0.3488371968269348 -0.3643410801887512
0.8151121139526367 -0.3488371968269348 -0.3488371968269348
0.8149648904800415 -0.3488371968269348 -0.3333333134651184
0.8145630359649658 -0.3488371968269348 -0.317829430103302
0.8158758878707886 -0.3488371670246124 -0.1627907156944275
0.8197450637817383 -0.3488371968269348 -0.14728683233261108
0.8237578272819519 -0.3488371968269348 -0.13178294897079468
0.826998233795166 -0.3488371968269348 -0.11627906560897827
0.827057421207428 -0.3488371968269348 -0.10077518224716187
0.822732150554657 -0.3488371968269348 -0.08527129888534546
0.8154233694076538 -0.3488371968269348 -0.06976741552352905
0.8258458971977234 -0.3333333134651184 -0.5038759708404541
0.8286683559417725 -0.3333333134651184 -0.4418604373931885
0.8265739679336548 -0.3333333134651184 -0.42635661363601685
0.8244329690933228 -0.3333333134651184 -0.41085273027420044
0.8228094577789307 -0.3333333134651184 -0.39534884691238403
0.8216434717178345 -0.3333333134651184 -0.3798449635505676
0.8212128281593323 -0.3333333134651184 -0.3643410801887512
0.8210548758506775 -0.3333333134651184 -0.3488371968269348
0.8207405805587769 -0.3333333134651184 -0.3333333134651184
0.8197160959243774 -0.3333333134651184 -0.317829430103302
0.8179334402084351 -0.3333333134651184 -0.30232560634613037
0.8163862228393555 -0.3333333134651184 -0.28682172298431396
0.814444363117218 -0.3333333134651184 -0.27131783962249756
0.8149932622909546 -0.333333283662796 -0.1782945990562439
0.8216822147369385 -0.3333333134651184 -0.1627907156944275
0.8267223238945007 -0.3333333134651184 -0.14728683233261108
0.8288161754608154 -0.3333333134651184 -0.08527129888534546
0.8202148079872131 -0.3333333134651184 -0.06976741552352905
0.8293647766113281 -0.317829430103302 -0.39534884691238403
0.8283638954162598 -0.317829430103302 -0.3798449635505676
0.8279858231544495 -0.317829430103302 -0.3643410801887512
0.8278237581253052 -0.317829430103302 -0.3488371968269348
0.8275943398475647 -0.317829430103302 -0.3333333134651184
0.8269057273864746 -0.317829430103302 -0.317829430103302
0.8254426121711731 -0.317829430103302 -0.30232560634613037
0.8233717679977417 -0.317829430103302 -0.28682172298431396
0.8206729888916016 -0.317829430103302 -0.27131783962249756
0.8173123598098755 -0.317829430103302 -0.25581395626068115
0.8157888054847717 -0.317829430103302 -0.24031007289886475
0.8159613609313965 -0.317829430103302 -0.22480618953704834
0.8155572414398193 -0.317829430103302 -0.20930232107639313
0.8158333897590637 -0.317829430103302 -0.19379842281341553
0.8199443817138672 -0.317829430103302 -0.1782945990562439
0.8276039361953735 -0.317829430103302 -0.1627907156944275
0.8253910541534424 -0.317829430103302 -0.06976741552352905
0.8247713446617126 -0.30232560634613037 -0.5038759708404541
0.8211275339126587 -0.30232560634613037 -0.4883720874786377
0.8170880675315857 -0.30232560634613037 -0.4728682041168213
0.829430103302002 -0.30232560634613037 -0.28682172298431396
0.8269206285476685 -0.30232560634613037 -0.27131783962249756
0.8238908052444458 -0.30232560634613037 -0.25581395626068115
0.8216100931167603 -0.30232560634613037 -0.24031007289886475
0.821021318435669 -0.30232560634613037 -0.22480618953704834
0.8201866149902344 -0.30232560634613037 -0.20930230617523193
0.8204231262207031 -0.30232560634613037 -0.19379842281341553
0.8244121074676514 -0.30232560634613037 -0.1782945990562439
0.8283371329307556 -0.28682172298431396 -0.5038759708404541
0.825380802154541 -0.28682172298431396 -0.4883720874786377
0.8242217302322388 -0.28682172298431396 -0.4728682041168213
0.8223955631256104 -0.28682172298431396 -0.4573643207550049
0.8199899196624756 -0.28682172298431396 -0.4418604373931885
0.817502498626709 -0.28682172298431396 -0.42635661363601685
0.8143353462219238 -0.28682172298431396 -0.41085273027420044
0.8290074467658997 -0.28682172298431396 -0.25581395626068115
0.8270896673202515 -0.28682172298431396 -0.24031007289886475
0.8265669941902161 -0.28682172298431396 -0.22480618953704834
0.8249008655548096 -0.28682172298431396 -0.20930230617523193
0.8243746757507324 -0.28682172298431396 -0.19379842281341553
0.8291463851928711 -0.28682172298431396 -0.1782945990562439
0.8294489979743958 -0.27131783962249756 -0.4883720874786377
0.8279337882995605 -0.27131783962249756 -0.4728682041168213
0.8263848423957825 -0.27131783962249756 -0.4573643207550049
0.8246998190879822 -0.27131783962249756 -0.4418604373931885
0.8233555555343628 -0.27131783962249756 -0.42635661363601685
0.8224722146987915 -0.27131783962249756 -0.41085273027420044
0.8220614790916443 -0.27131783962249756 -0.39534884691238403
0.8213554620742798 -0.27131783962249756 -0.3798449635505676
0.8204875588417053 -0.27131783962249756 -0.3643410801887512
0.8187373876571655 -0.27131783962249756 -0.3488371968269348
0.8164960741996765 -0.27131783962249756 -0.3333333134651184
0.8141392469406128 -0.27131786942481995 -0.14728683233261108
0.8161008954048157 -0.27131783962249756 -0.13178294897079468
0.8162289261817932 -0.27131783962249756 -0.11627906560897827
0.8155630230903625 -0.27131783962249756 -0.10077518224716187
0.8139771819114685 -0.27131780982017517 -0.08527129888534546
0.8278742432594299 -0.25581395626068115 -0.42635661363601685
0.8266081809997559 -0.25581395626068115 -0.41085273027420044
0.825954794883728 -0.25581395626068115 -0.39534884691238403
0.8251753449440002 -0.25581395626068115 -0.3798449635505676
0.8244640231132507 -0.25581395626068115 -0.3643410801887512
0.8233815431594849 -0.25581395626068115 -0.3488371968269348
0.8223386406898499 -0.25581395626068115 -0.3333333134651184
0.821455717086792 -0.25581395626068115 -0.317829430103302
0.8205783367156982 -0.25581395626068115 -0.30232560634613037
0.8199814558029175 -0.25581395626068115 -0.28682172298431396
0.8185210824012756 -0.25581395626068115 -0.27131783962249756
0.8175873756408691 -0.25581395626068115 -0.25581395626068115
0.8160614967346191 -0.25581395626068115 -0.24031007289886475
0.8151312470436096 -0.25581395626068115 -0.22480620443820953
0.8141909837722778 -0.25581395626068115 -0.20930230617523193
0.8162823915481567 -0.25581395626068115 -0.19379842281341553
0.8185750842094421 -0.25581395626068115 -0.1782945990562439
0.8198035955429077 -0.25581395626068115 -0.1627907156944275
0.8211307525634766 -0.25581395626068115 -0.14728683233261108
0.8217134475708008 -0.25581395626068115 -0.13178294897079468
0.8221567869186401 -0.25581395626068115 -0.11627906560897827
0.8227653503417969 -0.25581395626068115 -0.10077518224716187
0.8243206739425659 -0.25581395626068115 -0.08527129888534546
0.8291899561882019 -0.24031007289886475 -0.3643410801887512
0.8277531266212463 -0.24031007289886475 -0.3488371968269348
0.8263875246047974 -0.24031007289886475 -0.3333333134651184
0.8251692056655884 -0.24031007289886475 -0.317829430103302
0.8240907192230225 -0.24031007289886475 -0.30232560634613037
0.8234437704086304 -0.24031007289886475 -0.28682172298431396
0.8226251006126404 -0.24031007289886475 -0.27131783962249756
0.8226149082183838 -0.24031007289886475 -0.25581395626068115
0.8228515386581421 -0.24031007289886475 -0.24031007289886475
0.82342529296875 -0.24031007289886475 -0.22480618953704834
0.8238131999969482 -0.24031007289886475 -0.20930230617523193
0.8236627578735352 -0.24031007289886475 -0.19379842281341553
0.8233891725540161 -0.24031007289886475 -0.1782945990562439
0.8231842517852783 -0.24031007289886475 -0.1627907156944275
0.8238403797149658 -0.24031007289886475 -0.14728683233261108
0.8242930173873901 -0.24031007289886475 -0.13178294897079468
0.8247044086456299 -0.24031007289886475 -0.11627906560897827
0.8253779411315918 -0.24031007289886475 -0.10077518224716187
0.8268812894821167 -0.24031007289886475 -0.08527129888534546
0.8291823863983154 -0.22480618953704834 -0.30232560634613037
0.8279352784156799 -0.22480618953704834 -0.28682172298431396
0.8263460397720337 -0.22480618953704834 -0.27131783962249756
0.825752854347229 -0.22480618953704834 -0.25581395626068115
0.8255965709686279 -0.22480618953704834 -0.24031007289886475
0.825901448726654 -0.22480618953704834 -0.22480618953704834
0.8261078596115112 -0.22480618953704834 -0.20930230617523193
0.826146125793457 -0.22480618953704834 -0.19379842281341553
0.8260973691940308 -0.22480618953704834 -0.1782945990562439
0.8260470628738403 -0.22480618953704834 -0.1627907156944275
0.8266562223434448 -0.22480618953704834 -0.14728683233261108
0.8267220258712769 -0.22480618953704834 -0.13178294897079468
0.8270159959793091 -0.22480618953704834 -0.11627906560897827
0.8277735710144043 -0.22480618953704834 -0.10077518224716187
0.8290491104125977 -0.22480618953704834 -0.08527129888534546
0.8294012546539307 -0.20930230617523193 -0.20930230617523193
0.8294460773468018 -0.20930230617523193 -0.19379842281341553
0.8292130827903748 -0.20930230617523193 -0.14728683233261108
0.8286603689193726 -0.20930230617523193 -0.13178294897079468
0.8288925290107727 -0.20930230617523193 -0.11627906560897827
0.8291003108024597 0.20930230617523193 -0.13178294897079468
0.8292115330696106 0.20930230617523193 -0.11627906560897827
0.8279234766960144 0.22480618953704834 -0.27131783962249756
0.8273645639419556 0.22480618953704834 -0.25581395626068115
0.8272137641906738 0.22480618953704834 -0.24031007289886475
0.826836109161377 0.22480618953704834 -0.22480618953704834
0.8264824151992798 0.22480618953704834 -0.20930230617523193
0.8265788555145264 0.22480618953704834 -0.19379842281341553
0.8266606330871582 0.22480618953704834 -0.1782945990562439
0.8268894553184509 0.22480618953704834 -0.1627907156944275
0.8269548416137695 0.22480618953704834 -0.14728683233261108
0.8266245126724243 0.22480618953704834 -0.13178294897079468
0.8271849751472473 0.22480618953704834 -0.11627906560897827
0.8288612365722656 0.22480618953704834 -0.10077518224716187
0.8281357288360596 0.24031007289886475 -0.3488371968269348
0.8267235159873962 0.24031007289886475 -0.3333333134651184
0.8257036805152893 0.24031007289886475 -0.317829430103302
0.8250124454498291 0.24031007289886475 -0.30232560634613037
0.8242934346199036 0.24031007289886475 -0.28682172298431396
0.8233146667480469 0.24031007289886475 -0.27131783962249756
0.8231896162033081 0.24031007289886475 -0.25581395626068115
0.823382556438446 0.24031007289886475 -0.24031007289886475
0.8232476711273193 0.24031007289886475 -0.22480618953704834
0.8229478001594543 0.24031007289886475 -0.20930230617523193
0.8228550553321838 0.24031007289886475 -0.19379842281341553
0.8227769136428833 0.24031007289886475 -0.1782945990562439
0.8233016133308411 0.24031007289886475 -0.1627907156944275
0.8238649368286133 0.24031007289886475 -0.14728683233261108
0.8239341378211975 0.24031007289886475 -0.13178294897079468
0.8247765302658081 0.24031007289886475 -0.11627906560897827
0.8266624212265015 0.24031007289886475 -0.10077518224716187
0.8284851312637329 0.24031007289886475 -0.08527129888534546
0.8280919790267944 0.25581395626068115 -0.42635661363601685
0.8267723917961121 0.25581395626068115 -0.41085273027420044
0.8258299827575684 0.25581395626068115 -0.39534884691238403
0.8247690200805664 0.25581395626068115 -0.3798449635505676
0.8238507509231567 0.25581395626068115 -0.3643410801887512
0.8228048086166382 0.25581395626068115 -0.3488371968269348
0.8219828605651855 0.25581395626068115 -0.3333333134651184
0.8213696479797363 0.25581395626068115 -0.317829430103302
0.8209186792373657 0.25581395626068115 -0.30232560634613037
0.8204257488250732 0.25581395626068115 -0.28682172298431396
0.8193506002426147 0.25581395626068115 -0.27131783962249756
0.8191695809364319 0.25581395626068115 -0.25581395626068115
0.819409966468811 0.25581395626068115 -0.24031007289886475
0.8190982341766357 0.25581395626068115 -0.22480617463588715
0.8190549612045288 0.25581395626068115 -0.20930230617523193
0.8192562460899353 0.25581395626068115 -0.19379842281341553
0.819413423538208 0.25581395626068115 -0.1782945990562439
0.8200956583023071 0.25581395626068115 -0.1627907156944275
0.8206244111061096 0.25581395626068115 -0.14728683233261108
0.82063227891922 0.25581395626068115 -0.13178294897079468
0.821648120880127 0.25581395626068115 -0.11627906560897827
0.8235756158828735 0.25581395626068115 -0.10077518224716187
0.8252904415130615 0.25581395626068115 -0.08527129888534546
0.8273802995681763 0.25581395626068115 -0.06976741552352905
0.8281200528144836 0.27131783962249756 -0.4883720874786377
0.8274303674697876 0.27131783962249756 -0.4728682041168213
0.8259636163711548 0.27131783962249756 -0.4573643207550049
0.8240542411804199 0.27131783962249756 -0.4418604373931885
0.8225412964820862 0.27131783962249756 -0.42635661363601685
0.8217296004295349 0.27131783962249756 -0.41085273027420044
0.8211707472801208 0.27131783962249756 -0.39534884691238403
0.8203831911087036 0.27131783962249756 -0.3798449635505676
0.8194680213928223 0.27131783962249756 -0.3643410801887512
0.8180404901504517 0.27131783962249756 -0.3488371968269348
0.8164774179458618 0.27131783962249756 -0.3333333134651184
0.8148943185806274 0.27131783962249756 -0.317829430103302
0.8141411542892456 0.27131783962249756 -0.14728683233261108
0.8151084780693054 0.27131783962249756 -0.11627906560897827
0.818311333656311 0.27131783962249756 -0.10077518224716187
0.8205277919769287 0.27131783962249756 -0.08527129888534546
0.8234847784042358 0.27131783962249756 -0.06976741552352905
0.827642023563385 0.28682172298431396 -0.5038759708404541
0.8237348794937134 0.28682172298431396 -0.4883720874786377
0.8229594230651855 0.28682172298431396 -0.4728682041168213
0.821209192276001 0.28682172298431396 -0.4573643207550049
0.8189456462860107 0.28682172298431396 -0.4418604373931885
0.8169313669204712 0.28682172298431396 -0.42635661363601685
0.8149921894073486 0.28682172298431396 -0.41085273027420044
0.822493851184845 0.30232560634613037 -0.5038759708404541
0.81682288646698 0.30232560634613037 -0.4883720874786377
0.8148688077926636 0.30232560634613037 -0.4728682041168213
0.828876793384552 0.30232560634613037 -0.24031007289886475
0.8290970921516418 0.30232560634613037 -0.22480618953704834
0.8286828398704529 0.30232560634613037 -0.20930230617523193
0.8281732201576233 0.3178294897079468 -0.27131783962249756
0.8258423805236816 0.3178294897079468 -0.25581395626068115
0.8241950273513794 0.3178294897079468 -0.24031007289886475
0.8246535658836365 0.3178294897079468 -0.22480618953704834
0.8252942562103271 0.3178294897079468 -0.20930230617523193
0.8256991505622864 0.3178294897079468 -0.19379842281341553
0.8280768990516663 0.3178294897079468 -0.1782945990562439
0.8289793729782104 0.3333333730697632 -0.3488371968269348
0.8282091617584229 0.3333333730697632 -0.3333333134651184
0.8273923397064209 0.3333333730697632 -0.317829430103302
0.8264817595481873 0.3333333730697632 -0.30232560634613037
0.8250899314880371 0.3333333730697632 -0.28682172298431396
0.8228263854980469 0.3333333730697632 -0.27131783962249756
0.8198946714401245 0.3333333730697632 -0.25581395626068115
0.8180201649665833 0.3333333730697632 -0.24031007289886475
0.8186535239219666 0.3333333730697632 -0.22480618953704834
0.8200748562812805 0.3333333730697632 -0.20930232107639313
0.8214607834815979 0.3333333730697632 -0.19379842281341553
0.8247957229614258 0.3333333730697632 -0.1782945990562439
0.8254944682121277 0.3488372564315796 -0.5038759708404541
0.8284368515014648 0.3488372564315796 -0.4418604373931885
0.8276751637458801 0.3488372564315796 -0.42635661363601685
0.8268367648124695 0.3488372564315796 -0.41085273027420044
0.8260433673858643 0.3488372564315796 -0.39534884691238403
0.8247138857841492 0.3488372564315796 -0.3798449635505676
0.8238788843154907 0.3488372564315796 -0.3643410801887512
0.8228242993354797 0.3488372564315796 -0.3488371968269348
0.8216588497161865 0.3488372564315796 -0.3333333134651184
0.8202508091926575 0.3488372564315796 -0.317829430103302
0.818864107131958 0.3488372564315796 -0.30232560634613037
0.8173342347145081 0.3488372564315796 -0.28682172298431396
0.8154064416885376 0.3488372564315796 -0.27131783962249756
0.8182173371315002 0.3488372564315796 -0.1782945990562439
0.8244686126708984 0.3488372564315796 -0.1627907156944275
0.8277338743209839 0.3488372564315796 -0.14728683233261108
0.8288363218307495 0.3488372564315796 -0.06976741552352905
0.8172230124473572 0.364341139793396 -0.5038759708404541
0.8237470984458923 0.364341139793396 -0.4883720874786377
0.8246061205863953 0.364341139793396 -0.4728682041168213
0.8232704401016235 0.364341139793396 -0.4573643207550049
0.8220213651657104 0.364341139793396 -0.4418604373931885
0.8206545114517212 0.364341139793396 -0.42635661363601685
0.818917989730835 0.364341139793396 -0.41085273027420044
0.8175051212310791 0.364341139793396 -0.39534884691238403
0.816075325012207 0.364341139793396 -0.3798449635505676
0.8154494762420654 0.364341139793396 -0.3643410801887512
0.8147852420806885 0.364341139793396 -0.3488371968269348
0.8141850829124451 0.364341139793396 -0.3333333134651184
0.8161786198616028 0.364341139793396 -0.1627907156944275
0.8198269009590149 0.364341139793396 -0.14728683233261108
0.8232805728912354 0.364341139793396 -0.13178294897079468
0.8261196613311768 0.364341139793396 -0.11627906560897827
0.8275790810585022 0.364341139793396 -0.10077518224716187
0.8267117738723755 0.364341139793396 -0.08527129888534546
0.8204401731491089 0.364341139793396 -0.06976741552352905
0.8164292573928833 0.37984490394592285 -0.4883720874786377
0.8168856501579285 0.37984490394592285 -0.4728682041168213
0.8155627250671387 0.37984490394592285 -0.4573642909526825
0.8144190907478333 0.37984490394592285 -0.4418604373931885
0.8148736953735352 0.37984487414360046 -0.13178294897079468
0.8178004622459412 0.37984490394592285 -0.11627906560897827
0.8197880983352661 0.37984490394592285 -0.10077518224716187
0.819169819355011 0.37984490394592285 -0.08527129888534546
0.8150628209114075 0.37984490394592285 -0.06976741552352905
0.831839919090271 -0.3333333134651184 -0.4883720874786377
0.8325730562210083 -0.3333333134651184 -0.4728682041168213
0.8307384252548218 -0.3333333134651184 -0.45736435055732727
0.8303037881851196 -0.333333283662796 -0.13178294897079468
0.832269549369812 -0.333333283662796 -0.11627906560897827
0.8322205543518066 -0.3333333134651184 -0.10077518224716187
0.8326585292816162 -0.317829430103302 -0.5038759708404541
0.8374960422515869 -0.317829430103302 -0.4883720874786377
0.8387736082077026 -0.317829430103302 -0.4728682041168213
0.8366491794586182 -0.317829430103302 -0.4573643207550049
0.8340457677841187 -0.317829430103302 -0.4418604075908661
0.8316693305969238 -0.317829430103302 -0.42635661363601685
0.8301928639411926 -0.3178294003009796 -0.41085273027420044
0.8321319818496704 -0.3178294003009796 -0.14728683233261108
0.8356153964996338 -0.317829430103302 -0.13178294897079468
0.8375495672225952 -0.317829430103302 -0.11627906560897827
0.8369219303131104 -0.317829430103302 -0.10077518224716187
0.8331993222236633 -0.317829430103302 -0.08527129888534546
0.8381458520889282 -0.30232560634613037 -0.5038759708404541
0.8435966968536377 -0.30232560634613037 -0.4573643207550049
0.8412379026412964 -0.30232560634613037 -0.4418604373931885
0.8386275768280029 -0.30232560634613037 -0.42635661363601685
0.8359202146530151 -0.30232560634613037 -0.41085273027420044
0.8341764807701111 -0.30232560634613037 -0.39534884691238403
0.8331407308578491 -0.30232560634613037 -0.3798449635505676
0.8327798247337341 -0.30232560634613037 -0.3643410801887512
0.8324935436248779 -0.30232560634613037 -0.3488371968269348
0.8321912884712219 -0.30232560634613037 -0.3333333134651184
0.8315773010253906 -0.30232560634613037 -0.317829430103302
0.8307148814201355 -0.30232560634613037 -0.30232560634613037
0.8320657014846802 -0.30232560634613037 -0.16279073059558868
0.8389744758605957 -0.30232560634613037 -0.14728683233261108
0.8432309627532959 -0.30232560634613037 -0.13178294897079468
0.8438782095909119 -0.30232560634613037 -0.11627906560897827
0.8416745066642761 -0.30232560634613037 -0.10077518224716187
0.8370988368988037 -0.30232560634613037 -0.08527129888534546
0.8301483988761902 -0.30232560634613037 -0.06976741552352905
0.8447868227958679 -0.28682172298431396 -0.42635661363601685
0.8427872061729431 -0.28682172298431396 -0.41085273027420044
0.8416451215744019 -0.28682172298431396 -0.39534884691238403
0.8407785892486572 -0.28682172298431396 -0.3798449635505676
0.8403911590576172 -0.28682172298431396 -0.3643410801887512
0.8401472568511963 -0.28682172298431396 -0.3488371968269348
0.8398743867874146 -0.28682172298431396 -0.3333333134651184
0.8388360142707825 -0.28682172298431396 -0.317829430103302
0.8365839719772339 -0.28682172298431396 -0.30232560634613037
0.8341361284255981 -0.28682172298431396 -0.28682172298431396
0.8316545486450195 -0.28682172298431396 -0.27131783962249756
0.8374067544937134 -0.28682172298431396 -0.1627907156944275
0.8406680226325989 -0.28682172298431396 -0.08527129888534546
0.8307515382766724 -0.28682172298431396 -0.06976741552352905
0.8366913199424744 -0.27131783962249756 -0.5038759708404541
0.8431156873703003 -0.27131783962249756 -0.30232560634613037
0.8411567211151123 -0.27131783962249756 -0.28682172298431396
0.8382329344749451 -0.27131783962249756 -0.27131783962249756
0.834309458732605 -0.27131783962249756 -0.25581395626068115
0.8319132924079895 -0.27131783962249756 -0.24031007289886475
0.8313323259353638 -0.27131783962249756 -0.22480618953704834
0.8301804661750793 -0.27131783962249756 -0.20930230617523193
0.8302680850028992 -0.27131783962249756 -0.19379842281341553
0.8339145183563232 -0.27131783962249756 -0.1782945990562439
0.8430703282356262 -0.27131783962249756 -0.1627907156944275
0.8425144553184509 -0.25581395626068115 -0.5038759708404541
0.8393648862838745 -0.25581395626068115 -0.4883720874786377
0.8374512195587158 -0.25581395626068115 -0.4728682041168213
0.8345149755477905 -0.25581395626068115 -0.4573643207550049
0.8298323750495911 -0.25581395626068115 -0.4418604373931885
0.843562662601471 -0.25581395626068115 -0.27131783962249756
0.8403423428535461 -0.25581395626068115 -0.25581395626068115
0.8374546766281128 -0.25581395626068115 -0.24031007289886475
0.8359630107879639 -0.25581395626068115 -0.22480618953704834
0.8343669176101685 -0.25581395626068115 -0.20930230617523193
0.834638774394989 -0.25581395626068115 -0.19379842281341553
0.8385682702064514 -0.25581395626068115 -0.1782945990562439
0.8444971442222595 -0.24031007289886475 -0.5038759708404541
0.8420090675354004 -0.24031007289886475 -0.4883720874786377
0.8409460783004761 -0.24031007289886475 -0.4728682041168213
0.8395163416862488 -0.24031007289886475 -0.4573643207550049
0.8377204537391663 -0.24031007289886475 -0.4418604373931885
0.8362354040145874 -0.24031007289886475 -0.42635661363601685
0.8349441289901733 -0.24031007289886475 -0.41085273027420044
0.833797037601471 -0.24031007289886475 -0.39534884691238403
0.8315224647521973 -0.24031005799770355 -0.3798449635505676
0.8428743481636047 -0.24031007289886475 -0.24031007289886475
0.8415941596031189 -0.24031007289886475 -0.22480618953704834
0.8392187356948853 -0.24031007289886475 -0.20930230617523193
0.8390545845031738 -0.24031007289886475 -0.19379842281341553
0.8443311452865601 -0.24031007289886475 -0.1782945990562439
0.8444135189056396 -0.22480618953704834 -0.4728682041168213
0.8429288268089294 -0.22480618953704834 -0.4573643207550049
0.8412652015686035 -0.22480618953704834 -0.4418604373931885
0.8399050235748291 -0.22480618953704834 -0.42635661363601685
0.8390287160873413 -0.22480618953704834 -0.41085273027420044
0.8385583162307739 -0.22480618953704834 -0.39534884691238403
0.8378959894180298 -0.22480618953704834 -0.3798449635505676
0.8371862769126892 -0.22480618953704834 -0.3643410801887512
0.8358826637268066 -0.22480618953704834 -0.3488371968269348
0.8342540264129639 -0.22480618953704834 -0.3333333134651184
0.8321710228919983 -0.22480618953704834 -0.317829430103302
0.844711422920227 -0.22480618953704834 -0.06976741552352905
0.8440853953361511 -0.20930230617523193 -0.42635661363601685
0.8427950739860535 -0.20930230617523193 -0.41085273027420044
0.8420145511627197 -0.20930230617523193 -0.39534884691238403
0.8411276340484619 -0.20930230617523193 -0.3798449635505676
0.8403339385986328 -0.20930230617523193 -0.3643410801887512
0.8392064571380615 -0.20930230617523193 -0.3488371968269348
0.8381408452987671 -0.20930230617523193 -0.3333333134651184
0.8371922969818115 -0.20930230617523193 -0.317829430103302
0.8362882137298584 -0.20930230617523193 -0.30232560634613037
0.8355537056922913 -0.20930230617523193 -0.28682172298431396
0.8340168595314026 -0.20930230617523193 -0.27131783962249756
0.8329700827598572 -0.20930230617523193 -0.25581395626068115
0.8315460681915283 -0.20930230617523193 -0.24031007289886475
0.8309726715087891 -0.20930230617523193 -0.22480617463588715
0.8303407430648804 -0.20930230617523193 -0.1782945990562439
0.8296363353729248 -0.20930230617523193 -0.1627907156944275
0.8312408328056335 -0.20930230617523193 -0.10077518969774246
0.8357522487640381 -0.20930230617523193 -0.08527129888534546
0.8431091904640198 -0.20930230617523193 -0.06976741552352905
0.8435627818107605 -0.19379842281341553 -0.3488371968269348
0.8421560525894165 -0.19379842281341553 -0.3333333134651184
0.840893030166626 -0.19379842281341553 -0.317829430103302
0.8398127555847168 -0.19379842281341553 -0.30232560634613037
0.8390610218048096 -0.19379842281341553 -0.28682172298431396
0.8381727933883667 -0.19379842281341553 -0.27131783962249756
0.838093638420105 -0.19379842281341553 -0.25581395626068115
0.8383820056915283 -0.19379842281341553 -0.24031007289886475
0.8390105962753296 -0.19379842281341553 -0.22480618953704834
0.8391845226287842 -0.19379842281341553 -0.20930230617523193
0.8385571241378784 -0.19379842281341553 -0.19379842281341553
0.8374495506286621 -0.19379842281341553 -0.1782945990562439
0.8361400365829468 -0.19379842281341553 -0.1627907156944275
0.8347388505935669 -0.19379842281341553 -0.14728683233261108
0.8335996866226196 -0.19379842281341553 -0.13178294897079468
0.8347147703170776 -0.19379842281341553 -0.11627906560897827
0.8373595476150513 -0.19379842281341553 -0.10077518224716187
0.8397468328475952 -0.19379842281341553 -0.08527129888534546
0.8432198762893677 -0.19379842281341553 -0.06976741552352905
0.8445510268211365 -0.1782945990562439 -0.30232560634613037
0.8434504866600037 -0.1782945990562439 -0.28682172298431396
0.8419656157493591 -0.1782945990562439 -0.27131783962249756
0.8414148688316345 -0.1782945990562439 -0.25581395626068115
0.8413665294647217 -0.1782945990562439 -0.24031007289886475
0.8417074680328369 -0.1782945990562439 -0.22480618953704834
0.8416968584060669 -0.1782945990562439 -0.20930230617523193
0.8413268327713013 -0.1782945990562439 -0.19379842281341553
0.840438723564148 -0.1782945990562439 -0.1782945990562439
0.8392848968505859 -0.1782945990562439 -0.1627907156944275
0.8385676741600037 -0.1782945990562439 -0.14728683233261108
0.8384191989898682 -0.1782945990562439 -0.13178294897079468
0.8390824198722839 -0.1782945990562439 -0.11627906560897827
0.840616762638092 -0.1782945990562439 -0.10077518224716187
0.8425971269607544 -0.1782945990562439 -0.08527129888534546
0.8447896838188171 -0.1782945990562439 -0.06976741552352905
0.8448683619499207 -0.1627907156944275 -0.19379842281341553
0.8442294597625732 -0.1627907156944275 -0.1782945990562439
0.8430373668670654 -0.1627907156944275 -0.1627907156944275
0.8423019647598267 -0.1627907156944275 -0.14728683233261108
0.8416328430175781 -0.1627907156944275 -0.13178294897079468
0.8417448997497559 -0.1627907156944275 -0.11627906560897827
0.8429837226867676 -0.1627907156944275 -0.10077518224716187
0.8444345593452454 -0.14728683233261108 -0.13178294897079468
0.8442227244377136 -0.14728683233261108 -0.11627906560897827
0.8449099063873291 0.1472867727279663 -0.11627906560897827
0.8448718786239624 0.1472867727279663 -0.10077518224716187
0.8442086577415466 0.16279065608978271 -0.1627907156944275
0.8431074619293213 0.16279065608978271 -0.14728683233261108
0.8420503735542297 0.16279065608978271 -0.13178294897079468
0.8414738178253174 0.16279065608978271 -0.11627906560897827
0.8417094349861145 0.16279065608978271 -0.10077518224716187
0.8422650098800659 0.16279065608978271 -0.08527129888534546
0.8427727222442627 0.16279065608978271 -0.06976741552352905
0.8430824279785156 0.16279065608978271 -0.05426359176635742
0.8435525298118591 0.16279065608978271 -0.038759708404541016
0.8443999290466309 0.16279065608978271 -0.02325582504272461
0.8447718620300293 0.17829453945159912 -0.28682172298431396
0.8430536389350891 0.17829453945159912 -0.27131783962249756
0.8425384163856506 0.17829453945159912 -0.25581395626068115
0.8425071239471436 0.17829453945159912 -0.24031007289886475
0.8421663045883179 0.17829453945159912 -0.22480618953704834
0.8414643406867981 0.17829453945159912 -0.20930230617523193
0.840991735458374 0.17829453945159912 -0.19379842281341553
0.8403916358947754 0.17829453945159912 -0.1782945990562439
0.8398634195327759 0.17829453945159912 -0.1627907156944275
0.8390984535217285 0.17829453945159912 -0.14728683233261108
0.8381761312484741 0.17829453945159912 -0.13178294897079468
0.8378679752349854 0.17829453945159912 -0.11627906560897827
0.838543176651001 0.17829453945159912 -0.10077518224716187
0.8395092487335205 0.17829453945159912 -0.08527129888534546
0.8405520915985107 0.17829453945159912 -0.06976741552352905
0.8417981266975403 0.17829453945159912 -0.05426359176635742
0.8431895971298218 0.17829453945159912 -0.038759708404541016
0.8442654013633728 0.19379842281341553 -0.3488371968269348
0.8429180979728699 0.19379842281341553 -0.3333333134651184
0.8418196439743042 0.19379842281341553 -0.317829430103302
0.8409510254859924 0.19379842281341553 -0.30232560634613037
0.8399567604064941 0.19379842281341553 -0.28682172298431396
0.8388563394546509 0.19379842281341553 -0.27131783962249756
0.8387627601623535 0.19379842281341553 -0.25581395626068115
0.839060366153717 0.19379842281341553 -0.24031007289886475
0.8389053344726562 0.19379842281341553 -0.22480618953704834
0.8382891416549683 0.19379842281341553 -0.20930230617523193
0.8376549482345581 0.19379842281341553 -0.19379842281341553
0.8369437456130981 0.19379842281341553 -0.1782945990562439
0.8364672064781189 0.19379842281341553 -0.1627907156944275
0.835635244846344 0.19379842281341553 -0.14728683233261108
0.8344283103942871 0.19379842281341553 -0.13178294897079468
0.8342142105102539 0.19379840791225433 -0.11627906560897827
0.8356221914291382 0.19379842281341553 -0.10077518224716187
0.8372528553009033 0.19379842281341553 -0.08527129888534546
0.8391010761260986 0.19379842281341553 -0.06976741552352905
0.841694712638855 0.19379842281341553 -0.05426359176635742
0.8447080850601196 0.19379842281341553 -0.038759708404541016
0.8436709642410278 0.20930230617523193 -0.41085273027420044
0.8424959182739258 0.20930230617523193 -0.39534884691238403
0.841262936592102 0.20930230617523193 -0.3798449635505676
0.8403372168540955 0.20930230617523193 -0.3643410801887512
0.83925461769104 0.20930230617523193 -0.3488371968269348
0.838401734828949 0.20930230617523193 -0.3333333134651184
0.8377194404602051 0.20930230617523193 -0.317829430103302
0.8371989727020264 0.20930230617523193 -0.30232560634613037
0.8365125060081482 0.20930230617523193 -0.28682172298431396
0.8353965282440186 0.20930230617523193 -0.27131783962249756
0.8352035284042358 0.20930230617523193 -0.25581395626068115
0.8354711532592773 0.20930230617523193 -0.24031007289886475
0.835031270980835 0.20930230617523193 -0.22480618953704834
0.8341413736343384 0.20930230617523193 -0.20930230617523193
0.8336974382400513 0.20930230617523193 -0.19379842281341553
