-0.31412550806999207 -0.1782945990562439 -0.6279070377349854
-0.31494343280792236 -0.1782945990562439 -0.6124030947685242
-0.31586816906929016 -0.1782945990562439 -0.5968992114067078
-0.3171387016773224 -0.1782945990562439 -0.5813953876495361
-0.3173739016056061 -0.1782945990562439 -0.4573643207550049
-0.316156268119812 -0.1782945990562439 -0.4418604373931885
-0.3155171275138855 -0.1782945990562439 -0.42635661363601685
-0.3150847554206848 -0.1782945990562439 -0.4108527600765228
-0.3150480091571808 -0.1782945990562439 -0.3953488767147064
-0.3152676820755005 -0.1782945990562439 -0.3798449635505676
-0.3158971965312958 -0.1782945990562439 -0.3643410801887512
-0.31725141406059265 -0.1782945990562439 -0.3488371670246124
-0.3159070611000061 -0.1782945990562439 -0.22480620443820953
-0.3137957453727722 -0.1782945990562439 -0.20930230617523193
-0.3127385973930359 -0.1782945990562439 -0.19379842281341553
-0.3119316101074219 -0.1782945990562439 -0.1782945990562439
-0.3118589520454407 -0.1782945990562439 -0.1627907156944275
-0.3126179277896881 -0.1782945990562439 -0.14728683233261108
-0.3142533302307129 -0.1782945990562439 -0.13178294897079468
-0.3172745406627655 -0.1782945990562439 -0.11627906560897827
-0.3170926868915558 -0.1782945990562439 0.42635655403137207
-0.31431156396865845 -0.1782945990562439 0.4418604075908661
-0.3118099868297577 -0.1782945990562439 0.4573643207550049
-0.30875667929649353 -0.1782945990562439 0.4728682041168213
-0.30369263887405396 -0.1782945990562439 0.4883720874786377
-0.30738478899002075 -0.1627907156944275 -0.6899224519729614
-0.31134840846061707 -0.1627907156944275 -0.674418568611145
-0.31433576345443726 -0.1627907156944275 -0.6589146852493286
-0.3171292245388031 -0.1627907007932663 -0.643410861492157
-0.31605786085128784 -0.1627907156944275 -0.22480618953704834
-0.3136572241783142 -0.1627907156944275 -0.20930230617523193
-0.31245020031929016 -0.1627907156944275 -0.19379842281341553
-0.31154000759124756 -0.1627907156944275 -0.1782945990562439
-0.31134849786758423 -0.1627907156944275 -0.1627907156944275
-0.3121529221534729 -0.1627907156944275 -0.14728683233261108
-0.31368422508239746 -0.1627907156944275 -0.13178294897079468
-0.31606701016426086 -0.1627907156944275 -0.11627906560897827
-0.3166317939758301 -0.1627907156944275 0.4418604373931885
-0.3141620457172394 -0.1627907156944275 0.4573643207550049
-0.3116731643676758 -0.1627907156944275 0.4728682041168213
-0.308412104845047 -0.1627907156944275 0.4883720874786377
-0.30263081192970276 -0.1627907156944275 0.5038759708404541
-0.3028445839881897 -0.14728683233261108 -0.7054263353347778
-0.30948710441589355 -0.14728683233261108 -0.6899224519729614
-0.3138670027256012 -0.14728683233261108 -0.674418568611145
-0.3152455687522888 -0.14728683233261108 -0.22480617463588715
-0.31289374828338623 -0.14728683233261108 -0.20930230617523193
-0.3114730417728424 -0.14728683233261108 -0.19379842281341553
-0.31030845642089844 -0.14728683233261108 -0.1782945990562439
-0.30994024872779846 -0.14728683233261108 -0.1627907156944275
-0.3108997344970703 -0.14728683233261108 -0.14728683233261108
-0.3125709295272827 -0.14728683233261108 -0.13178294897079468
-0.3143100142478943 -0.14728683233261108 -0.11627906560897827
-0.3163478970527649 -0.14728683233261108 -0.10077518224716187
-0.31756889820098877 -0.14728683233261108 0.4418604373931885
-0.31515657901763916 -0.14728683233261108 0.4573642909526825
-0.3128858506679535 -0.14728683233261108 0.4728682339191437
-0.3102988600730896 -0.14728683233261108 0.4883720874786377
-0.3053784966468811 -0.14728683233261108 0.5038759708404541
-0.3041735291481018 -0.13178294897079468 -0.7054263353347778
-0.3108758330345154 -0.13178294897079468 -0.6899224519729614
-0.3165197968482971 -0.13178294897079468 -0.674418568611145
-0.3149928152561188 -0.13178294897079468 -0.22480618953704834
-0.3124561607837677 -0.13178294897079468 -0.20930230617523193
-0.3107154667377472 -0.13178294897079468 -0.19379842281341553
-0.3092520833015442 -0.13178294897079468 -0.1782945990562439
-0.30868372321128845 -0.13178294897079468 -0.1627907156944275
-0.30967384576797485 -0.13178294897079468 -0.14728683233261108
-0.31167545914649963 -0.13178294897079468 -0.13178294897079468
-0.31349822878837585 -0.13178294897079468 -0.11627905815839767
-0.315033882856369 -0.13178294897079468 -0.10077518224716187
-0.3165993094444275 -0.13178294897079468 -0.08527130633592606
-0.3173156678676605 -0.13178294897079468 -0.06976741552352905
-0.3169451951980591 -0.13178294897079468 -0.05426359176635742
-0.3171025216579437 -0.13178294897079468 -0.038759712129831314
-0.31678253412246704 -0.13178294897079468 -0.02325582504272461
-0.3167918920516968 -0.13178294897079468 0.4418604075908661
-0.3147757053375244 -0.13178294897079468 0.4573643207550049
-0.3127968907356262 -0.13178294897079468 0.4728682041168213
-0.31049227714538574 -0.13178294897079468 0.4883720874786377
-0.30611324310302734 -0.13178294897079468 0.5038759708404541
-0.30547013878822327 -0.11627906560897827 -0.7054263353347778
-0.312210351228714 -0.11627906560897827 -0.6899224519729614
-0.3147957921028137 -0.11627906560897827 -0.22480620443820953
-0.31199878454208374 -0.11627907305955887 -0.20930230617523193
-0.309937059879303 -0.11627906560897827 -0.19379842281341553
-0.3082429766654968 -0.11627906560897827 -0.1782945990562439
-0.30754750967025757 -0.11627906560897827 -0.1627907156944275
-0.30850914120674133 -0.11627906560897827 -0.14728683233261108
-0.31073498725891113 -0.11627906560897827 -0.13178294897079468
-0.3128198981285095 -0.11627906560897827 -0.11627906560897827
-0.3142409324645996 -0.11627906560897827 -0.10077518224716187
-0.3153800070285797 -0.11627906560897827 -0.08527129888534546
-0.31567567586898804 -0.11627906560897827 -0.06976741552352905
-0.31499946117401123 -0.11627906560897827 -0.05426359176635742
-0.3145206570625305 -0.11627905815839767 -0.038759708404541016
-0.3132709860801697 -0.11627906560897827 -0.02325582504272461
-0.3138324022293091 -0.11627906560897827 -0.007751941680908203
-0.31605011224746704 -0.11627906560897827 0.007751941680908203
-0.3172754645347595 -0.11627906560897827 0.42635655403137207
-0.31526979804039 -0.11627906560897827 0.4418604373931885
-0.31353574991226196 -0.11627906560897827 0.4573643207550049
-0.3118627667427063 -0.11627906560897827 0.4728682041168213
-0.30967170000076294 -0.11627906560897827 0.4883720874786377
-0.30531302094459534 -0.11627906560897827 0.5038759708404541
-0.3068940341472626 -0.10077518224716187 -0.7054263353347778
-0.3137079179286957 -0.10077518969774246 -0.6899224519729614
-0.31483346223831177 -0.10077518224716187 -0.22480618953704834
-0.31186726689338684 -0.10077518224716187 -0.20930230617523193
-0.3096112608909607 -0.10077518224716187 -0.19379842281341553
-0.30783811211586 -0.10077518224716187 -0.1782945990562439
-0.3071349561214447 -0.10077518224716187 -0.1627907156944275
-0.3080626428127289 -0.10077518224716187 -0.14728683233261108
-0.31031352281570435 -0.10077518224716187 -0.13178294897079468
-0.3125254213809967 -0.10077518224716187 -0.11627906560897827
-0.31392091512680054 -0.10077518224716187 -0.10077518224716187
-0.31485000252723694 -0.10077518224716187 -0.08527129888534546
-0.3148597478866577 -0.10077518224716187 -0.06976741552352905
-0.3137607276439667 -0.10077518224716187 -0.05426359176635742
-0.3127492666244507 -0.10077518224716187 -0.038759708404541016
-0.310982346534729 -0.10077518224716187 -0.02325582504272461
-0.31082308292388916 -0.10077518224716187 -0.007751941680908203
-0.3118405342102051 -0.10077518224716187 0.007751941680908203
-0.31554901599884033 -0.10077518224716187 0.02325582504272461
-0.31732237339019775 -0.10077518224716187 0.4108526408672333
-0.3151842951774597 -0.10077518969774246 0.42635658383369446
-0.31359878182411194 -0.10077518224716187 0.4418604373931885
-0.31215381622314453 -0.10077518224716187 0.45736435055732727
-0.3106660544872284 -0.10077518224716187 0.4728682041168213
-0.308210551738739 -0.10077518224716187 0.4883720874786377
-0.3038560450077057 -0.10077518224716187 0.5038759708404541
-0.3085149824619293 -0.08527129888534546 -0.7054263353347778
-0.31538042426109314 -0.08527130633592606 -0.6899225115776062
-0.3149035573005676 -0.08527129888534546 -0.22480618953704834
-0.31191539764404297 -0.08527129888534546 -0.20930230617523193
-0.3096190094947815 -0.08527129888534546 -0.19379842281341553
-0.3078901469707489 -0.08527129888534546 -0.1782945990562439
-0.30729350447654724 -0.08527129888534546 -0.1627907156944275
-0.30828791856765747 -0.08527129888534546 -0.14728683233261108
-0.31052905321121216 -0.08527129888534546 -0.13178294897079468
-0.3127360939979553 -0.08527129888534546 -0.11627906560897827
-0.31413424015045166 -0.08527129888534546 -0.10077518224716187
-0.3150429129600525 -0.08527129888534546 -0.08527129888534546
-0.3150167763233185 -0.08527129888534546 -0.06976741552352905
-0.31383880972862244 -0.08527129888534546 -0.05426359176635742
-0.3126845955848694 -0.08527129888534546 -0.038759708404541016
-0.3106542229652405 -0.08527129888534546 -0.02325582504272461
-0.31023597717285156 -0.08527129888534546 -0.007751941680908203
-0.3109334111213684 -0.08527129888534546 0.007751941680908203
-0.3142456114292145 -0.08527129888534546 0.02325582504272461
-0.31526416540145874 -0.08527129888534546 0.41085267066955566
-0.3135508894920349 -0.08527129888534546 0.42635655403137207
-0.3122090697288513 -0.08527129888534546 0.4418604373931885
-0.31090059876441956 -0.08527129888534546 0.4573643207550049
-0.3092939257621765 -0.08527129888534546 0.4728682041168213
-0.30637413263320923 -0.08527129888534546 0.4883720874786377
-0.30253756046295166 -0.08527129888534546 0.5038759708404541
-0.30252572894096375 -0.06976741552352905 -0.7209302186965942
-0.3101004660129547 -0.06976741552352905 -0.7054263353347778
-0.3176776170730591 -0.06976741552352905 -0.6899224519729614
-0.3151939809322357 -0.06976741552352905 -0.22480618953704834
-0.3123524785041809 -0.06976741552352905 -0.20930230617523193
-0.31017595529556274 -0.06976741552352905 -0.19379842281341553
-0.3086216449737549 -0.06976741552352905 -0.1782945990562439
-0.3082474172115326 -0.06976741552352905 -0.1627907156944275
-0.309381902217865 -0.06976741552352905 -0.14728683233261108
-0.31157755851745605 -0.06976741552352905 -0.13178294897079468
-0.3136686384677887 -0.06976741552352905 -0.11627906560897827
-0.31517472863197327 -0.06976741552352905 -0.10077518224716187
-0.31638866662979126 -0.06976741552352905 -0.08527129888534546
-0.31679314374923706 -0.06976741552352905 -0.06976741552352905
-0.31609073281288147 -0.06976741552352905 -0.05426359176635742
-0.31527453660964966 -0.06976741552352905 -0.038759708404541016
-0.31284216046333313 -0.06976741552352905 -0.02325582318007946
-0.312372624874115 -0.06976741552352905 -0.00775194214656949
-0.3135611414909363 -0.06976741552352905 0.007751941680908203
-0.3173723518848419 -0.06976741552352905 0.39534878730773926
-0.3144758939743042 -0.06976741552352905 0.4108526408672333
-0.31288638710975647 -0.06976741552352905 0.42635655403137207
-0.3116098642349243 -0.06976741552352905 0.4418604373931885
-0.31030213832855225 -0.06976741552352905 0.4573643207550049
-0.30853167176246643 -0.06976741552352905 0.4728682041168213
-0.3054545521736145 -0.06976741552352905 0.4883720874786377
-0.30470165610313416 -0.05426359176635742 -0.7209302186965942
-0.3118361234664917 -0.05426359176635742 -0.7054263353347778
-0.3157199025154114 -0.05426358804106712 -0.22480618953704834
-0.31305891275405884 -0.05426359176635742 -0.20930232107639313
-0.31113237142562866 -0.05426359176635742 -0.19379842281341553
-0.30983686447143555 -0.05426359176635742 -0.1782945990562439
-0.3097747564315796 -0.05426359176635742 -0.1627907156944275
-0.31104907393455505 -0.05426359176635742 -0.14728683233261108
-0.3131171762943268 -0.05426359176635742 -0.13178294897079468
-0.31516239047050476 -0.05426359549164772 -0.11627906560897827
-0.31717392802238464 -0.05426359176635742 -0.10077518224716187
-0.317440927028656 -0.05426359176635742 0.39534878730773926
-0.3145483136177063 -0.05426359176635742 0.41085267066955566
-0.31295597553253174 -0.05426359176635742 0.42635655403137207
-0.3116803765296936 -0.05426359176635742 0.4418604373931885
-0.31037992238998413 -0.05426359176635742 0.4573643207550049
-0.30863893032073975 -0.05426359176635742 0.4728682041168213
-0.30555474758148193 -0.05426359176635742 0.4883720874786377
-0.307017058134079 -0.038759708404541016 -0.7209302186965942
-0.3137359321117401 -0.038759708404541016 -0.7054263353347778
-0.31764888763427734 -0.038759708404541016 -0.22480617463588715
-0.3145848214626312 -0.038759708404541016 -0.20930230617523193
-0.3130373954772949 -0.038759708404541016 -0.19379840791225433
-0.31218820810317993 -0.038759708404541016 -0.1782945990562439
-0.3124496340751648 -0.038759708404541016 -0.1627907156944275
-0.31371843814849854 -0.038759708404541016 -0.14728683233261108
-0.31583118438720703 -0.038759708404541016 -0.13178294897079468
-0.3155476152896881 -0.038759708404541016 0.41085267066955566
-0.3138120472431183 -0.038759708404541016 0.42635655403137207
-0.3124412000179291 -0.038759708404541016 0.4418604373931885
-0.3111024796962738 -0.038759708404541016 0.4573643207550049
-0.30951619148254395 -0.038759708404541016 0.4728682041168213
-0.3065893054008484 -0.038759708404541016 0.4883720874786377
-0.302722305059433 -0.038759708404541016 0.5038759708404541
-0.3094063997268677 -0.02325582504272461 -0.7209302186965942
-0.315997838973999 -0.02325582504272461 -0.7054263353347778
-0.31624650955200195 -0.02325582504272461 -0.19379842281341553
-0.31558194756507874 -0.02325582504272461 -0.1782945990562439
-0.31619521975517273 -0.02325582504272461 -0.1627907156944275
-0.3167349696159363 -0.02325582504272461 0.41085267066955566
-0.31484636664390564 -0.02325582504272461 0.42635655403137207
-0.3133504092693329 -0.02325582504272461 0.4418604373931885
-0.31191685795783997 -0.02325582504272461 0.4573643207550049
-0.31042003631591797 -0.02325582504272461 0.4728682041168213
-0.3078201413154602 -0.02325582504272461 0.4883720874786377
-0.3035839796066284 -0.02325582504272461 0.5038759708404541
-0.3037455677986145 -0.007751941680908203 -0.7364341020584106
-0.31226587295532227 -0.007751941680908203 -0.7209302186965942
-0.31596073508262634 -0.007751941680908203 0.4263565242290497
-0.3144146203994751 -0.007751941680908203 0.4418604373931885
-0.3128384053707123 -0.007751941680908203 0.4573643207550049
-0.3113133907318115 -0.007751941680908203 0.4728682041168213
-0.3089507818222046 -0.007751941680908203 0.4883720874786377
-0.3045709431171417 -0.007751941680908203 0.5038759708404541
-0.30820411443710327 0.007751941680908203 -0.7364341020584106
-0.31477710604667664 0.007751941680908203 -0.7209302186965942
-0.31604889035224915 0.007751941215246916 0.4263565242290497
-0.3145239055156708 0.007751941680908203 0.4418604373931885
-0.3129129707813263 0.007751941680908203 0.4573643207550049
-0.31134486198425293 0.00775194214656949 0.4728682041168213
-0.3087679445743561 0.007751941680908203 0.4883720874786377
-0.30425846576690674 0.007751941680908203 0.5038759708404541
-0.30933839082717896 0.02325582504272461 -0.7364341020584106
-0.31566211581230164 0.02325582504272461 -0.7209302186965942
-0.31618520617485046 0.02325582504272461 0.41085267066955566
-0.3144366145133972 0.02325582504272461 0.42635655403137207
-0.3130263090133667 0.02325582504272461 0.4418604373931885
-0.31150129437446594 0.02325582504272461 0.4573643207550049
-0.3095727562904358 0.02325582504272461 0.4728682041168213
-0.3059852719306946 0.02325582504272461 0.4883720874786377
-0.3024159371852875 0.02325582504272461 0.5038759708404541
-0.3091578781604767 0.038759708404541016 -0.7364341020584106
-0.3155776262283325 0.038759708404541016 -0.7209302186965942
-0.31497466564178467 0.038759708404541016 0.39534878730773926
-0.31290438771247864 0.038759708404541016 0.41085267066955566
-0.3115221858024597 0.038759708404541016 0.42635655403137207
-0.31005948781967163 0.038759708404541016 0.4418604373931885
-0.30754685401916504 0.038759708404541016 0.4573643207550049
-0.3045857846736908 0.038759708404541016 0.4728682041168213
-0.3083590865135193 0.05426359176635742 -0.7364341020584106
-0.31505709886550903 0.05426359176635742 -0.7209302186965942
-0.31699076294898987 0.05426359549164772 -0.19379842281341553
-0.3162544071674347 0.05426359549164772 -0.1782946139574051
-0.31610560417175293 0.05426359176635742 -0.1627907007932663
-0.3167625367641449 0.05426359176635742 -0.14728683233261108
-0.31647989153862 0.05426358804106712 0.364341139793396
-0.31322383880615234 0.05426359176635742 0.37984490394592285
-0.3108329474925995 0.05426359176635742 0.39534878730773926
-0.3085562288761139 0.05426359176635742 0.41085267066955566
-0.3062322437763214 0.05426359176635742 0.42635655403137207
-0.3041096329689026 0.05426359176635742 0.4418604373931885
-0.30626410245895386 0.06976747512817383 -0.7364341020584106
-0.3139491677284241 0.06976747512817383 -0.7209302186965942
-0.31740623712539673 0.06976747512817383 -0.22480618953704834
-0.3155231475830078 0.06976747512817383 -0.20930230617523193
-0.31401410698890686 0.06976747512817383 -0.19379840791225433
-0.31299155950546265 0.06976747512817383 -0.1782945990562439
-0.3126062750816345 0.06976747512817383 -0.1627907156944275
-0.3130428194999695 0.06976747512817383 -0.14728683233261108
-0.31432706117630005 0.06976747512817383 -0.13178294897079468
-0.3159330487251282 0.06976747512817383 -0.11627906560897827
-0.3173878490924835 0.06976747512817383 -0.10077518224716187
-0.3138684332370758 0.06976747512817383 0.3488372564315796
-0.3107735514640808 0.06976747512817383 0.364341139793396
-0.30754607915878296 0.06976747512817383 0.37984490394592285
-0.30416548252105713 0.06976747512817383 0.39534878730773926
-0.3038772940635681 0.08527135848999023 -0.7364341020584106
-0.3125462532043457 0.08527135848999023 -0.7209302186965942
-0.31613364815711975 0.08527135848999023 -0.24031007289886475
-0.3144384026527405 0.08527136594057083 -0.22480618953704834
-0.31232425570487976 0.08527135848999023 -0.20930230617523193
-0.310638964176178 0.08527135848999023 -0.19379842281341553
-0.30915093421936035 0.08527135848999023 -0.1782945990562439
-0.30845773220062256 0.08527135848999023 -0.1627907156944275
-0.30899059772491455 0.08527135848999023 -0.14728683233261108
-0.310323029756546 0.08527135848999023 -0.13178294897079468
-0.31188857555389404 0.08527135848999023 -0.11627907305955887
-0.3132222890853882 0.08527135848999023 -0.10077518224716187
-0.3142714500427246 0.08527135848999023 -0.08527129888534546
-0.3150046169757843 0.08527135848999023 -0.06976741552352905
-0.31545719504356384 0.08527135848999023 -0.05426359176635742
-0.3156968951225281 0.08527135848999023 -0.038759708404541016
-0.3155520260334015 0.08527135848999023 -0.02325582504272461
-0.3165578246116638 0.08527135848999023 -0.007751941680908203
-0.3130403161048889 0.08527135848999023 0.3333333730697632
-0.30892089009284973 0.08527135848999023 0.3488372564315796
-0.30463191866874695 0.08527135848999023 0.364341139793396
-0.31024929881095886 0.10077524185180664 -0.7209302186965942
-0.3156590461730957 0.10077524930238724 -0.7054263949394226
-0.3169828951358795 0.10077524185180664 -0.27131780982017517
-0.3154257535934448 0.10077524185180664 -0.25581395626068115
-0.3136252760887146 0.10077524185180664 -0.24031007289886475
-0.31155699491500854 0.10077524185180664 -0.22480617463588715
-0.30913907289505005 0.10077524185180664 -0.20930230617523193
-0.3064473271369934 0.10077524185180664 -0.19379842281341553
-0.3043402433395386 0.10077524185180664 -0.1782945990562439
-0.30348628759384155 0.10077524185180664 -0.1627907156944275
-0.30399882793426514 0.10077524185180664 -0.14728683233261108
-0.30589956045150757 0.10077524185180664 -0.13178294897079468
-0.30834925174713135 0.10077524185180664 -0.11627906560897827
-0.30990147590637207 0.10077524185180664 -0.10077518224716187
-0.3109976649284363 0.10077524185180664 -0.08527129888534546
-0.3116666078567505 0.10077524185180664 -0.06976741552352905
-0.31169313192367554 0.10077524185180664 -0.05426359176635742
-0.3114740252494812 0.10077524185180664 -0.038759708404541016
-0.3109634518623352 0.10077524185180664 -0.02325582504272461
-0.31115326285362244 0.10077524185180664 -0.007751941215246916
-0.31206464767456055 0.10077524185180664 0.007751941680908203
-0.31380900740623474 0.10077524185180664 0.02325582318007946
-0.3167668282985687 0.10077524185180664 0.038759708404541016
-0.3133763074874878 0.10077524930238724 0.3178294897079468
-0.30838680267333984 0.10077524185180664 0.3333333730697632
-0.3035527169704437 0.10077524185180664 0.3488372564315796
-0.3069078028202057 0.11627912521362305 -0.7209302186965942
-0.3128293752670288 0.11627913266420364 -0.7054263353347778
-0.31700757145881653 0.11627912521362305 -0.30232560634613037
-0.3160264492034912 0.11627913266420364 -0.28682172298431396
-0.3149051070213318 0.11627912521362305 -0.27131783962249756
-0.3132721185684204 0.11627912521362305 -0.25581395626068115
-0.3112524151802063 0.11627912521362305 -0.24031007289886475
-0.3089168071746826 0.11627912521362305 -0.22480618953704834
-0.30563461780548096 0.11627912521362305 -0.20930230617523193
-0.3031330108642578 0.11627912521362305 -0.19379842281341553
-0.3025296926498413 0.11627912521362305 -0.13178294897079468
-0.3046876788139343 0.11627912521362305 -0.11627906560897827
-0.30655601620674133 0.11627912521362305 -0.10077518224716187
-0.3079128861427307 0.11627912521362305 -0.08527129888534546
-0.3084828853607178 0.11627912521362305 -0.06976741552352905
-0.30807316303253174 0.11627912521362305 -0.05426359176635742
-0.30729609727859497 0.11627912521362305 -0.038759708404541016
-0.30613279342651367 0.11627912521362305 -0.02325582504272461
-0.3062303066253662 0.11627912521362305 -0.007751941680908203
-0.30743855237960815 0.11627912521362305 0.007751941680908203
-0.309565007686615 0.11627912521362305 0.02325582504272461
-0.31182605028152466 0.11627912521362305 0.038759708404541016
-0.3140273690223694 0.11627912521362305 0.05426359176635742
-0.3166391849517822 0.11627911776304245 0.06976747512817383
-0.31366559863090515 0.11627912521362305 0.30232560634613037
-0.30849796533584595 0.11627912521362305 0.3178294897079468
-0.3029126822948456 0.11627912521362305 0.3333333730697632
-0.30390098690986633 0.1317828893661499 -0.7209302186965942
-0.3106648921966553 0.1317828893661499 -0.7054263353347778
-0.31680935621261597 0.1317828893661499 -0.6899224519729614
-0.31768637895584106 0.1317828744649887 -0.36434105038642883
-0.3167943060398102 0.1317828893661499 -0.3488371968269348
-0.3163023591041565 0.1317828893661499 -0.3333333134651184
-0.3159840703010559 0.1317828893661499 -0.317829430103302
-0.3154718577861786 0.1317828893661499 -0.30232560634613037
-0.3146563172340393 0.1317828893661499 -0.28682172298431396
-0.31307464838027954 0.1317828893661499 -0.27131783962249756
-0.3113473057746887 0.1317828893661499 -0.25581395626068115
-0.3091081976890564 0.1317828893661499 -0.24031007289886475
-0.3061516284942627 0.1317828893661499 -0.22480618953704834
-0.30324265360832214 0.1317828893661499 -0.20930230617523193
-0.30254867672920227 0.1317828893661499 -0.11627906560897827
-0.3038043975830078 0.1317828893661499 -0.10077518224716187
-0.30470743775367737 0.1317828893661499 -0.08527129888534546
-0.3047695755958557 0.1317828893661499 -0.06976741552352905
-0.30382993817329407 0.1317828893661499 -0.05426359176635742
-0.30280181765556335 0.1317828893661499 -0.038759708404541016
-0.3025486171245575 0.1317828893661499 0.007751941680908203
-0.304736465215683 0.1317828893661499 0.02325582504272461
-0.3079427480697632 0.1317828893661499 0.038759708404541016
-0.310333251953125 0.1317828893661499 0.05426359176635742
-0.3125130236148834 0.1317828893661499 0.06976747512817383
-0.31384244561195374 0.1317828893661499 0.08527136594057083
-0.3149207830429077 0.1317828893661499 0.10077524185180664
-0.3156529664993286 0.1317828893661499 0.11627911776304245
-0.31674644351005554 0.1317828893661499 0.1317828893661499
-0.3166944086551666 0.1317828893661499 0.27131783962249756
-0.3126875162124634 0.1317828893661499 0.28682172298431396
-0.30823081731796265 0.1317828893661499 0.30232560634613037
-0.3026166260242462 0.1317828893661499 0.3178294897079468
-0.3086514472961426 0.1472867727279663 -0.7054263353347778
-0.3138713836669922 0.1472867727279663 -0.6899224519729614
-0.31757211685180664 0.1472867727279663 -0.3798449635505676
-0.31651121377944946 0.14728675782680511 -0.36434105038642883
-0.3159104883670807 0.1472867727279663 -0.3488371968269348
-0.3155525326728821 0.1472867727279663 -0.3333333134651184
-0.31529441475868225 0.1472867727279663 -0.317829430103302
-0.3147268295288086 0.1472867727279663 -0.30232560634613037
-0.31359371542930603 0.1472867727279663 -0.28682172298431396
-0.31191909313201904 0.1472867727279663 -0.27131783962249756
-0.3102008104324341 0.1472867727279663 -0.25581395626068115
-0.3075920641422272 0.1472867727279663 -0.24031007289886475
-0.3048444986343384 0.1472867727279663 -0.22480618953704834
-0.3025602698326111 0.1472867727279663 -0.20930230617523193
-0.30298131704330444 0.1472867727279663 -0.10077518224716187
-0.30329984426498413 0.1472867727279663 -0.08527129888534546
-0.3028510510921478 0.1472867727279663 -0.06976741552352905
-0.30405712127685547 0.1472867727279663 0.038759708404541016
-0.3067232072353363 0.1472867727279663 0.05426359176635742
-0.30890727043151855 0.1472867727279663 0.06976747512817383
-0.3101446032524109 0.1472867727279663 0.08527135848999023
-0.3110239505767822 0.1472867727279663 0.10077524185180664
-0.31146150827407837 0.1472867727279663 0.11627912521362305
-0.3121999204158783 0.1472867727279663 0.1317828893661499
-0.3128345310688019 0.1472867727279663 0.1472867727279663
-0.31357401609420776 0.1472867727279663 0.16279065608978271
-0.3146935701370239 0.1472867727279663 0.17829453945159912
-0.31550902128219604 0.1472867727279663 0.19379842281341553
-0.31588882207870483 0.1472867727279663 0.20930230617523193
-0.3154483139514923 0.1472867727279663 0.22480618953704834
-0.3143438696861267 0.1472867727279663 0.24031007289886475
-0.3124886751174927 0.1472867727279663 0.25581395626068115
-0.3099408745765686 0.1472867727279663 0.27131783962249756
-0.30557164549827576 0.1472867727279663 0.28682172298431396
-0.3071075677871704 0.16279065608978271 -0.7054263353347778
-0.3121858835220337 0.16279065608978271 -0.6899224519729614
-0.3168523907661438 0.16279065608978271 -0.3798449635505676
-0.3160260021686554 0.16279065608978271 -0.3643410801887512
-0.31555086374282837 0.16279065608978271 -0.3488372266292572
-0.3152393698692322 0.16279065608978271 -0.3333333134651184
-0.3149600625038147 0.16279065608978271 -0.317829430103302
-0.31428107619285583 0.16279065608978271 -0.30232560634613037
-0.31301939487457275 0.16279065608978271 -0.28682172298431396
-0.3113703727722168 0.16279065608978271 -0.27131783962249756
-0.30957716703414917 0.16279065608978271 -0.25581395626068115
-0.3070768117904663 0.16279065608978271 -0.24031007289886475
-0.30474627017974854 0.16279065608978271 -0.22480618953704834
-0.30284583568573 0.16279065608978271 -0.20930230617523193
-0.30290326476097107 0.16279065608978271 -0.11627906560897827
-0.30335190892219543 0.16279065608978271 -0.10077518224716187
-0.3032827377319336 0.16279065608978271 -0.08527129888534546
-0.3025059103965759 0.16279065608978271 -0.06976741552352905
-0.30412253737449646 0.16279065608978271 0.05426359176635742
-0.30599188804626465 0.16279065608978271 0.06976747512817383
-0.30688607692718506 0.16279065608978271 0.08527135848999023
-0.3073277771472931 0.16279065608978271 0.10077524185180664
-0.30735310912132263 0.16279065608978271 0.11627912521362305
-0.3077256381511688 0.16279065608978271 0.1317828893661499
-0.30796781182289124 0.16279065608978271 0.1472867727279663
-0.30816546082496643 0.16279065608978271 0.16279065608978271
-0.3084906041622162 0.16279065608978271 0.17829453945159912
-0.3085797131061554 0.16279065608978271 0.19379842281341553
-0.30836692452430725 0.16279065608978271 0.20930230617523193
-0.3075960576534271 0.16279065608978271 0.22480618953704834
-0.30610379576683044 0.16279065608978271 0.24031007289886475
-0.30383697152137756 0.16279065608978271 0.25581395626068115
-0.30579936504364014 0.17829453945159912 -0.7054263353347778
-0.31153619289398193 0.17829453945159912 -0.6899224519729614
-0.3160064220428467 0.17829452455043793 -0.6744185090065002
-0.31767791509628296 0.17829455435276031 -0.39534884691238403
-0.3162400722503662 0.17829455435276031 -0.3798449635505676
-0.31561174988746643 0.17829453945159912 -0.3643410801887512
-0.3152431547641754 0.17829455435276031 -0.3488371968269348
-0.314964234828949 0.17829455435276031 -0.3333333134651184
-0.314683735370636 0.17829453945159912 -0.3178294003009796
-0.31396251916885376 0.17829453945159912 -0.30232560634613037
-0.3126574754714966 0.17829453945159912 -0.28682172298431396
-0.31102222204208374 0.17829453945159912 -0.27131783962249756
-0.3092801570892334 0.17829453945159912 -0.25581395626068115
-0.30702459812164307 0.17829453945159912 -0.24031007289886475
-0.3050096035003662 0.17829453945159912 -0.22480618953704834
-0.30339139699935913 0.17829453945159912 -0.20930230617523193
-0.30252429842948914 0.17829453945159912 -0.19379842281341553
-0.30295902490615845 0.17829453945159912 -0.13178294897079468
-0.3037700653076172 0.17829453945159912 -0.11627906560897827
-0.3040165305137634 0.17829453945159912 -0.10077518224716187
-0.3037169277667999 0.17829453945159912 -0.08527129888534546
-0.3027559518814087 0.17829453945159912 -0.06976741552352905
-0.30285853147506714 0.17829453945159912 0.05426359176635742
-0.304085373878479 0.17829453945159912 0.06976747512817383
-0.3045607805252075 0.17829453945159912 0.08527135848999023
-0.3045700788497925 0.17829453945159912 0.10077524185180664
-0.3041777014732361 0.17829453945159912 0.11627912521362305
-0.3040692210197449 0.17829453945159912 0.1317828893661499
-0.3037518858909607 0.17829453945159912 0.1472867727279663
-0.30320748686790466 0.17829453945159912 0.16279065608978271
-0.3025403320789337 0.17829453945159912 0.17829453945159912
-0.30401140451431274 0.19379842281341553 -0.7054263353347778
-0.31042230129241943 0.19379842281341553 -0.6899224519729614
-0.3136267364025116 0.19379842281341553 -0.674418568611145
-0.31742194294929504 0.19379842281341553 -0.6589146852493286
-0.31744077801704407 0.19379842281341553 -0.41085273027420044
-0.3159200847148895 0.19379842281341553 -0.39534884691238403
-0.3148367404937744 0.19379842281341553 -0.3798449635505676
-0.31428444385528564 0.19379842281341553 -0.3643410801887512
-0.31397324800491333 0.19379842281341553 -0.3488371968269348
-0.31372272968292236 0.19379842281341553 -0.3333333134651184
-0.31345951557159424 0.19379842281341553 -0.317829430103302
-0.31274184584617615 0.19379842281341553 -0.30232560634613037
-0.311562716960907 0.19379842281341553 -0.28682172298431396
-0.31010186672210693 0.19379842281341553 -0.27131783962249756
-0.3083610534667969 0.19379842281341553 -0.25581395626068115
-0.30629509687423706 0.19379842281341553 -0.24031007289886475
-0.304608017206192 0.19379842281341553 -0.22480618953704834
-0.30332714319229126 0.19379842281341553 -0.20930230617523193
-0.3026616871356964 0.19379842281341553 -0.19379842281341553
-0.3025917410850525 0.19379842281341553 -0.14728683233261108
-0.3031647503376007 0.19379842281341553 -0.13178294897079468
-0.30382972955703735 0.19379842281341553 -0.11627906560897827
-0.30395737290382385 0.19379842281341553 -0.10077518224716187
-0.30361101031303406 0.19379842281341553 -0.08527129888534546
-0.3027157783508301 0.19379842281341553 -0.06976741552352905
-0.30242565274238586 0.19379842281341553 0.06976747512817383
-0.30250468850135803 0.19379842281341553 0.08527135848999023
-0.30730852484703064 0.20930230617523193 -0.6899224519729614
-0.31174910068511963 0.20930230617523193 -0.674418568611145
-0.3135595917701721 0.20930232107639313 -0.6589146852493286
-0.3152523934841156 0.20930230617523193 -0.643410861492157
-0.31661126017570496 0.20930229127407074 -0.6279069781303406
-0.31770291924476624 0.20930232107639313 -0.6124030947685242
-0.31734293699264526 0.20930230617523193 -0.4418604373931885
-0.31552380323410034 0.20930230617523193 -0.42635661363601685
-0.31375551223754883 0.20930230617523193 -0.41085273027420044
-0.31248539686203003 0.20930230617523193 -0.39534884691238403
-0.31164801120758057 0.20930230617523193 -0.3798449635505676
-0.311275839805603 0.20930230617523193 -0.3643410801887512
-0.31109875440597534 0.20930230617523193 -0.3488371968269348
-0.3109702467918396 0.20930230617523193 -0.3333333134651184
-0.3108518719673157 0.20930230617523193 -0.317829430103302
-0.31042203307151794 0.20930230617523193 -0.30232560634613037
-0.30953118205070496 0.20930230617523193 -0.28682172298431396
-0.30802857875823975 0.20930230617523193 -0.27131783962249756
-0.3062966465950012 0.20930230617523193 -0.25581395626068115
-0.3047148585319519 0.20930230617523193 -0.24031007289886475
-0.3035469353199005 0.20930230617523193 -0.22480618953704834
-0.3026897609233856 0.20930230617523193 -0.20930230617523193
-0.3027181029319763 0.20930230617523193 -0.13178294897079468
-0.30323731899261475 0.20930230617523193 -0.11627906560897827
-0.30331680178642273 0.20930230617523193 -0.10077518224716187
-0.30303168296813965 0.20930230617523193 -0.08527129888534546
-0.3049587905406952 0.22480618953704834 -0.674418568611145
-0.3073657155036926 0.22480618953704834 -0.6589146852493286
-0.308469295501709 0.22480618953704834 -0.643410861492157
-0.3087407350540161 0.22480618953704834 -0.6279069781303406
-0.3086969256401062 0.22480618953704834 -0.6124030947685242
-0.3089219927787781 0.22480618953704834 -0.5968992114067078
-0.3096679449081421 0.22480618953704834 -0.5813953876495361
-0.31029012799263 0.22480618953704834 -0.5658915042877197
-0.3108774423599243 0.22480618953704834 -0.5503876209259033
-0.3113522231578827 0.22480618953704834 -0.5348837375640869
-0.3117220401763916 0.22480618953704834 -0.5193798542022705
-0.3119487762451172 0.22480618953704834 -0.5038759708404541
-0.31185340881347656 0.22480618953704834 -0.4883720874786377
-0.31134384870529175 0.22480618953704834 -0.4728682041168213
-0.3104226589202881 0.22480618953704834 -0.4573643207550049
-0.30910152196884155 0.22480618953704834 -0.4418604373931885
-0.3076320290565491 0.22480618953704834 -0.42635661363601685
-0.30622339248657227 0.22480618953704834 -0.41085273027420044
-0.30524003505706787 0.22480618953704834 -0.39534884691238403
-0.30478236079216003 0.22480618953704834 -0.3798449635505676
-0.30472812056541443 0.22480618953704834 -0.3643410801887512
-0.30483800172805786 0.22480618953704834 -0.3488371968269348
-0.3050021231174469 0.22480618953704834 -0.3333333134651184
-0.3052179217338562 0.22480618953704834 -0.317829430103302
-0.3051227927207947 0.22480618953704834 -0.30232560634613037
-0.3045676350593567 0.22480618953704834 -0.28682172298431396
-0.3037849962711334 0.22480618953704834 -0.27131783962249756
-0.30302080512046814 0.22480618953704834 -0.25581395626068115
-0.2869762182235718 -0.3333333134651184 0.05426359176635742
-0.2877974510192871 -0.3333333134651184 0.06976747512817383
-0.28824394941329956 -0.3333333134651184 0.08527135848999023
-0.2881847023963928 -0.3333333134651184 0.10077524185180664
-0.28771331906318665 -0.3333333134651184 0.11627912521362305
-0.28692811727523804 -0.317829430103302 0.007751941680908203
-0.28803884983062744 -0.317829430103302 0.02325582504272461
-0.28958359360694885 -0.317829430103302 0.038759708404541016
-0.29167911410331726 -0.317829430103302 0.05426359176635742
-0.2936853766441345 -0.317829430103302 0.06976747512817383
-0.295285165309906 -0.317829430103302 0.08527135848999023
-0.29622310400009155 -0.317829430103302 0.10077524185180664
-0.2961800992488861 -0.317829430103302 0.11627912521362305
-0.2953452467918396 -0.317829430103302 0.1317828893661499
-0.29417884349823 -0.317829430103302 0.1472867727279663
-0.2928905785083771 -0.317829430103302 0.16279065608978271
-0.2915074825286865 -0.317829430103302 0.17829453945159912
-0.2898769676685333 -0.317829430103302 0.19379842281341553
-0.2879115343093872 -0.317829430103302 0.20930230617523193
-0.2870993912220001 -0.30232560634613037 -0.13178294897079468
-0.28824323415756226 -0.30232560634613037 -0.11627906560897827
-0.2892650365829468 -0.30232560634613037 -0.10077518224716187
-0.29002267122268677 -0.30232560634613037 -0.08527129888534546
-0.29002732038497925 -0.30232560634613037 -0.06976741552352905
-0.28979912400245667 -0.30232560634613037 -0.05426359176635742
-0.28942614793777466 -0.30232560634613037 -0.038759708404541016
-0.2892880439758301 -0.30232560634613037 -0.02325582504272461
-0.28991666436195374 -0.30232560634613037 -0.007751941680908203
-0.29131224751472473 -0.30232560634613037 0.007751941680908203
-0.29331812262535095 -0.30232560634613037 0.02325582504272461
-0.29566627740859985 -0.30232560634613037 0.038759708404541016
-0.2990768849849701 -0.30232560634613037 0.05426359176635742
-0.30162855982780457 -0.30232560634613037 0.19379842281341553
-0.2981933057308197 -0.30232560634613037 0.20930230617523193
-0.29564031958580017 -0.30232560634613037 0.22480618953704834
-0.29373741149902344 -0.30232560634613037 0.24031007289886475
-0.2917071282863617 -0.30232560634613037 0.25581395626068115
-0.28951215744018555 -0.30232560634613037 0.27131783962249756
-0.28706851601600647 -0.30232560634613037 0.28682172298431396
-0.28713274002075195 -0.28682172298431396 -0.1782945990562439
-0.2882867157459259 -0.28682172298431396 -0.1627907156944275
-0.2899223864078522 -0.28682172298431396 -0.14728683233261108
-0.2921159565448761 -0.28682172298431396 -0.13178294897079468
-0.2936752438545227 -0.28682172298431396 -0.11627906560897827
-0.29460179805755615 -0.28682172298431396 -0.10077518224716187
-0.29519525170326233 -0.28682172298431396 -0.08527129888534546
-0.29535263776779175 -0.28682172298431396 -0.06976741552352905
-0.2953447699546814 -0.28682172298431396 -0.05426359176635742
-0.29518812894821167 -0.28682172298431396 -0.038759708404541016
-0.295137882232666 -0.28682172298431396 -0.02325582504272461
-0.29574477672576904 -0.28682172298431396 -0.007751941680908203
-0.2973756790161133 -0.28682172298431396 0.007751941680908203
-0.30088624358177185 -0.28682172298431396 0.02325582504272461
-0.301204115152359 -0.28682172298431396 0.27131783962249756
-0.29703524708747864 -0.28682172298431396 0.28682172298431396
-0.2939065396785736 -0.28682172298431396 0.30232560634613037
-0.29089027643203735 -0.28682172298431396 0.3178294897079468
-0.28768500685691833 -0.28682172298431396 0.3333333730697632
-0.2874535918235779 -0.27131783962249756 -0.30232560634613037
-0.28895294666290283 -0.27131783962249756 -0.28682172298431396
-0.2900386452674866 -0.27131783962249756 -0.27131783962249756
-0.2907453179359436 -0.27131783962249756 -0.25581395626068115
-0.2911294102668762 -0.27131783962249756 -0.24031007289886475
-0.2911287546157837 -0.27131783962249756 -0.22480618953704834
-0.2913322150707245 -0.27131783962249756 -0.20930230617523193
-0.29203787446022034 -0.27131783962249756 -0.19379842281341553
-0.2925521731376648 -0.27131783962249756 -0.1782945990562439
-0.29366040229797363 -0.27131783962249756 -0.1627907156944275
-0.2947896420955658 -0.27131783962249756 -0.14728683233261108
-0.2961091995239258 -0.27131783962249756 -0.13178294897079468
-0.29731041193008423 -0.27131783962249756 -0.11627906560897827
-0.2984398305416107 -0.27131783962249756 -0.10077518224716187
-0.2997848093509674 -0.27131783962249756 -0.08527129888534546
-0.30054014921188354 -0.27131783962249756 -0.06976741552352905
-0.30095624923706055 -0.27131783962249756 -0.05426359176635742
-0.3010942339897156 -0.27131783962249756 -0.03875970467925072
-0.301733136177063 -0.27131783962249756 -0.02325582504272461
-0.2966952621936798 -0.27131783962249756 0.3333333730697632
-0.29277628660202026 -0.27131783962249756 0.3488372564315796
-0.2886946201324463 -0.27131783962249756 0.364341139793396
-0.28713762760162354 -0.25581395626068115 -0.5193798542022705
-0.2870043218135834 -0.25581395626068115 -0.5038759708404541
-0.28854507207870483 -0.25581395626068115 -0.3488371968269348
-0.29108214378356934 -0.25581395626068115 -0.3333333134651184
-0.29338496923446655 -0.25581395626068115 -0.317829430103302
-0.295230507850647 -0.25581395626068115 -0.30232560634613037
-0.2962542176246643 -0.25581395626068115 -0.28682172298431396
-0.2967785596847534 -0.25581395626068115 -0.27131783962249756
-0.2970494031906128 -0.25581395626068115 -0.25581395626068115
-0.2971135973930359 -0.25581395626068115 -0.24031007289886475
-0.29686152935028076 -0.25581395626068115 -0.22480618953704834
-0.29667794704437256 -0.25581395626068115 -0.20930230617523193
-0.2968532145023346 -0.25581395626068115 -0.19379842281341553
-0.2968984842300415 -0.25581395626068115 -0.1782945990562439
-0.2975258231163025 -0.25581395626068115 -0.1627907156944275
-0.2986484169960022 -0.25581395626068115 -0.14728683233261108
-0.3022981882095337 -0.25581395626068115 -0.13178294897079468
-0.295994371175766 -0.25581395626068115 0.364341139793396
-0.2921608090400696 -0.25581395626068115 0.37984490394592285
-0.28826043009757996 -0.25581395626068115 0.39534878730773926
-0.2879936099052429 -0.24031007289886475 -0.6279069781303406
-0.28946632146835327 -0.24031007289886475 -0.6124030947685242
-0.29095011949539185 -0.24031007289886475 -0.5968992114067078
-0.2923465073108673 -0.24031007289886475 -0.5813953876495361
-0.293631911277771 -0.24031007289886475 -0.5658915042877197
-0.29465118050575256 -0.24031007289886475 -0.5503876209259033
-0.295423299074173 -0.24031007289886475 -0.5348837375640869
-0.29566195607185364 -0.24031007289886475 -0.5193798542022705
-0.29516762495040894 -0.24031007289886475 -0.5038759708404541
-0.29423433542251587 -0.24031007289886475 -0.4883720874786377
-0.2931119501590729 -0.24031007289886475 -0.4728682041168213
-0.29163867235183716 -0.24031007289886475 -0.4573643207550049
-0.29020118713378906 -0.24031007289886475 -0.4418604373931885
-0.2896538972854614 -0.24031007289886475 -0.42635661363601685
-0.28955817222595215 -0.24031007289886475 -0.41085273027420044
-0.2906036674976349 -0.24031007289886475 -0.39534884691238403
-0.2924525737762451 -0.24031007289886475 -0.3798449635505676
-0.29451870918273926 -0.24031007289886475 -0.3643410801887512
-0.29623091220855713 -0.24031007289886475 -0.3488371968269348
-0.2976503372192383 -0.24031007289886475 -0.3333333134651184
-0.2988393306732178 -0.24031007289886475 -0.317829430103302
-0.30017635226249695 -0.24031007289886475 -0.30232560634613037
-0.30199575424194336 -0.24031005799770355 -0.28682172298431396
-0.29936203360557556 -0.24031007289886475 0.37984490394592285
-0.2953142523765564 -0.24031007289886475 0.39534878730773926
-0.2921883463859558 -0.24031007289886475 0.41085267066955566
-0.28911033272743225 -0.24031007289886475 0.42635655403137207
-0.28835368156433105 -0.22480618953704834 -0.674418568611145
-0.2923896312713623 -0.22480618953704834 -0.6589146852493286
-0.2954689860343933 -0.22480618953704834 -0.6434109210968018
-0.29752716422080994 -0.22480618953704834 -0.6279069781303406
-0.2988074719905853 -0.22480618953704834 -0.6124030947685242
-0.299748957157135 -0.22480618953704834 -0.5968992114067078
-0.30034518241882324 -0.22480618953704834 -0.5813953876495361
-0.300753116607666 -0.22480618953704834 -0.5658915042877197
-0.30120012164115906 -0.22480618953704834 -0.5503876209259033
-0.30162110924720764 -0.22480618953704834 -0.5348837375640869
-0.30156654119491577 -0.22480618953704834 -0.5193798542022705
-0.30093276500701904 -0.22480620443820953 -0.5038759708404541
-0.3002966344356537 -0.22480618953704834 -0.4883720874786377
-0.2996402978897095 -0.22480618953704834 -0.4728682339191437
-0.29861149191856384 -0.22480618953704834 -0.4573643207550049
-0.2975215017795563 -0.22480618953704834 -0.4418604373931885
-0.2970674932003021 -0.22480618953704834 -0.42635661363601685
-0.2969464361667633 -0.22480618953704834 -0.41085273027420044
-0.29750722646713257 -0.22480618953704834 -0.39534884691238403
-0.2984769940376282 -0.22480618953704834 -0.3798449635505676
-0.2995043396949768 -0.22480618953704834 -0.3643410801887512
-0.30090534687042236 -0.22480618953704834 -0.3488371968269348
-0.30119630694389343 -0.22480620443820953 0.41085267066955566
-0.29829156398773193 -0.22480618953704834 0.42635655403137207
-0.29635533690452576 -0.22480618953704834 0.4418604373931885
-0.2935892343521118 -0.22480618953704834 0.4573643207550049
-0.288899302482605 -0.22480618953704834 0.4728682041168213
-0.2927289307117462 -0.20930230617523193 -0.6899224519729614
-0.29735317826271057 -0.20930230617523193 -0.674418568611145
-0.3006073534488678 -0.20930230617523193 -0.6589146852493286
-0.2869141697883606 -0.20930230617523193 -0.06976741552352905
-0.3001665771007538 -0.20930230617523193 0.4573643207550049
-0.29744023084640503 -0.20930230617523193 0.4728682041168213
-0.29418590664863586 -0.20930230617523193 0.4883720874786377
-0.2881205081939697 -0.20930230617523193 0.5038759708404541
-0.29360976815223694 -0.19379842281341553 -0.7054263353347778
-0.2991895079612732 -0.19379842281341553 -0.6899224519729614
-0.2988665699958801 -0.19379842281341553 0.4883720874786377
-0.2951393723487854 -0.19379842281341553 0.5038759708404541
-0.288795530796051 -0.19379842281341553 0.5193798542022705
-0.2904149889945984 -0.1782945990562439 -0.7209302186965942
-0.29749926924705505 -0.1782945990562439 -0.7054263353347778
-0.2991998791694641 -0.1782945990562439 0.5038759708404541
-0.295305073261261 -0.1782945990562439 0.5193798542022705
-0.28886744379997253 -0.1782945990562439 0.5348837375640869
-0.2931790351867676 -0.1627907156944275 -0.7209302186965942
-0.3006158769130707 -0.1627907156944275 -0.7054263949394226
-0.29833072423934937 -0.1627907156944275 0.5193798542022705
-0.2942430377006531 -0.1627907156944275 0.5348837375640869
-0.29464346170425415 -0.14728683233261108 -0.7209302186965942
-0.3002668023109436 -0.14728683233261108 0.5193798542022705
-0.2962672710418701 -0.14728683233261108 0.5348837375640869
-0.28998005390167236 -0.14728683233261108 0.5503876209259033
-0.28692832589149475 -0.13178294897079468 -0.7364341020584106
-0.2956952750682831 -0.13178294897079468 -0.7209302186965942
-0.3009737730026245 -0.13178294897079468 0.5193798542022705
-0.29695066809654236 -0.13178294897079468 0.5348837375640869
-0.29143255949020386 -0.13178294897079468 0.5503876209259033
-0.2879134714603424 -0.11627906560897827 -0.7364341020584106
-0.2966448664665222 -0.11627906560897827 -0.7209302186965942
-0.3007642328739166 -0.11627906560897827 0.5193798542022705
-0.29691359400749207 -0.11627906560897827 0.5348837375640869
-0.2916211485862732 -0.11627906560897827 0.5503876209259033
-0.2894357442855835 -0.10077518224716187 -0.7364341020584106
-0.2979971468448639 -0.10077517479658127 -0.7209302186965942
-0.3000171482563019 -0.10077518224716187 0.5193798542022705
-0.29647791385650635 -0.10077518224716187 0.5348837375640869
-0.2910228967666626 -0.10077518224716187 0.5503876209259033
-0.2915891110897064 -0.08527129888534546 -0.7364341020584106
-0.2998763918876648 -0.08527129888534546 -0.7209302186965942
-0.29907771944999695 -0.08527129888534546 0.5193798542022705
-0.2958434820175171 -0.08527129888534546 0.5348837375640869
-0.2902308702468872 -0.08527129888534546 0.5503876209259033
-0.2940032482147217 -0.06976741552352905 -0.7364341020584106
-0.3019584119319916 -0.06976741552352905 0.5038759708404541
-0.29866212606430054 -0.06976741552352905 0.5193798542022705
-0.29553985595703125 -0.06976741552352905 0.5348837375640869
-0.2900335490703583 -0.06976741552352905 0.5503876209259033
-0.28881144523620605 -0.05426359176635742 -0.751937985420227
-0.2962273359298706 -0.05426359176635742 -0.7364341020584106
-0.3020627200603485 -0.05426359549164772 0.5038759708404541
-0.29876407980918884 -0.05426359176635742 0.5193798542022705
-0.2956516444683075 -0.05426359176635742 0.5348837375640869
-0.29037389159202576 -0.05426359176635742 0.5503876209259033
-0.29145681858062744 -0.038759708404541016 -0.751937985420227
