0.30232560634613037 0.1472867727279663 0.7320490479469299
0.30232560634613037 0.16279065608978271 -0.7966147065162659
0.30232560634613037 0.16279065608978271 -0.7036052942276001
0.30232560634613037 0.16279065608978271 0.44899609684944153
0.30232560634613037 0.16279065608978271 0.7258846163749695
0.30232560634613037 0.17829453945159912 -0.7941390872001648
0.30232560634613037 0.17829453945159912 -0.6909627318382263
0.30232560634613037 0.17829453945159912 0.43783488869667053
0.30232560634613037 0.17829453945159912 0.7178739905357361
0.30232560634613037 0.19379842281341553 -0.7884149551391602
0.30232560634613037 0.19379842281341553 -0.6755796670913696
0.30232560634613037 0.19379842281341553 0.41024258732795715
0.30232560634613037 0.19379842281341553 0.7082988619804382
0.30232560634613037 0.20930232107639313 -0.7807969450950623
0.30232560634613037 0.20930230617523193 -0.6485587358474731
0.30232560634613037 0.20930230617523193 0.39153987169265747
0.30232560634613037 0.20930230617523193 0.699723482131958
0.30232560634613037 0.22480618953704834 -0.7694023847579956
0.30232560634613037 0.22480618953704834 -0.5817856788635254
0.30232560634613037 0.22480618953704834 0.362428218126297
0.30232560634613037 0.22480618953704834 0.6875444650650024
0.30232560634613037 0.24031007289886475 -0.7599997520446777
0.30232560634613037 0.24031007289886475 -0.559990406036377
0.30232560634613037 0.24031007289886475 0.3276713788509369
0.30232560634613037 0.24031007289886475 0.6741300821304321
0.30232563614845276 0.25581395626068115 -0.7492618560791016
0.30232560634613037 0.25581395626068115 -0.5332702994346619
0.30232560634613037 0.25581395626068115 0.30865243077278137
0.302325576543808 0.25581395626068115 0.6610038876533508
0.30232560634613037 0.27131783962249756 -0.7383103966712952
0.30232560634613037 0.27131783962249756 -0.505425214767456
0.30232560634613037 0.27131783962249756 0.29991307854652405
0.30232560634613037 0.27131783962249756 0.647104024887085
0.30232560634613037 0.28682172298431396 -0.7337305545806885
0.30232560634613037 0.28682172298431396 -0.48953309655189514
0.30232563614845276 0.28682172298431396 0.28878024220466614
0.30232560634613037 0.28682172298431396 0.6311514973640442
0.30232560634613037 0.30232560634613037 -0.7277952432632446
0.30232560634613037 0.30232560634613037 -0.47408977150917053
0.30232560634613037 0.30232560634613037 0.16743597388267517
0.30232563614845276 0.30232563614845276 0.6127725839614868
0.30232560634613037 0.3178294897079468 -0.7203178405761719
0.30232560634613037 0.31782951951026917 -0.456582248210907
0.30232560634613037 0.3178294897079468 0.13505488634109497
0.30232560634613037 0.3178294897079468 0.5922318696975708
0.30232560634613037 0.3333333730697632 -0.7151826620101929
0.30232560634613037 0.3333333730697632 -0.4303096532821655
0.30232560634613037 0.3333333730697632 0.12402394413948059
0.30232560634613037 0.3333333730697632 0.5625376105308533
0.30232560634613037 0.3488372564315796 -0.70170658826828
0.30232560634613037 0.3488372564315796 -0.3736158609390259
0.30232560634613037 0.3488372564315796 0.12870566546916962
0.30232560634613037 0.3488372564315796 0.5288784503936768
0.30232560634613037 0.364341139793396 -0.6707550883293152
0.30232560634613037 0.364341139793396 -0.3270142376422882
0.30232560634613037 0.364341139793396 0.12897172570228577
0.30232560634613037 0.364341139793396 0.4838739037513733
0.30232560634613037 0.37984493374824524 -0.5927508473396301
0.30232560634613037 0.37984490394592285 -0.23359636962413788
0.30232560634613037 0.37984490394592285 -0.036497220396995544
0.30232560634613037 0.37984490394592285 0.05020681768655777
0.30232560634613037 0.37984490394592285 0.10240880399942398
0.30232560634613037 0.37984490394592285 0.41855961084365845
0.30232560634613037 0.39534878730773926 -0.5307351350784302
0.30232560634613037 0.39534878730773926 -0.14807552099227905
0.30232560634613037 0.39534878730773926 -0.07706737518310547
0.30232560634613037 0.39534878730773926 0.36166244745254517
0.30232560634613037 0.41085267066955566 -0.45560747385025024
0.30232560634613037 0.41085267066955566 0.3125370144844055
0.30232560634613037 0.4263565242290497 -0.37634551525115967
0.30232560634613037 0.42635655403137207 0.19970102608203888
0.30232560634613037 0.4418604373931885 -0.2990901470184326
0.30232560634613037 0.4418604373931885 0.09935904294252396
0.30232560634613037 0.4573643207550049 -0.14337405562400818
0.30232560634613037 0.4573643207550049 -0.07417468726634979
0.3178294599056244 -0.28682172298431396 -0.3157728314399719
0.3178294897079468 -0.28682172298431396 -0.24944964051246643
0.3178294897079468 -0.27131783962249756 -0.582633376121521
0.3178294897079468 -0.27131783962249756 0.03083556517958641
0.3178294897079468 -0.25581395626068115 -0.6653202176094055
0.3178294897079468 -0.25581395626068115 0.10403257608413696
0.3178294897079468 -0.24031007289886475 -0.6946754455566406
0.3178294897079468 -0.24031007289886475 0.14431825280189514
0.3178294897079468 -0.22480618953704834 -0.9854073524475098
0.3178294897079468 -0.22480618953704834 -0.9831904768943787
0.3178294897079468 -0.22480618953704834 -0.7138820290565491
0.3178294897079468 -0.22480618953704834 -0.15424805879592896
0.3178294897079468 -0.22480618953704834 0.0018256912007927895
0.3178294897079468 -0.22480618953704834 0.19287027418613434
0.3178294897079468 -0.20930230617523193 -0.9861286282539368
0.3178294897079468 -0.20930230617523193 -0.9819625616073608
0.3178294897079468 -0.20930230617523193 -0.7281061410903931
0.3178294897079468 -0.20930230617523193 -0.20181378722190857
0.3178294897079468 -0.20930230617523193 0.0918256938457489
0.3178294897079468 -0.20930230617523193 0.26504603028297424
0.3178294897079468 -0.19379842281341553 -0.9864988923072815
0.3178294897079468 -0.19379842281341553 -0.9810891151428223
0.3178294897079468 -0.19379842281341553 -0.7386055588722229
0.3178294897079468 -0.19379842281341553 -0.30927765369415283
0.3178294897079468 -0.19379842281341553 0.1363023966550827
0.3178294897079468 -0.19379842281341553 0.3260824382305145
0.3178294897079468 -0.1782945990562439 -0.986677348613739
0.3178294897079468 -0.1782945990562439 -0.9804122447967529
0.3178294897079468 -0.1782945990562439 -0.7465869188308716
0.3178294897079468 -0.1782945990562439 -0.37437835335731506
0.3178294897079468 -0.1782945990562439 0.17499572038650513
0.3178294897079468 -0.1782945990562439 0.38816410303115845
0.3178294897079468 -0.1627907156944275 -0.9867318272590637
0.3178294897079468 -0.1627907156944275 -0.9798908233642578
0.3178294897079468 -0.1627907156944275 -0.7509865164756775
0.3178294897079468 -0.1627907156944275 -0.47663062810897827
0.3178294897079468 -0.1627907156944275 0.22960564494132996
0.3178294897079468 -0.1627907156944275 0.46164560317993164
0.3178294897079468 -0.14728683233261108 -0.9866849184036255
0.3178294897079468 -0.14728683233261108 -0.9797295928001404
0.3178294897079468 -0.14728683233261108 -0.7530826926231384
0.3178294897079468 -0.14728683233261108 -0.5064164996147156
0.3178294897079468 -0.14728683233261108 0.2722495198249817
0.3178294897079468 -0.14728683233261108 0.5189869403839111
0.3178294897079468 -0.13178294897079468 -0.9863989949226379
0.3178294897079468 -0.13178294897079468 -0.9802798628807068
0.3178294897079468 -0.13178294897079468 -0.7551184296607971
0.3178294897079468 -0.13178294897079468 -0.5198039412498474
0.3178294897079468 -0.13178294897079468 0.306771844625473
0.3178294897079468 -0.13178294897079468 0.5741633772850037
0.3178294897079468 -0.11627906560897827 -0.9853821992874146
0.3178294897079468 -0.11627906560897827 -0.9826737642288208
0.3178294897079468 -0.11627906560897827 -0.7579130530357361
0.3178294897079468 -0.11627907305955887 -0.5338873267173767
0.3178294897079468 -0.11627906560897827 0.34506529569625854
0.3178294897079468 -0.11627906560897827 0.6233468055725098
0.3178294897079468 -0.10077518224716187 -0.7626363635063171
0.3178294897079468 -0.10077518224716187 -0.5601786971092224
0.3178294897079468 -0.10077518224716187 0.3887534737586975
0.3178294897079468 -0.10077518224716187 0.6483907699584961
0.3178294897079468 -0.08527129888534546 -0.7676353454589844
0.3178294897079468 -0.08527129888534546 -0.6351293921470642
0.3178294897079468 -0.08527129888534546 0.41880562901496887
0.3178294897079468 -0.08527129888534546 0.661837637424469
0.3178294897079468 -0.06976741552352905 -0.7736983299255371
0.3178294897079468 -0.06976741552352905 -0.652392566204071
0.3178294897079468 -0.06976741552352905 0.43887120485305786
0.3178294897079468 -0.06976741552352905 0.6709548234939575
0.3178294897079468 -0.05426359549164772 -0.7818180322647095
0.3178294897079468 -0.05426359176635742 -0.6636364459991455
0.3178294897079468 -0.05426359176635742 0.44884008169174194
0.3178294897079468 -0.05426359176635742 0.6807238459587097
0.3178294897079468 -0.038759708404541016 -0.789651095867157
0.3178294897079468 -0.038759708404541016 -0.6722394824028015
0.3178294897079468 -0.038759708404541016 0.4534473419189453
0.3178294897079468 -0.038759708404541016 0.6884071826934814
0.3178294897079468 -0.02325582504272461 -0.7956472635269165
0.3178294897079468 -0.02325582504272461 -0.6800601482391357
0.3178294897079468 -0.02325582504272461 0.4629507064819336
0.3178294897079468 -0.02325582504272461 0.6985303163528442
0.3178294897079468 -0.007751941680908203 -0.7973290681838989
0.3178294897079468 -0.007751941680908203 -0.6908848285675049
0.3178294897079468 -0.007751941680908203 0.46995094418525696
0.3178294897079468 -0.007751941680908203 0.7042104601860046
0.31782951951026917 0.007751941680908203 -0.7972710132598877
0.3178294897079468 0.007751941680908203 -0.6986525058746338
0.3178294897079468 0.007751941680908203 0.4715316891670227
0.3178294897079468 0.007751941680908203 0.7123221158981323
0.31782951951026917 0.02325582690536976 -0.7962601780891418
0.3178294897079468 0.02325582504272461 -0.7033101916313171
0.3178294897079468 0.02325582504272461 0.4615746736526489
0.3178294897079468 0.02325582504272461 0.7153438329696655
0.3178294897079468 0.038759708404541016 -0.7948340177536011
0.3178294897079468 0.03875970467925072 -0.7036584615707397
0.3178294897079468 0.038759708404541016 0.44716405868530273
0.3178294897079468 0.038759708404541016 0.7166785001754761
0.3178294897079468 0.05426359176635742 -0.7927566766738892
0.3178294897079468 0.05426359176635742 -0.7012599110603333
0.3178294897079468 0.05426359176635742 0.4284229874610901
0.3178294897079468 0.05426359176635742 0.7171323299407959
0.3178294897079468 0.06976747512817383 -0.7900450229644775
0.3178294897079468 0.06976747512817383 -0.6983234882354736
0.3178294897079468 0.06976747512817383 0.41314423084259033
0.3178294897079468 0.06976747512817383 0.71673184633255
0.3178294897079468 0.08527135848999023 -0.7878069281578064
0.3178294897079468 0.08527135848999023 -0.6961252689361572
0.3178294897079468 0.08527135848999023 0.4020316004753113
0.3178294897079468 0.08527135848999023 0.7153564691543579
0.3178294897079468 0.10077524185180664 -0.7874820232391357
0.3178294897079468 0.10077524185180664 -0.6968196034431458
0.3178294897079468 0.10077524185180664 0.39432379603385925
0.3178294897079468 0.10077524185180664 0.7130681872367859
0.3178294897079468 0.11627912521362305 -0.7878146171569824
0.3178294897079468 0.11627912521362305 -0.6966919898986816
0.3178294897079468 0.11627912521362305 0.39301133155822754
0.3178294897079468 0.11627912521362305 0.7074286937713623
0.3178294897079468 0.1317828893661499 -0.7875679731369019
0.3178294897079468 0.1317828893661499 -0.6959108114242554
0.3178294897079468 0.1317828893661499 0.39609310030937195
0.3178294897079468 0.1317828893661499 0.7022609114646912
0.3178294897079468 0.1472867727279663 -0.7858325839042664
0.3178294897079468 0.1472867727279663 -0.6920323967933655
0.3178294897079468 0.1472867727279663 0.4163932502269745
0.3178294897079468 0.1472867727279663 0.6974864602088928
0.3178294897079468 0.16279065608978271 -0.7827372550964355
0.3178294897079468 0.16279065608978271 -0.6844727993011475
0.3178294897079468 0.16279065608978271 0.43896612524986267
0.3178294897079468 0.16279065608978271 0.6895120739936829
0.3178294897079468 0.17829453945159912 -0.7803817987442017
0.3178294897079468 0.17829455435276031 -0.6721441745758057
0.3178294897079468 0.17829453945159912 0.43902668356895447
0.3178294897079468 0.17829453945159912 0.6838724613189697
0.3178294897079468 0.19379842281341553 -0.7751330137252808
0.3178294897079468 0.19379842281341553 -0.6594957709312439
0.3178294897079468 0.19379842281341553 0.42741990089416504
0.3178294897079468 0.19379842281341553 0.6733497977256775
0.3178294897079468 0.20930232107639313 -0.7655590176582336
0.3178294897079468 0.20930230617523193 -0.6290364861488342
0.3178294897079468 0.20930230617523193 0.3989432156085968
0.3178294897079468 0.20930230617523193 0.6654767394065857
0.3178294897079468 0.22480618953704834 -0.7521894574165344
0.3178294897079468 0.22480618953704834 -0.5778584480285645
0.3178294897079468 0.22480618953704834 0.3625493049621582
0.3178294897079468 0.22480618953704834 0.6537284851074219
0.3178294897079468 0.24031007289886475 -0.7416553497314453
0.3178294897079468 0.24031007289886475 -0.5578393340110779
0.3178294897079468 0.24031007289886475 0.33207401633262634
0.3178294897079468 0.24031007289886475 0.6405515670776367
0.3178294897079468 0.25581395626068115 -0.7316567897796631
0.3178294897079468 0.25581395626068115 -0.5376624464988708
0.3178294897079468 0.25581395626068115 0.3098987936973572
0.3178294897079468 0.25581395626068115 0.6262713670730591
0.3178294897079468 0.27131783962249756 -0.719870924949646
0.3178294897079468 0.27131783962249756 -0.513767659664154
0.3178294897079468 0.27131783962249756 0.29640501737594604
0.3178294897079468 0.27131783962249756 0.611672580242157
0.3178294897079468 0.28682172298431396 -0.714431643486023
0.3178294897079468 0.28682172298431396 -0.4932291507720947
0.3178294897079468 0.28682172298431396 0.17206469178199768
0.3178294897079468 0.28682172298431396 0.22234266996383667
0.3178294897079468 0.28682172298431396 0.28035929799079895
0.3178294897079468 0.28682172298431396 0.595034658908844
0.3178294897079468 0.30232560634613037 -0.7054882645606995
0.3178294897079468 0.30232560634613037 -0.4739530086517334
0.3178294897079468 0.30232560634613037 0.14031089842319489
0.3178294897079468 0.30232560634613037 0.5771554708480835
0.3178294897079468 0.3178294897079468 -0.7011829018592834
0.3178294897079468 0.3178294897079468 -0.45145493745803833
0.3178294897079468 0.3178294897079468 0.12733854353427887
0.3178294897079468 0.3178294897079468 0.556449294090271
0.3178294897079468 0.3333333730697632 -0.6906535029411316
0.3178294897079468 0.3333333730697632 -0.41773855686187744
0.3178294897079468 0.3333333730697632 0.13039307296276093
0.3178294897079468 0.3333333730697632 0.531028151512146
0.3178294897079468 0.3488372564315796 -0.6712191104888916
0.3178294897079468 0.3488372564315796 -0.3674484193325043
0.3178294897079468 0.3488372564315796 0.1378764510154724
0.3178294897079468 0.3488372564315796 0.498404860496521
0.3178294897079468 0.364341139793396 -0.6176927089691162
0.3178294897079468 0.364341139793396 -0.33173584938049316
0.3178294897079468 0.364341139793396 0.13714316487312317
0.3178294897079468 0.364341139793396 0.45016324520111084
0.3178294897079468 0.37984490394592285 -0.5590798258781433
0.3178294897079468 0.37984490394592285 -0.2807638943195343
0.3178294599056244 0.37984490394592285 -0.02110094018280506
0.3178294897079468 0.37984490394592285 0.02104109153151512
0.3178294897079468 0.37984490394592285 0.11554848402738571
0.3178294897079468 0.37984490394592285 0.3886539936065674
0.3178294897079468 0.39534878730773926 -0.4963340759277344
0.3178294897079468 0.39534878730773926 -0.15347418189048767
0.3178294897079468 0.39534878730773926 -0.07168184220790863
0.3178294897079468 0.39534878730773926 0.34104207158088684
0.3178294897079468 0.41085267066955566 -0.41228628158569336
0.3178294897079468 0.41085267066955566 0.2816806137561798
0.3178294897079468 0.42635655403137207 -0.344359815120697
0.3178294897079468 0.42635655403137207 0.1533403843641281
0.3178294897079468 0.4418604373931885 -0.23200158774852753
0.3178294897079468 0.4418604373931885 0.04028186574578285
0.3333333730697632 -0.27131783962249756 -0.5377963185310364
0.3333333730697632 -0.27131783962249756 -0.41188758611679077
0.3333333730697632 -0.27131783962249756 -0.3790243864059448
0.3333333730697632 -0.27131783962249756 -0.04536934942007065
0.3333333730697632 -0.25581395626068115 -0.6369017362594604
0.3333333730697632 -0.25581395626068115 0.07343181222677231
0.3333333730697632 -0.24031007289886475 -0.98472660779953
0.3333333730697632 -0.24031007289886475 -0.9840715527534485
0.3333333730697632 -0.24031007289886475 -0.6778430938720703
0.3333333730697632 -0.24031007289886475 0.12145085632801056
0.3333333730697632 -0.22480618953704834 -0.9857249855995178
0.3333333730697632 -0.22480618953704834 -0.9818931221961975
0.3333333730697632 -0.22480618953704834 -0.699891209602356
0.3333333730697632 -0.22480618953704834 -0.11183390766382217
0.3333333730697632 -0.22480618953704834 -0.06360453367233276
0.3333333730697632 -0.22480618953704834 0.15811553597450256
0.3333333730697632 -0.20930230617523193 -0.9860767722129822
0.3333333730697632 -0.20930230617523193 -0.9809175729751587
0.3333333730697632 -0.20930230617523193 -0.7147839069366455
0.3333333730697632 -0.20930230617523193 -0.1910654604434967
0.3333333730697632 -0.20930230617523193 0.05116856098175049
0.3333333730697632 -0.20930230617523193 0.22518296539783478
0.3333333730697632 -0.19379842281341553 -0.9862800240516663
0.3333333730697632 -0.19379842281341553 -0.9802001714706421
0.3333333730697632 -0.19379842281341553 -0.7247731685638428
0.3333333730697632 -0.19379842281341553 -0.29832035303115845
0.3333333730697632 -0.19379842281341553 0.1289510875940323
0.3333333730697632 -0.19379842281341553 0.3009656071662903
0.3333333730697632 -0.1782945990562439 -0.9863652586936951
0.3333333730697632 -0.1782945990562439 -0.9797356128692627
0.3333333730697632 -0.1782945990562439 -0.7326107025146484
0.3333333730697632 -0.1782945990562439 -0.3679177165031433
0.3333333730697632 -0.1782945990562439 0.17140427231788635
0.3333333730697632 -0.1782945990562439 0.35739409923553467
0.3333333730697632 -0.1627907156944275 -0.9862795472145081
0.3333333730697632 -0.1627907156944275 -0.9795583486557007
0.3333333730697632 -0.1627907156944275 -0.7366939187049866
0.3333333730697632 -0.1627907156944275 -0.47313791513442993
0.3333333730697632 -0.1627907156944275 0.20483273267745972
0.3333333730697632 -0.1627907156944275 0.42480647563934326
0.3333333730697632 -0.14728683233261108 -0.9855513572692871
0.3333333730697632 -0.14728683233261108 -0.9813766479492188
0.3333333730697632 -0.14728683233261108 -0.7384150624275208
0.3333333730697632 -0.14728683233261108 -0.510662853717804
0.3333333730697632 -0.14728683233261108 0.23164546489715576
0.3333333730697632 -0.14728683233261108 0.49043405055999756
0.3333333730697632 -0.13178294897079468 -0.7399522066116333
0.3333333730697632 -0.13178294897079468 -0.5256655216217041
0.3333333730697632 -0.13178294897079468 0.26021608710289
0.3333333730697632 -0.13178294897079468 0.5426543354988098
0.3333333730697632 -0.11627906560897827 -0.7418705224990845
0.3333333730697632 -0.11627906560897827 -0.5399442911148071
0.3333333730697632 -0.11627906560897827 0.30659377574920654
0.3333333730697632 -0.11627906560897827 0.588084876537323
0.3333333730697632 -0.10077518224716187 -0.7459166049957275
0.3333333730697632 -0.10077518224716187 -0.5582261085510254
0.3333333730697632 -0.10077518224716187 0.34851011633872986
0.3333333730697632 -0.10077518224716187 0.6178923845291138
0.3333333730697632 -0.08527129888534546 -0.7503542304039001
0.3333333730697632 -0.08527129888534546 -0.6247317790985107
0.3333333730697632 -0.08527129888534546 0.38893216848373413
0.3333333730697632 -0.08527129888534546 0.6340237855911255
0.3333333730697632 -0.06976741552352905 -0.7541365027427673
0.3333333730697632 -0.06976741552352905 -0.6433639526367188
0.3333333432674408 -0.06976741552352905 0.4135885238647461
0.3333333730697632 -0.06976741552352905 0.6444768905639648
0.3333333730697632 -0.05426359176635742 -0.7627807855606079
0.33333340287208557 -0.05426359176635742 -0.6551265716552734
0.3333333730697632 -0.05426359176635742 0.42380446195602417
0.3333333730697632 -0.05426359176635742 0.6535959243774414
0.3333333730697632 -0.038759708404541016 -0.7683271765708923
0.3333333730697632 -0.038759708404541016 -0.6638984680175781
0.3333333730697632 -0.038759708404541016 0.42947179079055786
0.3333333730697632 -0.038759708404541016 0.6619018316268921
0.3333333730697632 -0.02325582504272461 -0.7766501903533936
0.3333333730697632 -0.02325582504272461 -0.6735069751739502
0.3333333730697632 -0.02325582504272461 0.4426460862159729
0.3333333730697632 -0.02325582504272461 0.6698713302612305
0.3333333730697632 -0.007751941680908203 -0.7798614501953125
0.3333333730697632 -0.007751941680908203 -0.6828978061676025
0.3333333730697632 -0.007751941680908203 0.4541701674461365
0.3333333730697632 -0.007751941680908203 0.6772501468658447
0.3333333432674408 0.007751941680908203 -0.7800961136817932
0.3333333730697632 0.007751941680908203 -0.6916323900222778
0.3333333730697632 0.007751941680908203 0.45903193950653076
0.3333333730697632 0.007751941680908203 0.683902382850647
0.3333333730697632 0.02325582504272461 -0.7795124650001526
0.3333333730697632 0.02325582504272461 -0.6937493681907654
0.3333333730697632 0.02325582504272461 0.45087701082229614
0.3333333730697632 0.02325582504272461 0.6864814162254333
0.3333333730697632 0.038759708404541016 -0.7779906988143921
0.3333333730697632 0.038759708404541016 -0.6931115388870239
0.3333333730697632 0.038759708404541016 0.43470656871795654
0.3333333730697632 0.038759708404541016 0.6878774166107178
0.3333333730697632 0.05426359176635742 -0.7755464315414429
0.3333333730697632 0.05426359176635742 -0.6908997893333435
0.3333333730697632 0.05426359176635742 0.40708234906196594
0.3333333730697632 0.05426359176635742 0.6879379749298096
0.3333333730697632 0.06976747512817383 -0.7724144458770752
0.3333333730697632 0.06976747512817383 -0.6854534149169922
0.3333333432674408 0.06976747512817383 0.3825094401836395
0.3333333730697632 0.06976747512817383 0.6868597269058228
0.3333333730697632 0.08527135848999023 -0.7702562808990479
0.3333333730697632 0.08527135848999023 -0.6804489493370056
0.3333333730697632 0.08527135848999023 0.3476620316505432
0.3333333730697632 0.08527135848999023 0.6846667528152466
0.3333333730697632 0.10077524185180664 -0.7698113918304443
0.3333333730697632 0.10077524185180664 -0.6778637170791626
0.3333333730697632 0.10077524185180664 0.3468007445335388
0.3333333730697632 0.10077524185180664 0.6812388300895691
0.3333333730697632 0.11627912521362305 -0.7704653739929199
0.3333333730697632 0.11627912521362305 -0.6757261157035828
0.3333333730697632 0.11627912521362305 0.35798192024230957
0.3333333730697632 0.11627912521362305 0.6738179922103882
0.3333333730697632 0.1317828893661499 -0.7706405520439148
0.3333333730697632 0.1317828893661499 -0.6746901869773865
0.3333333730697632 0.1317828893661499 0.370649516582489
0.3333333730697632 0.1317828893661499 0.668955385684967
0.3333333730697632 0.1472867727279663 -0.7692816853523254
0.3333333730697632 0.1472867727279663 -0.6705142259597778
0.33333340287208557 0.1472867727279663 0.3966771364212036
0.3333333730697632 0.1472867727279663 0.6623068451881409
0.3333333730697632 0.16279065608978271 -0.766692042350769
0.3333333730697632 0.16279065608978271 -0.6624776124954224
0.3333333730697632 0.16279065608978271 0.41865235567092896
0.3333333730697632 0.16279065608978271 0.6558098196983337
0.3333333730697632 0.17829453945159912 -0.7644999623298645
0.3333333730697632 0.17829453945159912 -0.6457154750823975
0.3333333730697632 0.17829453945159912 0.42155200242996216
0.3333333730697632 0.17829453945159912 0.64922034740448
0.3333333730697632 0.19379842281341553 -0.7582998871803284
0.3333333730697632 0.19379842281341553 -0.6302857995033264
0.3333333730697632 0.19379842281341553 0.4111769497394562
0.3333333730697632 0.19379842281341553 0.6395326852798462
0.3333333730697632 0.20930230617523193 -0.749060869216919
0.33333340287208557 0.20930232107639313 -0.5954707264900208
0.3333333730697632 0.20930230617523193 0.3926215171813965
0.3333333730697632 0.20930232107639313 0.6285087466239929
0.3333333730697632 0.22480618953704834 -0.7353469729423523
0.3333333730697632 0.22480618953704834 -0.5678909420967102
0.3333333730697632 0.22480618953704834 0.3609132170677185
0.3333333730697632 0.22480618953704834 0.6172695755958557
0.3333333730697632 0.24031007289886475 -0.7208777666091919
0.3333333730697632 0.24031007289886475 -0.5510340929031372
0.3333333730697632 0.24031007289886475 0.330292671918869
0.3333333730697632 0.24031007289886475 0.6031192541122437
0.3333333730697632 0.25581395626068115 -0.7093353271484375
0.3333333730697632 0.25581395626068115 -0.5300878286361694
0.3333333730697632 0.25581395626068115 0.30386602878570557
0.3333333730697632 0.25581395626068115 0.5874212980270386
0.3333333730697632 0.27131783962249756 -0.700853168964386
0.3333333730697632 0.27131783962249756 -0.508368730545044
0.3333333730697632 0.27131783962249756 0.15761175751686096
0.3333333730697632 0.27131783962249756 0.22545447945594788
0.3333333730697632 0.27131783962249756 0.2840048670768738
0.3333333730697632 0.27131783962249756 0.5706572532653809
0.3333333730697632 0.28682172298431396 -0.6904250383377075
0.3333333432674408 0.28682172298431396 -0.4882749617099762
0.3333333730697632 0.28682172298431396 0.14026163518428802
0.3333333730697632 0.28682172298431396 0.5529623031616211
0.3333333730697632 0.30232560634613037 -0.6859053373336792
0.3333333730697632 0.30232560634613037 -0.4651179313659668
0.3333333730697632 0.30232560634613037 0.12164880335330963
0.33333340287208557 0.30232560634613037 0.5358374118804932
0.3333333730697632 0.3178294897079468 -0.6760218143463135
0.3333333730697632 0.3178294897079468 -0.4347227215766907
0.3333333730697632 0.3178294897079468 0.11342670023441315
0.3333333730697632 0.3178294897079468 0.5179598331451416
0.3333333730697632 0.3333333730697632 -0.663798451423645
0.3333333730697632 0.3333333730697632 -0.38930660486221313
0.3333333730697632 0.3333333730697632 0.11949839442968369
0.3333333730697632 0.3333333730697632 0.4970961809158325
0.3333333730697632 0.3488372564315796 -0.6313005089759827
0.3333333730697632 0.3488372564315796 -0.35221388936042786
0.3333333730697632 0.3488372564315796 0.12748143076896667
0.3333333730697632 0.3488372564315796 0.46366798877716064
0.3333333730697632 0.364341139793396 -0.5788952708244324
0.3333333730697632 0.364341139793396 -0.3190121650695801
0.3333333730697632 0.364341139793396 0.12611037492752075
0.3333333730697632 0.364341139793396 0.41144615411758423
0.3333333730697632 0.37984490394592285 -0.5262537002563477
0.3333333730697632 0.37984490394592285 -0.19716671109199524
0.3333333730697632 0.37984490394592285 -0.04111021012067795
0.3333333730697632 0.37984490394592285 0.044956982135772705
0.3333333730697632 0.37984490394592285 0.0939314067363739
0.3333333730697632 0.37984490394592285 0.3628156781196594
0.3333333730697632 0.39534878730773926 -0.456432968378067
0.3333333730697632 0.39534878730773926 -0.11891389638185501
0.3333333730697632 0.39534878730773926 -0.09528955817222595
0.3333333730697632 0.39534878730773926 0.3158041536808014
0.3333333730697632 0.41085267066955566 -0.37810876965522766
0.3333333730697632 0.41085267066955566 0.22040832042694092
0.3333333730697632 0.42635655403137207 -0.30842164158821106
0.3333333730697632 0.42635655403137207 0.11462485790252686
0.3333333730697632 0.4418604373931885 -0.16819597780704498
0.3333333730697632 0.4418604373931885 -0.04097785800695419
0.3488372564315796 -0.25581395626068115 -0.5756924152374268
0.3488372266292572 -0.25581395626068115 0.025602633133530617
0.3488372564315796 -0.24031007289886475 -0.9848573207855225
0.3488372564315796 -0.24031007289886475 -0.9830209016799927
0.3488372564315796 -0.24031007289886475 -0.653894305229187
0.3488372564315796 -0.24031007289886475 0.10042847692966461
0.3488372564315796 -0.22480618953704834 -0.9854411482810974
0.3488372564315796 -0.22480618953704834 -0.9806641340255737
0.3488372564315796 -0.22480618953704834 -0.6818861961364746
0.3488372564315796 -0.22480618953704834 0.13988220691680908
0.3488372564315796 -0.20930230617523193 -0.9856124520301819
0.3488372564315796 -0.20930230617523193 -0.9798191785812378
0.3488372564315796 -0.20930230617523193 -0.6995770335197449
0.3488372564315796 -0.20930230617523193 -0.18039731681346893
0.3488372564315796 -0.20930230617523193 0.019717594608664513
0.3488372564315796 -0.20930230617523193 0.19358038902282715
0.3488372564315796 -0.19379842281341553 -0.9857224225997925
0.3488372564315796 -0.19379842281341553 -0.9789119362831116
0.3488372564315796 -0.19379842281341553 -0.7107206583023071
0.3488372564315796 -0.19379842281341553 -0.2780888080596924
0.3488372564315796 -0.19379843771457672 0.11651501804590225
0.3488372564315796 -0.19379842281341553 0.27475878596305847
0.3488372564315796 -0.1782945990562439 -0.9857129454612732
0.3488372564315796 -0.1782945990562439 -0.978386640548706
0.3488372564315796 -0.1782945990562439 -0.7188138365745544
0.3488372564315796 -0.1782945990562439 -0.36182135343551636
0.3488372564315796 -0.1782945990562439 0.16210642457008362
0.3488372564315796 -0.1782945990562439 0.33182841539382935
0.3488372564315796 -0.1627907156944275 -0.9849485754966736
0.3488372564315796 -0.1627907156944275 -0.981575608253479
0.3488372564315796 -0.1627907156944275 -0.7224720120429993
0.3488372564315796 -0.1627907156944275 -0.4464317560195923
0.3488372564315796 -0.1627907156944275 0.1906672716140747
0.3488372564315796 -0.1627907156944275 0.39013782143592834
0.3488372564315796 -0.14728683233261108 -0.7243430018424988
0.3488372564315796 -0.14728683233261108 -0.5070468783378601
0.3488372564315796 -0.14728683233261108 0.20819218456745148
0.3488372564315796 -0.14728683233261108 0.45359474420547485
0.3488372564315796 -0.13178294897079468 -0.7259351015090942
0.3488372564315796 -0.13178294897079468 -0.5258066654205322
0.3488372564315796 -0.13178294897079468 0.21363221108913422
0.3488372564315796 -0.13178294897079468 0.5107301473617554
0.3488372564315796 -0.11627906560897827 -0.7276098728179932
0.3488372564315796 -0.11627906560897827 -0.5410916209220886
0.3488372564315796 -0.11627906560897827 0.21274489164352417
0.3488372564315796 -0.11627906560897827 0.5509530305862427
0.3488372564315796 -0.10077518224716187 -0.731012225151062
0.3488372564315796 -0.10077518224716187 -0.5558567643165588
0.3488372564315796 -0.10077518224716187 0.3110628128051758
0.3488372564315796 -0.10077518224716187 0.5775607824325562
0.3488372564315796 -0.08527129888534546 -0.7346258163452148
0.348837286233902 -0.08527129888534546 -0.5951364040374756
0.3488372564315796 -0.08527129888534546 0.34922316670417786
0.3488372564315796 -0.08527129888534546 0.5955846905708313
0.3488372564315796 -0.06976741552352905 -0.7372817993164062
0.348837286233902 -0.06976741552352905 -0.6245848536491394
0.3488372564315796 -0.06976741552352905 0.3786514401435852
0.3488372564315796 -0.06976741552352905 0.6077706813812256
0.3488372564315796 -0.05426359176635742 -0.7448017597198486
0.3488372564315796 -0.05426359176635742 -0.6389912962913513
0.3488372564315796 -0.05426359176635742 0.3920234441757202
0.3488372564315796 -0.05426359176635742 0.618101954460144
0.3488372564315796 -0.038759708404541016 -0.7502601146697998
0.3488372564315796 -0.038759708404541016 -0.6497802734375
0.3488372564315796 -0.038759708404541016 0.4019918441772461
0.3488372564315796 -0.038759708404541016 0.6265255212783813
0.3488372564315796 -0.02325582504272461 -0.7564467787742615
0.3488372564315796 -0.02325582504272461 -0.6610265970230103
0.3488372564315796 -0.02325582504272461 0.42265158891677856
0.3488372564315796 -0.02325582504272461 0.6363696455955505
0.3488372564315796 -0.007751941680908203 -0.7615851163864136
0.3488372564315796 -0.00775194214656949 -0.6715257167816162
0.3488372564315796 -0.007751941680908203 0.43847179412841797
0.3488372564315796 -0.007751941680908203 0.643186628818512
0.3488372564315796 0.007751941680908203 -0.7626081705093384
0.3488372564315796 0.007751941680908203 -0.6788737773895264
0.3488372564315796 0.00775194214656949 0.44539445638656616
0.3488372564315796 0.007751941680908203 0.6511107683181763
0.3488372564315796 0.02325582504272461 -0.7620682716369629
0.3488372564315796 0.02325582504272461 -0.6804876923561096
0.3488372564315796 0.02325582504272461 0.43891894817352295
0.3488372564315796 0.02325582504272461 0.6538416743278503
0.3488372564315796 0.038759708404541016 -0.7600662708282471
0.3488372564315796 0.038759708404541016 -0.6790058612823486
0.3488372564315796 0.038759708404541016 0.4232862591743469
0.3488372564315796 0.038759708404541016 0.654940128326416
0.3488372564315796 0.05426359176635742 -0.756629467010498
0.3488372564315796 0.05426359176635742 -0.6753242611885071
0.3488372564315796 0.05426359176635742 0.3977053165435791
0.3488372564315796 0.05426359176635742 0.654214084148407
0.3488372564315796 0.06976747512817383 -0.7526034116744995
0.3488372564315796 0.06976747512817383 -0.6672877073287964
0.3488372564315796 0.06976747512817383 0.3673672676086426
0.3488372564315796 0.06976747512817383 0.6522124409675598
0.3488372564315796 0.08527135848999023 -0.7507476210594177
0.3488372564315796 0.08527135848999023 -0.6598860621452332
0.3488372564315796 0.08527135848999023 0.347683310508728
0.3488372564315796 0.08527135848999023 0.6485660076141357
0.348837286233902 0.10077524185180664 -0.7502042651176453
0.3488372564315796 0.10077524185180664 -0.6524194478988647
0.3488372564315796 0.10077524185180664 0.347384512424469
0.3488372564315796 0.10077524185180664 0.6426905393600464
0.348837286233902 0.11627913266420364 -0.7502719759941101
0.3488372564315796 0.11627912521362305 -0.650761067867279
0.3488372564315796 0.11627912521362305 0.35784912109375
0.3488372564315796 0.11627912521362305 0.6373496055603027
0.3488372564315796 0.1317828893661499 -0.7503679990768433
0.3488372564315796 0.1317828893661499 -0.6499139070510864
0.3488372564315796 0.1317828893661499 0.3686703145503998
0.348837286233902 0.1317828893661499 0.6290579438209534
0.3488372564315796 0.1472867727279663 -0.7499593496322632
0.3488372564315796 0.1472867727279663 -0.6451913118362427
0.3488372564315796 0.1472867727279663 0.38644564151763916
0.3488372564315796 0.1472867727279663 0.6230886578559875
0.3488372564315796 0.16279065608978271 -0.7488847970962524
0.3488372564315796 0.16279065608978271 -0.632670521736145
0.3488372564315796 0.16279065608978271 0.40145808458328247
0.3488372564315796 0.16279065608978271 0.6160158514976501
0.3488372564315796 0.17829453945159912 -0.7465132474899292
0.3488372564315796 0.17829453945159912 -0.6134214997291565
0.3488372564315796 0.17829453945159912 0.4015445113182068
0.3488372564315796 0.17829453945159912 0.6078848838806152
0.3488372564315796 0.19379842281341553 -0.7387853264808655
0.3488372564315796 0.19379842281341553 -0.5966572165489197
0.3488372564315796 0.19379842281341553 0.3943997025489807
0.3488372564315796 0.19379842281341553 0.5965078473091125
0.3488372564315796 0.20930230617523193 -0.7308151721954346
0.3488372564315796 0.20930230617523193 -0.574252188205719
0.3488372564315796 0.20930230617523193 0.3761007487773895
0.3488372564315796 0.20930230617523193 0.5851081013679504
0.3488372266292572 0.22480618953704834 -0.7165399789810181
0.3488372564315796 0.22480618953704834 -0.5559306144714355
0.3488372564315796 0.22480618953704834 0.3499014377593994
0.3488372564315796 0.22480618953704834 0.5696834325790405
0.3488372564315796 0.24031007289886475 -0.7013001441955566
0.3488372564315796 0.24031007289886475 -0.5384283065795898
0.3488372266292572 0.24031007289886475 0.3195832073688507
0.3488372564315796 0.24031008780002594 0.5533374547958374
0.3488372564315796 0.25581395626068115 -0.6872360706329346
0.3488372564315796 0.25581395626068115 -0.5143048167228699
0.3488372564315796 0.25581395626068115 0.13665059208869934
0.3488372564315796 0.25581395626068115 0.235405832529068
0.3488372564315796 0.25581395626068115 0.2872992157936096
0.3488372564315796 0.25581395626068115 0.5373424291610718
0.3488372564315796 0.27131783962249756 -0.6741674542427063
0.3488372564315796 0.27131783962249756 -0.49434134364128113
0.3488372564315796 0.27131783962249756 0.12478284537792206
0.3488372564315796 0.27131783962249756 0.522510290145874
0.3488372564315796 0.28682172298431396 -0.669082760810852
0.3488372564315796 0.28682172298431396 -0.4757091701030731
0.3488372564315796 0.28682172298431396 0.11385596543550491
0.3488372564315796 0.28682172298431396 0.5077478885650635
0.3488372564315796 0.30232560634613037 -0.6588317155838013
0.3488372564315796 0.30232560634613037 -0.4462486505508423
0.3488372564315796 0.30232560634613037 0.0955343171954155
0.3488372564315796 0.30232560634613037 0.49416327476501465
0.3488372564315796 0.3178294897079468 -0.6512596607208252
0.3488372564315796 0.3178294897079468 -0.4054732918739319
0.3488372564315796 0.3178294897079468 -0.001530197449028492
0.3488372564315796 0.3178294897079468 0.053362663835287094
0.3488372564315796 0.3178294897079468 0.07236374169588089
0.3488372564315796 0.3178294897079468 0.478219598531723
0.3488372564315796 0.3333333730697632 -0.6317582130432129
0.3488372564315796 0.3333333730697632 -0.3652764558792114
0.3488372564315796 0.3333333730697632 -0.019708316773176193
0.3488372564315796 0.3333333730697632 0.04743795841932297
0.3488372564315796 0.3333333730697632 0.08774840831756592
0.3488372564315796 0.3333333730697632 0.4547288417816162
0.3488372564315796 0.3488372564315796 -0.5926879644393921
0.3488372564315796 0.3488372564315796 -0.3348051607608795
0.3488372564315796 0.3488372564315796 -0.02972809597849846
0.3488372564315796 0.3488372564315796 0.036322686821222305
0.3488372564315796 0.3488372564315796 0.09958794713020325
0.3488372564315796 0.3488372564315796 0.4198288917541504
0.3488372564315796 0.364341139793396 -0.548675537109375
0.3488372564315796 0.364341139793396 -0.29464060068130493
0.3488372564315796 0.364341139793396 -0.03953833505511284
0.3488372564315796 0.364341139793396 0.04309296980500221
0.3488372564315796 0.364341139793396 0.09382125735282898
0.3488372564315796 0.364341139793396 0.3774743378162384
0.3488372564315796 0.37984490394592285 -0.49400272965431213
0.3488372564315796 0.37984490394592285 -0.155533105134964
0.3488372564315796 0.37984487414360046 -0.06843511760234833
0.3488372564315796 0.37984490394592285 0.33684241771698
0.3488372564315796 0.39534878730773926 -0.41361719369888306
0.3488372564315796 0.39534878730773926 0.2812141180038452
0.3488372564315796 0.4108526408672333 -0.348349004983902
0.3488372564315796 0.41085267066955566 0.16218577325344086
0.3488372564315796 0.42635655403137207 -0.25488346815109253
0.3488372564315796 0.42635655403137207 0.06758325546979904
0.364341139793396 -0.25581395626068115 -0.34921273589134216
0.364341139793396 -0.25581395626068115 -0.23021146655082703
0.364341139793396 -0.25581395626068115 -0.17738375067710876
0.364341139793396 -0.25581395626068115 -0.07062631100416183
0.364341139793396 -0.24031007289886475 -0.6145443916320801
0.364341139793396 -0.24031007289886475 0.07041126489639282
0.364341139793396 -0.22480618953704834 -0.9845976829528809
0.364341139793396 -0.22480618953704834 -0.9818191528320312
0.364341139793396 -0.22480618953704834 -0.6564761996269226
0.364341139793396 -0.22480618953704834 0.12336534261703491
0.364341139793396 -0.20930230617523193 -0.9846948385238647
0.364341139793396 -0.20930230617523193 -0.9793717861175537
0.364341139793396 -0.20930230617523193 -0.6793596744537354
0.364341139793396 -0.20930230617523193 -0.16011032462120056
0.364341139793396 -0.20930230617523193 -0.04211641475558281
0.364341139793396 -0.20930230617523193 0.17156264185905457
0.364341139793396 -0.19379842281341553 -0.9847179055213928
0.364341139793396 -0.19379843771457672 -0.9689612984657288
0.364341139793396 -0.19379842281341553 -0.6939493417739868
0.364341139793396 -0.19379842281341553 -0.23220181465148926
0.364341139793396 -0.19379842281341553 0.09138650447130203
0.364341139793396 -0.19379842281341553 0.24486401677131653
0.364341139793396 -0.1782945990562439 -0.9737328290939331
0.364341139793396 -0.1782945990562439 -0.9687983989715576
0.364341139793396 -0.1782945990562439 -0.703296422958374
0.364341139793396 -0.1782945990562439 -0.35149744153022766
0.364341139793396 -0.1782945990562439 0.1404564082622528
0.364341139793396 -0.1782945990562439 0.30240747332572937
0.364341139793396 -0.1627907156944275 -0.7072721719741821
0.364341139793396 -0.1627907156944275 -0.42199239134788513
0.364341139793396 -0.1627907156944275 0.17272882163524628
0.364341139793396 -0.1627907156944275 0.3577077388763428
0.364341139793396 -0.14728683233261108 -0.7093452215194702
0.364341139793396 -0.14728683233261108 -0.4776522219181061
0.364341139793396 -0.14728683233261108 0.18987786769866943
0.364341139793396 -0.14728683233261108 0.4135451018810272
0.364341139793396 -0.13178294897079468 -0.7109900116920471
0.364341139793396 -0.13178294897079468 -0.5118693113327026
0.364341139793396 -0.13178294897079468 0.1915372759103775
0.364341139793396 -0.13178294897079468 0.47104912996292114
0.364341139793396 -0.11627906560897827 -0.712572455406189
0.364341139793396 -0.11627906560897827 -0.5317299962043762
0.364341139793396 -0.11627906560897827 0.1856992244720459
0.364341139793396 -0.11627906560897827 0.5144067406654358
0.364341139793396 -0.10077518224716187 -0.7157589197158813
0.364341139793396 -0.10077518224716187 -0.5456412434577942
0.364341139793396 -0.10077518224716187 0.18111760914325714
0.364341139793396 -0.10077518224716187 0.5378537774085999
0.364341139793396 -0.08527129888534546 -0.7190240025520325
0.364341139793396 -0.08527129888534546 -0.5609411001205444
0.364341139793396 -0.08527129888534546 0.18929383158683777
0.364341139793396 -0.08527129888534546 0.246773362159729
0.364341139793396 -0.08527129888534546 0.30622950196266174
0.364341139793396 -0.08527129888534546 0.5520831346511841
0.364341139793396 -0.06976741552352905 -0.7212061285972595
0.364341139793396 -0.06976741552352905 -0.5812427997589111
0.364341139793396 -0.06976741552352905 0.33104100823402405
0.364341139793396 -0.06976741552352905 0.5620712041854858
0.364341139793396 -0.05426359176635742 -0.7275917530059814
0.364341139793396 -0.05426359176635742 -0.6067508459091187
0.364341139793396 -0.05426359176635742 0.34556129574775696
0.364341139793396 -0.05426358804106712 0.5713686943054199
0.364341139793396 -0.038759708404541016 -0.7332212328910828
0.3643411695957184 -0.038759708404541016 -0.6241912245750427
0.364341139793396 -0.038759708404541016 0.3680274188518524
0.364341139793396 -0.038759708404541016 0.5804026126861572
0.364341139793396 -0.02325582690536976 -0.7362398505210876
0.364341139793396 -0.02325582504272461 -0.6371262669563293
0.364341139793396 -0.02325582504272461 0.3996957540512085
0.364341139793396 -0.02325582504272461 0.5912896394729614
0.364341139793396 -0.007751941680908203 -0.7420481443405151
0.364341139793396 -0.007751941680908203 -0.6476384401321411
0.364341139793396 -0.007751941680908203 0.415499210357666
0.364341139793396 -0.007751941680908203 0.6011976003646851
0.364341139793396 0.007751941680908203 -0.7439385652542114
0.364341139793396 0.007751941680908203 -0.6581060290336609
0.364341139793396 0.007751941680908203 0.4235333800315857
0.364341139793396 0.007751941680908203 0.6085561513900757
0.364341139793396 0.02325582504272461 -0.7433346509933472
0.364341139793396 0.02325582504272461 -0.6591578722000122
0.364341139793396 0.02325582504272461 0.41580092906951904
0.364341139793396 0.02325582504272461 0.6112898588180542
0.364341139793396 0.038759708404541016 -0.7405475378036499
0.364341139793396 0.038759708404541016 -0.6555221676826477
0.364341139793396 0.038759708404541016 0.4038164019584656
0.364341139793396 0.038759708404541016 0.6116851568222046
0.364341139793396 0.05426359176635742 -0.7364749312400818
0.364341139793396 0.05426359176635742 -0.6458884477615356
0.3643411695957184 0.05426359176635742 0.382211834192276
0.364341139793396 0.05426359176635742 0.6091135740280151
0.364341139793396 0.06976747512817383 -0.7342373728752136
0.364341139793396 0.06976747512817383 -0.6342654228210449
0.364341139793396 0.06976747512817383 0.36035972833633423
0.364341139793396 0.06976747512817383 0.6051013469696045
0.364341139793396 0.08527135848999023 -0.7327362298965454
0.364341139793396 0.08527135848999023 -0.6229617595672607
0.364341139793396 0.08527135848999023 0.3461109399795532
0.364341139793396 0.08527135848999023 0.5999056100845337
0.364341139793396 0.10077524185180664 -0.7315539121627808
0.364341139793396 0.10077524185180664 -0.6147177815437317
0.364341139793396 0.10077524185180664 0.345299631357193
0.364341139793396 0.10077524185180664 0.5941931009292603
0.364341139793396 0.11627912521362305 -0.7303900718688965
0.3643411099910736 0.11627912521362305 -0.6115102767944336
0.364341139793396 0.11627912521362305 0.3519291281700134
0.364341139793396 0.11627912521362305 0.587248682975769
0.364341139793396 0.1317828893661499 -0.7295695543289185
0.364341139793396 0.1317828893661499 -0.6057381629943848
0.364341139793396 0.1317828893661499 0.3587448000907898
0.364341139793396 0.1317828893661499 0.5791609883308411
0.364341139793396 0.1472867727279663 -0.7290648221969604
0.364341139793396 0.1472867727279663 -0.5983089208602905
0.364341139793396 0.1472867727279663 0.3692385256290436
0.364341139793396 0.1472867727279663 0.5728939771652222
0.364341139793396 0.16279065608978271 -0.7280005216598511
0.364341139793396 0.16279065608978271 -0.5898549556732178
0.364341139793396 0.16279065608978271 0.37845978140830994
0.364341139793396 0.16279065608978271 0.5649690628051758
0.364341139793396 0.17829453945159912 -0.7246996164321899
0.364341139793396 0.17829453945159912 -0.5791615843772888
0.364341139793396 0.17829453945159912 0.376783549785614
0.364341139793396 0.17829453945159912 0.5575450658798218
0.364341139793396 0.19379842281341553 -0.7190176844596863
0.364341139793396 0.19379842281341553 -0.5692484378814697
0.364341139793396 0.19379842281341553 0.36820489168167114
0.364341139793396 0.19379842281341553 0.546448826789856
0.364341139793396 0.20930230617523193 -0.7069988250732422
0.364341139793396 0.20930230617523193 -0.5530171394348145
0.364341139793396 0.20930230617523193 0.3516732156276703
0.364341139793396 0.20930230617523193 0.5340995788574219
0.364341139793396 0.22480618953704834 -0.6903659105300903
0.3643411099910736 0.22480618953704834 -0.5334766507148743
0.364341139793396 0.22480618953704834 0.33067476749420166
0.364341139793396 0.22480618953704834 0.5193713307380676
0.364341139793396 0.24031007289886475 -0.673285722732544
0.364341139793396 0.24031007289886475 -0.5074928402900696
0.364341139793396 0.24031007289886475 0.13271798193454742
0.3643411099910736 0.24031007289886475 0.2265639305114746
0.364341139793396 0.24031007289886475 0.2981899678707123
0.364341139793396 0.24031007289886475 0.5037125945091248
0.364341139793396 0.25581395626068115 -0.6585640907287598
0.364341139793396 0.25581395626068115 -0.48478350043296814
0.364341139793396 0.25581395626068115 0.11128805577754974
0.364341139793396 0.25581395626068115 0.4890652596950531
0.364341139793396 0.27131783962249756 -0.6497032642364502
0.364341139793396 0.27131783962249756 -0.4674992561340332
0.364341139793396 0.27131783962249756 0.0958850085735321
0.364341139793396 0.27131783962249756 0.4751141369342804
0.364341139793396 0.28682172298431396 -0.641265869140625
0.364341139793396 0.28682172298431396 -0.4460565447807312
0.364341139793396 0.28682172298431396 0.019340913742780685
0.364341139793396 0.28682172298431396 0.4610399007797241
0.364341139793396 0.30232560634613037 -0.6340538263320923
0.364341139793396 0.30232560634613037 -0.4114510118961334
0.364341139793396 0.30232560634613037 -0.011136207729578018
0.364341139793396 0.30232560634613037 0.4469231367111206
