-0.3420839309692383 0.17829453945159912 0.1472867727279663
-0.33961760997772217 0.17829453945159912 0.16279065608978271
-0.33741891384124756 0.17829453945159912 0.17829453945159912
-0.3353367745876312 0.17829453945159912 0.19379842281341553
-0.334636390209198 0.19379842281341553 -0.1627907156944275
-0.3377707600593567 0.19379842281341553 -0.14728683233261108
-0.3408221900463104 0.19379842281341553 -0.13178294897079468
-0.34275442361831665 0.19379842281341553 -0.11627906560897827
-0.3445742726325989 0.19379842281341553 -0.10077518224716187
-0.3456372618675232 0.19379842281341553 -0.08527129888534546
-0.34626469016075134 0.19379842281341553 -0.06976741552352905
-0.34598904848098755 0.19379842281341553 -0.05426359176635742
-0.34558627009391785 0.19379842281341553 -0.038759708404541016
-0.344426691532135 0.19379843771457672 -0.02325582504272461
-0.3438703715801239 0.19379843771457672 -0.007751941680908203
-0.3437061309814453 0.19379842281341553 0.007751941680908203
-0.3441165089607239 0.19379840791225433 0.02325582318007946
-0.3457351624965668 0.19379842281341553 0.038759708404541016
-0.3469153046607971 0.19379842281341553 0.05426359176635742
-0.34729674458503723 0.19379842281341553 0.06976747512817383
-0.3456260561943054 0.19379842281341553 0.08527135848999023
-0.3431239128112793 0.19379842281341553 0.10077524185180664
-0.3406621813774109 0.19379842281341553 0.11627912521362305
-0.33868685364723206 0.19379842281341553 0.1317828893661499
-0.3366609215736389 0.19379842281341553 0.1472867727279663
-0.33494386076927185 0.19379842281341553 0.16279065608978271
-0.33340373635292053 0.19379842281341553 0.17829453945159912
-0.33540257811546326 0.20930230617523193 -0.13178294897079468
-0.33770474791526794 0.20930230617523193 -0.11627906560897827
-0.33936935663223267 0.20930230617523193 -0.10077518224716187
-0.34002619981765747 0.20930230617523193 -0.08527129888534546
-0.3402056097984314 0.20930230617523193 -0.06976741552352905
-0.33980593085289 0.20930230617523193 -0.05426359176635742
-0.339438259601593 0.20930230617523193 -0.038759708404541016
-0.3387431502342224 0.20930230617523193 -0.02325582504272461
-0.3384627401828766 0.20930230617523193 -0.007751941680908203
-0.3383888304233551 0.20930230617523193 0.007751941680908203
-0.33854445815086365 0.20930230617523193 0.02325582504272461
-0.3391510844230652 0.20930230617523193 0.038759708404541016
-0.33940380811691284 0.20930230617523193 0.05426359176635742
-0.3392663598060608 0.20930230617523193 0.06976747512817383
-0.33832016587257385 0.20930230617523193 0.08527135848999023
-0.3369836211204529 0.20930230617523193 0.10077524185180664
-0.3355080187320709 0.20930230617523193 0.11627912521362305
-0.33417150378227234 0.20930230617523193 0.1317828893661499
-0.33337754011154175 0.22480618953704834 -0.10077518224716187
-0.3337532877922058 0.22480618953704834 -0.08527129888534546
-0.3338639736175537 0.22480618953704834 -0.06976741552352905
-0.3336871862411499 0.22480618953704834 -0.05426359176635742
-0.3336743414402008 0.22480618953704834 -0.038759708404541016
-0.3334742784500122 0.22480618953704834 -0.02325582504272461
-0.33350834250450134 0.22480618953704834 -0.007751941680908203
-0.33362138271331787 0.22480618953704834 0.007751941680908203
-0.33382847905158997 0.22480618953704834 0.02325582504272461
-0.3341967463493347 0.22480618953704834 0.038759708404541016
-0.3343313932418823 0.22480618953704834 0.05426359176635742
-0.33420419692993164 0.22480618953704834 0.06976747512817383
-0.3336474895477295 0.22480618953704834 0.08527135848999023
-0.31795135140419006 -0.20930230617523193 -0.27131783962249756
-0.31848669052124023 -0.20930230617523193 -0.25581395626068115
-0.3188741207122803 -0.20930230617523193 -0.24031007289886475
-0.3193444311618805 -0.20930230617523193 -0.22480618953704834
-0.320203572511673 -0.20930230617523193 -0.20930230617523193
-0.3219825327396393 -0.20930230617523193 -0.19379842281341553
-0.32395583391189575 -0.20930230617523193 -0.1782945990562439
-0.3264172077178955 -0.20930230617523193 -0.1627907156944275
-0.32783496379852295 -0.20930230617523193 -0.14728683233261108
-0.32933366298675537 -0.20930230617523193 -0.13178294897079468
-0.3299800753593445 -0.20930230617523193 -0.11627906560897827
-0.32947874069213867 -0.20930230617523193 -0.10077518224716187
-0.32785412669181824 -0.20930230617523193 -0.08527129888534546
-0.3261696696281433 -0.20930230617523193 -0.06976741552352905
-0.32464438676834106 -0.20930230617523193 -0.05426359176635742
-0.32300007343292236 -0.20930230617523193 -0.038759708404541016
-0.3217763304710388 -0.20930230617523193 -0.02325582504272461
-0.32145899534225464 -0.20930230617523193 -0.007751941680908203
-0.3215281665325165 -0.20930230617523193 0.007751941680908203
-0.3213450312614441 -0.20930230617523193 0.02325582504272461
-0.3212140202522278 -0.20930230617523193 0.038759708404541016
-0.32054823637008667 -0.20930230617523193 0.05426359176635742
-0.3195078670978546 -0.20930230617523193 0.06976747512817383
-0.31809887290000916 -0.20930230617523193 0.08527135848999023
-0.3186112940311432 -0.19379842281341553 -0.3333333134651184
-0.32114821672439575 -0.19379842281341553 -0.317829430103302
-0.32412710785865784 -0.19379842281341553 -0.30232560634613037
-0.3259221315383911 -0.19379842281341553 -0.28682172298431396
-0.3269054889678955 -0.19379842281341553 -0.27131783962249756
-0.32741579413414 -0.19379842281341553 -0.25581395626068115
-0.3277103304862976 -0.19379842281341553 -0.24031007289886475
-0.3280388116836548 -0.19379842281341553 -0.22480618953704834
-0.32883942127227783 -0.19379843771457672 -0.20930232107639313
-0.33073723316192627 -0.19379842281341553 -0.19379842281341553
-0.33325350284576416 -0.19379842281341553 -0.1782946139574051
-0.33250248432159424 -0.19379842281341553 0.08527135848999023
-0.32969892024993896 -0.19379842281341553 0.10077524185180664
-0.3266039788722992 -0.19379842281341553 0.11627913266420364
-0.32295024394989014 -0.19379842281341553 0.1317828893661499
-0.31928738951683044 -0.19379842281341553 0.1472867727279663
-0.31897202134132385 -0.1782945990562439 -0.3643410801887512
-0.3219575583934784 -0.1782945990562439 -0.3488371968269348
-0.325166791677475 -0.1782945990562439 -0.3333333134651184
-0.3271445333957672 -0.1782945990562439 -0.317829430103302
-0.3289380967617035 -0.1782945990562439 -0.30232560634613037
-0.33025839924812317 -0.1782946139574051 -0.28682172298431396
-0.33115270733833313 -0.1782945990562439 -0.27131783962249756
-0.3316440284252167 -0.1782945990562439 -0.25581395626068115
-0.3318384885787964 -0.1782945990562439 -0.24031007289886475
-0.3319757580757141 -0.1782945990562439 -0.22480618953704834
-0.3326304256916046 -0.1782945990562439 -0.20930230617523193
-0.32950732111930847 -0.1782945990562439 0.1472867727279663
-0.3262817859649658 -0.1782945990562439 0.16279065608978271
-0.3230860233306885 -0.1782945990562439 0.17829453945159912
-0.32037150859832764 -0.1782945990562439 0.19379842281341553
-0.31808415055274963 -0.1782945990562439 0.20930230617523193
-0.31786319613456726 -0.1627907156944275 -0.5038759708404541
-0.31843286752700806 -0.1627907156944275 -0.4883720874786377
-0.31857532262802124 -0.1627907156944275 -0.4728682041168213
-0.31852856278419495 -0.1627907156944275 -0.4573643207550049
-0.31858566403388977 -0.1627907156944275 -0.4418604373931885
-0.3190551698207855 -0.1627907156944275 -0.42635661363601685
-0.31962111592292786 -0.1627907156944275 -0.41085273027420044
-0.32104039192199707 -0.1627907156944275 -0.39534884691238403
-0.32287025451660156 -0.1627907156944275 -0.3798449635505676
-0.3252818286418915 -0.1627907156944275 -0.3643410801887512
-0.3273921608924866 -0.1627907156944275 -0.3488371968269348
-0.32941892743110657 -0.1627907156944275 -0.3333333134651184
-0.33124276995658875 -0.1627907156944275 -0.317829430103302
-0.3288647532463074 -0.1627907156944275 0.17829452455043793
-0.32608136534690857 -0.1627907156944275 0.19379842281341553
-0.32378965616226196 -0.1627907156944275 0.20930230617523193
-0.32192984223365784 -0.1627907156944275 0.22480618953704834
-0.31992754340171814 -0.1627907156944275 0.24031007289886475
-0.31877803802490234 -0.14728683233261108 -0.5503876209259033
-0.3214207887649536 -0.14728683233261108 -0.5348837375640869
-0.32381105422973633 -0.14728683233261108 -0.5193798542022705
-0.325065553188324 -0.14728683233261108 -0.5038759708404541
-0.324882447719574 -0.14728683233261108 -0.4883720874786377
-0.3242951035499573 -0.14728683233261108 -0.4728682041168213
-0.32399415969848633 -0.14728683233261108 -0.4573643207550049
-0.3242450952529907 -0.14728683233261108 -0.4418604373931885
-0.3250426948070526 -0.14728683233261108 -0.42635661363601685
-0.32566624879837036 -0.14728683233261108 -0.41085273027420044
-0.3270660936832428 -0.14728683233261108 -0.39534884691238403
-0.32837820053100586 -0.14728683233261108 -0.3798449635505676
-0.3303429186344147 -0.14728683233261108 -0.3643410801887512
-0.3327590823173523 -0.14728683233261108 -0.3488371968269348
-0.33146795630455017 -0.14728683233261108 0.19379842281341553
-0.3274872601032257 -0.14728683233261108 0.20930230617523193
-0.3252771198749542 -0.14728683233261108 0.22480618953704834
-0.32345694303512573 -0.14728683233261108 0.24031007289886475
-0.32165056467056274 -0.14728683233261108 0.25581395626068115
-0.31915831565856934 -0.14728683233261108 0.27131783962249756
-0.3184031546115875 -0.13178294897079468 -0.6124030947685242
-0.3197818696498871 -0.13178294897079468 -0.5968992114067078
-0.3220178782939911 -0.13178294897079468 -0.5813953876495361
-0.32568782567977905 -0.13178294897079468 -0.5658915042877197
-0.32890933752059937 -0.13178294897079468 -0.5503876209259033
-0.33223772048950195 -0.13178294897079468 -0.5348837375640869
-0.33190885186195374 -0.13178294897079468 -0.4728682041168213
-0.3312644064426422 -0.13178294897079468 -0.4573643207550049
-0.3318706452846527 -0.13178294897079468 -0.4418604373931885
-0.33315473794937134 -0.13178294897079468 -0.42635661363601685
-0.33147627115249634 -0.13178294897079468 0.22480620443820953
-0.3275201916694641 -0.13178294897079468 0.24031007289886475
-0.3250355124473572 -0.13178294897079468 0.25581395626068115
-0.32256948947906494 -0.13178294897079468 0.27131783962249756
-0.319343626499176 -0.13178294897079468 0.28682172298431396
-0.31841421127319336 -0.11627906560897827 -0.6589146852493286
-0.3213600814342499 -0.11627906560897827 -0.643410861492157
-0.32519006729125977 -0.11627906560897827 -0.6279069781303406
-0.3294617533683777 -0.11627906560897827 -0.612403154373169
-0.33023694157600403 -0.11627906560897827 0.25581395626068115
-0.3261776566505432 -0.11627906560897827 0.27131783962249756
-0.3229234516620636 -0.11627906560897827 0.28682172298431396
-0.3189242482185364 -0.11627906560897827 0.30232560634613037
-0.3216494619846344 -0.10077518224716187 -0.6589146852493286
-0.32767003774642944 -0.10077518224716187 -0.643410861492157
-0.33040109276771545 -0.10077518224716187 0.27131783962249756
-0.32599055767059326 -0.10077518224716187 0.28682172298431396
-0.3222012519836426 -0.10077518224716187 0.30232560634613037
-0.3246111273765564 -0.08527129888534546 -0.6589146852493286
-0.3306170105934143 -0.08527129143476486 -0.6434108018875122
-0.3186391592025757 -0.08527129888534546 -0.06976741552352905
-0.31862199306488037 -0.08527129888534546 -0.05426359176635742
-0.32858261466026306 -0.08527129888534546 0.28682172298431396
-0.3248242735862732 -0.08527129888534546 0.30232560634613037
-0.32051563262939453 -0.08527129888534546 0.3178294897079468
-0.318232923746109 -0.06976741552352905 -0.674418568611145
-0.325253427028656 -0.06976741552352905 -0.6589146852493286
-0.33071908354759216 -0.06976741552352905 -0.643410861492157
-0.31903186440467834 -0.06976741552352905 -0.3643410801887512
-0.32189473509788513 -0.06976741552352905 -0.3488371968269348
-0.3248611390590668 -0.06976741552352905 -0.3333333134651184
-0.3259335458278656 -0.06976741552352905 -0.317829430103302
-0.3239744305610657 -0.06976741552352905 -0.30232560634613037
-0.3182591199874878 -0.06976741552352905 -0.11627906560897827
-0.32006508111953735 -0.06976741552352905 -0.10077518224716187
-0.32250386476516724 -0.06976741552352905 -0.08527129888534546
-0.3248898684978485 -0.06976741552352905 -0.06976741552352905
-0.32355958223342896 -0.06976741552352905 -0.05426359176635742
-0.3206261396408081 -0.06976741552352905 -0.038759708404541016
-0.33287671208381653 -0.06976741552352905 0.28682172298431396
-0.3269822597503662 -0.06976741552352905 0.30232560634613037
-0.32321447134017944 -0.06976741552352905 0.3178294897079468
-0.3186112642288208 -0.06976741552352905 0.3333333730697632
-0.3182196319103241 -0.05426359176635742 -0.674418568611145
-0.32511013746261597 -0.05426359176635742 -0.6589146852493286
-0.32995548844337463 -0.05426359176635742 -0.6434109210968018
-0.32064345479011536 -0.05426359176635742 -0.42635661363601685
-0.322806179523468 -0.05426359176635742 -0.41085273027420044
-0.3251808285713196 -0.05426359176635742 -0.39534884691238403
-0.32761290669441223 -0.05426359176635742 -0.3798449635505676
-0.3307739794254303 -0.05426359176635742 -0.27131783962249756
-0.324812114238739 -0.05426359176635742 -0.14728683233261108
-0.329623818397522 -0.05426359176635742 -0.13178294897079468
-0.3325256109237671 -0.05426359176635742 -0.11627906560897827
-0.32887905836105347 -0.05426359176635742 -0.038759708404541016
-0.32231512665748596 -0.05426359176635742 -0.02325582504272461
-0.32918083667755127 -0.05426359176635742 0.30232560634613037
-0.3254135847091675 -0.05426359176635742 0.3178294897079468
-0.32110166549682617 -0.05426359176635742 0.3333333730697632
-0.3241645097732544 -0.038759708404541016 -0.6589146852493286
-0.32872214913368225 -0.038759708404541016 -0.643410861492157
-0.3230991065502167 -0.038759708404541016 -0.4418604373931885
-0.329316109418869 -0.038759708404541016 -0.42635661363601685
-0.33216607570648193 -0.038759708404541016 -0.41085273027420044
-0.32278913259506226 -0.038759708404541016 -0.24031007289886475
-0.3183504045009613 -0.038759708404541016 -0.1782945990562439
-0.3293163478374481 -0.038759708404541016 -0.1627907156944275
-0.32952961325645447 -0.038759708404541016 -0.02325582504272461
-0.3202322721481323 -0.038759708404541016 -0.007751941680908203
-0.31955280900001526 -0.038759708404541016 0.05426359176635742
-0.3268267810344696 -0.038759708404541016 0.06976747512817383
-0.3284446597099304 -0.038759708404541016 0.08527135848999023
-0.3250963091850281 -0.038759708404541016 0.10077524185180664
-0.33307451009750366 -0.038759708404541016 0.30232560634613037
-0.32735270261764526 -0.038759708404541016 0.3178294897079468
-0.32373493909835815 -0.038759708404541016 0.3333333730697632
-0.3193800151348114 -0.038759708404541016 0.3488372564315796
-0.32256630063056946 -0.02325582504272461 -0.6589146852493286
-0.3273472189903259 -0.02325582504272461 -0.643410861492157
-0.3180954158306122 -0.02325582504272461 -0.4728682041168213
-0.32211512327194214 -0.02325582504272461 -0.4573643207550049
-0.3286329507827759 -0.02325582504272461 -0.4418604373931885
-0.3285982012748718 -0.02325582318007946 -0.007751941215246916
-0.32235756516456604 -0.02325582504272461 0.007751941680908203
-0.3203147053718567 -0.02325582504272461 0.02325582504272461
-0.324302077293396 -0.02325582504272461 0.038759708404541016
-0.3306674361228943 -0.02325582504272461 0.05426359176635742
-0.32488763332366943 -0.02325582504272461 0.11627912521362305
-0.32955002784729004 -0.02325582504272461 0.3178294897079468
-0.3258873224258423 -0.02325582504272461 0.3333333730697632
-0.321958065032959 -0.02325582504272461 0.3488372564315796
-0.3179260492324829 -0.02325582504272461 0.364341139793396
-0.3204292356967926 -0.007751941680908203 -0.6589146852493286
-0.3260199725627899 -0.007751941680908203 -0.643410861492157
-0.33004260063171387 -0.007751941680908203 -0.6279069781303406
-0.3181329667568207 -0.007751941680908203 -0.4883720874786377
-0.31850773096084595 -0.007751941680908203 -0.4728682041168213
-0.3202853500843048 -0.007751941680908203 -0.4573643207550049
-0.32371240854263306 -0.007751941680908203 -0.4418604373931885
-0.3268640339374542 -0.007751941680908203 -0.42635661363601685
-0.3277597427368164 -0.007751941680908203 -0.41085273027420044
-0.32940515875816345 -0.007751941680908203 -0.39534884691238403
-0.3311154842376709 -0.007751941215246916 -0.3798449635505676
-0.33151525259017944 -0.007751941680908203 -0.007751941680908203
-0.32602158188819885 -0.00775194214656949 0.00775194214656949
-0.32436132431030273 -0.007751941680908203 0.02325582504272461
-0.32963597774505615 -0.007751941680908203 0.038759708404541016
-0.33074402809143066 -0.007751941680908203 0.11627912521362305
-0.33302831649780273 -0.007751941215246916 0.3178294897079468
-0.3276256322860718 -0.00775194214656949 0.3333333730697632
-0.3243928551673889 -0.007751941680908203 0.3488372564315796
-0.3202681243419647 -0.007751941680908203 0.364341139793396
-0.3241729736328125 0.007751941680908203 -0.643410861492157
-0.3277125060558319 0.007751941680908203 -0.6279069781303406
-0.3187066614627838 0.007751941680908203 -0.42635661363601685
-0.3196800649166107 0.007751941680908203 -0.41085273027420044
-0.321291446685791 0.007751941680908203 -0.39534884691238403
-0.3230537474155426 0.007751941680908203 -0.3798449635505676
-0.3277472257614136 0.007751941680908203 -0.3643410801887512
-0.33109843730926514 0.007751941680908203 -0.007751941680908203
-0.32619184255599976 0.007751941680908203 0.007751941680908203
-0.3253334164619446 0.007751941680908203 0.02325582504272461
-0.3292540907859802 0.007751941680908203 0.3333333730697632
-0.32595735788345337 0.007751941680908203 0.3488372564315796
-0.3223109841346741 0.007751941680908203 0.364341139793396
-0.31850573420524597 0.007751941680908203 0.37984490394592285
-0.3211796283721924 0.02325582504272461 -0.643410861492157
-0.3261704444885254 0.02325582504272461 -0.6279070377349854
-0.3295246660709381 0.02325582318007946 -0.6124030351638794
-0.31800979375839233 0.02325582504272461 -0.3798449635505676
-0.3214258849620819 0.02325582504272461 -0.3643410801887512
-0.3259863555431366 0.02325582504272461 -0.3488371968269348
-0.3327347934246063 0.02325582318007946 -0.3333333134651184
-0.32916074991226196 0.02325582504272461 -0.02325582504272461
-0.3226550221443176 0.02325582504272461 -0.007751941680908203
-0.31784334778785706 0.02325582504272461 0.007751941680908203
-0.3226661682128906 0.02325582504272461 0.038759708404541016
-0.3298342525959015 0.02325582504272461 0.3333333730697632
-0.32632213830947876 0.02325582504272461 0.3488372564315796
-0.3227837085723877 0.02325582504272461 0.364341139793396
-0.31883206963539124 0.02325582504272461 0.37984490394592285
-0.32334309816360474 0.038759708404541016 -0.6279069781303406
-0.3271722197532654 0.038759708404541016 -0.6124030947685242
-0.33151018619537354 0.038759708404541016 -0.5968992114067078
-0.31978097558021545 0.038759708404541016 -0.3488371968269348
-0.32444921135902405 0.038759708404541016 -0.3333333134651184
-0.33028924465179443 0.038759708404541016 -0.317829430103302
-0.3328990042209625 0.038759708404541016 -0.19379842281341553
-0.33308613300323486 0.038759708404541016 -0.1782945990562439
-0.3276084065437317 0.038759708404541016 -0.038759708404541016
-0.31984782218933105 0.038759708404541016 -0.02325582504272461
-0.32700395584106445 0.038759708404541016 0.06976747512817383
-0.3309946656227112 0.038759708404541016 0.08527135848999023
-0.3291734457015991 0.038759708404541016 0.3333333730697632
-0.3257793188095093 0.038759708404541016 0.3488372564315796
-0.32179147005081177 0.038759708404541016 0.364341139793396
-0.3179280757904053 0.038759708404541016 0.37984490394592285
-0.31831321120262146 0.05426359176635742 -0.6279069781303406
-0.323163241147995 0.05426359176635742 -0.6124030947685242
-0.3269697427749634 0.05426359176635742 -0.5968992114067078
-0.3308424949645996 0.05426359176635742 -0.5813953876495361
-0.31811681389808655 0.05426359176635742 -0.3333333134651184
-0.32211512327194214 0.05426359176635742 -0.317829430103302
-0.326335608959198 0.05426359176635742 -0.30232560634613037
-0.3298429250717163 0.05426359176635742 -0.28682172298431396
-0.3315894603729248 0.05426359549164772 -0.27131783962249756
-0.33128052949905396 0.05426359176635742 -0.25581395626068115
-0.32894080877304077 0.05426358804106712 -0.24031007289886475
-0.3266761898994446 0.05426359176635742 -0.22480618953704834
-0.32452040910720825 0.05426359176635742 -0.20930230617523193
-0.32374390959739685 0.05426359176635742 -0.19379842281341553
-0.32393330335617065 0.05426359176635742 -0.1782945990562439
-0.3267853856086731 0.05426359176635742 -0.1627907156944275
-0.33159416913986206 0.05426359176635742 -0.14728683233261108
-0.33104583621025085 0.05426359176635742 -0.08527129888534546
-0.3286948502063751 0.05426359176635742 -0.06976741552352905
-0.32429903745651245 0.05426359176635742 -0.05426359176635742
-0.3324175179004669 0.05426359176635742 0.3178294897079468
-0.3275185227394104 0.05426359176635742 0.3333333730697632
-0.3239870071411133 0.05426359176635742 0.3488372564315796
-0.3192385137081146 0.05426359176635742 0.364341139793396
-0.3205634355545044 0.06976747512817383 -0.5968992114067078
-0.32461628317832947 0.06976747512817383 -0.5813953876495361
-0.32782477140426636 0.06976747512817383 -0.5658915042877197
-0.3327259123325348 0.06976747512817383 -0.5503876209259033
-0.3189174234867096 0.06976747512817383 -0.30232560634613037
-0.32101529836654663 0.06976747512817383 -0.28682172298431396
-0.32196661829948425 0.06976747512817383 -0.27131783962249756
-0.32178762555122375 0.06976747512817383 -0.25581395626068115
-0.32052725553512573 0.06976747512817383 -0.24031007289886475
-0.3192442059516907 0.06976747512817383 -0.22480618953704834
-0.31784093379974365 0.06976747512817383 -0.20930230617523193
-0.319570928812027 0.06976747512817383 -0.1627907156944275
-0.32332396507263184 0.06976747512817383 -0.14728683233261108
-0.32568836212158203 0.06976747512817383 -0.13178294897079468
-0.32580238580703735 0.06976747512817383 -0.11627906560897827
-0.32481667399406433 0.06976747512817383 -0.10077518224716187
-0.32225069403648376 0.06976747512817383 -0.08527129888534546
-0.32031330466270447 0.06976747512817383 -0.06976741552352905
-0.3292369842529297 0.06976747512817383 0.3178294897079468
-0.32541635632514954 0.06976747512817383 0.3333333730697632
-0.32050442695617676 0.06976747512817383 0.3488372564315796
-0.32022222876548767 0.08527135848999023 -0.5658915042877197
-0.3240429759025574 0.08527135848999023 -0.5503876209259033
-0.32685673236846924 0.08527135848999023 -0.5348837375640869
-0.3287073075771332 0.08527135848999023 -0.5193798542022705
-0.3302578330039978 0.08527135848999023 -0.5038759708404541
-0.3304958939552307 0.08527135848999023 -0.4883720874786377
-0.33102795481681824 0.08527135848999023 -0.4728682041168213
-0.33247989416122437 0.08527135848999023 -0.4573643207550049
-0.3191797733306885 0.08527135848999023 -0.13178294897079468
-0.31899192929267883 0.08527135848999023 -0.11627906560897827
-0.33074304461479187 0.08527135848999023 0.30232560634613037
-0.3263816237449646 0.08527135848999023 0.3178294897079468
-0.3213249444961548 0.08527135848999023 0.3333333730697632
-0.3182849586009979 0.10077524185180664 -0.5348837375640869
-0.32090145349502563 0.10077524185180664 -0.5193798542022705
-0.32276061177253723 0.10077524185180664 -0.5038759708404541
-0.32339462637901306 0.10077524185180664 -0.4883720874786377
-0.3241124153137207 0.10077524185180664 -0.4728682041168213
-0.32520389556884766 0.10077524185180664 -0.4573643207550049
-0.3260921239852905 0.10077524185180664 -0.4418604373931885
-0.32658928632736206 0.10077524185180664 -0.42635661363601685
-0.32639724016189575 0.10077524185180664 -0.41085273027420044
-0.32674381136894226 0.10077524185180664 -0.39534884691238403
-0.32724037766456604 0.10077524185180664 -0.3798449635505676
-0.32882124185562134 0.10077524185180664 -0.3643410801887512
-0.33140578866004944 0.10077524930238724 -0.3488372266292572
-0.33220696449279785 0.10077524185180664 0.28682172298431396
-0.3273950219154358 0.10077524185180664 0.30232560634613037
-0.32245704531669617 0.10077524185180664 0.3178294897079468
-0.31805291771888733 0.11627912521362305 -0.39534884691238403
-0.3190057873725891 0.11627912521362305 -0.3798449635505676
-0.3219210207462311 0.11627912521362305 -0.3643410801887512
-0.32532253861427307 0.11627912521362305 -0.3488371968269348
-0.3277525305747986 0.11627912521362305 -0.3333333134651184
-0.33040666580200195 0.11627912521362305 -0.317829430103302
-0.3281116187572479 0.11627912521362305 0.28682172298431396
-0.3236237168312073 0.11627912521362305 0.30232560634613037
-0.3181189000606537 0.11627912521362305 0.3178294897079468
-0.3216511011123657 0.1317828893661499 -0.3333333134651184
-0.3257982134819031 0.1317828893661499 -0.317829430103302
-0.32793644070625305 0.1317828893661499 -0.30232560634613037
-0.3301749527454376 0.1317828893661499 -0.28682172298431396
-0.3290802836418152 0.1317828893661499 0.27131783962249756
-0.3247906267642975 0.1317828893661499 0.28682172298431396
-0.3194033205509186 0.1317828893661499 0.30232560634613037
-0.31987664103507996 0.1472867727279663 -0.317829430103302
-0.32403892278671265 0.1472867727279663 -0.30232560634613037
-0.3267536759376526 0.1472867727279663 -0.28682172298431396
-0.32797476649284363 0.1472867727279663 -0.27131783962249756
-0.32979634404182434 0.1472867727279663 -0.25581395626068115
-0.33302804827690125 0.1472867727279663 -0.24031007289886475
-0.3298741579055786 0.1472867727279663 0.25581395626068115
-0.3259389400482178 0.1472867727279663 0.27131783962249756
-0.32076144218444824 0.1472867727279663 0.28682172298431396
-0.3190300166606903 0.16279065608978271 -0.30232560634613037
-0.3224194347858429 0.16279065608978271 -0.28682172298431396
-0.32503271102905273 0.16279065608978271 -0.27131783962249756
-0.3269496560096741 0.16279065608978271 -0.25581395626068115
-0.3277965784072876 0.16279065608978271 -0.24031007289886475
-0.32947421073913574 0.16279065608978271 -0.22480618953704834
-0.330289751291275 0.16279065608978271 0.24031007289886475
-0.3264847993850708 0.16279065608978271 0.25581395626068115
-0.322201132774353 0.16279065608978271 0.27131783962249756
-0.3180760145187378 0.17829453945159912 -0.28682172298431396
-0.32066887617111206 0.17829453945159912 -0.27131783962249756
-0.32316717505455017 0.17829453945159912 -0.25581395626068115
-0.32517874240875244 0.17829453945159912 -0.24031007289886475
-0.3269452452659607 0.17829453945159912 -0.22480618953704834
-0.32828545570373535 0.17829453945159912 -0.20930230617523193
-0.33185744285583496 0.17829453945159912 -0.19379842281341553
-0.33324745297431946 0.17829453945159912 0.20930230617523193
-0.3294526934623718 0.17829453945159912 0.22480618953704834
-0.32623255252838135 0.17829453945159912 0.24031007289886475
-0.3226422071456909 0.17829453945159912 0.25581395626068115
-0.3186952471733093 0.17829453945159912 0.27131783962249756
-0.31845930218696594 0.19379842281341553 -0.25581395626068115
-0.3203865885734558 0.19379842281341553 -0.24031007289886475
-0.32274457812309265 0.19379842281341553 -0.22480618953704834
-0.32523292303085327 0.19379842281341553 -0.20930230617523193
-0.3272583484649658 0.19379842281341553 -0.19379842281341553
-0.33012133836746216 0.19379842281341553 -0.1782945990562439
-0.33006933331489563 0.19379842281341553 0.19379842281341553
-0.3268848657608032 0.19379842281341553 0.20930230617523193
-0.3245893120765686 0.19379842281341553 0.22480618953704834
-0.3216226100921631 0.19379842281341553 0.24031007289886475
-0.31851959228515625 0.19379842281341553 0.25581395626068115
-0.3179965019226074 0.20930230617523193 -0.22480618953704834
-0.32004258036613464 0.20930230617523193 -0.20930230617523193
-0.3228939473628998 0.20930230617523193 -0.19379842281341553
-0.32585662603378296 0.20930230617523193 -0.1782945990562439
-0.3284849524497986 0.20930230617523193 -0.1627907156944275
-0.33259519934654236 0.20930230617523193 -0.1472868174314499
-0.33182501792907715 0.20930230617523193 0.1472867727279663
-0.32854506373405457 0.20930230617523193 0.16279065608978271
-0.32608455419540405 0.20930230617523193 0.17829453945159912
-0.32417958974838257 0.20930230617523193 0.19379842281341553
-0.321852445602417 0.20930230617523193 0.20930230617523193
-0.3197111189365387 0.20930230617523193 0.22480618953704834
-0.31787538528442383 0.22480618953704834 -0.19379842281341553
-0.32012033462524414 0.22480618953704834 -0.1782945990562439
-0.32305407524108887 0.22480618953704834 -0.1627907156944275
-0.32569339871406555 0.22480618953704834 -0.14728683233261108
-0.3283616900444031 0.22480618953704834 -0.13178294897079468
-0.3312453031539917 0.22480618953704834 -0.11627906560897827
-0.3314889967441559 0.22480620443820953 0.10077524185180664
-0.328480064868927 0.22480618953704834 0.11627912521362305
-0.32635799050331116 0.22480618953704834 0.1317828893661499
-0.32441771030426025 0.22480618953704834 0.1472867727279663
-0.322467565536499 0.22480618953704834 0.16279065608978271
-0.3207634389400482 0.22480618953704834 0.17829453945159912
-0.31921783089637756 0.22480618953704834 0.19379842281341553
-0.3193177878856659 0.24031007289886475 -0.14728683233261108
-0.3213941752910614 0.24031007289886475 -0.13178294897079468
-0.32327932119369507 0.24031007289886475 -0.11627906560897827
-0.3244013488292694 0.24031007289886475 -0.10077518224716187
-0.3247312009334564 0.24031007289886475 -0.08527129888534546
-0.32470500469207764 0.24031007289886475 -0.06976741552352905
-0.32440656423568726 0.24031007289886475 -0.05426359176635742
-0.32449889183044434 0.24031007289886475 -0.038759708404541016
-0.32453984022140503 0.24031007289886475 -0.02325582504272461
-0.3249124586582184 0.24031007289886475 -0.007751941680908203
-0.3252466917037964 0.24031007289886475 0.007751941680908203
-0.32555729150772095 0.24031007289886475 0.02325582504272461
-0.3259961009025574 0.24031007289886475 0.038759708404541016
-0.32617297768592834 0.24031007289886475 0.05426359176635742
-0.32607221603393555 0.24031007289886475 0.06976747512817383
-0.32546332478523254 0.24031007289886475 0.08527135848999023
-0.32433903217315674 0.24031007289886475 0.10077524185180664
-0.32273387908935547 0.24031007289886475 0.11627912521362305
-0.3211609125137329 0.24031007289886475 0.1317828893661499
-0.319614052772522 0.24031007289886475 0.1472867727279663
-0.31823909282684326 0.24031007289886475 0.16279065608978271
-0.318592369556427 0.25581395626068115 -0.10077518224716187
-0.318998247385025 0.25581395626068115 -0.08527129888534546
-0.3191431760787964 0.25581395626068115 -0.06976741552352905
-0.319162517786026 0.25581395626068115 -0.05426359176635742
-0.3194767236709595 0.25581395626068115 -0.038759708404541016
-0.31977829337120056 0.25581395626068115 -0.02325582504272461
-0.32029038667678833 0.25581395626068115 -0.007751941680908203
-0.32077598571777344 0.25581395626068115 0.007751941680908203
-0.32125192880630493 0.25581395626068115 0.02325582504272461
-0.321685791015625 0.25581395626068115 0.038759708404541016
-0.3219333589076996 0.25581395626068115 0.05426359176635742
-0.3218688368797302 0.25581395626068115 0.06976747512817383
-0.3212336599826813 0.25581395626068115 0.08527135848999023
-0.3201059401035309 0.25581395626068115 0.10077524185180664
-0.3188224136829376 0.25581395626068115 0.11627912521362305
-0.3180175721645355 0.27131783962249756 0.038759708404541016
-0.3181602954864502 0.27131783962249756 0.05426359176635742
-0.3179188072681427 0.27131783962249756 0.06976747512817383
-0.3024807274341583 -0.22480618953704834 -0.1627907156944275
-0.30265048146247864 -0.22480618953704834 -0.14728683233261108
-0.30305325984954834 -0.22480618953704834 -0.13178294897079468
-0.303426057100296 -0.22480618953704834 -0.11627906560897827
-0.3031512200832367 -0.22480618953704834 -0.10077518224716187
-0.3038322329521179 -0.20930230617523193 -0.3488371968269348
-0.30760544538497925 -0.20930230617523193 -0.3333333134651184
-0.3111599087715149 -0.20930230617523193 -0.317829430103302
-0.3138349950313568 -0.20930230617523193 -0.30232560634613037
-0.3160802125930786 -0.20930229127407074 -0.28682172298431396
-0.314471572637558 -0.20930230617523193 0.10077524185180664
-0.3099936842918396 -0.20930230617523193 0.11627912521362305
-0.3060072660446167 -0.20930230617523193 0.1317828893661499
-0.30242717266082764 -0.20930230617523193 0.1472867727279663
-0.30268222093582153 -0.19379842281341553 -0.41085273027420044
-0.3055248558521271 -0.19379842281341553 -0.39534884691238403
-0.3092225193977356 -0.19379842281341553 -0.3798449635505676
-0.31260719895362854 -0.19379842281341553 -0.3643410801887512
-0.3158647119998932 -0.19379842281341553 -0.3488371968269348
-0.3157753348350525 -0.19379842281341553 0.16279065608978271
-0.31227514147758484 -0.19379842281341553 0.17829453945159912
-0.30906957387924194 -0.19379842281341553 0.19379842281341553
-0.30525144934654236 -0.19379842281341553 0.20930230617523193
-0.30452027916908264 -0.1782945990562439 -0.5193798542022705
-0.307137668132782 -0.1782945990562439 -0.5038759708404541
-0.3087409436702728 -0.1782945990562439 -0.4883720874786377
-0.30970263481140137 -0.1782945990562439 -0.4728682041168213
-0.3102634847164154 -0.1782945990562439 -0.4573643207550049
-0.3107248544692993 -0.1782945990562439 -0.4418604373931885
-0.3116627335548401 -0.1782945990562439 -0.42635661363601685
-0.3126469850540161 -0.1782945990562439 -0.41085273027420044
-0.31450703740119934 -0.1782945990562439 -0.39534884691238403
-0.31680482625961304 -0.1782945990562439 -0.3798449635505676
-0.314890056848526 -0.1782945990562439 0.22480618953704834
-0.3122539222240448 -0.1782945990562439 0.24031007289886475
-0.3089594542980194 -0.1782945990562439 0.25581395626068115
-0.30459097027778625 -0.1782945990562439 0.27131783962249756
-0.304316908121109 -0.1627907156944275 -0.5658915042877197
-0.308433473110199 -0.1627907156944275 -0.5503876209259033
-0.3124734163284302 -0.1627907156944275 -0.5348837375640869
-0.31576645374298096 -0.1627907156944275 -0.5193798542022705
-0.31739816069602966 -0.1627907007932663 0.25581395626068115
-0.31322652101516724 -0.1627907156944275 0.27131783962249756
-0.30976438522338867 -0.1627907156944275 0.28682172298431396
-0.30502671003341675 -0.1627907156944275 0.30232560634613037
-0.3037715256214142 -0.14728683233261108 -0.6589146852493286
-0.3051590323448181 -0.14728683233261108 -0.643410861492157
-0.30600854754447937 -0.14728683233261108 -0.6279069781303406
-0.30677488446235657 -0.14728683233261108 -0.6124030947685242
-0.3091498017311096 -0.14728683233261108 -0.5968992114067078
-0.31208211183547974 -0.14728683233261108 -0.5813953876495361
-0.3159535825252533 -0.14728683233261108 -0.5658915042877197
-0.314289927482605 -0.14728683233261108 0.28682172298431396
-0.31033581495285034 -0.14728683233261108 0.30232560634613037
-0.305733323097229 -0.14728683233261108 0.3178294897079468
-0.30319809913635254 -0.13178294897079468 -0.6899224519729614
-0.3081786036491394 -0.13178294897079468 -0.674418568611145
-0.31213855743408203 -0.13178294897079468 -0.6589146852493286
-0.3149820864200592 -0.13178294897079468 -0.643410861492157
-0.31754475831985474 -0.13178293406963348 -0.6279069781303406
-0.31395915150642395 -0.13178294897079468 0.30232560634613037
-0.30995994806289673 -0.13178294897079468 0.3178294897079468
-0.30526605248451233 -0.13178294897079468 0.3333333730697632
-0.3069245219230652 -0.11627906560897827 -0.6899224519729614
-0.313133180141449 -0.11627906560897827 -0.674418568611145
-0.302410364151001 -0.11627906560897827 -0.06976741552352905
-0.30440568923950195 -0.11627906560897827 -0.05426359176635742
-0.30311551690101624 -0.11627906560897827 -0.038759708404541016
-0.30308642983436584 -0.11627906560897827 0.02325582504272461
-0.3038444519042969 -0.11627906560897827 0.038759708404541016
-0.304144948720932 -0.11627906560897827 0.05426359176635742
-0.3041791021823883 -0.11627906560897827 0.06976747512817383
-0.30456027388572693 -0.11627906560897827 0.08527135848999023
-0.30299586057662964 -0.11627906560897827 0.10077524185180664
-0.31310343742370605 -0.11627906560897827 0.3178294897079468
-0.30948498845100403 -0.11627906560897827 0.3333333730697632
-0.30508744716644287 -0.11627906560897827 0.3488372564315796
-0.3099966049194336 -0.10077518224716187 -0.6899224519729614
-0.315986305475235 -0.10077518969774246 -0.674418568611145
-0.31048303842544556 -0.10077518224716187 -0.06976741552352905
-0.31241631507873535 -0.10077518224716187 -0.05426359176635742
-0.3098694086074829 -0.10077518224716187 -0.038759708404541016
-0.3073562681674957 -0.10077518224716187 -0.02325582504272461
-0.3069010376930237 -0.10077518224716187 -0.007751941680908203
-0.30677562952041626 -0.10077518224716187 0.007751941680908203
-0.30750903487205505 -0.10077518224716187 0.02325582504272461
-0.3082442879676819 -0.10077518224716187 0.038759708404541016
-0.3091314733028412 -0.10077518224716187 0.05426359176635742
-0.3102298378944397 -0.10077518224716187 0.06976747512817383
-0.31111082434654236 -0.10077518224716187 0.08527135848999023
-0.3095141649246216 -0.10077518224716187 0.10077524185180664
-0.3066091239452362 -0.10077518224716187 0.11627912521362305
-0.30388879776000977 -0.10077518224716187 0.1317828893661499
-0.3177812397480011 -0.10077518969774246 0.3178294897079468
-0.31184065341949463 -0.10077518224716187 0.3333333730697632
-0.3088022470474243 -0.10077518224716187 0.3488372564315796
-0.30470889806747437 -0.10077518224716187 0.364341139793396
-0.30319976806640625 -0.08527129888534546 -0.7054263353347778
-0.3114105463027954 -0.08527129888534546 -0.6899224519729614
-0.3178257346153259 -0.08527130633592606 -0.674418568611145
-0.3050112724304199 -0.08527129888534546 -0.10077518224716187
-0.31204402446746826 -0.08527129888534546 -0.08527129888534546
-0.315594345331192 -0.08527129888534546 -0.038759708404541016
-0.312105655670166 -0.08527129888534546 -0.02325582504272461
-0.31073427200317383 -0.08527129888534546 -0.007751941680908203
-0.30978715419769287 -0.08527129888534546 0.007751941680908203
-0.3096667528152466 -0.08527129888534546 0.02325582504272461
-0.30972301959991455 -0.08527129888534546 0.038759708404541016
-0.3100140690803528 -0.08527129888534546 0.05426359176635742
-0.3113584518432617 -0.08527129888534546 0.06976747512817383
-0.31253165006637573 -0.08527129888534546 0.08527135848999023
-0.31136345863342285 -0.08527129888534546 0.10077524185180664
-0.3084956705570221 -0.08527129888534546 0.11627912521362305
-0.30567097663879395 -0.08527129888534546 0.1317828893661499
-0.3144093453884125 -0.08527129888534546 0.3333333730697632
-0.3108086884021759 -0.08527129888534546 0.3488372564315796
-0.30784451961517334 -0.08527129888534546 0.364341139793396
-0.30440494418144226 -0.08527129888534546 0.37984490394592285
-0.3038094639778137 -0.06976741552352905 -0.7054263353347778
-0.3117075562477112 -0.06976741552352905 -0.6899224519729614
-0.3030608892440796 -0.06976741552352905 -0.42635661363601685
-0.3063722252845764 -0.06976741552352905 -0.41085273027420044
-0.30925577878952026 -0.06976741552352905 -0.39534884691238403
-0.3115335702896118 -0.06976741552352905 -0.3798449635505676
-0.3168209195137024 -0.06976741552352905 -0.28682172298431396
-0.31033021211624146 -0.06976741552352905 -0.14728683233261108
-0.3171156048774719 -0.06976741552352905 -0.13178294897079468
-0.3164377808570862 -0.06976741552352905 -0.02325582504272461
-0.3131018579006195 -0.06976741552352905 -0.007751941680908203
-0.31084007024765015 -0.06976741552352905 0.007751941680908203
-0.31013184785842896 -0.06976741552352905 0.02325582504272461
-0.31020933389663696 -0.06976741552352905 0.038759708404541016
-0.310557097196579 -0.06976741552352905 0.05426359176635742
-0.3123551607131958 -0.06976741552352905 0.06976747512817383
-0.3137170374393463 -0.06976741552352905 0.08527135848999023
-0.3130788207054138 -0.06976741552352905 0.10077524185180664
-0.31050777435302734 -0.06976741552352905 0.11627912521362305
-0.3074154555797577 -0.06976741552352905 0.1317828893661499
-0.3128318190574646 -0.06976741552352905 0.3488372564315796
-0.3101833462715149 -0.06976741552352905 0.364341139793396
-0.3075926899909973 -0.06976741552352905 0.37984490394592285
-0.3046524226665497 -0.06976741552352905 0.39534878730773926
-0.30403316020965576 -0.05426359176635742 -0.7054263353347778
-0.31164270639419556 -0.05426359176635742 -0.6899224519729614
-0.31237176060676575 -0.05426359176635742 -0.4418604373931885
-0.31144648790359497 -0.05426359176635742 -0.25581395626068115
-0.31204694509506226 -0.05426359176635742 -0.1627907156944275
-0.3155667781829834 -0.05426359176635742 -0.007751941215246916
-0.31244057416915894 -0.05426359176635742 0.007751941680908203
-0.31177908182144165 -0.05426359176635742 0.02325582504272461
-0.3127426207065582 -0.05426359176635742 0.038759708404541016
-0.31406116485595703 -0.05426359176635742 0.05426359176635742
-0.3164699673652649 -0.05426359176635742 0.06976747512817383
-0.31762734055519104 -0.05426358804106712 0.08527135103940964
-0.3168729245662689 -0.05426359176635742 0.10077524185180664
-0.31398171186447144 -0.05426359176635742 0.11627912521362305
-0.3098956346511841 -0.05426359176635742 0.1317828893661499
-0.3030932545661926 -0.05426359176635742 0.1472867727279663
-0.3158054053783417 -0.05426359549164772 0.3488372564315796
-0.31188544631004333 -0.05426359176635742 0.364341139793396
-0.30983537435531616 -0.05426359176635742 0.37984490394592285
-0.30757421255111694 -0.05426359176635742 0.39534878730773926
-0.3048485517501831 -0.05426359176635742 0.41085267066955566
-0.3023434281349182 -0.05426359176635742 0.42635655403137207
-0.30348339676856995 -0.038759708404541016 -0.7054263353347778
-0.3110480308532715 -0.038759708404541016 -0.6899224519729614
-0.31699252128601074 -0.038759708404541016 -0.674418568611145
-0.30234411358833313 -0.038759708404541016 -0.4883720874786377
-0.3057265281677246 -0.038759708404541016 -0.4728682041168213
-0.3162781894207001 -0.038759708404541016 -0.4573642909526825
-0.31351763010025024 -0.038759708404541016 -0.22480618953704834
-0.30900225043296814 -0.038759708404541016 -0.20930230617523193
-0.3109416365623474 -0.038759708404541016 -0.19379842281341553
-0.31544229388237 -0.038759708404541016 0.00775194214656949
-0.3146885633468628 -0.038759708404541016 0.02325582504272461
-0.31628042459487915 -0.038759708404541016 0.038759708404541016
-0.317196249961853 -0.038759708404541016 0.11627913266420364
-0.3118589222431183 -0.038759708404541016 0.1317828893661499
-0.30466243624687195 -0.038759708404541016 0.1472867727279663
-0.31426364183425903 -0.038759708404541016 0.364341139793396
-0.31163617968559265 -0.038759708404541016 0.37984490394592285
-0.30987367033958435 -0.038759708404541016 0.39534878730773926
-0.3078237771987915 -0.038759708404541016 0.41085267066955566
-0.3054351806640625 -0.038759708404541016 0.42635655403137207
-0.3027697205543518 -0.038759708404541016 0.4418604373931885
-0.3023887276649475 -0.02325582504272461 -0.7054263353347778
-0.3100242018699646 -0.02325582504272461 -0.6899224519729614
-0.3149201273918152 -0.02325582504272461 -0.674418568611145
-0.30430904030799866 -0.02325582504272461 -0.5193798542022705
-0.3117206394672394 -0.02325582504272461 -0.5038759708404541
-0.3140800893306732 -0.02325582504272461 -0.4883720874786377
-0.31424593925476074 -0.02325582504272461 0.1317828893661499
-0.30622100830078125 -0.02325582504272461 0.1472867727279663
-0.31359344720840454 -0.02325582504272461 0.37984490394592285
-0.31148746609687805 -0.02325582504272461 0.39534878730773926
-0.30980998277664185 -0.02325582504272461 0.41085267066955566
-0.3079848289489746 -0.02325582504272461 0.42635655403137207
-0.3054187297821045 -0.02325582504272461 0.4418604373931885
-0.3027147948741913 -0.02325582504272461 0.4573643207550049
-0.3086243271827698 -0.007751941680908203 -0.6899224519729614
-0.3131449818611145 -0.007751941680908203 -0.674418568611145
-0.30400675535202026 -0.007751941680908203 -0.5348837375640869
-0.31212377548217773 -0.00775194214656949 -0.5193798542022705
-0.31765636801719666 -0.00775194214656949 -0.5038759708404541
-0.3144068419933319 -0.007751941680908203 0.1317828893661499
-0.30461686849594116 -0.007751941680908203 0.1472867727279663
-0.31612199544906616 -0.007751941680908203 0.37984490394592285
-0.3131602704524994 -0.007751941680908203 0.39534878730773926
-0.31119221448898315 -0.007751941680908203 0.41085267066955566
-0.3095850944519043 -0.007751941680908203 0.42635655403137207
-0.3075331449508667 -0.007751941680908203 0.4418604373931885
-0.3047264516353607 -0.007751941680908203 0.4573643207550049
-0.30676600337028503 0.007751941680908203 -0.6899224519729614
-0.3118361830711365 0.007751941680908203 -0.674418568611145
-0.3172636032104492 0.007751941215246916 -0.6589146852493286
-0.3073752224445343 0.007751941680908203 -0.5348837375640869
-0.31250423192977905 0.007751941215246916 -0.5193798542022705
-0.3122847080230713 0.007751941680908203 -0.5038759708404541
-0.30730122327804565 0.007751941680908203 -0.4883720874786377
-0.3043607473373413 0.007751941680908203 -0.4728682041168213
-0.306125670671463 0.007751941680908203 -0.4573643207550049
-0.31300729513168335 0.007751941680908203 -0.4418604075908661
-0.31144583225250244 0.007751941680908203 0.1317828893661499
-0.3146674335002899 0.007751941680908203 0.39534878730773926
-0.3122965097427368 0.007751941680908203 0.41085267066955566
-0.31048500537872314 0.007751941680908203 0.42635655403137207
-0.3086783289909363 0.007751941680908203 0.4418604373931885
-0.3060578405857086 0.007751941680908203 0.4573643207550049
-0.30309543013572693 0.007751941680908203 0.4728682041168213
-0.30414170026779175 0.02325582504272461 -0.6899224519729614
-0.31067538261413574 0.02325582504272461 -0.674418568611145
-0.31372398138046265 0.02325582504272461 -0.6589146852493286
-0.30443066358566284 0.02325582504272461 -0.5348837375640869
-0.30460771918296814 0.02325582504272461 -0.5193798542022705
-0.30413541197776794 0.02325582504272461 -0.4418604373931885
-0.3093295693397522 0.02325582504272461 -0.42635661363601685
-0.3111077547073364 0.02325582504272461 -0.41085273027420044
-0.31454455852508545 0.02325582504272461 -0.39534884691238403
-0.3163830637931824 0.02325582504272461 0.02325582504272461
-0.30982309579849243 0.02325582504272461 0.11627912521362305
-0.31499311327934265 0.02325582504272461 0.39534878730773926
-0.31243225932121277 0.02325582504272461 0.41085267066955566
-0.3104512095451355 0.02325582504272461 0.42635655403137207
-0.3085622787475586 0.02325582504272461 0.4418604373931885
-0.305766224861145 0.02325582504272461 0.4573643207550049
-0.30281785130500793 0.02325582504272461 0.4728682041168213
-0.30896443128585815 0.038759708404541016 -0.674418568611145
-0.3123791217803955 0.038759708404541016 -0.6589146852493286
-0.31679779291152954 0.038759708404541016 -0.643410861492157
-0.3026725649833679 0.038759708404541016 -0.42635661363601685
-0.3036363422870636 0.038759708404541016 -0.41085273027420044
-0.30549463629722595 0.038759708404541016 -0.39534884691238403
-0.3078342378139496 0.038759708404541016 -0.3798449635505676
-0.3140425682067871 0.038759708404541016 -0.3643410801887512
-0.31327444314956665 0.038759708404541016 -0.007751941680908203
-0.3089599311351776 0.038759708404541016 0.007751941680908203
-0.3068245053291321 0.038759708404541016 0.02325582504272461
-0.3081173300743103 0.038759708404541016 0.038759708404541016
-0.3093862533569336 0.038759708404541016 0.05426359176635742
-0.3147408962249756 0.038759708404541016 0.06976747512817383
-0.3109266459941864 0.038759708404541016 0.08527135848999023
-0.3141236901283264 0.038759708404541016 0.39534878730773926
-0.3115823566913605 0.038759708404541016 0.41085267066955566
-0.3096277415752411 0.038759708404541016 0.42635655403137207
-0.30734384059906006 0.038759708404541016 0.4418604373931885
-0.30414217710494995 0.038759708404541016 0.4573643207550049
-0.30609598755836487 0.05426359176635742 -0.674418568611145
-0.31054091453552246 0.05426359176635742 -0.6589146852493286
-0.31282904744148254 0.05426359176635742 -0.643410861492157
-0.3045559525489807 0.05426359176635742 -0.3643410801887512
