0.1472867727279663 0.922480583190918 -0.09654642641544342
0.1472867727279663 0.922480583190918 -0.07137901335954666
0.1472867727279663 0.922480583190918 0.03692802041769028
0.16279065608978271 -0.5503876209259033 0.08086861670017242
0.1627906709909439 -0.5503876209259033 0.10117831826210022
0.16279065608978271 -0.5348837375640869 0.07046230882406235
0.16279065608978271 -0.5348837375640869 0.10135231912136078
0.16279065608978271 -0.5193798542022705 0.05909254401922226
0.16279065608978271 -0.5193798542022705 0.10093389451503754
0.16279065608978271 -0.5038759708404541 0.04790174216032028
0.16279065608978271 -0.5038759708404541 0.09859523177146912
0.16279065608978271 -0.4883720874786377 0.03673906624317169
0.16279065608978271 -0.4883720874786377 0.09679356217384338
0.16279065608978271 -0.4728682041168213 0.026634514331817627
0.16279065608978271 -0.4728682041168213 0.09569188952445984
0.16279065608978271 -0.4573643207550049 0.016440657898783684
0.16279065608978271 -0.4573643207550049 0.09511515498161316
0.16279065608978271 -0.4418604373931885 0.005413067527115345
0.16279065608978271 -0.4418604373931885 0.0951097160577774
0.16279065608978271 -0.42635661363601685 -0.0043807681649923325
0.16279065608978271 -0.42635661363601685 0.09545160830020905
0.16279065608978271 -0.41085273027420044 -0.01432297844439745
0.16279065608978271 -0.41085273027420044 0.09603316336870193
0.16279065608978271 -0.39534884691238403 -0.025392867624759674
0.16279065608978271 -0.39534884691238403 0.09738567471504211
0.16279064118862152 -0.3798449635505676 -0.038546331226825714
0.16279065608978271 -0.3798449635505676 0.09943088889122009
0.16279065608978271 -0.3643410801887512 -0.05094250291585922
0.16279065608978271 -0.3643411099910736 0.10091962665319443
0.16279065608978271 -0.3488371968269348 -0.0612260177731514
0.16279065608978271 -0.3488371968269348 0.10120540857315063
0.16279065608978271 -0.3333333134651184 -0.0708465576171875
0.16279065608978271 -0.3333333134651184 0.10154092311859131
0.16279065608978271 -0.317829430103302 -0.0761062428355217
0.16279065608978271 -0.317829430103302 0.101931631565094
0.16279065608978271 -0.30232560634613037 -0.08034775406122208
0.1627906709909439 -0.30232560634613037 0.10240278393030167
0.16279065608978271 -0.28682172298431396 -0.08573488146066666
0.16279065608978271 -0.28682172298431396 0.10301480442285538
0.16279065608978271 -0.27131783962249756 -0.0876706913113594
0.16279065608978271 -0.27131783962249756 0.03625243529677391
0.16279065608978271 -0.27131783962249756 0.05641568452119827
0.16279065608978271 -0.27131783962249756 0.10373996198177338
0.16279065608978271 -0.25581395626068115 -0.0894990935921669
0.16279065608978271 -0.25581395626068115 0.03383956104516983
0.16279065608978271 -0.25581395626068115 0.05737147480249405
0.16279065608978271 -0.25581395626068115 0.1047004833817482
0.16279065608978271 -0.24031007289886475 -0.09146079421043396
0.16279065608978271 -0.24031007289886475 0.03160267695784569
0.16279065608978271 -0.24031007289886475 0.057695530354976654
0.16279065608978271 -0.24031007289886475 0.10576759278774261
0.16279065608978271 -0.22480618953704834 -0.09394297003746033
0.16279065608978271 -0.22480618953704834 0.03689395636320114
0.16279065608978271 -0.22480620443820953 0.042087361216545105
0.16279065608978271 -0.22480618953704834 0.1067512184381485
0.16279065608978271 -0.20930230617523193 -0.09684863686561584
0.16279065608978271 -0.20930230617523193 0.10781801491975784
0.16279065608978271 -0.19379842281341553 -0.10046862065792084
0.16279065608978271 -0.19379842281341553 0.10998927801847458
0.16279065608978271 -0.1782945990562439 -0.10146351903676987
0.16279065608978271 -0.1782945990562439 0.11163240671157837
0.16279065608978271 -0.1627907156944275 -0.10210347920656204
0.16279065608978271 -0.1627907156944275 0.11261361837387085
0.16279065608978271 -0.14728683233261108 -0.10261859744787216
0.16279065608978271 -0.14728683233261108 0.11332719027996063
0.16279065608978271 -0.13178294897079468 -0.10307218879461288
0.16279065608978271 -0.13178294897079468 0.11451882123947144
0.16279065608978271 -0.11627906560897827 -0.10356180369853973
0.16279065608978271 -0.11627907305955887 0.014613770879805088
0.16279065608978271 -0.11627906560897827 0.033989068120718
0.16279065608978271 -0.11627905815839767 0.11629313975572586
0.16279065608978271 -0.10077518224716187 -0.10388906300067902
0.16279065608978271 -0.10077518224716187 0.011839991435408592
0.16279065608978271 -0.10077518224716187 0.04709199070930481
0.16279065608978271 -0.10077518224716187 0.11673721671104431
0.16279065608978271 -0.08527129888534546 -0.10421795397996902
0.16279065608978271 -0.08527129888534546 0.012427780777215958
0.16279065608978271 -0.08527129888534546 0.05543472617864609
0.16279065608978271 -0.08527129888534546 0.1170361265540123
0.16279065608978271 -0.06976741552352905 -0.10450617223978043
0.16279065608978271 -0.06976741552352905 0.009792297147214413
0.16279065608978271 -0.06976741552352905 0.06187541037797928
0.16279065608978271 -0.06976741552352905 0.11733123660087585
0.16279065608978271 -0.05426359176635742 -0.10472352802753448
0.16279065608978271 -0.05426359176635742 0.003145969705656171
0.16279065608978271 -0.05426359176635742 0.07027867436408997
0.16279065608978271 -0.05426358804106712 0.1177043616771698
0.16279065608978271 -0.038759708404541016 -0.10485061258077621
0.16279065608978271 -0.038759708404541016 -0.005806649103760719
0.16279065608978271 -0.038759708404541016 0.08445115387439728
0.16279065608978271 -0.038759708404541016 0.11808976531028748
0.16279065608978271 -0.02325582504272461 -0.1049422174692154
0.16279065608978271 -0.02325582504272461 -0.01639549620449543
0.16279065608978271 -0.02325582504272461 0.09921492636203766
0.16279065608978271 -0.02325582504272461 0.11868804693222046
0.16279065608978271 -0.007751941680908203 -0.10490328818559647
0.16279065608978271 -0.007751941680908203 -0.02298315428197384
0.16279065608978271 -0.007751941680908203 0.11214140802621841
0.16279065608978271 -0.007751941215246916 0.11980628967285156
0.16279065608978271 0.007751941680908203 -0.10484489798545837
0.16279065608978271 0.007751941680908203 -0.03109988011419773
0.16279065608978271 0.02325582504272461 -0.10470341145992279
0.16279065608978271 0.02325582504272461 -0.03399240970611572
0.16279065608978271 0.038759708404541016 -0.10456521809101105
0.16279065608978271 0.038759708404541016 -0.03323344141244888
0.16279065608978271 0.05426359176635742 -0.10446673631668091
0.16279065608978271 0.05426359176635742 -0.030689870938658714
0.16279065608978271 0.06976747512817383 -0.10440798848867416
0.16279065608978271 0.06976747512817383 -0.02378120645880699
0.16279065608978271 0.08527135848999023 -0.10436367243528366
0.16279065608978271 0.08527135848999023 -0.020684028044342995
0.16279065608978271 0.10077524185180664 -0.10442408174276352
0.16279065608978271 0.10077524185180664 -0.01932702027261257
0.16279065608978271 0.11627912521362305 -0.10453900694847107
0.16279065608978271 0.11627912521362305 -0.020274030044674873
0.16279065608978271 0.11627912521362305 0.13146379590034485
0.16279064118862152 0.11627912521362305 0.13180838525295258
0.16279065608978271 0.1317828893661499 -0.10472693294286728
0.16279064118862152 0.1317828893661499 -0.022943930700421333
0.16279065608978271 0.1317828893661499 0.1246618777513504
0.16279065608978271 0.1317828893661499 0.13285022974014282
0.16279065608978271 0.1472867727279663 -0.10497471690177917
0.16279065608978271 0.1472867727279663 -0.033726766705513
0.16279065608978271 0.1472867727279663 0.12726043164730072
0.16279065608978271 0.1472867727279663 0.13348408043384552
0.16279065608978271 0.16279065608978271 -0.10516554117202759
0.16279065608978271 0.16279065608978271 -0.04252142459154129
0.16279065608978271 0.16279065608978271 0.13048669695854187
0.16279065608978271 0.16279065608978271 0.13289012014865875
0.16279065608978271 0.17829453945159912 -0.10518741607666016
0.16279065608978271 0.17829453945159912 -0.051187921315431595
0.16279065608978271 0.19379842281341553 -0.1051194965839386
0.16279065608978271 0.19379842281341553 -0.055429864674806595
0.16279065608978271 0.20930230617523193 -0.10511365532875061
0.16279065608978271 0.20930230617523193 -0.05892188847064972
0.16279065608978271 0.22480618953704834 -0.10506921261548996
0.16279065608978271 0.22480618953704834 -0.05842018872499466
0.16279065608978271 0.24031007289886475 -0.10493841767311096
0.16279065608978271 0.24031007289886475 -0.05523551255464554
0.16279065608978271 0.25581395626068115 -0.10474055260419846
0.16279065608978271 0.25581395626068115 -0.05505511909723282
0.16279065608978271 0.27131783962249756 -0.1046159565448761
0.16279065608978271 0.27131783962249756 -0.05973636358976364
0.16279065608978271 0.28682172298431396 -0.10441550612449646
0.16279065608978271 0.28682172298431396 -0.06146055459976196
0.16279065608978271 0.28682172298431396 0.13098996877670288
0.16279065608978271 0.28682172298431396 0.13507983088493347
0.16279065608978271 0.30232560634613037 -0.1042681336402893
0.16279065608978271 0.30232560634613037 -0.06061362475156784
0.16279065608978271 0.30232560634613037 0.1222287267446518
0.16279065608978271 0.30232560634613037 0.13899333775043488
0.16279065608978271 0.3178294897079468 -0.10428130626678467
0.16279065608978271 0.3178294897079468 -0.05666488781571388
0.16279065608978271 0.3178294897079468 0.0873541533946991
0.16279065608978271 0.3178294897079468 0.1398422122001648
0.16279065608978271 0.3333333730697632 -0.10429606586694717
0.16279065608978271 0.3333333730697632 -0.0534793883562088
0.16279065608978271 0.3333333730697632 0.10377826541662216
0.16279065608978271 0.3333333730697632 0.14362189173698425
0.16279065608978271 0.3488372564315796 -0.10437721759080887
0.16279065608978271 0.3488372564315796 -0.054931942373514175
0.16279065608978271 0.3488372564315796 0.12905818223953247
0.16279065608978271 0.3488372266292572 0.14949464797973633
0.16279065608978271 0.364341139793396 -0.104465551674366
0.16279065608978271 0.364341139793396 -0.06180546432733536
0.16279065608978271 0.364341139793396 0.14539183676242828
0.16279065608978271 0.364341139793396 0.1508464813232422
0.16279065608978271 0.37984490394592285 -0.10457873344421387
0.16279065608978271 0.37984490394592285 -0.06232718750834465
0.16279065608978271 0.39534878730773926 -0.10469457507133484
0.16279065608978271 0.39534878730773926 -0.0540938638150692
0.16279065608978271 0.39534878730773926 0.1618364304304123
0.16279065608978271 0.39534878730773926 0.163876011967659
0.16279065608978271 0.41085267066955566 -0.10479217022657394
0.16279065608978271 0.41085267066955566 -0.04055316373705864
0.16279065608978271 0.41085267066955566 0.16193781793117523
0.16279065608978271 0.4108526408672333 0.16405783593654633
0.16279065608978271 0.42635655403137207 -0.10484711825847626
0.16279065608978271 0.42635655403137207 -0.03617411106824875
0.16279065608978271 0.4418604373931885 -0.10495619475841522
0.16279065608978271 0.4418604373931885 -0.04649665951728821
0.16279065608978271 0.4573643207550049 -0.10514053702354431
0.16279065608978271 0.4573643207550049 -0.060032304376363754
0.16279065608978271 0.4728682041168213 -0.10536351799964905
0.16279065608978271 0.4728682041168213 -0.05281516909599304
0.16279065608978271 0.4883720874786377 -0.1057719737291336
0.16279065608978271 0.4883720874786377 -0.03950962796807289
0.16279065608978271 0.5038759708404541 -0.10623176395893097
0.16279065608978271 0.5038759708404541 -0.020851602777838707
0.16279065608978271 0.5193798542022705 -0.10690431296825409
0.16279065608978271 0.5193798542022705 -0.006877100560814142
0.16279065608978271 0.5348837375640869 -0.10787803679704666
0.1627906709909439 0.5348837375640869 -0.004937220364809036
0.16279065608978271 0.5503876209259033 -0.10879193991422653
0.16279065608978271 0.5503876209259033 -0.01222770381718874
0.16279065608978271 0.5658915042877197 -0.10944738984107971
0.16279065608978271 0.5658915042877197 -0.02883860096335411
0.16279065608978271 0.5813953876495361 -0.10964421927928925
0.16279065608978271 0.5813953876495361 -0.028001166880130768
0.16279065608978271 0.5968992710113525 -0.10967456549406052
0.16279065608978271 0.5968992710113525 -0.027019932866096497
0.16279065608978271 0.612403154373169 -0.10935580730438232
0.16279065608978271 0.612403154373169 -0.02596149407327175
0.16279065608978271 0.6279069185256958 -0.10889021307229996
0.16279064118862152 0.6279069185256958 -0.022539867088198662
0.16279065608978271 0.6434108018875122 -0.10851865261793137
0.1627906709909439 0.6434108018875122 -0.02317993715405464
0.16279065608978271 0.6589146852493286 -0.10814931988716125
0.16279065608978271 0.6589146852493286 -0.029725711792707443
0.16279065608978271 0.674418568611145 -0.10784251242876053
0.16279065608978271 0.674418568611145 -0.031161248683929443
0.16279065608978271 0.6899224519729614 -0.10766319930553436
0.16279065608978271 0.6899224519729614 -0.02786029502749443
0.16279065608978271 0.7054263353347778 -0.10784919559955597
0.16279065608978271 0.7054263353347778 -0.022998034954071045
0.16279065608978271 0.7209302186965942 -0.10798090696334839
0.16279065608978271 0.7209302186965942 -0.023968391120433807
0.16279065608978271 0.7364341020584106 -0.10809731483459473
0.16279065608978271 0.7364341020584106 -0.030589532107114792
0.16279065608978271 0.751937985420227 -0.10796037316322327
0.16279065608978271 0.751937985420227 -0.033871836960315704
0.16279065608978271 0.7674418687820435 -0.107514888048172
0.16279065608978271 0.7674419283866882 -0.03388148173689842
0.16279065608978271 0.7829457521438599 -0.10708504915237427
0.16279065608978271 0.7829457521438599 -0.030271831899881363
0.16279065608978271 0.7984496355056763 -0.10667721927165985
0.16279065608978271 0.7984496355056763 -0.022734610363841057
0.16279065608978271 0.8139535188674927 -0.10641342401504517
0.16279064118862152 0.8139534592628479 -0.02210097201168537
0.16279065608978271 0.8294574022293091 -0.1062127947807312
0.16279065608978271 0.8294574022293091 -0.02303239330649376
0.16279065608978271 0.8449612855911255 -0.1063220202922821
0.16279065608978271 0.8449612855911255 -0.02714647725224495
0.16279065608978271 0.8604651689529419 -0.1064789742231369
0.16279065608978271 0.8604651689529419 -0.029194273054599762
0.16279065608978271 0.8759689331054688 -0.10688135027885437
0.16279065608978271 0.8759689331054688 -0.02975456789135933
0.16279065608978271 0.8914728164672852 -0.10944686830043793
0.16279065608978271 0.8914728164672852 -0.021558096632361412
0.16279065608978271 0.9069766998291016 -0.10933616757392883
0.16279065608978271 0.9069766998291016 0.018792906776070595
0.16279065608978271 0.922480583190918 -0.015462158247828484
0.16279065608978271 0.922480583190918 0.027605224400758743
0.17829453945159912 -0.4883720874786377 0.08374550193548203
0.17829453945159912 -0.4883720874786377 0.09442180395126343
0.17829453945159912 -0.4728682041168213 0.07476140558719635
0.17829453945159912 -0.4728682041168213 0.10086588561534882
0.17829453945159912 -0.4573643207550049 0.0639842301607132
0.17829453945159912 -0.4573643207550049 0.10086944699287415
0.17829453945159912 -0.4418604373931885 0.05131704360246658
0.17829453945159912 -0.4418604373931885 0.09995946288108826
0.17829453945159912 -0.42635661363601685 0.038285866379737854
0.17829453945159912 -0.42635661363601685 0.09925291687250137
0.17829453945159912 -0.41085273027420044 0.028582733124494553
0.17829453945159912 -0.41085273027420044 0.09921514242887497
0.17829453945159912 -0.39534884691238403 0.017506854608654976
0.17829453945159912 -0.39534884691238403 0.10007462650537491
0.17829453945159912 -0.3798449635505676 0.005663431249558926
0.17829455435276031 -0.3798449635505676 0.10086377710103989
0.17829453945159912 -0.3643410801887512 -0.005347263067960739
0.17829453945159912 -0.3643410801887512 0.10107721388339996
0.17829453945159912 -0.3488371968269348 -0.01967472955584526
0.17829453945159912 -0.3488371670246124 0.1012854278087616
0.17829453945159912 -0.3333333134651184 -0.03941132500767708
0.17829453945159912 -0.3333333134651184 0.04624004289507866
0.17829453945159912 -0.3333333134651184 0.05932313948869705
0.17829453945159912 -0.3333333134651184 0.10154840350151062
0.17829453945159912 -0.317829430103302 -0.05660971999168396
0.17829453945159912 -0.317829430103302 0.03437671437859535
0.17829453945159912 -0.317829430103302 0.06678745150566101
0.17829453945159912 -0.317829430103302 0.10187716782093048
0.17829453945159912 -0.30232560634613037 -0.07002545148134232
0.17829453945159912 -0.30232560634613037 0.02836996130645275
0.17829453945159912 -0.30232560634613037 0.07028941065073013
0.17829453945159912 -0.30232560634613037 0.10227680951356888
0.17829453945159912 -0.28682172298431396 -0.07602782547473907
0.17829453945159912 -0.28682172298431396 0.02347661927342415
0.17829453945159912 -0.28682172298431396 0.07177990674972534
0.17829453945159912 -0.28682172298431396 0.1027924045920372
0.17829453945159912 -0.27131783962249756 -0.081179678440094
0.17829453945159912 -0.27131783962249756 0.016947725787758827
0.17829453945159912 -0.27131783962249756 0.07230012863874435
0.17829453945159912 -0.27131783962249756 0.1034223809838295
0.17829453945159912 -0.25581395626068115 -0.08609336614608765
0.17829453945159912 -0.25581395626068115 0.012717285193502903
0.17829453945159912 -0.25581395626068115 0.07298517227172852
0.17829452455043793 -0.25581395626068115 0.10432068258523941
0.17829453945159912 -0.24031007289886475 -0.08797693252563477
0.17829453945159912 -0.24031007289886475 0.008134945295751095
0.17829453945159912 -0.24031007289886475 0.07411321252584457
0.17829453945159912 -0.24031007289886475 0.10540188103914261
0.17829453945159912 -0.22480618953704834 -0.08974270522594452
0.17829453945159912 -0.22480618953704834 0.00022069737315177917
0.17829453945159912 -0.22480618953704834 0.07244518399238586
0.17829453945159912 -0.22480618953704834 0.10652186721563339
0.17829453945159912 -0.20930230617523193 -0.0916796326637268
0.17829453945159912 -0.20930230617523193 -0.0014350861310958862
0.17829453945159912 -0.20930230617523193 0.06257439404726028
0.17829453945159912 -0.20930230617523193 0.10771210491657257
0.17829453945159912 -0.19379842281341553 -0.09414844959974289
0.17829453945159912 -0.19379842281341553 0.01303328387439251
0.17829453945159912 -0.19379842281341553 0.04610040411353111
0.17829453945159912 -0.19379842281341553 0.10985264927148819
0.17829453945159912 -0.1782945990562439 -0.09666400402784348
0.17829453945159912 -0.1782945990562439 0.1116965040564537
0.17829453945159912 -0.1627907156944275 -0.09907297044992447
0.17829453945159912 -0.1627907007932663 0.010086368769407272
0.17829453945159912 -0.1627907156944275 0.033922724425792694
0.17829453945159912 -0.1627907156944275 0.11283677071332932
0.17829453945159912 -0.14728683233261108 -0.10084428638219833
0.17829453945159912 -0.14728683233261108 -0.00802336260676384
0.17829453945159912 -0.14728683233261108 0.048323143273591995
0.17829453945159912 -0.14728683233261108 0.11366014182567596
0.17829453945159912 -0.13178294897079468 -0.1012621819972992
0.17829453945159912 -0.13178294897079468 -0.013220718130469322
0.17829453945159912 -0.13178294897079468 0.05700751394033432
0.17829453945159912 -0.13178294897079468 0.11483258008956909
0.17829453945159912 -0.11627906560897827 -0.1016850471496582
0.17829453945159912 -0.11627906560897827 -0.009187377989292145
0.17829453945159912 -0.11627906560897827 0.06391065567731857
0.17829453945159912 -0.11627906560897827 0.11632456630468369
0.17829453945159912 -0.10077518224716187 -0.10197925567626953
0.17829453945159912 -0.10077518224716187 -0.00431823031976819
0.17829453945159912 -0.10077518224716187 0.06783412396907806
0.17829455435276031 -0.10077518224716187 0.1167239248752594
0.17829453945159912 -0.08527129888534546 -0.10231871902942657
0.17829453945159912 -0.08527129888534546 -0.0013908939436078072
0.17829453945159912 -0.08527129888534546 0.06963197141885757
0.17829453945159912 -0.08527129888534546 0.11700594425201416
0.17829453945159912 -0.06976741552352905 -0.10265856236219406
0.17829453945159912 -0.06976741552352905 -0.000844145193696022
0.17829453945159912 -0.06976741552352905 0.07104889303445816
0.17829453945159912 -0.06976741552352905 0.11728866398334503
0.17829453945159912 -0.05426359176635742 -0.10294723510742188
0.17829453945159912 -0.05426359176635742 -0.00268449354916811
0.17829453945159912 -0.05426359176635742 0.07382357120513916
0.17829453945159912 -0.05426359176635742 0.11767592281103134
0.17829453945159912 -0.038759708404541016 -0.10319705307483673
0.17829455435276031 -0.038759708404541016 -0.006452364847064018
0.17829453945159912 -0.038759708404541016 0.07982834428548813
0.17829453945159912 -0.038759708404541016 0.11810571700334549
0.17829453945159912 -0.02325582504272461 -0.10341178625822067
0.17829453945159912 -0.02325582504272461 -0.013749666512012482
0.17829453945159912 -0.02325582504272461 0.08639535307884216
0.17829452455043793 -0.02325582504272461 0.11875580996274948
0.17829453945159912 -0.007751941680908203 -0.10339988768100739
0.17829453945159912 -0.007751941680908203 -0.01989619992673397
0.17829453945159912 -0.007751941680908203 0.10560330748558044
0.17829453945159912 -0.007751941680908203 0.11988633871078491
0.17829453945159912 0.007751941680908203 -0.10331802070140839
0.17829453945159912 0.007751941680908203 -0.0241745263338089
0.17829453945159912 0.02325582504272461 -0.10307924449443817
0.17829453945159912 0.02325582504272461 -0.028584161773324013
0.17829453945159912 0.038759708404541016 -0.10286996513605118
0.17829453945159912 0.038759708404541016 -0.02806355431675911
0.17829453945159912 0.05426359176635742 -0.10269489139318466
0.17829453945159912 0.05426359176635742 -0.025904227048158646
0.17829453945159912 0.06976747512817383 -0.10257423669099808
0.17829453945159912 0.06976747512817383 -0.02171705663204193
0.17829453945159912 0.08527135848999023 -0.10246123373508453
0.17829453945159912 0.08527135848999023 -0.01913658156991005
0.17829453945159912 0.08527135848999023 0.1006508320569992
0.17829453945159912 0.08527135848999023 0.10118269175291061
0.17829453945159912 0.10077524185180664 -0.10247588902711868
0.17829453945159912 0.10077524185180664 -0.01784411258995533
0.17829453945159912 0.10077524185180664 0.09240321815013885
0.17829453945159912 0.10077524185180664 0.12208834290504456
0.17829453945159912 0.11627912521362305 -0.1025775745511055
0.17829453945159912 0.11627912521362305 -0.018821345642209053
0.17829453945159912 0.11627911776304245 0.08681073784828186
0.17829455435276031 0.11627913266420364 0.1318662166595459
0.17829453945159912 0.1317828893661499 -0.10277882218360901
0.17829453945159912 0.1317828893661499 -0.021793844178318977
0.17829453945159912 0.1317828893661499 0.08942506462335587
0.17829452455043793 0.1317828893661499 0.13267681002616882
0.17829453945159912 0.1472867727279663 -0.1030956283211708
0.17829453945159912 0.1472867727279663 -0.029323359951376915
0.17829453945159912 0.1472867727279663 0.09556108713150024
0.17829453945159912 0.1472867727279663 0.13337121903896332
0.17829453945159912 0.16279065608978271 -0.10348611325025558
0.17829453945159912 0.16279065608978271 -0.03692679852247238
0.17829453945159912 0.16279065608978271 0.12195967882871628
0.17829453945159912 0.16279065608978271 0.1337687373161316
0.17829453945159912 0.17829453945159912 -0.10380703955888748
0.17829453945159912 0.17829453945159912 -0.04397759586572647
0.17829453945159912 0.17829453945159912 0.13025058805942535
0.17829452455043793 0.17829452455043793 0.1326950192451477
0.17829453945159912 0.19379842281341553 -0.10405212640762329
0.17829453945159912 0.19379842281341553 -0.04869423061609268
0.17829453945159912 0.20930230617523193 -0.1041724681854248
0.17829453945159912 0.20930230617523193 -0.04974266514182091
0.17829453945159912 0.20930230617523193 0.1315414160490036
0.17829453945159912 0.20930230617523193 0.13253730535507202
0.17829453945159912 0.22480618953704834 -0.10408127307891846
0.17829453945159912 0.22480618953704834 -0.04857467859983444
0.17829453945159912 0.22480618953704834 0.13075906038284302
0.17829453945159912 0.22480618953704834 0.1372201144695282
0.17829453945159912 0.24031007289886475 -0.10385623574256897
0.17829453945159912 0.24031007289886475 -0.04619453847408295
0.17829453945159912 0.24031007289886475 0.13136626780033112
0.17829453945159912 0.24031007289886475 0.13759037852287292
0.17829453945159912 0.25581395626068115 -0.10356983542442322
0.17829453945159912 0.25581395626068115 -0.0460328683257103
0.17829453945159912 0.27131783962249756 -0.10328537970781326
0.17829453945159912 0.27131783962249756 -0.04735862836241722
0.17829453945159912 0.28682172298431396 -0.10292348265647888
0.17829453945159912 0.28682172298431396 -0.047125183045864105
0.17829453945159912 0.28682172298431396 0.13055278360843658
0.17829453945159912 0.28682172298431396 0.1361994594335556
0.17829453945159912 0.30232560634613037 -0.10267440974712372
0.17829453945159912 0.30232560634613037 -0.04612892121076584
0.17829453945159912 0.30232560634613037 0.12254049628973007
0.17829453945159912 0.30232560634613037 0.14006741344928741
0.17829453945159912 0.3178294897079468 -0.10261157900094986
0.17829453945159912 0.3178294897079468 -0.04451163858175278
0.17829453945159912 0.3178294897079468 0.10526468604803085
0.17829453945159912 0.3178294897079468 0.14194053411483765
0.17829453945159912 0.3333333730697632 -0.102559395134449
0.17829453945159912 0.3333333730697632 -0.044208914041519165
0.17829453945159912 0.3333333730697632 0.1174749955534935
0.17829453945159912 0.3333333730697632 0.14750820398330688
0.17829453945159912 0.3488372564315796 -0.10256434231996536
0.17829453945159912 0.3488372564315796 -0.048590198159217834
0.17829453945159912 0.3488372564315796 0.13709521293640137
0.17829453945159912 0.3488372564315796 0.14973381161689758
0.17829453945159912 0.364341139793396 -0.10258031636476517
0.17829453945159912 0.364341139793396 -0.0534704215824604
0.17829453945159912 0.364341139793396 0.14697375893592834
0.17829452455043793 0.3643411099910736 0.1481332629919052
0.17829453945159912 0.37984490394592285 -0.1026235893368721
0.17829453945159912 0.37984490394592285 -0.05714806914329529
0.17829453945159912 0.37984490394592285 0.16240888833999634
0.17829453945159912 0.37984490394592285 0.16306155920028687
0.17829453945159912 0.39534878730773926 -0.1026962548494339
0.17829453945159912 0.39534878730773926 -0.053456276655197144
0.17829453945159912 0.39534878730773926 0.16174760460853577
0.17829453945159912 0.39534881711006165 0.16409848630428314
0.17829453945159912 0.41085267066955566 -0.10278236120939255
0.17829453945159912 0.41085267066955566 -0.044692836701869965
0.17829453945159912 0.41085267066955566 0.16202324628829956
0.17829453945159912 0.41085267066955566 0.1639993041753769
0.17829453945159912 0.42635655403137207 -0.10284165292978287
0.17829453945159912 0.42635655403137207 -0.03852606937289238
0.17829453945159912 0.4418604373931885 -0.10292883962392807
0.17829453945159912 0.4418604373931885 -0.051300808787345886
0.17829453945159912 0.4573643207550049 -0.10305453091859818
0.17829453945159912 0.4573643207550049 -0.06370699405670166
0.17829453945159912 0.4728682041168213 -0.10320454835891724
0.17829453945159912 0.4728682041168213 -0.059929125010967255
0.17829453945159912 0.4883720874786377 -0.1034570038318634
0.17829452455043793 0.4883720874786377 -0.050323739647865295
0.17829453945159912 0.5038759708404541 -0.10372428596019745
0.17829452455043793 0.5038759708404541 -0.023114139214158058
0.17829453945159912 0.5193798542022705 -0.10411304235458374
0.17829453945159912 0.5193798542022705 -0.0076720332726836205
0.17829453945159912 0.5348837375640869 -0.10463869571685791
0.17829452455043793 0.5348837375640869 -0.0063319033943116665
0.17829453945159912 0.5503876209259033 -0.1051255613565445
0.17829453945159912 0.5503876209259033 -0.01704263687133789
0.17829453945159912 0.5658915042877197 -0.10541675239801407
0.17829453945159912 0.5658915042877197 -0.027194030582904816
0.17829453945159912 0.5813953876495361 -0.10546073317527771
0.17829453945159912 0.5813953876495361 -0.024171996861696243
0.17829453945159912 0.5968992710113525 -0.10538247972726822
0.17829453945159912 0.5968992710113525 -0.02319740690290928
0.17829453945159912 0.612403154373169 -0.105197973549366
0.17829453945159912 0.612403154373169 -0.023757968097925186
0.17829453945159912 0.6279069185256958 -0.10498176515102386
0.17829453945159912 0.6279069185256958 -0.023058785125613213
0.17829453945159912 0.6434108018875122 -0.1048346608877182
0.17829453945159912 0.6434108018875122 -0.025566915050148964
0.17829453945159912 0.6589146852493286 -0.10469857603311539
0.17829453945159912 0.6589146852493286 -0.031013965606689453
0.17829453945159912 0.674418568611145 -0.10457973182201385
0.17829453945159912 0.674418568611145 -0.03313356265425682
0.17829453945159912 0.6899224519729614 -0.10452280938625336
0.17829453945159912 0.6899224519729614 -0.03285512700676918
0.17829453945159912 0.7054263353347778 -0.10464703291654587
0.17829453945159912 0.7054263353347778 -0.031315211206674576
0.17829453945159912 0.7209302186965942 -0.1047370582818985
0.17829453945159912 0.7209302186965942 -0.03186764568090439
0.17829453945159912 0.7364341020584106 -0.10484112054109573
0.17829452455043793 0.7364341020584106 -0.03475477173924446
0.17829453945159912 0.751937985420227 -0.10476749390363693
0.17829452455043793 0.751937985420227 -0.036704275757074356
0.17829453945159912 0.7674418687820435 -0.10448688268661499
0.17829453945159912 0.7674418687820435 -0.03660539910197258
0.17829453945159912 0.7829457521438599 -0.10422587394714355
0.17829453945159912 0.7829457521438599 -0.034748658537864685
0.17829453945159912 0.7984496355056763 -0.10396672040224075
0.17829453945159912 0.7984496355056763 -0.03167088329792023
0.17829453945159912 0.8139535188674927 -0.10380701720714569
0.17829453945159912 0.8139535188674927 -0.029999293386936188
0.17829453945159912 0.8294574022293091 -0.10371720045804977
0.17829453945159912 0.8294574022293091 -0.03155383840203285
0.17829453945159912 0.8449612855911255 -0.10384366661310196
0.17829453945159912 0.8449612855911255 -0.031853217631578445
0.17829453945159912 0.8604651689529419 -0.10412827134132385
0.17829453945159912 0.8604651689529419 -0.030232727527618408
0.17829453945159912 0.8759689331054688 -0.1049843579530716
0.17829453945159912 0.8759689331054688 -0.0225824024528265
0.17829453945159912 0.8914728164672852 -0.10692174732685089
0.17829453945159912 0.8914728164672852 -0.009306902065873146
0.17829453945159912 0.9069766998291016 -0.042317137122154236
0.17829453945159912 0.9069766998291016 0.03409978747367859
0.19379842281341553 -0.39534884691238403 0.08090641349554062
0.19379842281341553 -0.39534884691238403 0.1013684868812561
0.19379842281341553 -0.3798449635505676 0.07394953817129135
0.19379842281341553 -0.3798449635505676 0.10190557688474655
0.19379842281341553 -0.3643410801887512 0.06842285394668579
0.19379842281341553 -0.3643410801887512 0.10212893038988113
0.19379842281341553 -0.3488371968269348 0.06480573117733002
0.19379842281341553 -0.3488371968269348 0.10221218317747116
0.19379842281341553 -0.3333333134651184 0.065235935151577
0.19379842281341553 -0.3333333134651184 0.10229754447937012
0.19379843771457672 -0.317829430103302 0.011858939193189144
0.19379842281341553 -0.317829430103302 0.0271038506180048
0.19379842281341553 -0.317829430103302 0.06939738988876343
0.19379842281341553 -0.317829430103302 0.10241328924894333
0.19379842281341553 -0.30232560634613037 -0.013435645028948784
0.19379842281341553 -0.30232560634613037 0.02551465667784214
0.19379842281341553 -0.30232560634613037 0.07352103292942047
0.19379842281341553 -0.30232560634613037 0.10262652486562729
0.19379842281341553 -0.28682172298431396 -0.04585874080657959
0.19379842281341553 -0.28682172298431396 0.021063795313239098
0.19379842281341553 -0.28682172298431396 0.07637053728103638
0.19379842281341553 -0.28682172298431396 0.10293956100940704
0.19379842281341553 -0.27131783962249756 -0.06801561266183853
0.19379842281341553 -0.27131783962249756 0.01417488418519497
0.19379842281341553 -0.27131783962249756 0.07821372896432877
0.19379843771457672 -0.27131783962249756 0.10337625443935394
0.19379842281341553 -0.25581395626068115 -0.07637780904769897
0.19379842281341553 -0.25581395626068115 0.009851526468992233
0.19379842281341553 -0.25581395626068115 0.08001130074262619
0.19379842281341553 -0.25581395626068115 0.10407807677984238
0.19379842281341553 -0.24031007289886475 -0.08342161774635315
0.19379842281341553 -0.24031007289886475 0.0015635555610060692
0.19379842281341553 -0.24031007289886475 0.08167372643947601
0.19379842281341553 -0.24031007289886475 0.10502728074789047
0.19379842281341553 -0.22480618953704834 -0.0867699682712555
0.19379842281341553 -0.22480618953704834 -0.005738819018006325
0.19379842281341553 -0.22480618953704834 0.08232807368040085
0.19379842281341553 -0.22480618953704834 0.10623322427272797
0.19379842281341553 -0.20930230617523193 -0.0884743258357048
0.19379842281341553 -0.20930230617523193 -0.012439960613846779
0.19379842281341553 -0.20930230617523193 0.08055415749549866
0.19379842281341553 -0.20930230617523193 0.10771007090806961
0.19379842281341553 -0.19379842281341553 -0.09031690657138824
0.19379842281341553 -0.19379842281341553 -0.014489229768514633
0.19379842281341553 -0.19379842281341553 0.06956548988819122
0.19379842281341553 -0.19379842281341553 0.10984113812446594
0.19379842281341553 -0.1782945990562439 -0.0922606885433197
0.19379842281341553 -0.1782945990562439 -0.014182602986693382
0.19379842281341553 -0.1782945990562439 0.06307432800531387
0.19379842281341553 -0.1782945990562439 0.1118767261505127
0.19379842281341553 -0.1627907156944275 -0.09427137672901154
0.19379842281341553 -0.1627907156944275 -0.01646404154598713
0.19379842281341553 -0.1627907156944275 0.06383325904607773
0.19379842281341553 -0.1627907156944275 0.11330980062484741
0.19379842281341553 -0.14728683233261108 -0.09598458558320999
0.19379842281341553 -0.14728683233261108 -0.018390316516160965
0.19379842281341553 -0.14728683233261108 0.06864632666110992
0.19379842281341553 -0.14728683233261108 0.11432982981204987
0.19379842281341553 -0.13178294897079468 -0.09754175692796707
0.19379842281341553 -0.13178294897079468 -0.018007326871156693
0.19379842281341553 -0.13178294897079468 0.074799545109272
0.19379842281341553 -0.13178294897079468 0.11564795672893524
0.19379842281341553 -0.11627906560897827 -0.0988447517156601
0.19379842281341553 -0.11627906560897827 -0.01486855000257492
0.19379842281341553 -0.11627906560897827 0.08014452457427979
0.19379842281341553 -0.11627907305955887 0.11648620665073395
0.19379843771457672 -0.10077518969774246 -0.09967029094696045
0.19379842281341553 -0.10077518224716187 -0.010461211204528809
0.19379842281341553 -0.10077518224716187 0.08292598277330399
0.19379842281341553 -0.10077518224716187 0.11682484298944473
0.19379842281341553 -0.08527129888534546 -0.10058241337537766
0.19379842281341553 -0.08527129143476486 -0.007321879267692566
0.19379842281341553 -0.08527129888534546 0.08362852782011032
0.19379842281341553 -0.08527129143476486 0.11707193404436111
0.19379842281341553 -0.06976741552352905 -0.10096218436956406
0.19379840791225433 -0.06976741552352905 -0.006735347677022219
0.19379842281341553 -0.06976741552352905 0.08320794254541397
0.19379842281341553 -0.06976741552352905 0.11731696128845215
0.19379842281341553 -0.05426359176635742 -0.10117002576589584
0.19379842281341553 -0.05426359176635742 -0.007309369742870331
0.19379842281341553 -0.05426359176635742 0.08267094194889069
0.19379842281341553 -0.05426359176635742 0.11767453700304031
0.19379842281341553 -0.038759708404541016 -0.10138242691755295
0.19379842281341553 -0.038759708404541016 -0.010389773175120354
0.19379842281341553 -0.038759708404541016 0.08289096504449844
0.19379842281341553 -0.038759708404541016 0.11811588704586029
0.19379842281341553 -0.02325582504272461 -0.10155068337917328
0.19379842281341553 -0.02325582504272461 -0.015313936397433281
0.19379842281341553 -0.02325582504272461 0.08380144089460373
0.19379842281341553 -0.02325582504272461 0.11880667507648468
0.19379842281341553 -0.007751941680908203 -0.10155487060546875
0.19379842281341553 -0.007751941680908203 -0.019735537469387054
0.19379842281341553 -0.007751941680908203 0.09118594229221344
0.19379842281341553 -0.007751941680908203 0.11998459696769714
0.19379842281341553 0.007751941680908203 -0.10152655839920044
0.19379842281341553 0.007751941680908203 -0.02270686626434326
0.19379842281341553 0.007751941680908203 0.10016321390867233
0.19379842281341553 0.007751941680908203 0.12001204490661621
0.19379842281341553 0.02325582504272461 -0.10140477865934372
0.19379842281341553 0.02325582504272461 -0.026212232187390327
0.19379842281341553 0.038759708404541016 -0.10127366334199905
0.19379842281341553 0.038759708404541016 -0.025875497609376907
0.19379842281341553 0.05426359176635742 -0.10116381198167801
0.19379842281341553 0.05426359176635742 -0.023826459422707558
0.19379842281341553 0.05426359176635742 0.09787404537200928
0.19379842281341553 0.05426359176635742 0.10836378484964371
0.19379842281341553 0.06976747512817383 -0.10108651220798492
0.19379843771457672 0.06976747512817383 -0.021071258932352066
0.19379842281341553 0.06976747512817383 0.08515162020921707
0.19379842281341553 0.06976747512817383 0.11939127743244171
0.19379842281341553 0.08527135848999023 -0.10100875794887543
0.19379842281341553 0.08527135848999023 -0.01863780990242958
0.19379842281341553 0.08527135848999023 0.08204057067632675
0.19379842281341553 0.08527135848999023 0.12512828409671783
0.19379842281341553 0.10077524185180664 -0.10100847482681274
0.19379842281341553 0.10077524185180664 -0.01762196607887745
0.19379842281341553 0.10077524185180664 0.07996317744255066
0.19379842281341553 0.10077524185180664 0.1297493278980255
0.19379842281341553 0.11627912521362305 -0.10107068717479706
0.19379840791225433 0.11627911776304245 -0.01867053657770157
0.19379842281341553 0.11627912521362305 0.07859870791435242
0.19379842281341553 0.11627912521362305 0.1321013867855072
0.19379842281341553 0.1317828893661499 -0.10119959712028503
0.19379842281341553 0.1317828893661499 -0.021531902253627777
0.19379842281341553 0.1317828893661499 0.07926727831363678
0.19379843771457672 0.1317828893661499 0.1327355057001114
0.19379842281341553 0.1472867727279663 -0.10140641778707504
0.19379842281341553 0.1472867727279663 -0.027364365756511688
0.19379842281341553 0.1472867727279663 0.08145791292190552
0.19379842281341553 0.1472867727279663 0.13341350853443146
0.19379842281341553 0.16279065608978271 -0.10169519484043121
0.19379842281341553 0.16279065608978271 -0.03435756266117096
0.19379842281341553 0.16279065608978271 0.08494297415018082
0.19379842281341553 0.16279065608978271 0.13420642912387848
0.19379842281341553 0.17829453945159912 -0.10199841856956482
0.19379842281341553 0.17829453945159912 -0.038399454206228256
0.19379842281341553 0.17829453945159912 0.09439057111740112
0.19379842281341553 0.17829452455043793 0.1349707990884781
0.19379842281341553 0.19379842281341553 -0.10223086923360825
0.19379842281341553 0.19379842281341553 -0.043566979467868805
0.19379842281341553 0.19379842281341553 0.09930161386728287
0.19379842281341553 0.19379842281341553 0.11290976405143738
0.19379842281341553 0.19379842281341553 0.11789516359567642
0.19379842281341553 0.19379842281341553 0.1355878710746765
0.19379842281341553 0.20930230617523193 -0.10234394669532776
0.19379842281341553 0.20930230617523193 -0.04518107324838638
0.19379842281341553 0.20930230617523193 0.1249384805560112
0.19379842281341553 0.20930230617523193 0.13819609582424164
0.19379842281341553 0.22480618953704834 -0.10227187722921371
0.19379842281341553 0.22480618953704834 -0.044040460139513016
0.19379842281341553 0.22480618953704834 0.12638811767101288
0.19379842281341553 0.22480618953704834 0.14195434749126434
0.19379842281341553 0.24031007289886475 -0.10212565958499908
0.19379842281341553 0.24031007289886475 -0.041171327233314514
0.19379842281341553 0.24031007289886475 0.12675735354423523
0.19379842281341553 0.24031007289886475 0.14666582643985748
0.19379842281341553 0.25581395626068115 -0.10197329521179199
0.19379842281341553 0.25581395626068115 -0.04014104977250099
0.19379842281341553 0.25581395626068115 0.12804514169692993
0.19379842281341553 0.25581395626068115 0.14763447642326355
0.19379842281341553 0.27131783962249756 -0.10181789845228195
0.19379842281341553 0.27131783962249756 -0.0396980382502079
0.19379842281341553 0.27131783962249756 0.1308411806821823
0.19379840791225433 0.27131780982017517 0.14774712920188904
0.19379842281341553 0.28682172298431396 -0.10159924626350403
0.19379842281341553 0.28682172298431396 -0.03806028515100479
0.19379842281341553 0.28682172298431396 0.12901616096496582
0.19379842281341553 0.28682172298431396 0.14749528467655182
0.19379842281341553 0.30232560634613037 -0.101471908390522
0.19379842281341553 0.30232560634613037 -0.0371418297290802
0.19379842281341553 0.30232560634613037 0.12458029389381409
0.19379842281341553 0.30232560634613037 0.14738084375858307
0.19379842281341553 0.3178294897079468 -0.10146261751651764
0.19379842281341553 0.3178294897079468 -0.03638389706611633
0.19379842281341553 0.3178294897079468 0.11916372179985046
0.19379842281341553 0.3178294897079468 0.1476866900920868
0.19379842281341553 0.3333333730697632 -0.10145241022109985
0.19379842281341553 0.3333333730697632 -0.03664599731564522
0.19379842281341553 0.3333333730697632 0.12642191350460052
0.19379842281341553 0.3333333730697632 0.14873802661895752
0.19379842281341553 0.3488372564315796 -0.10147611051797867
0.19379842281341553 0.3488372564315796 -0.04221905767917633
0.19379842281341553 0.3488372564315796 0.14215940237045288
0.19379842281341553 0.3488372564315796 0.14995655417442322
0.19379842281341553 0.364341139793396 -0.10149715840816498
0.19379842281341553 0.364341139793396 -0.0501740537583828
0.19379842281341553 0.37984490394592285 -0.10154689848423004
0.19379842281341553 0.37984490394592285 -0.05282032489776611
0.19379842281341553 0.37984490394592285 0.1621425598859787
0.19379843771457672 0.37984493374824524 0.16335278749465942
0.19379842281341553 0.39534878730773926 -0.10164830833673477
0.19379840791225433 0.39534878730773926 -0.052213720977306366
0.19379842281341553 0.39534878730773926 0.16169996559619904
0.19379842281341553 0.39534878730773926 0.16424933075904846
0.19379842281341553 0.41085267066955566 -0.1017739474773407
0.19379842281341553 0.41085267066955566 -0.04757152497768402
0.19379842281341553 0.41085267066955566 0.16212151944637299
0.19379842281341553 0.41085267066955566 0.16390585899353027
0.19379842281341553 0.42635655403137207 -0.10186254233121872
0.19379842281341553 0.42635655403137207 -0.0449555367231369
0.19379842281341553 0.4418604373931885 -0.10193618386983871
0.19379842281341553 0.4418604373931885 -0.05608126521110535
0.19379842281341553 0.4573643207550049 -0.1020001471042633
0.19379840791225433 0.4573642909526825 -0.0644478127360344
0.19379842281341553 0.4728682041168213 -0.10205960273742676
0.19379842281341553 0.4728682041168213 -0.06168537586927414
0.19379842281341553 0.4883720874786377 -0.10215432196855545
0.19379842281341553 0.4883720874786377 -0.05572062358260155
0.19379842281341553 0.5038759708404541 -0.10226237773895264
0.19379843771457672 0.5038759708404541 -0.036617476493120193
0.19379842281341553 0.5193798542022705 -0.10244046896696091
0.19379842281341553 0.5193798542022705 -0.013094132766127586
0.19379842281341553 0.5348837375640869 -0.10269971191883087
0.19379842281341553 0.5348837375640869 -0.007141727954149246
0.19379842281341553 0.5503876209259033 -0.10294919461011887
0.19379842281341553 0.5503876209259033 -0.020958157256245613
0.19379842281341553 0.5658915042877197 -0.10307338088750839
0.19379842281341553 0.5658915042877197 -0.025492509827017784
0.19379842281341553 0.5813953876495361 -0.10307090729475021
0.19379842281341553 0.5813953876495361 -0.02239798568189144
0.19379842281341553 0.5968992710113525 -0.10300639271736145
0.19379842281341553 0.5968992710113525 -0.022303812205791473
0.19379842281341553 0.612403154373169 -0.10290578007698059
0.19379842281341553 0.612403154373169 -0.022940123453736305
0.19379842281341553 0.6279069185256958 -0.10280162841081619
0.19379842281341553 0.6279069185256958 -0.02389405481517315
0.19379842281341553 0.6434108018875122 -0.10274628549814224
0.19379842281341553 0.6434108018875122 -0.028439223766326904
0.19379842281341553 0.6589146852493286 -0.10270044952630997
0.19379842281341553 0.6589146852493286 -0.03308018669486046
0.19379842281341553 0.674418568611145 -0.10265412926673889
0.19379842281341553 0.674418568611145 -0.0350346639752388
0.19379842281341553 0.6899224519729614 -0.10263297706842422
0.19379842281341553 0.6899224519729614 -0.035172224044799805
0.19379842281341553 0.7054263353347778 -0.10269222408533096
0.19379842281341553 0.7054263353347778 -0.03384672850370407
0.19379842281341553 0.7209302186965942 -0.10272154957056046
0.19379842281341553 0.7209302186965942 -0.03341183811426163
0.19379842281341553 0.7364341020584106 -0.10278594493865967
0.19379842281341553 0.7364341020584106 -0.03561093658208847
0.19379842281341553 0.751937985420227 -0.10278087854385376
0.19379840791225433 0.751937985420227 -0.03756670281291008
0.19379842281341553 0.7674418687820435 -0.10267120599746704
0.19379842281341553 0.7674418687820435 -0.037533316761255264
0.19379842281341553 0.7829457521438599 -0.10257460922002792
0.19379842281341553 0.7829457521438599 -0.03601144254207611
0.19379842281341553 0.7984496355056763 -0.10245229303836823
0.19379842281341553 0.7984496355056763 -0.03432284668087959
0.19379842281341553 0.8139535188674927 -0.10232815146446228
0.19379842281341553 0.8139535188674927 -0.03356816992163658
0.19379842281341553 0.8294574022293091 -0.1022111028432846
0.19379842281341553 0.8294574022293091 -0.03408946096897125
0.19379842281341553 0.8449612855911255 -0.1022343784570694
0.19379842281341553 0.8449612259864807 -0.033405303955078125
0.19379842281341553 0.8604651689529419 -0.10262636095285416
0.19379842281341553 0.8604651689529419 -0.026482637971639633
0.19379842281341553 0.8759689331054688 -0.10393844544887543
0.19379842281341553 0.8759689331054688 -0.01607971265912056
0.19379842281341553 0.8914728164672852 -0.10220711678266525
0.19379842281341553 0.8914728164672852 0.012490708380937576
0.19379842281341553 0.9069766998291016 0.0005298603791743517
0.19379842281341553 0.9069767594337463 0.026139970868825912
0.20930230617523193 -0.317829430103302 0.09842518717050552
0.20930230617523193 -0.317829430103302 0.10198751837015152
0.20930230617523193 -0.30232560634613037 0.09578775614500046
0.20930230617523193 -0.30232560634613037 0.10346691310405731
0.20930230617523193 -0.28682172298431396 0.09309161454439163
0.20930230617523193 -0.28682172298431396 0.1045473963022232
0.20930230617523193 -0.27131783962249756 0.0907234251499176
0.20930230617523193 -0.27131783962249756 0.10541261732578278
0.20930230617523193 -0.25581395626068115 0.08904706686735153
0.20930230617523193 -0.25581395626068115 0.10623029619455338
0.20930230617523193 -0.24031007289886475 -0.042045339941978455
0.20930230617523193 -0.24031008780002594 0.008062194101512432
0.20930229127407074 -0.24031005799770355 0.08922070264816284
0.20930230617523193 -0.24031007289886475 0.10692304372787476
0.20930230617523193 -0.22480618953704834 -0.0747208446264267
0.20930230617523193 -0.22480618953704834 0.006826732307672501
0.20930230617523193 -0.22480618953704834 0.08941002190113068
0.20930230617523193 -0.22480618953704834 0.1079864501953125
0.20930230617523193 -0.20930230617523193 -0.08606467396020889
0.20930230617523193 -0.20930230617523193 0.004664587788283825
0.20930229127407074 -0.20930229127407074 0.08829715847969055
0.20930230617523193 -0.20930230617523193 0.1095927432179451
0.20930230617523193 -0.19379842281341553 -0.08826286345720291
0.20930230617523193 -0.19379842281341553 0.00669203232973814
0.20930230617523193 -0.19379842281341553 0.08154170215129852
