0.038759708404541016 -0.5038759708404541 -0.21387505531311035
0.038759708404541016 -0.5038759708404541 -0.0358152762055397
0.038759708404541016 -0.4883720874786377 -0.21597440540790558
0.038759708404541016 -0.4883720874786377 -0.03795976936817169
0.038759708404541016 -0.4728682041168213 -0.2183208018541336
0.038759708404541016 -0.4728682041168213 -0.040961239486932755
0.038759708404541016 -0.4573642909526825 -0.22113148868083954
0.038759708404541016 -0.4573643207550049 -0.04357782006263733
0.03875970467925072 -0.4418604373931885 -0.22411182522773743
0.038759708404541016 -0.4418604373931885 -0.04466434568166733
0.038759708404541016 -0.42635661363601685 -0.22558318078517914
0.038759708404541016 -0.42635661363601685 -0.044473133981227875
0.038759708404541016 -0.41085273027420044 -0.2265324890613556
0.038759708404541016 -0.41085273027420044 -0.044126465916633606
0.038759708404541016 -0.39534884691238403 -0.22699163854122162
0.038759708404541016 -0.39534884691238403 -0.04571627080440521
0.038759708404541016 -0.3798449635505676 -0.2273588478565216
0.038759708404541016 -0.3798449635505676 -0.04853607714176178
0.038759708404541016 -0.3643410801887512 -0.22755837440490723
0.038759708404541016 -0.3643410801887512 -0.05066496133804321
0.038759708404541016 -0.3488371968269348 -0.22782392799854279
0.038759708404541016 -0.3488371968269348 -0.05201210826635361
0.038759708404541016 -0.3333333134651184 -0.2283933162689209
0.038759708404541016 -0.3333333134651184 -0.0525892972946167
0.038759708404541016 -0.317829430103302 -0.2290918231010437
0.038759708404541016 -0.317829430103302 -0.052574172616004944
0.038759708404541016 -0.30232560634613037 -0.23001715540885925
0.038759708404541016 -0.30232560634613037 -0.052066829055547714
0.038759708404541016 -0.28682172298431396 -0.23114638030529022
0.038759708404541016 -0.28682172298431396 -0.050435468554496765
0.038759708404541016 -0.27131783962249756 -0.23256662487983704
0.038759708404541016 -0.27131783962249756 -0.047699470072984695
0.038759708404541016 -0.25581395626068115 -0.23404791951179504
0.038759708404541016 -0.25581395626068115 -0.040797606110572815
0.038759708404541016 -0.24031007289886475 -0.2357613742351532
0.038759708404541016 -0.24031007289886475 -0.035857249051332474
0.038759708404541016 -0.24031007289886475 0.05020885169506073
0.038759708404541016 -0.24031007289886475 0.0544770173728466
0.038759708404541016 -0.22480618953704834 -0.23731359839439392
0.038759708404541016 -0.22480618953704834 -0.009047211147844791
0.038759708404541016 -0.22480618953704834 0.007792296819388866
0.038759708404541016 -0.22480618953704834 0.06360490620136261
0.038759708404541016 -0.20930230617523193 -0.23833945393562317
0.038759708404541016 -0.20930230617523193 0.06205569952726364
0.038759708404541016 -0.19379842281341553 -0.2396419197320938
0.038759708404541016 -0.19379842281341553 0.05899161100387573
0.038759708404541016 -0.1782945990562439 -0.24038465321063995
0.038759708404541016 -0.1782945990562439 0.07131126523017883
0.038759708404541016 -0.1782945990562439 0.16202662885189056
0.038759708404541016 -0.1782945990562439 0.2579788565635681
0.038759708404541016 -0.1627907156944275 -0.240736722946167
0.038759708404541016 -0.1627907156944275 0.25327804684638977
0.038759708404541016 -0.14728683233261108 -0.240916907787323
0.038759708404541016 -0.14728683233261108 0.1786358654499054
0.038759708404541016 -0.13178294897079468 -0.24108965694904327
0.038759708404541016 -0.13178294897079468 0.12264424562454224
0.038759708404541016 -0.11627906560897827 -0.2415885180234909
0.038759708404541016 -0.11627906560897827 0.07718503475189209
0.038759708404541016 -0.10077518224716187 -0.24223239719867706
0.038759708404541016 -0.10077518224716187 0.029614724218845367
0.038759708404541016 -0.08527129888534546 -0.24309389293193817
0.038759708404541016 -0.08527129888534546 -0.042664412409067154
0.038759708404541016 -0.06976741552352905 -0.24402396380901337
0.038759708404541016 -0.06976741552352905 -0.048750631511211395
0.038759708404541016 -0.05426359176635742 -0.24499034881591797
0.038759708404541016 -0.05426359176635742 -0.11630178242921829
0.038759708404541016 -0.05426359176635742 -0.11625019460916519
0.03875970467925072 -0.05426358804106712 -0.05140852555632591
0.038759708404541016 -0.038759708404541016 -0.24584048986434937
0.038759708404541016 -0.038759708404541016 -0.1179797351360321
0.038759708404541016 -0.038759708404541016 -0.11397865414619446
0.038759708404541016 -0.038759708404541016 -0.05219676345586777
0.038759708404541016 -0.02325582504272461 -0.246506005525589
0.038759708404541016 -0.02325582504272461 -0.051678575575351715
0.038759708404541016 -0.007751941680908203 -0.2464197278022766
0.038759708404541016 -0.007751941680908203 -0.05037223920226097
0.038759708404541016 0.007751941680908203 -0.24611671268939972
0.038759708404541016 0.007751941680908203 -0.0487818568944931
0.038759708404541016 0.02325582504272461 -0.24543926119804382
0.038759708404541016 0.02325582504272461 -0.04316217079758644
0.038759708404541016 0.038759708404541016 -0.24452388286590576
0.038759708404541016 0.038759708404541016 -0.041890114545822144
0.038759708404541016 0.05426359176635742 -0.243983194231987
0.038759708404541016 0.05426359176635742 -0.049131400883197784
0.038759708404541016 0.06976747512817383 -0.2437024563550949
0.038759712129831314 0.06976747512817383 -0.05425487458705902
0.038759708404541016 0.08527135848999023 -0.2435612976551056
0.038759708404541016 0.08527135848999023 -0.06004231050610542
0.038759708404541016 0.10077524185180664 -0.24355089664459229
0.038759708404541016 0.10077524185180664 -0.06077319756150246
0.038759708404541016 0.11627912521362305 -0.2435593158006668
0.038759708404541016 0.11627912521362305 -0.057841699570417404
0.038759708404541016 0.1317828893661499 -0.2436656653881073
0.038759708404541016 0.1317828893661499 -0.0529349222779274
0.038759708404541016 0.1472867727279663 -0.24380338191986084
0.038759708404541016 0.1472867727279663 -0.046330180019140244
0.038759708404541016 0.16279065608978271 -0.24362316727638245
0.038759708404541016 0.16279065608978271 -0.04217379167675972
0.038759708404541016 0.17829453945159912 -0.24297082424163818
0.038759708404541016 0.17829453945159912 -0.045150332152843475
0.038759708404541016 0.19379842281341553 -0.2423454225063324
0.038759708404541016 0.19379842281341553 -0.05272604152560234
0.038759708404541016 0.20930230617523193 -0.24138328433036804
0.038759708404541016 0.20930230617523193 -0.06318221241235733
0.038759708404541016 0.22480618953704834 -0.24056170880794525
0.038759708404541016 0.22480618953704834 -0.07292311638593674
0.038759708404541016 0.24031007289886475 -0.2396060824394226
0.038759708404541016 0.24031007289886475 -0.10469591617584229
0.038759708404541016 0.25581395626068115 -0.2384689748287201
0.038759708404541016 0.25581395626068115 -0.11854835599660873
0.03875970467925072 0.27131783962249756 -0.2378065139055252
0.038759708404541016 0.27131783962249756 -0.12585198879241943
0.038759708404541016 0.28682172298431396 -0.23709380626678467
0.038759708404541016 0.28682172298431396 -0.13088326156139374
0.038759708404541016 0.30232560634613037 -0.2366158813238144
0.038759708404541016 0.30232560634613037 -0.13935673236846924
0.038759708404541016 0.3178294897079468 -0.2365010529756546
0.038759708404541016 0.3178294897079468 -0.14486223459243774
0.038759708404541016 0.3333333730697632 -0.23632961511611938
0.038759708404541016 0.3333333730697632 -0.14831656217575073
0.038759708404541016 0.3488372266292572 -0.2361859381198883
0.038759708404541016 0.3488372564315796 -0.15256880223751068
0.038759708404541016 0.364341139793396 -0.23572170734405518
0.038759708404541016 0.364341139793396 -0.15499818325042725
0.038759708404541016 0.37984490394592285 -0.23453517258167267
0.038759708404541016 0.37984490394592285 -0.15560950338840485
0.038759708404541016 0.39534878730773926 -0.23336061835289001
0.038759708404541016 0.39534878730773926 -0.15524059534072876
0.038759708404541016 0.41085267066955566 -0.23231445252895355
0.038759708404541016 0.41085267066955566 -0.1557959020137787
0.038759708404541016 0.42635655403137207 -0.2314160019159317
0.038759708404541016 0.42635655403137207 -0.15668638050556183
0.038759708404541016 0.4418604373931885 -0.23109519481658936
0.038759708404541016 0.4418604373931885 -0.15589722990989685
0.038759708404541016 0.4573643207550049 -0.23118402063846588
0.038759708404541016 0.4573643207550049 -0.15469971299171448
0.038759708404541016 0.4728682041168213 -0.2313631772994995
0.038759708404541016 0.4728682041168213 -0.15271373093128204
0.038759708404541016 0.4883720874786377 -0.2320174127817154
0.038759708404541016 0.4883720874786377 -0.1504938155412674
0.038759708404541016 0.5038759708404541 -0.23275700211524963
0.038759708404541016 0.5038759708404541 -0.1478026956319809
0.038759708404541016 0.5193798542022705 -0.23348358273506165
0.038759708404541016 0.5193798542022705 -0.14648926258087158
0.038759708404541016 0.5348837375640869 -0.23386284708976746
0.038759708404541016 0.5348837375640869 -0.14573070406913757
0.038759708404541016 0.5503876209259033 -0.23406200110912323
0.038759708404541016 0.5503876209259033 -0.1455175280570984
0.038759708404541016 0.5658915042877197 -0.23327943682670593
0.038759708404541016 0.5658915042877197 -0.14568209648132324
0.038759708404541016 0.5813953876495361 -0.23232653737068176
0.038759708404541016 0.5813953876495361 -0.14527876675128937
0.038759708404541016 0.5968992710113525 -0.23106256127357483
0.038759708404541016 0.5968992710113525 -0.14419566094875336
0.038759708404541016 0.612403154373169 -0.2292129397392273
0.038759708404541016 0.612403154373169 -0.1434391438961029
0.038759708404541016 0.6279069185256958 -0.22755374014377594
0.038759708404541016 0.6279069185256958 -0.14373832941055298
0.038759708404541016 0.6434108018875122 -0.22717151045799255
0.038759708404541016 0.6434108018875122 -0.14436672627925873
0.038759708404541016 0.6589146852493286 -0.2267863154411316
0.038759708404541016 0.6589146852493286 -0.1453367918729782
0.038759708404541016 0.674418568611145 -0.22733332216739655
0.038759708404541016 0.674418568611145 -0.14641524851322174
0.038759708404541016 0.6899224519729614 -0.22925841808319092
0.038759708404541016 0.6899224519729614 -0.1470174789428711
0.038759708404541016 0.7054263353347778 -0.2306041717529297
0.038759708404541016 0.7054263353347778 -0.14825816452503204
0.038759708404541016 0.7209302186965942 -0.23112532496452332
0.038759708404541016 0.7209302186965942 -0.14937977492809296
0.038759708404541016 0.7364341020584106 -0.23144151270389557
0.038759708404541016 0.7364341020584106 -0.1493118703365326
0.038759708404541016 0.751937985420227 -0.23137977719306946
0.03875970467925072 0.7519379258155823 -0.14714543521404266
0.038759708404541016 0.7674418687820435 -0.23120614886283875
0.038759708404541016 0.7674418687820435 -0.14547225832939148
0.038759708404541016 0.7829457521438599 -0.23162813484668732
0.038759708404541016 0.7829457521438599 -0.14225643873214722
0.038759708404541016 0.7984496355056763 -0.23236393928527832
0.038759708404541016 0.7984496355056763 -0.13587462902069092
0.038759708404541016 0.8139535188674927 -0.23332178592681885
0.038759708404541016 0.8139535188674927 -0.12915320694446564
0.038759708404541016 0.8294574022293091 -0.23495082557201385
0.038759708404541016 0.8294574022293091 -0.12362264096736908
0.038759708404541016 0.8449612855911255 -0.236699178814888
0.038759708404541016 0.8449612855911255 -0.1152954250574112
0.038759708404541016 0.8604651689529419 -0.23846396803855896
0.038759708404541016 0.8604651689529419 -0.10561595857143402
0.038759708404541016 0.8759689331054688 -0.2403554469347
0.038759708404541016 0.8759689331054688 -0.06785156577825546
0.038759708404541016 0.8914728164672852 -0.24093906581401825
0.038759708404541016 0.8914728164672852 -0.0542147271335125
0.038759708404541016 0.9069766998291016 -0.24126027524471283
0.038759708404541016 0.9069766998291016 -0.05674438551068306
0.038759708404541016 0.922480583190918 -0.24133780598640442
0.038759708404541016 0.922480583190918 -0.14374400675296783
0.038759708404541016 0.9379844665527344 -0.24089336395263672
0.038759708404541016 0.9379844665527344 -0.18493011593818665
0.038759708404541016 0.9534883499145508 -0.23672163486480713
0.038759708404541016 0.9534883499145508 -0.2161545753479004
0.05426359176635742 -0.8604651093482971 0.0110494215041399
0.05426359176635742 -0.8604651093482971 0.03210672736167908
0.05426359176635742 -0.8449612855911255 -0.0010590997990220785
0.05426359176635742 -0.8449612259864807 0.034457411617040634
0.05426359176635742 -0.8294573426246643 -0.012474045157432556
0.05426359176635742 -0.8294573426246643 0.026676908135414124
0.05426359176635742 -0.8139535188674927 -0.023356715217232704
0.05426359176635742 -0.8139535188674927 0.017469685524702072
0.05426359176635742 -0.7984496355056763 -0.032134760171175
0.05426359176635742 -0.7984496355056763 0.007391764782369137
0.05426359176635742 -0.7829457521438599 -0.043572403490543365
0.05426359176635742 -0.7829458117485046 -0.003018398769199848
0.05426359176635742 -0.7674418687820435 -0.05428735539317131
0.05426359549164772 -0.7674418687820435 -0.007724006660282612
0.05426359176635742 -0.751937985420227 -0.06306654959917068
0.05426359176635742 -0.751937985420227 -0.011027513071894646
0.05426359176635742 -0.7364341020584106 -0.07489236444234848
0.05426359176635742 -0.7364341020584106 -0.012736791744828224
0.05426359176635742 -0.7209302186965942 -0.08793282508850098
0.05426359176635742 -0.7209302186965942 -0.011293245479464531
0.05426359176635742 -0.7054263949394226 -0.09883222728967667
0.05426359176635742 -0.7054263353347778 -0.01035220269113779
0.05426359176635742 -0.6899224519729614 -0.10940577834844589
0.05426359176635742 -0.6899224519729614 -0.011351117864251137
0.05426359176635742 -0.674418568611145 -0.12134794890880585
0.05426359176635742 -0.674418568611145 -0.012303028255701065
0.05426359176635742 -0.6589146852493286 -0.13209982216358185
0.05426359176635742 -0.6589146852493286 -0.013584034517407417
0.05426359549164772 -0.643410861492157 -0.1407840996980667
0.05426359176635742 -0.643410861492157 -0.01337885670363903
0.05426359176635742 -0.6279069781303406 -0.15079477429389954
0.05426359176635742 -0.6279069781303406 -0.013261367566883564
0.05426359176635742 -0.6124030947685242 -0.1589387059211731
0.05426359176635742 -0.6124030947685242 -0.012850817292928696
0.05426359176635742 -0.5968992114067078 -0.16768653690814972
0.05426359176635742 -0.5968992114067078 -0.012732568196952343
0.05426359176635742 -0.5813953876495361 -0.17517834901809692
0.05426359176635742 -0.5813953876495361 -0.013009369373321533
0.05426359176635742 -0.5658915042877197 -0.18246319890022278
0.05426359176635742 -0.5658915042877197 -0.015346644446253777
0.05426359176635742 -0.5503876209259033 -0.188227117061615
0.05426358804106712 -0.5503876209259033 -0.019018618389964104
0.05426359176635742 -0.5348837375640869 -0.19393609464168549
0.05426359176635742 -0.5348837375640869 -0.023651739582419395
0.05426359176635742 -0.5193798542022705 -0.19732795655727386
0.05426359176635742 -0.5193798542022705 -0.03151852637529373
0.05426359176635742 -0.5038759708404541 -0.2002359926700592
0.05426359176635742 -0.5038759708404541 -0.035542313009500504
0.05426359176635742 -0.4883720874786377 -0.20244407653808594
0.05426359176635742 -0.4883720874786377 -0.03779037669301033
0.05426359176635742 -0.4728682041168213 -0.20506387948989868
0.05426359176635742 -0.4728682041168213 -0.04052254930138588
0.05426359176635742 -0.4573643207550049 -0.2082808017730713
0.05426359176635742 -0.4573643207550049 -0.04342237859964371
0.05426359176635742 -0.4418604373931885 -0.2107597291469574
0.05426359176635742 -0.4418604373931885 -0.04467151314020157
0.05426359176635742 -0.42635661363601685 -0.21221591532230377
0.05426359176635742 -0.42635661363601685 -0.04460723325610161
0.05426359176635742 -0.41085273027420044 -0.2134094387292862
0.05426359176635742 -0.41085273027420044 -0.044446058571338654
0.05426359176635742 -0.39534884691238403 -0.2139243483543396
0.05426359176635742 -0.39534884691238403 -0.046166516840457916
0.05426359176635742 -0.3798449635505676 -0.21447357535362244
0.05426359176635742 -0.3798449635505676 -0.04889841377735138
0.05426359176635742 -0.3643410801887512 -0.21496282517910004
0.05426358804106712 -0.3643410801887512 -0.05091726407408714
0.05426359176635742 -0.3488371968269348 -0.21563899517059326
0.05426359176635742 -0.3488371968269348 -0.05220959335565567
0.05426359176635742 -0.3333333134651184 -0.21681815385818481
0.05426359176635742 -0.3333333134651184 -0.052729398012161255
0.05426359176635742 -0.317829430103302 -0.21820950508117676
0.05426359176635742 -0.317829430103302 -0.052684418857097626
0.05426359176635742 -0.30232560634613037 -0.2199503630399704
0.05426359176635742 -0.30232560634613037 -0.05220910534262657
0.05426358804106712 -0.28682172298431396 -0.2217811644077301
0.05426359176635742 -0.28682172298431396 -0.050690680742263794
0.05426359176635742 -0.27131783962249756 -0.22395041584968567
0.05426359176635742 -0.27131783962249756 -0.04812764748930931
0.05426359176635742 -0.25581395626068115 -0.22531510889530182
0.05426359176635742 -0.25581395626068115 -0.04166081175208092
0.05426359176635742 -0.24031007289886475 -0.22622881829738617
0.05426359176635742 -0.24031008780002594 -0.03603547438979149
0.05426359176635742 -0.24031007289886475 0.038405660539865494
0.05426359176635742 -0.24031008780002594 0.05487333610653877
0.05426359176635742 -0.22480618953704834 -0.22704070806503296
0.05426359176635742 -0.22480618953704834 0.0638565942645073
0.05426359176635742 -0.20930230617523193 -0.22757138311862946
0.05426359176635742 -0.20930230617523193 0.062229007482528687
0.05426359176635742 -0.19379842281341553 -0.22827747464179993
0.05426358804106712 -0.19379842281341553 0.05867345258593559
0.05426359176635742 -0.1782945990562439 -0.22880057990550995
0.05426359176635742 -0.1782945990562439 0.06971525400876999
0.05426359176635742 -0.1782945990562439 0.1670302301645279
0.05426359176635742 -0.1782945990562439 0.257989764213562
0.05426359176635742 -0.1627907156944275 -0.22939810156822205
0.05426359176635742 -0.1627907156944275 0.2526645064353943
0.05426359176635742 -0.14728683233261108 -0.2297544777393341
0.05426359176635742 -0.14728683233261108 0.1769392192363739
0.05426359176635742 -0.13178294897079468 -0.23005308210849762
0.05426359176635742 -0.13178294897079468 0.121590755879879
0.05426359176635742 -0.11627906560897827 -0.23070988059043884
0.05426359176635742 -0.11627906560897827 0.07615964114665985
0.05426359176635742 -0.10077518224716187 -0.23137152194976807
0.05426359176635742 -0.10077518224716187 0.03122350201010704
0.05426359176635742 -0.08527129888534546 -0.23224353790283203
0.05426359176635742 -0.08527129888534546 -0.04148019105195999
0.05426359176635742 -0.06976741552352905 -0.23300650715827942
0.05426359176635742 -0.06976741552352905 -0.048092782497406006
0.05426359176635742 -0.05426359176635742 -0.23376679420471191
0.05426359176635742 -0.05426359176635742 -0.05091146379709244
0.05426359176635742 -0.038759708404541016 -0.2343955934047699
0.05426359176635742 -0.038759712129831314 -0.05174615606665611
0.05426359176635742 -0.02325582504272461 -0.23492303490638733
0.05426358804106712 -0.02325582504272461 -0.05122159421443939
0.05426359176635742 -0.007751941680908203 -0.23476725816726685
0.05426359176635742 -0.007751941680908203 -0.04987798258662224
0.05426359176635742 0.007751941680908203 -0.2344088852405548
0.05426359176635742 0.007751941680908203 -0.04822675138711929
0.05426359549164772 0.02325582504272461 -0.23379790782928467
0.05426359176635742 0.02325582504272461 -0.04205431044101715
0.05426359176635742 0.038759708404541016 -0.23293524980545044
0.05426359176635742 0.038759708404541016 -0.04045043885707855
0.05426359176635742 0.05426359176635742 -0.23243899643421173
0.05426359176635742 0.05426359176635742 -0.04838079214096069
0.05426359176635742 0.06976747512817383 -0.23212198913097382
0.05426359549164772 0.06976747512817383 -0.05373017489910126
0.05426359176635742 0.08527135848999023 -0.23199617862701416
0.05426359176635742 0.08527135848999023 -0.05806950107216835
0.05426359176635742 0.10077524185180664 -0.23190507292747498
0.05426359176635742 0.10077524185180664 -0.059057921171188354
0.05426359176635742 0.11627912521362305 -0.23182544112205505
0.05426359176635742 0.11627912521362305 -0.05595919489860535
0.05426359176635742 0.1317828893661499 -0.2317928671836853
0.05426359176635742 0.1317828893661499 -0.052482880651950836
0.05426359176635742 0.1472867727279663 -0.23180554807186127
0.05426359176635742 0.1472867727279663 -0.04559457302093506
0.05426359176635742 0.16279065608978271 -0.23143470287322998
0.05426359176635742 0.16279065608978271 -0.041617829352617264
0.05426359176635742 0.17829453945159912 -0.2306785136461258
0.05426359176635742 0.17829453945159912 -0.044852692633867264
0.05426359176635742 0.19379842281341553 -0.23014409840106964
0.05426359549164772 0.19379843771457672 -0.05252135917544365
0.05426359176635742 0.20930230617523193 -0.22924451529979706
0.05426359176635742 0.20930230617523193 -0.06237240135669708
0.05426359176635742 0.22480618953704834 -0.22837044298648834
0.05426359176635742 0.22480618953704834 -0.07008669525384903
0.05426359176635742 0.24031007289886475 -0.22778448462486267
0.05426359176635742 0.24031005799770355 -0.09750549495220184
0.05426359176635742 0.25581395626068115 -0.22726760804653168
0.05426359176635742 0.25581395626068115 -0.11592163890600204
0.05426359176635742 0.27131783962249756 -0.22694844007492065
0.05426359176635742 0.27131783962249756 -0.12377288937568665
0.05426359176635742 0.28682172298431396 -0.22648069262504578
0.05426359176635742 0.28682172298431396 -0.12928013503551483
0.05426359176635742 0.30232560634613037 -0.22611117362976074
0.05426359176635742 0.30232560634613037 -0.13589391112327576
0.05426359176635742 0.3178294897079468 -0.22585569322109222
0.05426358804106712 0.3178294897079468 -0.14257146418094635
0.05426359176635742 0.3333333730697632 -0.22555013000965118
0.05426359176635742 0.3333333730697632 -0.14578832685947418
0.05426359176635742 0.3488372564315796 -0.22540141642093658
0.05426359176635742 0.3488372564315796 -0.14759212732315063
0.05426359176635742 0.364341139793396 -0.2251669019460678
0.05426359176635742 0.364341139793396 -0.1503794640302658
0.05426359176635742 0.37984490394592285 -0.22433863580226898
0.05426359176635742 0.37984490394592285 -0.15096835792064667
0.05426359176635742 0.39534875750541687 -0.2227454036474228
0.05426359176635742 0.39534878730773926 -0.15079182386398315
0.05426359176635742 0.41085267066955566 -0.22135142982006073
0.05426359176635742 0.41085267066955566 -0.15130095183849335
0.05426359176635742 0.42635655403137207 -0.2199111133813858
0.05426359176635742 0.42635655403137207 -0.15242063999176025
0.05426359176635742 0.4418604373931885 -0.21933484077453613
0.05426359176635742 0.4418604373931885 -0.15182453393936157
0.05426359176635742 0.45736435055732727 -0.21941006183624268
0.05426359176635742 0.4573643207550049 -0.15053707361221313
0.05426359176635742 0.4728682041168213 -0.21947592496871948
0.05426359176635742 0.4728682041168213 -0.14854107797145844
0.05426359176635742 0.4883720874786377 -0.22018194198608398
0.05426359549164772 0.4883720874786377 -0.1470070779323578
0.05426359176635742 0.5038759708404541 -0.2207874357700348
0.05426359176635742 0.5038759708404541 -0.1461779922246933
0.05426359176635742 0.5193798542022705 -0.22106540203094482
0.05426359176635742 0.5193798542022705 -0.14518551528453827
0.05426359176635742 0.5348837375640869 -0.22079119086265564
0.05426359176635742 0.5348837375640869 -0.1444208323955536
0.05426359176635742 0.5503876209259033 -0.22077956795692444
0.05426359176635742 0.5503876209259033 -0.14418649673461914
0.05426359176635742 0.5658915042877197 -0.21956318616867065
0.05426359176635742 0.5658915042877197 -0.14438490569591522
0.05426359176635742 0.5813953876495361 -0.21791806817054749
0.05426358804106712 0.5813953876495361 -0.14397640526294708
0.05426359176635742 0.5968992710113525 -0.21556109189987183
0.05426359176635742 0.5968992710113525 -0.14275535941123962
0.05426359176635742 0.612403154373169 -0.21368098258972168
0.05426359176635742 0.612403154373169 -0.14184339344501495
0.05426359176635742 0.6279069185256958 -0.21405872702598572
0.05426358804106712 0.6279069185256958 -0.14222271740436554
0.05426359176635742 0.6434108018875122 -0.21404102444648743
0.05426359176635742 0.6434108018875122 -0.1429435759782791
0.05426359176635742 0.6589146852493286 -0.21251581609249115
0.05426359176635742 0.6589146852493286 -0.14396782219409943
0.05426359176635742 0.674418568611145 -0.21164202690124512
0.05426359176635742 0.674418568611145 -0.14479807019233704
0.05426359176635742 0.6899224519729614 -0.2134028524160385
0.05426359176635742 0.6899224519729614 -0.14529478549957275
0.05426359176635742 0.7054263353347778 -0.21533721685409546
0.05426359176635742 0.7054263353347778 -0.14581546187400818
0.05426359176635742 0.7209302186965942 -0.21558204293251038
0.05426359176635742 0.7209302186965942 -0.14611247181892395
0.05426359176635742 0.7364341020584106 -0.21543875336647034
0.05426359176635742 0.7364341020584106 -0.14600683748722076
0.05426359176635742 0.751937985420227 -0.21500273048877716
0.05426359176635742 0.7519380450248718 -0.14503175020217896
0.05426359176635742 0.7674418687820435 -0.21453365683555603
0.05426359549164772 0.7674419283866882 -0.14286433160305023
0.05426359176635742 0.7829457521438599 -0.21462231874465942
0.05426359176635742 0.7829457521438599 -0.13852283358573914
0.05426359176635742 0.7984496355056763 -0.21528631448745728
0.05426359176635742 0.7984495759010315 -0.1308896541595459
0.05426359176635742 0.8139535188674927 -0.21634019911289215
0.05426359176635742 0.8139535188674927 -0.1258271485567093
0.05426359176635742 0.8294574022293091 -0.21807196736335754
0.05426359176635742 0.8294574022293091 -0.11661802977323532
0.05426359176635742 0.8449612855911255 -0.2200665920972824
0.05426359176635742 0.8449612855911255 -0.10795582830905914
0.05426359176635742 0.8604651689529419 -0.22164182364940643
0.05426359176635742 0.8604651689529419 -0.08548545837402344
0.05426359176635742 0.8759689331054688 -0.2221379280090332
0.05426359176635742 0.8759689331054688 -0.05767310783267021
0.05426359176635742 0.8914728164672852 -0.22070899605751038
0.05426359176635742 0.8914728164672852 -0.053456861525774
0.05426359176635742 0.9069766998291016 -0.21632032096385956
0.05426359176635742 0.9069766998291016 -0.16091801226139069
0.05426359176635742 0.9069766998291016 -0.1053038164973259
0.05426359176635742 0.9069766998291016 -0.06273913383483887
0.06976747512817383 -0.8294573426246643 0.014813079498708248
0.06976747512817383 -0.8294573426246643 0.030316881835460663
0.06976747512817383 -0.8139535188674927 0.0007000304758548737
0.06976747512817383 -0.8139535188674927 0.03476022928953171
0.06976747512817383 -0.7984496355056763 -0.010931391268968582
0.06976747512817383 -0.7984495759010315 0.026572037488222122
0.06976747512817383 -0.7829457521438599 -0.0215577632188797
0.06976747512817383 -0.7829457521438599 0.017461981624364853
0.06976747512817383 -0.7674418687820435 -0.03227325901389122
0.06976747512817383 -0.7674418687820435 0.006581657566130161
0.06976747512817383 -0.751937985420227 -0.04357246309518814
0.06976747512817383 -0.7519379258155823 -0.0032321775797754526
0.06976747512817383 -0.7364341020584106 -0.05468437820672989
0.06976747512817383 -0.7364341020584106 -0.007287187967449427
0.06976747512817383 -0.7209302186965942 -0.06630802154541016
0.06976747512817383 -0.7209302186965942 -0.010263560339808464
0.06976747512817383 -0.7054263353347778 -0.07683243602514267
0.06976747512817383 -0.7054263353347778 -0.010722318664193153
0.06976747512817383 -0.6899224519729614 -0.08925943076610565
0.06976747512817383 -0.6899224519729614 -0.010918894782662392
0.06976747512817383 -0.674418568611145 -0.10126369446516037
0.06976747512817383 -0.674418568611145 -0.011385076679289341
0.06976747512817383 -0.6589146852493286 -0.11017820239067078
0.06976747512817383 -0.6589146852493286 -0.01225997880101204
0.06976747512817383 -0.643410861492157 -0.12125659734010696
0.06976747512817383 -0.643410861492157 -0.01182565651834011
0.06976747512817383 -0.6279069781303406 -0.13107889890670776
0.06976747512817383 -0.6279069781303406 -0.01149686798453331
0.06976747512817383 -0.6124030947685242 -0.13888350129127502
0.06976747512817383 -0.6124030947685242 -0.011145010590553284
0.06976747512817383 -0.5968992114067078 -0.14846612513065338
0.06976747512817383 -0.5968992114067078 -0.011486366391181946
0.06976747512817383 -0.5813953876495361 -0.15456631779670715
0.06976747512817383 -0.5813953876495361 -0.012439876794815063
0.06976747512817383 -0.5658915042877197 -0.16315431892871857
0.06976747512817383 -0.5658915042877197 -0.01559947058558464
0.06976747512817383 -0.5503876209259033 -0.16947045922279358
0.06976747512817383 -0.5503876209259033 -0.01974005438387394
0.06976747512817383 -0.5348837375640869 -0.17667585611343384
0.06976747512817383 -0.5348837375640869 -0.025595594197511673
0.06976747512817383 -0.5193798542022705 -0.18204015493392944
0.06976747512817383 -0.5193798542022705 -0.03247234597802162
0.06976747512817383 -0.5038759708404541 -0.186087965965271
0.06976747512817383 -0.5038759708404541 -0.03609488904476166
0.06976747512817383 -0.4883720874786377 -0.18994799256324768
0.06976747512817383 -0.4883720874786377 -0.03819300979375839
0.06976747512817383 -0.4728682041168213 -0.19430238008499146
0.06976747512817383 -0.4728682041168213 -0.042144812643527985
0.06976747512817383 -0.4573643207550049 -0.1968233436346054
0.06976747512817383 -0.4573643207550049 -0.04482097551226616
0.06976747512817383 -0.4418604373931885 -0.19902098178863525
0.06976747512817383 -0.4418604373931885 -0.046018294990062714
0.06976747512817383 -0.42635661363601685 -0.20066151022911072
0.06976747512817383 -0.42635661363601685 -0.04609305411577225
0.06976747512817383 -0.41085273027420044 -0.20228424668312073
0.06976747512817383 -0.41085273027420044 -0.046130307018756866
0.06976747512817383 -0.39534884691238403 -0.20327676832675934
0.06976747512817383 -0.39534884691238403 -0.04770563542842865
0.06976747512817383 -0.3798449635505676 -0.20420999825000763
0.06976747512817383 -0.3798449635505676 -0.04997430741786957
0.06976747512817383 -0.3643410801887512 -0.2050642967224121
0.06976747512817383 -0.3643410801887512 -0.05169844999909401
0.06976747512817383 -0.3488371968269348 -0.20616768300533295
0.06976747512817383 -0.3488371968269348 -0.05288498103618622
0.06976746767759323 -0.3333333134651184 -0.2078934758901596
0.06976747512817383 -0.3333333134651184 -0.05335789918899536
0.06976747512817383 -0.317829430103302 -0.20950044691562653
0.06976747512817383 -0.317829430103302 -0.053309522569179535
0.06976747512817383 -0.30232560634613037 -0.21042901277542114
0.06976747512817383 -0.30232560634613037 -0.05288228392601013
0.06976747512817383 -0.28682172298431396 -0.21152819693088531
0.06976747512817383 -0.28682172298431396 -0.05154402554035187
0.06976747512817383 -0.27131783962249756 -0.21287302672863007
0.06976747512817383 -0.27131783962249756 -0.04940466210246086
0.06976747512817383 -0.25581395626068115 -0.2140127271413803
0.06976747512817383 -0.25581395626068115 -0.04438123106956482
0.06976747512817383 -0.24031007289886475 -0.2150246500968933
0.06976747512817383 -0.24031007289886475 -0.03665061295032501
0.06976747512817383 -0.24031007289886475 0.038435470312833786
0.06976747512817383 -0.24031007289886475 0.05437440797686577
0.06976747512817383 -0.22480618953704834 -0.21593806147575378
0.06976747512817383 -0.22480618953704834 0.06297063827514648
0.06976747512817383 -0.20930230617523193 -0.216630756855011
0.06976747512817383 -0.20930230617523193 0.06136765703558922
0.06976747512817383 -0.19379842281341553 -0.21750518679618835
0.06976747512817383 -0.19379842281341553 0.05738167092204094
0.06976747512817383 -0.1782945990562439 -0.2182149738073349
0.06976747512817383 -0.1782945990562439 0.06168331205844879
0.06976747512817383 -0.1782945990562439 0.17148759961128235
0.06976747512817383 -0.1782945990562439 0.2579110264778137
0.06976747512817383 -0.1627907156944275 -0.21903489530086517
0.06976747512817383 -0.1627907156944275 0.25105226039886475
0.06976747512817383 -0.14728683233261108 -0.21951532363891602
0.06976747512817383 -0.14728683233261108 0.17330211400985718
0.06976747512817383 -0.13178294897079468 -0.2197090983390808
0.06976747512817383 -0.13178294897079468 0.12020854651927948
0.06976747512817383 -0.11627907305955887 -0.22031614184379578
0.06976747512817383 -0.11627906560897827 0.07498569786548615
0.06976747512817383 -0.10077518224716187 -0.2209431529045105
0.06976747512817383 -0.10077518224716187 0.02873353660106659
0.06976747512817383 -0.08527129888534546 -0.22182132303714752
0.06976747512817383 -0.08527129888534546 -0.04149027541279793
0.06976747512817383 -0.06976741552352905 -0.22243759036064148
0.06976747512817383 -0.06976741552352905 -0.04792889952659607
0.06976747512817383 -0.05426359549164772 -0.2231084108352661
0.06976747512817383 -0.05426359176635742 -0.050697196274995804
0.06976747512817383 -0.038759708404541016 -0.22381162643432617
0.06976747512817383 -0.038759708404541016 -0.051462505012750626
0.06976747512817383 -0.02325582504272461 -0.22451083362102509
0.06976747512817383 -0.02325582504272461 -0.050880447030067444
0.06976747512817383 -0.007751941680908203 -0.22450774908065796
0.06976747512817383 -0.007751941680908203 -0.04946324601769447
0.06976747512817383 0.007751941680908203 -0.2241499274969101
0.06976747512817383 0.007751941680908203 -0.04785750061273575
0.06976747512817383 0.02325582504272461 -0.22340205311775208
0.06976747512817383 0.02325582504272461 -0.04187087342143059
0.06976747512817383 0.038759708404541016 -0.22227105498313904
0.06976747512817383 0.038759708404541016 -0.04025841876864433
0.06976747512817383 0.05426359176635742 -0.22177939116954803
0.06976747512817383 0.05426359176635742 -0.04819357395172119
0.06976747512817383 0.06976747512817383 -0.22142374515533447
0.06976747512817383 0.06976747512817383 -0.05335094407200813
0.06976747512817383 0.08527135848999023 -0.22127234935760498
0.06976747512817383 0.08527135848999023 -0.056976206600666046
0.06976747512817383 0.10077524185180664 -0.22111757099628448
0.06976747512817383 0.10077524185180664 -0.05891501158475876
0.06976747512817383 0.11627911776304245 -0.221012145280838
0.06976747512817383 0.11627912521362305 -0.05620439350605011
0.06976747512817383 0.1317828893661499 -0.22096142172813416
0.06976747512817383 0.1317828893661499 -0.05254035070538521
0.06976747512817383 0.1472867727279663 -0.220955029129982
0.06976747512817383 0.1472867727279663 -0.045831650495529175
0.06976747512817383 0.16279065608978271 -0.22045272588729858
0.06976747512817383 0.16279065608978271 -0.0416816808283329
0.06976747512817383 0.17829453945159912 -0.21957916021347046
0.06976747512817383 0.17829453945159912 -0.04504295065999031
0.06976747512817383 0.19379842281341553 -0.2189907729625702
0.06976747512817383 0.19379842281341553 -0.05269680917263031
0.06976747512817383 0.20930230617523193 -0.21791517734527588
0.06976747512817383 0.20930230617523193 -0.06231524795293808
0.06976747512817383 0.22480618953704834 -0.21688312292099
0.06976747512817383 0.22480618953704834 -0.0694468542933464
0.06976747512817383 0.24031007289886475 -0.21629101037979126
0.06976747512817383 0.24031007289886475 -0.0929211974143982
0.06976747512817383 0.25581395626068115 -0.21575963497161865
0.06976747512817383 0.25581395626068115 -0.11528172343969345
0.06976747512817383 0.27131783962249756 -0.21542716026306152
0.06976747512817383 0.27131783962249756 -0.12283074110746384
0.06976747512817383 0.28682172298431396 -0.21498599648475647
0.06976747512817383 0.28682172298431396 -0.12837190926074982
0.06976747512817383 0.30232560634613037 -0.21468551456928253
0.06976747512817383 0.30232560634613037 -0.13376206159591675
0.06976747512817383 0.3178294897079468 -0.21441219747066498
0.06976747512817383 0.3178294897079468 -0.1409875750541687
0.06976747512817383 0.3333333730697632 -0.21402820944786072
0.06976747512817383 0.3333333730697632 -0.14455237984657288
0.06976747512817383 0.3488372564315796 -0.21384455263614655
0.06976747512817383 0.3488372564315796 -0.14621570706367493
0.06976747512817383 0.364341139793396 -0.2134799212217331
0.06976747512817383 0.364341139793396 -0.14724200963974
0.06976747512817383 0.37984490394592285 -0.21271325647830963
0.06976747512817383 0.37984490394592285 -0.1480073779821396
0.06976747512817383 0.39534878730773926 -0.2117622196674347
0.06976747512817383 0.39534878730773926 -0.14795668423175812
0.06976747512817383 0.41085267066955566 -0.21096943318843842
0.06976747512817383 0.41085267066955566 -0.14830777049064636
0.06976747512817383 0.42635655403137207 -0.21029123663902283
0.06976747512817383 0.42635655403137207 -0.14863264560699463
0.06976747512817383 0.4418604373931885 -0.2099955677986145
0.06976747512817383 0.4418604373931885 -0.14769507944583893
0.06976747512817383 0.4573643207550049 -0.20990273356437683
0.06976746767759323 0.4573643207550049 -0.14704729616641998
0.06976747512817383 0.4728682041168213 -0.20979388058185577
0.06976747512817383 0.4728682339191437 -0.14648789167404175
0.06976747512817383 0.4883720874786377 -0.2099827080965042
0.06976747512817383 0.4883720874786377 -0.14582377672195435
0.06976747512817383 0.5038759708404541 -0.210039883852005
0.06976747512817383 0.5038759708404541 -0.14493483304977417
0.06976747512817383 0.5193798542022705 -0.2098841518163681
0.06976747512817383 0.5193798542022705 -0.14379487931728363
0.06976747512817383 0.5348837375640869 -0.20947952568531036
0.06976747512817383 0.5348837375640869 -0.14286279678344727
0.06976747512817383 0.5503876209259033 -0.20921248197555542
0.06976747512817383 0.5503876209259033 -0.14238578081130981
0.06976747512817383 0.5658915042877197 -0.20754621922969818
0.06976747512817383 0.5658915042877197 -0.1424294412136078
0.06976747512817383 0.5813953876495361 -0.20517376065254211
0.06976747512817383 0.5813953876495361 -0.14194490015506744
0.06976747512817383 0.5968992710113525 -0.2026318907737732
0.06976747512817383 0.5968992710113525 -0.14039210975170135
0.06976747512817383 0.612403154373169 -0.2017335593700409
0.06976747512817383 0.612403154373169 -0.13886898756027222
0.06976747512817383 0.6279069185256958 -0.20162054896354675
0.06976747512817383 0.6279069185256958 -0.1390700787305832
0.06976747512817383 0.6434108018875122 -0.20063617825508118
0.06976747512817383 0.6434108018875122 -0.13997307419776917
0.06976747512817383 0.6589146852493286 -0.19969715178012848
0.06976747512817383 0.6589146852493286 -0.14103935658931732
0.06976747512817383 0.674418568611145 -0.19889014959335327
0.06976747512817383 0.674418568611145 -0.1415053904056549
0.06976747512817383 0.6899224519729614 -0.19922244548797607
0.06976747512817383 0.6899224519729614 -0.14192691445350647
0.06976747512817383 0.7054263353347778 -0.20101448893547058
0.06976747512817383 0.7054263353347778 -0.1423715054988861
0.06976747512817383 0.7209302186965942 -0.20142707228660583
0.06976747512817383 0.7209302186965942 -0.14237836003303528
0.06976747512817383 0.7364341020584106 -0.20110705494880676
0.06976747512817383 0.7364341020584106 -0.14177976548671722
0.06976747512817383 0.751937985420227 -0.20033571124076843
0.06976747512817383 0.751937985420227 -0.1399909108877182
0.06976747512817383 0.7674418687820435 -0.19938993453979492
0.06976747512817383 0.7674418687820435 -0.13639657199382782
0.06976747512817383 0.7829457521438599 -0.1987956166267395
0.06976747512817383 0.7829457521438599 -0.130920872092247
0.06976747512817383 0.7984496355056763 -0.19869381189346313
0.06976747512817383 0.7984496355056763 -0.12609493732452393
0.06976747512817383 0.8139535188674927 -0.1987328827381134
0.06976747512817383 0.8139535188674927 -0.11571381986141205
0.06976747512817383 0.8294574022293091 -0.19883818924427032
0.06976747512817383 0.8294574022293091 -0.1030462384223938
0.06976747512817383 0.8449612855911255 -0.1975995898246765
0.06976747512817383 0.8449612855911255 -0.08277492970228195
0.06976747512817383 0.8604651689529419 -0.1872260868549347
0.06976747512817383 0.8604651689529419 -0.058352030813694
0.06976747512817383 0.8759689331054688 -0.1244310587644577
0.06976747512817383 0.8759689331054688 -0.05311992019414902
0.06976747512817383 0.8914728164672852 -0.07120421528816223
0.06976747512817383 0.8914728164672852 -0.06807947158813477
0.08527135848999023 -0.7984496355056763 0.018192922696471214
0.08527135848999023 -0.7984496355056763 0.027729131281375885
0.08527135848999023 -0.7829457521438599 0.0028889812529087067
0.08527135848999023 -0.7829457521438599 0.031643517315387726
0.08527135848999023 -0.7674418687820435 -0.009730313904583454
0.08527135848999023 -0.7674418687820435 0.025679633021354675
0.08527135848999023 -0.751937985420227 -0.02127424255013466
0.08527135848999023 -0.751937985420227 0.014440048485994339
0.08527135848999023 -0.7364341616630554 -0.03396438807249069
0.08527135848999023 -0.7364341020584106 0.0026272889226675034
0.08527135848999023 -0.7209302186965942 -0.046266064047813416
0.08527135848999023 -0.7209302186965942 -0.004776289686560631
0.08527135848999023 -0.7054263353347778 -0.0578458234667778
0.08527135848999023 -0.7054263353347778 -0.008250754326581955
0.08527135848999023 -0.6899224519729614 -0.07019657641649246
0.08527135848999023 -0.6899224519729614 -0.012355824932456017
0.08527135848999023 -0.674418568611145 -0.07978428900241852
0.08527135848999023 -0.674418568611145 -0.013625597581267357
0.08527135848999023 -0.6589146852493286 -0.09084837138652802
0.08527135848999023 -0.6589146852493286 -0.0137941287830472
0.08527135848999023 -0.643410861492157 -0.10254239290952682
0.08527135848999023 -0.643410861492157 -0.013088077306747437
0.08527135848999023 -0.6279069781303406 -0.1105169802904129
0.08527135848999023 -0.6279069781303406 -0.012581691145896912
0.08527135848999023 -0.6124030947685242 -0.12100379168987274
0.08527135848999023 -0.6124030947685242 -0.012324390932917595
0.08527135848999023 -0.5968992114067078 -0.1299837827682495
0.08527135848999023 -0.5968992114067078 -0.013029126450419426
0.08527135848999023 -0.5813953876495361 -0.13703155517578125
0.08527135848999023 -0.5813953876495361 -0.014597268775105476
0.08527135848999023 -0.5658915042877197 -0.1444961428642273
0.08527135848999023 -0.5658915042877197 -0.018101319670677185
0.08527135848999023 -0.5503876209259033 -0.15171992778778076
0.08527135848999023 -0.5503876209259033 -0.022218110039830208
0.08527135103940964 -0.5348837375640869 -0.1586928367614746
0.08527135848999023 -0.5348837375640869 -0.029533296823501587
0.08527135848999023 -0.5193798542022705 -0.16587883234024048
0.08527135848999023 -0.5193798542022705 -0.03423655033111572
0.08527135848999023 -0.5038759708404541 -0.17120039463043213
0.08527135848999023 -0.5038759708404541 -0.03702681511640549
0.08527136594057083 -0.4883720874786377 -0.1774815022945404
0.08527135848999023 -0.4883720874786377 -0.03954630717635155
0.08527135848999023 -0.4728682041168213 -0.18175972998142242
0.08527135848999023 -0.4728682041168213 -0.04466114938259125
0.08527135848999023 -0.4573643207550049 -0.18481725454330444
0.08527135848999023 -0.4573643207550049 -0.046904683113098145
0.08527135848999023 -0.4418604373931885 -0.187941774725914
0.08527135848999023 -0.4418604373931885 -0.04796890914440155
0.08527135848999023 -0.42635661363601685 -0.19111184775829315
0.08527135848999023 -0.42635661363601685 -0.04810113459825516
0.08527135848999023 -0.41085273027420044 -0.19407682120800018
0.08527135848999023 -0.41085273027420044 -0.048179470002651215
0.08527135848999023 -0.39534884691238403 -0.19478806853294373
0.08527135848999023 -0.39534884691238403 -0.049354247748851776
0.08527135848999023 -0.3798449635505676 -0.19531813263893127
0.08527136594057083 -0.3798449635505676 -0.051098842173814774
0.08527135848999023 -0.3643410801887512 -0.1958000808954239
0.08527135848999023 -0.3643410801887512 -0.0525578148663044
0.08527135848999023 -0.3488371968269348 -0.19646278023719788
0.08527135848999023 -0.3488371968269348 -0.053679514676332474
0.08527135848999023 -0.3333333134651184 -0.19741180539131165
0.08527135848999023 -0.3333333134651184 -0.05414459854364395
0.08527135848999023 -0.317829430103302 -0.19844482839107513
0.08527135103940964 -0.317829430103302 -0.05410913750529289
0.08527135848999023 -0.30232560634613037 -0.19955095648765564
0.08527136594057083 -0.30232560634613037 -0.05371980369091034
0.08527135848999023 -0.28682172298431396 -0.2006697654724121
0.08527135103940964 -0.28682172298431396 -0.05251656100153923
0.08527135848999023 -0.27131783962249756 -0.20191702246665955
0.08527135848999023 -0.27131783962249756 -0.050737474113702774
0.08527135848999023 -0.25581395626068115 -0.20311740040779114
0.08527135848999023 -0.25581395626068115 -0.04700837284326553
0.08527135848999023 -0.24031007289886475 -0.20423296093940735
0.08527135848999023 -0.24031007289886475 -0.03761351481080055
0.08527135848999023 -0.22480618953704834 -0.20534878969192505
0.08527135848999023 -0.22480618953704834 -0.006003022193908691
0.08527135103940964 -0.22480618953704834 0.009243174456059933
0.08527135848999023 -0.22480618953704834 0.060213327407836914
0.08527135848999023 -0.20930230617523193 -0.20624569058418274
0.08527135848999023 -0.20930230617523193 0.05938366800546646
0.08527136594057083 -0.19379842281341553 -0.20733098685741425
0.08527135848999023 -0.19379842281341553 0.05596816912293434
0.08527136594057083 -0.1782945990562439 -0.20838484168052673
0.08527135848999023 -0.1782945990562439 0.05701223015785217
0.08527135848999023 -0.1782945990562439 0.17393922805786133
0.08527135848999023 -0.1782945990562439 0.2579279839992523
0.08527135848999023 -0.1627907156944275 -0.20944570004940033
0.08527135848999023 -0.1627907156944275 0.11303205788135529
0.08527135848999023 -0.1627907156944275 0.12066853046417236
0.08527135848999023 -0.1627907156944275 0.24968159198760986
0.08527135848999023 -0.14728683233261108 -0.20983068645000458
0.08527135848999023 -0.14728683233261108 0.16893912851810455
0.08527135848999023 -0.13178294897079468 -0.2099558562040329
0.08527135848999023 -0.13178294897079468 0.1172870397567749
0.08527135848999023 -0.11627906560897827 -0.21033427119255066
0.08527135848999023 -0.11627906560897827 0.07288450002670288
0.08527135848999023 -0.10077518224716187 -0.21062687039375305
0.08527136594057083 -0.10077518224716187 0.024658868089318275
0.08527135848999023 -0.08527129888534546 -0.21115043759346008
0.08527135848999023 -0.08527129888534546 -0.04159426689147949
0.08527135848999023 -0.06976741552352905 -0.211469829082489
0.08527135848999023 -0.06976741552352905 -0.047803670167922974
0.08527135848999023 -0.05426359176635742 -0.21186257898807526
0.08527135848999023 -0.05426358804106712 -0.05046118050813675
0.08527135848999023 -0.038759708404541016 -0.2123248130083084
0.08527135848999023 -0.038759708404541016 -0.11807059496641159
0.08527135848999023 -0.038759708404541016 -0.11523699760437012
0.08527135848999023 -0.038759708404541016 -0.05107004940509796
0.08527135848999023 -0.02325582504272461 -0.21264782547950745
0.08527135848999023 -0.02325582504272461 -0.05042309686541557
0.08527135848999023 -0.007751941680908203 -0.21239537000656128
0.08527135848999023 -0.007751941680908203 -0.04895272105932236
0.08527135848999023 0.007751941680908203 -0.21205033361911774
0.08527135848999023 0.007751941680908203 -0.0475604385137558
0.08527135848999023 0.02325582504272461 -0.21174654364585876
0.08527135848999023 0.02325582504272461 -0.04279729723930359
0.08527135848999023 0.038759708404541016 -0.2111661732196808
0.08527135848999023 0.038759708404541016 -0.04195217043161392
0.08527135848999023 0.05426359176635742 -0.21074828505516052
0.08527135848999023 0.05426359549164772 -0.048861440271139145
0.08527135848999023 0.06976747512817383 -0.21050071716308594
0.08527136594057083 0.06976747512817383 -0.053235869854688644
