-0.1627907156944275 -0.1575097143650055 0.038759708404541016
-0.1627907156944275 -0.12618228793144226 -0.007751941680908203
-0.1627907156944275 -0.11276943981647491 0.007751941680908203
-0.1627907156944275 -0.11185260862112045 0.02325582690536976
-0.1627907156944275 -0.04677543044090271 -0.05426359176635742
-0.1627907156944275 0.20375537872314453 -0.05426359176635742
-0.1627907156944275 0.24896928668022156 -0.10077518224716187
-0.1627907156944275 0.24447031319141388 -0.08527129888534546
-0.16279073059558868 0.2433888465166092 -0.06976741552352905
-0.1627907156944275 0.24045221507549286 -0.05426359176635742
-0.1627907156944275 0.27236640453338623 -0.11627906560897827
-0.1627907156944275 0.301166296005249 -0.13178294897079468
-0.1627907156944275 0.3478858470916748 -0.13178294897079468
-0.1627907156944275 0.37273162603378296 -0.11627906560897827
-0.1627907156944275 0.4094114601612091 -0.10077518224716187
-0.1627907156944275 0.46606841683387756 -0.20930230617523193
-0.1627907156944275 0.46067294478416443 -0.08527129888534546
-0.1627907156944275 0.5009500980377197 -0.19379842281341553
-0.1627907156944275 0.4889010787010193 -0.06976741552352905
-0.1627907156944275 0.5042773485183716 -0.1782945990562439
-0.1627907156944275 0.5105624198913574 -0.1627907156944275
-0.1627907156944275 0.5185098648071289 -0.14728683233261108
-0.1627907156944275 0.529795229434967 -0.13178294897079468
-0.1627907156944275 0.5342429876327515 -0.05426359176635742
-0.1627907156944275 0.5435200333595276 -0.11627906560897827
-0.1627907156944275 0.5580200552940369 -0.10077518224716187
-0.1627907156944275 0.572360098361969 -0.08527129888534546
-0.1627907156944275 0.5898025631904602 -0.06976741552352905
-0.1627907156944275 0.5921341180801392 -0.05426359176635742
-0.14728683233261108 -0.9909810423851013 -0.20930230617523193
-0.14728683233261108 -0.9909413456916809 -0.19379842281341553
-0.14728683233261108 -0.9907325506210327 -0.1782945990562439
-0.14728683233261108 -0.990815281867981 -0.1627907156944275
-0.14728683233261108 -0.9908674955368042 -0.14728683233261108
-0.14728683233261108 -0.990831196308136 -0.13178294897079468
-0.14728683233261108 -0.990778386592865 -0.11627906560897827
-0.14728683233261108 -0.9908381104469299 -0.10077518224716187
-0.14728683233261108 -0.9911258220672607 -0.08527129888534546
-0.14728683233261108 -0.9893831014633179 -0.06976741552352905
-0.14728683233261108 -0.9701014757156372 -0.06976741552352905
-0.14728683233261108 -0.9596414566040039 -0.22480618953704834
-0.14728683233261108 -0.9604994654655457 -0.13178294897079468
-0.14728683233261108 -0.9642540216445923 -0.11627906560897827
-0.14728683233261108 -0.9633693099021912 -0.10077518224716187
-0.14728683233261108 -0.963863730430603 -0.08527129888534546
-0.14728683233261108 -0.9228079915046692 -0.08527129888534546
-0.14728683233261108 -0.9188197255134583 -0.13178294897079468
-0.14728683233261108 -0.9076133370399475 -0.11627906560897827
-0.14728683233261108 -0.9154689908027649 -0.10077518224716187
-0.14728683233261108 -0.9107205867767334 -0.06976741552352905
-0.14728683233261108 -0.7474476099014282 -0.22480618953704834
-0.14728683233261108 -0.5679190754890442 -0.007751941680908203
-0.14728683233261108 -0.5685510039329529 0.007751941680908203
-0.14728683233261108 -0.5680283904075623 0.02325582504272461
-0.14728683233261108 -0.5670950412750244 0.038759708404541016
-0.14728683233261108 -0.5661049485206604 0.05426359176635742
-0.14728683233261108 -0.5662753582000732 0.10077524185180664
-0.14728683233261108 -0.5606329441070557 -0.05426359176635742
-0.14728683233261108 -0.5654086470603943 -0.02325582504272461
-0.14728683233261108 -0.5633271336555481 0.06976747512817383
-0.14728683233261108 -0.563660740852356 0.08527135848999023
-0.14728683233261108 -0.5485092401504517 -0.02325582504272461
-0.14728683233261108 -0.5428847670555115 0.06976747512817383
-0.14728683233261108 -0.5460257530212402 0.08527135848999023
-0.14728683233261108 -0.5417870283126831 0.10077524185180664
-0.14728683233261108 -0.5335433483123779 -0.007751941680908203
-0.14728683233261108 -0.5296347141265869 0.007751941680908203
-0.14728683233261108 -0.5287033915519714 0.02325582504272461
-0.14728683233261108 -0.5308435559272766 0.038759708404541016
-0.14728683233261108 -0.534050703048706 0.05426358804106712
-0.14728683233261108 -0.5042232275009155 -0.02325582504272461
-0.14728683233261108 -0.5062368512153625 -0.007751941680908203
-0.14728683233261108 -0.4951477646827698 0.007751941680908203
-0.14728683233261108 -0.48255544900894165 -0.038759708404541016
-0.14728683233261108 -0.48622655868530273 0.02325582504272461
-0.14728683233261108 -0.4671085476875305 -0.038759708404541016
-0.14728683233261108 -0.4521632194519043 -0.02325582504272461
-0.14728683233261108 -0.44385161995887756 -0.007751941680908203
-0.14728683233261108 -0.44010278582572937 0.007751941215246916
-0.14728683233261108 -0.4400455355644226 0.02325582690536976
-0.14728683233261108 -0.42128875851631165 -0.05426359176635742
-0.14728683233261108 -0.3344406187534332 -0.05426359176635742
-0.14728683233261108 -0.3219089210033417 0.007751941680908203
-0.14728683233261108 -0.3294527530670166 0.02325582504272461
-0.14728683233261108 -0.3232055604457855 0.038759708404541016
-0.14728683233261108 -0.30045947432518005 -0.007751941680908203
-0.14728683233261108 -0.2989635765552521 0.05426359176635742
-0.14728683233261108 -0.2502550780773163 0.06976747512817383
-0.14728683233261108 -0.22776591777801514 0.08527135848999023
-0.14728683233261108 -0.2121407389640808 0.10077524185180664
-0.14728683233261108 -0.1979948878288269 0.11627912521362305
-0.14728683233261108 -0.1887713223695755 -0.02325582504272461
-0.14728683233261108 -0.18327537178993225 0.1317828893661499
-0.1472868174314499 -0.16055580973625183 0.1472867727279663
-0.14728683233261108 -0.14032670855522156 -0.02325582504272461
-0.14728683233261108 -0.13794216513633728 0.16279065608978271
-0.14728683233261108 -0.12075838446617126 0.06976747512817383
-0.14728683233261108 -0.12671177089214325 0.08527135848999023
-0.14728683233261108 -0.1285407841205597 0.10077524185180664
-0.14728683233261108 -0.12972193956375122 0.11627912521362305
-0.14728683233261108 -0.12800565361976624 0.1317828893661499
-0.14728683233261108 -0.12018883973360062 0.17829453945159912
-0.14728684723377228 -0.11509797722101212 -0.007751941680908203
-0.14728683233261108 -0.10837334394454956 0.007751941680908203
-0.14728683233261108 -0.10738299787044525 0.02325582504272461
-0.14728683233261108 -0.11077912151813507 0.038759708404541016
-0.14728683233261108 -0.11397813260555267 0.05426359176635742
-0.14728683233261108 -0.1162315383553505 0.1472867727279663
-0.14728683233261108 -0.11409920454025269 0.16279065608978271
-0.14728683233261108 -0.1013181135058403 0.17829453945159912
-0.14728683233261108 -0.1044389009475708 0.19379842281341553
-0.14728683233261108 -0.09038880467414856 0.19379842281341553
-0.14728683233261108 -0.09080220758914948 0.20930230617523193
-0.14728683233261108 -0.07963192462921143 0.20930230617523193
-0.14728683233261108 -0.07780405879020691 0.22480618953704834
-0.14728683233261108 -0.06096675246953964 -0.05426359176635742
-0.14728683233261108 -0.06707827001810074 0.22480618953704834
-0.14728683233261108 -0.06337760388851166 0.24031007289886475
-0.14728683233261108 -0.05450480058789253 0.25581395626068115
-0.14728683233261108 -0.05313679575920105 0.24031007289886475
-0.14728684723377228 -0.05304912477731705 0.25581395626068115
-0.14728683233261108 -0.0396115779876709 0.27131783962249756
-0.14728683233261108 -0.03760623559355736 0.27131783962249756
-0.14728683233261108 -0.023386919870972633 0.28682172298431396
-0.14728683233261108 -0.023163704201579094 0.28682172298431396
-0.14728683233261108 0.0411628894507885 -0.06976741552352905
-0.14728683233261108 0.11151297390460968 -0.10077518224716187
-0.14728683233261108 0.10301997512578964 -0.08527129888534546
-0.14728683233261108 0.14291751384735107 -0.08527129888534546
-0.14728683233261108 0.13221094012260437 -0.06976741552352905
-0.14728683233261108 0.14801160991191864 -0.10077518224716187
-0.14728683233261108 0.19998925924301147 -0.05426359176635742
-0.14728683233261108 0.24636495113372803 -0.10077518224716187
-0.14728683233261108 0.24398167431354523 -0.08527129888534546
-0.14728683233261108 0.24392813444137573 -0.06976741552352905
-0.14728683233261108 0.24203896522521973 -0.05426359549164772
-0.14728684723377228 0.2574271559715271 -0.11627906560897827
-0.14728683233261108 0.27520084381103516 -0.13178294897079468
-0.14728683233261108 0.29230809211730957 -0.14728683233261108
-0.14728683233261108 0.31460365653038025 -0.1627907156944275
-0.14728683233261108 0.33427777886390686 -0.1627907156944275
-0.14728683233261108 0.3563322424888611 -0.14728683233261108
-0.14728683233261108 0.3731192946434021 -0.13178294897079468
-0.14728683233261108 0.3941452205181122 -0.11627906560897827
-0.14728683233261108 0.4719677269458771 -0.10077518224716187
-0.14728683233261108 0.49864867329597473 -0.08527129888534546
-0.14728683233261108 0.5314984917640686 -0.20930230617523193
-0.14728683233261108 0.5279277563095093 -0.06976741552352905
-0.14728683233261108 0.5474775433540344 -0.19379842281341553
-0.14728683233261108 0.5513011813163757 -0.1782945990562439
-0.14728683233261108 0.5578497648239136 -0.1627907156944275
-0.14728683233261108 0.5654894113540649 -0.14728683233261108
-0.14728683233261108 0.5755690932273865 -0.13178294897079468
-0.14728683233261108 0.5881765484809875 -0.11627906560897827
-0.14728683233261108 0.5843300819396973 -0.05426359176635742
-0.14728683233261108 0.601047694683075 -0.10077518224716187
-0.14728683233261108 0.614673376083374 -0.08527129888534546
-0.14728683233261108 0.6308495998382568 -0.06976741552352905
-0.14728683233261108 0.6318694353103638 -0.05426358804106712
-0.13178294897079468 -0.9909687042236328 -0.20930230617523193
-0.13178294897079468 -0.9908877611160278 -0.19379842281341553
-0.13178294897079468 -0.9906969666481018 -0.1782945990562439
-0.13178294897079468 -0.9907760620117188 -0.1627907156944275
-0.13178294897079468 -0.9908241629600525 -0.14728683233261108
-0.13178294897079468 -0.990800142288208 -0.13178294897079468
-0.13178294897079468 -0.9907674193382263 -0.11627906560897827
-0.13178294897079468 -0.9908183813095093 -0.10077518224716187
-0.13178294897079468 -0.991125762462616 -0.08527129888534546
-0.13178294897079468 -0.9899464845657349 -0.06976741552352905
-0.13178294897079468 -0.9724922180175781 -0.22480618953704834
-0.13178294897079468 -0.9591482877731323 -0.13178294897079468
-0.13178294897079468 -0.9638305902481079 -0.11627906560897827
-0.13178294897079468 -0.9635174870491028 -0.10077518224716187
-0.13178294897079468 -0.9635254144668579 -0.08527129888534546
-0.13178294897079468 -0.9685100317001343 -0.06976741552352905
-0.13178294897079468 -0.9266013503074646 -0.13178294897079468
-0.13178294897079468 -0.9242109656333923 -0.08527129888534546
-0.13178294897079468 -0.9133430123329163 -0.11627906560897827
-0.13178294897079468 -0.9188708066940308 -0.10077518224716187
-0.13178294897079468 -0.9148578643798828 -0.06976741552352905
-0.13178294897079468 -0.5755815505981445 -0.05426359176635742
-0.13178294897079468 -0.5690310001373291 -0.038759708404541016
-0.13178294897079468 -0.5681309103965759 -0.02325582504272461
-0.13178294897079468 -0.5687400102615356 -0.007751941680908203
-0.13178294897079468 -0.568554162979126 0.007751941680908203
-0.13178294897079468 -0.5679827928543091 0.02325582504272461
-0.13178294897079468 -0.5671615600585938 0.038759708404541016
-0.13178294897079468 -0.5660889148712158 0.05426359176635742
-0.13178294897079468 -0.5665088295936584 0.10077524185180664
-0.13178294897079468 -0.5623497366905212 0.06976747512817383
-0.13178294897079468 -0.5627990961074829 0.08527135848999023
-0.13178294897079468 -0.5576906204223633 0.11627912521362305
-0.13178294897079468 -0.5483998656272888 -0.038759708404541016
-0.13178294897079468 -0.5477808713912964 -0.02325582504272461
-0.13178294897079468 -0.5437044501304626 -0.007751941680908203
-0.13178294897079468 -0.5401899218559265 0.007751941680908203
-0.13178294897079468 -0.5394873023033142 0.05426359176635742
-0.13178294897079468 -0.5465043187141418 0.06976747512817383
-0.13178294897079468 -0.5478825569152832 0.08527135848999023
-0.13178294897079468 -0.5442245006561279 0.10077524185180664
-0.13178294897079468 -0.5396233797073364 0.11627912521362305
-0.13178293406963348 -0.5348648428916931 0.02325582504272461
-0.13178294897079468 -0.534233808517456 0.038759712129831314
-0.13178294897079468 -0.44352006912231445 -0.11627906560897827
-0.13178294897079468 -0.42865490913391113 -0.10077518224716187
-0.13178294897079468 -0.4365032911300659 -0.05426359176635742
-0.13178294897079468 -0.41429558396339417 -0.11627906560897827
-0.13178294897079468 -0.42063426971435547 -0.10077518224716187
-0.13178294897079468 -0.3614763021469116 -0.22480618953704834
-0.13178294897079468 -0.3395143747329712 -0.05426359176635742
-0.13178294897079468 -0.33629634976387024 0.02325582504272461
-0.13178294897079468 -0.3340151309967041 0.038759708404541016
-0.13178294897079468 -0.32625022530555725 0.007751941680908203
-0.13178294897079468 -0.3102152347564697 -0.007751941680908203
-0.13178294897079468 -0.3146938383579254 0.05426359176635742
-0.13178294897079468 -0.2817751169204712 -0.22480618953704834
-0.13178294897079468 -0.2661797106266022 -0.02325582504272461
-0.13178294897079468 -0.2560328543186188 0.06976747512817383
-0.13178294897079468 -0.22927358746528625 0.08527135848999023
-0.13178294897079468 -0.21237653493881226 0.10077524185180664
-0.13178294897079468 -0.1968233436346054 0.11627912521362305
-0.13178294897079468 -0.18083301186561584 0.1317828893661499
-0.13178294897079468 -0.16267578303813934 0.1472867727279663
-0.13178294897079468 -0.14369840919971466 -0.02325582504272461
-0.13178294897079468 -0.1329311579465866 0.06976747512817383
-0.13178294897079468 -0.14116938412189484 0.08527135848999023
-0.13178294897079468 -0.14503026008605957 0.10077524185180664
-0.13178294897079468 -0.14614373445510864 0.11627912521362305
-0.13178294897079468 -0.13850988447666168 0.1317828893661499
-0.13178294897079468 -0.138893723487854 0.16279065608978271
-0.13178294897079468 -0.12491185963153839 -0.007751941680908203
-0.13178294897079468 -0.11793164908885956 0.007751941680908203
-0.13178294897079468 -0.11678733676671982 0.02325582504272461
-0.13178294897079468 -0.12239068746566772 0.038759708404541016
-0.13178294897079468 -0.12762290239334106 0.05426359176635742
-0.13178294897079468 -0.12847578525543213 0.1472867727279663
-0.13178294897079468 -0.12010557949542999 0.16279065608978271
-0.13178294897079468 -0.121596559882164 0.17829453945159912
-0.13178294897079468 -0.10803308337926865 0.17829453945159912
-0.13178294897079468 -0.1067812368273735 0.19379842281341553
-0.13178294897079468 -0.08542592823505402 -0.11627906560897827
-0.13178294897079468 -0.09029634296894073 0.19379842281341553
-0.13178294897079468 -0.09506440907716751 0.20930230617523193
-0.13178294897079468 -0.07583187520503998 -0.10077518224716187
-0.13178294897079468 -0.07830570638179779 0.20930230617523193
-0.13178294897079468 -0.08514638245105743 0.22480618953704834
-0.13178294897079468 -0.07087381184101105 0.24031007289886475
-0.13178294897079468 -0.06872374564409256 -0.05426359176635742
-0.13178294897079468 -0.06679459661245346 0.22480617463588715
-0.13178294897079468 -0.05629242956638336 0.25581395626068115
-0.13178294897079468 -0.052437081933021545 -0.08527129888534546
-0.13178294897079468 -0.052647046744823456 0.24031007289886475
-0.13178294897079468 -0.04126010090112686 0.27131783962249756
-0.13178294897079468 -0.025336826220154762 -0.06976741552352905
-0.13178294897079468 -0.03873888775706291 0.25581398606300354
-0.13178294897079468 -0.034305308014154434 0.27131783962249756
-0.13178294897079468 -0.026138275861740112 0.28682172298431396
-0.13178294897079468 -0.021329915151000023 0.28682172298431396
-0.13178294897079468 -0.009469681419432163 0.30232560634613037
-0.13178294897079468 -0.0048683322966098785 -0.11627905815839767
-0.13178294897079468 -0.006974073126912117 0.30232560634613037
-0.13178294897079468 0.10486896336078644 -0.11627906560897827
-0.13178294897079468 0.13661237061023712 -0.11627906560897827
-0.13178294897079468 0.1472710371017456 -0.10077518224716187
-0.13178294897079468 0.14276278018951416 -0.08527129888534546
-0.13178294897079468 0.13618123531341553 -0.06976741552352905
-0.13178294897079468 0.1954803466796875 -0.05426359176635742
-0.13178294897079468 0.21455401182174683 -0.038759708404541016
-0.13178294897079468 0.23128463327884674 -0.038759708404541016
-0.13178294897079468 0.25284191966056824 -0.11627906560897827
-0.13178294897079468 0.2466704249382019 -0.10077518224716187
-0.13178294897079468 0.24517494440078735 -0.08527129888534546
-0.13178294897079468 0.2454337328672409 -0.06976741552352905
-0.13178294897079468 0.24405796825885773 -0.05426359176635742
-0.13178294897079468 0.2622922956943512 -0.13178294897079468
-0.13178294897079468 0.2849288284778595 -0.22480618953704834
-0.13178294897079468 0.2746416926383972 -0.14728683233261108
-0.13178294897079468 0.29031991958618164 -0.1627907156944275
-0.13178294897079468 0.3562060296535492 -0.22480618953704834
-0.13178294897079468 0.3581479787826538 -0.1627907156944275
-0.13178294897079468 0.3720908761024475 -0.14728683233261108
-0.13178294897079468 0.38629788160324097 -0.13178294897079468
-0.13178294897079468 0.41971832513809204 -0.22480618953704834
-0.13178294897079468 0.45853105187416077 -0.11627907305955887
-0.13178294897079468 0.49921560287475586 -0.10077518224716187
-0.13178294897079468 0.5253638625144958 -0.08527129888534546
-0.13178294897079468 0.5636776089668274 -0.06976741552352905
-0.13178294897079468 0.5763587355613708 -0.20930230617523193
-0.13178294897079468 0.587831437587738 -0.19379842281341553
-0.13178294897079468 0.5924856662750244 -0.1782945990562439
-0.13178294897079468 0.5989698767662048 -0.1627907156944275
-0.13178294897079468 0.6064084768295288 -0.14728683233261108
-0.13178294897079468 0.6154407858848572 -0.13178294897079468
-0.13178294897079468 0.6260935664176941 -0.11627906560897827
-0.13178294897079468 0.6191974878311157 -0.05426359176635742
-0.13178294897079468 0.6395611763000488 -0.10077518224716187
-0.13178294897079468 0.6544981598854065 -0.08527129888534546
-0.13178294897079468 0.6676864624023438 -0.06976741552352905
-0.13178294897079468 0.6677590608596802 -0.05426359176635742
-0.11627906560897827 -0.9852643013000488 -0.22480618953704834
-0.11627906560897827 -0.9909296631813049 -0.20930230617523193
-0.11627906560897827 -0.9908362627029419 -0.19379842281341553
-0.11627906560897827 -0.9906672835350037 -0.1782945990562439
-0.11627906560897827 -0.9907363057136536 -0.1627907156944275
-0.11627906560897827 -0.9907848834991455 -0.14728683233261108
-0.11627906560897827 -0.9907758831977844 -0.13178294897079468
-0.11627906560897827 -0.9907649159431458 -0.11627906560897827
-0.11627906560897827 -0.9908050894737244 -0.10077518224716187
-0.11627906560897827 -0.9911107420921326 -0.08527129888534546
-0.11627906560897827 -0.9903202652931213 -0.06976741552352905
-0.11627906560897827 -0.9571738243103027 -0.13178294897079468
-0.11627906560897827 -0.9628405570983887 -0.11627906560897827
-0.11627906560897827 -0.9628828763961792 -0.10077518224716187
-0.11627906560897827 -0.9628787040710449 -0.08527129888534546
-0.11627906560897827 -0.9669860601425171 -0.06976741552352905
-0.11627906560897827 -0.9439783096313477 -0.24031007289886475
-0.11627906560897827 -0.9325169324874878 -0.13178294897079468
-0.11627906560897827 -0.9245054125785828 -0.11627906560897827
-0.11627906560897827 -0.9248937368392944 -0.10077518224716187
-0.11627906560897827 -0.9268649816513062 -0.08527129888534546
-0.11627905815839767 -0.9196751713752747 -0.06976741552352905
-0.11627906560897827 -0.8154109716415405 -0.24031007289886475
-0.11627906560897827 -0.5836827158927917 -0.05426359176635742
-0.11627906560897827 -0.5734050869941711 -0.038759708404541016
-0.11627906560897827 -0.5710617303848267 -0.02325582504272461
-0.11627906560897827 -0.5705485343933105 -0.007751941680908203
-0.11627906560897827 -0.5694984793663025 0.007751941680908203
-0.11627906560897827 -0.5687453746795654 0.02325582504272461
-0.11627906560897827 -0.5679517984390259 0.038759708404541016
-0.11627906560897827 -0.5669348239898682 0.05426359176635742
-0.11627906560897827 -0.5662360787391663 0.06976747512817383
-0.11627906560897827 -0.5662542581558228 0.08527135848999023
-0.11627906560897827 -0.5670574307441711 0.10077524185180664
-0.11627906560897827 -0.5617697238922119 0.11627912521362305
-0.11627905815839767 -0.5469455122947693 -0.038759708404541016
-0.11627906560897827 -0.546506404876709 -0.02325582504272461
-0.11627906560897827 -0.544002115726471 -0.007751941680908203
-0.11627906560897827 -0.5423199534416199 0.007751941680908203
-0.11627906560897827 -0.5377747416496277 0.02325582504272461
-0.11627906560897827 -0.5350258946418762 0.05426359176635742
-0.11627906560897827 -0.5439068675041199 0.06976747512817383
-0.11627906560897827 -0.5464593172073364 0.08527135848999023
-0.11627906560897827 -0.540815532207489 0.10077524185180664
-0.11627906560897827 -0.5342977046966553 0.038759708404541016
-0.11627906560897827 -0.5338358283042908 0.11627912521362305
-0.11627907305955887 -0.45472148060798645 -0.11627907305955887
-0.11627906560897827 -0.4503819942474365 -0.05426359176635742
-0.11627906560897827 -0.43794578313827515 -0.10077517479658127
-0.11627906560897827 -0.39212295413017273 -0.11627906560897827
-0.11627906560897827 -0.3925634026527405 -0.10077518224716187
-0.11627906560897827 -0.34497126936912537 -0.05426359176635742
-0.11627906560897827 -0.33965423703193665 0.02325582504272461
-0.11627906560897827 -0.33860471844673157 0.038759708404541016
-0.11627906560897827 -0.32940778136253357 0.007751941680908203
-0.11627906560897827 -0.32098978757858276 0.05426359176635742
-0.11627906560897827 -0.31478944420814514 -0.007751941680908203
-0.11627906560897827 -0.2834528684616089 -0.02325582504272461
-0.11627906560897827 -0.25874921679496765 0.06976747512817383
-0.11627906560897827 -0.23141592741012573 -0.038759708404541016
-0.11627906560897827 -0.2303161919116974 0.08527135848999023
-0.11627906560897827 -0.22210590541362762 -0.038759708404541016
-0.11627906560897827 -0.2127722203731537 0.10077524185180664
-0.11627906560897827 -0.1960175782442093 0.11627912521362305
-0.11627906560897827 -0.1801111400127411 0.1317828893661499
-0.11627906560897827 -0.16350328922271729 0.1472867727279663
-0.11627906560897827 -0.15292459726333618 0.08527135848999023
-0.11627906560897827 -0.15829506516456604 0.10077524185180664
-0.11627906560897827 -0.1579992026090622 0.11627912521362305
-0.11627906560897827 -0.14617770910263062 -0.02325582504272461
-0.11627906560897827 -0.13689503073692322 0.05426359176635742
-0.11627906560897827 -0.1438143104314804 0.06976747512817383
-0.11627906560897827 -0.1436849981546402 0.1317828893661499
-0.11627906560897827 -0.14062955975532532 0.16279065608978271
-0.11627907305955887 -0.13115033507347107 -0.007751941680908203
-0.11627906560897827 -0.12724538147449493 0.007751941680908203
-0.11627906560897827 -0.1268617808818817 0.02325582504272461
-0.11627907305955887 -0.1295294463634491 0.038759708404541016
-0.11627906560897827 -0.1303304135799408 0.1472867727279663
-0.11627906560897827 -0.12593987584114075 0.16279065608978271
-0.11627906560897827 -0.12258748710155487 0.17829453945159912
-0.11627906560897827 -0.10932089388370514 0.17829453945159912
-0.11627906560897827 -0.10849040001630783 0.19379842281341553
-0.11627906560897827 -0.09670808166265488 -0.11627906560897827
-0.11627906560897827 -0.09101401269435883 0.19379842281341553
-0.11627907305955887 -0.09812380373477936 0.20930230617523193
-0.11627906560897827 -0.08587922155857086 0.22480618953704834
-0.11627906560897827 -0.08089308440685272 -0.13178294897079468
-0.11627906560897827 -0.08518622815608978 -0.10077518224716187
-0.11627906560897827 -0.07593847811222076 -0.05426359176635742
-0.11627906560897827 -0.0786198228597641 0.20930230617523193
-0.11627906560897827 -0.07141034305095673 0.24031007289886475
-0.11627906560897827 -0.06721988320350647 -0.08527129888534546
-0.11627906560897827 -0.05632636696100235 -0.06976741552352905
-0.11627906560897827 -0.06657010316848755 0.22480617463588715
-0.11627906560897827 -0.05686279386281967 0.25581395626068115
-0.11627905815839767 -0.052605174481868744 0.24031007289886475
-0.11627906560897827 -0.04001079872250557 0.25581395626068115
-0.11627906560897827 -0.04179529473185539 0.27131783962249756
-0.11627906560897827 -0.025571802631020546 -0.13178294897079468
-0.11627906560897827 -0.03396720066666603 0.27131783962249756
-0.11627906560897827 -0.02637127786874771 0.28682172298431396
-0.11627906560897827 -0.02122381143271923 0.28682172298431396
-0.11627906560897827 -0.009139089845120907 0.30232560634613037
-0.11627906560897827 -0.007160241715610027 0.30232560634613037
-0.11627906560897827 0.051822174340486526 0.3488372564315796
-0.11627905815839767 0.05526178702712059 0.3488372564315796
-0.11627906560897827 0.1361193060874939 -0.11627906560897827
-0.11627906560897827 0.13932493329048157 -0.10077518224716187
-0.11627905815839767 0.1352466195821762 -0.08527129888534546
-0.11627906560897827 0.1413193941116333 -0.06976741552352905
-0.11627906560897827 0.19092309474945068 -0.05426359176635742
-0.11627906560897827 0.20622193813323975 -0.038759708404541016
-0.11627906560897827 0.2191808819770813 -0.02325582504272461
-0.11627906560897827 0.22664818167686462 -0.02325582504272461
-0.11627906560897827 0.2521181106567383 -0.11627906560897827
-0.11627906560897827 0.2477121353149414 -0.10077518224716187
-0.11627906560897827 0.24646365642547607 -0.08527129888534546
-0.11627906560897827 0.2473984658718109 -0.06976741552352905
-0.11627907305955887 0.2464587390422821 -0.05426359549164772
-0.11627906560897827 0.24046476185321808 -0.038759708404541016
-0.11627906560897827 0.26743102073669434 -0.14728683233261108
-0.11627906560897827 0.25839656591415405 -0.13178294897079468
-0.11627906560897827 0.2830459773540497 -0.1627907156944275
-0.11627906560897827 0.36564233899116516 -0.1627907156944275
-0.11627906560897827 0.3782849907875061 -0.14728683233261108
-0.11627906560897827 0.39310529828071594 -0.13178294897079468
-0.11627906560897827 0.48606550693511963 -0.11627906560897827
-0.11627906560897827 0.5128819942474365 -0.10077518224716187
-0.11627906560897827 0.5457974672317505 -0.08527129888534546
-0.11627906560897827 0.5666909217834473 -0.22480618953704834
-0.11627906560897827 0.6085300445556641 -0.20930230617523193
-0.11627906560897827 0.6061877012252808 -0.06976741552352905
-0.11627906560897827 0.6200708150863647 -0.19379842281341553
-0.11627906560897827 0.6258605718612671 -0.1782945990562439
-0.11627906560897827 0.6327484846115112 -0.1627907156944275
-0.11627906560897827 0.6408651471138 -0.14728683233261108
-0.11627906560897827 0.650455117225647 -0.13178294897079468
-0.11627906560897827 0.6506186723709106 -0.05426359176635742
-0.11627906560897827 0.6615818738937378 -0.11627906560897827
-0.11627906560897827 0.6751161813735962 -0.10077517479658127
-0.11627906560897827 0.6902567148208618 -0.08527129888534546
-0.11627906560897827 0.7045658826828003 -0.06976741552352905
-0.11627906560897827 0.704511284828186 -0.05426359176635742
-0.10077518224716187 -0.9866614937782288 -0.22480618953704834
-0.10077518224716187 -0.9909175634384155 -0.20930230617523193
-0.10077518224716187 -0.9908550977706909 -0.19379842281341553
-0.10077518224716187 -0.9907048344612122 -0.1782945990562439
-0.10077518224716187 -0.9907668232917786 -0.1627907156944275
-0.10077518224716187 -0.9908151626586914 -0.14728683233261108
-0.10077518224716187 -0.9908097982406616 -0.13178294897079468
-0.10077518224716187 -0.9908005595207214 -0.11627906560897827
-0.10077518224716187 -0.9908137917518616 -0.10077518224716187
-0.10077518224716187 -0.991077721118927 -0.08527129888534546
-0.10077518224716187 -0.9904325604438782 -0.06976741552352905
-0.10077518224716187 -0.9540684819221497 -0.24031007289886475
-0.10077518224716187 -0.9561769962310791 -0.13178294897079468
-0.10077518224716187 -0.961712658405304 -0.11627906560897827
-0.10077518224716187 -0.9615342020988464 -0.10077518224716187
-0.10077518224716187 -0.9617615938186646 -0.08527129888534546
-0.10077518224716187 -0.9661667346954346 -0.06976741552352905
-0.10077518224716187 -0.9347255229949951 -0.13178294897079468
-0.10077518224716187 -0.9276463985443115 -0.11627906560897827
-0.10077518224716187 -0.9279730319976807 -0.10077518224716187
-0.10077518224716187 -0.928978443145752 -0.08527129888534546
-0.10077518224716187 -0.9226201176643372 -0.06976741552352905
-0.10077518224716187 -0.7248591184616089 -0.24031007289886475
-0.10077518224716187 -0.6450030207633972 -0.24031007289886475
-0.10077518224716187 -0.5864483714103699 -0.05426359176635742
-0.10077518224716187 -0.5763784646987915 -0.038759708404541016
-0.10077518224716187 -0.5731280446052551 -0.02325582504272461
-0.10077518224716187 -0.572256326675415 -0.007751941680908203
-0.10077518224716187 -0.5708019733428955 0.007751941680908203
-0.10077518224716187 -0.5699676871299744 0.02325582504272461
-0.10077518224716187 -0.5692359209060669 0.038759708404541016
-0.10077518224716187 -0.5682849884033203 0.05426359176635742
-0.10077518224716187 -0.5674968361854553 0.06976747512817383
-0.10077518224716187 -0.5672545433044434 0.08527135848999023
-0.10077518224716187 -0.5677801966667175 0.10077524185180664
-0.10077518224716187 -0.5648651123046875 0.11627912521362305
-0.10077518224716187 -0.546178936958313 -0.038759708404541016
-0.10077518224716187 -0.5451189875602722 -0.02325582504272461
-0.10077518224716187 -0.5406903028488159 -0.007751941680908203
-0.10077518224716187 -0.5379415154457092 0.007751941680908203
-0.10077518224716187 -0.5370239615440369 0.06976747512817383
-0.10077518224716187 -0.5430715084075928 0.08527135848999023
-0.10077518224716187 -0.5342884659767151 0.02325582504272461
-0.10077518969774246 -0.5333593487739563 0.038759708404541016
-0.10077518224716187 -0.5338609218597412 0.05426359176635742
-0.10077518224716187 -0.5346707105636597 0.10077524185180664
-0.10077518224716187 -0.5320606231689453 0.11627912521362305
-0.10077518224716187 -0.5175402760505676 -0.24031007289886475
-0.10077518224716187 -0.45975637435913086 -0.11627906560897827
-0.10077518224716187 -0.4548884332180023 -0.05426359176635742
-0.10077518969774246 -0.44104626774787903 -0.10077518969774246
-0.10077518224716187 -0.3830992579460144 -0.11627906560897827
-0.10077518224716187 -0.38824689388275146 -0.10077518224716187
-0.10077518224716187 -0.34288522601127625 -0.05426359176635742
-0.10077518224716187 -0.3425806760787964 0.02325582504272461
-0.10077518224716187 -0.3417540192604065 0.038759708404541016
-0.10077518224716187 -0.31865620613098145 -0.007751941680908203
-0.10077518224716187 -0.332470178604126 0.007751941680908203
-0.10077518224716187 -0.3237180709838867 0.05426359176635742
-0.10077518224716187 -0.2923261225223541 -0.02325582504272461
-0.10077518224716187 -0.2603643536567688 -0.24031007289886475
-0.10077518224716187 -0.26007702946662903 0.06976747512817383
-0.10077518224716187 -0.24998068809509277 -0.038759708404541016
-0.10077518224716187 -0.2313256710767746 0.08527135848999023
-0.10077518224716187 -0.21385222673416138 0.10077524185180664
-0.10077518224716187 -0.19706790149211884 0.11627912521362305
-0.10077518224716187 -0.18887977302074432 -0.038759708404541016
-0.10077518224716187 -0.18114861845970154 0.1317828893661499
-0.10077518224716187 -0.167502298951149 -0.038759708404541016
-0.10077518224716187 -0.16441315412521362 0.1472867727279663
-0.10077518224716187 -0.14769591391086578 0.06976747512817383
-0.10077518224716187 -0.15761761367321014 0.08527135848999023
-0.10077518224716187 -0.16143879294395447 0.10077524185180664
-0.10077518224716187 -0.15980909764766693 0.11627911776304245
-0.10077518224716187 -0.13469144701957703 -0.02325582504272461
-0.10077518224716187 -0.13342276215553284 0.038759708404541016
-0.10077518224716187 -0.1414489448070526 0.05426359176635742
-0.10077518224716187 -0.14424917101860046 0.1317828893661499
-0.10077518224716187 -0.14302578568458557 0.16279065608978271
-0.10077518224716187 -0.12284717708826065 -0.038759708404541016
-0.10077518224716187 -0.13168951869010925 -0.007751941680908203
-0.10077518224716187 -0.12992864847183228 0.007751941680908203
-0.10077517479658127 -0.12962579727172852 0.02325582504272461
-0.10077518224716187 -0.13070212304592133 0.1472867727279663
-0.10077518224716187 -0.1262447088956833 0.16279065608978271
-0.10077518224716187 -0.12466111779212952 0.17829453945159912
-0.10077518224716187 -0.10851477831602097 0.17829453945159912
-0.10077518224716187 -0.11126681417226791 0.19379842281341553
-0.10077518224716187 -0.10100766271352768 0.20930230617523193
-0.10077518224716187 -0.09102421998977661 -0.13178294897079468
-0.10077518224716187 -0.10060843080282211 -0.11627906560897827
-0.10077518224716187 -0.08838044852018356 -0.10077518224716187
-0.10077518224716187 -0.09045182913541794 0.19379842281341553
-0.10077518224716187 -0.08653891831636429 0.22480618953704834
-0.10077518224716187 -0.07282788306474686 -0.08527129888534546
-0.10077518969774246 -0.08157987892627716 -0.05426359549164772
-0.10077518224716187 -0.07830165326595306 0.20930230617523193
-0.10077518224716187 -0.07215815782546997 0.24031007289886475
-0.10077517479658127 -0.06754086166620255 -0.06976741552352905
-0.10077517479658127 -0.06623652577400208 0.22480617463588715
-0.10077518224716187 -0.05772833898663521 0.25581395626068115
-0.10077518224716187 -0.052445750683546066 0.24031007289886475
-0.10077518224716187 -0.03884641453623772 0.25581395626068115
-0.10077518224716187 -0.04275451600551605 0.27131783962249756
-0.10077518224716187 -0.03264512121677399 0.27131783962249756
-0.10077518224716187 -0.02723248116672039 0.28682172298431396
-0.10077518224716187 -0.015693217515945435 -0.13178294897079468
-0.10077518224716187 -0.020606642588973045 0.28682172298431396
-0.10077518224716187 -0.009743278846144676 0.30232560634613037
-0.10077518224716187 -0.006896491162478924 0.30232560634613037
-0.10077518224716187 0.048498429358005524 0.3488372564315796
-0.10077518224716187 0.06845149397850037 -0.08527129888534546
-0.10077518224716187 0.05730868875980377 0.3488372564315796
-0.10077518224716187 0.10339796543121338 -0.08527129888534546
-0.10077518224716187 0.13024495542049408 -0.11627906560897827
-0.10077518224716187 0.1283741444349289 -0.10077518224716187
-0.10077518224716187 0.12114539742469788 -0.08527129888534546
-0.10077518224716187 0.14051900804042816 -0.06976741552352905
-0.10077518224716187 0.1868266463279724 -0.05426359176635742
-0.10077518224716187 0.20284399390220642 -0.038759708404541016
-0.10077518224716187 0.2087126225233078 -0.02325582504272461
-0.10077518224716187 0.23002952337265015 -0.02325582504272461
-0.10077518224716187 0.2524228096008301 -0.11627906560897827
-0.10077518224716187 0.2486206293106079 -0.10077518224716187
-0.10077518224716187 0.24757882952690125 -0.08527129888534546
-0.10077518224716187 0.24925191700458527 -0.06976741552352905
-0.10077518224716187 0.24827618896961212 -0.05426359176635742
-0.10077518224716187 0.2415437549352646 -0.038759708404541016
-0.10077518224716187 0.2689765691757202 -0.24031007289886475
-0.10077518224716187 0.2642427086830139 -0.14728683233261108
-0.10077518224716187 0.25734466314315796 -0.13178294897079468
-0.10077518224716187 0.2789611220359802 -0.1627907156944275
-0.10077518224716187 0.33244624733924866 -0.1782945990562439
-0.10077518224716187 0.33343446254730225 -0.1782945990562439
-0.10077518224716187 0.36876803636550903 -0.1627907156944275
-0.10077518224716187 0.38031333684921265 -0.14728683233261108
-0.10077518224716187 0.39322978258132935 -0.13178294897079468
-0.10077518224716187 0.4952235817909241 -0.11627906560897827
-0.10077518224716187 0.5190706253051758 -0.10077518224716187
-0.10077518224716187 0.5626000761985779 -0.08527129888534546
-0.10077518224716187 0.6013367176055908 -0.22480618953704834
-0.10077518224716187 0.6347395181655884 -0.20930230617523193
-0.10077518224716187 0.6414957046508789 -0.06976741552352905
-0.10077518224716187 0.6484410762786865 -0.19379842281341553
-0.10077518224716187 0.6557217836380005 -0.1782945990562439
-0.10077518224716187 0.6637275815010071 -0.1627907156944275
-0.10077518224716187 0.6731376647949219 -0.14728683233261108
-0.10077518224716187 0.6840158700942993 -0.13178294897079468
-0.10077518224716187 0.6874034404754639 -0.05426359176635742
-0.10077518224716187 0.6964439153671265 -0.11627907305955887
-0.10077517479658127 0.7100753784179688 -0.10077517479658127
-0.10077518224716187 0.724134624004364 -0.08527129888534546
-0.10077518224716187 0.7398949861526489 -0.06976741552352905
-0.10077518969774246 0.7377221584320068 -0.05426359176635742
-0.08527129888534546 -0.9864276647567749 -0.22480618953704834
-0.08527129888534546 -0.9909038543701172 -0.20930230617523193
-0.08527129888534546 -0.9908943176269531 -0.19379842281341553
-0.08527129888534546 -0.9907490015029907 -0.1782945990562439
-0.08527129888534546 -0.9908123016357422 -0.1627907156944275
-0.08527129888534546 -0.9908630847930908 -0.14728683233261108
-0.08527129888534546 -0.9908627867698669 -0.13178294897079468
-0.08527129888534546 -0.9908546805381775 -0.11627906560897827
-0.08527129888534546 -0.9908594489097595 -0.10077518224716187
-0.08527129888534546 -0.991102397441864 -0.08527129888534546
-0.08527129888534546 -0.9906494617462158 -0.06976741552352905
-0.08527129888534546 -0.9551447033882141 -0.24031007289886475
-0.08527129888534546 -0.9559213519096375 -0.13178294897079468
-0.08527129888534546 -0.96098792552948 -0.11627906560897827
-0.08527129888534546 -0.9604066610336304 -0.10077518224716187
-0.08527129888534546 -0.9608217477798462 -0.08527129888534546
-0.08527130633592606 -0.965489387512207 -0.06976741552352905
-0.08527129888534546 -0.9388196468353271 -0.25581395626068115
-0.08527129888534546 -0.9305788278579712 -0.25581395626068115
-0.08527129888534546 -0.9358304738998413 -0.13178294897079468
-0.08527129888534546 -0.9294825792312622 -0.11627906560897827
-0.08527129888534546 -0.9300519227981567 -0.10077518224716187
-0.08527129888534546 -0.9304189682006836 -0.08527129888534546
-0.08527129888534546 -0.9231441020965576 -0.06976741552352905
-0.08527129888534546 -0.5879851579666138 -0.05426359176635742
-0.08527129143476486 -0.5787248611450195 -0.038759708404541016
-0.08527129888534546 -0.5748729109764099 -0.02325582504272461
-0.08527129888534546 -0.5735005140304565 -0.007751941680908203
-0.08527129888534546 -0.5716605186462402 0.007751941680908203
-0.08527129888534546 -0.5707626342773438 0.02325582504272461
-0.08527129888534546 -0.5701451301574707 0.038759708404541016
-0.08527129888534546 -0.569260835647583 0.05426359176635742
-0.08527129888534546 -0.5684083700180054 0.06976747512817383
-0.08527129888534546 -0.5679288506507874 0.08527135848999023
-0.08527129888534546 -0.5682226419448853 0.10077524185180664
-0.08527129888534546 -0.5661439895629883 0.11627912521362305
-0.08527129888534546 -0.5455830693244934 -0.038759708404541016
-0.08527129888534546 -0.5436791181564331 -0.02325582504272461
-0.08527129888534546 -0.5365058183670044 -0.007751941680908203
-0.08527129888534546 -0.5390653610229492 0.08527135848999023
-0.08527129888534546 -0.5345854163169861 0.007751941680908203
-0.08527129888534546 -0.533512532711029 0.02325582318007946
-0.08527129888534546 -0.5323843955993652 0.038759712129831314
-0.08527129888534546 -0.5330697894096375 0.05426359176635742
-0.08527129888534546 -0.5343713164329529 0.06976747512817383
-0.08527129888534546 -0.5340937972068787 0.10077524930238724
-0.08527129888534546 -0.5314459204673767 0.11627912521362305
-0.08527129888534546 -0.4613800644874573 -0.11627906560897827
-0.08527129888534546 -0.44281864166259766 -0.10077518224716187
-0.08527129888534546 -0.45168831944465637 -0.05426359176635742
-0.08527129888534546 -0.43182361125946045 -0.13178294897079468
-0.08527129888534546 -0.42355087399482727 -0.13178294897079468
-0.08527129888534546 -0.38165026903152466 -0.11627906560897827
-0.08527129888534546 -0.3882395923137665 -0.10077518224716187
-0.08527129888534546 -0.34968289732933044 -0.05426359176635742
-0.08527129888534546 -0.33766043186187744 0.007751941680908203
-0.08527129888534546 -0.3483222424983978 0.02325582504272461
-0.08527129143476486 -0.34747830033302307 0.038759708404541016
-0.08527129888534546 -0.3226953446865082 -0.007751941680908203
-0.08527129888534546 -0.3275371789932251 0.05426358804106712
-0.08527129888534546 -0.2988182306289673 -0.02325582504272461
-0.08527129888534546 -0.2587505877017975 -0.038759708404541016
-0.08527129888534546 -0.26009491086006165 0.06976747512817383
-0.08527129888534546 -0.23155328631401062 0.08527135848999023
-0.08527129888534546 -0.2146870195865631 0.10077524185180664
-0.08527129888534546 -0.19881686568260193 0.11627912521362305
-0.08527129888534546 -0.18277262151241302 0.1317828893661499
-0.08527129888534546 -0.16545942425727844 0.1472867727279663
-0.08527129888534546 -0.15045931935310364 0.06976747512817383
-0.08527129888534546 -0.15853700041770935 0.08527135848999023
-0.08527129888534546 -0.1617993712425232 0.10077524930238724
-0.08527129888534546 -0.15880165994167328 0.11627912521362305
-0.08527129888534546 -0.13550381362438202 0.038759708404541016
-0.08527129888534546 -0.14244261384010315 0.05426359176635742
-0.08527129888534546 -0.1435224413871765 0.1317828893661499
-0.08527130633592606 -0.14561153948307037 0.16279065608978271
-0.08527129888534546 -0.11899788677692413 -0.038759708404541016
-0.08527129888534546 -0.12916243076324463 -0.02325582504272461
-0.08527129888534546 -0.1306157112121582 -0.007751941680908203
-0.08527129143476486 -0.1303674876689911 0.007751941680908203
-0.08527129888534546 -0.13038018345832825 0.02325582504272461
-0.08527129888534546 -0.13036756217479706 0.1472867727279663
-0.08527129888534546 -0.12514245510101318 0.16279065608978271
-0.08527129888534546 -0.1270257979631424 0.17829453945159912
-0.08527129888534546 -0.10288050770759583 -0.11627906560897827
-0.08527129888534546 -0.10744117200374603 0.17829453945159912
-0.08527129888534546 -0.11382145434617996 0.19379842281341553
-0.08527129888534546 -0.10152585059404373 0.20930230617523193
-0.08527129888534546 -0.09446851909160614 -0.13178294897079468
-0.08527129888534546 -0.08988360315561295 -0.10077518224716187
-0.08527129888534546 -0.08930425345897675 0.19379842281341553
-0.08527129888534546 -0.08707911521196365 0.22480618953704834
-0.08527129888534546 -0.07492654770612717 -0.08527129888534546
-0.08527129888534546 -0.07113686203956604 -0.06976741552352905
-0.08527129888534546 -0.08363515883684158 -0.05426359176635742
-0.08527129888534546 -0.07749776542186737 0.20930230617523193
-0.08527129888534546 -0.0727916955947876 0.24031007289886475
-0.08527129888534546 -0.05720068886876106 -0.14728683233261108
-0.08527129888534546 -0.06581016629934311 0.22480618953704834
-0.08527129888534546 -0.05840817838907242 0.25581395626068115
-0.08527129888534546 -0.05257749557495117 -0.14728683233261108
-0.08527129888534546 -0.05219600349664688 0.24031007289886475
-0.08527129888534546 -0.04344189539551735 0.27131783962249756
-0.08527129888534546 -0.03844086453318596 0.25581398606300354
-0.08527129888534546 -0.030755789950489998 0.27131783962249756
-0.08527129888534546 -0.02782100811600685 0.28682172298431396
-0.08527129888534546 -0.013438593596220016 -0.13178294897079468
-0.08527129888534546 -0.019790517166256905 0.28682172298431396
-0.08527129888534546 -0.010272473096847534 0.30232560634613037
-0.08527129888534546 -0.006575226783752441 0.30232560634613037
-0.08527129888534546 0.035182010382413864 -0.08527129888534546
-0.08527129888534546 0.04673979803919792 0.3488372564315796
-0.08527129888534546 0.06233830004930496 -0.10077518224716187
-0.08527129888534546 0.059011731296777725 0.3488372564315796
-0.08527129888534546 0.08371330797672272 -0.11627906560897827
-0.08527130633592606 0.0860605388879776 -0.11627906560897827
-0.08527129888534546 0.11993392556905746 -0.11627906560897827
-0.08527129888534546 0.127524271607399 -0.06976741552352905
-0.08527129888534546 0.1812325119972229 -0.05426359176635742
-0.08527129888534546 0.19961243867874146 -0.038759708404541016
-0.08527129888534546 0.20672927796840668 -0.02325582504272461
-0.08527129888534546 0.23178963363170624 -0.02325582504272461
-0.08527129888534546 0.2529401183128357 -0.11627906560897827
-0.08527129888534546 0.24949383735656738 -0.10077518224716187
-0.08527129888534546 0.24903106689453125 -0.08527129888534546
-0.08527129888534546 0.25163140892982483 -0.06976741552352905
-0.08527129888534546 0.24949254095554352 -0.05426359176635742
-0.08527129888534546 0.24217280745506287 -0.038759708404541016
-0.08527129888534546 0.26406702399253845 -0.14728683233261108
-0.08527129888534546 0.2573484778404236 -0.13178294897079468
-0.08527129888534546 0.279194176197052 -0.1627907156944275
-0.08527129888534546 0.36555513739585876 -0.1627907156944275
-0.08527129888534546 0.37799155712127686 -0.14728683233261108
-0.08527129888534546 0.3906657099723816 -0.13178294897079468
-0.08527129888534546 0.4527953267097473 -0.13178294897079468
-0.08527129888534546 0.47273603081703186 -0.13178294897079468
-0.08527129888534546 0.49965012073516846 -0.11627906560897827
-0.08527129888534546 0.5236747860908508 -0.10077518224716187
-0.08527129888534546 0.5592045187950134 -0.24031007289886475
-0.08527129888534546 0.5845720767974854 -0.08527129888534546
-0.08527129888534546 0.6265847086906433 -0.22480618953704834
-0.08527129888534546 0.6562260985374451 -0.20930230617523193
-0.08527129888534546 0.6731619834899902 -0.19379842281341553
-0.08527129888534546 0.6828087568283081 -0.1782945990562439
-0.08527129888534546 0.6786768436431885 -0.06976741552352905
-0.08527129888534546 0.6935373544692993 -0.1627907156944275
-0.08527129888534546 0.7042167782783508 -0.14728683233261108
-0.08527129888534546 0.71666419506073 -0.13178294897079468
-0.08527129888534546 0.7303958535194397 -0.11627906560897827
-0.08527129888534546 0.7308663129806519 -0.05426359176635742
-0.08527129888534546 0.7447947263717651 -0.10077518224716187
-0.08527129888534546 0.758929431438446 -0.08527129888534546
-0.08527129888534546 0.7760705947875977 -0.06976741552352905
-0.08527129888534546 0.7708389163017273 -0.05426359176635742
-0.06976741552352905 -0.9846743941307068 -0.22480618953704834
-0.06976741552352905 -0.9908488988876343 -0.20930230617523193
-0.06976741552352905 -0.9909089803695679 -0.19379842281341553
-0.06976741552352905 -0.9907485842704773 -0.1782945990562439
-0.06976741552352905 -0.9908103346824646 -0.1627907156944275
-0.06976741552352905 -0.9908624291419983 -0.14728683233261108
-0.06976741552352905 -0.9908670783042908 -0.13178294897079468
-0.06976741552352905 -0.9908644556999207 -0.11627906560897827
-0.06976741552352905 -0.9908780455589294 -0.10077518224716187
-0.06976741552352905 -0.9911156892776489 -0.08527129888534546
-0.06976741552352905 -0.9907740354537964 -0.06976741552352905
-0.06976741552352905 -0.9555673003196716 -0.24031007289886475
-0.06976741552352905 -0.9546259045600891 -0.13178294897079468
-0.06976741552352905 -0.959964394569397 -0.11627906560897827
-0.06976741552352905 -0.9593740105628967 -0.10077518224716187
-0.06976741552352905 -0.9603656530380249 -0.08527129888534546
-0.06976741552352905 -0.9655287265777588 -0.06976741552352905
-0.06976741552352905 -0.9475962519645691 -0.25581395626068115
-0.06976741552352905 -0.9368696212768555 -0.13178294897079468
-0.06976741552352905 -0.9299349784851074 -0.11627906560897827
-0.06976741552352905 -0.9303863048553467 -0.10077518224716187
-0.06976741552352905 -0.9303772449493408 -0.08527129888534546
-0.06976741552352905 -0.9225010275840759 -0.06976741552352905
-0.06976741552352905 -0.9096602201461792 -0.25581395626068115
-0.06976741552352905 -0.5861462354660034 -0.05426359176635742
-0.06976741552352905 -0.5769081115722656 -0.038759708404541016
