0.02325582504272461 -0.02325582504272461 0.2488156259059906
0.02325582504272461 -0.007751941680908203 -0.3766590356826782
0.02325582504272461 -0.007751941680908203 0.13759103417396545
0.02325582504272461 -0.007751941680908203 0.23703482747077942
0.02325582504272461 -0.007751941680908203 0.2478221207857132
0.02325582504272461 0.007751941680908203 -0.3759969472885132
0.02325582504272461 0.007751941680908203 0.13482195138931274
0.02325582504272461 0.007751941680908203 0.2373916506767273
0.02325582504272461 0.007751941680908203 0.24663092195987701
0.02325582504272461 0.02325582504272461 -0.37520503997802734
0.02325582504272461 0.02325582504272461 0.13260215520858765
0.02325582504272461 0.02325582504272461 0.23752638697624207
0.02325582504272461 0.02325582504272461 0.2452416718006134
0.02325582504272461 0.038759708404541016 -0.37413960695266724
0.02325582504272461 0.038759708404541016 0.12814515829086304
0.02325582504272461 0.038759708404541016 0.23774078488349915
0.02325582504272461 0.038759708404541016 0.24392373859882355
0.02325582504272461 0.05426359176635742 -0.37322238087654114
0.02325582504272461 0.05426359176635742 0.12405116856098175
0.02325582504272461 0.05426359176635742 0.23781506717205048
0.02325582504272461 0.05426359176635742 0.24278299510478973
0.02325582504272461 0.06976747512817383 -0.3729236125946045
0.02325582504272461 0.06976747512817383 0.12260809540748596
0.02325582504272461 0.06976747512817383 0.23796336352825165
0.02325582504272461 0.06976747512817383 0.2413337230682373
0.02325582504272461 0.08527135848999023 -0.37242600321769714
0.02325582504272461 0.08527135848999023 0.12335671484470367
0.02325582504272461 0.08527135848999023 0.22329527139663696
0.02325582504272461 0.08527135848999023 0.23097485303878784
0.02325582504272461 0.10077524185180664 -0.3720112442970276
0.02325582504272461 0.10077524185180664 0.1268739551305771
0.02325582504272461 0.10077524185180664 0.22121575474739075
0.02325582504272461 0.10077524185180664 0.22678625583648682
0.02325582504272461 0.11627912521362305 -0.3722057640552521
0.02325582318007946 0.11627912521362305 0.13230401277542114
0.02325582504272461 0.11627912521362305 0.20548632740974426
0.02325582504272461 0.11627912521362305 0.21277177333831787
0.02325582504272461 0.1317828893661499 -0.37245434522628784
0.02325582504272461 0.1317828893661499 0.1339922398328781
0.02325582504272461 0.1317828893661499 0.18888922035694122
0.02325582504272461 0.1317828893661499 0.1969451606273651
0.02325582504272461 0.1472867727279663 -0.3727896809577942
0.02325582504272461 0.1472867727279663 0.18039347231388092
0.02325582504272461 0.16279065608978271 -0.3731268048286438
0.02325582504272461 0.16279065608978271 0.16502493619918823
0.02325582504272461 0.17829453945159912 -0.37393584847450256
0.02325582504272461 0.17829453945159912 0.150962233543396
0.02325582318007946 0.19379842281341553 -0.37511780858039856
0.02325582504272461 0.19379842281341553 0.06600546836853027
0.02325582504272461 0.19379842281341553 0.10719038546085358
0.02325582504272461 0.19379842281341553 0.13928747177124023
0.02325582504272461 0.20930230617523193 -0.3738744854927063
0.02325582504272461 0.20930230617523193 -0.13442561030387878
0.02325582504272461 0.20930230617523193 0.12452077120542526
0.02325582504272461 0.20930230617523193 0.13309553265571594
0.02325582504272461 0.22480618953704834 -0.37167251110076904
0.02325582504272461 0.22480618953704834 -0.14425323903560638
0.02325582504272461 0.24031007289886475 -0.3704604208469391
0.02325582690536976 0.24031008780002594 -0.14650647342205048
0.02325582504272461 0.25581395626068115 -0.36960071325302124
0.02325582504272461 0.25581395626068115 -0.14670930802822113
0.02325582504272461 0.27131783962249756 -0.36844971776008606
0.02325582504272461 0.27131783962249756 -0.14590562880039215
0.02325582504272461 0.28682172298431396 -0.36718642711639404
0.02325582504272461 0.28682172298431396 -0.14471934735774994
0.02325582504272461 0.30232560634613037 -0.36593592166900635
0.02325582504272461 0.30232560634613037 -0.14351579546928406
0.02325582504272461 0.3178294897079468 -0.3650475740432739
0.02325582504272461 0.3178294897079468 -0.1434331238269806
0.02325582504272461 0.3333333730697632 -0.36451563239097595
0.02325582504272461 0.3333333730697632 -0.14442715048789978
0.02325582504272461 0.3488372564315796 -0.36324116587638855
0.02325582504272461 0.3488372564315796 -0.14549753069877625
0.02325582504272461 0.3643411695957184 -0.3620041608810425
0.02325582504272461 0.364341139793396 -0.14688146114349365
0.02325582504272461 0.37984490394592285 -0.36062371730804443
0.02325582504272461 0.37984490394592285 -0.15099090337753296
0.02325582318007946 0.39534878730773926 -0.35971805453300476
0.02325582504272461 0.39534878730773926 -0.15617290139198303
0.02325582504272461 0.41085267066955566 -0.35904645919799805
0.02325582504272461 0.41085267066955566 -0.1601494401693344
0.02325582504272461 0.42635655403137207 -0.35804635286331177
0.02325582504272461 0.42635655403137207 -0.16351275146007538
0.02325582504272461 0.4418604373931885 -0.35714590549468994
0.02325582504272461 0.4418604373931885 -0.24458596110343933
0.02325582504272461 0.4418604373931885 -0.236775204539299
0.02325582504272461 0.4418604373931885 -0.16730736196041107
0.02325582504272461 0.4573643207550049 -0.35631096363067627
0.02325582504272461 0.45736435055732727 -0.2518608868122101
0.02325582504272461 0.4573643207550049 -0.22689208388328552
0.02325582504272461 0.4573643207550049 -0.1702495515346527
0.02325582504272461 0.4728682041168213 -0.35527634620666504
0.02325582504272461 0.4728682041168213 -0.2546048164367676
0.02325582504272461 0.4728682041168213 -0.21929523348808289
0.02325582504272461 0.4728682339191437 -0.17152029275894165
0.02325582504272461 0.4883720874786377 -0.3544786870479584
0.02325582504272461 0.4883720874786377 -0.2575478255748749
0.02325582504272461 0.4883720874786377 -0.21320840716362
0.02325582504272461 0.4883720874786377 -0.1744978278875351
0.02325582504272461 0.5038759708404541 -0.3540625274181366
0.02325582504272461 0.5038759708404541 -0.2588312029838562
0.02325582504272461 0.5038759708404541 -0.2078605592250824
0.02325582504272461 0.5038759708404541 -0.17887352406978607
0.02325582504272461 0.5193798542022705 -0.35357144474983215
0.02325582504272461 0.5193798542022705 -0.25958943367004395
0.02325582504272461 0.5193798542022705 -0.19413185119628906
0.02325582504272461 0.5193798542022705 -0.19325195252895355
0.02325582504272461 0.5348837375640869 -0.3527611494064331
0.02325582504272461 0.5348837375640869 -0.25896725058555603
0.02325582504272461 0.5503876209259033 -0.3516654670238495
0.02325582504272461 0.5503876209259033 -0.25662413239479065
0.02325582504272461 0.5658915042877197 -0.3499700129032135
0.02325582504272461 0.5658915042877197 -0.23136067390441895
0.02325582504272461 0.5813953280448914 -0.34681224822998047
0.02325582504272461 0.5813953876495361 -0.1966783106327057
0.02325582504272461 0.5968992710113525 -0.3418731093406677
0.02325582504272461 0.5968992710113525 -0.1863570213317871
0.02325582504272461 0.612403154373169 -0.33829981088638306
0.02325582504272461 0.612403154373169 -0.1822976917028427
0.02325582504272461 0.6279069185256958 -0.33402010798454285
0.02325582504272461 0.6279069185256958 -0.181571364402771
0.02325582504272461 0.6434108018875122 -0.32751205563545227
0.02325582504272461 0.6434108018875122 -0.17935599386692047
0.02325582504272461 0.6589146852493286 -0.32299894094467163
0.02325582504272461 0.6589146852493286 -0.1758732944726944
0.02325582504272461 0.674418568611145 -0.3183429539203644
0.02325582504272461 0.674418568611145 -0.1692126989364624
0.02325582504272461 0.6899224519729614 -0.3114641308784485
0.02325582504272461 0.6899224519729614 -0.1607605516910553
0.02325582504272461 0.7054263353347778 -0.3052079975605011
0.02325582504272461 0.7054263353347778 -0.1542922854423523
0.02325582504272461 0.7209302186965942 -0.2958981990814209
0.02325582504272461 0.7209302186965942 -0.14782801270484924
0.02325582504272461 0.7364341020584106 -0.283447802066803
0.02325582504272461 0.7364341020584106 -0.14401046931743622
0.02325582504272461 0.751937985420227 -0.2682453691959381
0.02325582504272461 0.751937985420227 -0.13828572630882263
0.02325582504272461 0.7674418687820435 -0.25041040778160095
0.02325582504272461 0.7674418687820435 -0.13009145855903625
0.02325582504272461 0.7829457521438599 -0.2296687364578247
0.02325582504272461 0.7829457521438599 -0.1219169944524765
0.02325582504272461 0.7984496355056763 -0.20817624032497406
0.02325582504272461 0.7984496355056763 -0.11068730801343918
0.02325582504272461 0.8139535188674927 -0.1852421760559082
0.02325582504272461 0.8139535188674927 -0.09181354939937592
0.02325582504272461 0.8294574022293091 -0.16323266923427582
0.02325582504272461 0.8294574022293091 -0.07500705868005753
0.02325582318007946 0.8449612855911255 -0.1444600522518158
0.02325582504272461 0.8449612855911255 -0.06688026338815689
0.02325582504272461 0.8604651689529419 -0.12677471339702606
0.02325582504272461 0.8604651689529419 -0.06077447161078453
0.02325582504272461 0.8759689331054688 -0.1095094382762909
0.02325582504272461 0.8759689331054688 -0.05233965069055557
0.02325582504272461 0.8914728164672852 -0.0928676500916481
0.02325582504272461 0.8914728164672852 -0.04330611228942871
0.02325582504272461 0.9069766998291016 -0.07623273134231567
0.02325582504272461 0.9069767594337463 -0.037155333906412125
0.02325582504272461 0.922480583190918 -0.06205495446920395
0.02325582504272461 0.922480583190918 -0.0357026606798172
0.02325582504272461 0.9379844665527344 -0.04817037284374237
0.02325582504272461 0.9379844665527344 -0.035351455211639404
0.038759708404541016 -0.9844961166381836 0.03082365170121193
0.038759708404541016 -0.9844961166381836 0.0966072753071785
0.038759708404541016 -0.9689922332763672 0.0124349445104599
0.038759708404541016 -0.9689922332763672 0.09367413818836212
0.038759708404541016 -0.9534883499145508 -0.004789173603057861
0.038759708404541016 -0.9534883499145508 0.06381525844335556
0.038759708404541016 -0.9379844665527344 -0.021840672940015793
0.038759708404541016 -0.9379844665527344 0.04145970568060875
0.038759708404541016 -0.9224807024002075 -0.039828091859817505
0.038759708404541016 -0.9224806427955627 0.02688685618340969
0.038759708404541016 -0.9069767594337463 -0.05777466297149658
0.038759708404541016 -0.9069767594337463 0.017470484599471092
0.038759708404541016 -0.8914728760719299 -0.07800965011119843
0.038759708404541016 -0.8914728760719299 0.011296512559056282
0.038759708404541016 -0.8759690523147583 -0.09953887015581131
0.038759708404541016 -0.8759689927101135 0.007211820222437382
0.038759708404541016 -0.8604651093482971 -0.12304814159870148
0.038759708404541016 -0.8604650497436523 0.0019749959465116262
0.038759708404541016 -0.8449612259864807 -0.14928065240383148
0.038759708404541016 -0.8449612259864807 -0.0022255349904298782
0.038759708404541016 -0.8294573426246643 -0.17820240557193756
0.038759708404541016 -0.8294573426246643 -0.004253842867910862
0.038759708404541016 -0.8139535188674927 -0.20918671786785126
0.038759708404541016 -0.8139535784721375 -0.0032447767443954945
0.038759712129831314 -0.7984496355056763 -0.23858319222927094
0.038759708404541016 -0.798449695110321 -0.0020889302249997854
0.038759708404541016 -0.7829457521438599 -0.26126372814178467
0.038759708404541016 -0.7829457521438599 -0.0035925484262406826
0.038759708404541016 -0.7674418687820435 -0.277650386095047
0.038759708404541016 -0.7674418687820435 -0.008220374584197998
0.038759708404541016 -0.751937985420227 -0.29039451479911804
0.038759708404541016 -0.751937985420227 -0.0634775385260582
0.038759708404541016 -0.7364341020584106 -0.3003165125846863
0.038759708404541016 -0.7364341020584106 -0.10335592925548553
0.038759708404541016 -0.7209302186965942 -0.30867379903793335
0.038759708404541016 -0.7209302186965942 -0.11034129559993744
0.038759708404541016 -0.7054263353347778 -0.31813982129096985
0.038759708404541016 -0.7054263353347778 -0.11150740087032318
0.038759708404541016 -0.6899224519729614 -0.32475268840789795
0.038759708404541016 -0.6899223923683167 -0.11411334574222565
0.038759708404541016 -0.674418568611145 -0.33378005027770996
0.038759708404541016 -0.674418568611145 -0.11635314673185349
0.038759708404541016 -0.6589146852493286 -0.33988165855407715
0.038759708404541016 -0.6589146852493286 -0.11940415948629379
0.038759708404541016 -0.643410861492157 -0.3492278754711151
0.038759708404541016 -0.643410861492157 -0.12131087481975555
0.038759708404541016 -0.6279069781303406 -0.35338327288627625
0.038759708404541016 -0.6279069781303406 -0.12637948989868164
0.038759708404541016 -0.6124030947685242 -0.3592737317085266
0.038759708404541016 -0.6124030947685242 -0.1322111338376999
0.038759708404541016 -0.5968992114067078 -0.3658495247364044
0.038759708404541016 -0.5968992114067078 -0.1423451155424118
0.038759708404541016 -0.5813953876495361 -0.3682306110858917
0.038759708404541016 -0.5813953876495361 -0.15397503972053528
0.038759708404541016 -0.5658915042877197 -0.36954838037490845
0.038759708404541016 -0.5658915042877197 -0.16927838325500488
0.038759708404541016 -0.5503876209259033 -0.369102418422699
0.038759708404541016 -0.5503876209259033 -0.18796297907829285
0.038759708404541016 -0.5348837375640869 -0.3672410547733307
0.038759708404541016 -0.5348837375640869 -0.20585690438747406
0.038759708404541016 -0.5193798542022705 -0.36534082889556885
0.038759708404541016 -0.5193798542022705 -0.22005760669708252
0.038759708404541016 -0.5038759708404541 -0.3633897006511688
0.038759708404541016 -0.5038759708404541 -0.22246575355529785
0.038759708404541016 -0.4883721172809601 -0.36234840750694275
0.038759708404541016 -0.4883720874786377 -0.2114567756652832
0.038759708404541016 -0.4728682041168213 -0.36272189021110535
0.038759708404541016 -0.4728682041168213 -0.19869747757911682
0.038759708404541016 -0.4573643207550049 -0.3635522127151489
0.038759708404541016 -0.4573643207550049 -0.186259925365448
0.038759708404541016 -0.4418604373931885 -0.36378949880599976
0.038759708404541016 -0.4418604373931885 -0.17370781302452087
0.038759708404541016 -0.42635661363601685 -0.3636245131492615
0.03875970467925072 -0.42635661363601685 -0.1603545844554901
0.038759708404541016 -0.41085273027420044 -0.36391377449035645
0.038759708404541016 -0.4108527600765228 -0.14192701876163483
0.038759708404541016 -0.39534884691238403 -0.364364355802536
0.038759708404541016 -0.39534884691238403 -0.08407146483659744
0.038759708404541016 -0.3798449635505676 -0.3645554184913635
0.038759708404541016 -0.3798449635505676 -0.004638213664293289
0.038759708404541016 -0.3643410801887512 -0.3647836744785309
0.038759708404541016 -0.3643410801887512 0.0945035070180893
0.038759708404541016 -0.3488371968269348 -0.3646593689918518
0.03875970467925072 -0.3488371968269348 0.11728440225124359
0.038759708404541016 -0.3333333134651184 -0.3646745979785919
0.038759708404541016 -0.3333333134651184 0.12528415024280548
0.038759708404541016 -0.317829430103302 -0.3649224638938904
0.038759708404541016 -0.317829430103302 -0.15327928960323334
0.038759708404541016 -0.317829430103302 0.05625121667981148
0.038759708404541016 -0.317829430103302 0.13335545361042023
0.038759708404541016 -0.30232560634613037 -0.3652583658695221
0.038759708404541016 -0.30232560634613037 -0.151799738407135
0.03875970467925072 -0.30232560634613037 0.056551385670900345
0.038759708404541016 -0.30232560634613037 0.13726526498794556
0.038759708404541016 -0.28682172298431396 -0.3656410276889801
0.038759708404541016 -0.28682172298431396 -0.14100170135498047
0.038759708404541016 -0.28682172298431396 0.04317747429013252
0.038759708404541016 -0.28682172298431396 0.1429317593574524
0.038759708404541016 -0.27131783962249756 -0.366072416305542
0.038759708404541016 -0.27131783962249756 -0.12561827898025513
0.038759708404541016 -0.27131783962249756 -0.02898571267724037
0.03875970467925072 -0.27131783962249756 0.14766307175159454
0.038759708404541016 -0.25581395626068115 -0.36652836203575134
0.038759708404541016 -0.25581395626068115 -0.10740569233894348
0.038759708404541016 -0.25581395626068115 -0.0666024386882782
0.038759708404541016 -0.25581395626068115 0.15033966302871704
0.038759708404541016 -0.25581395626068115 0.21612462401390076
0.038759708404541016 -0.25581395626068115 0.22560398280620575
0.038759708404541016 -0.24031007289886475 -0.3669987916946411
0.038759708404541016 -0.24031008780002594 0.15261805057525635
0.038759708404541016 -0.24031007289886475 0.2212885618209839
0.038759708404541016 -0.24031007289886475 0.23354317247867584
0.038759708404541016 -0.22480618953704834 -0.36731502413749695
0.038759708404541016 -0.22480618953704834 0.15270543098449707
0.038759708404541016 -0.22480618953704834 0.2311524897813797
0.038759708404541016 -0.22480620443820953 0.24347060918807983
0.038759708404541016 -0.20930230617523193 -0.36768805980682373
0.038759708404541016 -0.20930230617523193 0.15324170887470245
0.038759708404541016 -0.20930230617523193 0.2390582412481308
0.038759708404541016 -0.20930230617523193 0.24423329532146454
0.038759708404541016 -0.19379842281341553 -0.36823323369026184
0.038759708404541016 -0.19379842281341553 0.16047315299510956
0.038759708404541016 -0.1782945990562439 -0.3683924973011017
0.038759708404541016 -0.1782945990562439 0.2614525854587555
0.038759708404541016 -0.1627907156944275 -0.368457168340683
0.038759708404541016 -0.1627907156944275 0.26318472623825073
0.038759708404541016 -0.14728683233261108 -0.3688102066516876
0.038759708404541016 -0.14728683233261108 0.2636036276817322
0.038759708404541016 -0.13178294897079468 -0.36908629536628723
0.038759708404541016 -0.13178294897079468 0.1396813839673996
0.038759708404541016 -0.13178294897079468 0.2310379147529602
0.038759708404541016 -0.13178294897079468 0.26305249333381653
0.038759708404541016 -0.11627906560897827 -0.3689650595188141
0.038759708404541016 -0.11627906560897827 0.13388876616954803
0.038759708404541016 -0.11627906560897827 0.25295159220695496
0.038759708404541016 -0.11627906560897827 0.2599267363548279
0.038759708404541016 -0.10077518224716187 -0.36889106035232544
0.038759708404541016 -0.10077518224716187 0.13424909114837646
0.038759708404541016 -0.10077518224716187 0.25564607977867126
0.038759708404541016 -0.10077517479658127 0.25599971413612366
0.038759708404541016 -0.08527129888534546 -0.36904478073120117
0.038759708404541016 -0.08527129888534546 0.1358117014169693
0.038759708404541016 -0.08527129888534546 0.25359681248664856
0.038759708404541016 -0.08527129888534546 0.25676992535591125
0.038759708404541016 -0.06976741552352905 -0.3692985773086548
0.038759708404541016 -0.06976741552352905 0.1383306235074997
0.038759708404541016 -0.06976741552352905 0.2391691356897354
0.038759708404541016 -0.06976741552352905 0.25629886984825134
0.038759708404541016 -0.05426359176635742 -0.3694038987159729
0.038759708404541016 -0.05426359176635742 0.14076997339725494
0.038759708404541016 -0.05426359176635742 0.23571470379829407
0.038759708404541016 -0.05426359176635742 0.2523433268070221
0.038759708404541016 -0.038759708404541016 -0.36942586302757263
0.038759708404541016 -0.038759708404541016 0.14081138372421265
0.038759708404541016 -0.038759708404541016 0.23545798659324646
0.038759708404541016 -0.038759708404541016 0.25011274218559265
0.038759708404541016 -0.02325582504272461 -0.36943793296813965
0.038759708404541016 -0.02325582504272461 0.13886496424674988
0.038759708404541016 -0.02325582504272461 0.23666861653327942
0.038759708404541016 -0.02325582504272461 0.24897345900535583
0.038759708404541016 -0.007751941680908203 -0.36903542280197144
0.038759708404541016 -0.007751941680908203 0.13653069734573364
0.038759708404541016 -0.007751941680908203 0.23712891340255737
0.038759708404541016 -0.007751941680908203 0.24783369898796082
0.038759708404541016 0.007751941680908203 -0.36875641345977783
0.038759708404541016 0.007751941680908203 0.13429546356201172
0.038759708404541016 0.007751941680908203 0.2373235523700714
0.038759708404541016 0.007751941680908203 0.2466026246547699
0.038759708404541016 0.02325582504272461 -0.36849531531333923
0.038759708404541016 0.02325582504272461 0.13233444094657898
0.038759708404541016 0.02325582504272461 0.23743920028209686
0.038759708404541016 0.02325582504272461 0.2452189326286316
0.038759708404541016 0.038759708404541016 -0.36812543869018555
0.038759708404541016 0.038759708404541016 0.128106951713562
0.038759708404541016 0.038759708404541016 0.23763324320316315
0.038759708404541016 0.038759708404541016 0.24389541149139404
0.038759708404541016 0.05426359176635742 -0.3678314685821533
0.038759708404541016 0.05426359176635742 0.12452174723148346
0.038759708404541016 0.05426359176635742 0.23761726915836334
0.038759708404541016 0.05426359176635742 0.242763951420784
0.038759708404541016 0.06976747512817383 -0.3676677942276001
0.038759708404541016 0.06976747512817383 0.1234767884016037
0.038759708404541016 0.06976747512817383 0.2376808077096939
0.038759712129831314 0.06976747512817383 0.24118882417678833
0.038759708404541016 0.08527135848999023 -0.3675195574760437
0.038759708404541016 0.08527135848999023 0.12464088201522827
0.038759708404541016 0.08527135848999023 0.22308829426765442
0.038759708404541016 0.08527135848999023 0.23101815581321716
0.038759708404541016 0.10077524185180664 -0.36744940280914307
0.038759708404541016 0.10077524185180664 0.1292046308517456
0.038759708404541016 0.10077524185180664 0.22083672881126404
0.038759708404541016 0.10077524185180664 0.22665727138519287
0.038759708404541016 0.11627912521362305 -0.36751776933670044
0.038759708404541016 0.11627912521362305 0.13288284838199615
0.038759708404541016 0.11627912521362305 0.20551051199436188
0.038759708404541016 0.11627912521362305 0.21257327497005463
0.038759708404541016 0.1317828893661499 -0.36767566204071045
0.038759708404541016 0.1317828893661499 0.13479362428188324
0.038759708404541016 0.1317828893661499 0.18935900926589966
0.03875970467925072 0.1317828893661499 0.19675786793231964
0.038759708404541016 0.1472867727279663 -0.36798930168151855
0.038759712129831314 0.1472867727279663 0.1802687793970108
0.038759708404541016 0.16279065608978271 -0.3682672083377838
0.038759708404541016 0.16279065608978271 0.16466054320335388
0.038759708404541016 0.17829453945159912 -0.3687334954738617
0.038759708404541016 0.17829453945159912 0.1503191888332367
0.038759708404541016 0.19379842281341553 -0.36960047483444214
0.038759708404541016 0.19379842281341553 0.05871734768152237
0.038759708404541016 0.19379842281341553 0.10790037363767624
0.038759708404541016 0.19379842281341553 0.13857081532478333
0.038759708404541016 0.20930230617523193 -0.36915016174316406
0.038759708404541016 0.20930230617523193 -0.13874295353889465
0.038759708404541016 0.20930230617523193 0.12361577153205872
0.038759708404541016 0.20930232107639313 0.13289722800254822
0.038759708404541016 0.22480618953704834 -0.368141770362854
0.038759708404541016 0.22480618953704834 -0.1455518901348114
0.038759708404541016 0.24031007289886475 -0.3675137162208557
0.038759708404541016 0.24031008780002594 -0.14718097448349
0.038759708404541016 0.25581395626068115 -0.36701157689094543
0.038759708404541016 0.25581395626068115 -0.1473974883556366
0.038759708404541016 0.27131783962249756 -0.3663153648376465
0.038759708404541016 0.27131783962249756 -0.14662553369998932
0.038759708404541016 0.28682172298431396 -0.36553850769996643
0.03875970467925072 0.2868216931819916 -0.14586421847343445
0.038759708404541016 0.30232560634613037 -0.36476007103919983
0.038759708404541016 0.30232560634613037 -0.1452607363462448
0.038759708404541016 0.3178294897079468 -0.36380261182785034
0.038759708404541016 0.3178294897079468 -0.14546409249305725
0.038759708404541016 0.3333333730697632 -0.36252114176750183
0.038759708404541016 0.3333333730697632 -0.14637361466884613
0.038759708404541016 0.3488372564315796 -0.361093133687973
0.038759708404541016 0.3488372564315796 -0.1475352793931961
0.038759708404541016 0.364341139793396 -0.3599528968334198
0.038759708404541016 0.364341139793396 -0.15143650770187378
0.038759708404541016 0.37984490394592285 -0.3587961792945862
0.038759708404541016 0.37984490394592285 -0.15601181983947754
0.038759708404541016 0.39534878730773926 -0.35788682103157043
0.038759708404541016 0.39534878730773926 -0.1607624739408493
0.038759708404541016 0.41085267066955566 -0.35702675580978394
0.038759708404541016 0.41085267066955566 -0.16593913733959198
0.038759708404541016 0.42635655403137207 -0.3561069965362549
0.038759708404541016 0.42635655403137207 -0.1710371971130371
0.038759708404541016 0.4418604373931885 -0.3553110361099243
0.038759708404541016 0.4418604373931885 -0.24216358363628387
0.038759708404541016 0.4418604373931885 -0.23758287727832794
0.038759708404541016 0.4418604373931885 -0.1737465113401413
0.038759708404541016 0.4573643207550049 -0.35455456376075745
0.038759708404541016 0.4573643207550049 -0.2474779337644577
0.038759708404541016 0.4573643207550049 -0.224922776222229
0.038759708404541016 0.4573642909526825 -0.17584741115570068
0.038759708404541016 0.4728682041168213 -0.3535890281200409
0.038759708404541016 0.4728682041168213 -0.24896842241287231
0.038759708404541016 0.4728682041168213 -0.21839585900306702
0.038759708404541016 0.4728682339191437 -0.1767202764749527
0.038759708404541016 0.4883720874786377 -0.3528227210044861
0.038759708404541016 0.4883720874786377 -0.25099605321884155
0.038759708404541016 0.4883720874786377 -0.21273216605186462
0.038759708404541016 0.4883720874786377 -0.18109263479709625
0.038759708404541016 0.5038759708404541 -0.35231900215148926
0.038759708404541016 0.5038759708404541 -0.25062209367752075
0.038759708404541016 0.5038759708404541 -0.20145171880722046
0.038759708404541016 0.5038759708404541 -0.19084173440933228
0.038759708404541016 0.5193798542022705 -0.35169023275375366
0.038759708404541016 0.5193798542022705 -0.24853524565696716
0.038759708404541016 0.5348837375640869 -0.3508389890193939
0.038759708404541016 0.5348837375640869 -0.24043600261211395
0.038759708404541016 0.5503876209259033 -0.3497036397457123
0.038759708404541016 0.5503876209259033 -0.22636647522449493
0.038759708404541016 0.5658915042877197 -0.3466876745223999
0.038759708404541016 0.5658915042877197 -0.2110293209552765
0.038759708404541016 0.5813953876495361 -0.3423859179019928
0.038759708404541016 0.5813953876495361 -0.1987326443195343
0.038759708404541016 0.5968992710113525 -0.3388136327266693
0.038759708404541016 0.5968992710113525 -0.1912039816379547
0.038759708404541016 0.612403154373169 -0.33418580889701843
0.038759708404541016 0.612403154373169 -0.18945147097110748
0.038759708404541016 0.6279069185256958 -0.32760560512542725
0.038759708404541016 0.6279069185256958 -0.19186674058437347
0.038759708404541016 0.6434108018875122 -0.32216861844062805
0.038759708404541016 0.6434108018875122 -0.19650553166866302
0.03875970467925072 0.6589146256446838 -0.31540197134017944
0.038759708404541016 0.6589146852493286 -0.19511152803897858
0.038759708404541016 0.674418568611145 -0.30846282839775085
0.038759708404541016 0.674418568611145 -0.18594560027122498
0.038759708404541016 0.6899224519729614 -0.30234602093696594
0.038759708404541016 0.6899224519729614 -0.17448627948760986
0.038759708404541016 0.7054263353347778 -0.29249271750450134
0.038759708404541016 0.7054263353347778 -0.16292408108711243
0.038759708404541016 0.7209302186965942 -0.28259363770484924
0.038759708404541016 0.7209302186965942 -0.1553700566291809
0.038759708404541016 0.7364341616630554 -0.2703304886817932
0.038759708404541016 0.7364341020584106 -0.14671628177165985
0.038759708404541016 0.751937985420227 -0.25413280725479126
0.038759708404541016 0.751937985420227 -0.1391189694404602
0.038759708404541016 0.7674418687820435 -0.2343345582485199
0.038759708404541016 0.7674418687820435 -0.12919862568378448
0.038759708404541016 0.7829457521438599 -0.2110217809677124
0.038759708404541016 0.7829457521438599 -0.11879869550466537
0.038759708404541016 0.7984496355056763 -0.1879713535308838
0.038759708404541016 0.7984496355056763 -0.10353265702724457
0.038759708404541016 0.8139535188674927 -0.16262540221214294
0.038759708404541016 0.8139535188674927 -0.0781128853559494
0.038759708404541016 0.8294574022293091 -0.14298108220100403
0.038759708404541016 0.8294574022293091 -0.06574712693691254
0.038759708404541016 0.8449612855911255 -0.12464459240436554
0.038759708404541016 0.8449612855911255 -0.0575389638543129
0.038759708404541016 0.8604651689529419 -0.10723230242729187
0.038759708404541016 0.8604651093482971 -0.05069510638713837
0.038759708404541016 0.8759689331054688 -0.08911865204572678
0.038759708404541016 0.8759689331054688 -0.041579797863960266
0.038759708404541016 0.8914728164672852 -0.07027744501829147
0.038759712129831314 0.8914728760719299 -0.037509266287088394
0.038759708404541016 0.9069766998291016 -0.056478988379240036
0.038759708404541016 0.9069766998291016 -0.03711806610226631
0.05426359176635742 -0.9844961166381836 0.03551007807254791
0.05426359176635742 -0.9844961166381836 0.09322860836982727
0.05426359176635742 -0.9689922332763672 0.015862010419368744
0.05426359176635742 -0.9689921736717224 0.09077350050210953
0.05426359176635742 -0.9534883499145508 -0.002325468696653843
0.05426359176635742 -0.9534883499145508 0.06761039048433304
0.05426359176635742 -0.9379844069480896 -0.019684115424752235
0.05426359176635742 -0.9379844665527344 0.04167575389146805
0.05426359176635742 -0.9224806427955627 -0.03752557560801506
0.05426359176635742 -0.9224807024002075 0.0272422693669796
0.05426359176635742 -0.9069767594337463 -0.05464852601289749
0.05426359176635742 -0.9069766998291016 0.016853662207722664
0.05426359176635742 -0.8914728760719299 -0.0736948773264885
0.05426359549164772 -0.8914728760719299 0.010037827305495739
0.05426359176635742 -0.8759689927101135 -0.09309650957584381
0.05426359176635742 -0.8759689927101135 0.004472547210752964
0.05426359176635742 -0.8604650497436523 -0.11483465135097504
0.05426359176635742 -0.8604651689529419 -0.001338765025138855
0.05426359176635742 -0.8449612259864807 -0.13753783702850342
0.05426359176635742 -0.8449612259864807 -0.0057430146262049675
0.05426359176635742 -0.8294573426246643 -0.16300377249717712
0.05426359176635742 -0.8294573426246643 -0.007002027705311775
0.05426359176635742 -0.8139535188674927 -0.19060775637626648
0.05426359176635742 -0.8139535188674927 -0.00416745338588953
0.05426359176635742 -0.7984496355056763 -0.21817481517791748
0.05426359176635742 -0.7984496355056763 -0.0010350225493311882
0.05426359176635742 -0.7829457521438599 -0.24247951805591583
0.05426359176635742 -0.7829457521438599 -0.0017495984211564064
0.05426359176635742 -0.7674418687820435 -0.26184186339378357
0.05426359176635742 -0.7674418687820435 -0.006377839483320713
0.05426359176635742 -0.751937985420227 -0.27621665596961975
0.05426359176635742 -0.751937985420227 -0.06522715091705322
0.05426359176635742 -0.7364341020584106 -0.2887132167816162
0.05426359176635742 -0.7364341020584106 -0.08771496266126633
0.05426359176635742 -0.7209302186965942 -0.29787397384643555
0.05426359176635742 -0.7209302186965942 -0.09495691955089569
0.05426359176635742 -0.7054263353347778 -0.3078039288520813
0.05426359549164772 -0.7054263353347778 -0.0992291197180748
0.05426358804106712 -0.6899224519729614 -0.31663021445274353
0.05426359176635742 -0.6899224519729614 -0.10443264245986938
0.05426359176635742 -0.674418568611145 -0.323836088180542
0.05426359176635742 -0.674418568611145 -0.10827772319316864
0.05426359176635742 -0.6589146852493286 -0.3328962028026581
0.05426359176635742 -0.6589146852493286 -0.11167114228010178
0.05426359176635742 -0.643410861492157 -0.33819881081581116
0.05426359176635742 -0.643410861492157 -0.11421561241149902
0.05426359176635742 -0.6279069781303406 -0.34673047065734863
0.05426359176635742 -0.6279069781303406 -0.12108942866325378
0.05426359176635742 -0.6124030947685242 -0.35171619057655334
0.05426359176635742 -0.6124030947685242 -0.1288842260837555
0.05426359176635742 -0.5968992114067078 -0.35592979192733765
0.05426359176635742 -0.5968992114067078 -0.1392260491847992
0.05426359176635742 -0.5813953876495361 -0.36013340950012207
0.05426359176635742 -0.5813953876495361 -0.1493869423866272
0.05426359176635742 -0.5658915042877197 -0.36312007904052734
0.05426359176635742 -0.5658915042877197 -0.1639561802148819
0.05426359176635742 -0.5503876209259033 -0.3639269769191742
0.05426359176635742 -0.5503876209259033 -0.18273091316223145
0.05426359176635742 -0.5348837375640869 -0.3617776334285736
0.05426359176635742 -0.5348837375640869 -0.20015493035316467
0.05426359176635742 -0.5193798542022705 -0.35800257325172424
0.05426359176635742 -0.5193798542022705 -0.21267499029636383
0.05426359176635742 -0.5038759708404541 -0.355760782957077
0.05426359176635742 -0.5038759708404541 -0.21465101838111877
0.05426359176635742 -0.4883720874786377 -0.35552871227264404
0.05426359176635742 -0.4883720874786377 -0.2059323489665985
0.05426359176635742 -0.4728682041168213 -0.3558556139469147
0.05426359176635742 -0.4728682339191437 -0.19335141777992249
0.05426359176635742 -0.4573643207550049 -0.3563157021999359
0.05426359176635742 -0.4573643207550049 -0.18305297195911407
0.05426359176635742 -0.4418604373931885 -0.35670602321624756
0.05426359176635742 -0.4418604373931885 -0.17220816016197205
0.05426359176635742 -0.42635661363601685 -0.35682213306427
0.05426359549164772 -0.42635664343833923 -0.16011686623096466
0.05426359176635742 -0.41085273027420044 -0.3572007417678833
0.05426359176635742 -0.4108527600765228 -0.1430022269487381
0.05426359176635742 -0.39534884691238403 -0.35759425163269043
0.05426359176635742 -0.39534884691238403 -0.080559141933918
0.05426359176635742 -0.3798449635505676 -0.3582751154899597
0.05426359176635742 -0.3798449635505676 0.001957002328708768
0.05426359176635742 -0.3643410801887512 -0.35891371965408325
0.05426359176635742 -0.3643410801887512 0.09649228304624557
0.05426359176635742 -0.3488371968269348 -0.3588863015174866
0.05426359176635742 -0.3488371968269348 0.11738009005784988
0.05426359176635742 -0.3333333134651184 -0.35915979743003845
0.05426359176635742 -0.3333333134651184 0.12513160705566406
0.05426359176635742 -0.317829430103302 -0.35980579257011414
0.05426359176635742 -0.317829430103302 -0.1521330177783966
0.05426359176635742 -0.317829430103302 0.053678207099437714
0.05426359176635742 -0.317829430103302 0.13331866264343262
0.05426359176635742 -0.30232560634613037 -0.360889732837677
0.05426359176635742 -0.30232560634613037 -0.14895783364772797
0.05426359176635742 -0.30232560634613037 0.05341554433107376
0.05426359176635742 -0.30232560634613037 0.13722345232963562
0.05426359176635742 -0.28682172298431396 -0.3620763421058655
0.05426359176635742 -0.28682172298431396 -0.13804969191551208
0.05426359176635742 -0.28682172298431396 0.03877321630716324
0.05426359176635742 -0.28682172298431396 0.14286884665489197
0.05426359176635742 -0.27131783962249756 -0.3634195029735565
0.05426359176635742 -0.27131783962249756 -0.12275472283363342
0.05426359176635742 -0.27131783962249756 -0.0448276661336422
0.05426359176635742 -0.27131786942481995 0.14770248532295227
0.05426359176635742 -0.25581395626068115 -0.3644651174545288
0.05426359176635742 -0.25581395626068115 -0.10414997488260269
0.05426359176635742 -0.25581395626068115 -0.07279327511787415
0.05426359176635742 -0.25581395626068115 0.15046346187591553
0.05426359176635742 -0.25581395626068115 0.209234818816185
0.05426359176635742 -0.25581395626068115 0.2250734120607376
0.05426359176635742 -0.24031007289886475 -0.3649175465106964
0.05426359176635742 -0.24031007289886475 0.15264037251472473
0.05426359176635742 -0.24031007289886475 0.22126279771327972
0.05426359176635742 -0.24031007289886475 0.2323339283466339
0.05426359176635742 -0.22480618953704834 -0.36529210209846497
0.05426359176635742 -0.22480618953704834 0.15246087312698364
0.05426359176635742 -0.22480618953704834 0.22525674104690552
0.05426359176635742 -0.22480618953704834 0.24260389804840088
0.05426359176635742 -0.20930230617523193 -0.3657112121582031
0.05426359176635742 -0.20930230617523193 0.1512169986963272
0.05426359176635742 -0.20930230617523193 0.23861216008663177
0.05426359176635742 -0.20930230617523193 0.24417534470558167
0.05426359176635742 -0.19379842281341553 -0.366177499294281
0.05426359176635742 -0.19379842281341553 0.15234223008155823
0.05426359176635742 -0.1782945990562439 -0.36639589071273804
0.05426359176635742 -0.1782945990562439 0.1575131118297577
0.05426359176635742 -0.1627907156944275 -0.3665221035480499
0.05426359176635742 -0.1627907156944275 0.1594218611717224
0.05426359176635742 -0.1627907156944275 0.239580899477005
0.05426359176635742 -0.1627907156944275 0.2594168186187744
0.05426359176635742 -0.14728683233261108 -0.36655664443969727
0.05426359176635742 -0.14728683233261108 0.1433151364326477
0.05426359176635742 -0.14728683233261108 0.2473183423280716
0.05426359176635742 -0.14728683233261108 0.26052209734916687
0.05426359176635742 -0.13178294897079468 -0.36648714542388916
0.05426359176635742 -0.13178294897079468 0.13478544354438782
0.05426359176635742 -0.13178294897079468 0.25427624583244324
0.05426359176635742 -0.13178294897079468 0.25805437564849854
0.05426359176635742 -0.11627906560897827 -0.36641791462898254
0.05426359176635742 -0.11627907305955887 0.13351485133171082
0.05426359176635742 -0.10077518224716187 -0.3664018213748932
0.05426359176635742 -0.10077518224716187 0.1339069902896881
0.05426359176635742 -0.08527129888534546 -0.3664557635784149
0.05426359176635742 -0.08527129888534546 0.13518500328063965
0.05426359176635742 -0.08527129888534546 0.25252917408943176
0.05426359549164772 -0.08527129888534546 0.25683608651161194
0.05426359176635742 -0.06976741552352905 -0.3665624260902405
0.05426359176635742 -0.06976741552352905 0.13692116737365723
0.05426359176635742 -0.06976741552352905 0.2389223575592041
0.05426359176635742 -0.06976741552352905 0.2561272084712982
0.05426359176635742 -0.05426359176635742 -0.3666783571243286
0.05426359176635742 -0.05426359176635742 0.1381455510854721
0.05426359176635742 -0.05426359176635742 0.23733237385749817
0.05426359176635742 -0.05426359176635742 0.25194016098976135
0.05426359176635742 -0.038759708404541016 -0.36675187945365906
0.05426359176635742 -0.038759708404541016 0.13809524476528168
0.05426359176635742 -0.038759708404541016 0.23683620989322662
0.05426359176635742 -0.038759708404541016 0.24985256791114807
0.05426359176635742 -0.02325582504272461 -0.36688464879989624
0.05426359176635742 -0.02325582504272461 0.13716664910316467
0.05426359176635742 -0.02325582504272461 0.23692959547042847
0.05426359176635742 -0.02325582504272461 0.24869731068611145
0.05426359176635742 -0.007751941680908203 -0.36684417724609375
0.05426359176635742 -0.007751941680908203 0.13551774621009827
0.05426359176635742 -0.007751941680908203 0.2370603382587433
0.05426359176635742 -0.007751941680908203 0.24754193425178528
0.05426359176635742 0.007751941680908203 -0.3666906952857971
0.05426359176635742 0.007751941680908203 0.13364799320697784
0.05426359176635742 0.007751941680908203 0.2372293472290039
0.05426359176635742 0.007751941680908203 0.24639026820659637
0.05426359176635742 0.02325582504272461 -0.3664664626121521
0.05426359176635742 0.02325582504272461 0.13200032711029053
0.05426359176635742 0.02325582504272461 0.23734241724014282
0.05426359176635742 0.02325582504272461 0.24508433043956757
0.05426359176635742 0.038759708404541016 -0.3661005198955536
0.05426359176635742 0.038759708404541016 0.12760591506958008
0.05426359176635742 0.038759708404541016 0.23752912878990173
0.05426359176635742 0.038759708404541016 0.24380770325660706
0.05426359176635742 0.05426359176635742 -0.36585238575935364
0.05426359176635742 0.05426359176635742 0.12441045045852661
0.05426359176635742 0.05426359176635742 0.2374429702758789
0.05426359176635742 0.05426359176635742 0.242689311504364
0.05426359176635742 0.06976747512817383 -0.365634024143219
0.05426359176635742 0.06976747512817383 0.12372829765081406
0.05426359176635742 0.06976747512817383 0.237735316157341
0.05426359176635742 0.06976747512817383 0.240946963429451
0.05426359176635742 0.08527135848999023 -0.36553922295570374
0.05426359176635742 0.08527135848999023 0.1251114010810852
0.05426359176635742 0.08527135848999023 0.22300775349140167
0.05426359176635742 0.08527135848999023 0.2307111769914627
0.05426359176635742 0.10077524185180664 -0.36554232239723206
0.05426359176635742 0.10077524185180664 0.129813089966774
0.05426359176635742 0.10077524185180664 0.22082412242889404
0.05426359176635742 0.10077524185180664 0.22644373774528503
0.05426359176635742 0.11627912521362305 -0.3655771017074585
0.05426359176635742 0.11627912521362305 0.13300123810768127
0.05426359176635742 0.11627912521362305 0.20560777187347412
0.05426359176635742 0.11627912521362305 0.2122489959001541
0.05426359176635742 0.1317828893661499 -0.36568978428840637
0.05426359176635742 0.1317828893661499 0.13496656715869904
0.05426359176635742 0.1317828893661499 0.18977391719818115
0.05426359176635742 0.1317828893661499 0.19626832008361816
0.05426359176635742 0.1472867727279663 -0.36591649055480957
0.05426359176635742 0.14728675782680511 0.1798812747001648
0.05426359176635742 0.16279065608978271 -0.3661368787288666
0.05426359176635742 0.1627906709909439 0.16416676342487335
0.05426359176635742 0.17829453945159912 -0.36635062098503113
0.05426358804106712 0.17829453945159912 0.14960412681102753
0.05426359176635742 0.19379842281341553 -0.36673861742019653
0.05426359176635742 0.19379842281341553 -0.10224787890911102
0.05426359176635742 0.19379842281341553 -0.10057858377695084
0.05426359176635742 0.19379842281341553 0.051695145666599274
0.05426359176635742 0.19379842281341553 0.10859175026416779
0.05426359176635742 0.19379842281341553 0.13788092136383057
0.05426359176635742 0.20930230617523193 -0.3664133548736572
0.05426359176635742 0.20930230617523193 -0.14172711968421936
0.05426359176635742 0.20930230617523193 0.12424249947071075
0.05426359176635742 0.20930232107639313 0.1325993537902832
0.05426359176635742 0.22480618953704834 -0.36579179763793945
0.05426359176635742 0.22480618953704834 -0.14655384421348572
0.05426359176635742 0.24031007289886475 -0.3652614653110504
0.05426359176635742 0.24031007289886475 -0.1502598375082016
0.05426359176635742 0.25581395626068115 -0.36481019854545593
0.05426359176635742 0.25581395626068115 -0.15075266361236572
0.05426359176635742 0.27131783962249756 -0.36434945464134216
0.05426359176635742 0.27131783962249756 -0.14732743799686432
0.05426358804106712 0.28682172298431396 -0.36258822679519653
0.05426358804106712 0.28682172298431396 -0.1467229574918747
0.05426359176635742 0.30232560634613037 -0.3607620596885681
0.05426359176635742 0.30232560634613037 -0.14647403359413147
0.05426359176635742 0.3178294897079468 -0.3592238426208496
0.05426359176635742 0.3178294897079468 -0.14681103825569153
0.05426359176635742 0.3333333730697632 -0.35821235179901123
0.05426359176635742 0.3333333730697632 -0.14863179624080658
0.05426359176635742 0.3488372564315796 -0.35724031925201416
0.05426359176635742 0.3488372564315796 -0.15209805965423584
0.05426359176635742 0.364341139793396 -0.35653793811798096
0.05426359176635742 0.364341139793396 -0.15624737739562988
0.05426359176635742 0.37984490394592285 -0.35585206747055054
0.05426359176635742 0.37984490394592285 -0.1609761118888855
0.05426359176635742 0.39534878730773926 -0.35510948300361633
0.05426359176635742 0.39534878730773926 -0.1678166687488556
0.05426359176635742 0.41085267066955566 -0.35430383682250977
0.05426359176635742 0.41085267066955566 -0.17398174107074738
0.05426359176635742 0.42635655403137207 -0.35337042808532715
0.05426359176635742 0.42635655403137207 -0.17790134251117706
0.05426359176635742 0.4418604373931885 -0.3524314761161804
0.05426359176635742 0.4418604373931885 -0.18239431083202362
0.05426359176635742 0.4573643207550049 -0.3515961766242981
0.05426359176635742 0.4573643207550049 -0.18646526336669922
0.05426359176635742 0.4728682041168213 -0.35070449113845825
0.05426359176635742 0.4728682041168213 -0.23022446036338806
0.05426359176635742 0.4728682041168213 -0.22187623381614685
0.05426359176635742 0.4728682339191437 -0.1882009655237198
0.05426359176635742 0.4883720874786377 -0.3500329256057739
0.05426359176635742 0.4883720874786377 -0.2333938628435135
0.05426359176635742 0.4883720874786377 -0.21532753109931946
0.05426359549164772 0.4883720874786377 -0.19229087233543396
0.05426359176635742 0.5038759708404541 -0.34943920373916626
0.05426359176635742 0.5038759708404541 -0.22892197966575623
0.05426358804106712 0.5193798542022705 -0.34826913475990295
0.05426359176635742 0.5193798542022705 -0.2195127010345459
0.05426359176635742 0.5348837375640869 -0.3457682132720947
0.05426359176635742 0.5348837375640869 -0.2116336226463318
0.05426359176635742 0.5503876209259033 -0.343386173248291
0.05426359176635742 0.5503876209259033 -0.2082747370004654
0.05426359176635742 0.5658915042877197 -0.3411622643470764
0.05426359176635742 0.5658915042877197 -0.20006375014781952
0.05426359176635742 0.5813953876495361 -0.3376320004463196
0.05426359176635742 0.5813953876495361 -0.19281546771526337
0.05426359176635742 0.5968992710113525 -0.3328472077846527
0.05426359176635742 0.5968992710113525 -0.18687859177589417
0.05426359176635742 0.612403154373169 -0.32704979181289673
0.05426359176635742 0.612403154373169 -0.18478922545909882
0.05426359176635742 0.6279069185256958 -0.32187336683273315
0.05426359549164772 0.6279069185256958 -0.18754872679710388
0.05426359176635742 0.6434108018875122 -0.3150523602962494
0.05426359549164772 0.643410861492157 -0.19372595846652985
0.05426359176635742 0.6589146852493286 -0.30882352590560913
0.05426359176635742 0.6589146852493286 -0.19735535979270935
0.05426359176635742 0.674418568611145 -0.3014882206916809
0.05426359176635742 0.674418568611145 -0.1904134899377823
0.05426359176635742 0.6899224519729614 -0.29208195209503174
0.05426359176635742 0.6899223923683167 -0.1777505874633789
0.05426359176635742 0.7054263353347778 -0.2822701930999756
0.05426359176635742 0.7054263353347778 -0.1648082286119461
0.05426359176635742 0.7209302186965942 -0.2714189291000366
0.05426359176635742 0.7209302186965942 -0.15378808975219727
0.05426359176635742 0.7364341020584106 -0.25586599111557007
0.05426359176635742 0.7364341020584106 -0.1437157541513443
0.05426359176635742 0.751937985420227 -0.23653313517570496
0.05426359176635742 0.751937985420227 -0.1328890025615692
0.05426359176635742 0.7674418687820435 -0.2121463567018509
0.05426359176635742 0.7674418687820435 -0.12257575243711472
0.05426359176635742 0.7829457521438599 -0.1876184046268463
0.05426359176635742 0.7829457521438599 -0.1076429933309555
0.05426359176635742 0.7984496355056763 -0.16085156798362732
0.05426359176635742 0.7984496355056763 -0.08285935968160629
0.05426359176635742 0.8139535188674927 -0.13814590871334076
0.05426359176635742 0.8139535188674927 -0.06293977797031403
0.05426359176635742 0.8294574022293091 -0.1166120171546936
0.05426359176635742 0.8294573426246643 -0.05343777686357498
0.05426359176635742 0.8449612855911255 -0.09885093569755554
0.05426359176635742 0.8449612855911255 -0.04983183741569519
0.05426359176635742 0.8604651689529419 -0.08161464333534241
0.05426359176635742 0.8604651689529419 -0.043002720922231674
0.05426359176635742 0.8759689331054688 -0.06471040844917297
0.05426359176635742 0.8759689331054688 -0.04052451625466347
0.06976747512817383 -0.9844961166381836 0.05220780149102211
0.06976747512817383 -0.9844961166381836 0.0894530713558197
0.06976747512817383 -0.9689922332763672 0.02613738179206848
0.06976747512817383 -0.9689922332763672 0.0903070718050003
0.06976747512817383 -0.9534883499145508 0.006903025321662426
0.06976747512817383 -0.9534883499145508 0.08731915056705475
0.06976747512817383 -0.9379844665527344 -0.010413453914225101
0.06976747512817383 -0.9379844665527344 0.053310420364141464
0.06976747512817383 -0.9224806427955627 -0.02949824556708336
0.06976747512817383 -0.9224806427955627 0.0362541489303112
