0.1317828893661499 0.1472867727279663 -0.017575353384017944
0.1317828893661499 0.1472867727279663 0.12107323110103607
0.1317828893661499 0.1472867727279663 0.18799671530723572
0.1317828893661499 0.16279065608978271 -0.9380187392234802
0.1317828893661499 0.16279065608978271 -0.006003650836646557
0.1317828893661499 0.16279065608978271 0.07823216915130615
0.1317828893661499 0.16279065608978271 0.24936366081237793
0.1317828893661499 0.17829453945159912 -0.93438321352005
0.1317828893661499 0.17829453945159912 0.013257592916488647
0.1317828893661499 0.17829453945159912 0.03974655643105507
0.1317828893661499 0.17829453945159912 0.28958216309547424
0.1317828893661499 0.19379842281341553 -0.9268965721130371
0.1317828893661499 0.19379842281341553 0.3137332499027252
0.1317828893661499 0.20930230617523193 -0.9203777313232422
0.1317828893661499 0.20930230617523193 0.32560259103775024
0.1317828893661499 0.22480618953704834 -0.908730149269104
0.1317828893661499 0.22480618953704834 0.15059758722782135
0.1317828893661499 0.22480617463588715 0.21046674251556396
0.1317828893661499 0.22480618953704834 0.33691129088401794
0.1317828893661499 0.24031007289886475 -0.8994165062904358
0.1317828893661499 0.24031007289886475 0.13042593002319336
0.1317828893661499 0.24031007289886475 0.23832306265830994
0.1317828893661499 0.24031007289886475 0.3493003249168396
0.1317828893661499 0.25581395626068115 -0.8879228234291077
0.1317828893661499 0.25581395626068115 0.11913812160491943
0.1317828893661499 0.25581395626068115 0.25235459208488464
0.1317828893661499 0.25581395626068115 0.3593756854534149
0.1317828893661499 0.27131783962249756 -0.8744720220565796
0.1317828893661499 0.27131783962249756 0.11103827506303787
0.1317828893661499 0.27131783962249756 0.2629796266555786
0.1317828893661499 0.27131783962249756 0.3688203692436218
0.1317828893661499 0.28682172298431396 -0.8600233197212219
0.1317828893661499 0.28682172298431396 0.10374564677476883
0.1317828893661499 0.28682172298431396 0.27144771814346313
0.1317828893661499 0.28682172298431396 0.3806145191192627
0.1317828893661499 0.30232560634613037 -0.8456844091415405
0.1317828893661499 0.30232560634613037 0.09915608167648315
0.1317828893661499 0.30232560634613037 0.2760922312736511
0.1317828893661499 0.30232560634613037 0.38888221979141235
0.1317828893661499 0.3178294897079468 -0.8318357467651367
0.1317828893661499 0.3178294897079468 0.09563635289669037
0.1317828893661499 0.3178294897079468 0.2799799144268036
0.1317828893661499 0.3178294897079468 0.3982062041759491
0.1317828893661499 0.3333333730697632 -0.8184441924095154
0.1317828893661499 0.3333333730697632 0.09341652691364288
0.1317828893661499 0.3333333730697632 0.2818566858768463
0.1317828893661499 0.3333333730697632 0.40715211629867554
0.1317828893661499 0.3488372564315796 -0.8041979074478149
0.1317828893661499 0.3488372564315796 0.09402331709861755
0.1317828893661499 0.3488372564315796 0.27921587228775024
0.1317828893661499 0.3488372564315796 0.4142058193683624
0.1317828893661499 0.364341139793396 -0.7883009314537048
0.1317828893661499 0.364341139793396 0.09797848761081696
0.1317828893661499 0.364341139793396 0.27175429463386536
0.1317828893661499 0.364341139793396 0.4208194613456726
0.1317828893661499 0.37984490394592285 -0.7680333256721497
0.1317828893661499 0.37984490394592285 0.10679247230291367
0.1317828893661499 0.37984490394592285 0.2539217174053192
0.1317828893661499 0.37984493374824524 0.42727696895599365
0.1317828893661499 0.39534878730773926 -0.7449502348899841
0.1317828893661499 0.39534878730773926 0.12139146029949188
0.1317828893661499 0.39534878730773926 0.2233165204524994
0.1317828893661499 0.39534878730773926 0.4303956627845764
0.1317828893661499 0.41085267066955566 -0.7144525051116943
0.1317828893661499 0.41085267066955566 0.14695094525814056
0.1317828893661499 0.41085267066955566 0.18063466250896454
0.1317828893661499 0.41085267066955566 0.43392616510391235
0.1317828893661499 0.42635655403137207 -0.6818629503250122
0.1317828893661499 0.42635655403137207 -0.14135272800922394
0.1317828893661499 0.42635655403137207 -0.04752609506249428
0.1317828893661499 0.42635655403137207 0.43757545948028564
0.1317828893661499 0.4418604373931885 -0.6457952260971069
0.1317828893661499 0.4418604373931885 -0.18053166568279266
0.1317828893661499 0.4418604373931885 -0.02042378857731819
0.1317828893661499 0.4418604373931885 0.44178709387779236
0.1317828893661499 0.4573643207550049 -0.5763081312179565
0.1317828893661499 0.4573643207550049 -0.2248104363679886
0.1317828893661499 0.4573643207550049 -0.006396871991455555
0.1317828893661499 0.4573643207550049 0.4444051682949066
0.1317828893661499 0.4728682041168213 -0.46645957231521606
0.1317828893661499 0.4728682041168213 -0.35867100954055786
0.1317828893661499 0.4728682041168213 0.002417691983282566
0.1317828893661499 0.4728682041168213 0.44718295335769653
0.1317828893661499 0.4883720874786377 0.007177350111305714
0.1317828893661499 0.4883720874786377 0.4499751925468445
0.1317828893661499 0.5038759708404541 0.011296823620796204
0.1317828893661499 0.5038759708404541 0.4519026279449463
0.1317828893661499 0.5193798542022705 0.01611749827861786
0.1317828893661499 0.5193798542022705 0.4531141519546509
0.1317828893661499 0.5348837375640869 0.020827865228056908
0.1317828893661499 0.5348837375640869 0.45412832498550415
0.1317828893661499 0.5503876209259033 0.026570886373519897
0.1317828893661499 0.5503876209259033 0.4546196758747101
0.1317828893661499 0.5658915042877197 0.03245318681001663
0.1317828893661499 0.5658915042877197 0.45408934354782104
0.1317828893661499 0.5813953876495361 0.04043739289045334
0.1317828893661499 0.5813953876495361 0.45285284519195557
0.1317828893661499 0.5968992710113525 0.04854629188776016
0.1317828893661499 0.5968992710113525 0.4512048363685608
0.1317828893661499 0.612403154373169 0.05749715119600296
0.1317828893661499 0.612403154373169 0.4481719732284546
0.1317828893661499 0.6279069185256958 0.06640423089265823
0.1317828893661499 0.6279069185256958 0.4439970850944519
0.1317828893661499 0.6434108018875122 0.07576413452625275
0.1317828893661499 0.6434108018875122 0.44019827246665955
0.1317828893661499 0.6589146852493286 0.0843639150261879
0.1317828893661499 0.6589146852493286 0.4365770220756531
0.1317828893661499 0.674418568611145 0.09388796240091324
0.1317828893661499 0.674418568611145 0.43368983268737793
0.1317828893661499 0.6899224519729614 0.10412271320819855
0.1317828893661499 0.6899224519729614 0.4293343126773834
0.1317828893661499 0.7054263353347778 0.1161479502916336
0.1317828893661499 0.7054263353347778 0.42338448762893677
0.1317828893661499 0.7209302186965942 0.1340133249759674
0.1317828893661499 0.7209302186965942 0.4166606664657593
0.1317828893661499 0.7364341020584106 0.156294584274292
0.1317828893661499 0.7364341020584106 0.4045301079750061
0.1317828893661499 0.751937985420227 0.18471691012382507
0.1317828893661499 0.751937985420227 0.3861275613307953
0.1317828893661499 0.7674418687820435 0.21995380520820618
0.1317828893661499 0.7674418687820435 0.36427220702171326
0.1317828893661499 0.7829457521438599 0.25095534324645996
0.1317828893661499 0.7829457521438599 0.34328141808509827
0.1317828893661499 0.7984496355056763 0.2816412150859833
0.1317828893661499 0.7984496355056763 0.3155474364757538
0.1472867727279663 -0.7829457521438599 -0.5085592269897461
0.1472867727279663 -0.7829457521438599 -0.3555251359939575
0.1472867727279663 -0.7674418687820435 -0.5804186463356018
0.1472867727279663 -0.7674418687820435 -0.26375341415405273
0.1472867727279663 -0.751937985420227 -0.6341485381126404
0.1472867727279663 -0.751937985420227 -0.21129782497882843
0.1472867727279663 -0.7364341020584106 -0.6687638759613037
0.1472867727279663 -0.7364341020584106 -0.1612403243780136
0.1472867727279663 -0.7209302186965942 -0.6978492736816406
0.1472867727279663 -0.7209302186965942 -0.11167673766613007
0.1472867727279663 -0.7054263353347778 -0.7248715162277222
0.1472867727279663 -0.7054263353347778 -0.06131698563694954
0.1472867727279663 -0.6899224519729614 -0.7516603469848633
0.1472867727279663 -0.6899224519729614 -0.008682787418365479
0.1472867727279663 -0.674418568611145 -0.7715691924095154
0.1472867727279663 -0.674418568611145 0.0500037856400013
0.1472867727279663 -0.6589146852493286 -0.7900905013084412
0.1472867727279663 -0.6589146852493286 0.1217389777302742
0.1472867727279663 -0.643410861492157 -0.8053421378135681
0.1472867727279663 -0.643410861492157 0.16636180877685547
0.1472867727279663 -0.6279069781303406 -0.818561851978302
0.1472867727279663 -0.6279070377349854 0.19904987514019012
0.1472867727279663 -0.6124030947685242 -0.8307366371154785
0.1472867727279663 -0.6124030947685242 0.22439077496528625
0.1472867727279663 -0.5968992114067078 -0.844333827495575
0.1472867727279663 -0.5968992710113525 0.24610792100429535
0.1472867727279663 -0.5813953876495361 -0.8551592826843262
0.1472867727279663 -0.5813953876495361 0.2630951404571533
0.1472867727279663 -0.5658915042877197 -0.8626985549926758
0.1472867727279663 -0.5658915042877197 0.2777654528617859
0.1472867727279663 -0.5503876209259033 -0.8744587302207947
0.1472867727279663 -0.5503876209259033 0.2910381555557251
0.1472867727279663 -0.5348837375640869 -0.8825254440307617
0.1472867727279663 -0.5348837375640869 0.3024435043334961
0.1472867727279663 -0.5193798542022705 -0.8915343284606934
0.1472867727279663 -0.5193798542022705 0.3120817542076111
0.1472867727279663 -0.5038759708404541 -0.9013550281524658
0.1472867727279663 -0.5038759708404541 0.32123175263404846
0.1472867727279663 -0.4883720874786377 -0.9076159596443176
0.1472867727279663 -0.4883720874786377 0.32779461145401
0.1472867727279663 -0.4728682041168213 -0.9170148968696594
0.1472867727279663 -0.4728682041168213 0.33540964126586914
0.1472867727279663 -0.4573643207550049 -0.922610342502594
0.1472867727279663 -0.4573643207550049 0.34179678559303284
0.1472867727279663 -0.4418604373931885 -0.9279184341430664
0.1472867727279663 -0.4418604373931885 0.3474303185939789
0.1472867727279663 -0.42635661363601685 -0.9351720809936523
0.1472867727279663 -0.42635658383369446 0.3545650839805603
0.1472867727279663 -0.41085273027420044 -0.9380835890769958
0.1472867727279663 -0.41085273027420044 0.3600396513938904
0.1472867727279663 -0.39534884691238403 -0.9420241713523865
0.1472867727279663 -0.39534884691238403 0.36627694964408875
0.1472867727279663 -0.3798449635505676 -0.9481698274612427
0.1472867727279663 -0.3798449635505676 0.3723335266113281
0.1472867727279663 -0.3643410801887512 -0.9516507387161255
0.1472867727279663 -0.3643410801887512 0.3764548897743225
0.1472867727279663 -0.3488371968269348 -0.9532933235168457
0.1472867727279663 -0.3488371968269348 0.38030025362968445
0.1472867727279663 -0.3333333134651184 -0.9544426202774048
0.1472867727279663 -0.3333333134651184 0.38239800930023193
0.1472867727279663 -0.317829430103302 -0.9568532705307007
0.1472867727279663 -0.317829430103302 0.38526374101638794
0.1472867727279663 -0.30232560634613037 -0.9586001038551331
0.1472867727279663 -0.30232560634613037 0.3883379101753235
0.1472867727279663 -0.28682172298431396 -0.9587551355361938
0.1472867727279663 -0.28682172298431396 0.39106485247612
0.1472867727279663 -0.27131783962249756 -0.9574814438819885
0.1472867727279663 -0.27131783962249756 0.39388421177864075
0.1472867727279663 -0.25581395626068115 -0.9558697938919067
0.1472867727279663 -0.25581395626068115 0.3968236744403839
0.1472867727279663 -0.24031007289886475 -0.9547134041786194
0.1472867727279663 -0.24031007289886475 0.399730920791626
0.1472867727279663 -0.22480618953704834 -0.9537732005119324
0.1472867727279663 -0.22480618953704834 0.40279078483581543
0.1472867727279663 -0.20930229127407074 -0.9524645805358887
0.1472867727279663 -0.20930230617523193 0.40357035398483276
0.1472867727279663 -0.19379842281341553 -0.9499682784080505
0.1472867727279663 -0.19379842281341553 0.4014054536819458
0.1472867727279663 -0.1782945990562439 -0.9465301036834717
0.1472867727279663 -0.1782945990562439 0.39708083868026733
0.1472867727279663 -0.1627907156944275 -0.9429893493652344
0.1472867727279663 -0.1627907156944275 0.3921574056148529
0.1472867727279663 -0.14728683233261108 -0.9401522874832153
0.1472867727279663 -0.14728683233261108 0.38515251874923706
0.1472867727279663 -0.13178296387195587 -0.93775874376297
0.1472867727279663 -0.13178294897079468 0.3798075020313263
0.1472867727279663 -0.11627906560897827 -0.9345101714134216
0.1472867727279663 -0.11627906560897827 0.37409502267837524
0.1472867727279663 -0.10077518224716187 -0.9307472705841064
0.1472867727279663 -0.10077518224716187 0.36954495310783386
0.1472867727279663 -0.08527129888534546 -0.9277253746986389
0.1472867727279663 -0.08527129143476486 0.3669722378253937
0.1472867727279663 -0.06976741552352905 -0.9259935021400452
0.1472867727279663 -0.06976741552352905 0.36559879779815674
0.1472867727279663 -0.05426359176635742 -0.9250002503395081
0.1472867727279663 -0.05426359176635742 0.007655374705791473
0.1472867727279663 -0.05426359176635742 0.04606350511312485
0.1472867727279663 -0.05426359176635742 0.36318016052246094
0.1472867727279663 -0.038759708404541016 -0.9246296882629395
0.1472867727279663 -0.038759708404541016 -0.007648285944014788
0.1472867727279663 -0.038759708404541016 0.08080096542835236
0.1472867727279663 -0.038759708404541016 0.35547155141830444
0.1472867727279663 -0.02325582504272461 -0.9248675107955933
0.1472867727279663 -0.02325582504272461 -0.02010006085038185
0.1472867727279663 -0.02325582504272461 0.13489240407943726
0.1472867727279663 -0.02325582504272461 0.16114068031311035
0.1472867727279663 -0.02325582504272461 0.2541189193725586
0.1472867727279663 -0.02325582504272461 0.34571927785873413
0.1472867727279663 -0.007751941680908203 -0.9256205558776855
0.1472867727279663 -0.007751941680908203 -0.034094005823135376
0.1472867727279663 -0.007751941680908203 0.2857964038848877
0.1472867727279663 -0.007751941680908203 0.32631421089172363
0.1472867727279663 0.007751941680908203 -0.9267351627349854
0.1472867727279663 0.007751941680908203 -0.04792534559965134
0.1472867727279663 0.02325582504272461 -0.9288625717163086
0.1472867727279663 0.02325582504272461 -0.05620835721492767
0.1472867727279663 0.038759708404541016 -0.93271803855896
0.1472867727279663 0.038759708404541016 -0.06075645238161087
0.1472867727279663 0.05426359176635742 -0.9373770356178284
0.1472867727279663 0.05426359176635742 -0.061558619141578674
0.1472867727279663 0.06976747512817383 -0.9393017292022705
0.1472867727279663 0.06976747512817383 -0.05843130499124527
0.1472867727279663 0.08527135848999023 -0.942247211933136
0.1472867727279663 0.08527135103940964 -0.05216875299811363
0.1472867727279663 0.10077524185180664 -0.9456430673599243
0.1472867727279663 0.10077524185180664 -0.042331762611866
0.1472867727279663 0.11627912521362305 -0.9471792578697205
0.1472867727279663 0.11627912521362305 -0.03219751641154289
0.1472867727279663 0.1317828893661499 -0.9459764957427979
0.1472867727279663 0.1317828893661499 -0.02219255641102791
0.1472867727279663 0.1472867727279663 -0.9429765939712524
0.1472867727279663 0.1472867727279663 -0.013569004833698273
0.1472867727279663 0.16279065608978271 -0.9393464922904968
0.1472867727279663 0.16279065608978271 -0.0033690943382680416
0.1472867727279663 0.16279065608978271 0.08876385539770126
0.1472867727279663 0.16279065608978271 0.2405436486005783
0.1472867727279663 0.17829453945159912 -0.9360914826393127
0.1472867727279663 0.17829453945159912 0.011203933507204056
0.1472867727279663 0.17829453945159912 0.055498529225587845
0.1472867727279663 0.17829453945159912 0.2874963879585266
0.1472867727279663 0.19379842281341553 -0.9283273220062256
0.1472867727279663 0.19379842281341553 0.315918892621994
0.1472867727279663 0.20930230617523193 -0.9208743572235107
0.1472867727279663 0.20930230617523193 0.32841426134109497
0.1472867727279663 0.22480618953704834 -0.9092087149620056
0.1472867727279663 0.22480618953704834 0.15933041274547577
0.1472867727279663 0.22480618953704834 0.1978987604379654
0.1472867727279663 0.22480618953704834 0.3392159640789032
0.1472867727279663 0.24031007289886475 -0.8999183177947998
0.1472867727279663 0.24031007289886475 0.1369193196296692
0.1472867727279663 0.24031007289886475 0.23358771204948425
0.1472867727279663 0.24031007289886475 0.35076218843460083
0.1472867727279663 0.25581395626068115 -0.8881262540817261
0.1472867727279663 0.25581395626068115 0.12541401386260986
0.1472867727279663 0.25581395626068115 0.24966228008270264
0.1472867727279663 0.25581395626068115 0.36274266242980957
0.1472867727279663 0.27131783962249756 -0.8744601011276245
0.1472867727279663 0.27131783962249756 0.11560927331447601
0.1472867727279663 0.27131783962249756 0.26151618361473083
0.1472867727279663 0.27131783962249756 0.3709666132926941
0.1472867876291275 0.28682172298431396 -0.8599437475204468
0.1472867727279663 0.28682172298431396 0.11005973070859909
0.1472867727279663 0.28682172298431396 0.27053749561309814
0.1472867876291275 0.28682172298431396 0.3816753029823303
0.1472867727279663 0.30232560634613037 -0.8453403115272522
0.1472867727279663 0.30232560634613037 0.10497382283210754
0.1472867727279663 0.30232560634613037 0.27524515986442566
0.1472867727279663 0.30232560634613037 0.3913581073284149
0.1472867727279663 0.3178294897079468 -0.8312456607818604
0.1472867727279663 0.3178294897079468 0.10016500949859619
0.1472867727279663 0.3178294897079468 0.27893537282943726
0.1472867727279663 0.3178294897079468 0.3992677927017212
0.1472867727279663 0.3333333730697632 -0.817792534828186
0.1472867727279663 0.3333333730697632 0.09833924472332001
0.1472867727279663 0.3333333730697632 0.2807700037956238
0.1472867727279663 0.3333333730697632 0.40888023376464844
0.1472867727279663 0.3488372564315796 -0.8034825921058655
0.1472867727279663 0.3488372564315796 0.09872116893529892
0.1472867727279663 0.3488372564315796 0.2782198190689087
0.1472867727279663 0.3488372564315796 0.41478538513183594
0.1472867727279663 0.364341139793396 -0.7874518036842346
0.1472867727279663 0.364341139793396 0.10274902731180191
0.1472867727279663 0.364341139793396 0.27082350850105286
0.1472867727279663 0.364341139793396 0.42104288935661316
0.1472867727279663 0.37984487414360046 -0.7670174241065979
0.1472867727279663 0.37984490394592285 0.11200764775276184
0.1472867727279663 0.37984490394592285 0.25049808621406555
0.1472867727279663 0.37984490394592285 0.42706599831581116
0.1472867727279663 0.39534878730773926 -0.7434172630310059
0.1472867727279663 0.39534878730773926 0.12757337093353271
0.1472867727279663 0.39534881711006165 0.21366888284683228
0.1472867727279663 0.39534878730773926 0.4299996495246887
0.1472867727279663 0.41085267066955566 -0.712738037109375
0.1472867727279663 0.41085267066955566 -0.09392020851373672
0.1472867727279663 0.41085267066955566 -0.07929599285125732
0.1472867727279663 0.41085267066955566 0.43341201543807983
0.1472867727279663 0.42635655403137207 -0.6796791553497314
0.1472867727279663 0.42635655403137207 -0.15415255725383759
0.1472867727279663 0.42635655403137207 -0.02341347187757492
0.1472867727279663 0.42635655403137207 0.4367656409740448
0.1472867727279663 0.4418604373931885 -0.6426424980163574
0.1472867727279663 0.4418604373931885 -0.19024822115898132
0.1472867727279663 0.4418604373931885 -0.0012823911383748055
0.1472867727279663 0.4418604373931885 0.4403753876686096
0.1472867727279663 0.4573642909526825 -0.5600740313529968
0.1472867727279663 0.4573643207550049 -0.23403027653694153
0.1472867727279663 0.4573643207550049 0.010573338717222214
0.1472867727279663 0.4573643207550049 0.4434174597263336
0.1472867727279663 0.4728682041168213 -0.46249276399612427
0.1472867727279663 0.4728682041168213 -0.4002167582511902
0.1472867727279663 0.4728682041168213 0.018497038632631302
0.1472867727279663 0.4728681743144989 0.445922315120697
0.1472867727279663 0.4883720874786377 0.02349347434937954
0.1472867727279663 0.4883720874786377 0.44866958260536194
0.1472867727279663 0.5038759708404541 0.02754839137196541
0.1472867727279663 0.5038759708404541 0.45048898458480835
0.1472867727279663 0.5193798542022705 0.03208749741315842
0.1472867727279663 0.5193798542022705 0.45152753591537476
0.1472867727279663 0.5348837375640869 0.03668993338942528
0.1472867727279663 0.5348837375640869 0.45216089487075806
0.1472867727279663 0.5503876209259033 0.042230021208524704
0.1472867727279663 0.5503876209259033 0.4523390233516693
0.1472867727279663 0.5658915042877197 0.04724997282028198
0.1472867727279663 0.5658915042877197 0.4519336223602295
0.1472867727279663 0.5813953876495361 0.05419835448265076
0.1472867727279663 0.5813953876495361 0.4507772922515869
0.1472867727279663 0.5968992710113525 0.061617158353328705
0.1472867727279663 0.5968992710113525 0.4486013650894165
0.1472867727279663 0.612403154373169 0.06914560496807098
0.1472867727279663 0.612403154373169 0.444877028465271
0.1472867727279663 0.6279069185256958 0.07746480405330658
0.1472867727279663 0.6279069185256958 0.44097086787223816
0.1472867727279663 0.6434108018875122 0.08498241752386093
0.1472867727279663 0.6434108018875122 0.43730229139328003
0.1472867727279663 0.6589146852493286 0.09349074959754944
0.1472867727279663 0.6589146852493286 0.4342229962348938
0.1472867727279663 0.674418568611145 0.10131630301475525
0.1472867727279663 0.674418568611145 0.4295389950275421
0.1472867727279663 0.6899224519729614 0.11007969081401825
0.1472867727279663 0.6899224519729614 0.42405766248703003
0.1472867727279663 0.7054263353347778 0.12141528725624084
0.1472867727279663 0.7054263353347778 0.41934633255004883
0.1472867727279663 0.7209302186965942 0.1377553790807724
0.1472867727279663 0.7209302186965942 0.41001102328300476
0.1472867727279663 0.7364341020584106 0.1596202403306961
0.1472867727279663 0.7364341020584106 0.3971470296382904
0.1472867727279663 0.751937985420227 0.1895236074924469
0.1472867727279663 0.751937985420227 0.3796522915363312
0.1472867727279663 0.7674418687820435 0.22738806903362274
0.1472867727279663 0.7674418687820435 0.3589191436767578
0.1472867727279663 0.7829457521438599 0.2573249936103821
0.1472867727279663 0.7829457521438599 0.3389313519001007
0.1472867727279663 0.7984496355056763 0.2929382622241974
0.1472867727279663 0.7984496355056763 0.30779510736465454
0.16279065608978271 -0.7829457521438599 -0.4957824647426605
0.16279065608978271 -0.7829457521438599 -0.37298595905303955
0.16279065608978271 -0.7674418687820435 -0.5629661083221436
0.16279065608978271 -0.7674418687820435 -0.274156779050827
0.16279065608978271 -0.751937985420227 -0.6238695979118347
0.16279065608978271 -0.751937985420227 -0.21896591782569885
0.16279065608978271 -0.7364341020584106 -0.6590673327445984
0.16279065608978271 -0.7364341020584106 -0.16925355792045593
0.1627906709909439 -0.7209302186965942 -0.6897093057632446
0.16279065608978271 -0.7209302186965942 -0.12014715373516083
0.16279065608978271 -0.7054263353347778 -0.7195830941200256
0.16279065608978271 -0.7054263353347778 -0.06982223689556122
0.16279065608978271 -0.6899224519729614 -0.7463507652282715
0.16279065608978271 -0.6899224519729614 -0.016947802156209946
0.16279065608978271 -0.674418568611145 -0.7679673433303833
0.16279065608978271 -0.6744185090065002 0.039858169853687286
0.16279065608978271 -0.6589146852493286 -0.7854998111724854
0.16279065608978271 -0.6589146852493286 0.10911573469638824
0.16279065608978271 -0.6434109210968018 -0.8016073703765869
0.16279065608978271 -0.643410861492157 0.15793967247009277
0.16279065608978271 -0.6279069781303406 -0.816199541091919
0.16279065608978271 -0.6279069185256958 0.19197562336921692
0.16279065608978271 -0.6124030947685242 -0.8300619721412659
0.16279065608978271 -0.6124030947685242 0.21935749053955078
0.16279065608978271 -0.5968992114067078 -0.8438310027122498
0.16279065608978271 -0.5968992114067078 0.2422790229320526
0.16279065608978271 -0.5813953876495361 -0.8547234535217285
0.16279065608978271 -0.5813953876495361 0.2606414258480072
0.16279065608978271 -0.5658915042877197 -0.862585186958313
0.16279065608978271 -0.5658915042877197 0.27583909034729004
0.16279065608978271 -0.5503876209259033 -0.8746100664138794
0.16279065608978271 -0.5503876209259033 0.28987035155296326
0.16279065608978271 -0.5348837375640869 -0.8829865455627441
0.16279065608978271 -0.5348837375640869 0.30228665471076965
0.16279065608978271 -0.5193798542022705 -0.8916817903518677
0.16279065608978271 -0.5193798542022705 0.31267648935317993
0.16279065608978271 -0.5038759708404541 -0.9018786549568176
0.16279065608978271 -0.5038759708404541 0.3228684365749359
0.16279065608978271 -0.4883720874786377 -0.9078109264373779
0.16279065608978271 -0.4883720874786377 0.3292285203933716
0.16279065608978271 -0.4728682339191437 -0.9174789190292358
0.16279065608978271 -0.4728682041168213 0.33774322271347046
0.16279065608978271 -0.4573643207550049 -0.9227360486984253
0.16279065608978271 -0.4573643207550049 0.34335339069366455
0.16279065608978271 -0.4418604373931885 -0.9285075664520264
0.16279065608978271 -0.4418604373931885 0.350026398897171
0.16279065608978271 -0.42635661363601685 -0.9355133175849915
0.16279065608978271 -0.42635661363601685 0.3569021224975586
0.16279065608978271 -0.41085273027420044 -0.938180685043335
0.16279065608978271 -0.41085273027420044 0.36233463883399963
0.16279065608978271 -0.39534884691238403 -0.9427904486656189
0.16279065608978271 -0.39534884691238403 0.3691151738166809
0.16279065608978271 -0.3798449635505676 -0.9489284753799438
0.16279065608978271 -0.3798449635505676 0.3751123249530792
0.16279065608978271 -0.3643410801887512 -0.952178955078125
0.16279065608978271 -0.36434105038642883 0.38059747219085693
0.16279065608978271 -0.3488371968269348 -0.9536142945289612
0.16279065608978271 -0.3488371968269348 0.3844773471355438
0.16279065608978271 -0.3333333134651184 -0.9563016891479492
0.16279065608978271 -0.3333333134651184 0.38855624198913574
0.16279065608978271 -0.317829430103302 -0.9603983163833618
0.16279065608978271 -0.317829430103302 0.3914344906806946
0.16279065608978271 -0.30232560634613037 -0.9632860422134399
0.16279065608978271 -0.30232560634613037 0.3939739167690277
0.16279065608978271 -0.28682172298431396 -0.964259684085846
0.16279065608978271 -0.28682172298431396 0.3967401087284088
0.16279065608978271 -0.27131783962249756 -0.9637913703918457
0.16279065608978271 -0.27131783962249756 0.4001091718673706
0.16279065608978271 -0.25581395626068115 -0.9622284173965454
0.16279065608978271 -0.25581395626068115 0.40475523471832275
0.16279065608978271 -0.24031007289886475 -0.9605206847190857
0.16279065608978271 -0.24031007289886475 0.4083390235900879
0.16279065608978271 -0.22480618953704834 -0.9587095975875854
0.1627906709909439 -0.22480618953704834 0.4111877381801605
0.16279065608978271 -0.20930230617523193 -0.9571660757064819
0.16279065608978271 -0.20930230617523193 0.4117147624492645
0.16279065608978271 -0.19379842281341553 -0.9555119276046753
0.16279065608978271 -0.19379842281341553 0.4101499617099762
0.16279065608978271 -0.1782945990562439 -0.9538237452507019
0.16279065608978271 -0.1782945990562439 0.40543898940086365
0.16279065608978271 -0.16279073059558868 -0.9513634443283081
0.1627906709909439 -0.1627907156944275 0.3986181318759918
0.16279065608978271 -0.14728683233261108 -0.947685718536377
0.16279065608978271 -0.14728683233261108 0.39333444833755493
0.16279065608978271 -0.13178294897079468 -0.943605899810791
0.16279065608978271 -0.13178294897079468 0.3873751759529114
0.16279065608978271 -0.11627906560897827 -0.9406024813652039
0.16279065608978271 -0.11627906560897827 0.3821626305580139
0.16279065608978271 -0.10077518224716187 -0.9384570717811584
0.16279065608978271 -0.10077518224716187 0.3790340721607208
0.16279065608978271 -0.08527129143476486 -0.9364922642707825
0.16279065608978271 -0.08527129888534546 0.37622255086898804
0.16279065608978271 -0.06976741552352905 -0.9347419738769531
0.16279065608978271 -0.06976741552352905 0.3737783133983612
0.16279065608978271 -0.05426359176635742 -0.9329116940498352
0.16279065608978271 -0.05426359176635742 0.01534450426697731
0.1627906709909439 -0.05426359176635742 0.041616324335336685
0.16279065608978271 -0.05426359176635742 0.3695901036262512
0.16279065608978271 -0.038759708404541016 -0.9314440488815308
0.16279065608978271 -0.038759708404541016 -0.005409271456301212
0.16279065608978271 -0.038759708404541016 0.07663945853710175
0.16279065608978271 -0.038759708404541016 0.36408206820487976
0.16279065608978271 -0.02325582504272461 -0.931047797203064
0.16279065608978271 -0.02325582504272461 -0.018730925396084785
0.16279065608978271 -0.02325582504272461 0.11515625566244125
0.16279065608978271 -0.02325582504272461 0.19319717586040497
0.16279065608978271 -0.02325582504272461 0.2280486822128296
0.16279065608978271 -0.02325582504272461 0.353475958108902
0.16279065608978271 -0.00775194214656949 -0.9316343665122986
0.16279065608978271 -0.007751941680908203 -0.032179784029722214
0.16279065608978271 -0.007751941680908203 0.266961008310318
0.16279065608978271 -0.007751941680908203 0.33995896577835083
0.16279065608978271 0.007751941680908203 -0.9326605200767517
0.16279065608978271 0.007751941680908203 -0.04594635218381882
0.16279065608978271 0.02325582690536976 -0.9347811341285706
0.16279065608978271 0.02325582504272461 -0.05400317162275314
0.16279065608978271 0.038759708404541016 -0.9378188252449036
0.16279065608978271 0.038759708404541016 -0.05854768678545952
0.16279065608978271 0.05426359176635742 -0.9394697546958923
0.16279065608978271 0.05426359176635742 -0.05946984142065048
0.16279065608978271 0.06976747512817383 -0.9421175718307495
0.16279065608978271 0.06976747512817383 -0.056238096207380295
0.16279065608978271 0.08527135848999023 -0.9461965560913086
0.16279065608978271 0.08527135848999023 -0.05064644291996956
0.16279065608978271 0.10077524185180664 -0.9495522975921631
0.16279065608978271 0.10077524185180664 -0.04023239389061928
0.16279065608978271 0.11627912521362305 -0.9505012631416321
0.16279065608978271 0.11627912521362305 -0.030365806072950363
0.16279065608978271 0.1317828893661499 -0.948920726776123
0.16279065608978271 0.1317828893661499 -0.020820902660489082
0.16279065608978271 0.1472867727279663 -0.9450199604034424
0.16279065608978271 0.1472867727279663 -0.011733943596482277
0.16279065608978271 0.16279065608978271 -0.9400427341461182
0.16279065608978271 0.16279065608978271 -0.002539554378017783
0.16279065608978271 0.16279065608978271 0.09988407045602798
0.16279065608978271 0.16279065608978271 0.22143016755580902
0.16279065608978271 0.17829453945159912 -0.9361065626144409
0.16279065608978271 0.17829453945159912 0.009089488536119461
0.16279065608978271 0.17829453945159912 0.06868357956409454
0.16279065608978271 0.17829453945159912 0.27672266960144043
0.16279065608978271 0.19379842281341553 -0.927578866481781
0.16279065608978271 0.19379842281341553 0.31303510069847107
0.16279065608978271 0.20930230617523193 -0.9201738238334656
0.16279065608978271 0.20930230617523193 0.3293822705745697
0.16279065608978271 0.22480618953704834 -0.9082069993019104
0.16279065608978271 0.22480618953704834 0.3413546085357666
0.16279065608978271 0.24031007289886475 -0.8985739946365356
0.16279065608978271 0.24031007289886475 0.14789749681949615
0.16279065608978271 0.24031007289886475 0.21833854913711548
0.16279065608978271 0.24031005799770355 0.35233190655708313
0.16279065608978271 0.25581395626068115 -0.8871273994445801
0.16279065608978271 0.25581395626068115 0.13511747121810913
0.16279065608978271 0.25581392645835876 0.24044129252433777
0.16279065608978271 0.25581395626068115 0.3647404611110687
0.16279065608978271 0.27131783962249756 -0.8738333582878113
0.16279065608978271 0.27131783962249756 0.12661652266979218
0.16279065608978271 0.27131783962249756 0.2538154423236847
0.16279065608978271 0.27131783962249756 0.37269261479377747
0.16279065608978271 0.28682172298431396 -0.8596264719963074
0.16279064118862152 0.28682172298431396 0.11927072703838348
0.16279065608978271 0.28682172298431396 0.26352038979530334
0.16279065608978271 0.28682172298431396 0.3824112117290497
0.16279065608978271 0.30232560634613037 -0.8447142839431763
0.16279065608978271 0.30232560634613037 0.11457011103630066
0.16279065608978271 0.30232560634613037 0.26835373044013977
0.16279065608978271 0.30232560634613037 0.3925926685333252
0.16279065608978271 0.3178294897079468 -0.8301946520805359
0.16279065608978271 0.3178294897079468 0.11087460815906525
0.16279065608978271 0.3178294897079468 0.27113258838653564
0.16279065608978271 0.3178294897079468 0.3995884656906128
0.16279065608978271 0.3333333730697632 -0.8166778087615967
0.16279065608978271 0.3333333730697632 0.1082526296377182
0.16279064118862152 0.3333333730697632 0.27226492762565613
0.16279065608978271 0.3333333730697632 0.4087655544281006
0.16279065608978271 0.3488372564315796 -0.8023980259895325
0.16279065608978271 0.3488372564315796 0.10873115807771683
0.16279065608978271 0.3488372564315796 0.2691555917263031
0.16279065608978271 0.3488372564315796 0.41432619094848633
0.16279065608978271 0.364341139793396 -0.7863649129867554
0.16279065608978271 0.364341139793396 0.11313462257385254
0.16279065608978271 0.364341139793396 0.2583090662956238
0.16279065608978271 0.364341139793396 0.41958096623420715
0.16279065608978271 0.37984490394592285 -0.7662275433540344
0.16279065608978271 0.37984490394592285 0.12399490177631378
0.16279065608978271 0.37984490394592285 0.231736958026886
0.16279065608978271 0.37984490394592285 0.42493078112602234
0.16279065608978271 0.39534878730773926 -0.7418298721313477
0.16279065608978271 0.39534878730773926 0.14494147896766663
0.16279065608978271 0.39534878730773926 0.18806082010269165
0.16279065608978271 0.39534878730773926 0.42796438932418823
0.16279065608978271 0.41085267066955566 -0.7111589908599854
0.16279065608978271 0.41085267066955566 -0.12616997957229614
0.16279065608978271 0.41085267066955566 -0.02799452468752861
0.16279065608978271 0.41085267066955566 0.43114739656448364
0.16279065608978271 0.42635655403137207 -0.6778658032417297
0.16279065608978271 0.42635655403137207 -0.1657911092042923
0.16279065608978271 0.42635655403137207 0.0025044837966561317
0.16279065608978271 0.42635655403137207 0.4348146319389343
0.16279065608978271 0.4418604373931885 -0.6406376361846924
0.16279065608978271 0.4418604373931885 -0.20068985223770142
0.16279065608978271 0.4418604373931885 0.018507983535528183
0.16279065608978271 0.4418604373931885 0.437472403049469
0.16279065608978271 0.4573643207550049 -0.5441051721572876
0.16279065608978271 0.4573643207550049 -0.2479788064956665
0.16279065608978271 0.4573642909526825 0.02821030467748642
0.16279065608978271 0.4573643207550049 0.44009050726890564
0.16279065608978271 0.4728682041168213 -0.45697808265686035
0.16279065608978271 0.4728682041168213 -0.4175906777381897
0.16279065608978271 0.4728682041168213 0.03511391207575798
0.16279065608978271 0.4728682041168213 0.4425485134124756
0.16279065608978271 0.4883720874786377 0.040173791348934174
0.16279065608978271 0.4883720874786377 0.4446263909339905
0.16279065608978271 0.5038759708404541 0.04395727813243866
0.16279065608978271 0.5038759708404541 0.44643908739089966
0.16279065608978271 0.5193798542022705 0.04793112725019455
0.16279065608978271 0.5193798542022705 0.44755077362060547
0.16279065608978271 0.5348837375640869 0.05205738916993141
0.16279065608978271 0.5348837375640869 0.44829297065734863
0.16279065608978271 0.5503876209259033 0.057265445590019226
0.16279065608978271 0.5503876209259033 0.4482709765434265
0.16279065608978271 0.5658915042877197 0.061605848371982574
0.16279065608978271 0.5658915042877197 0.4473257064819336
0.16279065608978271 0.5813953876495361 0.06691578775644302
0.16279065608978271 0.5813953876495361 0.44530826807022095
0.16279065608978271 0.5968992710113525 0.07411977648735046
0.16279065608978271 0.5968992710113525 0.44285109639167786
0.16279065608978271 0.612403154373169 0.08011986315250397
0.16279065608978271 0.612403154373169 0.43936336040496826
0.16279065608978271 0.6279069781303406 0.0882967859506607
0.16279065608978271 0.6279069185256958 0.4368760585784912
0.16279065608978271 0.6434108018875122 0.09477785974740982
0.16279065608978271 0.6434108018875122 0.4334593117237091
0.16279065608978271 0.6589146852493286 0.10296082496643066
0.16279065608978271 0.6589146852493286 0.4284515976905823
0.16279065608978271 0.674418568611145 0.10988198220729828
0.16279065608978271 0.674418568611145 0.4232903718948364
0.1627906709909439 0.6899224519729614 0.11746461689472198
0.16279065608978271 0.6899224519729614 0.41933342814445496
0.16279065608978271 0.7054263353347778 0.12767094373703003
0.16279065608978271 0.7054263353347778 0.41151314973831177
0.16279065608978271 0.7209302186965942 0.14274507761001587
0.16279065608978271 0.7209302186965942 0.40344929695129395
0.16279065608978271 0.7364341020584106 0.16601844131946564
0.16279065608978271 0.7364341020584106 0.39044636487960815
0.16279065608978271 0.7519380450248718 0.19782616198062897
0.16279065608978271 0.751937985420227 0.3732790946960449
0.16279065608978271 0.7674418687820435 0.23468151688575745
0.16279065608978271 0.7674418687820435 0.35300061106681824
0.16279065608978271 0.7829457521438599 0.26349204778671265
0.1627906709909439 0.7829457521438599 0.33356350660324097
0.17829453945159912 -0.7829457521438599 -0.4822195768356323
0.17829453945159912 -0.7829456925392151 -0.39405906200408936
0.17829453945159912 -0.7674418091773987 -0.5453314185142517
0.17829453945159912 -0.7674418687820435 -0.2888391315937042
0.17829453945159912 -0.7519380450248718 -0.6098034381866455
0.17829453945159912 -0.751937985420227 -0.23043499886989594
0.17829453945159912 -0.7364341020584106 -0.6514281630516052
0.17829453945159912 -0.7364341020584106 -0.18107905983924866
0.17829453945159912 -0.7209302186965942 -0.6828327178955078
0.17829455435276031 -0.7209302186965942 -0.1317591667175293
0.17829453945159912 -0.7054263353347778 -0.711127519607544
0.17829452455043793 -0.7054262757301331 -0.08105777204036713
0.17829453945159912 -0.6899224519729614 -0.7376711368560791
0.17829453945159912 -0.6899224519729614 -0.02871810272336006
0.17829453945159912 -0.674418568611145 -0.7637228965759277
0.17829453945159912 -0.6744185090065002 0.02672439068555832
0.17829453945159912 -0.6589146852493286 -0.7825689911842346
0.17829453945159912 -0.6589146852493286 0.09324918687343597
0.17829453945159912 -0.643410861492157 -0.7986745834350586
0.17829453945159912 -0.643410861492157 0.1476222425699234
0.17829453945159912 -0.6279069781303406 -0.8141354918479919
0.17829453945159912 -0.6279069781303406 0.18359972536563873
0.17829455435276031 -0.6124030947685242 -0.8287459015846252
0.17829453945159912 -0.6124030947685242 0.2130090296268463
0.17829453945159912 -0.5968992114067078 -0.8418718576431274
0.17829453945159912 -0.5968992114067078 0.23611003160476685
0.17829453945159912 -0.5813953876495361 -0.8519061207771301
0.17829453945159912 -0.5813953876495361 0.25540757179260254
0.17829453945159912 -0.5658915042877197 -0.8612987399101257
0.17829453945159912 -0.5658915042877197 0.27085888385772705
0.17829453945159912 -0.5503876209259033 -0.873533308506012
0.17829453945159912 -0.5503876209259033 0.28553906083106995
0.17829453945159912 -0.5348837375640869 -0.8810232877731323
0.17829453945159912 -0.5348837375640869 0.2992115318775177
0.17829453945159912 -0.5193798542022705 -0.8912585377693176
0.17829453945159912 -0.5193798542022705 0.3117024898529053
0.17829453945159912 -0.5038759708404541 -0.9003828763961792
0.17829453945159912 -0.5038759708404541 0.3220515251159668
0.17829453945159912 -0.4883720874786377 -0.9074219465255737
0.17829453945159912 -0.4883720874786377 0.3291332721710205
0.17829453945159912 -0.4728681743144989 -0.9159138202667236
0.17829453945159912 -0.4728682041168213 0.3380560278892517
0.17829453945159912 -0.4573643207550049 -0.9223421216011047
0.17829453945159912 -0.4573643207550049 0.34380578994750977
0.17829453945159912 -0.4418604373931885 -0.9265061020851135
0.17829453945159912 -0.4418604373931885 0.35070866346359253
0.17829453945159912 -0.42635661363601685 -0.9343619346618652
0.17829453945159912 -0.42635661363601685 0.35778236389160156
0.17829453945159912 -0.41085273027420044 -0.9378612637519836
0.17829453945159912 -0.41085273027420044 0.3636818528175354
0.17829453945159912 -0.39534884691238403 -0.9409947395324707
0.17829453945159912 -0.39534884691238403 0.3708055913448334
0.17829453945159912 -0.3798449635505676 -0.9476324319839478
0.17829453945159912 -0.3798449635505676 0.37631872296333313
0.17829453945159912 -0.36434105038642883 -0.9517356157302856
0.17829453945159912 -0.3643410801887512 0.3825847804546356
0.17829453945159912 -0.3488371968269348 -0.9535251259803772
0.17829453945159912 -0.3488371968269348 0.38833075761795044
0.17829453945159912 -0.3333333134651184 -0.9564976096153259
0.17829453945159912 -0.3333333134651184 0.39196789264678955
0.17829453945159912 -0.317829430103302 -0.9615889191627502
0.17829453945159912 -0.317829430103302 0.39589399099349976
0.17829453945159912 -0.30232560634613037 -0.9652867317199707
0.17829453945159912 -0.30232560634613037 0.3985108435153961
0.17829453945159912 -0.28682172298431396 -0.9670974612236023
0.17829453945159912 -0.28682172298431396 0.4025770127773285
0.17829453945159912 -0.27131783962249756 -0.9681442975997925
0.17829453945159912 -0.27131783962249756 0.4070069193840027
0.17829453945159912 -0.25581395626068115 -0.9682909846305847
0.17829453945159912 -0.25581395626068115 0.41126006841659546
0.17829453945159912 -0.24031007289886475 -0.9679011106491089
0.17829453945159912 -0.24031007289886475 0.4146629273891449
0.17829453945159912 -0.22480618953704834 -0.9668678641319275
0.17829453945159912 -0.22480618953704834 0.4186399579048157
0.17829452455043793 -0.20930230617523193 -0.9654253721237183
0.17829453945159912 -0.20930230617523193 0.4201012849807739
0.17829453945159912 -0.19379842281341553 -0.9629333019256592
0.17829453945159912 -0.19379842281341553 0.4180266559123993
0.17829453945159912 -0.1782945990562439 -0.9596757292747498
0.17829453945159912 -0.1782946139574051 0.412820041179657
0.17829453945159912 -0.1627907156944275 -0.956768274307251
0.17829453945159912 -0.1627907156944275 0.4068482220172882
0.17829453945159912 -0.14728683233261108 -0.9545181393623352
0.17829453945159912 -0.14728683233261108 0.39972037076950073
0.17829453945159912 -0.13178294897079468 -0.9518458843231201
0.17829453945159912 -0.13178294897079468 0.3943178951740265
0.17829453945159912 -0.11627906560897827 -0.9489602446556091
0.17829453945159912 -0.11627906560897827 0.3892660140991211
0.17829453945159912 -0.10077518224716187 -0.9458065032958984
0.17829453945159912 -0.10077518224716187 0.38496845960617065
0.17829453945159912 -0.08527129888534546 -0.9430365562438965
0.17829453945159912 -0.08527129888534546 0.3823234736919403
0.17829453945159912 -0.06976741552352905 -0.941092312335968
0.17829453945159912 -0.06976741552352905 0.38039031624794006
0.17829453945159912 -0.05426359176635742 -0.9397078156471252
0.17829453945159912 -0.05426359176635742 0.37579643726348877
0.17829453945159912 -0.038759708404541016 -0.9388032555580139
0.17829453945159912 -0.038759708404541016 0.003170607378706336
0.17829453945159912 -0.038759708404541016 0.06435265392065048
0.17829453945159912 -0.038759708404541016 0.36803218722343445
0.17829453945159912 -0.02325582504272461 -0.9384926557540894
0.17829453945159912 -0.02325582504272461 -0.013301890343427658
0.17829453945159912 -0.02325582504272461 0.0989188700914383
0.17829453945159912 -0.02325582504272461 0.35950735211372375
0.17829453945159912 -0.007751941680908203 -0.9384742975234985
0.17829453945159912 -0.007751941680908203 -0.027121271938085556
0.17829453945159912 -0.007751941680908203 0.25205135345458984
0.17829453945159912 -0.007751941680908203 0.3482496738433838
0.17829453945159912 0.007751941680908203 -0.9385339021682739
0.17829453945159912 0.007751941680908203 -0.04139387607574463
0.17829453945159912 0.007751941680908203 0.29226022958755493
0.17829453945159912 0.007751941680908203 0.3208199143409729
0.17829453945159912 0.02325582504272461 -0.9389594793319702
0.17829453945159912 0.02325582504272461 -0.051265012472867966
0.17829453945159912 0.038759708404541016 -0.9401381611824036
0.17829453945159912 0.038759708404541016 -0.05524550378322601
0.17829453945159912 0.05426359176635742 -0.942781925201416
0.17829453945159912 0.05426359176635742 -0.05688338354229927
0.17829453945159912 0.06976747512817383 -0.9465113282203674
0.17829453945159912 0.06976747512817383 -0.05409161373972893
0.17829453945159912 0.08527135848999023 -0.950462818145752
0.17829453945159912 0.08527135848999023 -0.04925999417901039
0.17829453945159912 0.10077524185180664 -0.9526923894882202
0.17829453945159912 0.10077524185180664 -0.03861112520098686
0.17829453945159912 0.11627912521362305 -0.9528535604476929
0.17829453945159912 0.11627912521362305 -0.02868650108575821
0.17829455435276031 0.1317828893661499 -0.9507946968078613
0.17829453945159912 0.1317828893661499 -0.019294707104563713
0.17829453945159912 0.1472867727279663 -0.9459730982780457
0.17829453945159912 0.1472867727279663 -0.009453261271119118
0.17829453945159912 0.16279065608978271 -0.939547061920166
0.17829453945159912 0.16279065608978271 -0.0008873988408595324
0.17829453945159912 0.16279065608978271 0.11592409014701843
0.17829453945159912 0.16279065608978271 0.19546835124492645
0.17829453945159912 0.17829453945159912 -0.9348718523979187
0.17829453945159912 0.17829453945159912 0.009699271060526371
0.17829453945159912 0.17829453945159912 0.08068239688873291
0.17829453945159912 0.17829453945159912 0.2588302493095398
0.17829453945159912 0.19379842281341553 -0.9249624609947205
0.17829453945159912 0.19379842281341553 0.0327061265707016
0.17829453945159912 0.19379842281341553 0.04454752057790756
0.17829453945159912 0.19379842281341553 0.30457937717437744
0.17829453945159912 0.20930229127407074 -0.9179457426071167
0.17829453945159912 0.20930230617523193 0.32592615485191345
0.17829455435276031 0.22480620443820953 -0.90694260597229
0.17829453945159912 0.22480618953704834 0.3400222659111023
0.17829453945159912 0.24031007289886475 -0.895381510257721
0.17829453945159912 0.24031007289886475 0.35180097818374634
0.17829453945159912 0.25581395626068115 -0.8841265439987183
0.17829453945159912 0.25581395626068115 0.1601555198431015
0.17829453945159912 0.25581395626068115 0.19566667079925537
0.17829455435276031 0.25581395626068115 0.3644641041755676
0.17829453945159912 0.27131783962249756 -0.8718134164810181
0.17829453945159912 0.27131783962249756 0.1467331051826477
0.17829452455043793 0.27131783962249756 0.22537575662136078
0.17829453945159912 0.27131783962249756 0.3713587522506714
0.17829453945159912 0.28682172298431396 -0.8585793375968933
0.17829453945159912 0.28682172298431396 0.13944247364997864
0.17829453945159912 0.28682172298431396 0.24149802327156067
0.17829453945159912 0.28682172298431396 0.38161587715148926
0.17829453945159912 0.302325576543808 -0.8439486026763916
0.17829453945159912 0.30232560634613037 0.1332181841135025
0.17829453945159912 0.30232560634613037 0.24908344447612762
0.17829453945159912 0.30232560634613037 0.3898918330669403
0.17829453945159912 0.3178294897079468 -0.828857958316803
0.17829453945159912 0.3178294897079468 0.12877264618873596
0.17829453945159912 0.3178294897079468 0.25342267751693726
0.17829453945159912 0.3178294897079468 0.39810919761657715
0.17829453945159912 0.3333333730697632 -0.8146019577980042
0.17829453945159912 0.3333333730697632 0.12613433599472046
0.17829453945159912 0.3333333730697632 0.25292837619781494
0.17829453945159912 0.3333333730697632 0.40495628118515015
0.17829453945159912 0.3488372564315796 -0.8002492189407349
0.17829453945159912 0.3488372564315796 0.12697860598564148
0.17829453945159912 0.3488372564315796 0.24678833782672882
0.17829452455043793 0.3488372564315796 0.4123666286468506
0.17829453945159912 0.364341139793396 -0.784441351890564
0.17829453945159912 0.364341139793396 0.13287028670310974
0.17829453945159912 0.364341139793396 0.2297007143497467
0.17829453945159912 0.364341139793396 0.41651564836502075
