-0.3488371968269348 0.42635655403137207 -0.8275998830795288
-0.3488371968269348 0.42635655403137207 -0.016083192080259323
-0.3488371968269348 0.4418604075908661 -0.8127151131629944
-0.3488371968269348 0.4418604373931885 -0.03871610760688782
-0.3488371968269348 0.4573643207550049 -0.7939549684524536
-0.3488371968269348 0.4573643207550049 -0.06355354189872742
-0.3488371968269348 0.4728682041168213 -0.7683919072151184
-0.3488371968269348 0.4728682041168213 -0.0909252017736435
-0.3488371968269348 0.4883720874786377 -0.741746187210083
-0.3488371968269348 0.4883720874786377 -0.11856682598590851
-0.3488371968269348 0.5038759708404541 -0.7123556137084961
-0.3488371968269348 0.5038759708404541 -0.14466539025306702
-0.3488371968269348 0.5193798542022705 -0.6791723370552063
-0.3488371968269348 0.5193798542022705 -0.17272092401981354
-0.3488371968269348 0.5348837375640869 -0.6376489996910095
-0.3488371968269348 0.5348837375640869 -0.20332269370555878
-0.3488371968269348 0.5503876209259033 -0.5825923085212708
-0.3488371968269348 0.5503876209259033 -0.23871944844722748
-0.3488371968269348 0.5658915042877197 -0.501862108707428
-0.3488371968269348 0.5658915042877197 -0.2899787425994873
-0.3333333134651184 -0.5658915042877197 -0.5549530982971191
-0.3333333134651184 -0.5658915042877197 -0.35577309131622314
-0.3333333134651184 -0.5503876209259033 -0.6343250274658203
-0.3333333134651184 -0.5503876209259033 -0.254059761762619
-0.3333333134651184 -0.5348837375640869 -0.6768901944160461
-0.3333333432674408 -0.5348837971687317 -0.20869535207748413
-0.3333333134651184 -0.5193798542022705 -0.7088954448699951
-0.3333333134651184 -0.5193798542022705 -0.17403766512870789
-0.3333333134651184 -0.5038759708404541 -0.7405962944030762
-0.3333333134651184 -0.5038759708404541 -0.14034980535507202
-0.3333333134651184 -0.4883720874786377 -0.7702766060829163
-0.3333333134651184 -0.4883720874786377 -0.10693605244159698
-0.333333283662796 -0.4728681743144989 -0.7975459098815918
-0.3333333134651184 -0.4728682041168213 -0.07810819149017334
-0.3333333134651184 -0.4573643207550049 -0.814147412776947
-0.3333333134651184 -0.4573643207550049 -0.05396031215786934
-0.3333333134651184 -0.4418604373931885 -0.8281828165054321
-0.3333333134651184 -0.4418604373931885 -0.03637979179620743
-0.3333333134651184 -0.42635661363601685 -0.8384299278259277
-0.3333333134651184 -0.42635658383369446 -0.02233392558991909
-0.3333333134651184 -0.41085273027420044 -0.8468618392944336
-0.3333333134651184 -0.41085273027420044 -0.01135658286511898
-0.3333333134651184 -0.39534884691238403 -0.859768807888031
-0.3333333134651184 -0.39534884691238403 -0.0011961979325860739
-0.3333333134651184 -0.3798449635505676 -0.8671931028366089
-0.3333333134651184 -0.3798449635505676 0.006465671584010124
-0.3333333134651184 -0.3643410801887512 -0.8764475584030151
-0.3333333134651184 -0.3643410801887512 0.012756267562508583
-0.3333333134651184 -0.3488371968269348 -0.8859360814094543
-0.3333333134651184 -0.3488371968269348 0.01751125231385231
-0.3333333134651184 -0.3333333134651184 -0.8919607400894165
-0.3333333134651184 -0.3333333134651184 0.023794397711753845
-0.3333333134651184 -0.317829430103302 -0.8968827724456787
-0.3333333134651184 -0.317829430103302 0.02973916009068489
-0.3333333134651184 -0.30232560634613037 -0.9046292304992676
-0.3333333134651184 -0.30232560634613037 0.03564374893903732
-0.3333333134651184 -0.28682172298431396 -0.9075378179550171
-0.3333333134651184 -0.28682172298431396 0.04306782782077789
-0.3333333134651184 -0.27131783962249756 -0.9118704795837402
-0.3333333134651184 -0.27131783962249756 0.04992355406284332
-0.3333333134651184 -0.25581395626068115 -0.920081615447998
-0.3333333134651184 -0.25581395626068115 0.05904567986726761
-0.3333333134651184 -0.24031007289886475 -0.9234575033187866
-0.3333333134651184 -0.24031007289886475 0.06915873289108276
-0.3333333134651184 -0.22480618953704834 -0.9334716200828552
-0.3333333134651184 -0.22480618953704834 0.08127559721469879
-0.3333333134651184 -0.20930230617523193 -0.9388943314552307
-0.3333333134651184 -0.20930230617523193 0.09436501562595367
-0.3333333134651184 -0.19379842281341553 -0.9488152265548706
-0.3333333134651184 -0.19379842281341553 0.10695817321538925
-0.3333333134651184 -0.1782945990562439 -0.9538931250572205
-0.3333333134651184 -0.1782945990562439 0.11662635952234268
-0.3333333134651184 -0.1627907156944275 -0.9577392339706421
-0.3333333134651184 -0.1627907156944275 0.12296666204929352
-0.3333333134651184 -0.14728683233261108 -0.9641251564025879
-0.3333333134651184 -0.14728683233261108 0.12727627158164978
-0.3333333134651184 -0.13178294897079468 -0.9673709869384766
-0.3333333134651184 -0.13178294897079468 0.1294795423746109
-0.3333333134651184 -0.11627906560897827 -0.9687104821205139
-0.3333333134651184 -0.11627906560897827 0.13041087985038757
-0.3333333134651184 -0.10077518224716187 -0.9693647027015686
-0.3333333134651184 -0.10077518224716187 0.1307126134634018
-0.3333333134651184 -0.08527129888534546 -0.9701475501060486
-0.3333333134651184 -0.08527129888534546 0.1306687742471695
-0.3333333134651184 -0.06976741552352905 -0.9725355505943298
-0.3333333134651184 -0.06976741552352905 -0.29200705885887146
-0.3333333134651184 -0.06976741552352905 -0.18064643442630768
-0.3333333134651184 -0.06976741552352905 0.1308642476797104
-0.3333333134651184 -0.05426359176635742 -0.9750145673751831
-0.3333333134651184 -0.05426359176635742 -0.3203437030315399
-0.3333333134651184 -0.05426359176635742 -0.1580428183078766
-0.3333333134651184 -0.05426359176635742 0.13085222244262695
-0.3333333134651184 -0.038759708404541016 -0.9768823385238647
-0.3333333134651184 -0.038759708404541016 -0.3335500657558441
-0.3333333134651184 -0.038759708404541016 -0.1497468501329422
-0.3333333134651184 -0.038759708404541016 0.13065344095230103
-0.3333333134651184 -0.02325582504272461 -0.9780673980712891
-0.3333333134651184 -0.02325582504272461 -0.34065505862236023
-0.3333333432674408 -0.02325582504272461 -0.14724527299404144
-0.3333333134651184 -0.02325582504272461 0.13052155077457428
-0.3333333134651184 -0.007751941680908203 -0.9788179993629456
-0.3333333134651184 -0.007751941680908203 -0.3444281220436096
-0.3333333134651184 -0.007751941680908203 -0.14302918314933777
-0.3333333134651184 -0.007751941680908203 0.13009147346019745
-0.3333333134651184 0.007751941680908203 -0.9789954423904419
-0.3333333134651184 0.00775194214656949 -0.34732282161712646
-0.3333333134651184 0.007751941680908203 -0.1365167796611786
-0.3333333134651184 0.007751941680908203 0.12921836972236633
-0.3333333134651184 0.02325582504272461 -0.9789420962333679
-0.3333333134651184 0.02325582504272461 -0.3473811447620392
-0.3333333134651184 0.02325582504272461 -0.13116252422332764
-0.3333333134651184 0.02325582504272461 0.12825457751750946
-0.3333333134651184 0.038759708404541016 -0.9783159494400024
-0.3333333134651184 0.038759708404541016 -0.3463355600833893
-0.3333333134651184 0.038759708404541016 -0.12591786682605743
-0.3333333134651184 0.038759708404541016 0.12755465507507324
-0.3333333134651184 0.05426359176635742 -0.9772629737854004
-0.3333333134651184 0.05426359176635742 -0.3410837650299072
-0.3333333134651184 0.05426359176635742 -0.12517565488815308
-0.3333333134651184 0.05426359176635742 0.12698815762996674
-0.3333333134651184 0.06976747512817383 -0.9758970737457275
-0.3333333134651184 0.06976747512817383 -0.32796746492385864
-0.3333333134651184 0.06976747512817383 -0.13140085339546204
-0.3333333134651184 0.06976747512817383 0.12672469019889832
-0.3333333134651184 0.08527135848999023 -0.9744382500648499
-0.3333333134651184 0.08527135848999023 -0.29540956020355225
-0.3333333134651184 0.08527135848999023 -0.14368107914924622
-0.3333333134651184 0.08527135848999023 0.12609563767910004
-0.3333333134651184 0.10077524185180664 -0.9722285270690918
-0.3333333134651184 0.10077524185180664 -0.19871655106544495
-0.3333333134651184 0.10077524185180664 -0.18979358673095703
-0.3333333134651184 0.10077524185180664 0.12540893256664276
-0.3333333134651184 0.11627912521362305 -0.9695263504981995
-0.3333333134651184 0.11627912521362305 0.12456256151199341
-0.3333333134651184 0.1317828893661499 -0.9680175185203552
-0.3333333134651184 0.1317828893661499 0.12397792935371399
-0.3333333134651184 0.1472867727279663 -0.9655554294586182
-0.3333333134651184 0.1472867727279663 0.12370193004608154
-0.3333333134651184 0.16279065608978271 -0.958221435546875
-0.3333333134651184 0.16279065608978271 0.12341129779815674
-0.3333333134651184 0.17829453945159912 -0.9529520869255066
-0.3333333134651184 0.17829453945159912 0.12296479195356369
-0.3333333134651184 0.19379842281341553 -0.9463447332382202
-0.3333333134651184 0.19379842281341553 0.12272676825523376
-0.3333333134651184 0.20930230617523193 -0.9395332336425781
-0.3333333134651184 0.20930230617523193 0.12235117703676224
-0.3333333134651184 0.22480618953704834 -0.9372884631156921
-0.3333333134651184 0.22480618953704834 0.12154312431812286
-0.3333333134651184 0.24031007289886475 -0.931378960609436
-0.3333333134651184 0.24031007289886475 0.12022243440151215
-0.3333333134651184 0.25581395626068115 -0.9236041903495789
-0.3333333134651184 0.25581395626068115 0.11855701357126236
-0.3333333134651184 0.27131783962249756 -0.9198046922683716
-0.3333333134651184 0.27131780982017517 0.11661899834871292
-0.3333333134651184 0.28682172298431396 -0.9098997116088867
-0.3333333134651184 0.28682172298431396 0.11207426339387894
-0.3333333134651184 0.30232560634613037 -0.905895471572876
-0.3333333134651184 0.30232560634613037 0.10673470795154572
-0.3333333134651184 0.3178294897079468 -0.8960028886795044
-0.3333333134651184 0.3178294897079468 0.09725961089134216
-0.333333283662796 0.3333333730697632 -0.8910655975341797
-0.3333333432674408 0.33333340287208557 0.08566245436668396
-0.3333333134651184 0.3488372564315796 -0.8816449046134949
-0.3333333134651184 0.3488372564315796 0.07154230028390884
-0.3333333134651184 0.364341139793396 -0.8752542734146118
-0.3333333134651184 0.364341139793396 0.05732491984963417
-0.3333333134651184 0.37984490394592285 -0.864852249622345
-0.3333333134651184 0.37984490394592285 0.0429408997297287
-0.3333333134651184 0.39534878730773926 -0.8585963249206543
-0.3333333134651184 0.39534878730773926 0.027910269796848297
-0.3333333134651184 0.41085267066955566 -0.8459650278091431
-0.3333333134651184 0.41085267066955566 0.011602785438299179
-0.3333333134651184 0.42635655403137207 -0.8356993794441223
-0.3333333134651184 0.42635655403137207 -0.007865110412240028
-0.3333333134651184 0.4418604373931885 -0.8234820365905762
-0.3333333134651184 0.4418604373931885 -0.029381513595581055
-0.3333333134651184 0.4573643207550049 -0.8067107200622559
-0.3333333134651184 0.4573643207550049 -0.053760964423418045
-0.3333333134651184 0.4728682041168213 -0.7843543887138367
-0.3333333134651184 0.4728682041168213 -0.07917867600917816
-0.3333333134651184 0.4883720874786377 -0.7595158815383911
-0.3333333134651184 0.4883720874786377 -0.10592295974493027
-0.3333333134651184 0.5038759708404541 -0.7296531200408936
-0.3333333134651184 0.5038759708404541 -0.13262981176376343
-0.3333333134651184 0.5193798542022705 -0.6959784030914307
-0.3333333134651184 0.5193798542022705 -0.15902063250541687
-0.333333283662796 0.5348837375640869 -0.6569721102714539
-0.3333333134651184 0.5348837375640869 -0.1881181299686432
-0.3333333134651184 0.5503876209259033 -0.6061676144599915
-0.333333283662796 0.5503876209259033 -0.22216548025608063
-0.3333333134651184 0.5658915042877197 -0.5370548963546753
-0.3333333134651184 0.5658915042877197 -0.26220816373825073
-0.317829430103302 -0.5813953876495361 -0.49434396624565125
-0.317829430103302 -0.5813953876495361 -0.4218272864818573
-0.317829430103302 -0.5658915042877197 -0.5987673997879028
-0.317829430103302 -0.5658915042877197 -0.29216980934143066
-0.317829430103302 -0.5503876209259033 -0.6575366258621216
-0.317829430103302 -0.5503876209259033 -0.22805413603782654
-0.317829430103302 -0.5348837375640869 -0.6949297785758972
-0.317829430103302 -0.5348837375640869 -0.19035255908966064
-0.317829430103302 -0.5193798542022705 -0.7278851270675659
-0.317829430103302 -0.5193798542022705 -0.15786170959472656
-0.317829430103302 -0.5038759708404541 -0.7613662481307983
-0.317829430103302 -0.5038759708404541 -0.1255418360233307
-0.317829430103302 -0.4883720874786377 -0.7877309322357178
-0.317829430103302 -0.4883720874786377 -0.09455995261669159
-0.317829430103302 -0.4728682041168213 -0.8099789619445801
-0.317829430103302 -0.4728682041168213 -0.06755062192678452
-0.317829430103302 -0.4573643207550049 -0.8238341212272644
-0.317829430103302 -0.4573643207550049 -0.045831747353076935
-0.317829430103302 -0.4418604373931885 -0.833594799041748
-0.317829430103302 -0.4418604373931885 -0.028388772159814835
-0.317829430103302 -0.42635661363601685 -0.8452820777893066
-0.317829430103302 -0.42635661363601685 -0.01494782418012619
-0.317829430103302 -0.41085273027420044 -0.8563558459281921
-0.317829430103302 -0.41085273027420044 -0.0035708246286958456
-0.317829430103302 -0.39534884691238403 -0.8626726269721985
-0.317829430103302 -0.39534884691238403 0.005204622633755207
-0.317829430103302 -0.3798449635505676 -0.8749003410339355
-0.317829430103302 -0.3798449635505676 0.013121576979756355
-0.317829430103302 -0.3643410801887512 -0.8818397521972656
-0.317829430103302 -0.3643410801887512 0.019013917073607445
-0.317829430103302 -0.3488371968269348 -0.8915923237800598
-0.317829430103302 -0.3488371968269348 0.025762183591723442
-0.317829430103302 -0.3333333134651184 -0.8966408967971802
-0.317829430103302 -0.3333333134651184 0.03106399066746235
-0.317829430103302 -0.317829430103302 -0.9048178195953369
-0.317829430103302 -0.317829430103302 0.0374947227537632
-0.317829430103302 -0.30232560634613037 -0.907518208026886
-0.317829430103302 -0.30232560634613037 0.04396001994609833
-0.317829430103302 -0.28682172298431396 -0.9109862446784973
-0.317829430103302 -0.28682172298431396 0.05021404102444649
-0.317829430103302 -0.27131783962249756 -0.9187010526657104
-0.317829430103302 -0.27131783962249756 0.05827799811959267
-0.317829430103302 -0.25581395626068115 -0.9229090809822083
-0.317829430103302 -0.25581395626068115 0.06633453816175461
-0.317829430103302 -0.24031007289886475 -0.9289767742156982
-0.317829430103302 -0.24031007289886475 0.07679416239261627
-0.317829430103302 -0.22480618953704834 -0.9381275773048401
-0.317829430103302 -0.22480618953704834 0.08922890573740005
-0.317829430103302 -0.20930230617523193 -0.9454915523529053
-0.317829430103302 -0.20930230617523193 0.10173103958368301
-0.317829430103302 -0.19379842281341553 -0.953751802444458
-0.317829430103302 -0.19379842281341553 0.11256653070449829
-0.317829430103302 -0.1782945990562439 -0.9594748020172119
-0.317829430103302 -0.1782945990562439 0.12112392485141754
-0.317829430103302 -0.1627907156944275 -0.9669139981269836
-0.317829430103302 -0.1627907156944275 0.1270390897989273
-0.317829430103302 -0.14728683233261108 -0.9689092636108398
-0.317829430103302 -0.14728683233261108 0.13055205345153809
-0.317829430103302 -0.13178294897079468 -0.969499945640564
-0.3178294003009796 -0.13178294897079468 0.13234633207321167
-0.317829430103302 -0.11627906560897827 -0.9703909158706665
-0.3178294003009796 -0.11627906560897827 0.1329321265220642
-0.317829430103302 -0.10077518224716187 -0.9721410870552063
-0.317829430103302 -0.10077518224716187 0.13309016823768616
-0.317829430103302 -0.08527129888534546 -0.9746518731117249
-0.317829430103302 -0.08527129888534546 0.13307473063468933
-0.317829430103302 -0.06976741552352905 -0.9769785404205322
-0.317829430103302 -0.06976741552352905 0.13336992263793945
-0.317829430103302 -0.05426359176635742 -0.978452742099762
-0.317829430103302 -0.05426359176635742 -0.3053436875343323
-0.3178294599056244 -0.05426359176635742 -0.17684869468212128
-0.317829430103302 -0.05426359176635742 0.13351204991340637
-0.317829430103302 -0.038759708404541016 -0.9795526266098022
-0.317829430103302 -0.038759708404541016 -0.32261309027671814
-0.317829430103302 -0.038759708404541016 -0.16431596875190735
-0.317829430103302 -0.038759708404541016 0.13340254127979279
-0.317829430103302 -0.02325582504272461 -0.980355978012085
-0.317829430103302 -0.02325582504272461 -0.33117514848709106
-0.3178294599056244 -0.02325582504272461 -0.16003058850765228
-0.317829430103302 -0.02325582504272461 0.13331623375415802
-0.317829430103302 -0.007751941680908203 -0.9809313416481018
-0.317829430103302 -0.007751941680908203 -0.33570557832717896
-0.317829430103302 -0.007751941680908203 -0.154037207365036
-0.317829430103302 -0.007751941215246916 0.13293635845184326
-0.317829430103302 0.007751941680908203 -0.9811629056930542
-0.317829430103302 0.007751941680908203 -0.33884912729263306
-0.317829430103302 0.007751941680908203 -0.14508680999279022
-0.317829430103302 0.007751941680908203 0.13217632472515106
-0.317829430103302 0.02325582690536976 -0.9813703298568726
-0.317829430103302 0.02325582504272461 -0.3385290503501892
-0.317829430103302 0.02325582504272461 -0.13952413201332092
-0.317829430103302 0.02325582504272461 0.13113877177238464
-0.317829430103302 0.038759708404541016 -0.9811900854110718
-0.317829430103302 0.038759708404541016 -0.337146520614624
-0.317829430103302 0.038759708404541016 -0.13551539182662964
-0.317829430103302 0.038759708404541016 0.13045468926429749
-0.317829430103302 0.05426359176635742 -0.9807355403900146
-0.317829430103302 0.05426359176635742 -0.3305197060108185
-0.317829430103302 0.05426359176635742 -0.13616974651813507
-0.317829430103302 0.05426359176635742 0.1302260458469391
-0.317829430103302 0.06976747512817383 -0.9801690578460693
-0.317829430103302 0.06976747512817383 -0.31189411878585815
-0.3178294599056244 0.06976747512817383 -0.14551307260990143
-0.317829430103302 0.06976747512817383 0.1303902268409729
-0.317829430103302 0.08527135848999023 -0.9797719717025757
-0.317829430103302 0.08527135848999023 -0.2516603171825409
-0.317829430103302 0.08527135848999023 -0.16820067167282104
-0.317829430103302 0.08527135848999023 0.1300150454044342
-0.317829430103302 0.10077524185180664 -0.979069709777832
-0.317829430103302 0.10077524185180664 0.12937113642692566
-0.317829430103302 0.11627912521362305 -0.9772334098815918
-0.317829430103302 0.11627912521362305 0.1284254789352417
-0.317829430103302 0.1317828893661499 -0.9741525650024414
-0.317829430103302 0.1317828893661499 0.12772227823734283
-0.317829430103302 0.1472867727279663 -0.9696476459503174
-0.317829430103302 0.1472867727279663 0.1273164302110672
-0.317829430103302 0.16279065608978271 -0.9663576483726501
-0.317829430103302 0.16279065608978271 0.1268858164548874
-0.317829430103302 0.17829453945159912 -0.9585088491439819
-0.317829430103302 0.17829453945159912 0.12632505595684052
-0.317829430103302 0.19379842281341553 -0.9532243013381958
-0.317829430103302 0.19379842281341553 0.12606574594974518
-0.317829430103302 0.20930230617523193 -0.9473415613174438
-0.317829430103302 0.20930230617523193 0.12573060393333435
-0.317829430103302 0.22480618953704834 -0.9410087466239929
-0.317829430103302 0.22480618953704834 0.1250176578760147
-0.317829430103302 0.24031007289886475 -0.9381294250488281
-0.317829430103302 0.24031007289886475 0.12384480983018875
-0.317829430103302 0.25581395626068115 -0.9325510859489441
-0.317829430103302 0.25581395626068115 0.12242551147937775
-0.317829430103302 0.27131783962249756 -0.9238017201423645
-0.317829430103302 0.27131783962249756 0.12088248133659363
-0.317829430103302 0.28682172298431396 -0.9202131032943726
-0.317829430103302 0.28682172298431396 0.11869640648365021
-0.317829430103302 0.30232560634613037 -0.9099838137626648
-0.317829430103302 0.30232560634613037 0.11454928666353226
-0.317829430103302 0.3178294897079468 -0.9062593579292297
-0.317829430103302 0.3178294897079468 0.10613751411437988
-0.317829430103302 0.3333333730697632 -0.8964003920555115
-0.317829430103302 0.3333333730697632 0.0932002067565918
-0.317829430103302 0.3488372564315796 -0.8910010457038879
-0.317829430103302 0.3488372564315796 0.07846949994564056
-0.317829430103302 0.364341139793396 -0.8805525898933411
-0.317829430103302 0.364341139793396 0.06373129040002823
-0.317829430103302 0.37984490394592285 -0.8744663000106812
-0.317829430103302 0.37984490394592285 0.04905553162097931
-0.317829430103302 0.39534878730773926 -0.8626614212989807
-0.317829430103302 0.39534878730773926 0.033852532505989075
-0.317829430103302 0.41085267066955566 -0.8565303087234497
-0.317829430103302 0.41085267066955566 0.018009407445788383
-0.317829430103302 0.42635655403137207 -0.8450788855552673
-0.317829430103302 0.42635655403137207 0.00019893539138138294
-0.317829430103302 0.4418604373931885 -0.8314030766487122
-0.317829430103302 0.44186046719551086 -0.020958060398697853
-0.317829430103302 0.4573643207550049 -0.8171218037605286
-0.317829430103302 0.4573643207550049 -0.04495067894458771
-0.317829430103302 0.4728682041168213 -0.799457848072052
-0.317829430103302 0.4728682041168213 -0.07060117274522781
-0.317829430103302 0.4883720874786377 -0.7774338126182556
-0.317829430103302 0.4883720874786377 -0.09488449990749359
-0.317829430103302 0.5038759708404541 -0.7474624514579773
-0.317829430103302 0.5038759708404541 -0.12128613889217377
-0.317829430103302 0.5193798542022705 -0.7130857706069946
-0.317829430103302 0.5193798542022705 -0.14863134920597076
-0.317829430103302 0.5348837375640869 -0.6758211255073547
-0.317829430103302 0.5348837375640869 -0.1756068617105484
-0.317829430103302 0.5503876209259033 -0.6300594806671143
-0.317829430103302 0.5503876209259033 -0.20824506878852844
-0.317829430103302 0.5658915042877197 -0.5690293908119202
-0.317829430103302 0.5658915042877197 -0.24457716941833496
-0.317829430103302 0.5813953876495361 -0.477483868598938
-0.317829430103302 0.5813953876495361 -0.3051248788833618
-0.30232560634613037 -0.5813953876495361 -0.5561424493789673
-0.30232560634613037 -0.5813953876495361 -0.3524032235145569
-0.30232560634613037 -0.5658915042877197 -0.6342519521713257
-0.30232560634613037 -0.5658915042877197 -0.25277459621429443
-0.30232560634613037 -0.5503876209259033 -0.6779698133468628
-0.30232560634613037 -0.5503876209259033 -0.2073259800672531
-0.30232560634613037 -0.5348837375640869 -0.7134072184562683
-0.30232560634613037 -0.5348837375640869 -0.1741277277469635
-0.30232560634613037 -0.5193798542022705 -0.748276948928833
-0.30232560634613037 -0.5193798542022705 -0.14313167333602905
-0.30232560634613037 -0.5038759708404541 -0.780167818069458
-0.30232560634613037 -0.5038759708404541 -0.11156629025936127
-0.30232560634613037 -0.4883720874786377 -0.8007405996322632
-0.302325576543808 -0.4883720874786377 -0.08264590054750443
-0.30232560634613037 -0.4728682041168213 -0.81709885597229
-0.30232560634613037 -0.4728682041168213 -0.05748819559812546
-0.30232560634613037 -0.4573643207550049 -0.8302655220031738
-0.30232560634613037 -0.4573643207550049 -0.037307653576135635
-0.30232560634613037 -0.4418604373931885 -0.8435264825820923
-0.30232560634613037 -0.4418604075908661 -0.0205477774143219
-0.30232560634613037 -0.42635661363601685 -0.8514477014541626
-0.30232560634613037 -0.42635658383369446 -0.007439183536916971
-0.30232560634613037 -0.41085273027420044 -0.8609448075294495
-0.30232560634613037 -0.41085273027420044 0.0026398291811347008
-0.30232560634613037 -0.39534884691238403 -0.8708787560462952
-0.30232560634613037 -0.39534884691238403 0.012163741514086723
-0.30232560634613037 -0.3798449635505676 -0.8772899508476257
-0.30232560634613037 -0.3798449635505676 0.019098198041319847
-0.30232560634613037 -0.3643410801887512 -0.8898656964302063
-0.30232560634613037 -0.3643410801887512 0.026757290586829185
-0.30232560634613037 -0.3488371968269348 -0.8941867351531982
-0.30232560634613037 -0.3488371968269348 0.03232358396053314
-0.30232560634613037 -0.333333283662796 -0.9045055508613586
-0.30232560634613037 -0.3333333134651184 0.03883384168148041
-0.30232560634613037 -0.317829430103302 -0.9074679613113403
-0.30232560634613037 -0.317829430103302 0.04474148899316788
-0.30232560634613037 -0.30232560634613037 -0.9105473160743713
-0.30232560634613037 -0.30232560634613037 0.05037790909409523
-0.30232560634613037 -0.28682172298431396 -0.9173158407211304
-0.30232560634613037 -0.28682172298431396 0.05776386708021164
-0.30232560634613037 -0.27131783962249756 -0.9224330186843872
-0.30232560634613037 -0.27131783962249756 0.06425491720438004
-0.30232560634613037 -0.25581395626068115 -0.925581693649292
-0.30232560634613037 -0.25581395626068115 0.07351948320865631
-0.30232560634613037 -0.24031007289886475 -0.9357448816299438
-0.30232560634613037 -0.24031007289886475 0.08428702503442764
-0.30232560634613037 -0.22480618953704834 -0.9410114288330078
-0.30232560634613037 -0.22480618953704834 0.09496478736400604
-0.30232560634613037 -0.20930230617523193 -0.9528648257255554
-0.30232560634613037 -0.20930230617523193 0.10569450259208679
-0.30232560634613037 -0.19379842281341553 -0.9586426615715027
-0.30232560634613037 -0.19379842281341553 0.11552270501852036
-0.30232560634613037 -0.1782945990562439 -0.9678491353988647
-0.30232560634613037 -0.1782945990562439 0.12285216152667999
-0.30232560634613037 -0.1627907156944275 -0.9696263670921326
-0.30232560634613037 -0.1627907156944275 0.12830252945423126
-0.30232560634613037 -0.14728683233261108 -0.9717129468917847
-0.30232560634613037 -0.14728683233261108 0.13164909183979034
-0.30232560634613037 -0.13178294897079468 -0.9741588830947876
-0.30232560634613037 -0.13178294897079468 0.13311122357845306
-0.30232560634613037 -0.11627906560897827 -0.9757981300354004
-0.30232560634613037 -0.11627906560897827 0.13359065353870392
-0.30232560634613037 -0.10077518224716187 -0.9768921136856079
-0.302325576543808 -0.10077518224716187 0.13372202217578888
-0.30232560634613037 -0.08527129888534546 -0.9783302545547485
-0.30232560634613037 -0.08527129143476486 0.13380561769008636
-0.30232560634613037 -0.06976741552352905 -0.9795891642570496
-0.30232560634613037 -0.06976741552352905 0.13429781794548035
-0.30232560634613037 -0.05426359176635742 -0.9803558588027954
-0.30232560634613037 -0.05426359176635742 -0.2751520276069641
-0.30232560634613037 -0.05426359176635742 -0.20339873433113098
-0.30232560634613037 -0.05426359176635742 0.13461890816688538
-0.30232560634613037 -0.038759708404541016 -0.9809948205947876
-0.30232560634613037 -0.038759708404541016 -0.3082104027271271
-0.30232560634613037 -0.038759708404541016 -0.1803169846534729
-0.30232560634613037 -0.038759708404541016 0.13462276756763458
-0.30232560634613037 -0.02325582504272461 -0.9815720319747925
-0.30232560634613037 -0.02325582504272461 -0.31917181611061096
-0.30232560634613037 -0.02325582504272461 -0.17254725098609924
-0.30232560634613037 -0.02325582504272461 0.1344934105873108
-0.30232560634613037 -0.007751941680908203 -0.9820353984832764
-0.30232560634613037 -0.007751941680908203 -0.32374364137649536
-0.30232560634613037 -0.007751941680908203 -0.16465754806995392
-0.30232563614845276 -0.007751941680908203 0.13400445878505707
-0.30232560634613037 0.007751941680908203 -0.9822759628295898
-0.30232560634613037 0.007751941680908203 -0.32721149921417236
-0.30232560634613037 0.007751941680908203 -0.1547829806804657
-0.30232560634613037 0.007751941680908203 0.13310624659061432
-0.30232560634613037 0.02325582504272461 -0.9826760292053223
-0.30232560634613037 0.02325582504272461 -0.3260393738746643
-0.30232560634613037 0.02325582504272461 -0.1511947214603424
-0.30232560634613037 0.02325582504272461 0.13223819434642792
-0.302325576543808 0.038759708404541016 -0.9828224778175354
-0.30232560634613037 0.038759708404541016 -0.32411375641822815
-0.30232560634613037 0.038759708404541016 -0.14802154898643494
-0.30232560634613037 0.038759712129831314 0.13197699189186096
-0.302325576543808 0.05426358804106712 -0.9828600287437439
-0.30232560634613037 0.05426359176635742 -0.31416141986846924
-0.30232560634613037 0.05426359176635742 -0.15137529373168945
-0.30232560634613037 0.05426359176635742 0.13207340240478516
-0.30232560634613037 0.06976747512817383 -0.9829935431480408
-0.30232560634613037 0.06976747512817383 -0.2758500576019287
-0.30232560634613037 0.06976747512817383 -0.1689554750919342
-0.30232560634613037 0.06976748257875443 0.1324138343334198
-0.30232560634613037 0.08527135848999023 -0.9835383892059326
-0.30232560634613037 0.08527135848999023 0.1324888914823532
-0.30232560634613037 0.10077524185180664 -0.983679473400116
-0.30232560634613037 0.10077524185180664 0.1323637068271637
-0.30232560634613037 0.11627912521362305 -0.9827287793159485
-0.30232560634613037 0.11627912521362305 0.13186787068843842
-0.30232560634613037 0.1317828893661499 -0.9808351993560791
-0.30232560634613037 0.1317828893661499 0.13121341168880463
-0.30232560634613037 0.1472867727279663 -0.9771642684936523
-0.30232560634613037 0.1472867727279663 0.13077831268310547
-0.30232560634613037 0.16279065608978271 -0.9707995057106018
-0.30232560634613037 0.16279065608978271 0.13023455440998077
-0.30232560634613037 0.17829453945159912 -0.9659728407859802
-0.30232560634613037 0.17829453945159912 0.12967729568481445
-0.30232560634613037 0.19379842281341553 -0.9579640626907349
-0.30232560634613037 0.19379842281341553 0.12940947711467743
-0.30232560634613037 0.20930230617523193 -0.9535970687866211
-0.30232560634613037 0.20930230617523193 0.12914355099201202
-0.30232560634613037 0.22480618953704834 -0.9493207931518555
-0.30232560634613037 0.22480618953704834 0.12850692868232727
-0.30232560634613037 0.24031007289886475 -0.942908525466919
-0.30232560634613037 0.24031007289886475 0.12739503383636475
-0.30232560634613037 0.25581395626068115 -0.9383718371391296
-0.30232560634613037 0.25581395626068115 0.12600691616535187
-0.30232560634613037 0.27131783962249756 -0.9334109425544739
-0.30232560634613037 0.27131783962249756 0.12462392449378967
-0.30232560634613037 0.28682172298431396 -0.9242168664932251
-0.30232560634613037 0.28682172298431396 0.12308673560619354
-0.30232560634613037 0.30232560634613037 -0.9205344915390015
-0.30232560634613037 0.30232560634613037 0.12095296382904053
-0.30232560634613037 0.3178294897079468 -0.9108840227127075
-0.30232560634613037 0.3178294897079468 0.11495994031429291
-0.30232560634613037 0.3333333730697632 -0.9066550731658936
-0.30232560634613037 0.3333333730697632 0.10211169719696045
-0.30232560634613037 0.3488372564315796 -0.896864652633667
-0.30232560634613037 0.3488372564315796 0.08665087819099426
-0.30232560634613037 0.364341139793396 -0.8906978368759155
-0.30232560634613037 0.3643411695957184 0.07162446528673172
-0.30232560634613037 0.37984490394592285 -0.8791633248329163
-0.30232560634613037 0.37984490394592285 0.05672720819711685
-0.30232560634613037 0.39534878730773926 -0.8731316328048706
-0.30232560634613037 0.39534878730773926 0.04117738455533981
-0.30232560634613037 0.41085267066955566 -0.8613317012786865
-0.30232560634613037 0.41085267066955566 0.02488636039197445
-0.30232560634613037 0.42635655403137207 -0.8537105321884155
-0.30232560634613037 0.42635655403137207 0.00636451318860054
-0.30232560634613037 0.4418604373931885 -0.8435990810394287
-0.30232560634613037 0.4418604373931885 -0.013449350371956825
-0.30232560634613037 0.4573643207550049 -0.8296564817428589
-0.30232560634613037 0.4573643207550049 -0.03625258058309555
-0.30232560634613037 0.4728682041168213 -0.8141734600067139
-0.30232560634613037 0.4728682041168213 -0.06066212058067322
-0.30232560634613037 0.4883720576763153 -0.7945339679718018
-0.30232560634613037 0.4883720874786377 -0.08634364604949951
-0.30232560634613037 0.5038759708404541 -0.7654858827590942
-0.30232560634613037 0.5038759708404541 -0.11069667339324951
-0.30232560634613037 0.5193798542022705 -0.7313578128814697
-0.30232560634613037 0.5193798542022705 -0.13731662929058075
-0.30232560634613037 0.5348837375640869 -0.6949285268783569
-0.30232560634613037 0.5348837375640869 -0.16460438072681427
-0.30232560634613037 0.5503876209259033 -0.6517179012298584
-0.30232560634613037 0.5503876209259033 -0.1946101188659668
-0.30232560634613037 0.5658915042877197 -0.5976557731628418
-0.30232560634613037 0.5658915042877197 -0.2289862334728241
-0.30232560634613037 0.5813953876495361 -0.5217004418373108
-0.30232560634613037 0.5813953876495361 -0.27222877740859985
-0.28682172298431396 -0.5968992114067078 -0.49063640832901
-0.28682172298431396 -0.5968992114067078 -0.4213609993457794
-0.28682172298431396 -0.5813953876495361 -0.602481484413147
-0.28682172298431396 -0.5813953876495361 -0.29003167152404785
-0.28682172298431396 -0.5658915042877197 -0.658878743648529
-0.28682172298431396 -0.5658915042877197 -0.22641606628894806
-0.28682172298431396 -0.5503876209259033 -0.698295533657074
-0.28682172298431396 -0.5503876209259033 -0.19019079208374023
-0.28682172298431396 -0.5348837375640869 -0.7338088750839233
-0.28682172298431396 -0.5348837375640869 -0.15925724804401398
-0.28682172298431396 -0.5193798542022705 -0.7670269012451172
-0.28682172298431396 -0.5193798542022705 -0.12936420738697052
-0.28682172298431396 -0.5038759708404541 -0.7959781289100647
-0.28682172298431396 -0.5038759708404541 -0.09899764508008957
-0.28682172298431396 -0.4883720874786377 -0.8140742778778076
-0.28682172298431396 -0.4883720874786377 -0.07233303040266037
-0.28682172298431396 -0.4728682041168213 -0.8287125825881958
-0.28682172298431396 -0.4728682041168213 -0.04903145134449005
-0.28682172298431396 -0.4573643207550049 -0.8394715785980225
-0.28682172298431396 -0.4573643207550049 -0.030290991067886353
-0.28682172298431396 -0.4418604373931885 -0.8470653891563416
-0.28682172298431396 -0.4418604373931885 -0.014387458562850952
-0.28682172298431396 -0.42635661363601685 -0.8593682050704956
-0.28682172298431396 -0.42635661363601685 -0.0011367825791239738
-0.28682172298431396 -0.41085273027420044 -0.8657200336456299
-0.28682172298431396 -0.41085270047187805 0.010181420482695103
-0.28682172298431396 -0.39534884691238403 -0.8760789632797241
-0.28682172298431396 -0.39534884691238403 0.018636494874954224
-0.28682172298431396 -0.3798449635505676 -0.8845316767692566
-0.28682172298431396 -0.3798449635505676 0.027254436165094376
-0.28682172298431396 -0.3643410801887512 -0.8923608064651489
-0.28682172298431396 -0.3643410801887512 0.03359563276171684
-0.28682172298431396 -0.3488371968269348 -0.9022935628890991
-0.28682172298431396 -0.3488371670246124 0.040762048214673996
-0.28682172298431396 -0.3333333134651184 -0.9073414206504822
-0.28682172298431396 -0.3333333134651184 0.04610154777765274
-0.28682172298431396 -0.317829430103302 -0.9100404977798462
-0.28682172298431396 -0.317829430103302 0.05212625861167908
-0.28682172298431396 -0.30232560634613037 -0.916673481464386
-0.28682172298431396 -0.30232560634613037 0.058516740798950195
-0.28682172298431396 -0.28682172298431396 -0.9216734766960144
-0.28682172298431396 -0.28682172298431396 0.0643811970949173
-0.28682172298431396 -0.27131783962249756 -0.9238123297691345
-0.28682172298431396 -0.27131783962249756 0.07224655151367188
-0.28682172298431396 -0.25581395626068115 -0.9323567748069763
-0.28682172298431396 -0.25581395626068115 0.08060234785079956
-0.28682172298431396 -0.24031007289886475 -0.9386012554168701
-0.28682172298431396 -0.24031007289886475 0.09043164551258087
-0.28682172298431396 -0.22480618953704834 -0.9500012397766113
-0.28682175278663635 -0.22480618953704834 0.10102731734514236
-0.28682172298431396 -0.20930230617523193 -0.9557697176933289
-0.28682172298431396 -0.20930230617523193 0.10847684741020203
-0.28682175278663635 -0.19379843771457672 -0.9674589037895203
-0.28682172298431396 -0.19379842281341553 0.11678281426429749
-0.28682172298431396 -0.1782945990562439 -0.9702102541923523
-0.28682172298431396 -0.1782945990562439 0.12288112193346024
-0.28682172298431396 -0.1627907156944275 -0.9754201173782349
-0.28682172298431396 -0.1627907156944275 0.12775209546089172
-0.28682172298431396 -0.14728683233261108 -0.9786929488182068
-0.28682172298431396 -0.14728683233261108 0.13094376027584076
-0.28682172298431396 -0.13178294897079468 -0.9799325466156006
-0.28682172298431396 -0.13178296387195587 0.13246509432792664
-0.28682172298431396 -0.11627906560897827 -0.9801427125930786
-0.28682172298431396 -0.11627906560897827 0.13287433981895447
-0.28682172298431396 -0.10077518224716187 -0.9799374341964722
-0.28682172298431396 -0.10077518224716187 0.1330415904521942
-0.28682172298431396 -0.08527129888534546 -0.9802743196487427
-0.28682172298431396 -0.08527129888534546 0.13324449956417084
-0.28682172298431396 -0.06976741552352905 -0.9808347225189209
-0.28682172298431396 -0.06976741552352905 0.13382050395011902
-0.28682172298431396 -0.05426359176635742 -0.9811774492263794
-0.28682172298431396 -0.05426358804106712 0.13420110940933228
-0.28682172298431396 -0.038759708404541016 -0.9815170764923096
-0.28682172298431396 -0.038759708404541016 -0.28697237372398376
-0.28682172298431396 -0.038759708404541016 -0.1976551115512848
-0.28682172298431396 -0.038759708404541016 0.13422492146492004
-0.28682172298431396 -0.02325582318007946 -0.9818714261054993
-0.28682172298431396 -0.02325582504272461 -0.30586546659469604
-0.28682172298431396 -0.02325582504272461 -0.18346193432807922
-0.28682172298431396 -0.02325582504272461 0.13408909738063812
-0.28682172298431396 -0.007751941680908203 -0.9821374416351318
-0.28682172298431396 -0.007751941680908203 -0.31160566210746765
-0.28682172298431396 -0.007751941215246916 -0.17339175939559937
-0.28682172298431396 -0.007751941680908203 0.1335912048816681
-0.28682172298431396 0.007751941680908203 -0.982273280620575
-0.28682172298431396 0.007751941680908203 -0.3163553476333618
-0.28682172298431396 0.007751941680908203 -0.16482560336589813
-0.28682172298431396 0.007751941680908203 0.13267558813095093
-0.28682172298431396 0.02325582504272461 -0.9827578067779541
-0.28682172298431396 0.02325582504272461 -0.31385377049446106
-0.28682172298431396 0.02325582504272461 -0.16553573310375214
-0.28682172298431396 0.02325582318007946 0.1319495141506195
-0.28682172298431396 0.038759708404541016 -0.9830731153488159
-0.28682172298431396 0.038759708404541016 -0.3101543188095093
-0.28682172298431396 0.038759708404541016 -0.1644822657108307
-0.2868216931819916 0.038759708404541016 0.1319253146648407
-0.28682172298431396 0.05426359176635742 -0.983475923538208
-0.28682172298431396 0.05426359176635742 -0.2906995117664337
-0.28682172298431396 0.05426359176635742 -0.1711297333240509
-0.28682175278663635 0.05426359549164772 0.13229072093963623
-0.28682172298431396 0.06976747512817383 -0.9842745065689087
-0.28682172298431396 0.06976747512817383 -0.24139563739299774
-0.28682172298431396 0.06976747512817383 -0.19912263751029968
-0.28682172298431396 0.06976747512817383 0.13297991454601288
-0.28682172298431396 0.08527135848999023 -0.9847459197044373
-0.28682172298431396 0.08527136594057083 0.13350728154182434
-0.28682172298431396 0.10077524185180664 -0.9849642515182495
-0.28682172298431396 0.10077524185180664 0.13390514254570007
-0.28682172298431396 0.11627912521362305 -0.9850175976753235
-0.28682172298431396 0.11627912521362305 0.13361524045467377
-0.28682172298431396 0.1317828893661499 -0.9848300218582153
-0.28682172298431396 0.1317828893661499 0.1331724375486374
-0.28682172298431396 0.1472867727279663 -0.9824132323265076
-0.28682172298431396 0.1472867727279663 0.1328594833612442
-0.28682172298431396 0.16279065608978271 -0.9766662120819092
-0.28682172298431396 0.16279065608978271 0.1325688362121582
-0.28682172298431396 0.17829453945159912 -0.9698609709739685
-0.28682172298431396 0.17829453945159912 0.13235566020011902
-0.28682172298431396 0.19379843771457672 -0.9643195867538452
-0.2868216931819916 0.19379842281341553 0.13234566152095795
-0.28682172298431396 0.20930230617523193 -0.9574953317642212
-0.28682172298431396 0.20930230617523193 0.1323237270116806
-0.28682172298431396 0.22480618953704834 -0.9539341330528259
-0.28682172298431396 0.22480618953704834 0.1321316361427307
-0.28682172298431396 0.24031007289886475 -0.9510807394981384
-0.28682172298431396 0.24031007289886475 0.13176463544368744
-0.28682172298431396 0.25581395626068115 -0.9443889856338501
-0.28682172298431396 0.25581395626068115 0.13077495992183685
-0.28682172298431396 0.27131783962249756 -0.9385563135147095
-0.28682172298431396 0.27131783962249756 0.1298942267894745
-0.28682172298431396 0.28682172298431396 -0.9344834685325623
-0.28682172298431396 0.28682172298431396 0.12885919213294983
-0.28682172298431396 0.30232560634613037 -0.924724280834198
-0.28682172298431396 0.30232560634613037 0.12699498236179352
-0.28682172298431396 0.3178294897079468 -0.921400249004364
-0.28682172298431396 0.3178294897079468 0.12268085777759552
-0.28682172298431396 0.3333333730697632 -0.9120250940322876
-0.28682172298431396 0.3333333730697632 0.11266185343265533
-0.28682172298431396 0.3488372564315796 -0.9069174528121948
-0.28682172298431396 0.3488372564315796 0.09497857093811035
-0.28682172298431396 0.364341139793396 -0.8963391780853271
-0.28682172298431396 0.364341139793396 0.07895676791667938
-0.28682172298431396 0.37984490394592285 -0.8899649381637573
-0.28682172298431396 0.37984490394592285 0.06354644894599915
-0.28682172298431396 0.39534878730773926 -0.8776839375495911
-0.28682172298431396 0.39534878730773926 0.04802265390753746
-0.28682172298431396 0.41085267066955566 -0.8706596493721008
-0.28682172298431396 0.41085267066955566 0.032116252928972244
-0.28682172298431396 0.42635655403137207 -0.8605293035507202
-0.28682172298431396 0.42635655403137207 0.014786696061491966
-0.28682172298431396 0.4418604373931885 -0.8499733209609985
-0.28682172298431396 0.4418604373931885 -0.00512899411842227
-0.28682172298431396 0.4573643207550049 -0.8409353494644165
-0.28682172298431396 0.4573643207550049 -0.027619438245892525
-0.28682172298431396 0.4728682041168213 -0.8273898959159851
-0.28682172298431396 0.4728682041168213 -0.051032815128564835
-0.28682172298431396 0.4883720874786377 -0.8097403049468994
-0.28682172298431396 0.4883720874786377 -0.0754254162311554
-0.28682172298431396 0.5038759708404541 -0.7826748490333557
-0.28682172298431396 0.5038759708404541 -0.10129156708717346
-0.28682172298431396 0.5193798542022705 -0.7493295669555664
-0.28682172298431396 0.5193798542022705 -0.12577657401561737
-0.28682172298431396 0.5348837375640869 -0.7135631442070007
-0.28682172298431396 0.5348837375640869 -0.15222403407096863
-0.28682172298431396 0.5503876209259033 -0.6727880835533142
-0.28682172298431396 0.5503876209259033 -0.18085920810699463
-0.28682172298431396 0.5658915042877197 -0.6240761876106262
-0.28682172298431396 0.5658915042877197 -0.21334198117256165
-0.28682172298431396 0.5813953876495361 -0.5619460344314575
-0.28682172298431396 0.5813953876495361 -0.24912568926811218
-0.28682172298431396 0.5968992710113525 -0.4680038094520569
-0.28682172298431396 0.5968992710113525 -0.31613972783088684
-0.27131783962249756 -0.596899151802063 -0.5604395866394043
-0.27131783962249756 -0.5968992114067078 -0.34813714027404785
-0.27131783962249756 -0.5813953876495361 -0.6396641731262207
-0.27131783962249756 -0.5813953876495361 -0.25041303038597107
-0.27131783962249756 -0.5658915042877197 -0.6836797595024109
-0.27131783962249756 -0.5658915042877197 -0.20617468655109406
-0.27131783962249756 -0.5503876209259033 -0.7186785340309143
-0.27131783962249756 -0.5503876209259033 -0.17437052726745605
-0.27131783962249756 -0.5348837375640869 -0.7535184621810913
-0.27131783962249756 -0.5348837375640869 -0.14476481080055237
-0.27131783962249756 -0.5193798542022705 -0.7845047116279602
-0.27131783962249756 -0.5193798542022705 -0.11527743935585022
-0.27131783962249756 -0.5038759708404541 -0.8094488382339478
-0.27131783962249756 -0.5038759708404541 -0.08744534850120544
-0.27131783962249756 -0.4883720874786377 -0.8251457810401917
-0.27131783962249756 -0.4883720874786377 -0.0632329136133194
-0.27131783962249756 -0.4728682041168213 -0.8352463245391846
-0.27131783962249756 -0.4728682041168213 -0.042060304433107376
-0.27131783962249756 -0.4573643207550049 -0.8454886078834534
-0.27131783962249756 -0.4573643207550049 -0.023914095014333725
-0.27131783962249756 -0.4418604373931885 -0.8566876649856567
-0.27131783962249756 -0.4418604373931885 -0.00847597885876894
-0.27131783962249756 -0.42635661363601685 -0.8622375726699829
-0.27131783962249756 -0.42635661363601685 0.004307090304791927
-0.27131783962249756 -0.4108527600765228 -0.8742181062698364
-0.27131783962249756 -0.41085273027420044 0.015645349398255348
-0.27131783962249756 -0.39534884691238403 -0.8796312212944031
-0.27131783962249756 -0.39534884691238403 0.025878755375742912
-0.27131783962249756 -0.3798449635505676 -0.8913523554801941
-0.27131783962249756 -0.3798449635505676 0.0332731269299984
-0.27131783962249756 -0.3643410801887512 -0.8986316919326782
-0.27131783962249756 -0.3643410801887512 0.041489772498607635
-0.27131783962249756 -0.3488371968269348 -0.907127857208252
-0.27131783962249756 -0.3488371968269348 0.04729391261935234
-0.27131783962249756 -0.3333333134651184 -0.9103613495826721
-0.27131783962249756 -0.3333333134651184 0.05360212177038193
-0.27131783962249756 -0.317829430103302 -0.917185366153717
-0.27131783962249756 -0.317829430103302 0.05952594429254532
-0.27131783962249756 -0.30232560634613037 -0.9217928051948547
-0.27131783962249756 -0.30232560634613037 0.06510615348815918
-0.27131783962249756 -0.28682172298431396 -0.9234232902526855
-0.27131783962249756 -0.28682172298431396 0.07245440781116486
-0.27131783962249756 -0.27131783962249756 -0.9302541017532349
-0.27131783962249756 -0.27131783962249756 0.07944437861442566
-0.27131783962249756 -0.25581395626068115 -0.937869131565094
-0.27131783962249756 -0.25581395626068115 0.0882849395275116
-0.27131783962249756 -0.24031007289886475 -0.9449692964553833
-0.27131783962249756 -0.24031007289886475 0.09743829071521759
-0.27131783962249756 -0.22480618953704834 -0.9540742039680481
-0.27131783962249756 -0.22480618953704834 0.1047164648771286
-0.27131783962249756 -0.20930230617523193 -0.965412974357605
-0.27131783962249756 -0.20930230617523193 0.11120015382766724
-0.27131783962249756 -0.19379842281341553 -0.9701031446456909
-0.27131783962249756 -0.19379842281341553 0.11745712161064148
-0.27131783962249756 -0.1782945990562439 -0.9772944450378418
-0.27131783962249756 -0.1782945990562439 0.12256447970867157
-0.27131783962249756 -0.1627907156944275 -0.981806755065918
-0.27131783962249756 -0.1627907156944275 0.12674257159233093
-0.27131783962249756 -0.14728683233261108 -0.9835538268089294
-0.27131783962249756 -0.14728683233261108 0.12982407212257385
-0.27131783962249756 -0.13178294897079468 -0.9836512804031372
-0.27131783962249756 -0.13178294897079468 0.13159216940402985
-0.27131783962249756 -0.11627906560897827 -0.9827407002449036
-0.27131783962249756 -0.11627906560897827 0.13203337788581848
-0.27131783962249756 -0.10077518224716187 -0.9815059304237366
-0.27131783962249756 -0.10077518224716187 0.13228265941143036
-0.27131783962249756 -0.08527129888534546 -0.9808563590049744
-0.27131783962249756 -0.08527129888534546 0.1326071321964264
-0.27131783962249756 -0.06976741552352905 -0.9807661771774292
-0.27131783962249756 -0.06976741552352905 0.1332237273454666
-0.27131783962249756 -0.05426359176635742 -0.9807388186454773
-0.27131783962249756 -0.05426359176635742 0.1335678994655609
-0.27131783962249756 -0.038759708404541016 -0.9808242321014404
-0.27131783962249756 -0.038759708404541016 0.13349883258342743
-0.27131783962249756 -0.02325582504272461 -0.9809232950210571
-0.27131783962249756 -0.02325582504272461 -0.28316980600357056
-0.27131783962249756 -0.02325582504272461 -0.1981942355632782
-0.27131783962249756 -0.02325582504272461 0.13330043852329254
-0.27131783962249756 -0.007751941680908203 -0.980887234210968
-0.27131783962249756 -0.007751941680908203 -0.2961633801460266
-0.27131783962249756 -0.007751941680908203 -0.18508198857307434
-0.27131783962249756 -0.007751941680908203 0.13279283046722412
-0.27131783962249756 0.007751941680908203 -0.9808050394058228
-0.27131783962249756 0.007751941680908203 -0.3046345114707947
-0.27131783962249756 0.007751941680908203 -0.17831197381019592
