-0.317829430103302 -0.5072827935218811 -0.6899224519729614
-0.317829430103302 -0.5125702619552612 -0.674418568611145
-0.317829430103302 -0.5158998370170593 -0.6589146852493286
-0.317829430103302 -0.5157874822616577 -0.41085273027420044
-0.317829430103302 -0.5084044933319092 -0.39534884691238403
-0.317829430103302 -0.48986607789993286 -0.751937985420227
-0.317829430103302 -0.494077205657959 -0.7364341020584106
-0.317829430103302 -0.4988023042678833 -0.7209302186965942
-0.3178294003009796 -0.5027750730514526 -0.7054263353347778
-0.317829430103302 -0.5016772747039795 -0.3798449635505676
-0.317829430103302 -0.4925157427787781 -0.3643410801887512
-0.317829430103302 -0.47740036249160767 -0.7984496355056763
-0.317829430103302 -0.482252299785614 -0.7829457521438599
-0.317829430103302 -0.4859393537044525 -0.7674418687820435
-0.317829430103302 -0.48519763350486755 -0.3488371968269348
-0.317829430103302 -0.4770119786262512 -0.3333333134651184
-0.317829430103302 -0.4637492299079895 -0.8294573426246643
-0.317829430103302 -0.47258874773979187 -0.8139535188674927
-0.317829430103302 -0.4709065556526184 -0.317829430103302
-0.317829430103302 -0.46423691511154175 -0.30232560634613037
-0.317829430103302 -0.45915234088897705 -0.28682172298431396
-0.317829430103302 -0.4534289836883545 -0.8449612259864807
-0.317829430103302 -0.45333507657051086 -0.27131783962249756
-0.317829430103302 -0.44696468114852905 -0.25581395626068115
-0.317829430103302 -0.4405274987220764 -0.8604651093482971
-0.317829430103302 -0.4381881058216095 -0.24031007289886475
-0.317829430103302 -0.42484986782073975 -0.8759689927101135
-0.317829430103302 -0.42503121495246887 -0.22480618953704834
-0.317829430103302 -0.4057411253452301 -0.8914729356765747
-0.317829430103302 -0.4049355089664459 -0.20930230617523193
-0.317829430103302 -0.3819209337234497 -0.9069767594337463
-0.317829430103302 -0.38134893774986267 -0.19379842281341553
-0.317829430103302 -0.3537217974662781 -0.9224807024002075
-0.317829430103302 -0.3510882258415222 -0.1782945990562439
-0.317829430103302 -0.32293105125427246 -0.9379844665527344
-0.317829430103302 -0.31100359559059143 -0.1627907156944275
-0.317829430103302 -0.28011271357536316 -0.953488290309906
-0.317829430103302 -0.2770877778530121 -0.14728683233261108
-0.317829430103302 -0.23876002430915833 -0.13178294897079468
-0.317829430103302 -0.21071840822696686 -0.9689922332763672
-0.317829430103302 -0.1469271183013916 -0.11627907305955887
-0.317829430103302 -0.10076836496591568 -0.9844961166381836
-0.317829430103302 0.11786656826734543 -0.9844961166381836
-0.317829430103302 0.12828950583934784 -0.11627906560897827
-0.317829430103302 0.20056453347206116 -0.9689922332763672
-0.317829430103302 0.20715095102787018 -0.13178294897079468
-0.317829430103302 0.2564307153224945 -0.14728683233261108
-0.317829430103302 0.27411139011383057 -0.9534883499145508
-0.317829430103302 0.2981986105442047 -0.1627907156944275
-0.317829430103302 0.3177439570426941 -0.9379844665527344
-0.317829430103302 0.3328036367893219 -0.1782945990562439
-0.317829430103302 0.34234002232551575 -0.9224806427955627
-0.317829430103302 0.36059045791625977 -0.19379842281341553
-0.317829430103302 0.36487555503845215 -0.9069767594337463
-0.317829430103302 0.38373827934265137 -0.8914728760719299
-0.317829430103302 0.38249823451042175 -0.20930230617523193
-0.317829430103302 0.40480905771255493 -0.8759690523147583
-0.317829430103302 0.40016448497772217 -0.22480618953704834
-0.317829430103302 0.42193588614463806 -0.8604651093482971
-0.317829430103302 0.42449507117271423 -0.25581395626068115
-0.317829430103302 0.41419917345046997 -0.24031008780002594
-0.317829430103302 0.4348136782646179 -0.8449612259864807
-0.317829430103302 0.43533170223236084 -0.27131783962249756
-0.317829430103302 0.44517385959625244 -0.8294574022293091
-0.317829430103302 0.4545915722846985 -0.8139535188674927
-0.317829430103302 0.45284807682037354 -0.30232560634613037
-0.317829430103302 0.44455260038375854 -0.28682172298431396
-0.317829430103302 0.4606676697731018 -0.7984496355056763
-0.317829430103302 0.46652230620384216 -0.7829457521438599
-0.317829430103302 0.47167742252349854 -0.7674418687820435
-0.317829430103302 0.46981382369995117 -0.3333333134651184
-0.317829430103302 0.46212443709373474 -0.317829430103302
-0.317829430103302 0.47681912779808044 -0.751937985420227
-0.317829430103302 0.4826439321041107 -0.7364341020584106
-0.317829430103302 0.4882540702819824 -0.7209302186965942
-0.317829430103302 0.4881567656993866 -0.3643410801887512
-0.317829430103302 0.47984981536865234 -0.3488371968269348
-0.317829430103302 0.4934889078140259 -0.7054263353347778
-0.317829430103302 0.49944424629211426 -0.6899224519729614
-0.317829430103302 0.4991961717605591 -0.3798449635505676
-0.3178294003009796 0.5048530697822571 -0.674418568611145
-0.317829430103302 0.5098487138748169 -0.6589146852493286
-0.317829430103302 0.5142566561698914 -0.643410861492157
-0.317829430103302 0.517589807510376 -0.6279069781303406
-0.317829430103302 0.5176467299461365 -0.41085273027420044
-0.317829430103302 0.5097107291221619 -0.39534884691238403
-0.317829430103302 0.5201374888420105 -0.6124030947685242
-0.317829430103302 0.5225020051002502 -0.5968992114067078
-0.317829430103302 0.5246142745018005 -0.5813953876495361
-0.317829430103302 0.5264347195625305 -0.5658915042877197
-0.317829430103302 0.5280011892318726 -0.5503876209259033
-0.317829430103302 0.5296040773391724 -0.5348837375640869
-0.317829430103302 0.5309644937515259 -0.5193798542022705
-0.317829430103302 0.5320340394973755 -0.5038759708404541
-0.317829430103302 0.5327468514442444 -0.4883720874786377
-0.317829430103302 0.532586932182312 -0.4728682041168213
-0.317829430103302 0.5314537882804871 -0.4573643207550049
-0.317829430103302 0.5292130708694458 -0.4418604373931885
-0.317829430103302 0.5244393944740295 -0.42635661363601685
-0.30232560634613037 -0.5365468263626099 -0.5968992710113525
-0.30232560634613037 -0.5387707948684692 -0.5813953876495361
-0.30232560634613037 -0.5410802364349365 -0.5658915042877197
-0.30232560634613037 -0.5428898334503174 -0.5503876209259033
-0.30232560634613037 -0.5443282127380371 -0.5348837375640869
-0.30232560634613037 -0.5450782775878906 -0.5193798542022705
-0.30232560634613037 -0.5451262593269348 -0.5038759708404541
-0.30232560634613037 -0.5445417165756226 -0.4883720874786377
-0.30232560634613037 -0.5428365468978882 -0.4728682041168213
-0.30232560634613037 -0.5395225882530212 -0.4573643207550049
-0.30232560634613037 -0.53575599193573 -0.4418604373931885
-0.30232560634613037 -0.5216063261032104 -0.674418568611145
-0.30232560634613037 -0.526036262512207 -0.6589146852493286
-0.30232560634613037 -0.5299324989318848 -0.643410861492157
-0.30232560634613037 -0.5321038365364075 -0.6279069185256958
-0.30232560634613037 -0.5346347689628601 -0.6124030947685242
-0.30232560634613037 -0.5298706889152527 -0.42635661363601685
-0.30232560634613037 -0.523497462272644 -0.41085273027420044
-0.30232560634613037 -0.5071748495101929 -0.7209302186965942
-0.30232560634613037 -0.5127703547477722 -0.7054263353347778
-0.30232563614845276 -0.5171401500701904 -0.6899225115776062
-0.30232560634613037 -0.5171002745628357 -0.39534884691238403
-0.30232560634613037 -0.5085976719856262 -0.3798449635505676
-0.30232560634613037 -0.4896424114704132 -0.7829457521438599
-0.30232560634613037 -0.4940379858016968 -0.7674418687820435
-0.30232560634613037 -0.4993802309036255 -0.751937985420227
-0.30232560634613037 -0.5032576322555542 -0.7364341020584106
-0.30232560634613037 -0.5008145570755005 -0.3643410801887512
-0.30232560634613037 -0.49218079447746277 -0.3488371968269348
-0.30232560634613037 -0.48124411702156067 -0.8139535188674927
-0.30232560634613037 -0.48638391494750977 -0.798449695110321
-0.30232560634613037 -0.4846733808517456 -0.3333333134651184
-0.30232560634613037 -0.4773101210594177 -0.317829430103302
-0.30232560634613037 -0.45923998951911926 -0.8449612259864807
-0.30232560634613037 -0.472114622592926 -0.8294574022293091
-0.30232560634613037 -0.47215646505355835 -0.30232560634613037
-0.30232560634613037 -0.46557122468948364 -0.28682172298431396
-0.30232560634613037 -0.460113525390625 -0.27131783962249756
-0.30232560634613037 -0.446755588054657 -0.8604651093482971
-0.30232560634613037 -0.45328807830810547 -0.25581395626068115
-0.30232560634613037 -0.4448486566543579 -0.24031007289886475
-0.30232560634613037 -0.4314309358596802 -0.8759689927101135
-0.30232560634613037 -0.4316021203994751 -0.22480618953704834
-0.30232560634613037 -0.41331225633621216 -0.8914728760719299
-0.30232560634613037 -0.4134688675403595 -0.20930230617523193
-0.30232560634613037 -0.3952069580554962 -0.9069767594337463
-0.30232560634613037 -0.3901174068450928 -0.19379842281341553
-0.30232560634613037 -0.36637285351753235 -0.9224806427955627
-0.30232560634613037 -0.3607035279273987 -0.1782945990562439
-0.30232560634613037 -0.3346996307373047 -0.9379844665527344
-0.30232560634613037 -0.3190828859806061 -0.1627907156944275
-0.30232560634613037 -0.2901274859905243 -0.9534883499145508
-0.30232560634613037 -0.2823227643966675 -0.14728683233261108
-0.30232560634613037 -0.24358625710010529 -0.13178294897079468
-0.30232560634613037 -0.22703036665916443 -0.9689922332763672
-0.30232560634613037 -0.1559438705444336 -0.11627906560897827
-0.30232560634613037 -0.14399725198745728 -0.9844961166381836
-0.30232560634613037 -0.031492624431848526 -0.10077518224716187
-0.30232560634613037 -0.011984216049313545 -0.10077518224716187
-0.30232560634613037 0.13098831474781036 -0.11627906560897827
-0.30232563614845276 0.1339253932237625 -0.9844961166381836
-0.30232560634613037 0.20694345235824585 -0.13178294897079468
-0.30232560634613037 0.2199101448059082 -0.9689922332763672
-0.30232560634613037 0.2569541931152344 -0.14728683233261108
-0.30232560634613037 0.2927626669406891 -0.9534883499145508
-0.30232560634613037 0.3034128248691559 -0.1627907156944275
-0.30232560634613037 0.33241772651672363 -0.9379844665527344
-0.30232560634613037 0.3386358320713043 -0.1782945990562439
-0.30232560634613037 0.35361963510513306 -0.922480583190918
-0.30232560634613037 0.3780003786087036 -0.9069766998291016
-0.30232560634613037 0.3669778108596802 -0.19379842281341553
-0.30232560634613037 0.3882172107696533 -0.20930230617523193
-0.30232560634613037 0.39609771966934204 -0.8914728760719299
-0.30232560634613037 0.4054633677005768 -0.22480618953704834
-0.30232560634613037 0.413388192653656 -0.8759689927101135
-0.30232560634613037 0.41991591453552246 -0.24031007289886475
-0.30232560634613037 0.4305705428123474 -0.8604650497436523
-0.30232560634613037 0.4411105811595917 -0.27131783962249756
-0.30232560634613037 0.432331383228302 -0.25581395626068115
-0.30232560634613037 0.443852961063385 -0.8449612259864807
-0.30232560634613037 0.4556404948234558 -0.8294573426246643
-0.30232560634613037 0.4512438178062439 -0.28682172298431396
-0.30232560634613037 0.46506398916244507 -0.8139535188674927
-0.30232560634613037 0.4708217978477478 -0.7984496355056763
-0.30232560634613037 0.46839475631713867 -0.317829430103302
-0.30232560634613037 0.46031537652015686 -0.30232560634613037
-0.30232560634613037 0.476534366607666 -0.7829456925392151
-0.30232560634613037 0.4823947250843048 -0.7674418687820435
-0.30232560634613037 0.48727914690971375 -0.751937985420227
-0.30232560634613037 0.48614323139190674 -0.3488371968269348
-0.30232560634613037 0.4778178334236145 -0.3333333134651184
-0.30232560634613037 0.4923296570777893 -0.7364341020584106
-0.30232560634613037 0.4981344938278198 -0.7209302186965942
-0.30232560634613037 0.5038002729415894 -0.7054263353347778
-0.30232560634613037 0.49711623787879944 -0.3643410801887512
-0.30232560634613037 0.5089934468269348 -0.6899224519729614
-0.30232560634613037 0.5145416259765625 -0.674418568611145
-0.30232560634613037 0.5187879800796509 -0.39534884691238403
-0.30232560634613037 0.5083761811256409 -0.3798449635505676
-0.30232560634613037 0.5194628834724426 -0.6589146852493286
-0.30232560634613037 0.5236165523529053 -0.6434108018875122
-0.30232560634613037 0.527877926826477 -0.6279069781303406
-0.30232560634613037 0.5302681922912598 -0.6124030947685242
-0.30232560634613037 0.5325726270675659 -0.596899151802063
-0.30232560634613037 0.5347146391868591 -0.5813953876495361
-0.30232560634613037 0.5342387557029724 -0.42635661363601685
-0.30232560634613037 0.5284956693649292 -0.41085273027420044
-0.30232560634613037 0.5359373092651367 -0.5658915042877197
-0.30232560634613037 0.5370525121688843 -0.5503876209259033
-0.30232560634613037 0.5386114120483398 -0.5348837375640869
-0.30232560634613037 0.5405359268188477 -0.5193798542022705
-0.30232560634613037 0.5420581698417664 -0.5038759708404541
-0.30232560634613037 0.5430589914321899 -0.4883720874786377
-0.30232560634613037 0.5430286526679993 -0.4728682041168213
-0.30232560634613037 0.5417599678039551 -0.4573643207550049
-0.30232560634613037 0.538516640663147 -0.4418604373931885
-0.28682172298431396 -0.551372766494751 -0.5503876209259033
-0.28682172298431396 -0.5524086952209473 -0.5348837375640869
-0.28682172298431396 -0.5530714988708496 -0.5193798542022705
-0.28682172298431396 -0.5530471205711365 -0.5038759708404541
-0.28682172298431396 -0.5523475408554077 -0.4883720874786377
-0.28682172298431396 -0.5509247779846191 -0.4728682041168213
-0.28682172298431396 -0.5350431799888611 -0.6589146852493286
-0.28682172298431396 -0.5382519960403442 -0.6434109210968018
-0.28682172298431396 -0.5416017174720764 -0.6279069781303406
-0.28682172298431396 -0.5441113710403442 -0.6124030947685242
-0.28682172298431396 -0.5459490418434143 -0.5968992114067078
-0.28682172298431396 -0.5479317307472229 -0.5813953876495361
-0.2868216931819916 -0.5502045750617981 -0.5658915042877197
-0.28682172298431396 -0.547377347946167 -0.4573643207550049
-0.28682172298431396 -0.5433322191238403 -0.4418604373931885
-0.28682172298431396 -0.5376315712928772 -0.42635661363601685
-0.28682172298431396 -0.5212492942810059 -0.7054263353347778
-0.28682172298431396 -0.5268967151641846 -0.6899224519729614
-0.28682172298431396 -0.5312383770942688 -0.674418568611145
-0.28682172298431396 -0.531622052192688 -0.4108527600765228
-0.28682172298431396 -0.5243130922317505 -0.39534884691238403
-0.28682172298431396 -0.5073111653327942 -0.751937985420227
-0.28682172298431396 -0.5126619338989258 -0.7364341020584106
-0.28682172298431396 -0.5167163610458374 -0.720930278301239
-0.2868216931819916 -0.5175623297691345 -0.3798449635505676
-0.28682172298431396 -0.5082425475120544 -0.3643410801887512
-0.28682172298431396 -0.4886692464351654 -0.8139535188674927
-0.28682172298431396 -0.4945746064186096 -0.7984496355056763
-0.28682172298431396 -0.49921321868896484 -0.7829457521438599
-0.28682172298431396 -0.5028310418128967 -0.7674418687820435
-0.28682172298431396 -0.5006446242332458 -0.3488371968269348
-0.28682172298431396 -0.4922404885292053 -0.3333333134651184
-0.28682172298431396 -0.4806024432182312 -0.8294573426246643
-0.28682172298431396 -0.4853494167327881 -0.317829430103302
-0.28682172298431396 -0.4789366126060486 -0.30232560634613037
-0.28682172298431396 -0.4734601080417633 -0.28682172298431396
-0.28682172298431396 -0.46954718232154846 -0.8449612259864807
-0.28682172298431396 -0.46668750047683716 -0.27131783962249756
-0.28682172298431396 -0.4606732726097107 -0.25581395626068115
-0.28682172298431396 -0.45644262433052063 -0.8604651689529419
-0.28682172298431396 -0.45128166675567627 -0.24031007289886475
-0.28682172298431396 -0.4415021240711212 -0.8759690523147583
-0.28682172298431396 -0.4395086467266083 -0.22480618953704834
-0.2868216931819916 -0.42498698830604553 -0.8914728760719299
-0.28682172298431396 -0.4217165410518646 -0.20930230617523193
-0.28682172298431396 -0.4027676582336426 -0.9069767594337463
-0.28682172298431396 -0.399391233921051 -0.19379842281341553
-0.28682175278663635 -0.3784593939781189 -0.9224806427955627
-0.28682172298431396 -0.371043860912323 -0.1782945990562439
-0.28682172298431396 -0.34362345933914185 -0.9379844069480896
-0.28682172298431396 -0.3282138705253601 -0.1627907156944275
-0.28682172298431396 -0.30231598019599915 -0.9534883499145508
-0.28682172298431396 -0.2876493036746979 -0.14728683233261108
-0.28682172298431396 -0.24121485650539398 -0.9689922332763672
-0.28682172298431396 -0.24677199125289917 -0.13178294897079468
-0.28682172298431396 -0.16388395428657532 -0.9844961166381836
-0.28682172298431396 -0.1582835614681244 -0.11627906560897827
-0.28682172298431396 -0.04023028537631035 -0.10077518224716187
-0.28682172298431396 -0.00576332863420248 -0.10077517479658127
-0.28682172298431396 0.12432172149419785 -0.11627906560897827
-0.28682172298431396 0.14533504843711853 -0.9844961166381836
-0.28682172298431396 0.203963041305542 -0.13178294897079468
-0.28682172298431396 0.23705889284610748 -0.9689922332763672
-0.28682175278663635 0.2565487325191498 -0.14728683233261108
-0.28682172298431396 0.31019318103790283 -0.9534883499145508
-0.28682172298431396 0.3103170394897461 -0.1627907156944275
-0.28682172298431396 0.3462675213813782 -0.9379844665527344
-0.28682172298431396 0.3467544615268707 -0.1782945990562439
-0.28682172298431396 0.3661973774433136 -0.9224806427955627
-0.28682172298431396 0.3737539052963257 -0.19379842281341553
-0.28682172298431396 0.3883371651172638 -0.9069767594337463
-0.28682172298431396 0.3951127231121063 -0.20930230617523193
-0.28682172298431396 0.40916740894317627 -0.8914728760719299
-0.28682172298431396 0.42601460218429565 -0.8759689927101135
-0.28682172298431396 0.41286322474479675 -0.22480618953704834
-0.28682172298431396 0.44174936413764954 -0.8604651093482971
-0.28682172298431396 0.4381570518016815 -0.25581395626068115
-0.28682172298431396 0.42694875597953796 -0.24031007289886475
-0.28682172298431396 0.4555651545524597 -0.8449612855911255
-0.28682172298431396 0.4499179720878601 -0.27131783962249756
-0.28682172298431396 0.46679484844207764 -0.8294572830200195
-0.28682172298431396 0.4681987762451172 -0.30232560634613037
-0.28682172298431396 0.4587496221065521 -0.28682172298431396
-0.28682172298431396 0.47519123554229736 -0.8139535188674927
-0.28682172298431396 0.4817656874656677 -0.7984496355056763
-0.28682172298431396 0.486724853515625 -0.7829457521438599
-0.28682172298431396 0.4856160283088684 -0.3333333134651184
-0.28682172298431396 0.477342814207077 -0.317829430103302
-0.28682172298431396 0.49215516448020935 -0.7674418687820435
-0.28682172298431396 0.497638463973999 -0.751937985420227
-0.28682172298431396 0.502515435218811 -0.7364341020584106
-0.28682172298431396 0.4963909089565277 -0.3488371968269348
-0.28682172298431396 0.5073294639587402 -0.7209302186965942
-0.28682172298431396 0.5132660269737244 -0.7054263353347778
-0.28682172298431396 0.5187776684761047 -0.6899224519729614
-0.28682172298431396 0.5188800096511841 -0.3798449635505676
-0.28682172298431396 0.5070605874061584 -0.3643410801887512
-0.28682172298431396 0.5236964225769043 -0.674418568611145
-0.28682172298431396 0.5291001796722412 -0.6589146852493286
-0.28682172298431396 0.5330579280853271 -0.643410861492157
-0.28682172298431396 0.5303468704223633 -0.39534884691238403
-0.28682172298431396 0.536533772945404 -0.6279069781303406
-0.28682172298431396 0.5395318269729614 -0.6124030947685242
-0.28682172298431396 0.5426346063613892 -0.5968992114067078
-0.28682172298431396 0.5446518063545227 -0.5813953876495361
-0.28682172298431396 0.5460973978042603 -0.5658915042877197
-0.28682172298431396 0.5473268032073975 -0.5503876209259033
-0.28682172298431396 0.548832893371582 -0.5348837375640869
-0.28682172298431396 0.5486686825752258 -0.4418604373931885
-0.28682172298431396 0.5452490448951721 -0.42635661363601685
-0.28682172298431396 0.5387349724769592 -0.41085273027420044
-0.28682172298431396 0.5504425764083862 -0.5193798542022705
-0.28682172298431396 0.551094651222229 -0.5038759708404541
-0.28682175278663635 0.5516291260719299 -0.4883721172809601
-0.28682172298431396 0.5515955090522766 -0.4728682041168213
-0.28682172298431396 0.5508085489273071 -0.4573643207550049
-0.27131783962249756 -0.5515098571777344 -0.6124030947685242
-0.27131783962249756 -0.5534758567810059 -0.5968992114067078
-0.27131783962249756 -0.5561805367469788 -0.5813953876495361
-0.27131783962249756 -0.5584086179733276 -0.5658915042877197
-0.27131783962249756 -0.5597737431526184 -0.5503876209259033
-0.27131783962249756 -0.5607123374938965 -0.5348837375640869
-0.27131783962249756 -0.5611092448234558 -0.5193798542022705
-0.27131783962249756 -0.5608891248703003 -0.5038759708404541
-0.27131783962249756 -0.5600681304931641 -0.4883720874786377
-0.27131783962249756 -0.5580742359161377 -0.4728682041168213
-0.27131783962249756 -0.5542978644371033 -0.4573643207550049
-0.27131783962249756 -0.5506380796432495 -0.4418604373931885
-0.27131783962249756 -0.5352055430412292 -0.6899224519729614
-0.27131783962249756 -0.5392205715179443 -0.674418568611145
-0.27131783962249756 -0.5438776016235352 -0.6589146852493286
-0.27131783962249756 -0.5466441512107849 -0.643410861492157
-0.27131783962249756 -0.5493301749229431 -0.6279069781303406
-0.27131783962249756 -0.5447940826416016 -0.42635658383369446
-0.27131783962249756 -0.5385278463363647 -0.41085273027420044
-0.27131783962249756 -0.5208259224891663 -0.7364341020584106
-0.27131783962249756 -0.525528073310852 -0.7209302186965942
-0.27131783962249756 -0.5306875705718994 -0.7054263353347778
-0.27131783962249756 -0.5321762561798096 -0.39534884691238403
-0.27131783962249756 -0.5242900848388672 -0.3798449635505676
-0.27131783962249756 -0.507139265537262 -0.7829457521438599
-0.27131783962249756 -0.5119372606277466 -0.7674418687820435
-0.27131783962249756 -0.5165739059448242 -0.751937985420227
-0.27131783962249756 -0.5166414380073547 -0.3643410801887512
-0.27131783962249756 -0.5080718398094177 -0.3488371968269348
-0.27131783962249756 -0.48886191844940186 -0.8294573426246643
-0.27131783962249756 -0.4997624158859253 -0.8139535188674927
-0.27131783962249756 -0.503688395023346 -0.7984496355056763
-0.27131783962249756 -0.5003615617752075 -0.3333333134651184
-0.27131783962249756 -0.4928556978702545 -0.317829430103302
-0.27131783962249756 -0.4767570197582245 -0.8449612259864807
-0.27131783962249756 -0.48678332567214966 -0.30232560634613037
-0.27131783962249756 -0.48056846857070923 -0.28682172298431396
-0.27131783962249756 -0.47458139061927795 -0.27131783962249756
-0.27131783962249756 -0.4642374515533447 -0.8604651093482971
-0.27131783962249756 -0.4671825170516968 -0.25581395626068115
-0.27131783962249756 -0.45920470356941223 -0.24031007289886475
-0.27131783962249756 -0.4495735168457031 -0.8759689927101135
-0.27131783962249756 -0.44696104526519775 -0.22480618953704834
-0.27131783962249756 -0.43229642510414124 -0.8914729356765747
-0.27131783962249756 -0.43010854721069336 -0.20930230617523193
-0.27131783962249756 -0.41211971640586853 -0.9069767594337463
-0.27131783962249756 -0.40954622626304626 -0.19379842281341553
-0.27131783962249756 -0.38612842559814453 -0.9224807024002075
-0.27131783962249756 -0.3827981650829315 -0.1782945990562439
-0.27131783962249756 -0.3529350161552429 -0.9379844665527344
-0.27131783962249756 -0.33997395634651184 -0.1627907156944275
-0.27131783962249756 -0.3134377896785736 -0.9534883499145508
-0.27131783962249756 -0.292319655418396 -0.14728683233261108
-0.27131786942481995 -0.25529250502586365 -0.968992292881012
-0.27131783962249756 -0.24807289242744446 -0.13178294897079468
-0.27131783962249756 -0.17522427439689636 -0.9844961166381836
-0.27131783962249756 -0.15392272174358368 -0.11627906560897827
-0.27131783962249756 0.10679276287555695 -0.11627906560897827
-0.27131783962249756 0.15337419509887695 -0.9844961166381836
-0.27131783962249756 0.19902028143405914 -0.13178294897079468
-0.27131783962249756 0.2555234134197235 -0.9689922332763672
-0.27131783962249756 0.25562208890914917 -0.14728683233261108
-0.27131783962249756 0.32733121514320374 -0.9534883499145508
-0.27131783962249756 0.32138997316360474 -0.1627907156944275
-0.27131783962249756 0.35861456394195557 -0.9379844665527344
-0.27131783962249756 0.3561857342720032 -0.1782945990562439
-0.27131783962249756 0.38001060485839844 -0.9224806427955627
-0.27131783962249756 0.382357120513916 -0.19379842281341553
-0.27131783962249756 0.39773306250572205 -0.9069767594337463
-0.27131783962249756 0.4031549096107483 -0.20930230617523193
-0.27131783962249756 0.4188755750656128 -0.8914728760719299
-0.27131783962249756 0.4206075966358185 -0.22480618953704834
-0.27131783962249756 0.4372633695602417 -0.8759689927101135
-0.27131783962249756 0.43530207872390747 -0.24031007289886475
-0.27131783962249756 0.45322513580322266 -0.8604651093482971
-0.27131783962249756 0.4480305314064026 -0.25581395626068115
-0.27131783962249756 0.46619105339050293 -0.8449612259864807
-0.27131783962249756 0.4684327244758606 -0.28682172298431396
-0.27131783962249756 0.45775631070137024 -0.27131783962249756
-0.27131783962249756 0.47680118680000305 -0.8294572830200195
-0.27131783962249756 0.4855279326438904 -0.8139535188674927
-0.27131783962249756 0.4869645833969116 -0.317829430103302
-0.27131783962249756 0.4789712429046631 -0.30232560634613037
-0.27131783962249756 0.49156129360198975 -0.7984496355056763
-0.27131783962249756 0.49714717268943787 -0.7829457521438599
-0.27131783962249756 0.5019789934158325 -0.7674418687820435
-0.27131783962249756 0.4976530075073242 -0.3333333134651184
-0.27131783962249756 0.506854772567749 -0.751937985420227
-0.27131783962249756 0.5123835802078247 -0.7364341020584106
-0.27131783962249756 0.5170767307281494 -0.7209302186965942
-0.27131783962249756 0.5085757374763489 -0.3488371968269348
-0.27131783962249756 0.5221554040908813 -0.7054263353347778
-0.27131783962249756 0.5283666253089905 -0.6899224519729614
-0.27131783962249756 0.5331329107284546 -0.674418568611145
-0.27131783962249756 0.531986653804779 -0.3798449635505676
-0.27131783962249756 0.5197986960411072 -0.3643410801887512
-0.27131783962249756 0.5376217365264893 -0.6589146852493286
-0.27131783962249756 0.5428187251091003 -0.643410861492157
-0.27131783962249756 0.5460582375526428 -0.6279069781303406
-0.27131783962249756 0.5487483143806458 -0.612403154373169
-0.27131783962249756 0.5496397018432617 -0.41085273027420044
-0.27131783962249756 0.542792797088623 -0.39534884691238403
-0.27131783962249756 0.551303505897522 -0.5968992114067078
-0.27131783962249756 0.553080677986145 -0.5813953876495361
-0.27131783962249756 0.5550065040588379 -0.5658915042877197
-0.27131783962249756 0.5567131638526917 -0.5503876209259033
-0.27131783962249756 0.5583841800689697 -0.5348837375640869
-0.27131783962249756 0.55994713306427 -0.5193798542022705
-0.27131783962249756 0.5608851909637451 -0.5038759708404541
-0.27131783962249756 0.5614770650863647 -0.4883720874786377
-0.27131783962249756 0.5615286827087402 -0.4728682041168213
-0.27131783962249756 0.5609205961227417 -0.4573643207550049
-0.27131783962249756 0.5591447949409485 -0.4418604373931885
-0.27131783962249756 0.5549439787864685 -0.42635661363601685
-0.25581395626068115 -0.5660692453384399 -0.5503876209259033
-0.25581395626068115 -0.5669320821762085 -0.5348837375640869
-0.25581395626068115 -0.5673686861991882 -0.5193798542022705
-0.25581395626068115 -0.56709223985672 -0.5038759708404541
-0.25581395626068115 -0.5662305355072021 -0.4883720874786377
-0.25581395626068115 -0.5505391359329224 -0.6589146852493286
-0.25581395626068115 -0.5535300374031067 -0.6434109210968018
-0.25581395626068115 -0.5569072961807251 -0.6279069781303406
-0.25581395626068115 -0.5594167709350586 -0.6124030947685242
-0.25581395626068115 -0.561100423336029 -0.5968992710113525
-0.25581395626068115 -0.5627970099449158 -0.5813953876495361
-0.25581395626068115 -0.5646738409996033 -0.5658915042877197
-0.25581395626068115 -0.5637530088424683 -0.4728682041168213
-0.25581395626068115 -0.560690701007843 -0.4573643207550049
-0.25581395626068115 -0.5565801858901978 -0.4418604373931885
-0.25581395626068115 -0.5514558553695679 -0.42635661363601685
-0.25581395626068115 -0.5377694368362427 -0.7054263353347778
-0.25581395626068115 -0.5434697866439819 -0.6899224519729614
-0.25581395626068115 -0.5469846725463867 -0.674418568611145
-0.25581395626068115 -0.5450984835624695 -0.41085273027420044
-0.25581395626068115 -0.5385594367980957 -0.39534884691238403
-0.25581395626068115 -0.5201642513275146 -0.7674418687820435
-0.25581395626068115 -0.524669885635376 -0.751937985420227
-0.25581395626068115 -0.529885470867157 -0.7364341020584106
-0.25581395626068115 -0.5338230133056641 -0.7209302186965942
-0.25581395626068115 -0.5317137241363525 -0.3798449635505676
-0.25581395626068115 -0.523444414138794 -0.3643410801887512
-0.25581395626068115 -0.5088951587677002 -0.8139535188674927
-0.25581395626068115 -0.5143148899078369 -0.7984496355056763
-0.25581395626068115 -0.5167472958564758 -0.7829457521438599
-0.25581395626068115 -0.515722930431366 -0.3488371968269348
-0.25581395626068115 -0.5076062083244324 -0.3333333134651184
-0.25581395626068115 -0.5003441572189331 -0.8294573426246643
-0.25581395626068115 -0.500343382358551 -0.317829430103302
-0.25581395626068115 -0.49395912885665894 -0.30232560634613037
-0.25581395626068115 -0.487027108669281 -0.8449612855911255
-0.25581395626068115 -0.48792633414268494 -0.28682172298431396
-0.25581395626068115 -0.48115938901901245 -0.27131783962249756
-0.25581395626068115 -0.4747736155986786 -0.25581395626068115
-0.25581395626068115 -0.4576319754123688 -0.8759689927101135
-0.25581395626068115 -0.47281670570373535 -0.8604650497436523
-0.25581395626068115 -0.46539318561553955 -0.24031007289886475
-0.25581395626068115 -0.44199585914611816 -0.8914728760719299
-0.25581395626068115 -0.45321333408355713 -0.22480618953704834
-0.25581395626068115 -0.4371833801269531 -0.20930230617523193
-0.25581395626068115 -0.42255643010139465 -0.9069767594337463
-0.25581395626068115 -0.4165325164794922 -0.19379842281341553
-0.25581395626068115 -0.39643293619155884 -0.922480583190918
-0.25581395626068115 -0.39281320571899414 -0.1782945990562439
-0.25581395626068115 -0.36486026644706726 -0.9379844665527344
-0.25581395626068115 -0.35327813029289246 -0.1627907156944275
-0.25581395626068115 -0.32080909609794617 -0.9534883499145508
-0.25581395626068115 -0.2969251871109009 -0.14728683233261108
-0.25581395626068115 -0.2681536376476288 -0.9689922332763672
-0.25581395626068115 -0.24586515128612518 -0.13178294897079468
-0.25581395626068115 -0.18312615156173706 -0.9844961166381836
-0.25581395626068115 -0.14146658778190613 -0.11627906560897827
-0.25581395626068115 0.07924501597881317 -0.11627906560897827
-0.25581395626068115 0.15553373098373413 -0.9844961166381836
-0.25581395626068115 0.1888856291770935 -0.13178294897079468
-0.25581395626068115 0.2521010637283325 -0.14728683233261108
-0.25581395626068115 0.2730998396873474 -0.9689922332763672
-0.25581395626068115 0.33150941133499146 -0.1627907156944275
-0.25581395626068115 0.3395802974700928 -0.9534883499145508
-0.25581395626068115 0.36749348044395447 -0.9379844665527344
-0.25581395626068115 0.36483994126319885 -0.1782945990562439
-0.25581395626068115 0.3903653919696808 -0.922480583190918
-0.25581395626068115 0.38923966884613037 -0.19379842281341553
-0.25581395626068115 0.41029995679855347 -0.9069767594337463
-0.25581395626068115 0.4097471833229065 -0.20930230617523193
-0.25581395626068115 0.42712700366973877 -0.8914729356765747
-0.25581395626068115 0.42798519134521484 -0.22480618953704834
-0.25581395626068115 0.44410714507102966 -0.8759689927101135
-0.25581395626068115 0.45483875274658203 -0.25581395626068115
-0.25581395626068115 0.44250723719596863 -0.24031007289886475
-0.25581395626068115 0.4608636200428009 -0.8604651689529419
-0.25581395626068115 0.46754348278045654 -0.27131783962249756
-0.25581395626068115 0.4746284484863281 -0.8449612259864807
-0.25581395626068115 0.4865283966064453 -0.8294573426246643
-0.25581395626068115 0.4791266918182373 -0.28682172298431396
-0.25581395626068115 0.49632686376571655 -0.8139535188674927
-0.25581395626068115 0.501105785369873 -0.7984496355056763
-0.25581395626068115 0.4995126724243164 -0.317829430103302
-0.25581395626068115 0.48852479457855225 -0.30232560634613037
-0.25581395626068115 0.5060250163078308 -0.7829457521438599
-0.25581395626068115 0.5115046501159668 -0.7674418687820435
-0.25581395626068115 0.5161186456680298 -0.751937985420227
-0.25581395626068115 0.5107792615890503 -0.3333333134651184
-0.25581395626068115 0.5210849642753601 -0.7364341020584106
-0.25581395626068115 0.5263239145278931 -0.7209302186965942
-0.25581395626068115 0.5312685966491699 -0.7054263353347778
-0.25581395626068115 0.533069908618927 -0.3643410801887512
-0.25581395626068115 0.5217077732086182 -0.3488371968269348
-0.25581395626068115 0.5364499092102051 -0.6899224519729614
-0.25581395626068115 0.5419397354125977 -0.674418568611145
-0.25581395626068115 0.5461851358413696 -0.6589146852493286
-0.25581395626068115 0.544197678565979 -0.3798449635505676
-0.25581395626068115 0.5506735444068909 -0.643410861492157
-0.25581395626068115 0.5540266036987305 -0.6279069781303406
-0.25581395626068115 0.5575156211853027 -0.6124030351638794
-0.25581395626068115 0.5601102709770203 -0.5968992114067078
-0.25581395626068115 0.5617170333862305 -0.5813953876495361
-0.25581395626068115 0.5632002353668213 -0.5658915042877197
-0.25581395626068115 0.56475430727005 -0.5503876209259033
-0.25581395626068115 0.563054621219635 -0.42635661363601685
-0.25581395626068115 0.5596161484718323 -0.41085273027420044
-0.25581395626068115 0.5519411563873291 -0.39534884691238403
-0.25581395626068115 0.5661168098449707 -0.5348837375640869
-0.25581395626068115 0.5670645833015442 -0.5193798542022705
-0.25581395626068115 0.5678420662879944 -0.5038759708404541
-0.25581395626068115 0.5686493515968323 -0.4883720874786377
-0.25581395626068115 0.5688184499740601 -0.4728682041168213
-0.25581395626068115 0.5679406523704529 -0.4573643207550049
-0.25581395626068115 0.5661643147468567 -0.4418604373931885
-0.24031007289886475 -0.5673248767852783 -0.5968992114067078
-0.24031007289886475 -0.5697060823440552 -0.5813953876495361
-0.24031007289886475 -0.5718680620193481 -0.5658915042877197
-0.24031007289886475 -0.5733517408370972 -0.5503876209259033
-0.24031007289886475 -0.5743768811225891 -0.5348837375640869
-0.24031007289886475 -0.5747587084770203 -0.5193798542022705
-0.24031008780002594 -0.5742484331130981 -0.5038759708404541
-0.24031007289886475 -0.5729324221611023 -0.4883720874786377
-0.24031007289886475 -0.5702035427093506 -0.4728682041168213
-0.24031007289886475 -0.5669970512390137 -0.4573643207550049
-0.24031007289886475 -0.5535458922386169 -0.674418568611145
-0.24031007289886475 -0.5579550266265869 -0.6589146852493286
-0.24031007289886475 -0.5610710382461548 -0.643410861492157
-0.24031007289886475 -0.5629448890686035 -0.6279069781303406
-0.24031005799770355 -0.5653877854347229 -0.6124030351638794
-0.24031007289886475 -0.5624077916145325 -0.4418604373931885
-0.24031007289886475 -0.5581008791923523 -0.42635661363601685
-0.24031007289886475 -0.5520219206809998 -0.41085273027420044
-0.24031007289886475 -0.5367673635482788 -0.7364341020584106
-0.24031007289886475 -0.5412287712097168 -0.7209302186965942
-0.24031007289886475 -0.546105146408081 -0.7054263353347778
-0.24031008780002594 -0.5500620603561401 -0.6899224519729614
-0.24031007289886475 -0.5452942848205566 -0.39534884691238403
-0.24031007289886475 -0.5384232401847839 -0.3798449635505676
-0.24031007289886475 -0.5215799808502197 -0.7984496355056763
-0.24031007289886475 -0.5242106914520264 -0.7829457521438599
-0.24031007289886475 -0.5284912586212158 -0.7674418687820435
-0.24031007289886475 -0.532888650894165 -0.751937985420227
-0.24031008780002594 -0.5303824543952942 -0.3643410801887512
-0.24031007289886475 -0.5224903225898743 -0.3488371968269348
-0.24031007289886475 -0.5076738595962524 -0.8294574022293091
-0.24031007289886475 -0.5175068974494934 -0.8139535188674927
-0.24031007289886475 -0.5140925049781799 -0.3333333134651184
-0.24031007289886475 -0.5067811012268066 -0.317829430103302
-0.24031007289886475 -0.49519723653793335 -0.8449612259864807
-0.24031007289886475 -0.49981850385665894 -0.30232560634613037
-0.24031007289886475 -0.4939079284667969 -0.28682172298431396
-0.24031007289886475 -0.48130062222480774 -0.8604651093482971
-0.24031005799770355 -0.48678943514823914 -0.27131783962249756
-0.24031007289886475 -0.47987186908721924 -0.25581395626068115
-0.24031008780002594 -0.4661347270011902 -0.8759690523147583
-0.24031007289886475 -0.4702872633934021 -0.24031007289886475
-0.24031007289886475 -0.4583648443222046 -0.22480618953704834
-0.24031007289886475 -0.44876986742019653 -0.8914728760719299
-0.24031007289886475 -0.44255000352859497 -0.20930230617523193
-0.24031007289886475 -0.4279022514820099 -0.9069767594337463
-0.24031007289886475 -0.42258989810943604 -0.19379842281341553
-0.24031007289886475 -0.40314316749572754 -0.9224806427955627
-0.24031007289886475 -0.39879897236824036 -0.1782945990562439
-0.24031007289886475 -0.369712233543396 -0.9379844665527344
-0.24031007289886475 -0.36379504203796387 -0.16279073059558868
-0.24031007289886475 -0.3317755460739136 -0.953488290309906
-0.24031007289886475 -0.29844367504119873 -0.14728683233261108
-0.24031007289886475 -0.27670150995254517 -0.9689922332763672
-0.24031007289886475 -0.23639178276062012 -0.13178294897079468
-0.24031007289886475 -0.18610641360282898 -0.9844961166381836
-0.24031007289886475 -0.11976300179958344 -0.11627906560897827
-0.24031007289886475 -0.09707694500684738 -0.9844961166381836
-0.24031007289886475 -0.0366707518696785 -0.9844961166381836
-0.24031007289886475 0.03700324520468712 0.8759689331054688
-0.24031007289886475 0.04840274155139923 -0.11627906560897827
-0.24031007289886475 0.03941739350557327 0.8759689331054688
-0.24031007289886475 0.1233849972486496 -0.9844961166381836
-0.24031007289886475 0.1626260131597519 -0.13178294897079468
-0.24031008780002594 0.24442410469055176 -0.14728683233261108
-0.24031008780002594 0.28733375668525696 -0.9689922332763672
-0.24031007289886475 0.33884182572364807 -0.1627907156944275
-0.24031007289886475 0.3492774963378906 -0.9534883499145508
-0.24031007289886475 0.37959519028663635 -0.9379844665527344
-0.24031005799770355 0.3707256019115448 -0.1782945990562439
-0.24031007289886475 0.39483875036239624 -0.19379842281341553
-0.24031007289886475 0.39695030450820923 -0.9224807024002075
-0.24031007289886475 0.41700121760368347 -0.9069767594337463
-0.24031007289886475 0.4157865345478058 -0.20930230617523193
-0.24031007289886475 0.4375940263271332 -0.8914729356765747
-0.24031007289886475 0.4340630769729614 -0.22480618953704834
-0.24031007289886475 0.45465144515037537 -0.8759689927101135
-0.24031007289886475 0.4495386481285095 -0.24031007289886475
-0.24031007289886475 0.470784455537796 -0.8604651093482971
-0.24031007289886475 0.46322083473205566 -0.25581395626068115
-0.24031007289886475 0.4846998453140259 -0.8449612259864807
-0.24031007289886475 0.4871661365032196 -0.28682172298431396
-0.24031007289886475 0.4756184220314026 -0.27131783962249756
-0.24031007289886475 0.49619969725608826 -0.8294573426246643
-0.24031007289886475 0.4992624521255493 -0.30232560634613037
-0.24031007289886475 0.5045421719551086 -0.8139535188674927
-0.24031007289886475 0.5102382898330688 -0.7984496355056763
-0.24031007289886475 0.5150396823883057 -0.7829457521438599
-0.24031005799770355 0.5104566812515259 -0.317829430103302
-0.24031007289886475 0.5199878811836243 -0.7674418687820435
-0.24031007289886475 0.5245262384414673 -0.751937985420227
-0.24031007289886475 0.5299841165542603 -0.7364341020584106
-0.24031007289886475 0.532278835773468 -0.3488371968269348
-0.24031007289886475 0.5212368965148926 -0.3333333134651184
-0.24031007289886475 0.5349805951118469 -0.7209302186965942
-0.24031007289886475 0.5391480326652527 -0.7054263353347778
-0.24031007289886475 0.5449257493019104 -0.6899224519729614
-0.24031007289886475 0.5496119856834412 -0.674418568611145
-0.24031007289886475 0.5434077978134155 -0.3643410801887512
-0.24031007289886475 0.553691029548645 -0.6589146852493286
-0.24031007289886475 0.5587024092674255 -0.643410861492157
-0.24031007289886475 0.5616809129714966 -0.6279069781303406
-0.24031007289886475 0.5643951892852783 -0.6124030947685242
-0.24031007289886475 0.5605940222740173 -0.39534884691238403
-0.24031005799770355 0.5520731806755066 -0.37984493374824524
-0.24031007289886475 0.566951334476471 -0.5968992710113525
-0.24031008780002594 0.5687975883483887 -0.5813953876495361
-0.24031007289886475 0.5707629323005676 -0.5658915042877197
-0.24031007289886475 0.5724078416824341 -0.5503876209259033
-0.24031007289886475 0.5738861560821533 -0.5348837375640869
-0.24031007289886475 0.5753253698348999 -0.5193798542022705
-0.24031007289886475 0.5761523246765137 -0.5038759708404541
-0.24031007289886475 0.5766952037811279 -0.4883720874786377
-0.24031007289886475 0.5767679214477539 -0.4728682041168213
-0.24031007289886475 0.576229989528656 -0.4573643207550049
-0.24031007289886475 0.5746702551841736 -0.4418604373931885
-0.24031007289886475 0.5709606409072876 -0.42635664343833923
-0.24031007289886475 0.5659229159355164 -0.41085273027420044
-0.22480618953704834 -0.5669682621955872 -0.643410861492157
-0.22480618953704834 -0.5698846578598022 -0.6279069781303406
-0.22480618953704834 -0.5729677677154541 -0.6124030947685242
-0.22480618953704834 -0.5753232836723328 -0.5968992114067078
-0.22480618953704834 -0.5770953893661499 -0.5813953876495361
-0.22480618953704834 -0.5783303380012512 -0.5658915042877197
-0.22480618953704834 -0.579425573348999 -0.5503876209259033
-0.22480618953704834 -0.5803943276405334 -0.5348837375640869
-0.22480618953704834 -0.5807945728302002 -0.5193798542022705
-0.22480618953704834 -0.5800837278366089 -0.5038759708404541
-0.22480618953704834 -0.5786258578300476 -0.4883720874786377
-0.22480618953704834 -0.5766975283622742 -0.4728682041168213
-0.22480618953704834 -0.5742813348770142 -0.4573643207550049
-0.22480618953704834 -0.5693496465682983 -0.4418604373931885
-0.22480618953704834 -0.5520898103713989 -0.7054263353347778
-0.22480618953704834 -0.5569489002227783 -0.6899224519729614
-0.22480618953704834 -0.5613094568252563 -0.674418568611145
-0.22480618953704834 -0.5637083053588867 -0.6589146852493286
-0.22480618953704834 -0.5647087097167969 -0.42635661363601685
-0.22480618953704834 -0.5591099262237549 -0.41085273027420044
-0.22480618953704834 -0.5524328351020813 -0.39534884691238403
-0.22480618953704834 -0.5354647636413574 -0.7674418687820435
-0.22480618953704834 -0.5391963720321655 -0.751937985420227
-0.22480618953704834 -0.5444824695587158 -0.7364341020584106
-0.22480618953704834 -0.5482417345046997 -0.7209302186965942
-0.22480618953704834 -0.5449487566947937 -0.3798449635505676
-0.22480618953704834 -0.5371448397636414 -0.3643410801887512
-0.22480618953704834 -0.5241951942443848 -0.8139535188674927
-0.22480618953704834 -0.5296969413757324 -0.7984496355056763
-0.22480618953704834 -0.5322237014770508 -0.7829457521438599
-0.22480618953704834 -0.528337836265564 -0.3488371968269348
-0.22480618953704834 -0.5202486515045166 -0.3333333134651184
-0.22480617463588715 -0.5161536931991577 -0.8294573426246643
-0.22480618953704834 -0.5116347074508667 -0.317829430103302
-0.22480618953704834 -0.5045945048332214 -0.30232560634613037
-0.22480617463588715 -0.5027731657028198 -0.8449612259864807
-0.22480618953704834 -0.4972348213195801 -0.28682172298431396
-0.22480618953704834 -0.4904834032058716 -0.27131783962249756
-0.22480618953704834 -0.4728902578353882 -0.8759689927101135
-0.22480618953704834 -0.4881744682788849 -0.8604650497436523
-0.22480618953704834 -0.48215237259864807 -0.25581395626068115
-0.22480618953704834 -0.47311466932296753 -0.24031007289886475
-0.22480618953704834 -0.460358589887619 -0.22480618953704834
-0.22480618953704834 -0.456574022769928 -0.8914728760719299
-0.22480618953704834 -0.4444805979728699 -0.20930230617523193
-0.22480618953704834 -0.43564558029174805 -0.9069766998291016
-0.22480618953704834 -0.41091153025627136 -0.9224806427955627
-0.22480618953704834 -0.42563316226005554 -0.19379842281341553
-0.22480618953704834 -0.40199601650238037 -0.1782945990562439
-0.22480617463588715 -0.37882959842681885 -0.9379844069480896
-0.22480618953704834 -0.36657971143722534 -0.1627907156944275
-0.22480618953704834 -0.3354787230491638 -0.9534883499145508
-0.22480618953704834 -0.29592594504356384 -0.14728683233261108
-0.22480618953704834 -0.2842823266983032 -0.9689922332763672
-0.22480618953704834 -0.2158476710319519 -0.13178294897079468
-0.22480618953704834 -0.18078696727752686 -0.9844961166381836
-0.22480618953704834 -0.13302499055862427 -0.9844961166381836
-0.22480618953704834 -0.0616074837744236 -0.11627906560897827
-0.22480618953704834 0.007011547684669495 -0.9844961166381836
-0.22480618953704834 -0.005101703107357025 -0.11627906560897827
-0.22480618953704834 0.016920113936066628 0.8449612855911255
-0.22480618953704834 0.024306906387209892 0.8449612855911255
-0.22480618953704834 0.03369886055588722 0.8604651689529419
-0.22480618953704834 0.04006006568670273 0.8604651689529419
-0.22480618953704834 0.05520520731806755 -0.9844961166381836
-0.22480618953704834 0.10283186286687851 -0.13178294897079468
-0.22480618953704834 0.23425336182117462 -0.14728683233261108
-0.22480618953704834 0.29789239168167114 -0.9689922332763672
-0.22480618953704834 0.3444368243217468 -0.1627907156944275
-0.22480618953704834 0.3608020842075348 -0.9534883499145508
-0.22480618953704834 0.3748420178890228 -0.1782945990562439
-0.22480618953704834 0.3845151364803314 -0.9379844665527344
-0.22480618953704834 0.40644341707229614 -0.9224807024002075
-0.22480618953704834 0.39883849024772644 -0.19379842281341553
-0.22480618953704834 0.42571455240249634 -0.9069767594337463
-0.22480618953704834 0.4197086989879608 -0.20930230617523193
-0.22480618953704834 0.4378640055656433 -0.22480618953704834
-0.22480620443820953 0.442449152469635 -0.8914728760719299
-0.22480618953704834 0.4535696506500244 -0.24031007289886475
-0.22480618953704834 0.4592077136039734 -0.8759689331054688
-0.22480618953704834 0.46832242608070374 -0.25581395626068115
-0.22480618953704834 0.4767870306968689 -0.8604650497436523
-0.22480618953704834 0.4824986755847931 -0.27131783962249756
-0.22480618953704834 0.49088460206985474 -0.8449612259864807
-0.22480618953704834 0.5031049251556396 -0.8294573426246643
-0.22480618953704834 0.4957506060600281 -0.28682172298431396
-0.22480618953704834 0.5127819776535034 -0.8139535188674927
-0.22480618953704834 0.5176537036895752 -0.7984496355056763
-0.22480618953704834 0.5186389684677124 -0.317829430103302
-0.22480618953704834 0.5079516172409058 -0.30232560634613037
-0.22480618953704834 0.5223008990287781 -0.7829457521438599
-0.22480618953704834 0.5281354188919067 -0.7674418687820435
-0.22480618953704834 0.5327785015106201 -0.751937985420227
-0.22480618953704834 0.5296986699104309 -0.3333333134651184
-0.22480618953704834 0.5373026132583618 -0.7364341020584106
-0.22480618953704834 0.5425653457641602 -0.7209302186965942
-0.22480618953704834 0.5471388101577759 -0.7054263353347778
-0.22480618953704834 0.550007700920105 -0.3643410801887512
-0.22480618953704834 0.5409722328186035 -0.3488371968269348
-0.22480618953704834 0.5520212650299072 -0.6899224519729614
-0.22480618953704834 0.5571862459182739 -0.674418568611145
-0.22480618953704834 0.5614438056945801 -0.6589146852493286
-0.22480618953704834 0.5658568739891052 -0.643410861492157
-0.22480618953704834 0.5596451163291931 -0.3798449635505676
-0.22480618953704834 0.5688311457633972 -0.6279069185256958
-0.22480618953704834 0.57225102186203 -0.6124030947685242
-0.22480618953704834 0.5750248432159424 -0.5968992114067078
-0.22480618953704834 0.576736569404602 -0.5813953876495361
-0.22480618953704834 0.5780683755874634 -0.5658915042877197
-0.22480618953704834 0.5794184803962708 -0.5503876209259033
-0.22480618953704834 0.5808612704277039 -0.5348837375640869
-0.22480618953704834 0.5800838470458984 -0.4418604373931885
-0.22480618953704834 0.5770494937896729 -0.42635661363601685
-0.22480618953704834 0.5736805200576782 -0.41085273027420044
-0.22480617463588715 0.5664109587669373 -0.39534881711006165
