-0.41085273027420044 0.1430971920490265 -0.8759689927101135
-0.41085273027420044 0.1909952312707901 -0.1782945990562439
-0.41085273027420044 0.20601129531860352 -0.8604651093482971
-0.41085273027420044 0.24358497560024261 -0.8449612855911255
-0.41085273027420044 0.2405587136745453 -0.19379842281341553
-0.41085273027420044 0.26841554045677185 -0.8294572830200195
-0.41085273027420044 0.28637608885765076 -0.8139535188674927
-0.41085273027420044 0.2772004008293152 -0.20930230617523193
-0.41085273027420044 0.3016187846660614 -0.7984496355056763
-0.41085273027420044 0.30181291699409485 -0.22480618953704834
-0.41085273027420044 0.3153809607028961 -0.7829457521438599
-0.41085273027420044 0.3267419934272766 -0.7674418687820435
-0.41085273027420044 0.33103787899017334 -0.25581395626068115
-0.41085273027420044 0.3183765113353729 -0.24031008780002594
-0.41085273027420044 0.33494871854782104 -0.751937985420227
-0.41085273027420044 0.34445565938949585 -0.7364341020584106
-0.41085273027420044 0.3416527509689331 -0.27131783962249756
-0.41085273027420044 0.35282179713249207 -0.720930278301239
-0.41085273027420044 0.36096516251564026 -0.7054263353347778
-0.41085273027420044 0.36296316981315613 -0.30232560634613037
-0.41085273027420044 0.3523341715335846 -0.28682172298431396
-0.41085273027420044 0.3703726530075073 -0.6899224519729614
-0.41085273027420044 0.3774445354938507 -0.674418568611145
-0.41085273027420044 0.3718656897544861 -0.317829430103302
-0.41085273027420044 0.38546469807624817 -0.6589146852493286
-0.41085273027420044 0.3913396894931793 -0.643410861492157
-0.41085273027420044 0.38933348655700684 -0.3488371968269348
-0.41085273027420044 0.38162949681282043 -0.3333333134651184
-0.41085273027420044 0.3968499004840851 -0.6279069781303406
-0.41085273027420044 0.4007681608200073 -0.6124030351638794
-0.41085273027420044 0.4037904739379883 -0.5968992114067078
-0.41085273027420044 0.4064931273460388 -0.5813953876495361
-0.41085273027420044 0.40919607877731323 -0.5658915042877197
-0.41085273027420044 0.40918537974357605 -0.39534884691238403
-0.41085273027420044 0.4033852815628052 -0.3798449635505676
-0.4108527600765228 0.39722636342048645 -0.3643410801887512
-0.41085273027420044 0.41156530380249023 -0.5503876209259033
-0.41085273027420044 0.4138110280036926 -0.5348837375640869
-0.41085273027420044 0.4158089756965637 -0.5193798542022705
-0.41085273027420044 0.41797518730163574 -0.5038759708404541
-0.41085273027420044 0.41975682973861694 -0.4883720874786377
-0.41085273027420044 0.42063724994659424 -0.4728682041168213
-0.41085273027420044 0.42058032751083374 -0.4573643207550049
-0.41085273027420044 0.41947096586227417 -0.4418604373931885
-0.41085273027420044 0.41697460412979126 -0.42635661363601685
-0.41085273027420044 0.41314736008644104 -0.41085273027420044
-0.39534884691238403 -0.4132153391838074 -0.5658915042877197
-0.39534884691238403 -0.4163506031036377 -0.5503876209259033
-0.39534884691238403 -0.4192947745323181 -0.5348837375640869
-0.39534884691238403 -0.42118895053863525 -0.5193798542022705
-0.39534884691238403 -0.42216262221336365 -0.5038759708404541
-0.39534884691238403 -0.42310839891433716 -0.4883720874786377
-0.39534881711006165 -0.4236804246902466 -0.4728682041168213
-0.39534881711006165 -0.423065185546875 -0.4573643207550049
-0.39534884691238403 -0.42130404710769653 -0.4418604373931885
-0.39534884691238403 -0.4186599552631378 -0.42635661363601685
-0.39534884691238403 -0.41415461897850037 -0.41085273027420044
-0.39534884691238403 -0.3961124122142792 -0.643410861492157
-0.39534884691238403 -0.40034931898117065 -0.6279069781303406
-0.39534884691238403 -0.4040982127189636 -0.6124030947685242
-0.39534884691238403 -0.40700554847717285 -0.5968992114067078
-0.39534884691238403 -0.41034799814224243 -0.5813953876495361
-0.39534881711006165 -0.40947943925857544 -0.39534881711006165
-0.39534884691238403 -0.40384358167648315 -0.3798449635505676
-0.39534884691238403 -0.39766639471054077 -0.3643410801887512
-0.39534884691238403 -0.3800102472305298 -0.6899224519729614
-0.39534884691238403 -0.38680869340896606 -0.674418568611145
-0.39534884691238403 -0.391329824924469 -0.6589146852493286
-0.39534884691238403 -0.3913901746273041 -0.3488371670246124
-0.39534884691238403 -0.38453173637390137 -0.3333333134651184
-0.39534884691238403 -0.3732801675796509 -0.7054263353347778
-0.39534884691238403 -0.3789025545120239 -0.317829430103302
-0.39534884691238403 -0.370613157749176 -0.30232560634613037
-0.39534884691238403 -0.36460521817207336 -0.28682172298431396
-0.39534884691238403 -0.3541405498981476 -0.7364341020584106
-0.39534884691238403 -0.3636379539966583 -0.7209302186965942
-0.39534884691238403 -0.35427969694137573 -0.27131783962249756
-0.39534884691238403 -0.34309855103492737 -0.751937985420227
-0.39534884691238403 -0.34465038776397705 -0.25581395626068115
-0.39534884691238403 -0.3305349349975586 -0.7674418687820435
-0.39534881711006165 -0.3317549228668213 -0.24031005799770355
-0.39534884691238403 -0.3048793375492096 -0.7984496355056763
-0.39534884691238403 -0.31754568219184875 -0.7829457521438599
-0.39534884691238403 -0.3133094310760498 -0.22480618953704834
-0.39534884691238403 -0.29046517610549927 -0.8139535188674927
-0.39534884691238403 -0.2871742248535156 -0.20930230617523193
-0.39534884691238403 -0.27192190289497375 -0.8294574022293091
-0.39534884691238403 -0.24777469038963318 -0.8449612259864807
-0.39534884691238403 -0.24996836483478546 -0.19379842281341553
-0.39534884691238403 -0.2140396237373352 -0.8604651689529419
-0.39534884691238403 -0.1938842236995697 -0.1782945990562439
-0.39534884691238403 -0.1798921525478363 -0.8759689927101135
-0.39534884691238403 -0.14083056151866913 -0.8914728164672852
-0.39534884691238403 -0.08357137441635132 -0.9069767594337463
-0.39534884691238403 -0.04612795636057854 -0.1627907156944275
-0.39534884691238403 0.02056400664150715 -0.9069767594337463
-0.3953488767147064 0.12113596498966217 -0.8914729356765747
-0.39534884691238403 0.12707389891147614 -0.1627907156944275
-0.39534884691238403 0.18250031769275665 -0.8759689927101135
-0.39534884691238403 0.22053435444831848 -0.1782945990562439
-0.39534884691238403 0.23276014626026154 -0.8604651093482971
-0.39534884691238403 0.26279622316360474 -0.8449612855911255
-0.39534884691238403 0.2673047184944153 -0.19379842281341553
-0.39534884691238403 0.2854083180427551 -0.8294573426246643
-0.39534884691238403 0.2978092432022095 -0.20930230617523193
-0.39534884691238403 0.3024267256259918 -0.8139535784721375
-0.39534884691238403 0.3177538514137268 -0.7984496355056763
-0.39534884691238403 0.3316204845905304 -0.7829457521438599
-0.39534884691238403 0.3185763955116272 -0.22480618953704834
-0.39534884691238403 0.34333938360214233 -0.7674418687820435
-0.39534884691238403 0.34669315814971924 -0.25581395626068115
-0.3953488767147064 0.3343803286552429 -0.24031007289886475
-0.39534884691238403 0.35163092613220215 -0.751937985420227
-0.39534884691238403 0.36086100339889526 -0.7364341020584106
-0.39534884691238403 0.3574169874191284 -0.27131783962249756
-0.39534884691238403 0.3692180812358856 -0.7209302186965942
-0.39534884691238403 0.37710341811180115 -0.7054263353347778
-0.39534884691238403 0.37888437509536743 -0.30232560634613037
-0.39534884691238403 0.36829811334609985 -0.28682172298431396
-0.39534884691238403 0.38621950149536133 -0.6899224519729614
-0.39534884691238403 0.3932245075702667 -0.674418568611145
-0.39534884691238403 0.3877764344215393 -0.317829430103302
-0.39534884691238403 0.40078315138816833 -0.6589146852493286
-0.39534884691238403 0.4064883589744568 -0.643410861492157
-0.39534884691238403 0.4108082056045532 -0.3643410801887512
-0.39534884691238403 0.4039934277534485 -0.3488371968269348
-0.39534884691238403 0.3966379761695862 -0.3333333134651184
-0.39534884691238403 0.4113237261772156 -0.6279069781303406
-0.39534884691238403 0.41441431641578674 -0.6124030947685242
-0.39534884691238403 0.4172297716140747 -0.5968992114067078
-0.39534884691238403 0.4197272062301636 -0.5813953876495361
-0.39534884691238403 0.42168301343917847 -0.5658915042877197
-0.39534884691238403 0.4234643578529358 -0.5503876209259033
-0.39534884691238403 0.4261569082736969 -0.5348837375640869
-0.39534884691238403 0.4253339171409607 -0.41085273027420044
-0.39534884691238403 0.4214569330215454 -0.39534884691238403
-0.3953488767147064 0.416423499584198 -0.3798449635505676
-0.39534884691238403 0.427590012550354 -0.5193798542022705
-0.39534884691238403 0.42927777767181396 -0.5038759708404541
-0.39534884691238403 0.4307810962200165 -0.4883720874786377
-0.39534881711006165 0.4316311180591583 -0.4728682041168213
-0.39534884691238403 0.4315028488636017 -0.4573643207550049
-0.39534884691238403 0.4303366243839264 -0.4418604373931885
-0.39534884691238403 0.4281376898288727 -0.42635661363601685
-0.3798449635505676 -0.42695602774620056 -0.5503876209259033
-0.3798449635505676 -0.42935723066329956 -0.5348837375640869
-0.3798449635505676 -0.43213123083114624 -0.5193798542022705
-0.3798449635505676 -0.43405967950820923 -0.5038759708404541
-0.3798449635505676 -0.43532079458236694 -0.4883720874786377
-0.3798449635505676 -0.435782253742218 -0.4728682041168213
-0.3798449635505676 -0.435258150100708 -0.4573643207550049
-0.3798449635505676 -0.43331974744796753 -0.4418604373931885
-0.3798449635505676 -0.42989879846572876 -0.42635661363601685
-0.3798449635505676 -0.4118775725364685 -0.6279069781303406
-0.3798449635505676 -0.4149686396121979 -0.6124030947685242
-0.3798449635505676 -0.4189150333404541 -0.5968992114067078
-0.3798449635505676 -0.4218428134918213 -0.5813953876495361
-0.3798449635505676 -0.4241528809070587 -0.5658915042877197
-0.3798449635505676 -0.42613327503204346 -0.41085273027420044
-0.3798449635505676 -0.420585960149765 -0.39534884691238403
-0.3798449635505676 -0.41506245732307434 -0.3798449635505676
-0.3798449635505676 -0.39907732605934143 -0.674418568611145
-0.3798449635505676 -0.4043094515800476 -0.6589146852493286
-0.3798449635505676 -0.407848596572876 -0.643410861492157
-0.3798449635505676 -0.4091026782989502 -0.36434105038642883
-0.3798449635505676 -0.4021785259246826 -0.3488371968269348
-0.3798449635505676 -0.39636948704719543 -0.3333333134651184
-0.3798449635505676 -0.38121217489242554 -0.7209302186965942
-0.3798449635505676 -0.3886716365814209 -0.7054263353347778
-0.3798449635505676 -0.3939047157764435 -0.6899224519729614
-0.3798449635505676 -0.38838061690330505 -0.317829430103302
-0.3798449635505676 -0.38237810134887695 -0.30232560634613037
-0.3798449635505676 -0.36436623334884644 -0.751937985420227
-0.3798449635505676 -0.37468260526657104 -0.7364341020584106
-0.3798449635505676 -0.37512969970703125 -0.28682172298431396
-0.3798449635505676 -0.367291659116745 -0.27131783962249756
-0.3798449635505676 -0.3524501323699951 -0.7674418687820435
-0.3798449635505676 -0.3578733801841736 -0.25581395626068115
-0.3798449635505676 -0.3392084836959839 -0.7829457521438599
-0.37984493374824524 -0.3464568257331848 -0.24031007289886475
-0.3798449635505676 -0.3246321678161621 -0.7984496355056763
-0.3798449635505676 -0.32894575595855713 -0.22480618953704834
-0.3798449635505676 -0.30898839235305786 -0.8139535188674927
-0.3798449635505676 -0.3046990633010864 -0.20930230617523193
-0.3798449635505676 -0.2897585332393646 -0.8294573426246643
-0.3798449635505676 -0.2695818543434143 -0.8449612259864807
-0.3798449635505676 -0.26798537373542786 -0.19379842281341553
-0.3798449635505676 -0.24036143720149994 -0.8604651093482971
-0.3798449635505676 -0.217335045337677 -0.1782945990562439
-0.37984493374824524 -0.2087288349866867 -0.8759689927101135
-0.3798449635505676 -0.17675839364528656 -0.8914728760719299
-0.3798449635505676 -0.13597039878368378 -0.9069767594337463
-0.3798449635505676 -0.0900796502828598 -0.1627907156944275
-0.3798449635505676 -0.06105823069810867 -0.9224807024002075
-0.3798449635505676 0.002021191641688347 -0.9224806427955627
-0.3798449635505676 0.08564122766256332 -0.9069767594337463
-0.3798449635505676 0.16734129190444946 -0.8914728164672852
-0.3798449635505676 0.1768130511045456 -0.1627907156944275
-0.3798449635505676 0.21951480209827423 -0.8759690523147583
-0.3798449635505676 0.24620582163333893 -0.1782945990562439
-0.3798449635505676 0.2558218836784363 -0.8604651093482971
-0.3798449635505676 0.2822032868862152 -0.8449612259864807
-0.3798449635505676 0.3017421364784241 -0.8294573426246643
-0.3798449635505676 0.2895757257938385 -0.19379840791225433
-0.3798449635505676 0.3162538409233093 -0.20930230617523193
-0.3798449635505676 0.3186640441417694 -0.8139535188674927
-0.3798449635505676 0.3339349627494812 -0.7984496355056763
-0.3798449635505676 0.34777235984802246 -0.7829457521438599
-0.3798449635505676 0.33565962314605713 -0.22480618953704834
-0.3798449635505676 0.35952746868133545 -0.7674418687820435
-0.3798449635505676 0.36300742626190186 -0.25581395626068115
-0.3798449635505676 0.35080230236053467 -0.24031007289886475
-0.3798449635505676 0.36746954917907715 -0.751937985420227
-0.3798449635505676 0.376569539308548 -0.7364341020584106
-0.3798449635505676 0.3737305700778961 -0.27131783962249756
-0.37984493374824524 0.3845348358154297 -0.7209302186965942
-0.3798449635505676 0.3925427198410034 -0.7054263353347778
-0.3798449635505676 0.39441582560539246 -0.30232560634613037
-0.3798449635505676 0.38439905643463135 -0.28682172298431396
-0.3798449635505676 0.4011457562446594 -0.6899224519729614
-0.3798449635505676 0.40814316272735596 -0.674418568611145
-0.3798449635505676 0.4106561541557312 -0.3333333134651184
-0.3798449635505676 0.402884304523468 -0.317829430103302
-0.3798449635505676 0.41490980982780457 -0.6589146852493286
-0.3798449635505676 0.42044830322265625 -0.643410861492157
-0.3798449635505676 0.4241304397583008 -0.6279069781303406
-0.3798449635505676 0.4231819808483124 -0.3643410801887512
-0.3798449635505676 0.417392373085022 -0.3488371968269348
-0.3798449635505676 0.4274323284626007 -0.6124030947685242
-0.3798449635505676 0.4296010732650757 -0.5968992114067078
-0.3798449635505676 0.4318557679653168 -0.5813953876495361
-0.3798449635505676 0.43393364548683167 -0.5658915042877197
-0.3798449635505676 0.43557268381118774 -0.5503876209259033
-0.3798449635505676 0.43711182475090027 -0.5348837375640869
-0.3798449635505676 0.43854549527168274 -0.5193798542022705
-0.3798449635505676 0.44063445925712585 -0.5038759708404541
-0.3798449635505676 0.44156941771507263 -0.4418604373931885
-0.3798449635505676 0.4397839903831482 -0.42635661363601685
-0.3798449635505676 0.43710213899612427 -0.41085273027420044
-0.3798449635505676 0.4337579905986786 -0.39534884691238403
-0.3798449635505676 0.42820942401885986 -0.3798449635505676
-0.3798449635505676 0.44195836782455444 -0.4883720874786377
-0.3798449635505676 0.44238513708114624 -0.4728682041168213
-0.37984499335289 0.4422775208950043 -0.45736435055732727
-0.3643410801887512 -0.4423781931400299 -0.5193798542022705
-0.3643410801887512 -0.44391608238220215 -0.5038759708404541
-0.3643410801887512 -0.4454173445701599 -0.4883720874786377
-0.3643410801887512 -0.44618088006973267 -0.4728682041168213
-0.3643410801887512 -0.4455980062484741 -0.4573643207550049
-0.3643410801887512 -0.4436691701412201 -0.4418604373931885
-0.3643410801887512 -0.428581178188324 -0.5968992114067078
-0.3643410801887512 -0.4323073923587799 -0.5813953876495361
-0.3643410801887512 -0.4357984662055969 -0.5658915042877197
-0.3643410801887512 -0.4378776550292969 -0.5503876209259033
-0.3643410801887512 -0.44005993008613586 -0.5348837375640869
-0.3643410801887512 -0.44105908274650574 -0.42635664343833923
-0.3643410801887512 -0.4365050196647644 -0.41085273027420044
-0.3643410801887512 -0.43133190274238586 -0.39534884691238403
-0.3643410801887512 -0.41424041986465454 -0.6589146852493286
-0.3643410801887512 -0.41935211420059204 -0.643410861492157
-0.3643410801887512 -0.4224603474140167 -0.6279069781303406
-0.3643410801887512 -0.4255276918411255 -0.6124030947685242
-0.3643410801887512 -0.4261689782142639 -0.37984499335289
-0.3643410801887512 -0.4187926650047302 -0.3643410801887512
-0.3643410801887512 -0.4124753773212433 -0.3488371968269348
-0.3643410801887512 -0.39797571301460266 -0.7054263353347778
-0.3643410801887512 -0.40474995970726013 -0.6899224519729614
-0.3643410801887512 -0.4096119999885559 -0.674418568611145
-0.3643410801887512 -0.40482160449028015 -0.3333333134651184
-0.3643410801887512 -0.39813125133514404 -0.317829430103302
-0.3643410801887512 -0.3853309750556946 -0.7364341020584106
-0.3643410801887512 -0.39248573780059814 -0.7209302186965942
-0.3643410801887512 -0.3917687237262726 -0.30232560634613037
-0.3643410801887512 -0.3843608498573303 -0.28682172298431396
-0.3643410801887512 -0.3680955469608307 -0.7674418687820435
-0.3643410801887512 -0.3783721625804901 -0.751937985420227
-0.3643410801887512 -0.37846583127975464 -0.27131783962249756
-0.3643410801887512 -0.36875292658805847 -0.25581395626068115
-0.3643410801887512 -0.3576860725879669 -0.7829457521438599
-0.3643410801887512 -0.35771089792251587 -0.24031007289886475
-0.3643410801887512 -0.3431934714317322 -0.7984496355056763
-0.3643410801887512 -0.342252254486084 -0.22480618953704834
-0.3643410801887512 -0.3272551894187927 -0.8139535188674927
-0.3643410801887512 -0.3199348449707031 -0.20930230617523193
-0.3643410801887512 -0.30916494131088257 -0.8294573426246643
-0.3643410801887512 -0.2878706455230713 -0.8449612259864807
-0.3643410801887512 -0.286327600479126 -0.19379842281341553
-0.3643410801887512 -0.2656559348106384 -0.8604651093482971
-0.3643410801887512 -0.24069471657276154 -0.1782945990562439
-0.3643410801887512 -0.2373725175857544 -0.8759689927101135
-0.3643411099910736 -0.20867131650447845 -0.8914729356765747
-0.3643410801887512 -0.17572209239006042 -0.9069767594337463
-0.3643410801887512 -0.1327052116394043 -0.9224806427955627
-0.3643410801887512 -0.1265479177236557 -0.1627907156944275
-0.3643410801887512 0.046015530824661255 -0.9224807024002075
-0.3643410801887512 0.15495482087135315 -0.9069767594337463
-0.3643410801887512 0.2051403522491455 -0.1627907156944275
-0.3643410801887512 0.21158131957054138 -0.8914728760719299
-0.3643410801887512 0.2482156753540039 -0.8759689927101135
-0.3643410801887512 0.26902106404304504 -0.1782945990562439
-0.3643410801887512 0.27336758375167847 -0.8604651689529419
-0.3643410801887512 0.29979246854782104 -0.8449612259864807
-0.3643410801887512 0.317787230014801 -0.8294573426246643
-0.3643410801887512 0.30708667635917664 -0.19379842281341553
-0.3643410801887512 0.33269616961479187 -0.20930230617523193
-0.3643411099910736 0.33531123399734497 -0.8139535188674927
-0.3643410801887512 0.35061943531036377 -0.7984496355056763
-0.3643410801887512 0.3637080490589142 -0.7829457521438599
-0.3643410801887512 0.35136678814888 -0.22480618953704834
-0.3643410801887512 0.3750349283218384 -0.7674418687820435
-0.3643410801887512 0.37859031558036804 -0.25581395626068115
-0.3643410801887512 0.3663608729839325 -0.24031007289886475
-0.3643410801887512 0.3822113871574402 -0.751937985420227
-0.3643410801887512 0.39138033986091614 -0.7364341020584106
-0.3643410801887512 0.38928738236427307 -0.27131783962249756
-0.3643410801887512 0.3985916078090668 -0.7209302186965942
-0.3643410801887512 0.40696191787719727 -0.7054263353347778
-0.3643410801887512 0.4086131751537323 -0.30232560634613037
-0.3643410801887512 0.3995940387248993 -0.28682172298431396
-0.3643410801887512 0.4146055281162262 -0.6899224519729614
-0.3643410801887512 0.421803742647171 -0.674418568611145
-0.3643410801887512 0.4234435558319092 -0.3333333134651184
-0.3643410801887512 0.41660624742507935 -0.317829430103302
-0.3643410801887512 0.4277195334434509 -0.6589146852493286
-0.3643410801887512 0.43275463581085205 -0.643410861492157
-0.3643410801887512 0.4363386034965515 -0.6279069781303406
-0.3643410801887512 0.4385685324668884 -0.6124030947685242
-0.3643410801887512 0.4415048360824585 -0.5968992114067078
-0.3643410801887512 0.44003793597221375 -0.3798449635505676
-0.3643410801887512 0.43545523285865784 -0.3643410801887512
-0.3643410801887512 0.42940300703048706 -0.3488371968269348
-0.3643410801887512 0.44335031509399414 -0.5813953876495361
-0.3643410801887512 0.4449303448200226 -0.5658915042877197
-0.3643410801887512 0.4465005397796631 -0.5503876209259033
-0.3643410801887512 0.4483506679534912 -0.5348837375640869
-0.3643410801887512 0.45000138878822327 -0.5193798542022705
-0.3643410801887512 0.45164620876312256 -0.5038759708404541
-0.3643410801887512 0.45283806324005127 -0.4883720874786377
-0.3643410801887512 0.4535699486732483 -0.4728682041168213
-0.3643410801887512 0.4536557197570801 -0.4573643207550049
-0.3643410801887512 0.45308607816696167 -0.4418604373931885
-0.3643410801887512 0.45177340507507324 -0.42635661363601685
-0.3643410801887512 0.44878602027893066 -0.41085273027420044
-0.3643410801887512 0.4440956115722656 -0.39534884691238403
-0.3488371968269348 -0.4574214220046997 -0.4728682041168213
-0.3488371968269348 -0.4430050849914551 -0.5813953876495361
-0.3488371968269348 -0.4461158514022827 -0.5658915042877197
-0.3488371968269348 -0.4495633840560913 -0.5503876209259033
-0.3488371968269348 -0.45211970806121826 -0.5348837375640869
-0.3488371968269348 -0.45365121960639954 -0.5193798542022705
-0.3488371968269348 -0.4552294909954071 -0.5038759708404541
-0.3488371968269348 -0.45678457617759705 -0.4883720576763153
-0.3488371968269348 -0.45690053701400757 -0.4573643207550049
-0.3488371968269348 -0.4548710584640503 -0.4418604373931885
-0.3488371968269348 -0.45189809799194336 -0.42635661363601685
-0.3488371968269348 -0.4475625157356262 -0.41085273027420044
-0.3488371968269348 -0.44232887029647827 -0.39534884691238403
-0.3488371968269348 -0.4295560419559479 -0.643410861492157
-0.3488371968269348 -0.4339579641819 -0.6279069781303406
-0.3488371968269348 -0.43702232837677 -0.612403154373169
-0.3488371968269348 -0.43967053294181824 -0.5968992114067078
-0.3488371968269348 -0.43599483370780945 -0.3798449635505676
-0.3488371968269348 -0.429027795791626 -0.3643410801887512
-0.3488371968269348 -0.41495394706726074 -0.6899224519729614
-0.3488371968269348 -0.4211176931858063 -0.674418568611145
-0.3488371968269348 -0.42524266242980957 -0.6589146852493286
-0.3488371968269348 -0.4221610426902771 -0.3488371968269348
-0.3488371968269348 -0.41488558053970337 -0.3333333134651184
-0.3488371968269348 -0.3956240713596344 -0.7364341020584106
-0.3488371968269348 -0.4027164876461029 -0.7209302186965942
-0.3488371968269348 -0.4090673327445984 -0.7054263353347778
-0.3488371968269348 -0.4082053601741791 -0.317829430103302
-0.3488371968269348 -0.40083107352256775 -0.30232560634613037
-0.3488371968269348 -0.39577627182006836 -0.28682172298431396
-0.3488371968269348 -0.37990790605545044 -0.7674418687820435
-0.3488371968269348 -0.38880258798599243 -0.751937985420227
-0.3488371968269348 -0.38725483417510986 -0.27131783962249756
-0.3488371968269348 -0.3805369734764099 -0.25581395626068115
-0.3488371968269348 -0.36997875571250916 -0.7829457521438599
-0.3488371968269348 -0.368880033493042 -0.24031007289886475
-0.3488371968269348 -0.3587351441383362 -0.7984496355056763
-0.3488371968269348 -0.3542163372039795 -0.22480618953704834
-0.3488371968269348 -0.34416618943214417 -0.8139535784721375
-0.3488371968269348 -0.33392196893692017 -0.20930230617523193
-0.3488371968269348 -0.3276360332965851 -0.8294573426246643
-0.3488371968269348 -0.30777013301849365 -0.8449612259864807
-0.3488371968269348 -0.30337947607040405 -0.19379842281341553
-0.3488371968269348 -0.2864570915699005 -0.8604651093482971
-0.3488371968269348 -0.2625714838504791 -0.8759689927101135
-0.3488371968269348 -0.2619200348854065 -0.1782945990562439
-0.3488371968269348 -0.23749087750911713 -0.8914728760719299
-0.3488371968269348 -0.20917807519435883 -0.9069768190383911
-0.3488371968269348 -0.1833680421113968 -0.1627907156944275
-0.3488371968269348 -0.17311257123947144 -0.9224806427955627
-0.3488371968269348 -0.1262284517288208 -0.9379844069480896
-0.3488371968269348 0.022816788405179977 -0.14728683233261108
-0.3488371968269348 0.030415214598178864 -0.9379844665527344
-0.3488371968269348 0.12552738189697266 -0.14728683233261108
-0.3488371968269348 0.13787396252155304 -0.9224806427955627
-0.3488371968269348 0.20535726845264435 -0.9069767594337463
-0.3488371968269348 0.22924117743968964 -0.1627907156944275
-0.3488371968269348 0.24546054005622864 -0.8914728164672852
-0.3488372266292572 0.2714880406856537 -0.8759689927101135
-0.3488371968269348 0.29200613498687744 -0.8604650497436523
-0.3488371968269348 0.28723010420799255 -0.1782945841550827
-0.3488371968269348 0.3164922893047333 -0.8449612259864807
-0.3488371968269348 0.32084351778030396 -0.19379842281341553
-0.3488371968269348 0.33449307084083557 -0.8294573426246643
-0.3488371968269348 0.34587109088897705 -0.20930230617523193
-0.3488371968269348 0.3536868691444397 -0.8139535188674927
-0.3488371968269348 0.36757004261016846 -0.7984496355056763
-0.3488371968269348 0.37931522727012634 -0.7829457521438599
-0.3488371968269348 0.3797597885131836 -0.24031007289886475
-0.3488371968269348 0.364824503660202 -0.22480617463588715
-0.3488371968269348 0.3900411128997803 -0.7674418687820435
-0.3488371968269348 0.3922228217124939 -0.25581395626068115
-0.3488371968269348 0.39652109146118164 -0.751937985420227
-0.3488371968269348 0.40545302629470825 -0.7364341020584106
-0.3488371968269348 0.4031461179256439 -0.27131783962249756
-0.3488371968269348 0.41206419467926025 -0.7209302186965942
-0.3488371968269348 0.42048877477645874 -0.7054263353347778
-0.3488371968269348 0.4209601879119873 -0.30232560634613037
-0.3488371968269348 0.4127284586429596 -0.28682172298431396
-0.3488371968269348 0.42736566066741943 -0.6899224519729614
-0.3488371968269348 0.4343618154525757 -0.674418568611145
-0.3488371968269348 0.43910670280456543 -0.6589146852493286
-0.3488371968269348 0.44062867760658264 -0.3488371968269348
-0.3488371968269348 0.43526774644851685 -0.3333333134651184
-0.3488371968269348 0.4285103380680084 -0.3178294003009796
-0.3488371968269348 0.44395068287849426 -0.643410861492157
-0.3488371968269348 0.4474579691886902 -0.6279069185256958
-0.3488371968269348 0.4503360390663147 -0.6124030947685242
-0.3488371968269348 0.4524487555027008 -0.5968992114067078
-0.3488371968269348 0.45420050621032715 -0.5813953876495361
-0.3488371968269348 0.4562544822692871 -0.5658915042877197
-0.3488371968269348 0.4553510546684265 -0.39534884691238403
-0.3488371968269348 0.4515928626060486 -0.3798449635505676
-0.3488371968269348 0.44606709480285645 -0.3643410801887512
-0.3488371968269348 0.45783352851867676 -0.5503876209259033
-0.3488371968269348 0.4590764343738556 -0.5348837375640869
-0.3488371968269348 0.46031633019447327 -0.5193798542022705
-0.3488371968269348 0.4621075689792633 -0.5038759708404541
-0.3488371968269348 0.4639066457748413 -0.4883720874786377
-0.3488371968269348 0.46505892276763916 -0.4728682041168213
-0.3488371968269348 0.46534058451652527 -0.4573643207550049
-0.3488371968269348 0.46468275785446167 -0.4418604373931885
-0.3488371968269348 0.4624479413032532 -0.42635661363601685
-0.3488371968269348 0.4586459696292877 -0.41085273027420044
-0.3333333134651184 -0.4579717516899109 -0.5658915042877197
-0.3333333134651184 -0.46050986647605896 -0.5503876209259033
-0.3333333134651184 -0.46381908655166626 -0.5348837375640869
-0.3333333134651184 -0.46641117334365845 -0.5193798542022705
-0.3333333134651184 -0.4678974151611328 -0.5038759708404541
-0.3333333134651184 -0.4688637852668762 -0.4883720874786377
-0.3333333134651184 -0.46930235624313354 -0.4728682041168213
-0.3333333134651184 -0.4687039256095886 -0.4573642909526825
-0.3333333134651184 -0.46703481674194336 -0.4418604373931885
-0.3333333134651184 -0.4637024402618408 -0.42635661363601685
-0.3333333134651184 -0.4587697386741638 -0.41085273027420044
-0.3333333134651184 -0.44463425874710083 -0.6279069781303406
-0.3333333134651184 -0.44858527183532715 -0.6124030947685242
-0.3333333134651184 -0.45219990611076355 -0.5968992114067078
-0.3333333134651184 -0.45482900738716125 -0.5813953876495361
-0.3333333134651184 -0.453255832195282 -0.39534881711006165
-0.3333333134651184 -0.44722068309783936 -0.3798449635505676
-0.3333333134651184 -0.4264748990535736 -0.6899224519729614
-0.3333333134651184 -0.43166303634643555 -0.674418568611145
-0.3333333134651184 -0.43699753284454346 -0.6589146852493286
-0.3333333134651184 -0.4410712718963623 -0.6434109210968018
-0.3333333134651184 -0.4406825006008148 -0.3643410801887512
-0.3333333134651184 -0.43290990591049194 -0.3488371968269348
-0.3333333134651184 -0.4266209602355957 -0.3333333134651184
-0.3333333134651184 -0.41358304023742676 -0.7209302186965942
-0.3333333134651184 -0.4208373725414276 -0.7054263353347778
-0.3333333134651184 -0.4178997874259949 -0.317829430103302
-0.3333333134651184 -0.4122672975063324 -0.30232560634613037
-0.3333333134651184 -0.4000699520111084 -0.751937985420227
-0.3333333134651184 -0.4078885614871979 -0.7364341020584106
-0.3333333134651184 -0.4050874710083008 -0.28682172298431396
-0.3333333134651184 -0.3988979160785675 -0.27131783962249756
-0.3333333134651184 -0.382511705160141 -0.7829457521438599
-0.3333333134651184 -0.39292585849761963 -0.7674418687820435
-0.3333333134651184 -0.3913821578025818 -0.25581395626068115
-0.3333333134651184 -0.3813267946243286 -0.24031007289886475
-0.3333333134651184 -0.3729322552680969 -0.7984496355056763
-0.3333333134651184 -0.366847962141037 -0.22480618953704834
-0.3333333134651184 -0.35982298851013184 -0.8139535188674927
-0.3333333134651184 -0.3438619375228882 -0.8294573426246643
-0.3333333134651184 -0.3475383222103119 -0.20930230617523193
-0.3333333134651184 -0.3253066837787628 -0.8449612259864807
-0.3333333134651184 -0.3194037079811096 -0.19379842281341553
-0.3333333134651184 -0.3036123812198639 -0.8604651093482971
-0.3333333134651184 -0.2845471501350403 -0.8759689927101135
-0.3333333134651184 -0.2818972170352936 -0.1782945990562439
-0.3333333134651184 -0.2599846124649048 -0.8914728164672852
-0.3333333134651184 -0.23577716946601868 -0.9069766998291016
-0.3333333134651184 -0.22696596384048462 -0.1627907156944275
-0.3333333134651184 -0.20644012093544006 -0.9224806427955627
-0.3333333134651184 -0.16381311416625977 -0.9379844665527344
-0.3333333134651184 -0.11119699478149414 -0.9534883499145508
-0.3333333134651184 -0.039853088557720184 -0.14728683233261108
-0.3333333134651184 0.007097122259438038 -0.9534883499145508
-0.3333333134651184 0.0802384465932846 -0.9379844665527344
-0.3333333134651184 0.18238767981529236 -0.14728683233261108
-0.3333333432674408 0.19383852183818817 -0.9224807024002075
-0.333333283662796 0.24244312942028046 -0.9069766998291016
-0.3333333134651184 0.25152289867401123 -0.1627907156944275
-0.3333333134651184 0.27104732394218445 -0.8914728760719299
-0.3333333134651184 0.28885722160339355 -0.8759689927101135
-0.3333333134651184 0.30002355575561523 -0.1782945990562439
-0.3333333134651184 0.3110940456390381 -0.8604651093482971
-0.3333333134651184 0.3330271542072296 -0.8449612259864807
-0.3333333134651184 0.3316355347633362 -0.19379842281341553
-0.3333333134651184 0.35318177938461304 -0.8294572830200195
-0.3333333134651184 0.3556840717792511 -0.20930230617523193
-0.3333333134651184 0.3721492886543274 -0.8139535188674927
-0.3333333134651184 0.3752446472644806 -0.22480618953704834
-0.3333333134651184 0.38412559032440186 -0.7984496355056763
-0.3333333134651184 0.3946227729320526 -0.7829457521438599
-0.3333333134651184 0.3908654451370239 -0.24031007289886475
-0.3333333134651184 0.4044675827026367 -0.7674418687820435
-0.3333333134651184 0.41056182980537415 -0.751937985420227
-0.3333333134651184 0.4038412868976593 -0.25581395626068115
-0.3333333134651184 0.41890788078308105 -0.7364341020584106
-0.3333333134651184 0.4252922832965851 -0.7209302186965942
-0.3333333134651184 0.42366352677345276 -0.28682172298431396
-0.3333333134651184 0.41473913192749023 -0.27131783962249756
-0.3333333134651184 0.4330490827560425 -0.7054263353347778
-0.3333333134651184 0.43925654888153076 -0.6899224519729614
-0.3333333134651184 0.4389326274394989 -0.317829430103302
-0.3333333134651184 0.4323629140853882 -0.30232560634613037
-0.3333333134651184 0.4455614387989044 -0.674418568611145
-0.3333333134651184 0.451236367225647 -0.6589146852493286
-0.3333333134651184 0.4548279047012329 -0.643410861492157
-0.3333333134651184 0.456291139125824 -0.3643410801887512
-0.3333333134651184 0.451546311378479 -0.3488371968269348
-0.3333333134651184 0.4454610347747803 -0.3333333134651184
-0.3333333134651184 0.45828261971473694 -0.6279069185256958
-0.3333333134651184 0.4606279134750366 -0.6124030947685242
-0.3333333134651184 0.46333909034729004 -0.5968992114067078
-0.3333333134651184 0.4657137393951416 -0.5813953876495361
-0.3333333134651184 0.4674198031425476 -0.5658915042877197
-0.3333333134651184 0.4686439633369446 -0.5503876209259033
-0.3333333134651184 0.47000354528427124 -0.5348837375640869
-0.3333333134651184 0.4714789092540741 -0.5193798542022705
-0.3333333134651184 0.47272297739982605 -0.42635661363601685
-0.3333333134651184 0.4698858857154846 -0.41085273027420044
-0.3333333134651184 0.4668229818344116 -0.39534884691238403
-0.3333333134651184 0.4616090953350067 -0.3798449635505676
-0.3333333134651184 0.4729621410369873 -0.5038759708404541
-0.3333333134651184 0.4740263819694519 -0.4883720874786377
-0.3333333134651184 0.47493839263916016 -0.4728682041168213
-0.333333283662796 0.47528988122940063 -0.4573643207550049
-0.3333333134651184 0.47458311915397644 -0.4418604373931885
-0.317829430103302 -0.4733956754207611 -0.5503876209259033
-0.317829430103302 -0.4758875370025635 -0.5348837375640869
-0.317829430103302 -0.47866290807724 -0.5193798542022705
-0.317829430103302 -0.48078909516334534 -0.5038759708404541
-0.317829430103302 -0.4822049140930176 -0.4883720874786377
-0.317829430103302 -0.48258155584335327 -0.4728682041168213
-0.317829430103302 -0.48189282417297363 -0.4573643207550049
-0.317829430103302 -0.47963452339172363 -0.4418604373931885
-0.317829430103302 -0.4757641851902008 -0.42635661363601685
-0.317829430103302 -0.46029311418533325 -0.6124030947685242
-0.317829430103302 -0.4645542502403259 -0.5968992114067078
-0.317829430103302 -0.4682007431983948 -0.5813953876495361
-0.317829430103302 -0.4706522822380066 -0.5658915042877197
-0.317829430103302 -0.47154515981674194 -0.41085273027420044
-0.317829430103302 -0.4657770097255707 -0.39534884691238403
-0.317829430103302 -0.4592278003692627 -0.3798449635505676
-0.317829430103302 -0.4431700110435486 -0.674418568611145
-0.317829430103302 -0.44832056760787964 -0.6589146852493286
-0.317829430103302 -0.4532923698425293 -0.643410861492157
-0.317829430103302 -0.45705920457839966 -0.6279069781303406
-0.317829430103302 -0.45185333490371704 -0.3643410801887512
-0.317829430103302 -0.4447545111179352 -0.3488371968269348
-0.317829430103302 -0.43165743350982666 -0.7054263353347778
-0.317829430103302 -0.4383602738380432 -0.6899224519729614
-0.317829430103302 -0.437363862991333 -0.3333333134651184
-0.317829430103302 -0.42980632185935974 -0.317829430103302
-0.317829430103302 -0.41195353865623474 -0.751937985420227
-0.317829430103302 -0.4200761914253235 -0.7364341020584106
-0.317829430103302 -0.4255828857421875 -0.7209302186965942
-0.317829430103302 -0.42380088567733765 -0.30232560634613037
-0.317829430103302 -0.4169967472553253 -0.28682172298431396
-0.317829430103302 -0.41169366240501404 -0.27131783962249756
-0.317829430103302 -0.3960829973220825 -0.7829457521438599
-0.317829430103302 -0.406156063079834 -0.7674418687820435
-0.317829430103302 -0.4033278822898865 -0.25581395626068115
-0.317829430103302 -0.38711729645729065 -0.7984496355056763
-0.317829430103302 -0.39427152276039124 -0.24031007289886475
-0.317829430103302 -0.38029205799102783 -0.22480618953704834
-0.317829430103302 -0.3749566078186035 -0.8139535188674927
-0.317829430103302 -0.3590761125087738 -0.8294572830200195
-0.317829430103302 -0.3611728250980377 -0.20930230617523193
-0.317829430103302 -0.34013989567756653 -0.8449612259864807
-0.317829430103302 -0.3352885842323303 -0.19379842281341553
-0.317829430103302 -0.3193114697933197 -0.8604651093482971
-0.3178294599056244 -0.3011387586593628 -0.8759689927101135
-0.317829430103302 -0.3005114793777466 -0.1782945841550827
-0.317829430103302 -0.28148090839385986 -0.8914728760719299
-0.317829430103302 -0.25574323534965515 -0.9069767594337463
-0.317829430103302 -0.25058236718177795 -0.1627907156944275
-0.317829430103302 -0.22909995913505554 -0.922480583190918
-0.317829430103302 -0.19704610109329224 -0.9379844665527344
-0.317829430103302 -0.14960256218910217 -0.9534883499145508
-0.317829430103302 -0.08324940502643585 -0.14728683233261108
-0.317829430103302 0.04152930900454521 -0.9534883499145508
-0.317829430103302 0.169597327709198 -0.9379845261573792
-0.317829430103302 0.21083524823188782 -0.14728683233261108
-0.317829430103302 0.23202300071716309 -0.9224806427955627
-0.317829430103302 0.26867127418518066 -0.9069767594337463
-0.317829430103302 0.27085599303245544 -0.1627907156944275
-0.3178294599056244 0.28828686475753784 -0.8914729356765747
-0.317829430103302 0.30562978982925415 -0.8759689927101135
-0.317829430103302 0.3102729320526123 -0.1782945990562439
-0.317829430103302 0.3289283514022827 -0.8604651093482971
-0.317829430103302 0.34005874395370483 -0.19379842281341553
-0.317829430103302 0.34974029660224915 -0.8449612259864807
-0.317829430103302 0.37209880352020264 -0.8294573426246643
-0.317829430103302 0.36443936824798584 -0.20930229127407074
-0.317829430103302 0.3891426920890808 -0.8139535188674927
-0.317829430103302 0.3844106197357178 -0.22480618953704834
-0.317829430103302 0.3997834324836731 -0.7984496355056763
-0.317829430103302 0.409354031085968 -0.7829457521438599
-0.317829430103302 0.40089237689971924 -0.24031007289886475
-0.317829430103302 0.4183235764503479 -0.7674418687820435
-0.317829430103302 0.4244236350059509 -0.751937985420227
-0.317829430103302 0.42396682500839233 -0.27131783962249756
-0.317829430103302 0.41382601857185364 -0.25581395626068115
-0.317829430103302 0.4317896366119385 -0.7364341020584106
-0.317829430103302 0.43853306770324707 -0.7209302186965942
-0.317829430103302 0.4411817193031311 -0.30232560634613037
-0.317829430103302 0.433906227350235 -0.28682172298431396
-0.317829430103302 0.4450528621673584 -0.7054263353347778
-0.317829430103302 0.4521127939224243 -0.6899224519729614
-0.317829430103302 0.4548696279525757 -0.3333333134651184
-0.317829430103302 0.4491767883300781 -0.317829430103302
-0.317829430103302 0.4574486315250397 -0.674418568611145
-0.317829430103302 0.46207112073898315 -0.6589146852493286
-0.317829430103302 0.4666944146156311 -0.643410861492157
-0.317829430103302 0.4691915214061737 -0.6279069781303406
-0.317829430103302 0.47165828943252563 -0.6124030947685242
-0.317829430103302 0.4717344045639038 -0.3798449635505676
-0.317829430103302 0.46706658601760864 -0.3643410801887512
-0.317829430103302 0.4607587158679962 -0.3488371968269348
-0.317829430103302 0.47408080101013184 -0.596899151802063
-0.317829430103302 0.4762722849845886 -0.5813953876495361
-0.317829430103302 0.47830793261528015 -0.5658915042877197
-0.317829430103302 0.48001790046691895 -0.5503876209259033
-0.317829430103302 0.48158934712409973 -0.5348837375640869
-0.317829430103302 0.4829576015472412 -0.5193798542022705
-0.317829430103302 0.484424352645874 -0.5038759708404541
-0.317829430103302 0.48605114221572876 -0.4883720874786377
-0.317829430103302 0.48721566796302795 -0.4728682041168213
-0.317829430103302 0.4876486361026764 -0.4573643207550049
-0.317829430103302 0.4871078133583069 -0.4418604373931885
-0.317829430103302 0.48506951332092285 -0.42635661363601685
-0.317829430103302 0.4820939004421234 -0.41085273027420044
-0.317829430103302 0.47697514295578003 -0.39534884691238403
-0.30232560634613037 -0.48875245451927185 -0.5348837375640869
-0.30232560634613037 -0.49095937609672546 -0.5193798542022705
-0.30232560634613037 -0.49301978945732117 -0.5038759708404541
-0.30232560634613037 -0.4947092533111572 -0.4883720874786377
-0.30232560634613037 -0.495230108499527 -0.4728682041168213
-0.30232560634613037 -0.4943940043449402 -0.4573643207550049
-0.30232560634613037 -0.4919969141483307 -0.4418604373931885
-0.30232560634613037 -0.48885810375213623 -0.42635661363601685
-0.30232560634613037 -0.4731748402118683 -0.6124030947685242
-0.30232560634613037 -0.47663992643356323 -0.5968992114067078
-0.30232560634613037 -0.48087531328201294 -0.5813953876495361
-0.30232560634613037 -0.48403334617614746 -0.5658915042877197
-0.30232560634613037 -0.48602405190467834 -0.5503876209259033
-0.30232560634613037 -0.4837707579135895 -0.41085273027420044
-0.30232560634613037 -0.4780578315258026 -0.39534884691238403
-0.30232560634613037 -0.45969101786613464 -0.6589146852493286
-0.30232560634613037 -0.46541738510131836 -0.6434109210968018
-0.30232560634613037 -0.4695257842540741 -0.6279069781303406
-0.30232560634613037 -0.47226864099502563 -0.3798449635505676
-0.30232560634613037 -0.4641287922859192 -0.3643410801887512
-0.30232560634613037 -0.457687109708786 -0.3488371968269348
-0.30232560634613037 -0.44298434257507324 -0.7054263353347778
-0.30232560634613037 -0.4494878649711609 -0.6899224519729614
-0.30232560634613037 -0.45500820875167847 -0.674418568611145
-0.30232560634613037 -0.44942694902420044 -0.3333333134651184
-0.30232560634613037 -0.4427846670150757 -0.317829430103302
-0.30232560634613037 -0.4305881857872009 -0.7364341020584106
-0.30232560634613037 -0.4378724694252014 -0.7209302186965942
-0.30232560634613037 -0.43554192781448364 -0.30232560634613037
-0.30232560634613037 -0.42957979440689087 -0.28682172298431396
-0.30232560634613037 -0.41771960258483887 -0.7674418687820435
-0.30232560634613037 -0.42461684346199036 -0.751937985420227
-0.30232560634613037 -0.42374125123023987 -0.27131783962249756
-0.30232560634613037 -0.4159182906150818 -0.25581395626068115
-0.30232560634613037 -0.3996257781982422 -0.7984496355056763
-0.30232560634613037 -0.40973547101020813 -0.7829456925392151
-0.30232560634613037 -0.4067249894142151 -0.24031005799770355
-0.30232560634613037 -0.38919323682785034 -0.8139535188674927
-0.30232560634613037 -0.39363691210746765 -0.22480618953704834
-0.30232560634613037 -0.373687207698822 -0.8294574022293091
-0.30232560634613037 -0.37463057041168213 -0.20930230617523193
-0.30232560634613037 -0.35391396284103394 -0.8449611663818359
-0.30232560634613037 -0.3506357669830322 -0.19379842281341553
-0.30232560634613037 -0.33401384949684143 -0.8604651093482971
-0.30232560634613037 -0.3165186643600464 -0.8759689331054688
-0.302325576543808 -0.3167446255683899 -0.1782945990562439
-0.30232560634613037 -0.2977117896080017 -0.8914728164672852
-0.30232560634613037 -0.27297621965408325 -0.9069767594337463
-0.30232560634613037 -0.26799172163009644 -0.1627907156944275
-0.30232560634613037 -0.25094670057296753 -0.9224806427955627
-0.30232560634613037 -0.22208327054977417 -0.9379844665527344
-0.30232560634613037 -0.1812150478363037 -0.9534883499145508
-0.30232560634613037 -0.13221845030784607 -0.9689922332763672
-0.30232560634613037 -0.11675982177257538 -0.14728683233261108
-0.30232560634613037 0.009992553852498531 -0.9689921736717224
-0.30232560634613037 0.08125529438257217 -0.9534883499145508
-0.30232560634613037 0.07708542048931122 -0.13178294897079468
-0.30232560634613037 0.14492778480052948 -0.13178294897079468
-0.30232560634613037 0.20877498388290405 -0.9379844665527344
-0.30232560634613037 0.23113077878952026 -0.14728683233261108
-0.30232560634613037 0.25818416476249695 -0.9224807024002075
-0.30232560634613037 0.28694164752960205 -0.9069767594337463
-0.30232560634613037 0.28687846660614014 -0.1627907156944275
-0.30232560634613037 0.30438196659088135 -0.8914728760719299
-0.30232560634613037 0.3221074342727661 -0.8759689927101135
-0.30232560634613037 0.32098662853240967 -0.1782945990562439
-0.30232560634613037 0.3464277386665344 -0.8604651093482971
-0.30232560634613037 0.349101722240448 -0.19379842281341553
-0.30232560634613037 0.36710068583488464 -0.8449612259864807
-0.30232560634613037 0.37286853790283203 -0.20930230617523193
-0.30232560634613037 0.3903806805610657 -0.8294573426246643
-0.30232560634613037 0.3930678367614746 -0.22480618953704834
-0.30232560634613037 0.40558922290802 -0.8139535188674927
-0.30232560634613037 0.4095092713832855 -0.24031007289886475
-0.30232560634613037 0.41498154401779175 -0.798449695110321
-0.30232560634613037 0.4240824580192566 -0.7829457521438599
-0.30232560634613037 0.4226517379283905 -0.25581395626068115
-0.30232560634613037 0.4319230020046234 -0.7674418687820435
-0.30232560634613037 0.4385087192058563 -0.751937985420227
-0.30232560634613037 0.43388062715530396 -0.27131783962249756
-0.30232560634613037 0.444625586271286 -0.7364341020584106
-0.30232560634613037 0.4520476162433624 -0.7209302186965942
-0.30232560634613037 0.45079728960990906 -0.30232560634613037
-0.30232560634613037 0.44205328822135925 -0.28682172298431396
-0.30232560634613037 0.4577186405658722 -0.7054263949394226
-0.30232560634613037 0.4641709625720978 -0.6899224519729614
-0.30232560634613037 0.4691787362098694 -0.674418568611145
-0.30232560634613037 0.4703001081943512 -0.3488371968269348
-0.30232560634613037 0.46492138504981995 -0.3333333134651184
-0.30232560634613037 0.4574210047721863 -0.317829430103302
-0.30232560634613037 0.47365066409111023 -0.6589146852493286
-0.30232560634613037 0.4776972830295563 -0.643410861492157
-0.30232560634613037 0.4813407063484192 -0.6279069781303406
-0.30232560634613037 0.4837230145931244 -0.6124030947685242
-0.30232560634613037 0.48600977659225464 -0.5968992114067078
-0.30232560634613037 0.48305046558380127 -0.3798449635505676
-0.30232560634613037 0.4764512777328491 -0.3643410801887512
-0.30232563614845276 0.4886119067668915 -0.5813953876495361
-0.30232560634613037 0.4904962182044983 -0.5658915042877197
-0.30232560634613037 0.4920843839645386 -0.5503876209259033
-0.30232560634613037 0.49352744221687317 -0.5348837375640869
-0.30232560634613037 0.49490734934806824 -0.5193798542022705
-0.30232560634613037 0.4967111647129059 -0.5038759708404541
-0.30232560634613037 0.4985426664352417 -0.4883720874786377
-0.30232560634613037 0.4999020993709564 -0.4728682041168213
-0.30232560634613037 0.5005272626876831 -0.4573643207550049
-0.30232560634613037 0.4999513626098633 -0.4418604373931885
-0.30232560634613037 0.4980965852737427 -0.42635661363601685
-0.30232560634613037 0.49394726753234863 -0.41085273027420044
-0.30232560634613037 0.48857492208480835 -0.39534884691238403
-0.28682172298431396 -0.505447506904602 -0.5038759708404541
-0.28682172298431396 -0.5068634748458862 -0.4883720874786377
-0.28682172298431396 -0.5073667168617249 -0.4728682041168213
-0.28682172298431396 -0.5066785216331482 -0.4573643207550049
-0.28682172298431396 -0.5047786831855774 -0.4418604373931885
-0.28682172298431396 -0.4893888831138611 -0.5968992114067078
-0.28682172298431396 -0.49294179677963257 -0.5813953876495361
-0.28682172298431396 -0.4967046082019806 -0.5658915042877197
-0.28682172298431396 -0.4993574023246765 -0.5503876209259033
-0.28682172298431396 -0.501239001750946 -0.5348837375640869
-0.28682172298431396 -0.503727376461029 -0.5193798542022705
-0.28682172298431396 -0.501244306564331 -0.42635661363601685
-0.28682172298431396 -0.4968240261077881 -0.41085273027420044
-0.28682172298431396 -0.49094122648239136 -0.39534884691238403
-0.28682172298431396 -0.4772625267505646 -0.643410861492157
-0.28682172298431396 -0.48242926597595215 -0.6279069781303406
-0.28682172298431396 -0.48572710156440735 -0.612403154373169
-0.28682172298431396 -0.4843909740447998 -0.37984493374824524
-0.28682172298431396 -0.47695279121398926 -0.3643410801887512
-0.28682172298431396 -0.4606079161167145 -0.6899224519729614
-0.28682172298431396 -0.4674310088157654 -0.674418568611145
-0.28682175278663635 -0.4724877178668976 -0.6589146852493286
-0.28682172298431396 -0.470054030418396 -0.3488371968269348
-0.28682172298431396 -0.462370902299881 -0.3333333134651184
-0.28682172298431396 -0.44210267066955566 -0.7364341020584106
-0.28682172298431396 -0.44866618514060974 -0.7209302186965942
