-0.14728683233261108 -0.5038759708404541 0.4615410268306732
-0.14728683233261108 -0.5038759708404541 0.5888584852218628
-0.14728683233261108 -0.5038759708404541 0.8262811899185181
-0.14728683233261108 -0.4883720874786377 -0.36393049359321594
-0.14728683233261108 -0.4883720874786377 -0.10262182354927063
-0.14728683233261108 -0.4883720874786377 0.26608335971832275
-0.14728683233261108 -0.4883720874786377 0.48267048597335815
-0.14728683233261108 -0.4883720874786377 0.5508379340171814
-0.14728683233261108 -0.4883720874786377 0.8506470918655396
-0.14728683233261108 -0.4728682041168213 -0.39751511812210083
-0.14728683233261108 -0.4728682041168213 -0.06475110352039337
-0.14728683233261108 -0.4728682041168213 0.2656209468841553
-0.14728683233261108 -0.4728682041168213 0.8689028024673462
-0.14728683233261108 -0.4573643207550049 -0.42998895049095154
-0.14728683233261108 -0.4573643207550049 -0.033765748143196106
-0.14728683233261108 -0.4573643207550049 0.264797568321228
-0.14728683233261108 -0.4573643207550049 0.8829773664474487
-0.14728683233261108 -0.4418604075908661 -0.4556730389595032
-0.14728683233261108 -0.4418604373931885 -0.0033205654472112656
-0.14728683233261108 -0.4418604373931885 0.2639515995979309
-0.14728683233261108 -0.4418604373931885 0.89078688621521
-0.14728683233261108 -0.42635661363601685 -0.9405960440635681
-0.14728683233261108 -0.42635661363601685 -0.934928297996521
-0.14728683233261108 -0.42635661363601685 -0.4754733443260193
-0.14728683233261108 -0.42635661363601685 0.03271603584289551
-0.14728683233261108 -0.42635661363601685 0.26182079315185547
-0.14728683233261108 -0.42635661363601685 0.901150643825531
-0.14728683233261108 -0.41085273027420044 -0.9415555596351624
-0.14728683233261108 -0.4108527600765228 -0.9343553781509399
-0.14728683233261108 -0.41085273027420044 -0.49192145466804504
-0.14728683233261108 -0.4108527600765228 0.07582846283912659
-0.14728683233261108 -0.41085273027420044 0.25669699907302856
-0.14728683233261108 -0.41085273027420044 0.9045145511627197
-0.14728683233261108 -0.39534884691238403 -0.9419340491294861
-0.14728683233261108 -0.39534884691238403 -0.9344553351402283
-0.14728683233261108 -0.39534884691238403 -0.507595419883728
-0.14728683233261108 -0.3953488767147064 0.10127556324005127
-0.14728683233261108 -0.39534884691238403 0.2523576617240906
-0.14728683233261108 -0.3953488767147064 0.9090456962585449
-0.14728683233261108 -0.3798449635505676 -0.9423701763153076
-0.14728683233261108 -0.3798449635505676 -0.9345068335533142
-0.14728683233261108 -0.3798449635505676 -0.5252810120582581
-0.14728683233261108 -0.3798449635505676 0.11734182387590408
-0.14728683233261108 -0.3798449635505676 0.2500603199005127
-0.14728683233261108 -0.3798449635505676 0.9157630205154419
-0.14728683233261108 -0.3643410801887512 -0.9427157640457153
-0.14728683233261108 -0.36434105038642883 -0.9348171949386597
-0.14728683233261108 -0.3643410801887512 -0.5454302430152893
-0.14728683233261108 -0.3643410801887512 0.1288684606552124
-0.14728683233261108 -0.3643410801887512 0.2486419975757599
-0.14728683233261108 -0.3643410801887512 0.9185327291488647
-0.14728683233261108 -0.3488371968269348 -0.942779541015625
-0.14728683233261108 -0.3488371968269348 -0.9353766441345215
-0.14728683233261108 -0.3488371968269348 -0.5730829834938049
-0.14728683233261108 -0.3488371968269348 0.13926923274993896
-0.14728683233261108 -0.3488371968269348 0.24734336137771606
-0.14728683233261108 -0.3488371968269348 0.9197285771369934
-0.14728683233261108 -0.3333333134651184 -0.9429482221603394
-0.14728683233261108 -0.3333333134651184 -0.9356632232666016
-0.14728683233261108 -0.3333333134651184 -0.5992088317871094
-0.14728683233261108 -0.3333333134651184 0.14791107177734375
-0.14728683233261108 -0.3333333134651184 0.24451155960559845
-0.14728683233261108 -0.3333333134651184 0.9207387566566467
-0.14728683233261108 -0.317829430103302 -0.9436254501342773
-0.14728683233261108 -0.317829430103302 -0.9350159764289856
-0.14728683233261108 -0.317829430103302 -0.6159879565238953
-0.14728683233261108 -0.317829430103302 0.15801550447940826
-0.14728683233261108 -0.317829430103302 0.2381458878517151
-0.14728683233261108 -0.317829430103302 0.9212329387664795
-0.14728683233261108 -0.30232560634613037 -0.9439740180969238
-0.14728683233261108 -0.30232560634613037 -0.9340754151344299
-0.14728683233261108 -0.30232560634613037 -0.6278263926506042
-0.14728683233261108 -0.30232560634613037 0.16758066415786743
-0.14728683233261108 -0.30232560634613037 0.23284253478050232
-0.14728683233261108 -0.30232560634613037 0.92075514793396
-0.14728683233261108 -0.28682172298431396 -0.9438376426696777
-0.14728683233261108 -0.28682172298431396 -0.9331331253051758
-0.14728683233261108 -0.28682172298431396 -0.6380210518836975
-0.14728683233261108 -0.28682172298431396 0.17796194553375244
-0.14728683233261108 -0.28682172298431396 0.22748960554599762
-0.14728683233261108 -0.28682172298431396 0.9200668334960938
-0.14728683233261108 -0.27131783962249756 -0.9434766173362732
-0.14728683233261108 -0.27131783962249756 -0.9323545098304749
-0.14728683233261108 -0.27131783962249756 -0.6463385224342346
-0.14728683233261108 -0.27131783962249756 0.19007280468940735
-0.14728683233261108 -0.27131783962249756 0.21595168113708496
-0.14728683233261108 -0.27131783962249756 0.9192911982536316
-0.14728683233261108 -0.25581395626068115 -0.9431249499320984
-0.14728683233261108 -0.25581395626068115 -0.9317041039466858
-0.14728683233261108 -0.25581395626068115 -0.6545513868331909
-0.14728683233261108 -0.25581395626068115 0.9181025624275208
-0.14728683233261108 -0.24031007289886475 -0.9429093599319458
-0.14728683233261108 -0.24031008780002594 -0.9313355684280396
-0.14728683233261108 -0.24031007289886475 -0.6643031239509583
-0.14728683233261108 -0.24031007289886475 0.9139798879623413
-0.14728683233261108 -0.22480618953704834 -0.9428182244300842
-0.14728683233261108 -0.22480618953704834 -0.9309144020080566
-0.14728683233261108 -0.22480618953704834 -0.6720556616783142
-0.14728683233261108 -0.22480618953704834 0.9065698981285095
-0.14728683233261108 -0.20930230617523193 -0.9428144693374634
-0.14728683233261108 -0.20930230617523193 -0.9306209087371826
-0.14728683233261108 -0.20930230617523193 -0.681623637676239
-0.14728683233261108 -0.20930230617523193 0.9036320447921753
-0.14728683233261108 -0.19379842281341553 -0.9428254961967468
-0.14728683233261108 -0.19379842281341553 -0.9305423498153687
-0.14728683233261108 -0.19379842281341553 -0.6888437271118164
-0.14728683233261108 -0.19379842281341553 0.8984997272491455
-0.14728683233261108 -0.1782945990562439 -0.9427754878997803
-0.14728683233261108 -0.1782945990562439 -0.9300812482833862
-0.14728683233261108 -0.1782945990562439 -0.6933344602584839
-0.14728683233261108 -0.1782945990562439 0.8892666101455688
-0.14728683233261108 -0.1627907156944275 -0.9426471590995789
-0.14728683233261108 -0.1627907156944275 -0.9290180802345276
-0.14728683233261108 -0.1627907156944275 -0.6979389190673828
-0.14728683233261108 -0.1627907156944275 0.8833023905754089
-0.14728683233261108 -0.14728683233261108 -0.942392110824585
-0.14728683233261108 -0.14728683233261108 -0.9274728298187256
-0.14728683233261108 -0.14728683233261108 -0.7014113068580627
-0.14728683233261108 -0.14728683233261108 0.8716914653778076
-0.14728683233261108 -0.13178294897079468 -0.942060112953186
-0.14728683233261108 -0.13178294897079468 -0.9256170392036438
-0.1472868174314499 -0.13178294897079468 -0.7035039663314819
-0.14728683233261108 -0.13178294897079468 0.8579301834106445
-0.14728683233261108 -0.11627906560897827 -0.9417935013771057
-0.14728683233261108 -0.11627906560897827 -0.9240882992744446
-0.1472868174314499 -0.11627906560897827 -0.7042719125747681
-0.14728683233261108 -0.11627906560897827 0.8413367867469788
-0.14728683233261108 -0.10077518224716187 -0.9415045380592346
-0.14728683233261108 -0.10077518224716187 -0.9233819842338562
-0.14728683233261108 -0.10077518224716187 -0.7046974301338196
-0.14728683233261108 -0.10077518224716187 0.8224684596061707
-0.14728683233261108 -0.08527129888534546 -0.941383957862854
-0.14728683233261108 -0.08527129888534546 -0.923780620098114
-0.14728683233261108 -0.08527129888534546 -0.7057084441184998
-0.14728683233261108 -0.08527129888534546 0.22393947839736938
-0.14728683233261108 -0.08527129888534546 0.27342647314071655
-0.14728683233261108 -0.08527129888534546 0.8023773431777954
-0.14728683233261108 -0.06976741552352905 -0.9412326812744141
-0.14728683233261108 -0.06976741552352905 -0.9234344363212585
-0.14728683233261108 -0.06976741552352905 -0.7069064378738403
-0.14728683233261108 -0.06976741552352905 0.21944637596607208
-0.14728683233261108 -0.06976741552352905 0.30827605724334717
-0.14728683233261108 -0.06976741552352905 0.7813084125518799
-0.14728683233261108 -0.05426359176635742 -0.9409937858581543
-0.14728683233261108 -0.05426359176635742 -0.9253945350646973
-0.14728683233261108 -0.05426359176635742 -0.7081388235092163
-0.14728683233261108 -0.05426359176635742 0.21626459062099457
-0.14728683233261108 -0.05426359176635742 0.3269943594932556
-0.14728683233261108 -0.05426359176635742 0.7619369029998779
-0.14728683233261108 -0.038759708404541016 -0.9407508373260498
-0.14728683233261108 -0.038759708404541016 -0.9281718730926514
-0.14728683233261108 -0.038759708404541016 -0.7073752284049988
-0.14728683233261108 -0.038759708404541016 0.21326257288455963
-0.14728683233261108 -0.038759708404541016 0.34039780497550964
-0.14728683233261108 -0.038759708404541016 0.7416881918907166
-0.14728683233261108 -0.02325582504272461 -0.9404498934745789
-0.14728683233261108 -0.02325582504272461 -0.9269068241119385
-0.14728683233261108 -0.02325582504272461 -0.7072374224662781
-0.14728683233261108 -0.02325582504272461 0.21023128926753998
-0.14728683233261108 -0.02325582504272461 0.35245248675346375
-0.14728683233261108 -0.02325582504272461 0.7195072174072266
-0.14728683233261108 -0.007751941680908203 -0.9401079416275024
-0.14728683233261108 -0.007751941680908203 -0.9222436547279358
-0.14728683233261108 -0.007751941680908203 -0.7078311443328857
-0.14728683233261108 -0.007751941680908203 0.20572200417518616
-0.14728683233261108 -0.007751941680908203 0.3689640164375305
-0.14728683233261108 -0.007751941680908203 0.6921789646148682
-0.14728683233261108 0.007751941680908203 -0.939268946647644
-0.14728683233261108 0.007751941680908203 -0.9219156503677368
-0.14728683233261108 0.007751941680908203 -0.7083069682121277
-0.14728683233261108 0.007751941680908203 0.20127522945404053
-0.14728683233261108 0.007751941680908203 0.3950032591819763
-0.14728683233261108 0.007751941680908203 0.6546751260757446
-0.14728683233261108 0.02325582504272461 -0.7077391147613525
-0.14728684723377228 0.02325582690536976 0.19558845460414886
-0.14728683233261108 0.02325582504272461 0.4404846429824829
-0.14728683233261108 0.02325582504272461 0.6045382022857666
-0.14728683233261108 0.038759708404541016 -0.7067515850067139
-0.14728683233261108 0.038759708404541016 0.18900135159492493
-0.14728683233261108 0.05426359176635742 -0.7051593661308289
-0.14728683233261108 0.05426359176635742 0.18371786177158356
-0.14728683233261108 0.06976747512817383 -0.7008286714553833
-0.14728683233261108 0.06976747512817383 0.174707293510437
-0.14728683233261108 0.08527135848999023 -0.6962190866470337
-0.14728683233261108 0.08527135848999023 0.16899433732032776
-0.14728683233261108 0.10077524185180664 -0.6905307173728943
-0.14728683233261108 0.10077524185180664 0.15986286103725433
-0.14728683233261108 0.11627912521362305 -0.6860828399658203
-0.14728683233261108 0.11627912521362305 0.15357333421707153
-0.14728683233261108 0.1317828893661499 -0.6827384233474731
-0.14728683233261108 0.1317828893661499 0.1433686912059784
-0.14728683233261108 0.1472867727279663 -0.675543487071991
-0.14728683233261108 0.1472867727279663 0.1362818032503128
-0.14728683233261108 0.16279065608978271 -0.670780599117279
-0.14728683233261108 0.16279065608978271 0.12634894251823425
-0.14728683233261108 0.17829453945159912 -0.6673369407653809
-0.14728683233261108 0.17829453945159912 0.1183740422129631
-0.14728683233261108 0.19379842281341553 -0.6569592952728271
-0.14728683233261108 0.19379842281341553 0.10823646187782288
-0.14728683233261108 0.20930232107639313 -0.6527519226074219
-0.14728683233261108 0.20930230617523193 0.09657961875200272
-0.1472868174314499 0.22480618953704834 -0.6412432193756104
-0.14728683233261108 0.22480618953704834 0.0851895660161972
-0.14728683233261108 0.24031005799770355 -0.6374047994613647
-0.14728683233261108 0.24031007289886475 0.07118293642997742
-0.1472868174314499 0.25581395626068115 -0.6263196468353271
-0.14728683233261108 0.25581395626068115 0.054919444024562836
-0.14728683233261108 0.27131783962249756 -0.6218398213386536
-0.14728683233261108 0.27131783962249756 0.037016481161117554
-0.14728683233261108 0.28682172298431396 -0.6114792823791504
-0.14728683233261108 0.28682172298431396 0.02034883014857769
-0.14728683233261108 0.30232560634613037 -0.6071184277534485
-0.14728683233261108 0.30232560634613037 0.0069385189563035965
-0.14728683233261108 0.3178294897079468 -0.5986382961273193
-0.14728683233261108 0.3178294897079468 -0.004861410707235336
-0.14728683233261108 0.3333333730697632 -0.5933495759963989
-0.14728683233261108 0.3333333730697632 -0.01670052856206894
-0.14728683233261108 0.3488372564315796 -0.5887078642845154
-0.14728683233261108 0.3488372564315796 -0.029199790209531784
-0.14728683233261108 0.3643411099910736 -0.5809242129325867
-0.14728683233261108 0.364341139793396 -0.04188888892531395
-0.14728683233261108 0.37984490394592285 -0.5757919549942017
-0.14728683233261108 0.37984490394592285 -0.05418352410197258
-0.14728683233261108 0.39534878730773926 -0.5658498406410217
-0.14728683233261108 0.39534878730773926 -0.06745175272226334
-0.14728683233261108 0.41085267066955566 -0.5590156316757202
-0.14728683233261108 0.41085267066955566 -0.08137686550617218
-0.14728683233261108 0.42635655403137207 -0.5459693074226379
-0.14728683233261108 0.42635655403137207 -0.09722189605236053
-0.14728683233261108 0.4418604373931885 -0.5325837135314941
-0.14728683233261108 0.4418604373931885 -0.1162697970867157
-0.14728684723377228 0.4573643207550049 -0.5185843110084534
-0.14728683233261108 0.4573643207550049 -0.139329731464386
-0.14728683233261108 0.4728682041168213 -0.4995061159133911
-0.14728683233261108 0.4728682041168213 -0.16829699277877808
-0.14728683233261108 0.4883720874786377 -0.47328701615333557
-0.14728683233261108 0.4883720874786377 -0.2015811651945114
-0.14728683233261108 0.5038759708404541 -0.4393354654312134
-0.14728683233261108 0.5038759708404541 -0.23429454863071442
-0.14728683233261108 0.5193798542022705 -0.40528959035873413
-0.14728683233261108 0.5193798542022705 -0.26204824447631836
-0.14728683233261108 0.5348837375640869 -0.3818860352039337
-0.14728683233261108 0.5348837375640869 -0.283639520406723
-0.14728683233261108 0.5503876209259033 -0.37533730268478394
-0.14728683233261108 0.5503876805305481 -0.30196768045425415
-0.14728683233261108 0.5658915042877197 -0.38493138551712036
-0.14728683233261108 0.5658915042877197 -0.31990107893943787
-0.14728683233261108 0.5813953876495361 -0.4090448319911957
-0.14728683233261108 0.5813953876495361 -0.3335625231266022
-0.14728683233261108 0.5968992710113525 -0.4267713129520416
-0.14728683233261108 0.5968992710113525 -0.3475962281227112
-0.14728683233261108 0.612403154373169 -0.4301609396934509
-0.14728683233261108 0.612403154373169 -0.361117959022522
-0.14728683233261108 0.6279069185256958 -0.43406936526298523
-0.14728683233261108 0.6279069185256958 -0.3731716275215149
-0.14728683233261108 0.6434108018875122 -0.44017666578292847
-0.14728683233261108 0.6434108018875122 -0.3812044858932495
-0.14728683233261108 0.6589146852493286 -0.44269976019859314
-0.14728683233261108 0.6589146852493286 -0.3928232789039612
-0.14728683233261108 0.674418568611145 -0.4445588290691376
-0.14728683233261108 0.674418568611145 -0.40126919746398926
-0.14728683233261108 0.6899224519729614 -0.4480844736099243
-0.14728683233261108 0.6899224519729614 -0.4090764820575714
-0.14728683233261108 0.7054263353347778 -0.4574449062347412
-0.14728683233261108 0.7054263353347778 -0.4169010818004608
-0.14728683233261108 0.7209302186965942 -0.45973458886146545
-0.14728683233261108 0.7209302186965942 -0.4246322214603424
-0.14728683233261108 0.7364341020584106 -0.4636979401111603
-0.14728683233261108 0.7364341020584106 -0.4339753985404968
-0.14728683233261108 0.751937985420227 -0.4735122323036194
-0.14728683233261108 0.751937985420227 -0.4406476318836212
-0.14728683233261108 0.7674418687820435 -0.4765290319919586
-0.14728683233261108 0.7674419283866882 -0.45239660143852234
-0.14728683233261108 0.7829457521438599 -0.47957760095596313
-0.14728683233261108 0.7829457521438599 -0.4578465223312378
-0.14728683233261108 0.7984496355056763 -0.47467654943466187
-0.14728683233261108 0.7984496355056763 -0.47211968898773193
-0.13178294897079468 -0.8294573426246643 0.28012943267822266
-0.13178294897079468 -0.8294573426246643 0.30231186747550964
-0.13178294897079468 -0.8139535188674927 0.2642512321472168
-0.13178294897079468 -0.8139535188674927 0.32677894830703735
-0.13178294897079468 -0.7984496355056763 0.25720423460006714
-0.13178294897079468 -0.7984496355056763 0.33921197056770325
-0.13178294897079468 -0.7829457521438599 0.25408193469047546
-0.13178294897079468 -0.7829457521438599 0.34589093923568726
-0.13178294897079468 -0.7674418687820435 0.25273358821868896
-0.13178294897079468 -0.7674418687820435 0.3539083003997803
-0.13178294897079468 -0.751937985420227 0.25206878781318665
-0.13178294897079468 -0.751937985420227 0.3592413365840912
-0.13178294897079468 -0.7364341020584106 0.2518558204174042
-0.13178294897079468 -0.7364341020584106 0.3627626299858093
-0.13178294897079468 -0.7209302186965942 0.2519569993019104
-0.13178294897079468 -0.7209302186965942 0.367311954498291
-0.13178294897079468 -0.7054263353347778 0.25223514437675476
-0.13178294897079468 -0.7054263353347778 0.37231332063674927
-0.13178294897079468 -0.6899224519729614 0.252642422914505
-0.13178294897079468 -0.6899224519729614 0.37615057826042175
-0.13178294897079468 -0.674418568611145 0.25290000438690186
-0.13178294897079468 -0.674418568611145 0.38352930545806885
-0.13178294897079468 -0.6589146852493286 0.2533731460571289
-0.13178294897079468 -0.6589146852493286 0.390787273645401
-0.13178294897079468 -0.643410861492157 0.25365811586380005
-0.13178294897079468 -0.6434108018875122 0.3994646966457367
-0.13178294897079468 -0.6279069781303406 0.2541157901287079
-0.13178294897079468 -0.6279069781303406 0.40746253728866577
-0.13178294897079468 -0.6124030947685242 0.2545226812362671
-0.13178294897079468 -0.6124030947685242 0.4160808324813843
-0.13178294897079468 -0.5968992114067078 0.2550736665725708
-0.13178294897079468 -0.5968992114067078 0.4242723882198334
-0.13178294897079468 -0.5813953876495361 0.2564201056957245
-0.13178294897079468 -0.5813953876495361 0.43236595392227173
-0.13178294897079468 -0.5658915042877197 0.2589455842971802
-0.13178294897079468 -0.5658915042877197 0.439419150352478
-0.13178294897079468 -0.5503876209259033 0.2609291076660156
-0.13178294897079468 -0.5503876209259033 0.44534868001937866
-0.13178294897079468 -0.5348837375640869 0.26226264238357544
-0.13178294897079468 -0.5348837375640869 0.4522574543952942
-0.13178294897079468 -0.5348837375640869 0.6458956003189087
-0.13178294897079468 -0.5348837375640869 0.7828302979469299
-0.13178294897079468 -0.5193798542022705 -0.2999422550201416
-0.13178294897079468 -0.5193798542022705 -0.23938694596290588
-0.13178294897079468 -0.5193798542022705 0.2631491422653198
-0.13178294897079468 -0.5193798542022705 0.46051913499832153
-0.13178294897079468 -0.5193798542022705 0.601669192314148
-0.13178294897079468 -0.5193798542022705 0.8218766450881958
-0.13178294897079468 -0.5038759708404541 -0.3457937240600586
-0.13178294897079468 -0.5038759708404541 -0.14192119240760803
-0.13178294897079468 -0.5038759708404541 0.2634805738925934
-0.13178294897079468 -0.5038759708404541 0.47536277770996094
-0.13178294897079468 -0.5038759708404541 0.5660586357116699
-0.13178294897079468 -0.5038759708404541 0.8471721410751343
-0.13178294897079468 -0.4883721172809601 -0.3793972134590149
-0.13178294897079468 -0.4883720874786377 -0.08938650786876678
-0.13178294897079468 -0.4883720874786377 0.26339197158813477
-0.13178294897079468 -0.4883720874786377 0.8679786920547485
-0.13178294897079468 -0.4728682041168213 -0.4114832878112793
-0.13178294897079468 -0.4728682041168213 -0.05419231578707695
-0.13178294897079468 -0.4728682041168213 0.26273345947265625
-0.13178294897079468 -0.4728682041168213 0.8839356899261475
-0.13178294897079468 -0.4573643207550049 -0.4420929253101349
-0.13178294897079468 -0.4573643207550049 -0.024817947298288345
-0.13178294897079468 -0.4573643207550049 0.2612556219100952
-0.13178294897079468 -0.4573643207550049 0.8939188718795776
-0.13178294897079468 -0.4418604373931885 -0.4662337303161621
-0.13178294897079468 -0.4418604373931885 0.009665725752711296
-0.13178294897079468 -0.4418604373931885 0.25946539640426636
-0.13178294897079468 -0.4418604373931885 0.9035187363624573
-0.13178294897079468 -0.42635661363601685 -0.484393835067749
-0.13178294897079468 -0.42635661363601685 0.055676888674497604
-0.13178294897079468 -0.42635661363601685 0.25490766763687134
-0.13178294897079468 -0.42635664343833923 0.9092029333114624
-0.13178294897079468 -0.41085273027420044 -0.5002992153167725
-0.13178294897079468 -0.41085273027420044 0.0916290134191513
-0.13178294897079468 -0.41085273027420044 0.25099998712539673
-0.13178294897079468 -0.41085273027420044 0.9171210527420044
-0.13178294897079468 -0.39534884691238403 -0.5158142447471619
-0.13178294897079468 -0.39534884691238403 0.11179304122924805
-0.13178294897079468 -0.39534884691238403 0.24887746572494507
-0.13178294897079468 -0.39534884691238403 0.9194899797439575
-0.13178294897079468 -0.3798449635505676 -0.9381179809570312
-0.13178294897079468 -0.3798449635505676 -0.9379271864891052
-0.13178294897079468 -0.37984493374824524 -0.5328618884086609
-0.13178294897079468 -0.3798449635505676 0.12602898478507996
-0.13178294897079468 -0.3798449635505676 0.24765315651893616
-0.13178294897079468 -0.3798449635505676 0.9212489724159241
-0.13178294897079468 -0.3643410801887512 -0.9397702217102051
-0.13178294897079468 -0.3643410801887512 -0.9372615814208984
-0.13178294897079468 -0.3643410801887512 -0.5558092594146729
-0.13178294897079468 -0.3643410801887512 0.13679060339927673
-0.13178294897079468 -0.3643410801887512 0.24590511620044708
-0.13178294897079468 -0.3643410801887512 0.9261474609375
-0.13178294897079468 -0.3488371968269348 -0.9414862394332886
-0.13178294897079468 -0.3488371968269348 -0.9365665912628174
-0.13178294897079468 -0.3488371968269348 -0.5809962153434753
-0.13178294897079468 -0.3488371968269348 0.14509570598602295
-0.13178294897079468 -0.3488372266292572 0.2433091700077057
-0.13178294897079468 -0.3488371968269348 0.9305039644241333
-0.13178294897079468 -0.3333333134651184 -0.943184494972229
-0.13178294897079468 -0.3333333134651184 -0.9355571866035461
-0.13178294897079468 -0.3333333134651184 -0.6026834845542908
-0.13178294897079468 -0.3333333134651184 0.15473124384880066
-0.13178294897079468 -0.3333333134651184 0.2383793592453003
-0.13178294897079468 -0.3333333134651184 0.9323627352714539
-0.13178294897079468 -0.317829430103302 -0.9438568949699402
-0.13178294897079468 -0.317829430103302 -0.9344547986984253
-0.13178294897079468 -0.317829430103302 -0.6167773604393005
-0.13178294897079468 -0.317829430103302 0.16346220672130585
-0.13178294897079468 -0.317829430103302 0.23321813344955444
-0.13178294897079468 -0.317829430103302 0.9324120283126831
-0.13178294897079468 -0.30232560634613037 -0.9438021183013916
-0.13178294897079468 -0.30232560634613037 -0.9335751533508301
-0.13178294897079468 -0.30232560634613037 -0.6271094083786011
-0.13178294897079468 -0.30232560634613037 0.17386752367019653
-0.13178294897079468 -0.30232560634613037 0.2289605289697647
-0.13178294897079468 -0.30232560634613037 0.9311240911483765
-0.13178294897079468 -0.28682172298431396 -0.9434409141540527
-0.13178294897079468 -0.28682172298431396 -0.9326253533363342
-0.13178294897079468 -0.28682172298431396 -0.6378307938575745
-0.13178294897079468 -0.28682172298431396 0.1859733760356903
-0.13178294897079468 -0.28682172298431396 0.21824747323989868
-0.13178294897079468 -0.28682172298431396 0.9286590814590454
-0.13178294897079468 -0.27131783962249756 -0.9429931640625
-0.13178294897079468 -0.27131783962249756 -0.9317959547042847
-0.13178294897079468 -0.27131783962249756 -0.647017240524292
-0.13178294897079468 -0.27131783962249756 0.9246455430984497
-0.13178294897079468 -0.25581395626068115 -0.9426310062408447
-0.13178294897079468 -0.25581395626068115 -0.9311659336090088
-0.13178294897079468 -0.25581395626068115 -0.6550595760345459
-0.13178294897079468 -0.25581395626068115 0.9209229946136475
-0.13178294897079468 -0.24031007289886475 -0.9424034357070923
-0.13178294897079468 -0.24031007289886475 -0.9308105707168579
-0.13178294897079468 -0.24031007289886475 -0.6664551496505737
-0.13178294897079468 -0.24031007289886475 0.9193335175514221
-0.13178294897079468 -0.22480618953704834 -0.9422928094863892
-0.13178294897079468 -0.22480618953704834 -0.9304563403129578
-0.13178294897079468 -0.22480618953704834 -0.674462616443634
-0.13178294897079468 -0.22480618953704834 0.9171388149261475
-0.13178294897079468 -0.20930230617523193 -0.9422674179077148
-0.13178294897079468 -0.20930230617523193 -0.9303572177886963
-0.13178294897079468 -0.20930230617523193 -0.6839916706085205
-0.13178294897079468 -0.20930230617523193 0.9096434116363525
-0.13178294897079468 -0.19379842281341553 -0.9422796964645386
-0.13178294897079468 -0.19379842281341553 -0.9304167032241821
-0.13178294897079468 -0.19379842281341553 -0.6906306147575378
-0.13178294897079468 -0.19379842281341553 0.9043715596199036
-0.13178294897079468 -0.1782945990562439 -0.9422663450241089
-0.13178294897079468 -0.1782945990562439 -0.9300088286399841
-0.13178294897079468 -0.1782945990562439 -0.6957492232322693
-0.13178294897079468 -0.1782945990562439 0.90010666847229
-0.13178294897079468 -0.1627907156944275 -0.9421707391738892
-0.13178294897079468 -0.1627907156944275 -0.9289688467979431
-0.13178294897079468 -0.1627907156944275 -0.7002115845680237
-0.13178294897079468 -0.1627907156944275 0.8900501728057861
-0.13178294897079468 -0.14728683233261108 -0.9419840574264526
-0.13178294897079468 -0.14728683233261108 -0.9272763729095459
-0.13178294897079468 -0.14728683233261108 -0.7028326392173767
-0.13178294897079468 -0.14728683233261108 0.8827567100524902
-0.13178294897079468 -0.13178294897079468 -0.9417037963867188
-0.13178294897079468 -0.13178294897079468 -0.9249951839447021
-0.13178294897079468 -0.13178294897079468 -0.7055715918540955
-0.13178294897079468 -0.13178294897079468 0.8694366812705994
-0.13178294897079468 -0.11627906560897827 -0.9414659142494202
-0.13178294897079468 -0.11627906560897827 -0.9228708148002625
-0.13178294897079468 -0.11627906560897827 -0.7060422897338867
-0.13178294897079468 -0.11627906560897827 0.8531104326248169
-0.13178294897079468 -0.10077518224716187 -0.9412216544151306
-0.13178294897079468 -0.10077518224716187 -0.9223830103874207
-0.13178294897079468 -0.10077518224716187 -0.7064299583435059
-0.13178294897079468 -0.10077518224716187 0.8343981504440308
-0.13178294897079468 -0.08527129888534546 -0.9411180019378662
-0.13178294897079468 -0.08527129888534546 -0.9223512411117554
-0.13178294897079468 -0.08527129888534546 -0.7070317268371582
-0.13178294897079468 -0.08527129888534546 0.2401430457830429
-0.13178294897079468 -0.08527130633592606 0.2406458705663681
-0.13178294897079468 -0.08527129888534546 0.8129993677139282
-0.13178294897079468 -0.06976741552352905 -0.9410070180892944
-0.13178296387195587 -0.06976741552352905 -0.9223672747612
-0.13178294897079468 -0.06976741552352905 -0.7080419659614563
-0.13178294897079468 -0.06976741552352905 0.22455070912837982
-0.13178294897079468 -0.06976741552352905 0.2924152612686157
-0.13178294897079468 -0.06976741552352905 0.7917039394378662
-0.13178294897079468 -0.05426359176635742 -0.9407892227172852
-0.13178294897079468 -0.05426359176635742 -0.9249647855758667
-0.13178294897079468 -0.05426359176635742 -0.7090461850166321
-0.13178294897079468 -0.05426359176635742 0.2198227345943451
-0.13178294897079468 -0.05426359176635742 0.3184790015220642
-0.13178294897079468 -0.05426359176635742 0.7732210159301758
-0.13178294897079468 -0.038759708404541016 -0.9403706789016724
-0.13178294897079468 -0.038759708404541016 -0.9307000637054443
-0.13178294897079468 -0.038759708404541016 -0.7088254690170288
-0.13178294897079468 -0.038759708404541016 0.2166232466697693
-0.13178294897079468 -0.038759708404541016 0.331514447927475
-0.13178294897079468 -0.038759708404541016 0.7524548768997192
-0.13178294897079468 -0.02325582504272461 -0.9394274353981018
-0.13178294897079468 -0.02325582504272461 -0.9345343112945557
-0.13178294897079468 -0.02325582504272461 -0.7087560892105103
-0.13178294897079468 -0.02325582504272461 0.21317517757415771
-0.13178294897079468 -0.02325582504272461 0.34379953145980835
-0.13178294897079468 -0.02325582504272461 0.7331037521362305
-0.13178294897079468 -0.007751941680908203 -0.709064781665802
-0.13178293406963348 -0.007751941680908203 0.20942656695842743
-0.13178294897079468 -0.007751941680908203 0.35952508449554443
-0.13178294897079468 -0.007751941215246916 0.7080938816070557
-0.13178294897079468 0.007751941680908203 -0.7090311050415039
-0.13178294897079468 0.007751941680908203 0.20345130562782288
-0.13178294897079468 0.007751941680908203 0.3821139335632324
-0.13178294897079468 0.007751941680908203 0.6707075834274292
-0.13178294897079468 0.02325582504272461 -0.7081836462020874
-0.13178294897079468 0.02325582504272461 0.1983681470155716
-0.13178294897079468 0.02325582504272461 0.4208877682685852
-0.13178294897079468 0.02325582504272461 0.6233856678009033
-0.13178294897079468 0.038759708404541016 -0.7072328925132751
-0.13178294897079468 0.038759708404541016 0.19170650839805603
-0.13178294897079468 0.05426359176635742 -0.7059975266456604
-0.13178294897079468 0.05426359176635742 0.18629175424575806
-0.13178294897079468 0.06976747512817383 -0.7018691301345825
-0.13178293406963348 0.06976746767759323 0.17875684797763824
-0.13178294897079468 0.08527135848999023 -0.698519229888916
-0.13178294897079468 0.08527135848999023 0.17128393054008484
-0.13178294897079468 0.10077524185180664 -0.6919825077056885
-0.13178294897079468 0.10077524185180664 0.1642540842294693
-0.13178294897079468 0.11627911776304245 -0.6866414546966553
-0.13178294897079468 0.11627912521362305 0.1559675931930542
-0.13178294897079468 0.1317828893661499 -0.6844263672828674
-0.13178294897079468 0.1317828893661499 0.14736586809158325
-0.13178294897079468 0.1472867727279663 -0.6785886287689209
-0.13178294897079468 0.1472867727279663 0.13938799500465393
-0.13178294897079468 0.16279065608978271 -0.6716952323913574
-0.13178294897079468 0.16279065608978271 0.12985703349113464
-0.13178294897079468 0.17829453945159912 -0.6691329479217529
-0.13178294897079468 0.17829453945159912 0.12240930646657944
-0.13178294897079468 0.19379842281341553 -0.6602963209152222
-0.13178294897079468 0.19379842281341553 0.11168211698532104
-0.13178294897079468 0.20930230617523193 -0.6544509530067444
-0.13178294897079468 0.20930230617523193 0.10237536579370499
-0.13178294897079468 0.22480618953704834 -0.6451330184936523
-0.13178294897079468 0.22480618953704834 0.09039755910634995
-0.13178294897079468 0.24031007289886475 -0.6394997239112854
-0.13178294897079468 0.24031007289886475 0.07619653642177582
-0.13178294897079468 0.25581395626068115 -0.63112872838974
-0.13178294897079468 0.25581395626068115 0.0605224147439003
-0.13178294897079468 0.27131783962249756 -0.6244298219680786
-0.13178294897079468 0.27131783962249756 0.043612513691186905
-0.13178294897079468 0.28682172298431396 -0.6176753044128418
-0.13178294897079468 0.28682172298431396 0.026703735813498497
-0.13178294897079468 0.30232560634613037 -0.6098806858062744
-0.13178294897079468 0.30232560634613037 0.012373171746730804
-0.13178294897079468 0.3178294897079468 -0.6055989265441895
-0.13178294897079468 0.3178294897079468 -0.0006934455595910549
-0.13178294897079468 0.3333333730697632 -0.5987967252731323
-0.13178294897079468 0.3333333730697632 -0.013384826481342316
-0.13178294897079468 0.3488372564315796 -0.5935944318771362
-0.13178294897079468 0.3488372564315796 -0.025688735768198967
-0.13178294897079468 0.364341139793396 -0.5892461538314819
-0.13178294897079468 0.364341139793396 -0.037464387714862823
-0.13178294897079468 0.37984487414360046 -0.5808559060096741
-0.13178294897079468 0.37984487414360046 -0.04993738234043121
-0.13178294897079468 0.39534878730773926 -0.5752931833267212
-0.13178294897079468 0.39534878730773926 -0.06350263208150864
-0.13178294897079468 0.41085267066955566 -0.56451416015625
-0.13178294897079468 0.41085267066955566 -0.07776635140180588
-0.13178294897079468 0.42635655403137207 -0.5569811463356018
-0.13178294897079468 0.42635655403137207 -0.09314735233783722
-0.13178294897079468 0.4418604373931885 -0.5448348522186279
-0.13178294897079468 0.4418604373931885 -0.1108730286359787
-0.13178294897079468 0.4573643207550049 -0.5303152799606323
-0.13178294897079468 0.4573643207550049 -0.13275113701820374
-0.13178294897079468 0.4728682041168213 -0.5145735740661621
-0.13178294897079468 0.4728682041168213 -0.16069144010543823
-0.13178294897079468 0.4883720874786377 -0.4930352568626404
-0.13178294897079468 0.4883720874786377 -0.19485965371131897
-0.13178294897079468 0.5038759708404541 -0.46245503425598145
-0.13178294897079468 0.5038759708404541 -0.23020370304584503
-0.13178294897079468 0.5193798542022705 -0.42730221152305603
-0.13178294897079468 0.5193798542022705 -0.2594149708747864
-0.13178294897079468 0.5348837375640869 -0.3985806703567505
-0.13178294897079468 0.5348837375640869 -0.28209757804870605
-0.13178294897079468 0.5503876209259033 -0.3863571882247925
-0.13178294897079468 0.5503876209259033 -0.3005463778972626
-0.13178294897079468 0.5658915042877197 -0.3981558680534363
-0.13178294897079468 0.5658915638923645 -0.31685394048690796
-0.13178294897079468 0.5813953876495361 -0.4226197600364685
-0.13178294897079468 0.5813953876495361 -0.33194267749786377
-0.13178294897079468 0.5968992710113525 -0.4313310384750366
-0.13178294897079468 0.5968992710113525 -0.34631574153900146
-0.13178294897079468 0.612403154373169 -0.438620001077652
-0.13178294897079468 0.612403154373169 -0.35980305075645447
-0.13178294897079468 0.6279069185256958 -0.44262972474098206
-0.13178294897079468 0.6279069185256958 -0.37168362736701965
-0.13178294897079468 0.6434108018875122 -0.443562775850296
-0.13178294897079468 0.6434108018875122 -0.37972086668014526
-0.13178294897079468 0.6589146852493286 -0.44482535123825073
-0.13178294897079468 0.6589146852493286 -0.392757773399353
-0.13178294897079468 0.674418568611145 -0.4479556083679199
-0.13178294897079468 0.674418568611145 -0.40188413858413696
-0.13178294897079468 0.6899224519729614 -0.45644354820251465
-0.13178294897079468 0.6899224519729614 -0.40935325622558594
-0.13178294897079468 0.7054263353347778 -0.4597117304801941
-0.13178294897079468 0.7054263353347778 -0.4181175231933594
-0.13178294897079468 0.7209302186965942 -0.46405917406082153
-0.13178294897079468 0.720930278301239 -0.42495882511138916
-0.13178294897079468 0.7364341020584106 -0.4733087122440338
-0.13178294897079468 0.7364341020584106 -0.4349989891052246
-0.13178294897079468 0.751937985420227 -0.47613659501075745
-0.13178294897079468 0.7519379258155823 -0.44095179438591003
-0.13178294897079468 0.7674418687820435 -0.48061031103134155
-0.13178294897079468 0.7674418687820435 -0.45266997814178467
-0.13178294897079468 0.7829457521438599 -0.4892919957637787
-0.13178294897079468 0.7829457521438599 -0.4571782350540161
-0.13178294897079468 0.7984496355056763 -0.49005818367004395
-0.13178294897079468 0.7984496355056763 -0.46943673491477966
-0.11627906560897827 -0.8449611663818359 0.28147977590560913
-0.11627906560897827 -0.8449612259864807 0.2909947633743286
-0.11627906560897827 -0.8294574022293091 0.2611202001571655
-0.11627906560897827 -0.8294574022293091 0.3240509033203125
-0.11627906560897827 -0.8139535188674927 0.254712849855423
-0.11627906560897827 -0.8139535188674927 0.33519184589385986
-0.11627906560897827 -0.7984496355056763 0.2524198293685913
-0.11627906560897827 -0.7984496355056763 0.34452024102211
-0.11627906560897827 -0.7829457521438599 0.2505877614021301
-0.11627906560897827 -0.7829457521438599 0.35118499398231506
-0.11627906560897827 -0.7674418687820435 0.24948084354400635
-0.11627906560897827 -0.7674418687820435 0.35810643434524536
-0.11627906560897827 -0.751937985420227 0.2490082085132599
-0.11627906560897827 -0.751937985420227 0.3614976406097412
-0.11627906560897827 -0.7364341020584106 0.24906308948993683
-0.11627906560897827 -0.7364341020584106 0.3660866618156433
-0.11627906560897827 -0.7209302186965942 0.24947035312652588
-0.11627906560897827 -0.7209302186965942 0.37080228328704834
-0.11627906560897827 -0.7054263353347778 0.24998871982097626
-0.11627906560897827 -0.7054263353347778 0.37459245324134827
-0.11627906560897827 -0.6899224519729614 0.25060856342315674
-0.11627906560897827 -0.6899224519729614 0.3798997402191162
-0.11627906560897827 -0.674418568611145 0.25096383690834045
-0.11627906560897827 -0.674418568611145 0.38781189918518066
-0.11627906560897827 -0.6589146852493286 0.2514567971229553
-0.11627906560897827 -0.6589146852493286 0.39500120282173157
-0.11627906560897827 -0.643410861492157 0.2517344653606415
-0.11627906560897827 -0.643410861492157 0.40508732199668884
-0.11627906560897827 -0.6279069781303406 0.25204434990882874
-0.11627906560897827 -0.6279069185256958 0.4129984974861145
-0.11627906560897827 -0.6124030947685242 0.2522708475589752
-0.11627906560897827 -0.6124030947685242 0.42287197709083557
-0.11627906560897827 -0.5968992114067078 0.25256311893463135
-0.11627906560897827 -0.5968992114067078 0.4310314655303955
-0.11627906560897827 -0.5813953876495361 0.253066748380661
-0.11627906560897827 -0.5813953876495361 0.4395538568496704
-0.11627906560897827 -0.5658915042877197 0.25363510847091675
-0.11627906560897827 -0.5658915042877197 0.4463236927986145
-0.11627906560897827 -0.5503876209259033 0.2543630599975586
-0.11627906560897827 -0.5503876209259033 0.45342427492141724
-0.11627906560897827 -0.5503876209259033 0.6656461954116821
-0.11627906560897827 -0.5503876209259033 0.763493001461029
-0.11627906560897827 -0.5348837375640869 0.2551704943180084
-0.11627906560897827 -0.5348837375640869 0.45964181423187256
-0.11627906560897827 -0.5348837375640869 0.6193923950195312
-0.11627906560897827 -0.5348837375640869 0.8155775666236877
-0.11627906560897827 -0.5193798542022705 -0.32086461782455444
-0.11627906560897827 -0.5193798542022705 -0.20888514816761017
-0.11627906560897827 -0.5193798542022705 0.2559734582901001
-0.11627906560897827 -0.5193798542022705 0.46988236904144287
-0.11627905815839767 -0.5193798542022705 0.5837456583976746
-0.11627906560897827 -0.5193798542022705 0.842563807964325
-0.11627906560897827 -0.5038759708404541 -0.3597742021083832
-0.11627906560897827 -0.5038759708404541 -0.12032735347747803
-0.11627906560897827 -0.5038759708404541 0.25701597332954407
-0.11627906560897827 -0.5038759708404541 0.49298492074012756
-0.11627906560897827 -0.5038759708404541 0.5425967574119568
-0.11627906560897827 -0.5038759708404541 0.8644708395004272
-0.11627906560897827 -0.4883720874786377 -0.3920893669128418
-0.11627906560897827 -0.4883720874786377 -0.07868961989879608
-0.11627906560897827 -0.4883720874786377 0.2569829225540161
-0.11627906560897827 -0.4883720874786377 0.8818280696868896
-0.11627906560897827 -0.4728681743144989 -0.4232398271560669
-0.11627906560897827 -0.4728682041168213 -0.04648277908563614
-0.11627906560897827 -0.4728682041168213 0.2557065784931183
-0.11627906560897827 -0.4728682041168213 0.8937433362007141
-0.11627906560897827 -0.4573643207550049 -0.4523417353630066
-0.11627906560897827 -0.4573643207550049 -0.01529223658144474
-0.11627906560897827 -0.4573643207550049 0.2543517053127289
-0.11627906560897827 -0.4573643207550049 0.9043257236480713
-0.11627906560897827 -0.4418604373931885 -0.4759203791618347
-0.11627906560897827 -0.4418604373931885 0.024587074294686317
-0.11627906560897827 -0.4418604373931885 0.2529347538948059
-0.11627906560897827 -0.4418604373931885 0.9142361283302307
-0.11627906560897827 -0.42635661363601685 -0.4944024682044983
-0.11627906560897827 -0.42635661363601685 0.07408858090639114
-0.11627906560897827 -0.42635661363601685 0.2504001557826996
-0.11627906560897827 -0.42635661363601685 0.9193068742752075
-0.11627906560897827 -0.41085273027420044 -0.5105836987495422
-0.11627906560897827 -0.41085273027420044 0.10368777066469193
-0.11627906560897827 -0.41085273027420044 0.2482891082763672
-0.11627906560897827 -0.41085273027420044 0.9213981032371521
-0.11627906560897827 -0.39534884691238403 -0.5263849496841431
-0.11627907305955887 -0.39534884691238403 0.12098370492458344
-0.11627906560897827 -0.39534884691238403 0.2464844435453415
-0.11627906560897827 -0.39534884691238403 0.9274855256080627
-0.11627906560897827 -0.3798449635505676 -0.9382080435752869
-0.11627906560897827 -0.3798449635505676 -0.9378817677497864
-0.11627906560897827 -0.3798449635505676 -0.5440042018890381
-0.11627905815839767 -0.3798449635505676 0.13312573730945587
-0.11627906560897827 -0.3798449635505676 0.24424982070922852
-0.11627906560897827 -0.3798449635505676 0.9326523542404175
-0.11627906560897827 -0.3643410801887512 -0.9406833052635193
-0.11627906560897827 -0.3643410801887512 -0.9367700815200806
-0.11627906560897827 -0.3643410801887512 -0.5674322247505188
-0.11627906560897827 -0.3643410801887512 0.14300724864006042
-0.11627907305955887 -0.3643410801887512 0.24081742763519287
-0.11627906560897827 -0.3643410801887512 0.9345083236694336
-0.11627906560897827 -0.3488371968269348 -0.942446768283844
-0.11627906560897827 -0.3488371968269348 -0.935827910900116
-0.11627906560897827 -0.3488371968269348 -0.5893890857696533
-0.11627906560897827 -0.3488371968269348 0.15091794729232788
-0.11627906560897827 -0.3488371968269348 0.23762263357639313
-0.11627906560897827 -0.3488371968269348 0.9351310729980469
-0.11627906560897827 -0.3333333134651184 -0.9435978531837463
-0.11627906560897827 -0.333333283662796 -0.9347223043441772
-0.11627907305955887 -0.3333333134651184 -0.606032133102417
-0.11627906560897827 -0.3333333134651184 0.15926215052604675
-0.11627906560897827 -0.3333333134651184 0.2339707612991333
-0.11627906560897827 -0.3333333134651184 0.9354292154312134
-0.11627906560897827 -0.317829430103302 -0.9437692165374756
-0.11627906560897827 -0.317829430103302 -0.9339791536331177
-0.11627906560897827 -0.317829430103302 -0.6194255352020264
-0.11627906560897827 -0.317829430103302 0.169021874666214
-0.11627906560897827 -0.317829430103302 0.23008379340171814
-0.11627906560897827 -0.317829430103302 0.935245156288147
-0.11627906560897827 -0.30232560634613037 -0.9435405731201172
-0.11627906560897827 -0.30232560634613037 -0.9332250356674194
-0.11627906560897827 -0.30232560634613037 -0.6293457746505737
-0.11627906560897827 -0.30232560634613037 0.17918139696121216
-0.11627906560897827 -0.30232560634613037 0.22270828485488892
-0.11627906560897827 -0.30232560634613037 0.9345974326133728
-0.11627906560897827 -0.28682172298431396 -0.9431430101394653
-0.11627906560897827 -0.28682172298431396 -0.932201623916626
-0.11627906560897827 -0.28682172298431396 -0.6387001276016235
-0.11627906560897827 -0.28682172298431396 0.19320376217365265
-0.11627906560897827 -0.28682172298431396 0.21124239265918732
-0.11627906560897827 -0.28682172298431396 0.9337540864944458
-0.11627906560897827 -0.27131783962249756 -0.9427105188369751
-0.11627906560897827 -0.27131783962249756 -0.9312154054641724
-0.11627906560897827 -0.27131783962249756 -0.6497113704681396
-0.11627906560897827 -0.27131783962249756 0.9323086738586426
-0.11627906560897827 -0.25581395626068115 -0.9423621892929077
-0.11627906560897827 -0.25581395626068115 -0.9304711818695068
-0.11627906560897827 -0.25581395626068115 -0.6576493978500366
-0.11627906560897827 -0.25581395626068115 0.9289807081222534
-0.11627906560897827 -0.24031007289886475 -0.9421426057815552
-0.11627906560897827 -0.24031007289886475 -0.9301443696022034
-0.11627906560897827 -0.24031007289886475 -0.6686820983886719
-0.11627906560897827 -0.24031007289886475 0.9226891994476318
-0.11627906560897827 -0.22480618953704834 -0.9420256018638611
-0.11627906560897827 -0.22480618953704834 -0.9298974275588989
-0.11627906560897827 -0.22480618953704834 -0.6788610219955444
-0.11627906560897827 -0.22480618953704834 0.9198600649833679
-0.11627906560897827 -0.20930230617523193 -0.941978931427002
-0.11627906560897827 -0.20930230617523193 -0.9298771619796753
-0.11627906560897827 -0.20930230617523193 -0.6864033937454224
-0.11627906560897827 -0.20930230617523193 0.9179260730743408
-0.11627906560897827 -0.19379842281341553 -0.9419769048690796
-0.11627906560897827 -0.19379842281341553 -0.929898202419281
-0.11627906560897827 -0.19379842281341553 -0.6935876607894897
-0.11627906560897827 -0.19379842281341553 0.9116346836090088
-0.11627906560897827 -0.1782945990562439 -0.9419468641281128
-0.11627906560897827 -0.1782945990562439 -0.9293761253356934
-0.11627906560897827 -0.1782945990562439 -0.6993290781974792
-0.11627906560897827 -0.1782945990562439 0.9045965671539307
-0.11627906560897827 -0.1627907156944275 -0.9418466091156006
-0.11627906560897827 -0.1627907156944275 -0.9281094074249268
-0.11627906560897827 -0.1627907156944275 -0.7022488117218018
-0.11627906560897827 -0.1627907156944275 0.9002083539962769
-0.11627906560897827 -0.14728683233261108 -0.9416676759719849
-0.11627906560897827 -0.14728683233261108 -0.9258835911750793
-0.11627906560897827 -0.14728683233261108 -0.7056786417961121
-0.11627906560897827 -0.14728683233261108 0.8892319798469543
-0.11627906560897827 -0.13178294897079468 -0.9414056539535522
-0.11627906560897827 -0.13178293406963348 -0.9224783778190613
-0.11627906560897827 -0.13178294897079468 -0.7067893147468567
-0.11627906560897827 -0.13178294897079468 0.8787897825241089
-0.11627906560897827 -0.11627906560897827 -0.9411720037460327
-0.11627906560897827 -0.11627906560897827 -0.922196090221405
-0.11627906560897827 -0.11627906560897827 -0.7075726389884949
-0.11627906560897827 -0.11627906560897827 0.8634339570999146
-0.11627906560897827 -0.10077518224716187 -0.9409312605857849
-0.11627906560897827 -0.10077518224716187 -0.9220461845397949
-0.11627906560897827 -0.10077518224716187 -0.7084012627601624
-0.11627906560897827 -0.10077518224716187 0.8444544672966003
-0.11627906560897827 -0.08527129888534546 -0.9408255815505981
-0.11627906560897827 -0.08527129888534546 -0.9219064712524414
-0.11627906560897827 -0.08527129888534546 -0.7094464302062988
-0.11627906560897827 -0.08527129888534546 0.823216438293457
-0.11627906560897827 -0.06976741552352905 -0.9407391548156738
-0.11627905815839767 -0.06976740807294846 -0.9218317866325378
-0.11627906560897827 -0.06976741552352905 -0.7108237743377686
-0.11627906560897827 -0.06976741552352905 0.23237118124961853
-0.11627906560897827 -0.06976741552352905 0.2680320143699646
-0.11627906560897827 -0.06976741552352905 0.8021887540817261
-0.11627906560897827 -0.05426359176635742 -0.9405425786972046
-0.11627906560897827 -0.05426359176635742 -0.9221066832542419
-0.11627906560897827 -0.05426359176635742 -0.7120558023452759
-0.11627906560897827 -0.05426359176635742 0.22326546907424927
-0.11627906560897827 -0.05426359176635742 0.3068144917488098
-0.11627906560897827 -0.05426359176635742 0.7823519706726074
-0.11627906560897827 -0.038759708404541016 -0.93995600938797
-0.11627906560897827 -0.038759708404541016 -0.929314136505127
-0.11627906560897827 -0.038759708404541016 -0.7119075655937195
-0.11627906560897827 -0.038759708404541016 0.21899662911891937
