0.1059073805809021 0.02325582504272461 0.06976747512817383
0.1064295694231987 0.02325582504272461 0.08527135848999023
0.1048932671546936 0.02325582504272461 0.10077524185180664
0.10334272682666779 0.02325582504272461 0.11627912521362305
0.10230891406536102 0.02325582504272461 0.1317828893661499
0.10138469934463501 0.02325582690536976 0.1472867876291275
0.10105287283658981 0.02325582504272461 0.16279065608978271
0.10196904838085175 0.02325582504272461 0.17829453945159912
0.10330075770616531 0.02325582504272461 0.19379842281341553
0.10332963615655899 0.02325582504272461 0.20930230617523193
0.1010666936635971 0.02325582504272461 0.22480620443820953
0.10315872728824615 0.038759708404541016 -0.317829430103302
0.10635160654783249 0.038759708404541016 -0.30232560634613037
0.11238860338926315 0.038759708404541016 -0.28682172298431396
0.11304990947246552 0.038759708404541016 -0.1627907156944275
0.10781604051589966 0.038759708404541016 -0.14728683233261108
0.10391613841056824 0.038759708404541016 -0.13178294897079468
0.10184351354837418 0.038759708404541016 -0.06976741552352905
0.10123424232006073 0.038759708404541016 -0.05426359176635742
0.10224120318889618 0.038759708404541016 0.06976747512817383
0.10297366976737976 0.038759708404541016 0.08527135848999023
0.10170422494411469 0.038759708404541016 0.10077524185180664
0.10178791731595993 0.038759708404541016 0.19379842281341553
0.10205574333667755 0.038759708404541016 0.20930230617523193
0.10231612622737885 0.05426359176635742 -0.317829430103302
0.10543791949748993 0.05426359176635742 -0.30232560634613037
0.1107768714427948 0.05426359176635742 -0.28682172298431396
0.1162201538681984 0.05426359176635742 -0.14728683233261108
0.11354845762252808 0.05426359176635742 -0.13178294897079468
0.10788751393556595 0.05426359176635742 -0.11627906560897827
0.10412345826625824 0.05426359176635742 -0.10077518224716187
0.10407144576311111 0.05426359176635742 -0.08527129888534546
0.10454986244440079 0.05426359176635742 -0.06976741552352905
0.10312506556510925 0.05426359176635742 -0.05426359176635742
0.10158691555261612 0.06976747512817383 -0.317829430103302
0.10466364771127701 0.06976747512817383 -0.30232560634613037
0.10948305577039719 0.06976747512817383 -0.28682172298431396
0.11204615235328674 0.06976747512817383 -0.10077518224716187
0.10798965394496918 0.06976747512817383 -0.08527129888534546
0.10680878162384033 0.06976747512817383 -0.06976741552352905
0.10435862094163895 0.06976747512817383 -0.05426359176635742
0.10079143196344376 0.06976747512817383 -0.038759712129831314
0.10097615420818329 0.08527135848999023 -0.3178294003009796
0.1039264053106308 0.08527135848999023 -0.30232560634613037
0.10836534202098846 0.08527135848999023 -0.28682172298431396
0.11606832593679428 0.08527135848999023 -0.27131783962249756
0.11587926000356674 0.08527135848999023 -0.08527129888534546
0.10984856635332108 0.08527135848999023 -0.06976741552352905
0.1055593267083168 0.08527135848999023 -0.05426359176635742
0.10145144909620285 0.08527135848999023 -0.038759708404541016
0.10300284624099731 0.10077524185180664 -0.30232560634613037
0.10718009620904922 0.10077524185180664 -0.28682172298431396
0.1145315170288086 0.10077524185180664 -0.27131783962249756
0.10756821930408478 0.10077524185180664 -0.05426359176635742
0.10244832932949066 0.10077524185180664 -0.038759708404541016
0.10198794305324554 0.11627911776304245 -0.302325576543808
0.10605771839618683 0.11627912521362305 -0.28682172298431396
0.1133078783750534 0.11627912521362305 -0.27131783962249756
0.11040930449962616 0.11627912521362305 -0.05426359176635742
0.1038021445274353 0.11627911776304245 -0.038759708404541016
0.10081301629543304 0.1317828893661499 -0.30232560634613037
0.10434569418430328 0.1317828893661499 -0.28682172298431396
0.11128054559230804 0.1317828893661499 -0.27131783962249756
0.10788309574127197 0.1317828893661499 -0.05426359176635742
0.10225405544042587 0.1317828893661499 -0.038759708404541016
0.10089017450809479 0.1317828893661499 0.16279065608978271
0.10085634887218475 0.1317828893661499 0.17829453945159912
0.10190889984369278 0.1472867727279663 -0.28682172298431396
0.10728257149457932 0.1472867727279663 -0.27131783962249756
0.11572011560201645 0.1472867727279663 -0.25581395626068115
0.10755889117717743 0.1472867727279663 -0.19379842281341553
0.10349055379629135 0.1472867727279663 -0.1782946139574051
0.10660118609666824 0.1472867727279663 -0.1627907156944275
0.11380112171173096 0.1472867727279663 -0.08527129888534546
0.10163494199514389 0.1472867876291275 0.1472867876291275
0.10183175653219223 0.1472867727279663 0.16279065608978271
0.10167881101369858 0.1472867876291275 0.17829453945159912
0.10136597603559494 0.16279065608978271 -0.27131783962249756
0.10667407512664795 0.16279065608978271 -0.25581395626068115
0.111580990254879 0.16279065608978271 -0.24031007289886475
0.10847604274749756 0.16279065608978271 -0.22480618953704834
0.10341480374336243 0.16279065608978271 -0.13178294897079468
0.10186749696731567 0.16279064118862152 0.1472867727279663
0.10232073068618774 0.16279065608978271 0.16279065608978271
0.10201291739940643 0.16279065608978271 0.17829453945159912
0.10159152001142502 0.17829455435276031 0.16279065608978271
0.10123556852340698 0.17829453945159912 0.17829453945159912
0.11619555205106735 0.39534878730773926 -0.02325582504272461
0.11307178437709808 0.41085267066955566 -0.02325582504272461
0.11467558145523071 0.41085267066955566 -0.007751941680908203
0.1160089299082756 0.42635655403137207 -0.007751941680908203
0.10913348197937012 0.4883720874786377 0.038759708404541016
0.11067996174097061 0.4883720874786377 0.08527135848999023
0.11382033675909042 0.5038759708404541 -0.038759708404541016
0.10409542918205261 0.5038759708404541 -0.02325582504272461
0.1080135777592659 0.5038759708404541 0.10077524185180664
0.11021948605775833 0.5193798542022705 -0.05426359176635742
0.11107020080089569 0.5193798542022705 0.11627912521362305
0.10516592860221863 0.5193798542022705 0.1317828893661499
0.10244368761777878 0.5193798542022705 0.1472867727279663
0.10555656254291534 0.5348837375640869 -0.05426359176635742
0.10891612619161606 0.5348837375640869 0.1317828893661499
0.10418835282325745 0.5348837375640869 0.1472867727279663
0.11343706399202347 0.5503876209259033 -0.05426359176635742
0.10521435737609863 0.5503876209259033 -0.038759708404541016
0.10970868170261383 0.5503876209259033 0.1317828893661499
0.10209240764379501 0.5503876209259033 0.1472867876291275
0.1145540401339531 0.5658915042877197 -0.007751941680908203
0.11260063946247101 0.5658915042877197 0.007751941680908203
0.11349770426750183 0.5658915042877197 0.02325582504272461
0.11313779652118683 0.5658915042877197 0.038759708404541016
0.10336238890886307 0.5658915042877197 0.05426359176635742
0.10267633944749832 0.5658915042877197 0.1317828893661499
0.10353636741638184 0.5813953876495361 0.06976747512817383
0.11452417820692062 0.612403154373169 -0.11627906560897827
0.11465420573949814 0.612403154373169 -0.10077518224716187
0.11483730375766754 0.612403154373169 -0.08527129888534546
0.1148025244474411 0.612403154373169 -0.06976741552352905
0.11599389463663101 0.612403154373169 -0.05426359176635742
0.1010613664984703 0.612403154373169 0.20930230617523193
0.10276057571172714 0.6279069781303406 -0.27131783962249756
0.10428618639707565 0.6279069185256958 -0.25581395626068115
0.10460072010755539 0.6279069185256958 -0.24031007289886475
0.10330993682146072 0.6279069185256958 -0.22480618953704834
0.11048722267150879 0.6279069185256958 -0.10077518224716187
0.11352916061878204 0.6279069185256958 -0.08527129888534546
0.11438348889350891 0.6279069185256958 -0.06976741552352905
0.1015375629067421 0.6279069185256958 0.20930230617523193
0.11257907003164291 0.6434108018875122 -0.28682172298431396
0.1050242930650711 0.6434108018875122 -0.20930232107639313
0.11093780398368835 0.6434108018875122 -0.08527129888534546
0.11509568244218826 0.6434108018875122 -0.06976741552352905
0.10492748022079468 0.6434108018875122 0.06976747512817383
0.10526491701602936 0.6434108018875122 0.08527135848999023
0.10234488546848297 0.6434108018875122 0.20930230617523193
0.10174034535884857 0.6434108018875122 0.22480618953704834
0.10575999319553375 0.6589146852493286 -0.39534884691238403
0.10538740456104279 0.6589146852493286 -0.19379842281341553
0.10289014875888824 0.6589146852493286 -0.08527129888534546
0.11330734193325043 0.6589146852493286 0.08527135848999023
0.10347916185855865 0.6589146852493286 0.20930230617523193
0.10329820215702057 0.6589146852493286 0.22480618953704834
0.10255004465579987 0.674418568611145 -0.08527130633592606
0.10320192575454712 0.674418568611145 0.007751941680908203
0.10732941329479218 0.674418568611145 0.02325582504272461
0.10525031387805939 0.674418568611145 0.05426359176635742
0.10464388877153397 0.674418568611145 0.20930230617523193
0.10484979301691055 0.674418568611145 0.22480618953704834
0.11367981880903244 0.6899224519729614 -0.10077518224716187
0.1016249731183052 0.6899223923683167 -0.08527129888534546
0.10358560085296631 0.6899224519729614 0.02325582504272461
0.1020694226026535 0.6899224519729614 0.038759712129831314
0.11007924377918243 0.6899224519729614 0.05426359176635742
0.10895951092243195 0.6899224519729614 0.10077524185180664
0.10593260824680328 0.6899224519729614 0.20930232107639313
0.1063903346657753 0.6899224519729614 0.22480618953704834
0.11077247560024261 0.7054263353347778 -0.3798449635505676
0.1028858870267868 0.7054263353347778 -0.30232560634613037
0.11140505969524384 0.7054263353347778 -0.10077518224716187
0.10122928768396378 0.7054262757301331 -0.08527129888534546
0.10123609751462936 0.7054262757301331 0.03875970467925072
0.1080431118607521 0.7054263353347778 0.05426359176635742
0.11470770835876465 0.7054263353347778 0.10077524185180664
0.11058712005615234 0.7054263353347778 0.20930230617523193
0.10948687791824341 0.7054263353347778 0.22480618953704834
0.10288932919502258 0.7054263353347778 0.24031007289886475
0.10175517201423645 0.7209302186965942 -0.3798449635505676
0.11429500579833984 0.7209302186965942 -0.28682172298431396
0.10913190245628357 0.7209302186965942 -0.10077518224716187
0.10608591139316559 0.7209302186965942 0.05426359176635742
0.11484545469284058 0.7209302186965942 0.06976747512817383
0.10678194463253021 0.7209302186965942 0.11627912521362305
0.11475574225187302 0.7209302186965942 0.16279065608978271
0.11183229088783264 0.7209302186965942 0.17829453945159912
0.10552789270877838 0.7209302186965942 0.24031007289886475
0.11417962610721588 0.7364341020584106 -0.3643410801887512
0.11349913477897644 0.7364341020584106 -0.11627906560897827
0.10495245456695557 0.7364341020584106 -0.10077518224716187
0.10550696402788162 0.7364341020584106 0.05426359176635742
0.11327183991670609 0.7364341020584106 0.06976747512817383
0.11564347892999649 0.7364341020584106 0.08527135848999023
0.10893537104129791 0.7364341020584106 0.24031007289886475
0.1039375364780426 0.751937985420227 -0.39534884691238403
0.11276528239250183 0.751937985420227 -0.3643410801887512
0.10388407111167908 0.751937985420227 -0.27131783962249756
0.11505624651908875 0.751937985420227 -0.14728683233261108
0.11293305456638336 0.751937985420227 -0.13178294897079468
0.10857979208230972 0.751937985420227 -0.11627906560897827
0.10417049378156662 0.751937985420227 0.05426359176635742
0.11140516400337219 0.751937985420227 0.06976747512817383
0.11296403408050537 0.751937985420227 0.08527135848999023
0.11470508575439453 0.751937985420227 0.10077524185180664
0.11049669981002808 0.751937985420227 0.24031007289886475
0.1125725656747818 0.7674418687820435 -0.39534884691238403
0.10545641928911209 0.7674418687820435 -0.3798449635505676
0.10643249750137329 0.7674418687820435 -0.25581395626068115
0.11265595257282257 0.7674418687820435 -0.24031007289886475
0.1128777265548706 0.7674418687820435 -0.22480618953704834
0.11486347019672394 0.7674418687820435 -0.20930230617523193
0.11514265090227127 0.7674418687820435 -0.19379842281341553
0.11060109734535217 0.7674418687820435 -0.1782945990562439
0.10532179474830627 0.7674418687820435 -0.1627907156944275
0.10429041087627411 0.7674418687820435 -0.14728683233261108
0.10443612933158875 0.7674418687820435 -0.13178294897079468
0.10187219083309174 0.7674418687820435 -0.11627906560897827
0.10161668807268143 0.7674419283866882 0.05426359549164772
0.10894425213336945 0.7674418687820435 0.06976747512817383
0.11019326001405716 0.7674418687820435 0.08527135848999023
0.11059891432523727 0.7674418687820435 0.10077524185180664
0.10730776190757751 0.7674418687820435 0.11627912521362305
0.10593828558921814 0.7674418687820435 0.16279065608978271
0.1080467700958252 0.7674418687820435 0.24031005799770355
0.10362378507852554 0.7829458117485046 -0.25581395626068115
0.10492653399705887 0.7829457521438599 -0.24031007289886475
0.10319440811872482 0.7829457521438599 -0.22480618953704834
0.1020604819059372 0.7829457521438599 -0.20930230617523193
0.10138395428657532 0.7829457521438599 -0.19379842281341553
0.10705822706222534 0.7829457521438599 0.06976747512817383
0.10809241980314255 0.7829457521438599 0.08527135848999023
0.10703889280557632 0.7829457521438599 0.10077524185180664
0.10536043345928192 0.7829457521438599 0.22480618953704834
0.1040138378739357 0.7829456925392151 0.24031007289886475
0.10131676495075226 0.7984496355056763 -0.27131780982017517
0.10376707464456558 0.7984496355056763 -0.25581395626068115
0.10433702915906906 0.7984496355056763 -0.24031005799770355
0.10277175158262253 0.7984496355056763 -0.22480617463588715
0.10095151513814926 0.7984496355056763 -0.20930232107639313
0.10437975823879242 0.7984496355056763 0.06976747512817383
0.1055116057395935 0.7984496355056763 0.08527135848999023
0.1027265191078186 0.7984495759010315 0.10077524185180664
0.10103245824575424 0.7984496355056763 0.24031005799770355
0.10198561102151871 0.8139535188674927 -0.27131783962249756
0.10375292599201202 0.8139535188674927 -0.25581395626068115
0.10426900535821915 0.8139534592628479 -0.24031007289886475
0.10290782153606415 0.8139535188674927 -0.22480618953704834
0.10145729780197144 0.8139535188674927 -0.20930230617523193
0.10099579393863678 0.8139534592628479 0.08527135103940964
0.10135257244110107 0.8294573426246643 -0.27131780982017517
0.10300777852535248 0.8294574022293091 -0.25581395626068115
0.10356880724430084 0.8294574022293091 -0.24031007289886475
0.10251621156930923 0.8294574022293091 -0.22480618953704834
0.10123106837272644 0.8294574022293091 -0.20930232107639313
0.10175777971744537 0.8449612855911255 -0.25581395626068115
0.10246193408966064 0.8449612855911255 -0.24031007289886475
0.1018262580037117 0.8449612855911255 -0.22480618953704834
0.1008743941783905 0.8604651689529419 -0.24031007289886475
0.1008693277835846 0.8604651689529419 -0.22480620443820953
0.10117051750421524 0.9069766998291016 -0.19379842281341553
0.10316049307584763 0.9069766998291016 -0.1782945990562439
0.10179472714662552 0.9069766998291016 -0.16279073059558868
0.10255834460258484 0.9224806427955627 -0.19379842281341553
0.10538976639509201 0.922480583190918 -0.1782945990562439
0.10256033390760422 0.922480583190918 -0.1627907156944275
0.10193336009979248 0.9379844665527344 -0.1782945841550827
0.10564203560352325 0.9689922332763672 -0.14728683233261108
0.1061156690120697 0.9844961166381836 -0.1782945990562439
0.1191769689321518 -0.7364341020584106 -0.20930230617523193
0.1220742017030716 -0.7364341020584106 -0.19379842281341553
0.12221435457468033 -0.7364341020584106 -0.1782945990562439
0.12066076695919037 -0.7364341616630554 -0.1627907156944275
0.11874210834503174 -0.7364341020584106 -0.14728683233261108
0.11662119626998901 -0.7364340424537659 -0.13178294897079468
0.12109699100255966 -0.7209302186965942 -0.22480618953704834
0.12969543039798737 -0.7209302186965942 -0.1627907156944275
0.12478026002645493 -0.7209302186965942 -0.14728683233261108
0.12159667909145355 -0.7209302186965942 -0.13178294897079468
0.11972936242818832 -0.7209302186965942 -0.11627906560897827
0.11791098117828369 -0.7209302186965942 -0.10077518224716187
0.12397508323192596 -0.7054263353347778 -0.22480618953704834
0.1300928145647049 -0.7054263353347778 -0.13178294897079468
0.12567654252052307 -0.7054263353347778 -0.11627906560897827
0.12304628640413284 -0.7054263353347778 -0.10077518224716187
0.12189488857984543 -0.7054263353347778 -0.08527129888534546
0.1199769377708435 -0.7054263353347778 -0.06976741552352905
0.13070997595787048 -0.6899224519729614 -0.08527129888534546
0.12697549164295197 -0.6899224519729614 -0.06976741552352905
0.12220902740955353 -0.6899224519729614 -0.05426359176635742
0.1275395303964615 -0.674418568611145 -0.19379842281341553
0.12906283140182495 -0.674418568611145 -0.05426359176635742
0.12120932340621948 -0.674418568611145 -0.038759708404541016
0.11940045654773712 -0.6589146852493286 -0.19379842281341553
0.12535791099071503 -0.6589146852493286 -0.1782945990562439
0.12564989924430847 -0.6589146852493286 -0.038759708404541016
0.12137728929519653 -0.643410861492157 -0.19379842281341553
0.12137869745492935 -0.643410861492157 -0.1782945990562439
0.12457044422626495 -0.643410861492157 -0.1627907156944275
0.12987932562828064 -0.643410861492157 -0.14728683233261108
0.13097821176052094 -0.643410861492157 -0.13178294897079468
0.12805281579494476 -0.643410861492157 -0.11627906560897827
0.1287573128938675 -0.643410861492157 -0.10077518224716187
0.12772513926029205 -0.643410861492157 -0.05426359176635742
0.12280426919460297 -0.6279069185256958 -0.1782945990562439
0.12125083804130554 -0.6279069781303406 -0.1627907156944275
0.12293928861618042 -0.6279069781303406 -0.14728683233261108
0.12352637946605682 -0.6279069781303406 -0.13178294897079468
0.12269167602062225 -0.6279069781303406 -0.11627906560897827
0.12123875319957733 -0.6279069781303406 -0.10077518224716187
0.11872586607933044 -0.6279069781303406 -0.08527129888534546
0.1313125342130661 -0.6279069781303406 -0.02325582504272461
0.12390362471342087 -0.6279069781303406 0.02325582504272461
0.1187024861574173 -0.6124030947685242 -0.1782945990562439
0.11753993481397629 -0.6124030947685242 -0.1627907156944275
0.11825169622898102 -0.6124030947685242 -0.14728683233261108
0.11840634047985077 -0.6124030351638794 -0.13178294897079468
0.11834350228309631 -0.6124030947685242 -0.11627907305955887
0.11742889881134033 -0.6124030947685242 -0.10077518224716187
0.1259910762310028 -0.6124030947685242 -0.02325582504272461
0.11937202513217926 -0.6124030947685242 0.05426359176635742
0.13159406185150146 -0.5968992114067078 -0.02325582504272461
0.12966617941856384 -0.5813953876495361 -0.007751941680908203
0.11711127310991287 -0.5503875613212585 0.03875970467925072
0.12210208177566528 -0.5503876209259033 0.1472867727279663
0.1292424499988556 -0.5348837375640869 0.10077524185180664
0.12833738327026367 -0.5348837375640869 0.11627912521362305
0.12610512971878052 -0.5348837375640869 0.1317828893661499
0.12390881776809692 -0.5348837375640869 0.1472867727279663
0.12100952118635178 -0.5348837375640869 0.16279065608978271
0.11723130941390991 -0.5348837375640869 0.17829453945159912
0.11744880676269531 -0.5193798542022705 0.1472867876291275
0.11950011551380157 -0.5193798542022705 0.16279065608978271
0.1198381707072258 -0.5193798542022705 0.17829452455043793
0.11786288022994995 -0.5193798542022705 0.19379842281341553
0.11839509755373001 -0.5038759708404541 0.17829453945159912
0.11984874308109283 -0.5038759708404541 0.19379842281341553
0.11805877089500427 -0.5038759708404541 0.20930230617523193
0.11799564957618713 -0.4883720874786377 0.19379842281341553
0.11981941759586334 -0.4883720874786377 0.20930230617523193
0.11761043965816498 -0.4883720874786377 0.22480618953704834
0.11673422902822495 -0.4728682041168213 0.20930232107639313
0.11896064877510071 -0.4728682339191437 0.22480618953704834
0.11727172136306763 -0.4728682041168213 0.24031007289886475
0.11640923470258713 -0.4573643207550049 0.24031007289886475
0.1222342997789383 -0.317829430103302 -0.22480618953704834
0.13009443879127502 -0.317829430103302 -0.20930230617523193
0.12047675251960754 -0.317829430103302 -0.1782945990562439
0.12934985756874084 -0.317829430103302 -0.1627907156944275
0.13176438212394714 -0.317829430103302 -0.14728683233261108
0.12130849063396454 -0.30232560634613037 -0.24031007289886475
0.12398052215576172 -0.30232560634613037 -0.1627907156944275
0.1308632493019104 -0.30232560634613037 -0.14728683233261108
0.1176009327173233 -0.28682172298431396 -0.25581395626068115
0.12574583292007446 -0.28682172298431396 -0.24031007289886475
0.12636765837669373 -0.28682172298431396 -0.1627907156944275
0.12061189115047455 -0.27131783962249756 -0.25581395626068115
0.13018174469470978 -0.27131783962249756 -0.24031007289886475
0.12023098766803741 -0.27131783962249756 -0.1782945990562439
0.12035195529460907 -0.25581395626068115 -0.25581395626068115
0.13123419880867004 -0.25581395626068115 -0.24031007289886475
0.12124685198068619 -0.25581395626068115 -0.19379842281341553
0.13008742034435272 -0.1627907156944275 -0.11627906560897827
0.13001567125320435 -0.1627907156944275 -0.10077518224716187
0.1275910884141922 -0.14728683233261108 -0.11627906560897827
0.1266084760427475 -0.14728683233261108 -0.10077518224716187
0.12882909178733826 -0.13178294897079468 -0.11627906560897827
0.1282287836074829 -0.13178294897079468 -0.10077518224716187
0.11634257435798645 -0.08527129143476486 -0.28682172298431396
0.11773712188005447 -0.08527129888534546 -0.27131783962249756
0.11936324834823608 -0.08527130633592606 -0.25581395626068115
0.1186918169260025 -0.08527129888534546 -0.24031007289886475
0.11702916026115417 -0.06976741552352905 -0.28682172298431396
0.1195424497127533 -0.06976741552352905 -0.27131783962249756
0.12529462575912476 -0.06976741552352905 -0.25581395626068115
0.13177534937858582 -0.06976741552352905 -0.24031007289886475
0.1188654899597168 -0.06976741552352905 -0.22480618953704834
0.11771281808614731 -0.05426359549164772 -0.28682175278663635
0.1215769499540329 -0.05426359176635742 -0.27131783962249756
0.13031180202960968 -0.05426359176635742 -0.25581395626068115
0.11792595684528351 -0.038759708404541016 -0.28682172298431396
0.12241372466087341 -0.038759708404541016 -0.27131783962249756
0.13142602145671844 -0.038759708404541016 -0.25581395626068115
0.11990347504615784 -0.038759708404541016 -0.20930232107639313
0.1176946759223938 -0.02325582504272461 -0.28682172298431396
0.12216964364051819 -0.02325582504272461 -0.27131783962249756
0.13035066425800323 -0.02325582504272461 -0.25581395626068115
0.11706274002790451 -0.007751941680908203 -0.28682172298431396
0.12111113965511322 -0.00775194214656949 -0.27131783962249756
0.12773433327674866 -0.007751941680908203 -0.25581395626068115
0.12633712589740753 -0.007751941680908203 -0.19379842281341553
0.13143952190876007 -0.007751941680908203 -0.11627906560897827
0.11642864346504211 0.007751941680908203 -0.28682172298431396
0.1199033111333847 0.007751941680908203 -0.27131783962249756
0.12504400312900543 0.007751941680908203 -0.25581395626068115
0.13153237104415894 0.007751941680908203 -0.24031007289886475
0.12966690957546234 0.007751941680908203 -0.13178294897079468
0.12743701040744781 0.007751941680908203 -0.11627906560897827
0.13170181214809418 0.007751941680908203 -0.10077518224716187
0.11870406568050385 0.02325582504272461 -0.27131783962249756
0.12281008064746857 0.02325582504272461 -0.25581395626068115
0.12791787087917328 0.02325582504272461 -0.24031007289886475
0.12112319469451904 0.02325582504272461 -0.1782945990562439
0.1286635845899582 0.02325582504272461 -0.14728683233261108
0.12630343437194824 0.02325582504272461 -0.13178294897079468
0.12542930245399475 0.02325582504272461 -0.11627906560897827
0.13044917583465576 0.02325582504272461 -0.10077518224716187
0.11779381334781647 0.038759708404541016 -0.27131783962249756
0.12138266116380692 0.038759708404541016 -0.25581395626068115
0.1257052719593048 0.038759708404541016 -0.24031007289886475
0.12978936731815338 0.038759708404541016 -0.22480618953704834
0.12225911766290665 0.038759708404541016 -0.1627907156944275
0.12381770461797714 0.038759708404541016 -0.14728683233261108
0.12349624931812286 0.038759708404541016 -0.13178294897079468
0.1243492066860199 0.038759708404541016 -0.11627906560897827
0.1298958957195282 0.038759708404541016 -0.10077518224716187
0.11710955947637558 0.05426359176635742 -0.27131783962249756
0.12042275071144104 0.05426359176635742 -0.25581395626068115
0.12411542236804962 0.05426359176635742 -0.24031007289886475
0.12786279618740082 0.05426359176635742 -0.22480618953704834
0.11633262783288956 0.05426359176635742 -0.14728683233261108
0.11808130890130997 0.05426358804106712 -0.13178294897079468
0.12179351598024368 0.05426359176635742 -0.11627906560897827
0.1289471536874771 0.05426359176635742 -0.10077518224716187
0.11663077771663666 0.06976747512817383 -0.27131783962249756
0.11970368027687073 0.06976747512817383 -0.25581395626068115
0.12276001274585724 0.06976747512817383 -0.24031007289886475
0.12622955441474915 0.06976747512817383 -0.22480618953704834
0.13000985980033875 0.06976747512817383 -0.20930230617523193
0.12227015197277069 0.06976747512817383 -0.10077518224716187
0.11896589398384094 0.08527136594057083 -0.25581395626068115
0.1216253787279129 0.08527135848999023 -0.24031008780002594
0.12465725839138031 0.08527135848999023 -0.22480618953704834
0.1280115246772766 0.08527135848999023 -0.20930230617523193
0.11827148497104645 0.10077524185180664 -0.25581395626068115
0.12087655067443848 0.10077524930238724 -0.24031007289886475
0.12352316081523895 0.10077524185180664 -0.22480618953704834
0.12691843509674072 0.10077524185180664 -0.20930230617523193
0.11635756492614746 0.10077524185180664 -0.06976741552352905
0.11779414117336273 0.11627912521362305 -0.25581395626068115
0.12048915028572083 0.11627912521362305 -0.24031007289886475
0.12296008318662643 0.11627912521362305 -0.22480618953704834
0.126329705119133 0.11627912521362305 -0.20930230617523193
0.1170920878648758 0.1317828893661499 -0.25581395626068115
0.11945658922195435 0.1317828893661499 -0.24031007289886475
0.12148265540599823 0.1317828893661499 -0.22480618953704834
0.12331683933734894 0.1317828893661499 -0.20930230617523193
0.12900011241436005 0.1317828893661499 -0.19379842281341553
0.11775369942188263 0.1472867727279663 -0.24031008780002594
0.11853951215744019 0.1472867727279663 -0.22480618953704834
0.1175403743982315 0.1472867727279663 -0.20930230617523193
0.12958315014839172 0.1472867727279663 -0.1782945990562439
0.12308744341135025 0.1472867727279663 -0.1627907156944275
0.11749078333377838 0.1472867727279663 -0.08527129888534546
0.1258670836687088 0.1472867727279663 -0.06976741552352905
0.12999191880226135 0.16279065608978271 -0.1627907156944275
0.12540045380592346 0.16279065608978271 -0.14728683233261108
0.12043753266334534 0.16279065608978271 -0.13178294897079468
0.11958035826683044 0.16279065608978271 -0.11627906560897827
0.12313828617334366 0.16279065608978271 -0.10077518224716187
0.12714192271232605 0.16279065608978271 -0.08527129888534546
0.12929768860340118 0.16279065608978271 -0.06976741552352905
0.13165302574634552 0.16279065608978271 -0.05426359176635742
0.13139888644218445 0.17829453945159912 -0.1627907156944275
0.12858915328979492 0.17829453945159912 -0.14728683233261108
0.1261613368988037 0.17829453945159912 -0.13178294897079468
0.1256767213344574 0.17829453945159912 -0.11627906560897827
0.12734520435333252 0.17829453945159912 -0.10077518224716187
0.12900184094905853 0.17829453945159912 -0.08527129888534546
0.13048341870307922 0.17829453945159912 -0.06976741552352905
0.1294923722743988 0.19379842281341553 -0.14728683233261108
0.1276259571313858 0.19379842281341553 -0.13178294897079468
0.1272587776184082 0.19379842281341553 -0.11627906560897827
0.12853212654590607 0.19379842281341553 -0.10077518224716187
0.13010096549987793 0.19379842281341553 -0.08527129888534546
0.13101650774478912 0.20930230617523193 -0.14728683233261108
0.12892498075962067 0.20930230617523193 -0.13178294897079468
0.12815088033676147 0.20930230617523193 -0.11627906560897827
0.12910781800746918 0.20930230617523193 -0.10077518224716187
0.13082754611968994 0.20930230617523193 -0.08527129888534546
0.1302512139081955 0.22480618953704834 -0.13178294897079468
0.12887074053287506 0.22480618953704834 -0.11627906560897827
0.12936152517795563 0.22480618953704834 -0.10077518224716187
0.13095106184482574 0.22480618953704834 -0.08527129888534546
0.1310061812400818 0.24031007289886475 -0.13178294897079468
0.12925992906093597 0.24031007289886475 -0.11627906560897827
0.1294180452823639 0.24031007289886475 -0.10077518224716187
0.13065744936466217 0.24031007289886475 -0.08527129888534546
0.12998215854167938 0.25581395626068115 -0.11627906560897827
0.12984797358512878 0.25581395626068115 -0.10077518224716187
0.13048924505710602 0.25581395626068115 -0.08527129888534546
0.13096897304058075 0.25581395626068115 -0.06976741552352905
0.13140714168548584 0.25581395626068115 -0.05426359176635742
0.13172601163387299 0.25581395626068115 -0.038759708404541016
0.13143415749073029 0.27131783962249756 -0.11627906560897827
0.13061541318893433 0.27131783962249756 -0.10077518224716187
0.13029778003692627 0.27131783962249756 -0.08527129888534546
0.12999728322029114 0.27131783962249756 -0.06976741552352905
0.1299070119857788 0.27131783962249756 -0.05426359176635742
0.13000239431858063 0.27131783962249756 -0.038759708404541016
0.1309695988893509 0.27131783962249756 -0.02325582504272461
0.13029004633426666 0.28682172298431396 -0.08527129888534546
0.12925252318382263 0.28682172298431396 -0.06976741552352905
0.12855908274650574 0.28682172298431396 -0.05426359176635742
0.12814679741859436 0.28682172298431396 -0.038759708404541016
0.12912215292453766 0.28682172298431396 -0.02325582504272461
0.1306038349866867 0.30232560634613037 -0.08527129888534546
0.12879201769828796 0.30232560634613037 -0.06976741552352905
0.1268450915813446 0.30232560634613037 -0.05426359176635742
0.12523216009140015 0.30232560634613037 -0.038759708404541016
0.12596991658210754 0.30232560634613037 -0.02325582504272461
0.12961316108703613 0.30232560634613037 -0.007751941680908203
0.13139721751213074 0.3178294897079468 -0.08527129888534546
0.12922534346580505 0.3178294897079468 -0.06976741552352905
0.12665148079395294 0.3178294897079468 -0.05426359176635742
0.12424865365028381 0.3178294897079468 -0.038759708404541016
0.12380178272724152 0.3178294897079468 -0.02325582504272461
0.12691740691661835 0.3178294897079468 -0.007751941680908203
0.1299895942211151 0.3333333730697632 -0.06976741552352905
0.12771859765052795 0.3333333730697632 -0.05426359176635742
0.12533073127269745 0.3333333730697632 -0.038759708404541016
0.12400518357753754 0.3333333730697632 -0.02325582504272461
0.12568815052509308 0.3333333730697632 -0.007751941680908203
0.1298152357339859 0.3333333730697632 0.007751941680908203
0.13048167526721954 0.3488372564315796 -0.06976741552352905
0.12840446829795837 0.3488372564315796 -0.05426359176635742
0.1260676085948944 0.3488372564315796 -0.038759708404541016
0.12465344369411469 0.3488372564315796 -0.02325582504272461
0.12568224966526031 0.3488372564315796 -0.007751941680908203
0.12894389033317566 0.3488372564315796 0.007751941680908203
0.13101425766944885 0.364341139793396 -0.06976741552352905
0.1288738250732422 0.364341139793396 -0.05426359176635742
0.12622767686843872 0.364341139793396 -0.038759708404541016
0.12486019730567932 0.364341139793396 -0.02325582504272461
0.12611624598503113 0.364341139793396 -0.007751941680908203
0.1289287656545639 0.364341139793396 0.007751941680908203
0.12952017784118652 0.37984490394592285 -0.05426359176635742
0.1256963461637497 0.37984490394592285 -0.038759708404541016
0.12337950617074966 0.37984490394592285 -0.02325582504272461
0.12551569938659668 0.37984490394592285 -0.007751941680908203
0.12883244454860687 0.37984490394592285 0.007751941680908203
0.13174891471862793 0.37984490394592285 0.02325582504272461
0.13039198517799377 0.39534878730773926 -0.05426359176635742
0.12367714196443558 0.39534878730773926 -0.038759708404541016
0.12001566588878632 0.39534878730773926 -0.00775194214656949
0.12717804312705994 0.39534878730773926 0.007751941680908203
0.13094183802604675 0.39534878730773926 0.02325582504272461
0.13164082169532776 0.41085267066955566 -0.05426359176635742
0.12393818795681 0.41085267066955566 -0.038759708404541016
0.12418350577354431 0.41085267066955566 0.007751941680908203
0.13027800619602203 0.41085267066955566 0.02325582504272461
0.128773495554924 0.42635655403137207 -0.038759708404541016
0.117438405752182 0.42635655403137207 -0.02325582504272461
0.12534689903259277 0.42635655403137207 0.007751941680908203
0.13034500181674957 0.42635655403137207 0.02325582504272461
0.12862515449523926 0.4418604373931885 -0.02325582504272461
0.12727437913417816 0.4418604373931885 -0.007751941680908203
0.12930843234062195 0.4418604373931885 0.007751941680908203
0.1314251571893692 0.4418604373931885 0.02325582504272461
0.13097639381885529 0.4573643207550049 -0.007751941680908203
0.12917646765708923 0.4883720874786377 -0.02325582504272461
0.12440218031406403 0.4883720874786377 -0.007751941680908203
0.12195558845996857 0.4883720874786377 0.007751941680908203
0.11967752873897552 0.4883720874786377 0.02325582504272461
0.11862201243638992 0.4883720874786377 0.08527135848999023
0.12807847559452057 0.5038759708404541 -0.05426359176635742
0.12377248704433441 0.5038759708404541 0.08527135848999023
0.11711470037698746 0.5038759708404541 0.10077524185180664
0.12852135300636292 0.5193798542022705 -0.06976741552352905
0.12659215927124023 0.5193798542022705 0.08527135848999023
0.11892363429069519 0.5193798542022705 0.10077524185180664
0.12156838178634644 0.5348837375640869 -0.06976741552352905
0.1280163675546646 0.5348837375640869 0.08527135848999023
0.1201307624578476 0.5348837375640869 0.10077524185180664
0.11658208072185516 0.5348837375640869 0.11627912521362305
0.12828734517097473 0.5503876209259033 0.08527135848999023
0.12054909765720367 0.5503876209259033 0.10077524185180664
0.11693856120109558 0.5503876209259033 0.11627912521362305
0.1268530935049057 0.5658915042877197 0.08527135848999023
0.11995579302310944 0.5658915042877197 0.10077524185180664
0.11652757227420807 0.5658915042877197 0.11627912521362305
0.13159675896167755 0.5813953876495361 -0.06976741552352905
0.12420759350061417 0.5813953876495361 0.06976747512817383
0.12266846001148224 0.5813953876495361 0.08527135848999023
0.11815258860588074 0.5813953876495361 0.10077524930238724
0.12568849325180054 0.5968992710113525 -0.08527129888534546
0.11959382146596909 0.5968992710113525 -0.06976741552352905
0.12555892765522003 0.5968992710113525 -0.05426359176635742
0.11797385662794113 0.5968992710113525 0.08527135848999023
0.13109096884727478 0.612403154373169 -0.038759708404541016
0.12231862545013428 0.6279069185256958 -0.14728683233261108
0.11884103715419769 0.6279069185256958 -0.05426359549164772
0.1170295998454094 0.6434108018875122 -0.27131783962249756
0.11733428388834 0.6434108018875122 -0.25581395626068115
0.11743897944688797 0.6434108018875122 -0.24031007289886475
0.11720117181539536 0.6434108018875122 -0.22480618953704834
0.12271855771541595 0.6434108018875122 -0.1627907156944275
0.1180339902639389 0.6589146852493286 -0.30232560634613037
0.12254850566387177 0.6589146852493286 -0.28682172298431396
0.12507644295692444 0.6589146852493286 -0.27131783962249756
0.1243678629398346 0.6589146852493286 -0.25581395626068115
0.1232917308807373 0.6589146852493286 -0.24031007289886475
0.12041258811950684 0.6589146852493286 -0.22480618953704834
0.11808228492736816 0.6589146852493286 -0.20930230617523193
0.11831752210855484 0.6589146852493286 -0.1782945990562439
0.12364135682582855 0.6589146852493286 -0.08527129888534546
0.11676769703626633 0.6589146852493286 0.06976747512817383
0.12098485231399536 0.674418568611145 -0.30232560634613037
0.1302555650472641 0.674418568611145 -0.22480618953704834
0.11946819722652435 0.674418568611145 -0.20930230617523193
0.11700063198804855 0.674418568611145 -0.19379842281341553
0.11774028837680817 0.674418568611145 -0.1782945990562439
0.12878544628620148 0.674418568611145 -0.1627907156944275
0.12082889676094055 0.674418568611145 -0.10077518224716187
0.11809395253658295 0.6744186282157898 0.06976747512817383
0.1174258440732956 0.6744186282157898 0.08527135848999023
0.11996032297611237 0.6899224519729614 -0.30232560634613037
0.12076722085475922 0.6899224519729614 -0.20930230617523193
0.1181773990392685 0.6899224519729614 -0.19379842281341553
0.11758197844028473 0.6899225115776062 -0.1782945990562439
0.11986006796360016 0.6899224519729614 -0.1627907156944275
0.12879244983196259 0.6899224519729614 -0.14728683233261108
0.1309848427772522 0.6899224519729614 -0.13178294897079468
0.12083369493484497 0.6899224519729614 -0.11627906560897827
0.118239626288414 0.6899224519729614 0.06976747512817383
0.11815901100635529 0.6899224519729614 0.08527135848999023
0.12357566505670547 0.7054263353347778 -0.3798449635505676
0.12467604875564575 0.7054263353347778 -0.28682172298431396
0.12201467156410217 0.7054263353347778 -0.20930230617523193
0.11975102871656418 0.7054263353347778 -0.19379842281341553
0.11898878216743469 0.7054263353347778 -0.1782945990562439
0.11860789358615875 0.7054263353347778 -0.1627907156944275
0.11955757439136505 0.7054263353347778 -0.14728683233261108
0.1197795569896698 0.7054263353347778 -0.13178294897079468
0.11774355918169022 0.7054263949394226 -0.11627906560897827
0.11717426776885986 0.7054263353347778 0.06976747512817383
0.11752849072217941 0.7054263353347778 0.08527135848999023
0.12527741491794586 0.7209302186965942 -0.27131783962249756
0.12323787808418274 0.7209302186965942 -0.20930230617523193
0.12160547077655792 0.7209302186965942 -0.19379840791225433
0.12042280286550522 0.720930278301239 -0.1782945990562439
0.11889650672674179 0.7209302186965942 -0.1627907156944275
0.11819495260715485 0.7209301590919495 -0.14728683233261108
0.11787831783294678 0.7209302186965942 -0.13178294897079468
0.11651180684566498 0.7209301590919495 -0.11627905815839767
0.11652013659477234 0.7209301590919495 0.08527135848999023
0.11636847257614136 0.7209302186965942 0.10077524185180664
0.1176237240433693 0.7209302186965942 0.16279065608978271
0.11900431662797928 0.7209302186965942 0.17829453945159912
0.12090401351451874 0.7209302186965942 0.19379842281341553
0.12183542549610138 0.7209302186965942 0.20930230617523193
0.11783173680305481 0.7209302186965942 0.22480618953704834
0.11966682225465775 0.7364341020584106 -0.3643410801887512
0.11842260509729385 0.7364340424537659 -0.27131783962249756
0.1268368512392044 0.7364341020584106 -0.25581395626068115
0.131540447473526 0.7364341020584106 -0.24031007289886475
0.12636956572532654 0.7364341020584106 -0.22480618953704834
0.12433286756277084 0.7364341020584106 -0.20930230617523193
0.12341815233230591 0.7364341020584106 -0.19379842281341553
0.12145474553108215 0.7364341020584106 -0.1782945990562439
0.11875185370445251 0.7364341020584106 -0.1627907156944275
0.11739475280046463 0.7364341020584106 -0.14728683233261108
0.1167803630232811 0.7364341020584106 -0.13178294897079468
0.11667799204587936 0.7364340424537659 0.10077524185180664
0.1175660714507103 0.7364341616630554 0.11627912521362305
0.11926978081464767 0.7364340424537659 0.1317828893661499
0.12137506902217865 0.7364341020584106 0.1472867727279663
0.12311895191669464 0.7364341020584106 0.16279065608978271
0.12484006583690643 0.7364341020584106 0.17829453945159912
0.12669038772583008 0.7364341020584106 0.19379842281341553
0.12641921639442444 0.7364341020584106 0.20930230617523193
0.12180864065885544 0.7364341020584106 0.22480618953704834
0.12331505119800568 0.751937985420227 -0.3643410801887512
0.1189718097448349 0.7519379258155823 -0.25581395626068115
0.12079951167106628 0.751937985420227 -0.24031007289886475
0.12068898230791092 0.751937985420227 -0.22480618953704834
0.12158209085464478 0.751937985420227 -0.20930230617523193
0.12148602306842804 0.751937985420227 -0.19379842281341553
0.11970643699169159 0.751937985420227 -0.1782945990562439
0.11717161536216736 0.751937985420227 -0.1627907156944275
0.11676765978336334 0.751937985420227 0.11627913266420364
0.1185404434800148 0.751937985420227 0.1317828893661499
0.12085840106010437 0.751937985420227 0.1472867727279663
0.12278862297534943 0.751937985420227 0.16279065608978271
0.12459583580493927 0.751937985420227 0.17829453945159912
0.12662965059280396 0.751937985420227 0.19379842281341553
0.12688720226287842 0.751937985420227 0.20930230617523193
0.12282801419496536 0.751937985420227 0.22480618953704834
0.11836846172809601 0.7674418687820435 0.1627906709909439
0.12027087062597275 0.7674418687820435 0.17829453945159912
0.1218186467885971 0.7674418687820435 0.19379842281341553
0.12297112494707108 0.7674418687820435 0.20930230617523193
0.1201198622584343 0.7674419283866882 0.22480618953704834
0.13208571076393127 -0.7209302186965942 -0.20930230617523193
0.13282746076583862 -0.7209302186965942 -0.19379840791225433
0.13262341916561127 -0.7209302186965942 -0.1782945990562439
0.13363222777843475 -0.7054263353347778 -0.20930230617523193
0.13452626764774323 -0.7054263353347778 -0.19379842281341553
0.13468946516513824 -0.7054263353347778 -0.1782945990562439
0.134118914604187 -0.7054263949394226 -0.1627907156944275
0.13306033611297607 -0.7054263353347778 -0.1472868174314499
0.1318947672843933 -0.6899224519729614 -0.20930230617523193
0.13423855602741241 -0.6899224519729614 -0.19379842281341553
0.13504581153392792 -0.6899224519729614 -0.1782945990562439
0.13501213490962982 -0.6899224519729614 -0.1627907156944275
0.13451780378818512 -0.6899224519729614 -0.14728683233261108
0.133811816573143 -0.6899224519729614 -0.13178294897079468
0.13314677774906158 -0.6899224519729614 -0.11627906560897827
0.13255776464939117 -0.6899224519729614 -0.10077518224716187
0.1336434781551361 -0.674418568611145 -0.1782945990562439
0.13430632650852203 -0.674418568611145 -0.1627907156944275
0.13434788584709167 -0.674418568611145 -0.14728683233261108
0.13404864072799683 -0.674418568611145 -0.13178294897079468
0.13390348851680756 -0.674418568611145 -0.11627906560897827
0.1340685337781906 -0.674418568611145 -0.10077518224716187
0.133690744638443 -0.674418568611145 -0.08527129888534546
0.13269823789596558 -0.674418568611145 -0.06976740807294846
0.13240624964237213 -0.6589146852493286 -0.1627907156944275
0.13322755694389343 -0.6589146852493286 -0.14728683233261108
0.1332264095544815 -0.6589147448539734 -0.13178294897079468
0.13328847289085388 -0.6589146852493286 -0.11627906560897827
0.1340331733226776 -0.6589146852493286 -0.10077518224716187
0.13448810577392578 -0.6589146852493286 -0.08527129888534546
0.13402646780014038 -0.6589147448539734 -0.06976741552352905
0.13304054737091064 -0.6589146852493286 -0.05426359176635742
0.13279052078723907 -0.643410861492157 -0.08527129888534546
0.1329757571220398 -0.643410861492157 -0.06976741552352905
0.13845670223236084 -0.6279069185256958 -0.20930230617523193
0.13749195635318756 -0.6279069781303406 -0.19379842281341553
0.13185468316078186 -0.6279069781303406 -0.02325582318007946
0.13321760296821594 -0.6279069781303406 -0.007751941680908203
0.13251617550849915 -0.6279069781303406 0.007751941680908203
0.1360013335943222 -0.6124030947685242 -0.20930230617523193
0.13410918414592743 -0.6124030351638794 -0.19379842281341553
0.13351677358150482 -0.6124030947685242 -0.02325582318007946
0.13550898432731628 -0.6124030947685242 -0.007751941680908203
0.13564260303974152 -0.6124030947685242 0.007751941680908203
0.13514988124370575 -0.6124030947685242 0.02325582504272461
0.1337936371564865 -0.612403154373169 0.038759712129831314
0.1318698674440384 -0.5968992114067078 -0.02325582504272461
0.13627053797245026 -0.5968992114067078 -0.007751941680908203
0.1381307989358902 -0.5968992710113525 0.007751941680908203
0.1382441222667694 -0.5968992114067078 0.02325582504272461
0.1385543793439865 -0.5968992710113525 0.038759708404541016
0.13813751935958862 -0.5968992114067078 0.05426359176635742
0.13477414846420288 -0.5968992114067078 0.06976747512817383
0.1329132318496704 -0.5813953876495361 -0.007751941680908203
0.13948974013328552 -0.5813953876495361 0.007751941680908203
0.14133332669734955 -0.5813953876495361 0.02325582504272461
0.14214052259922028 -0.5813953876495361 0.038759708404541016
0.1425524652004242 -0.5813953876495361 0.05426359176635742
0.14240574836730957 -0.5813953876495361 0.06976747512817383
0.13997845351696014 -0.5813953876495361 0.08527135848999023
0.13262827694416046 -0.5813953876495361 0.10077524930238724
0.1420169323682785 -0.5658915042877197 0.02325582504272461
0.14471110701560974 -0.5658915042877197 0.038759708404541016
0.14487022161483765 -0.5658915042877197 0.05426359176635742
0.14466357231140137 -0.5658915042877197 0.06976747512817383
0.14319175481796265 -0.5658915042877197 0.08527135848999023
0.14036478102207184 -0.5658915042877197 0.10077524185180664
0.13501481711864471 -0.5658915042877197 0.11627912521362305
0.1383732259273529 -0.5503876209259033 0.038759708404541016
0.14211581647396088 -0.5503876209259033 0.05426359176635742
0.14201468229293823 -0.5503876209259033 0.06976747512817383
0.14031122624874115 -0.5503876209259033 0.08527135848999023
0.13796499371528625 -0.5503876209259033 0.10077524185180664
0.1354059875011444 -0.5503876209259033 0.11627912521362305
0.13277600705623627 -0.5503876209259033 0.1317828893661499
0.1469450443983078 -0.4418604373931885 0.038759708404541016
0.14672645926475525 -0.4418604373931885 0.05426359176635742
0.14688442647457123 -0.42635661363601685 0.02325582504272461
0.14430460333824158 -0.42635661363601685 0.038759708404541016
0.14452601969242096 -0.42635661363601685 0.05426359176635742
0.14576062560081482 -0.41085273027420044 0.02325582504272461
0.14395630359649658 -0.41085273027420044 0.038759708404541016
0.1443808227777481 -0.41085273027420044 0.05426359176635742
0.1459553986787796 -0.39534884691238403 0.038759708404541016
0.1465645581483841 -0.39534884691238403 0.05426359176635742
0.1466595083475113 -0.3643410801887512 -0.08527129888534546
0.14606121182441711 -0.3643410801887512 -0.06976741552352905
0.1470196545124054 -0.3488371968269348 -0.11627906560897827
0.14378702640533447 -0.3488371968269348 -0.10077518224716187
0.1426328420639038 -0.3488371968269348 -0.08527129888534546
0.1429290473461151 -0.3488371968269348 -0.06976741552352905
0.14506053924560547 -0.3488371968269348 -0.05426359176635742
0.14266711473464966 -0.3333333134651184 -0.11627906560897827
0.1416180580854416 -0.3333333134651184 -0.10077518224716187
0.14179636538028717 -0.3333333134651184 -0.08527129888534546
0.1429821252822876 -0.3333333134651184 -0.06976741552352905
0.1456238031387329 -0.3333333134651184 -0.05426359176635742
0.132806658744812 -0.317829430103302 -0.19379842281341553
0.13418611884117126 -0.317829430103302 -0.1782945990562439
0.1341300755739212 -0.317829430103302 -0.1627907156944275
0.13184873759746552 -0.3178294003009796 -0.14728683233261108
0.14650067687034607 -0.317829430103302 -0.11627906560897827
0.146029531955719 -0.317829430103302 -0.10077518224716187
0.14630663394927979 -0.317829430103302 -0.08527129888534546
0.1319657564163208 -0.30232560634613037 -0.22480618953704834
0.13559924066066742 -0.30232560634613037 -0.20930230617523193
0.13786177337169647 -0.30232560634613037 -0.19379842281341553
0.1400885134935379 -0.30232560634613037 -0.1782945990562439
0.1400255262851715 -0.30232560634613037 -0.1627907156944275
0.1345510631799698 -0.30232560634613037 -0.14728683233261108
0.13466940820217133 -0.28682172298431396 -0.22480620443820953
0.13866473734378815 -0.28682172298431396 -0.20930230617523193
0.1424960196018219 -0.28682172298431396 -0.19379842281341553
0.14578129351139069 -0.28682172298431396 -0.1782945990562439
0.14050263166427612 -0.28682172298431396 -0.1627907156944275
0.1360381841659546 -0.27131783962249756 -0.22480617463588715
0.14037762582302094 -0.27131783962249756 -0.20930230617523193
0.14543534815311432 -0.27131783962249756 -0.19379842281341553
0.14370222389698029 -0.27131783962249756 -0.1782945990562439
