-0.05426359176635742 0.06510546803474426 0.08527135848999023
-0.05426359176635742 0.05714060738682747 0.37984490394592285
-0.05426359176635742 0.05439581722021103 0.39534878730773926
-0.05426359176635742 0.07029520720243454 -0.28682172298431396
-0.05426359176635742 0.09291812777519226 -0.27131783962249756
-0.05426359176635742 0.09782268106937408 -0.02325582504272461
-0.05426359176635742 0.08838748931884766 -0.007751941215246916
-0.05426359176635742 0.08662930130958557 0.00775194214656949
-0.05426359176635742 0.08660097420215607 0.02325582504272461
-0.05426359176635742 0.09185810387134552 0.038759708404541016
-0.05426359176635742 0.099249929189682 0.10077524185180664
-0.05426359176635742 0.10604280978441238 -0.038759708404541016
-0.05426359176635742 0.12268481403589249 -0.25581395626068115
-0.05426359176635742 0.12689043581485748 -0.08527129888534546
-0.05426359176635742 0.12140379101037979 -0.06976741552352905
-0.05426359176635742 0.11710353940725327 -0.05426359176635742
-0.05426358804106712 0.1181550920009613 0.05426358804106712
-0.05426359176635742 0.13159288465976715 0.10077524185180664
-0.05426359176635742 0.14542609453201294 -0.317829430103302
-0.05426359176635742 0.14418569207191467 -0.30232560634613037
-0.05426359176635742 0.13396714627742767 -0.24031007289886475
-0.05426359176635742 0.134115070104599 -0.22480618953704834
-0.05426359176635742 0.13273018598556519 -0.20930230617523193
-0.05426359176635742 0.13193829357624054 -0.19379842281341553
-0.05426359176635742 0.13209083676338196 -0.1782945990562439
-0.05426359176635742 0.1326504647731781 -0.1627907156944275
-0.05426359176635742 0.13330824673175812 -0.14728683233261108
-0.05426359176635742 0.13347695767879486 -0.13178294897079468
-0.05426359176635742 0.13338598608970642 -0.11627906560897827
-0.05426359549164772 0.1324683129787445 -0.10077518969774246
-0.05426359176635742 0.13213114440441132 0.06976748257875443
-0.05426359176635742 0.13291755318641663 0.08527135848999023
-0.05426359176635742 0.15205103158950806 -0.317829430103302
-0.05426359176635742 0.16459260880947113 -0.30232560634613037
-0.038759708404541016 -0.1478171944618225 -0.317829430103302
-0.038759708404541016 -0.15665702521800995 -0.30232560634613037
-0.038759708404541016 -0.1466214507818222 -0.317829430103302
-0.038759708404541016 -0.14242836833000183 -0.30232560634613037
-0.038759708404541016 -0.1329551637172699 -0.1627907156944275
-0.038759708404541016 -0.1349617838859558 -0.14728683233261108
-0.038759708404541016 -0.1365090310573578 -0.13178294897079468
-0.038759708404541016 -0.13609203696250916 -0.11627906560897827
-0.038759708404541016 -0.132980078458786 -0.10077518224716187
-0.038759708404541016 -0.11833835393190384 -0.24031007289886475
-0.038759708404541016 -0.11955391615629196 -0.22480618953704834
-0.038759708404541016 -0.12030932307243347 -0.20930230617523193
-0.038759708404541016 -0.12270647287368774 -0.19379842281341553
-0.038759708404541016 -0.12815113365650177 -0.1782945990562439
-0.038759708404541016 -0.12679660320281982 -0.08527129888534546
-0.038759708404541016 -0.11998305469751358 -0.06976741552352905
-0.038759708404541016 -0.11664535105228424 0.08527135848999023
-0.038759708404541016 -0.10498613119125366 -0.25581395626068115
-0.038759708404541016 -0.1154245063662529 -0.05426359176635742
-0.038759708404541016 -0.10226799547672272 -0.038759708404541016
-0.038759708404541016 -0.11118191480636597 0.05426359176635742
-0.038759708404541016 -0.11532571166753769 0.06976747512817383
-0.038759708404541016 -0.11585268378257751 0.10077524185180664
-0.038759708404541016 -0.08537013828754425 -0.27131783962249756
-0.038759708404541016 -0.08851707726716995 -0.02325582504272461
-0.038759708404541016 -0.08574248850345612 -0.007751941680908203
-0.038759708404541016 -0.0942387729883194 0.038759708404541016
-0.038759708404541016 -0.09208637475967407 0.10077524185180664
-0.038759708404541016 -0.0704372227191925 -0.28682172298431396
-0.038759708404541016 -0.08295796811580658 0.007751941680908203
-0.03875970467925072 -0.08446025848388672 0.02325582318007946
-0.038759708404541016 -0.07304131984710693 0.37984490394592285
-0.038759708404541016 -0.06150846555829048 0.364341139793396
-0.038759708404541016 -0.040799371898174286 0.08527135848999023
-0.038759708404541016 -0.047383617609739304 0.27131783962249756
-0.038759708404541016 -0.04467731714248657 0.39534878730773926
-0.038759708404541016 -0.03788267448544502 0.08527136594057083
-0.038759708404541016 -0.02684050053358078 0.25581395626068115
-0.038759708404541016 -0.02484523504972458 0.28682172298431396
-0.038759708404541016 0.002549858530983329 0.25581395626068115
-0.038759708404541016 0.005471915006637573 0.28682172298431396
-0.038759708404541016 0.009580997750163078 0.08527135848999023
-0.038759708404541016 0.03266703709959984 0.27131783962249756
-0.038759708404541016 0.04618231952190399 0.364341139793396
-0.038759708404541016 0.045196082442998886 0.39534878730773926
-0.038759708404541016 0.06622020155191422 0.08527135848999023
-0.038759708404541016 0.06255920231342316 0.37984490394592285
-0.038759708404541016 0.0832441970705986 -0.28682172298431396
-0.038759708404541016 0.09669190645217896 -0.27131783962249756
-0.038759708404541016 0.09435782581567764 -0.02325582504272461
-0.038759712129831314 0.08701353520154953 -0.00775194214656949
-0.038759708404541016 0.0857127234339714 0.007751941680908203
-0.038759708404541016 0.08540376275777817 0.02325582504272461
-0.038759708404541016 0.0887274518609047 0.038759708404541016
-0.038759708404541016 0.09860703349113464 0.10077524185180664
-0.038759708404541016 0.10449006408452988 -0.038759708404541016
-0.038759708404541016 0.12239691615104675 -0.25581395626068115
-0.038759708404541016 0.12814320623874664 -0.08527129888534546
-0.038759708404541016 0.1214546263217926 -0.06976741552352905
-0.038759708404541016 0.11676819622516632 -0.05426359176635742
-0.038759708404541016 0.11984360963106155 0.05426359176635742
-0.038759708404541016 0.14508241415023804 -0.317829430103302
-0.038759708404541016 0.14404882490634918 -0.30232560634613037
-0.038759708404541016 0.1346689760684967 -0.24031007289886475
-0.038759708404541016 0.13560357689857483 -0.22480618953704834
-0.038759708404541016 0.1340973824262619 -0.20930230617523193
-0.038759708404541016 0.1332625150680542 -0.19379842281341553
-0.038759708404541016 0.13330604135990143 -0.1782945990562439
-0.038759708404541016 0.13373275101184845 -0.1627907156944275
-0.038759708404541016 0.13421592116355896 -0.14728683233261108
-0.038759708404541016 0.1343425214290619 -0.13178294897079468
-0.038759708404541016 0.13432814180850983 -0.11627906560897827
-0.038759712129831314 0.13315553963184357 -0.10077518224716187
-0.038759708404541016 0.13362927734851837 0.06976747512817383
-0.038759708404541016 0.13459661602973938 0.08527135848999023
-0.038759708404541016 0.13259457051753998 0.10077524185180664
-0.038759708404541016 0.15380164980888367 -0.317829430103302
-0.038759708404541016 0.16588962078094482 -0.30232560634613037
-0.02325582504272461 -0.14921849966049194 -0.317829430103302
-0.02325582504272461 -0.1608622968196869 -0.30232560634613037
-0.02325582504272461 -0.1447347104549408 -0.317829430103302
-0.02325582504272461 -0.14107823371887207 -0.30232560634613037
-0.02325582504272461 -0.13235627114772797 -0.1627907156944275
-0.02325582504272461 -0.13403809070587158 -0.14728683233261108
-0.02325582504272461 -0.13486851751804352 -0.13178294897079468
-0.02325582504272461 -0.1339322179555893 -0.11627906560897827
-0.02325582504272461 -0.13192656636238098 -0.10077518224716187
-0.02325582504272461 -0.11780799180269241 -0.24031007289886475
-0.02325582504272461 -0.11889238655567169 -0.22480618953704834
-0.02325582504272461 -0.11961223930120468 -0.20930230617523193
-0.02325582504272461 -0.12129813432693481 -0.19379842281341553
-0.02325582504272461 -0.12555035948753357 -0.1782945990562439
-0.02325582504272461 -0.12422780692577362 -0.08527129888534546
-0.02325582504272461 -0.11761020869016647 -0.06976741552352905
-0.02325582504272461 -0.11628338694572449 0.05426359176635742
-0.02325582504272461 -0.11785192787647247 0.06976747512817383
-0.02325582504272461 -0.11881223320960999 0.08527135848999023
-0.02325582504272461 -0.11739086359739304 0.10077524185180664
-0.02325582504272461 -0.10403549671173096 -0.25581395626068115
-0.02325582504272461 -0.10538926720619202 -0.05426359176635742
-0.02325582504272461 -0.08577215671539307 -0.27131783962249756
-0.02325582504272461 -0.09197242558002472 -0.038759708404541016
-0.02325582504272461 -0.08550873398780823 -0.02325582504272461
-0.02325582504272461 -0.0916668176651001 0.038759708404541016
-0.02325582504272461 -0.08845600485801697 0.10077524185180664
-0.02325582504272461 -0.07217536121606827 -0.28682172298431396
-0.02325582504272461 -0.07914917171001434 -0.007751941680908203
-0.02325582504272461 -0.07646729052066803 0.007751941680908203
-0.02325582504272461 -0.07776737213134766 0.02325582504272461
-0.02325582504272461 -0.069969043135643 0.364341139793396
-0.02325582504272461 -0.07578932493925095 0.37984490394592285
-0.02325582504272461 -0.04223597049713135 0.27131783962249756
-0.02325582504272461 -0.030945833772420883 0.25581395626068115
-0.02325582504272461 -0.032542090862989426 0.3488372564315796
-0.02325582504272461 -0.008968256413936615 0.28682172298431396
-0.02325582504272461 -0.008057797327637672 0.39534878730773926
-0.02325582504272461 -0.006936814170330763 0.28682172298431396
-0.02325582504272461 -0.000247827498242259 0.3488372564315796
-0.02325582504272461 0.01535849366337061 0.08527135848999023
-0.02325582504272461 0.011329859495162964 0.25581395626068115
-0.02325582504272461 0.015053167939186096 0.39534878730773926
-0.02325582504272461 0.029271148145198822 0.27131783962249756
-0.02325582504272461 0.06609903275966644 0.08527135848999023
-0.02325582504272461 0.055405739694833755 0.364341139793396
-0.02325582504272461 0.0655798614025116 0.37984490394592285
-0.02325582504272461 0.08164450526237488 0.007751941680908203
-0.02325582504272461 0.07976675033569336 0.02325582504272461
-0.02325582504272461 0.08441992104053497 0.038759708404541016
-0.02325582504272461 0.08678280562162399 -0.28682172298431396
-0.02325582504272461 0.097997285425663 -0.27131783962249756
-0.02325582504272461 0.0875098705291748 -0.02325582504272461
-0.02325582504272461 0.08554912358522415 -0.007751941680908203
-0.02325582504272461 0.09799030423164368 0.10077524185180664
-0.02325582504272461 0.11058099567890167 -0.05426359176635742
-0.02325582504272461 0.10128574073314667 -0.038759708404541016
-0.02325582504272461 0.120043084025383 -0.25581395626068115
-0.02325582504272461 0.12658566236495972 -0.08527129888534546
-0.02325582690536976 0.11908828467130661 -0.06976741552352905
-0.02325582504272461 0.1238662600517273 0.05426359176635742
-0.02325582504272461 0.1448899209499359 -0.317829430103302
-0.02325582504272461 0.1441730558872223 -0.30232560634613037
-0.02325582690536976 0.13393950462341309 -0.24031008780002594
-0.02325582504272461 0.13623633980751038 -0.22480617463588715
-0.02325582504272461 0.1348075270652771 -0.20930230617523193
-0.02325582504272461 0.1336686909198761 -0.19379842281341553
-0.02325582504272461 0.13347497582435608 -0.1782945990562439
-0.02325582504272461 0.1337927132844925 -0.1627907156944275
-0.02325582504272461 0.1342429518699646 -0.14728683233261108
-0.02325582504272461 0.13443341851234436 -0.13178294897079468
-0.02325582504272461 0.13435721397399902 -0.11627906560897827
-0.02325582690536976 0.1328333169221878 -0.10077518224716187
-0.02325582504272461 0.1363970786333084 0.06976747512817383
-0.02325582504272461 0.13944470882415771 0.08527135848999023
-0.02325582504272461 0.13386374711990356 0.10077524185180664
-0.02325582504272461 0.15524715185165405 -0.317829430103302
-0.02325582504272461 0.166982501745224 -0.30232560634613037
-0.007751941680908203 -0.2494666874408722 0.4573643207550049
-0.007751941680908203 -0.23860178887844086 0.4573642909526825
-0.007751941680908203 -0.16328324377536774 -0.30232560634613037
-0.007751941680908203 -0.15048560500144958 -0.317829430103302
-0.007751941680908203 -0.14242258667945862 -0.317829430103302
-0.007751941680908203 -0.13954854011535645 -0.30232560634613037
-0.007751941680908203 -0.11717450618743896 -0.24031007289886475
-0.007751941680908203 -0.11813627928495407 -0.22480618953704834
-0.007751941680908203 -0.118492491543293 -0.20930230617523193
-0.007751941680908203 -0.1192823275923729 -0.19379842281341553
-0.007751941680908203 -0.12086579203605652 -0.1782945990562439
-0.007751941680908203 -0.12373817712068558 -0.1627907156944275
-0.007751941680908203 -0.1270359754562378 -0.14728683233261108
-0.007751941680908203 -0.12795446813106537 -0.13178294897079468
-0.007751941680908203 -0.12593692541122437 -0.11627907305955887
-0.007751941680908203 -0.1213785707950592 -0.10077518224716187
-0.007751941680908203 -0.1173906922340393 -0.08527129888534546
-0.007751941680908203 -0.11772452294826508 0.05426359176635742
-0.007751941680908203 -0.12074834108352661 0.06976747512817383
-0.007751941680908203 -0.12322495877742767 0.08527135848999023
-0.007751941680908203 -0.12007015943527222 0.10077524185180664
-0.007751941680908203 -0.10322334617376328 -0.25581395626068115
-0.007751941680908203 -0.10537431389093399 -0.06976741552352905
-0.007751941680908203 -0.08607669174671173 -0.27131783962249756
-0.007751941680908203 -0.09265296906232834 -0.05426359176635742
-0.007751941680908203 -0.0857541561126709 -0.038759708404541016
-0.007751941680908203 -0.07273481041193008 -0.28682172298431396
-0.007751941680908203 -0.07716213166713715 -0.02325582504272461
-0.007751941680908203 -0.07429027557373047 -0.007751941680908203
-0.007751941680908203 -0.07297909259796143 0.007751941680908203
-0.007751941680908203 -0.07312199473381042 0.02325582504272461
-0.007751941680908203 -0.08331304043531418 0.038759708404541016
-0.007751941680908203 -0.0834251195192337 0.10077523440122604
-0.007751941680908203 -0.07130655646324158 0.364341139793396
-0.007751941680908203 -0.07674551010131836 0.37984490394592285
-0.007751941680908203 -0.04028046876192093 0.25581395626068115
-0.007751941680908203 -0.04255758225917816 0.27131783962249756
-0.007751941680908203 -0.042704302817583084 0.3488372564315796
-0.007751941680908203 -0.010125312022864819 0.28682172298431396
-0.007751941680908203 -0.006040438078343868 0.28682172298431396
-0.007751941680908203 0.022986823692917824 0.25581395626068115
-0.007751941680908203 0.019015073776245117 0.3488372564315796
-0.007751941680908203 0.025013891980051994 0.08527135848999023
-0.007751941680908203 0.02922585979104042 0.27131783962249756
-0.007751941680908203 0.06300979852676392 0.08527135848999023
-0.007751941680908203 0.05751773715019226 0.364341139793396
-0.007751941680908203 0.06435214728116989 0.37984490394592285
-0.007751941680908203 0.08324172347784042 -0.007751941680908203
-0.007751941680908203 0.07724893093109131 0.007751941680908203
-0.007751941680908203 0.07480287551879883 0.02325582504272461
-0.007751941680908203 0.07785636931657791 0.038759708404541016
-0.007751941680908203 0.086992546916008 -0.28682172298431396
-0.007751941680908203 0.09844058752059937 -0.27131783962249756
-0.007751941680908203 0.09017036110162735 -0.038759708404541016
-0.00775194214656949 0.08608797937631607 -0.02325582690536976
-0.007751941680908203 0.09177897125482559 0.10077524185180664
-0.007751941680908203 0.1138647273182869 -0.06976741552352905
-0.007751941680908203 0.10225871205329895 -0.05426359176635742
-0.00775194214656949 0.11849100142717361 -0.25581395626068115
-0.007751941680908203 0.12929682433605194 -0.10077518224716187
-0.007751941680908203 0.12023214250802994 -0.08527129888534546
-0.007751941680908203 0.12916354835033417 0.05426359176635742
-0.007751941680908203 0.14468471705913544 -0.317829430103302
-0.007751941680908203 0.14426548779010773 -0.30232560634613037
-0.007751941680908203 0.13308319449424744 -0.24031007289886475
-0.007751941680908203 0.1358020305633545 -0.22480618953704834
-0.007751941680908203 0.1349189281463623 -0.20930230617523193
-0.007751941680908203 0.13345029950141907 -0.19379842281341553
-0.007751941680908203 0.13282771408557892 -0.1782945990562439
-0.007751941680908203 0.13284572958946228 -0.1627907156944275
-0.007751941680908203 0.13315710425376892 -0.1472868174314499
-0.007751941680908203 0.1332198679447174 -0.13178294897079468
-0.007751941680908203 0.13273735344409943 -0.11627906560897827
-0.007751941680908203 0.14321933686733246 0.06976747512817383
-0.007751941680908203 0.13854971528053284 0.10077524185180664
-0.007751941680908203 0.1564544290304184 -0.317829430103302
-0.007751941680908203 0.14771342277526855 0.08527135848999023
-0.007751941680908203 0.16807574033737183 -0.30232560634613037
-0.007751941680908203 0.2402694672346115 0.4573643207550049
-0.007751941680908203 0.2606365382671356 0.4573643207550049
0.007751941680908203 -0.2630099058151245 0.4418604373931885
0.007751941680908203 -0.26318562030792236 0.4573643207550049
0.007751941680908203 -0.24831262230873108 0.4418604373931885
0.007751941680908203 -0.22467702627182007 0.4573643207550049
0.007751941680908203 -0.16402800381183624 -0.30232560634613037
0.007751941680908203 -0.15148265659809113 -0.317829430103302
0.007751941680908203 -0.1396344006061554 -0.317829430103302
0.007751941680908203 -0.13719278573989868 -0.30232560634613037
0.007751941680908203 -0.1322486251592636 0.08527135848999023
0.007751941680908203 -0.1167421042919159 -0.24031007289886475
0.007751941680908203 -0.11777842789888382 -0.22480618953704834
0.007751941680908203 -0.11803875118494034 -0.20930230617523193
0.007751941680908203 -0.11843115091323853 -0.19379842281341553
0.007751941680908203 -0.1193021833896637 -0.1782945990562439
0.007751941680908203 -0.12082873284816742 -0.1627907156944275
0.007751941680908203 -0.12214978039264679 -0.14728683233261108
0.007751941680908203 -0.1211940348148346 -0.13178294897079468
0.007751941680908203 -0.11857093870639801 -0.11627906560897827
0.007751941680908203 -0.11697707325220108 -0.10077518224716187
0.007751941680908203 -0.12033116072416306 0.05426359176635742
0.007751941680908203 -0.12772613763809204 0.06976747512817383
0.007751941680908203 -0.12963387370109558 0.10077524185180664
0.007751941680908203 -0.10332494229078293 -0.25581395626068115
0.007751941680908203 -0.11047492921352386 -0.08527129888534546
0.007751941680908203 -0.10190930217504501 -0.06976741552352905
0.007751941215246916 -0.1156993955373764 0.11627912521362305
0.007751941680908203 -0.10223120450973511 0.1317828893661499
0.007751941680908203 -0.0873730480670929 -0.27131783962249756
0.007751941680908203 -0.08887013792991638 -0.05426359176635742
0.007751941680908203 -0.08575082570314407 -0.038759708404541016
0.007751941680908203 -0.09452219307422638 0.11627912521362305
0.007751941680908203 -0.1005639135837555 0.1317828893661499
0.007751941680908203 -0.07766632735729218 -0.28682172298431396
0.007751941680908203 -0.07673273980617523 -0.02325582504272461
0.007751941680908203 -0.0733661875128746 -0.007751941680908203
0.007751941680908203 -0.07178608328104019 0.007751941680908203
0.007751941680908203 -0.0710519477725029 0.02325582504272461
0.007751941680908203 -0.07382805645465851 0.038759708404541016
0.007751941680908203 -0.07297047972679138 0.364341139793396
0.007751941680908203 -0.06992527097463608 0.37984490394592285
0.007751941680908203 -0.059203650802373886 0.10077524185180664
0.007751941680908203 -0.05773767828941345 0.25581395626068115
0.007751941680908203 -0.0543341338634491 0.27131783962249756
0.007751941680908203 -0.05431685596704483 0.3488372564315796
0.007751941680908203 -0.023328593000769615 0.10077524185180664
0.007751941680908203 -0.025994814932346344 0.24031007289886475
0.007751941680908203 -0.02716299518942833 0.28682172298431396
0.007751941680908203 -0.023128705099225044 0.10077524185180664
0.007751941680908203 -0.0032034621108323336 0.24031007289886475
0.007751941680908203 0.012765605002641678 0.28682172298431396
0.007751941680908203 0.03562965989112854 0.3488372564315796
0.007751941215246916 0.04398166388273239 0.25581395626068115
0.007751941680908203 0.04107198491692543 0.27131783962249756
0.007751941680908203 0.06464454531669617 0.364341139793396
0.007751941680908203 0.05929185450077057 0.37984490394592285
0.007751941680908203 0.08451005071401596 -0.007751941680908203
0.00775194214656949 0.07497970759868622 0.00775194214656949
0.007751941215246916 0.07202307879924774 0.02325582318007946
0.007751941680908203 0.07199375331401825 0.038759708404541016
0.007751941680908203 0.07393203675746918 0.10077524185180664
0.007751941680908203 0.08913801610469818 -0.28682172298431396
0.007751941680908203 0.0894681066274643 -0.038759708404541016
0.007751941680908203 0.08647233992815018 -0.02325582690536976
0.007751941680908203 0.08834940940141678 0.11627912521362305
0.007751941680908203 0.09234297275543213 0.1317828893661499
0.00775194214656949 0.10132300853729248 -0.27131783962249756
0.007751941680908203 0.10652588307857513 -0.06976741552352905
0.007751941680908203 0.10141973197460175 -0.05426359176635742
0.00775194214656949 0.10821108520030975 0.1472867727279663
0.007751941215246916 0.11828974634408951 -0.25581395626068115
0.007751941680908203 0.13033144176006317 -0.11627906560897827
0.007751941680908203 0.12361959367990494 -0.10077518224716187
0.007751941680908203 0.117842897772789 -0.08527129888534546
0.007751941680908203 0.14435091614723206 -0.317829430103302
0.007751941680908203 0.144026979804039 -0.30232560634613037
0.007751941680908203 0.13262373208999634 -0.24031007289886475
0.007751941680908203 0.13499127328395844 -0.22480618953704834
0.007751941680908203 0.13477517664432526 -0.20930230617523193
0.007751941680908203 0.13340121507644653 -0.19379842281341553
0.007751941680908203 0.132642462849617 -0.1782945990562439
0.007751941215246916 0.1324915587902069 -0.1627907156944275
0.00775194214656949 0.13264894485473633 -0.14728683233261108
0.007751941680908203 0.1325249969959259 -0.13178294897079468
0.007751941680908203 0.13196808099746704 0.05426359176635742
0.007751941680908203 0.13383165001869202 0.11627912521362305
0.007751941680908203 0.1328682154417038 0.1317828893661499
0.007751941680908203 0.13190613687038422 0.1472867727279663
0.007751941680908203 0.15730121731758118 -0.317829430103302
0.007751941680908203 0.14822019636631012 0.06976746767759323
0.007751941680908203 0.1497132033109665 0.08527135848999023
0.007751941680908203 0.1476018726825714 0.10077524185180664
0.007751941680908203 0.16890572011470795 -0.30232560634613037
0.007751941680908203 0.23379629850387573 0.4573643207550049
0.007751941680908203 0.25195810198783875 0.4418604373931885
0.007751941680908203 0.2614160180091858 0.4418604373931885
0.007751941680908203 0.2641953229904175 0.4573643207550049
0.02325582690536976 -0.26778432726860046 0.4418604373931885
0.02325582504272461 -0.2635253071784973 0.4573643207550049
0.02325582504272461 -0.24552114307880402 0.4418604373931885
0.02325582504272461 -0.2326066792011261 0.4573643207550049
0.02325582504272461 -0.16468557715415955 -0.30232560634613037
0.02325582504272461 -0.15197986364364624 -0.317829430103302
0.02325582504272461 -0.13756951689720154 -0.317829430103302
0.02325582504272461 -0.1349230706691742 -0.30232560634613037
0.02325582504272461 -0.13342717289924622 0.06976747512817383
0.02325582504272461 -0.13791105151176453 0.08527135848999023
0.02325582504272461 -0.1369992196559906 0.10077524185180664
0.02325582504272461 -0.11629429459571838 -0.24031007289886475
0.02325582504272461 -0.11748125404119492 -0.22480618953704834
0.02325582504272461 -0.11779110133647919 -0.20930230617523193
0.02325582504272461 -0.11812834441661835 -0.19379842281341553
0.02325582504272461 -0.11892656981945038 -0.1782945990562439
0.02325582504272461 -0.12045255303382874 -0.1627907156944275
0.02325582504272461 -0.12173761427402496 -0.14728683233261108
0.02325582504272461 -0.12056481093168259 -0.13178294897079468
0.02325582504272461 -0.11788824200630188 -0.11627906560897827
0.02325582504272461 -0.11705762147903442 -0.10077518224716187
0.02325582504272461 -0.12726199626922607 0.05426359176635742
0.02325582504272461 -0.12472833693027496 0.11627912521362305
0.02325582504272461 -0.12682566046714783 0.1317828893661499
0.02325582504272461 -0.1292792409658432 0.1472867727279663
0.02325582504272461 -0.12451906502246857 0.16279065608978271
0.02325582504272461 -0.12291152775287628 0.17829453945159912
0.02325582690536976 -0.12912598252296448 0.19379842281341553
0.02325582504272461 -0.13131172955036163 0.20930230617523193
0.02325582504272461 -0.1234738826751709 0.22480618953704834
0.02325582504272461 -0.10345160961151123 -0.25581395626068115
0.02325582504272461 -0.11346365511417389 -0.08527129888534546
0.02325582504272461 -0.10364145040512085 -0.06976741552352905
0.02325582504272461 -0.10860598087310791 0.24031007289886475
0.02325582504272461 -0.08549205958843231 -0.28682172298431396
0.02325582504272461 -0.08995005488395691 -0.27131783962249756
0.02325582504272461 -0.09375135600566864 -0.05426359176635742
0.02325582504272461 -0.08681787550449371 -0.038759708404541016
0.02325582504272461 -0.0930633544921875 0.16279065608978271
0.02325582504272461 -0.09843574464321136 0.17829453945159912
0.02325582504272461 -0.09325247257947922 0.19379842281341553
0.02325582504272461 -0.07912109047174454 -0.02325582504272461
0.02325582504272461 -0.07309570908546448 -0.007751941680908203
0.02325582504272461 -0.07120487838983536 0.007751941680908203
0.02325582504272461 -0.07772573828697205 0.1472867727279663
0.02325582318007946 -0.08421386033296585 0.20930230617523193
0.02325582504272461 -0.07327193021774292 0.22480618953704834
0.02325582504272461 -0.08086483180522919 0.25581395626068115
0.02325582504272461 -0.07731981575489044 0.364341139793396
0.02325582504272461 -0.06940233707427979 0.02325582504272461
0.02325582504272461 -0.06657348573207855 0.038759708404541016
0.02325582504272461 -0.060257650911808014 0.11627912521362305
0.02325582504272461 -0.061807285994291306 0.1317828893661499
0.02325582504272461 -0.06432034075260162 0.27131783962249756
0.02325582504272461 -0.05841178447008133 0.3488372564315796
0.02325582504272461 -0.04148908331990242 0.28682172298431396
0.02325582504272461 -0.032053761184215546 0.3333333730697632
0.02325582504272461 -0.030626893043518066 0.37984490394592285
0.02325582504272461 -0.00019762665033340454 0.3333333730697632
0.02325582504272461 0.028922200202941895 0.28682172298431396
0.02325582504272461 0.03860504925251007 0.37984490394592285
0.02325582504272461 0.04732420668005943 0.3488372564315796
0.02325582504272461 0.06547123193740845 0.038759708404541016
0.02325582504272461 0.05986449122428894 0.11627912521362305
0.02325582504272461 0.05767013877630234 0.1317828893661499
0.02325582504272461 0.06694184243679047 0.1472867727279663
0.02325582504272461 0.06507416069507599 0.22480618953704834
0.02325582504272461 0.06950097531080246 0.25581395626068115
0.02325582504272461 0.05571089684963226 0.27131783962249756
0.02325582504272461 0.07339129596948624 0.007751941680908203
0.02325582504272461 0.07026664167642593 0.02325582504272461
0.02325582504272461 0.08043239265680313 0.16279065608978271
0.02325582504272461 0.08526960760354996 0.17829453945159912
0.02325582504272461 0.08305823802947998 0.19379842281341553
0.02325582504272461 0.0772976204752922 0.20930230617523193
0.02325582504272461 0.08337539434432983 0.24031007289886475
0.02325582504272461 0.07071679085493088 0.364341139793396
0.02325582504272461 0.0927572175860405 -0.28682172298431396
0.02325582504272461 0.09338289499282837 -0.038759708404541016
0.02325582504272461 0.08714988827705383 -0.02325582504272461
0.02325582504272461 0.08537358790636063 -0.00775194214656949
0.02325582504272461 0.1030493825674057 -0.27131783962249756
0.02325582504272461 0.10882912576198578 -0.06976741552352905
0.02325582504272461 0.10228468477725983 -0.05426359176635742
0.02325582504272461 0.10167478770017624 0.22480618953704834
0.02325582504272461 0.11825312674045563 -0.25581395626068115
0.02325582504272461 0.12971246242523193 -0.11627906560897827
0.02325582504272461 0.12386595457792282 -0.10077518224716187
0.02325582504272461 0.11802418529987335 -0.08527129888534546
0.02325582504272461 0.13082844018936157 0.05426359176635742
0.02325582504272461 0.12783972918987274 0.19379842281341553
0.02325582504272461 0.11686994880437851 0.20930230617523193
0.02325582504272461 0.1441776007413864 -0.317829430103302
0.02325582504272461 0.14380347728729248 -0.30232560634613037
0.02325582504272461 0.1321573704481125 -0.24031005799770355
0.02325582504272461 0.13397632539272308 -0.22480618953704834
0.02325582504272461 0.13419492542743683 -0.20930230617523193
0.02325582504272461 0.1331770271062851 -0.19379840791225433
0.02325582318007946 0.13251681625843048 -0.1782945841550827
0.02325582690536976 0.13242067396640778 -0.1627907156944275
0.02325582504272461 0.13259054720401764 -0.14728683233261108
0.02325582504272461 0.13239875435829163 -0.13178294897079468
0.02325582504272461 0.1435663402080536 0.16279065608978271
0.02325582504272461 0.13512659072875977 0.17829453945159912
0.02325582504272461 0.15740568935871124 -0.317829430103302
0.02325582504272461 0.14964842796325684 0.06976747512817383
0.02325582504272461 0.1546446532011032 0.08527135848999023
0.02325582504272461 0.15441399812698364 0.10077524185180664
0.02325582504272461 0.14733469486236572 0.11627912521362305
0.02325582504272461 0.14818976819515228 0.1317828893661499
0.02325582690536976 0.14854130148887634 0.1472867727279663
0.02325582504272461 0.1692914366722107 -0.30232560634613037
0.02325582504272461 0.2399422973394394 0.4573643207550049
0.02325582504272461 0.2463645339012146 0.4418604373931885
0.02325582504272461 0.26467230916023254 0.4418604373931885
0.02325582504272461 0.258705198764801 0.4573643207550049
0.038759708404541016 -0.26255229115486145 0.4418604373931885
0.038759708404541016 -0.25832992792129517 0.4573643207550049
0.038759708404541016 -0.25191059708595276 0.4418604373931885
0.038759708404541016 -0.2517542541027069 0.4573643207550049
0.038759708404541016 -0.16491560637950897 -0.30232560634613037
0.038759708404541016 -0.1517709493637085 -0.317829430103302
0.038759708404541016 -0.13529372215270996 -0.317829430103302
0.038759708404541016 -0.13246667385101318 -0.30232560634613037
0.038759708404541016 -0.13201166689395905 0.05426359176635742
0.038759708404541016 -0.13821403682231903 0.06976747512817383
0.038759708404541016 -0.14598241448402405 0.08527135848999023
0.038759708404541016 -0.14235731959342957 0.10077524185180664
0.038759708404541016 -0.13220466673374176 0.11627912521362305
0.038759708404541016 -0.13388296961784363 0.1317828893661499
0.038759708404541016 -0.13650912046432495 0.1472867727279663
0.038759708404541016 -0.13723386824131012 0.16279065608978271
0.038759708404541016 -0.13822749257087708 0.17829453945159912
0.038759708404541016 -0.1400919407606125 0.19379842281341553
0.038759708404541016 -0.1391690969467163 0.20930230617523193
0.038759708404541016 -0.13513854146003723 0.22480618953704834
0.038759708404541016 -0.11702119559049606 -0.22480618953704834
0.038759708404541016 -0.11733442544937134 -0.20930230617523193
0.038759708404541016 -0.11757396161556244 -0.19379842281341553
0.038759708404541016 -0.11831042170524597 -0.1782945990562439
0.038759708404541016 -0.1198229044675827 -0.1627907156944275
0.038759708404541016 -0.12100706994533539 -0.14728683233261108
0.038759708404541016 -0.11980687081813812 -0.13178294897079468
0.038759708404541016 -0.11734858900308609 -0.11627906560897827
0.038759708404541016 -0.11690327525138855 -0.10077518224716187
0.038759708404541016 -0.1253964900970459 0.24031005799770355
0.038759708404541016 -0.10326264798641205 -0.25581395626068115
0.038759708404541016 -0.11155843734741211 -0.24031007289886475
0.038759708404541016 -0.11356402933597565 -0.08527129888534546
0.038759708404541016 -0.10425814986228943 -0.06976741552352905
0.038759708404541016 -0.10308708250522614 0.25581395626068115
0.038759708404541016 -0.08589132130146027 -0.28682172298431396
0.038759708404541016 -0.09149079024791718 -0.27131783962249756
0.038759708404541016 -0.09901867806911469 -0.05426358804106712
0.038759708404541016 -0.08725124597549438 -0.038759708404541016
0.038759708404541016 -0.07784637063741684 -0.02325582504272461
0.038759708404541016 -0.07213397324085236 -0.007751941680908203
0.038759708404541016 -0.06996604055166245 0.007751941680908203
0.038759708404541016 -0.07520411163568497 0.27131783962249756
0.038759708404541016 -0.07346216589212418 0.364341139793396
0.038759708404541016 -0.05948134511709213 0.02325582504272461
0.038759708404541016 -0.05854674428701401 0.038759708404541016
0.038759708404541016 -0.06353002786636353 0.16279065608978271
0.038759708404541016 -0.06914442032575607 0.17829453945159912
0.038759708404541016 -0.06539955735206604 0.19379843771457672
0.038759708404541016 -0.057443056255578995 0.20930230617523193
0.038759708404541016 -0.05517105013132095 0.28682172298431396
0.038759708404541016 -0.06249375641345978 0.3488372564315796
0.038759708404541016 -0.04452837258577347 0.1472867727279663
0.038759708404541016 -0.03978129103779793 0.3333333730697632
0.038759708404541016 -0.0335385724902153 0.30232560634613037
0.038759708404541016 0.007879208773374557 0.30232560634613037
0.038759708404541016 0.007767829112708569 0.33333340287208557
0.038759708404541016 0.04096628352999687 0.1472867727279663
0.038759708404541016 0.04319361597299576 0.28682172298431396
0.038759708404541016 0.059569962322711945 0.02325582504272461
0.038759708404541016 0.05650712177157402 0.038759708404541016
0.038759708404541016 0.06491083651781082 0.05426359176635742
0.038759708404541016 0.056864671409130096 0.16279065608978271
0.038759708404541016 0.0643109381198883 0.17829453945159912
0.038759708404541016 0.0626719743013382 0.19379842281341553
0.038759708404541016 0.05548161268234253 0.20930230617523193
0.038759708404541016 0.06966495513916016 0.27131783962249756
0.038759708404541016 0.05451652407646179 0.3488372564315796
0.038759708404541016 0.07996107637882233 -0.007751941680908203
0.038759708404541016 0.07083407044410706 0.007751941680908203
0.038759708404541016 0.07548244297504425 0.05426359176635742
0.038759708404541016 0.08417479693889618 0.25581395626068115
0.038759708404541016 0.0704430565237999 0.364341139793396
0.038759708404541016 0.09467770904302597 -0.28682172298431396
0.038759708404541016 0.09508350491523743 -0.038759708404541016
0.038759708404541016 0.0871996358036995 -0.02325582690536976
0.038759708404541016 0.09977021813392639 0.24031007289886475
0.038759712129831314 0.1037331372499466 -0.27131783962249756
0.038759708404541016 0.10779564082622528 -0.06976741552352905
0.038759708404541016 0.10245857387781143 -0.05426359176635742
0.038759708404541016 0.114383265376091 0.22480618953704834
0.038759708404541016 0.11803492903709412 -0.25581395626068115
0.038759708404541016 0.13006553053855896 -0.24031007289886475
0.038759708404541016 0.12801608443260193 -0.11627906560897827
0.038759708404541016 0.12267905473709106 -0.10077518224716187
0.038759708404541016 0.11754270642995834 -0.08527129888534546
0.038759708404541016 0.1222265362739563 0.05426359176635742
0.038759708404541016 0.1275547444820404 0.20930230617523193
0.038759708404541016 0.1438915878534317 -0.317829430103302
0.038759708404541016 0.1433291733264923 -0.30232560634613037
0.03875970467925072 0.13318218290805817 -0.22480618953704834
0.038759708404541016 0.1333833932876587 -0.20930230617523193
0.038759708404541016 0.13258376717567444 -0.19379842281341553
0.038759708404541016 0.13200616836547852 -0.1782945990562439
0.038759708404541016 0.1319490373134613 -0.1627907007932663
0.038759708404541016 0.13212114572525024 -0.14728683233261108
0.038759708404541016 0.13188771903514862 -0.13178294897079468
0.038759708404541016 0.13856512308120728 0.19379842281341553
0.038759708404541016 0.15691256523132324 -0.317829430103302
0.038759708404541016 0.15098479390144348 0.06976747512817383
0.038759708404541016 0.16189666092395782 0.08527135848999023
0.038759708404541016 0.1613614708185196 0.10077524185180664
0.038759708404541016 0.15142366290092468 0.11627912521362305
0.038759708404541016 0.15378570556640625 0.1317828893661499
0.038759708404541016 0.15619848668575287 0.1472867727279663
0.038759708404541016 0.1527983844280243 0.16279065608978271
0.038759712129831314 0.14867796003818512 0.17829453945159912
0.038759708404541016 0.16923704743385315 -0.30232560634613037
0.05426359176635742 -0.16475579142570496 -0.30232560634613037
0.05426359176635742 -0.15101134777069092 -0.317829430103302
0.05426359176635742 -0.15009060502052307 0.08527135848999023
0.05426359176635742 -0.14822344481945038 0.17829453945159912
0.05426359176635742 -0.14924488961696625 0.19379842281341553
0.05426359176635742 -0.14879193902015686 0.20930230617523193
0.05426359176635742 -0.134033665060997 -0.317829430103302
0.05426359176635742 -0.1319875866174698 0.05426359176635742
0.05426359176635742 -0.14479488134384155 0.06976747512817383
0.05426359176635742 -0.14435186982154846 0.10077524185180664
0.05426359176635742 -0.1341962069272995 0.11627912521362305
0.05426359176635742 -0.138197660446167 0.1317828893661499
0.05426359176635742 -0.14389488101005554 0.1472867727279663
0.05426358804106712 -0.14683756232261658 0.16279065608978271
0.05426359549164772 -0.1467474102973938 0.22480620443820953
0.05426359176635742 -0.13550280034542084 0.24031007289886475
0.05426359176635742 -0.13158704340457916 -0.30232560634613037
0.05426359176635742 -0.11645297706127167 -0.20930230617523193
0.05426359176635742 -0.1164691373705864 -0.19379842281341553
0.05426359176635742 -0.11693021655082703 -0.1782945990562439
0.05426359176635742 -0.11802863329648972 -0.1627907156944275
0.05426359176635742 -0.11869031190872192 -0.14728683233261108
0.05426359176635742 -0.11739951372146606 -0.13178294897079468
0.05426359176635742 -0.11743596196174622 0.25581395626068115
0.05426359176635742 -0.10277673602104187 -0.25581395626068115
0.05426359176635742 -0.10714022815227509 -0.24031007289886475
0.05426359176635742 -0.11481889337301254 -0.22480618953704834
0.05426359176635742 -0.1128440871834755 -0.11627906560897827
0.05426359176635742 -0.1102585643529892 -0.10077518224716187
0.05426359176635742 -0.10561029613018036 -0.08527129888534546
0.05426359176635742 -0.1025354415178299 -0.06976741552352905
0.05426359176635742 -0.08579109609127045 -0.28682172298431396
0.05426359176635742 -0.09026332199573517 -0.27131783962249756
0.05426359176635742 -0.0920456200838089 -0.05426359176635742
0.05426359176635742 -0.08663937449455261 -0.038759708404541016
0.05426359176635742 -0.08633732795715332 0.27131783962249756
0.05426359176635742 -0.07402321696281433 -0.02325582504272461
0.05426359176635742 -0.07087888568639755 -0.007751941680908203
0.05426359176635742 -0.07507140189409256 0.05426359176635742
0.05426359176635742 -0.057894255965948105 0.007751941680908203
0.05426359176635742 -0.054697297513484955 0.02325582504272461
0.05426359176635742 -0.06511539220809937 0.05426359176635742
0.05426359176635742 -0.06135689467191696 0.28682172298431396
0.05426359176635742 -0.057330310344696045 0.3488372564315796
0.05426359176635742 -0.05283403769135475 0.038759708404541016
0.05426359176635742 -0.04135093092918396 0.16279065608978271
0.05426359176635742 -0.052766453474760056 0.17829453945159912
0.05426359549164772 -0.050187431275844574 0.19379843771457672
0.05426359176635742 -0.039095375686883926 0.20930230617523193
0.05426359176635742 -0.04117049276828766 0.30232560634613037
0.05426359176635742 -0.04971893131732941 0.364341139793396
0.05426359176635742 -0.033056311309337616 0.3333333730697632
0.05426359176635742 -0.0047537786886096 0.3333333730697632
0.05426359176635742 0.01336438488215208 0.30232560634613037
0.05426359176635742 0.033953454345464706 0.16279065608978271
0.05426359176635742 0.040610816329717636 0.02325582504272461
0.05426359176635742 0.041548892855644226 0.038759708404541016
0.05426359176635742 0.048616498708724976 0.05426359176635742
0.05426359176635742 0.05021806061267853 0.17829453945159912
0.05426359176635742 0.04970201104879379 0.19379842281341553
0.05426359176635742 0.03939665108919144 0.20930230617523193
0.05426359176635742 0.048669010400772095 0.3488372564315796
0.05426359176635742 0.04619337245821953 0.364341139793396
0.05426359176635742 0.05537530779838562 0.007751941680908203
0.05426359176635742 0.05532706156373024 0.28682172298431396
0.05426359176635742 0.07252040505409241 -0.007751941680908203
0.05426359176635742 0.07599931955337524 0.27131783962249756
0.05426359176635742 0.092659130692482 -0.28682172298431396
0.05426359176635742 0.09138208627700806 -0.038759708404541016
0.05426359176635742 0.08645124733448029 -0.02325582504272461
0.05426359176635742 0.09700487554073334 0.05426359176635742
0.05426359176635742 0.09248518943786621 0.25581395626068115
0.05426359176635742 0.10255623608827591 -0.27131783962249756
0.05426359176635742 0.11409293115139008 -0.08527129888534546
0.05426359176635742 0.1040828600525856 -0.06976741552352905
0.05426359176635742 0.10171802341938019 -0.05426359176635742
0.05426359176635742 0.10666529834270477 0.24031007289886475
0.05426359176635742 0.11739148944616318 -0.25581395626068115
0.05426359176635742 0.12271309643983841 -0.24031007289886475
0.05426359176635742 0.12996283173561096 -0.1782945990562439
0.05426359176635742 0.12954212725162506 -0.1627907156944275
0.05426359176635742 0.12977658212184906 -0.14728683233261108
0.05426359176635742 0.1272343099117279 -0.13178294897079468
0.05426359176635742 0.1234414130449295 -0.11627906560897827
0.05426358804106712 0.11900749057531357 -0.10077518224716187
0.05426358804106712 0.11630916595458984 0.05426358804106712
0.05426359176635742 0.12085723876953125 0.22480618953704834
0.05426359176635742 0.1437128484249115 -0.317829430103302
0.05426359176635742 0.1429264098405838 -0.30232560634613037
0.05426359176635742 0.1324419528245926 -0.22480620443820953
0.05426359176635742 0.13255447149276733 -0.20930230617523193
0.05426359549164772 0.13195587694644928 -0.19379842281341553
0.05426359176635742 0.13508574664592743 0.20930230617523193
0.05426359176635742 0.15594178438186646 -0.317829430103302
0.05426359176635742 0.15198791027069092 0.06976747512817383
0.05426359176635742 0.15627239644527435 0.11627912521362305
0.05426359176635742 0.15855468809604645 0.17829453945159912
0.05426359176635742 0.1492357701063156 0.19379842281341553
0.05426359176635742 0.16876482963562012 -0.30232560634613037
0.05426359176635742 0.16373015940189362 0.08527135848999023
0.05426359176635742 0.1636277437210083 0.10077524185180664
0.05426359176635742 0.1633596271276474 0.1317828893661499
0.05426359176635742 0.1648566871881485 0.14728675782680511
0.05426359549164772 0.16368502378463745 0.1627906709909439
0.06976747512817383 -0.16436707973480225 -0.30232560634613037
0.06976747512817383 -0.15011979639530182 -0.317829430103302
0.06976747512817383 -0.14796097576618195 0.06976747512817383
0.06976747512817383 -0.15298056602478027 0.08527135848999023
0.06976747512817383 -0.14977557957172394 0.1472867727279663
0.06976747512817383 -0.15129528939723969 0.16279065608978271
0.06976747512817383 -0.15302595496177673 0.17829453945159912
0.06976747512817383 -0.15526176989078522 0.19379842281341553
0.06976747512817383 -0.155286505818367 0.20930230617523193
0.06976747512817383 -0.15268155932426453 0.22480618953704834
0.06976747512817383 -0.14825470745563507 0.24031007289886475
0.06976747512817383 -0.1356956958770752 -0.317829430103302
0.06976747512817383 -0.14284154772758484 0.10077523440122604
0.06976747512817383 -0.13486319780349731 0.11627912521362305
0.06976747512817383 -0.1442108005285263 0.1317828893661499
0.06976747512817383 -0.1315373331308365 -0.30232560634613037
0.06976747512817383 -0.11655008047819138 0.05426359176635742
0.06976747512817383 -0.12715156376361847 0.25581395626068115
0.06976747512817383 -0.10198495537042618 -0.25581395626068115
0.06976747512817383 -0.1042618602514267 -0.24031007289886475
0.06976747512817383 -0.10724680125713348 -0.22480618953704834
0.06976747512817383 -0.10845129191875458 -0.20930230617523193
0.06976747512817383 -0.10822781920433044 -0.19379842281341553
0.06976747512817383 -0.10873106122016907 -0.1782945990562439
0.06976747512817383 -0.11010723561048508 -0.1627907156944275
0.06976747512817383 -0.11045241355895996 -0.14728683233261108
0.06976747512817383 -0.10717341303825378 -0.13178294897079468
0.06976747512817383 -0.10227008163928986 -0.11627906560897827
0.06976747512817383 -0.10175971686840057 -0.10077518224716187
0.06976747512817383 -0.1013326495885849 -0.08527129888534546
0.06976747512817383 -0.11453275382518768 0.05426359176635742
0.06976747512817383 -0.08739520609378815 -0.27131783962249756
0.06976747512817383 -0.09263738989830017 -0.06976741552352905
0.06976747512817383 -0.08727215975522995 -0.05426359176635742
0.06976747512817383 -0.0876590758562088 0.27131783962249756
0.06976747512817383 -0.08215928822755814 -0.28682172298431396
0.06976747512817383 -0.0795508325099945 -0.038759708404541016
0.06976747512817383 -0.07172112166881561 -0.02325582504272461
0.06976747512817383 -0.05801811069250107 -0.007751941680908203
0.06976747512817383 -0.06331910938024521 0.28682172298431396
0.06976747512817383 -0.04171029478311539 0.007751941680908203
0.06976747512817383 -0.04569022357463837 0.05426359176635742
0.06976747512817383 -0.03982562944293022 0.17829453945159912
0.06976747512817383 -0.04343303292989731 0.30232560634613037
0.06976747512817383 -0.041780684143304825 0.3488372564315796
0.06976747512817383 -0.03113320656120777 0.038759708404541016
0.06976747512817383 -0.03732800483703613 0.19379842281341553
0.06976747512817383 0.005488842725753784 -0.28682172298431396
0.06976747512817383 0.0012042364105582237 0.038759708404541016
0.06976747512817383 0.007871577516198158 0.007751941680908203
0.06976747512817383 0.019125621765851974 0.30232560634613037
0.06976747512817383 0.03271074220538139 -0.28682172298431396
0.06976747512817383 0.030039481818675995 0.05426359176635742
0.06976747512817383 0.035583626478910446 0.17829453945159912
0.06976747512817383 0.03672047704458237 0.19379842281341553
0.06976747512817383 0.02656402811408043 0.3488372266292572
0.06976747512817383 0.04929313808679581 -0.007751941680908203
0.06976747512817383 0.057340119034051895 0.28682172298431396
0.06976747512817383 0.07631535828113556 -0.02325582504272461
0.06976747512817383 0.08378995954990387 0.27131783962249756
0.06976747512817383 0.0877351462841034 -0.28682172298431396
0.06976747512817383 0.10043217986822128 -0.27131783962249756
0.06976747512817383 0.09415830671787262 -0.05426359176635742
0.06976747512817383 0.08780385553836823 -0.038759708404541016
0.06976747512817383 0.11470726877450943 -0.25581395626068115
0.06976747512817383 0.11251327395439148 -0.10077518224716187
0.06976747512817383 0.10389921069145203 -0.08527129888534546
0.06976747512817383 0.10171503573656082 -0.06976741552352905
0.06976747512817383 0.1029791459441185 0.25581395626068115
0.06976747512817383 0.11863240599632263 -0.24031007289886475
0.06976747512817383 0.1265302449464798 -0.22480618953704834
0.06976747512817383 0.13031108677387238 -0.20930230617523193
0.06976747512817383 0.12721137702465057 -0.19379842281341553
0.06976747512817383 0.12493884563446045 -0.1782945990562439
0.06976747512817383 0.12416642904281616 -0.1627907156944275
0.06976747512817383 0.12342041730880737 -0.14728683233261108
0.06976747512817383 0.12084273248910904 -0.13178294897079468
0.06976747512817383 0.11752491444349289 -0.11627906560897827
0.06976747512817383 0.11794904619455338 0.24031007289886475
0.06976747512817383 0.1436619609594345 -0.317829430103302
0.06976747512817383 0.142533078789711 -0.30232560634613037
0.06976747512817383 0.13258209824562073 0.22480618953704834
0.06976747512817383 0.1551254391670227 -0.317829430103302
0.06976747512817383 0.15158593654632568 0.06976747512817383
0.06976747512817383 0.15935316681861877 0.11627912521362305
0.06976747512817383 0.1480405628681183 0.20930230617523193
