0.3333333730697632 -0.09278520941734314 0.02325582504272461
0.3333333730697632 -0.09847830981016159 0.038759708404541016
0.3333333730697632 -0.07815752923488617 -0.007751941680908203
0.3333333730697632 -0.07129734754562378 0.06976747512817383
0.3333333730697632 -0.06371626257896423 -0.007751941680908203
0.3333333730697632 -0.04456938058137894 0.06976747512817383
0.3333333730697632 0.004522192291915417 0.06976747512817383
0.3333333730697632 0.011619724333286285 0.007751941680908203
0.3333333730697632 0.09895263612270355 0.007751941680908203
0.3333333730697632 0.09102203696966171 0.06976747512817383
0.3333333730697632 0.10096575319766998 0.007751941680908203
0.3333333432674408 0.10326580703258514 0.02325582504272461
0.3333333730697632 0.1048402190208435 0.038759708404541016
0.3333333730697632 0.10383901000022888 0.05426359176635742
0.3333333730697632 0.13094455003738403 -0.30232560634613037
0.3333333730697632 0.1425969898700714 -0.317829430103302
0.3333333730697632 0.15022879838943481 -0.317829430103302
0.3333333730697632 0.1473008692264557 -0.30232560634613037
0.3488372564315796 -0.13824722170829773 -0.317829430103302
0.3488372564315796 -0.1345394402742386 -0.30232560634613037
0.3488372564315796 -0.12998387217521667 -0.3178294003009796
0.3488372564315796 -0.12940940260887146 -0.30232560634613037
0.3488372564315796 -0.10179921984672546 0.02325582504272461
0.3488372564315796 -0.10257475078105927 0.038759708404541016
0.3488372564315796 -0.10242310166358948 0.05426359176635742
0.3488372564315796 -0.08964604139328003 -0.06976741552352905
0.3488372564315796 -0.09202112257480621 -0.05426359176635742
0.3488372564315796 -0.0897398442029953 -0.038759708404541016
0.3488372564315796 -0.08748788386583328 -0.02325582504272461
0.3488372564315796 -0.09440087527036667 -0.007751941680908203
0.3488372564315796 -0.10059669613838196 0.007751941680908203
0.3488372564315796 -0.09490473568439484 0.06976747512817383
0.3488372564315796 -0.07217774540185928 -0.08527129888534546
0.3488372564315796 -0.06540580093860626 -0.08527129888534546
0.3488372564315796 -0.05504780635237694 -0.05426359176635742
0.3488372564315796 -0.06676249206066132 -0.038759708404541016
0.3488372266292572 -0.06810250878334045 -0.02325582504272461
0.3488372564315796 -0.050803765654563904 -0.06976741552352905
0.3488372564315796 0.0019958335906267166 -0.007751941680908203
0.3488372564315796 0.06809815019369125 -0.06976741552352905
0.3488372564315796 0.06141260266304016 -0.007751941680908203
0.3488372564315796 0.0771789401769638 -0.08527129888534546
0.3488372564315796 0.07442227005958557 -0.05426359176635742
0.348837286233902 0.08728449046611786 -0.038759708404541016
0.3488372564315796 0.0987059473991394 -0.02325582504272461
0.3488372564315796 0.10458466410636902 -0.08527129888534546
0.3488372564315796 0.11051379144191742 -0.06976741552352905
0.3488372564315796 0.1112477108836174 -0.05426359176635742
0.3488372564315796 0.10665258765220642 -0.038759708404541016
0.3488372564315796 0.10172882676124573 -0.02325582504272461
0.3488372564315796 0.106304831802845 -0.007751941680908203
0.3488372564315796 0.10862277448177338 0.007751941680908203
0.3488372564315796 0.10873159766197205 0.02325582504272461
0.3488372564315796 0.10817646235227585 0.038759708404541016
0.3488372564315796 0.10682903975248337 0.05426359176635742
0.3488372564315796 0.10238075256347656 0.06976747512817383
0.3488372564315796 0.1308755725622177 -0.30232560634613037
0.3488372564315796 0.14456331729888916 -0.317829430103302
0.3488372564315796 0.1388234794139862 -0.30232560634613037
0.3488372564315796 0.14820009469985962 -0.317829430103302
0.364341139793396 -0.13618068397045135 -0.317829430103302
0.364341139793396 -0.13326749205589294 -0.30232560634613037
0.364341139793396 -0.12881925702095032 -0.317829430103302
0.364341139793396 -0.12934322655200958 -0.30232560634613037
0.364341139793396 -0.10113733261823654 -0.05426359176635742
0.364341139793396 -0.10084103047847748 -0.038759708404541016
0.364341139793396 -0.10242271423339844 -0.007751941680908203
0.364341139793396 -0.10367932170629501 0.007751941680908203
0.364341139793396 -0.10409272462129593 0.02325582504272461
0.364341139793396 -0.10464319586753845 0.038759708404541016
0.364341139793396 -0.10435230284929276 0.05426359176635742
0.364341139793396 -0.10274326801300049 0.06976747512817383
0.364341139793396 -0.09115345776081085 -0.08527129888534546
0.3643411099910736 -0.0968678742647171 -0.06976741552352905
0.364341139793396 -0.0988260954618454 -0.02325582504272461
0.364341139793396 -0.07727614045143127 -0.10077518224716187
0.364341139793396 -0.03895129635930061 -0.05426359176635742
0.364341139793396 -0.04996761307120323 -0.038759708404541016
0.364341139793396 -0.046128734946250916 -0.02325582504272461
0.364341139793396 -0.02770889177918434 -0.10077518224716187
0.364341139793396 -0.023480286821722984 -0.08527129888534546
0.364341139793396 -0.029532019048929214 -0.06976741552352905
0.364341139793396 0.05248137563467026 -0.08527129888534546
0.364341139793396 0.04966948181390762 -0.06976741552352905
0.364341139793396 0.0689263641834259 -0.10077518224716187
0.364341139793396 0.05638854205608368 -0.05426359176635742
0.364341139793396 0.06845796853303909 -0.038759708404541016
0.364341139793396 0.07766909152269363 -0.02325582504272461
0.3643411695957184 0.10178624838590622 -0.10077518224716187
0.364341139793396 0.11152392625808716 -0.08527129888534546
0.364341139793396 0.11509808897972107 -0.038759708404541016
0.364341139793396 0.11114789545536041 -0.02325582504272461
0.364341139793396 0.11347942054271698 -0.007751941680908203
0.364341139793396 0.11436731368303299 0.007751941680908203
0.364341139793396 0.11254797875881195 0.02325582504272461
0.364341139793396 0.1110132485628128 0.038759708404541016
0.364341139793396 0.10971162468194962 0.05426359176635742
0.364341139793396 0.10580490529537201 0.06976747512817383
0.364341139793396 0.1308332234621048 -0.30232560634613037
0.364341139793396 0.1163109689950943 -0.06976741552352905
0.364341139793396 0.1169511079788208 -0.05426359176635742
0.364341139793396 0.13583692908287048 -0.30232560634613037
0.37984490394592285 -0.13485197722911835 -0.317829430103302
0.37984490394592285 -0.13247336447238922 -0.30232560634613037
0.37984490394592285 -0.12435725331306458 -0.317829430103302
0.37984490394592285 -0.1278597116470337 -0.30232560634613037
0.37984490394592285 -0.10115944594144821 -0.06976741552352905
0.37984490394592285 -0.10251142084598541 -0.05426359176635742
0.37984490394592285 -0.10216809809207916 -0.038759708404541016
0.37984490394592285 -0.10193236172199249 -0.02325582504272461
0.37984490394592285 -0.10362719744443893 -0.007751941680908203
0.37984490394592285 -0.10489966720342636 0.007751941680908203
0.37984490394592285 -0.10534286499023438 0.02325582504272461
0.37984490394592285 -0.10618269443511963 0.038759708404541016
0.37984490394592285 -0.10621306300163269 0.05426359176635742
0.37984490394592285 -0.10449817031621933 0.06976747512817383
0.37984490394592285 -0.08739110082387924 -0.10077518224716187
0.37984490394592285 -0.0950976014137268 -0.08527129888534546
0.37984490394592285 -0.054383717477321625 -0.13178294897079468
0.37984490394592285 -0.06950312852859497 -0.11627906560897827
0.37984490394592285 -0.04264628514647484 -0.14728683233261108
0.37984490394592285 -0.04130984842777252 -0.05426359176635742
0.37984490394592285 -0.05012957379221916 -0.038759708404541016
0.37984490394592285 -0.04426012560725212 -0.02325582504272461
0.37984490394592285 -0.02735927700996399 -0.06976741552352905
0.37984490394592285 -0.010759720578789711 -0.14728683233261108
0.37984490394592285 -0.013097705319523811 -0.08527129888534546
0.37984490394592285 -0.003573323367163539 -0.13178294897079468
0.37984490394592285 -8.15314706414938e-05 -0.11627906560897827
0.37984490394592285 -0.002159522380679846 -0.10077518224716187
0.37984490394592285 0.0070212967693805695 -0.007751941680908203
0.37984493374824524 0.026794040575623512 -0.00775194214656949
0.37984490394592285 0.05185325816273689 -0.08527129888534546
0.37984490394592285 0.0514574833214283 -0.06976741552352905
0.37984490394592285 0.0639197900891304 -0.10077518224716187
0.37984490394592285 0.05938555300235748 -0.05426359176635742
0.37984490394592285 0.06816023588180542 -0.038759708404541016
0.37984490394592285 0.06921197474002838 -0.02325582504272461
0.37984490394592285 0.10470541566610336 -0.10077518224716187
0.37984490394592285 0.11339308321475983 -0.08527129888534546
0.37984490394592285 0.11558627337217331 -0.02325582504272461
0.37984490394592285 0.11625873297452927 -0.007751941680908203
0.37984490394592285 0.11594785004854202 0.007751941680908203
0.37984490394592285 0.1140739917755127 0.02325582504272461
0.37984490394592285 0.11365124583244324 0.038759708404541016
0.37984490394592285 0.11221981793642044 0.05426359176635742
0.37984490394592285 0.1079167053103447 0.06976747512817383
0.37984490394592285 0.13067889213562012 -0.30232560634613037
0.37984490394592285 0.11694400757551193 -0.06976741552352905
0.37984490394592285 0.11754758656024933 -0.05426359176635742
0.37984493374824524 0.11696086078882217 -0.038759712129831314
0.37984490394592285 0.13398870825767517 -0.30232563614845276
0.39534878730773926 -0.13333891332149506 -0.317829430103302
0.39534878730773926 -0.13218288123607635 -0.30232560634613037
0.39534878730773926 -0.1160842701792717 -0.317829430103302
0.39534878730773926 -0.11593029648065567 -0.30232560634613037
0.39534878730773926 -0.10210669040679932 -0.06976741552352905
0.39534878730773926 -0.10319972038269043 -0.05426359176635742
0.39534878730773926 -0.10347437113523483 -0.038759708404541016
0.39534878730773926 -0.10363075137138367 -0.02325582504272461
0.39534878730773926 -0.10458602011203766 -0.007751941680908203
0.39534878730773926 -0.10531237721443176 0.007751941680908203
0.39534878730773926 -0.1058366596698761 0.02325582504272461
0.39534878730773926 -0.10737961530685425 0.038759708404541016
0.39534878730773926 -0.10708988457918167 0.05426359176635742
0.39534878730773926 -0.10527428984642029 0.06976747512817383
0.39534878730773926 -0.08954746276140213 -0.10077518224716187
0.39534881711006165 -0.09769751131534576 -0.08527129888534546
0.39534878730773926 -0.0755978673696518 -0.11627906560897827
0.39534878730773926 -0.05566198378801346 -0.1782945990562439
0.39534878730773926 -0.059564583003520966 -0.1627907156944275
0.39534878730773926 -0.06279407441616058 -0.14728683233261108
0.39534878730773926 -0.06753228604793549 -0.13178294897079468
0.39534878730773926 -0.04640631377696991 -0.05426359176635742
0.39534878730773926 -0.05095159634947777 -0.038759708404541016
0.39534878730773926 -0.041887491941452026 -0.02325582504272461
0.39534878730773926 -0.029924752190709114 -0.06976741552352905
0.39534878730773926 -0.005564392544329166 -0.1782946139574051
0.39534878730773926 -0.004634070210158825 -0.08527129888534546
0.39534878730773926 0.0012661407236009836 -0.007751941680908203
0.39534878730773926 0.011875342577695847 -0.1627907156944275
0.39534878730773926 0.019998613744974136 -0.14728683233261108
0.39534878730773926 0.02237679809331894 -0.13178294897079468
0.39534878730773926 0.016604196280241013 -0.10077518224716187
0.39534878730773926 0.023538684472441673 -0.11627906560897827
0.39534878730773926 0.02966693788766861 -0.007751941680908203
0.39534878730773926 0.06877508014440536 -0.10077518224716187
0.39534878730773926 0.05902160331606865 -0.08527129888534546
0.39534878730773926 0.0599973201751709 -0.06976741552352905
0.39534878730773926 0.06440354138612747 -0.05426359176635742
0.39534878730773926 0.06763987988233566 -0.038759708404541016
0.39534878730773926 0.06392353028059006 -0.02325582504272461
0.39534878730773926 0.10776184499263763 -0.10077518224716187
0.39534878730773926 0.11600613594055176 -0.08527129888534546
0.39534878730773926 0.11595773696899414 0.007751941680908203
0.39534878730773926 0.11338813602924347 0.02325582504272461
0.39534878730773926 0.11392299830913544 0.038759708404541016
0.39534878730773926 0.11234728246927261 0.05426359176635742
0.39534878730773926 0.10971495509147644 0.06976747512817383
0.39534878730773926 0.13034941256046295 -0.30232560634613037
0.39534878730773926 0.11749760061502457 -0.06976741552352905
0.39534878730773926 0.11814892292022705 -0.05426359176635742
0.39534881711006165 0.11803442984819412 -0.038759708404541016
0.39534881711006165 0.11731617897748947 -0.02325582504272461
0.39534878730773926 0.11682197451591492 -0.007751941680908203
0.39534878730773926 0.1332394778728485 -0.30232560634613037
0.41085267066955566 -0.13202233612537384 -0.30232560634613037
0.41085267066955566 -0.12809918820858002 -0.317829430103302
0.41085267066955566 -0.11543495953083038 -0.317829430103302
0.41085267066955566 -0.11487799882888794 -0.30232563614845276
0.41085267066955566 -0.10182079672813416 -0.08527129888534546
0.41085267066955566 -0.10387305915355682 -0.06976741552352905
0.41085267066955566 -0.10535727441310883 -0.05426359176635742
0.41085267066955566 -0.10627187788486481 -0.038759708404541016
0.41085267066955566 -0.10652079433202744 -0.02325582504272461
0.41085267066955566 -0.10677943378686905 -0.007751941680908203
0.41085267066955566 -0.10677437484264374 0.007751941680908203
0.41085267066955566 -0.10669538378715515 0.02325582504272461
0.41085267066955566 -0.10780753940343857 0.038759708404541016
0.41085267066955566 -0.10758064687252045 0.05426359176635742
0.41085267066955566 -0.10608719289302826 0.06976747512817383
0.41085267066955566 -0.08640177547931671 -0.11627906560897827
0.41085267066955566 -0.09514811635017395 -0.10077518224716187
0.41085267066955566 -0.06986451894044876 -0.1627907156944275
0.41085267066955566 -0.07253324240446091 -0.14728683233261108
0.41085267066955566 -0.076449453830719 -0.13178294897079468
0.41085267066955566 -0.07384398579597473 0.08527135848999023
0.41085267066955566 -0.0552649162709713 -0.19379842281341553
0.41085267066955566 -0.0626486986875534 -0.1782945990562439
0.41085267066955566 -0.04582297056913376 -0.05426359176635742
0.41085267066955566 -0.047365833073854446 -0.038759708404541016
0.41085267066955566 -0.03256550431251526 -0.06976741552352905
0.41085267066955566 -0.03658093512058258 -0.02325582504272461
0.41085267066955566 -0.007837296463549137 -0.19379842281341553
0.41085267066955566 -0.009932262822985649 -0.08527129888534546
0.41085267066955566 0.0058304499834775925 -0.007751941680908203
0.41085267066955566 0.01397914532572031 -0.1782945990562439
0.41085267066955566 0.016503211110830307 -0.10077518224716187
0.41085267066955566 0.033265091478824615 -0.1627907156944275
0.41085267066955566 0.0378400981426239 -0.14728683233261108
0.41085267066955566 0.036005809903144836 -0.13178294897079468
0.41085267066955566 0.034277286380529404 -0.11627906560897827
0.41085267066955566 0.024730529636144638 -0.007751941680908203
0.41085267066955566 0.06440567225217819 -0.10077518224716187
0.41085267066955566 0.06039901450276375 -0.08527129888534546
0.41085267066955566 0.061044275760650635 -0.06976741552352905
0.41085267066955566 0.062206655740737915 -0.05426359176635742
0.41085267066955566 0.062278710305690765 -0.038759708404541016
0.41085267066955566 0.05680929496884346 -0.02325582504272461
0.41085267066955566 0.09676459431648254 0.08527135848999023
0.41085267066955566 0.114272341132164 0.02325582504272461
0.41085267066955566 0.1138254851102829 0.038759708404541016
0.41085267066955566 0.11296968162059784 0.05426359176635742
0.41085267066955566 0.11169762164354324 0.06976747512817383
0.41085267066955566 0.12818175554275513 -0.30232560634613037
0.41085267066955566 0.11702094972133636 -0.10077517479658127
0.41085267066955566 0.11821747571229935 -0.08527129888534546
0.41085267066955566 0.11911541223526001 -0.06976741552352905
0.41085267066955566 0.11966269463300705 -0.05426359176635742
0.41085267066955566 0.11958519369363785 -0.038759708404541016
0.41085267066955566 0.11885499954223633 -0.02325582504272461
0.41085267066955566 0.1179504543542862 -0.007751941680908203
0.41085267066955566 0.11674606800079346 0.007751941680908203
0.41085267066955566 0.1330459713935852 -0.30232560634613037
0.42635655403137207 -0.1225832998752594 -0.317829430103302
0.42635655403137207 -0.1291322410106659 -0.30232560634613037
0.42635655403137207 -0.11482501775026321 -0.317829430103302
0.42635658383369446 -0.11332091689109802 -0.30232560634613037
0.42635655403137207 -0.10260817408561707 -0.10077518224716187
0.42635655403137207 -0.10502859950065613 -0.08527129888534546
0.42635655403137207 -0.10705496370792389 -0.06976741552352905
0.42635655403137207 -0.10857824981212616 -0.05426359176635742
0.42635655403137207 -0.10936741530895233 -0.038759708404541016
0.42635655403137207 -0.10928148031234741 -0.02325582504272461
0.42635655403137207 -0.1088186725974083 -0.007751941215246916
0.42635655403137207 -0.10815995186567307 0.007751941680908203
0.42635655403137207 -0.10753688216209412 0.02325582504272461
0.42635655403137207 -0.10769695043563843 0.038759708404541016
0.42635655403137207 -0.107722207903862 0.05426359176635742
0.42635655403137207 -0.1067323237657547 0.06976747512817383
0.42635655403137207 -0.0862310528755188 -0.24031007289886475
0.42635655403137207 -0.08804672211408615 -0.22480618953704834
0.42635655403137207 -0.0865871012210846 -0.20930230617523193
0.42635655403137207 -0.08600963652133942 -0.14728683233261108
0.42635655403137207 -0.0909634679555893 -0.13178294897079468
0.42635655403137207 -0.09990004450082779 -0.11627905815839767
0.42635655403137207 -0.08974549174308777 0.08527135848999023
0.42635655403137207 -0.07096057385206223 -0.28682172298431396
0.42635655403137207 -0.07499866932630539 -0.27131783962249756
0.42635655403137207 -0.08202575147151947 -0.25581395626068115
0.42635655403137207 -0.07587958872318268 -0.19379842281341553
0.42635655403137207 -0.07457578182220459 -0.1782945990562439
0.42635655403137207 -0.07977376133203506 -0.1627907156944275
0.42635655403137207 -0.027214203029870987 -0.28682172298431396
0.42635655403137207 -0.027389822527766228 -0.05426359176635742
0.42635655403137207 -0.03289255499839783 -0.038759708404541016
0.42635655403137207 -0.025003844872117043 -0.02325582504272461
0.42635655403137207 -0.012353874742984772 -0.27131783962249756
0.42635655403137207 -0.01398618146777153 -0.06976741552352905
0.42635655403137207 -0.0020563947036862373 -0.25581395626068115
0.42635655403137207 0.006632360629737377 -0.24031007289886475
0.42635655403137207 0.018110593780875206 -0.22480618953704834
0.42635655403137207 0.031212903559207916 -0.20930230617523193
0.42635655403137207 0.04154661297798157 -0.19379842281341553
0.42635655403137207 0.047086309641599655 -0.1782945990562439
0.42635655403137207 0.051935531198978424 -0.1627907156944275
0.42635655403137207 0.05328873544931412 -0.14728683233261108
0.4263565242290497 0.04185666888952255 -0.06976741552352905
0.42635655403137207 0.04905128479003906 -0.05426359176635742
0.42635655403137207 0.05182971805334091 -0.038759708404541016
0.42635655403137207 0.0480230450630188 -0.02325582504272461
0.42635655403137207 0.06092861294746399 -0.13178294897079468
0.42635655403137207 0.1157466471195221 -0.30232560634613037
0.42635655403137207 0.1153775230050087 0.02325582504272461
0.42635655403137207 0.11380079388618469 0.038759708404541016
0.42635655403137207 0.11392640322446823 0.05426359176635742
0.42635655403137207 0.11386933922767639 0.06976747512817383
0.42635655403137207 0.10442030429840088 0.08527135848999023
0.42635655403137207 0.11834536492824554 -0.11627906560897827
0.42635655403137207 0.11981201171875 -0.10077518224716187
0.42635655403137207 0.12036027014255524 -0.08527129888534546
0.42635658383369446 0.12073032557964325 -0.06976741552352905
0.42635655403137207 0.12101994454860687 -0.05426359176635742
0.42635655403137207 0.12082278728485107 -0.038759708404541016
0.42635655403137207 0.11997292935848236 -0.02325582504272461
0.42635655403137207 0.11883433908224106 -0.00775194214656949
0.4263565242290497 0.11734801530838013 0.007751941680908203
0.42635655403137207 0.13258714973926544 -0.30232560634613037
0.4418604373931885 -0.1194089949131012 -0.317829430103302
0.4418604373931885 -0.1239287257194519 -0.30232560634613037
0.4418604373931885 -0.11436347663402557 -0.317829430103302
0.4418604373931885 -0.11003251373767853 -0.30232560634613037
0.4418604373931885 -0.10102345049381256 -0.22480618953704834
0.4418604373931885 -0.10237903892993927 -0.20930230617523193
0.4418604373931885 -0.10235977172851562 -0.19379842281341553
0.4418604373931885 -0.10116228461265564 -0.1782945990562439
0.4418604373931885 -0.10091277956962585 -0.14728683233261108
0.4418604373931885 -0.10193890333175659 -0.13178294897079468
0.4418604373931885 -0.10348765552043915 -0.11627906560897827
0.4418604373931885 -0.10581468045711517 -0.10077518224716187
0.4418604373931885 -0.10776936262845993 -0.08527129888534546
0.4418604373931885 -0.10914991796016693 -0.06976741552352905
0.44186046719551086 -0.11041587591171265 -0.05426359549164772
0.4418604373931885 -0.11080767214298248 -0.038759708404541016
0.4418604373931885 -0.11030882596969604 -0.02325582504272461
0.4418604373931885 -0.10944527387619019 -0.007751941680908203
0.4418604373931885 -0.10854186862707138 0.007751941680908203
0.4418604373931885 -0.10771775245666504 0.02325582504272461
0.4418604373931885 -0.10744968056678772 0.038759708404541016
0.4418604373931885 -0.10759209096431732 0.05426359176635742
0.4418604373931885 -0.10703352093696594 0.06976747512817383
0.4418604373931885 -0.08643069863319397 -0.28682172298431396
0.4418604373931885 -0.0874476507306099 -0.27131783962249756
0.4418604373931885 -0.09208063781261444 -0.25581395626068115
0.4418604373931885 -0.09631131589412689 -0.24031007289886475
0.4418604373931885 -0.09865923225879669 -0.1627907156944275
0.4418604373931885 -0.09714534133672714 0.08527135848999023
0.4418604373931885 -0.07124921679496765 -0.317829430103302
0.4418604373931885 -0.08411885052919388 -0.30232560634613037
0.4418604373931885 -0.028477244079113007 -0.317829430103302
0.4418604373931885 0.005363449454307556 -0.02325582504272461
0.4418604373931885 0.025710374116897583 -0.02325582318007946
0.4418604373931885 0.059587180614471436 -0.30232560634613037
0.4418604373931885 0.08052006363868713 -0.28682172298431396
0.4418604373931885 0.08680335432291031 -0.27131783962249756
0.4418604373931885 0.09516304731369019 -0.25581395626068115
0.4418604373931885 0.09974785149097443 -0.24031007289886475
0.4418604373931885 0.11241725087165833 -0.30232560634613037
0.4418604373931885 0.10366322845220566 -0.22480618953704834
0.4418604373931885 0.10876026749610901 -0.20930230617523193
0.4418604373931885 0.114847332239151 -0.19379842281341553
0.4418604373931885 0.11610540747642517 0.02325582504272461
0.4418604373931885 0.11426952481269836 0.038759708404541016
0.4418604373931885 0.11432018131017685 0.05426359176635742
0.4418604373931885 0.11554746329784393 0.06976747512817383
0.4418604373931885 0.10844719409942627 0.08527135848999023
0.4418604373931885 0.13007378578186035 -0.30232560634613037
0.4418604373931885 0.11730405688285828 -0.1782945990562439
0.4418604373931885 0.11747930943965912 -0.1627907156944275
0.4418604075908661 0.1184331551194191 -0.14728683233261108
0.4418604373931885 0.11987142264842987 -0.13178294897079468
0.4418604373931885 0.12107382714748383 -0.11627906560897827
0.4418604373931885 0.12149591743946075 -0.10077518224716187
0.4418604075908661 0.1214049905538559 -0.08527129888534546
0.4418604373931885 0.12136198580265045 -0.06976741552352905
0.4418604373931885 0.12138776481151581 -0.05426359176635742
0.4418604373931885 0.12103373557329178 -0.038759708404541016
0.4418604373931885 0.12010940909385681 -0.02325582504272461
0.4418604373931885 0.11897784471511841 -0.007751941215246916
0.4418604373931885 0.11754877865314484 0.007751941680908203
0.4573643207550049 -0.11697673052549362 -0.317829430103302
0.4573643207550049 -0.11954745650291443 -0.30232560634613037
0.4573643207550049 -0.11527848243713379 -0.317829430103302
0.4573643207550049 -0.10695630311965942 -0.30232560634613037
0.4573643207550049 -0.10108091682195663 -0.22480618953704834
0.4573643207550049 -0.10321281850337982 -0.20930230617523193
0.4573643207550049 -0.10430139303207397 -0.19379842281341553
0.4573643207550049 -0.10382146388292313 -0.1782945990562439
0.4573643207550049 -0.10294375568628311 -0.1627907156944275
0.4573643207550049 -0.10326720029115677 -0.14728683233261108
0.4573643207550049 -0.10415252298116684 -0.13178294897079468
0.4573643207550049 -0.10555045306682587 -0.11627906560897827
0.4573643207550049 -0.10720433294773102 -0.10077518224716187
0.4573643207550049 -0.10861407965421677 -0.08527129888534546
0.4573643207550049 -0.10968810319900513 -0.06976741552352905
0.45736435055732727 -0.11053088307380676 -0.05426359549164772
0.4573643207550049 -0.11040337383747101 -0.038759708404541016
0.4573643207550049 -0.10965174436569214 -0.02325582504272461
0.4573643207550049 -0.108833447098732 -0.007751941680908203
0.4573643207550049 -0.10814948379993439 0.007751941680908203
0.4573643207550049 -0.10749457031488419 0.02325582504272461
0.4573643207550049 -0.10730540752410889 0.038759708404541016
0.4573643207550049 -0.10717175155878067 0.05426359176635742
0.4573643207550049 -0.10651089251041412 0.06976747512817383
0.4573643207550049 -0.09610065817832947 -0.30232560634613037
0.4573643207550049 -0.09114482998847961 -0.28682172298431396
0.4573643207550049 -0.09137915074825287 -0.27131783962249756
0.4573643207550049 -0.09454557299613953 -0.25581395626068115
0.4573643207550049 -0.09668424725532532 -0.24031007289886475
0.4573642909526825 -0.09838055819272995 0.08527135848999023
0.4573643207550049 -0.08519761264324188 -0.317829430103302
0.4573643207550049 0.0706043392419815 -0.317829430103302
0.4573643207550049 0.09450523555278778 -0.30232560634613037
0.4573643207550049 0.09270336478948593 -0.28682172298431396
0.4573643207550049 0.09529510140419006 -0.27131783962249756
0.4573643207550049 0.09989195317029953 -0.25581395626068115
0.4573643207550049 0.10886825621128082 -0.30232560634613037
0.4573643207550049 0.101041778922081 -0.24031007289886475
0.4573643207550049 0.10497346520423889 -0.22480618953704834
0.4573643207550049 0.11034604907035828 -0.20930230617523193
0.4573643207550049 0.11509878933429718 0.038759708404541016
0.4573643207550049 0.11442749202251434 0.05426359176635742
0.4573643207550049 0.11589549481868744 0.06976747512817383
0.4573643207550049 0.11126101016998291 0.08527135848999023
0.4573643207550049 0.12021070718765259 -0.30232560634613037
0.45736435055732727 0.1165880560874939 -0.19379843771457672
0.4573643207550049 0.11913660168647766 -0.1782945990562439
0.4573642909526825 0.12005794793367386 -0.1627907156944275
0.4573643207550049 0.1210380345582962 -0.14728683233261108
0.4573643207550049 0.12138336896896362 -0.13178294897079468
0.4573643207550049 0.1214488297700882 -0.11627906560897827
0.4573643207550049 0.12142127752304077 -0.10077518224716187
0.4573643207550049 0.12113915383815765 -0.08527129888534546
0.4573643207550049 0.1209426075220108 -0.06976741552352905
0.4573643207550049 0.12076038122177124 -0.05426359176635742
0.4573643207550049 0.12020400911569595 -0.038759708404541016
0.4573643207550049 0.11926763504743576 -0.02325582504272461
0.4573643207550049 0.11838424205780029 -0.007751941680908203
0.4573643207550049 0.11732875555753708 0.007751941680908203
0.4573643207550049 0.11633662134408951 0.02325582318007946
0.4728682041168213 -0.11724749952554703 -0.30232560634613037
0.4728682041168213 -0.10863611102104187 -0.30232560634613037
0.4728682041168213 -0.10281185805797577 -0.20930230617523193
0.4728682041168213 -0.10467211902141571 -0.19379842281341553
0.4728682041168213 -0.1051923856139183 -0.1782945990562439
0.4728682041168213 -0.10466110706329346 -0.1627907156944275
0.4728682041168213 -0.10498970746994019 -0.14728683233261108
0.4728682041168213 -0.1057521402835846 -0.13178294897079468
0.4728682041168213 -0.10660510510206223 -0.11627906560897827
0.4728682041168213 -0.10767775774002075 -0.10077518224716187
0.4728682041168213 -0.10879679024219513 -0.08527129888534546
0.4728682041168213 -0.1096877008676529 -0.06976741552352905
0.4728682041168213 -0.11015990376472473 -0.05426359176635742
0.4728682041168213 -0.10959334671497345 -0.038759708404541016
0.4728682041168213 -0.10870679467916489 -0.02325582504272461
0.4728682041168213 -0.10819076001644135 -0.007751941680908203
0.4728682041168213 -0.10801325738430023 0.007751941680908203
0.4728682041168213 -0.10765254497528076 0.02325582504272461
0.4728682041168213 -0.10745704174041748 0.038759708404541016
0.4728682041168213 -0.10715102404356003 0.05426359176635742
0.4728682041168213 -0.10612524300813675 0.06976747512817383
0.4728682041168213 -0.08816748857498169 -0.317829430103302
0.4728682041168213 -0.09769934415817261 -0.30232560634613037
0.4728682041168213 -0.09193956851959229 -0.28682172298431396
0.4728682041168213 -0.09101449698209763 -0.27131783962249756
0.4728682041168213 -0.09312823414802551 -0.25581395626068115
0.4728681743144989 -0.09502586722373962 -0.24031007289886475
0.4728682041168213 -0.0996987521648407 -0.22480618953704834
0.4728682041168213 -0.1002453938126564 0.08527135848999023
0.4728682041168213 -0.07167623192071915 -0.3333333134651184
0.4728682041168213 0.043251365423202515 -0.3333333134651184
0.4728682041168213 0.08237814903259277 -0.317829430103302
0.4728682041168213 0.09541813284158707 -0.30232560634613037
0.4728682041168213 0.09338301420211792 -0.28682172298431396
0.4728682041168213 0.09445236623287201 -0.27131783962249756
0.4728682041168213 0.0972418412566185 -0.25581395626068115
0.4728682041168213 0.09829162061214447 -0.24031007289886475
0.4728682041168213 0.11585818231105804 -0.30232560634613037
0.4728682041168213 0.10286025702953339 -0.22480618953704834
0.4728682041168213 0.10858428478240967 -0.20930230617523193
0.4728682041168213 0.11627550423145294 -0.19379842281341553
0.4728682041168213 0.1156076192855835 0.05426359176635742
0.4728682041168213 0.11416302621364594 0.08527135848999023
0.4728682041168213 0.1163405030965805 -0.30232560634613037
0.4728682041168213 0.11920289695262909 -0.1782945990562439
0.4728682339191437 0.12045371532440186 -0.1627907156944275
0.4728682041168213 0.12133961915969849 -0.14728683233261108
0.4728682041168213 0.1208697035908699 -0.13178294897079468
0.4728682041168213 0.12043768167495728 -0.11627906560897827
0.4728682041168213 0.12053979933261871 -0.10077518224716187
0.4728682041168213 0.12039822340011597 -0.08527129888534546
0.4728681743144989 0.12017440050840378 -0.06976741552352905
0.4728682041168213 0.11973628401756287 -0.05426359176635742
0.4728682041168213 0.1188935935497284 -0.038759708404541016
0.4728681743144989 0.1179647371172905 -0.02325582504272461
0.4728682041168213 0.11748337745666504 -0.007751941215246916
0.4728682041168213 0.1170901283621788 0.007751941680908203
0.4728682041168213 0.11668415367603302 0.02325582504272461
0.4728682041168213 0.11640143394470215 0.038759708404541016
0.4728682041168213 0.1163850724697113 0.06976747512817383
0.4883720874786377 -0.10239747166633606 -0.20930230617523193
0.4883720874786377 -0.10496121644973755 -0.19379842281341553
0.4883720874786377 -0.10657747089862823 -0.1782945990562439
0.4883720874786377 -0.10642585158348083 -0.1627907156944275
0.4883720874786377 -0.10658356547355652 -0.14728683233261108
0.4883720874786377 -0.10742543637752533 -0.13178294897079468
0.4883720874786377 -0.10799448192119598 -0.11627906560897827
0.4883720874786377 -0.10856699198484421 -0.10077518224716187
0.4883720874786377 -0.10935170203447342 -0.08527129888534546
0.4883720874786377 -0.10987256467342377 -0.06976741552352905
0.4883720874786377 -0.10937047004699707 -0.05426359176635742
0.4883720874786377 -0.10759981721639633 -0.038759708404541016
0.4883720874786377 -0.10655480623245239 -0.02325582504272461
0.4883720874786377 -0.107349693775177 -0.007751941680908203
0.4883720874786377 -0.10831776261329651 0.007751941680908203
0.4883720874786377 -0.1082301214337349 0.02325582504272461
0.4883720874786377 -0.10803022235631943 0.038759708404541016
0.4883720874786377 -0.1077406033873558 0.05426359176635742
0.4883720874786377 -0.10630913078784943 0.06976747512817383
0.4883720874786377 -0.101507768034935 0.08527135848999023
0.4883720874786377 -0.0867488756775856 -0.317829430103302
0.4883720874786377 -0.09611918032169342 -0.30232560634613037
0.4883720874786377 -0.08954223245382309 -0.28682172298431396
0.4883720874786377 -0.088552325963974 -0.27131783962249756
0.4883720874786377 -0.090410977602005 -0.25581395626068115
0.4883720874786377 -0.09272493422031403 -0.24031007289886475
0.4883720874786377 -0.09795393794775009 -0.22480617463588715
0.4883720874786377 -0.07209363579750061 -0.3333333134651184
0.4883720874786377 -0.039621174335479736 -0.3488371968269348
0.4883720874786377 0.032764874398708344 -0.3488371968269348
0.4883720874786377 0.057863444089889526 -0.3333333134651184
0.4883720874786377 0.08068103343248367 -0.317829430103302
0.4883720874786377 0.09104898571968079 -0.30232560634613037
0.4883720874786377 0.08821511268615723 -0.28682172298431396
0.4883720874786377 0.08773981779813766 -0.27131783962249756
0.4883720874786377 0.09054934233427048 -0.25581395626068115
0.4883720874786377 0.0935482382774353 -0.24031007289886475
0.4883720874786377 0.09998012334108353 -0.22480618953704834
0.4883720874786377 0.10626421868801117 -0.20930230617523193
0.4883720874786377 0.11553158611059189 -0.19379842281341553
0.4883720874786377 0.11388737708330154 -0.02325582504272461
0.4883720874786377 0.11509636789560318 -0.007751941680908203
0.4883720874786377 0.11892293393611908 -0.1782945990562439
0.4883720874786377 0.12011633813381195 -0.1627907156944275
0.4883720874786377 0.12013474106788635 -0.14728683233261108
0.4883721172809601 0.1188841462135315 -0.13178294897079468
0.4883720874786377 0.11828527599573135 -0.11627906560897827
0.4883720576763153 0.11876896023750305 -0.10077518224716187
0.4883720874786377 0.11899352073669434 -0.08527129888534546
0.4883720874786377 0.11866908520460129 -0.06976741552352905
0.4883721172809601 0.11778296530246735 -0.05426359176635742
0.4883721172809601 0.11670079827308655 -0.038759708404541016
0.4883720874786377 0.1167583093047142 0.007751941680908203
0.4883720874786377 0.11739078909158707 0.02325582504272461
0.4883720874786377 0.11751100420951843 0.038759708404541016
0.4883720874786377 0.11719424277544022 0.05426359176635742
0.4883721172809601 0.11710308492183685 0.06976747512817383
0.4883720874786377 0.11658062040805817 0.08527135848999023
0.5038759708404541 -0.10219374299049377 -0.20930230617523193
0.5038759708404541 -0.10536104440689087 -0.19379842281341553
0.5038759708404541 -0.10830186307430267 -0.1782945990562439
0.5038759708404541 -0.10882139205932617 -0.1627907156944275
0.5038759708404541 -0.10806597769260406 -0.14728683233261108
0.5038759708404541 -0.10801045596599579 -0.13178294897079468
0.5038759708404541 -0.10842369496822357 -0.11627906560897827
0.5038759708404541 -0.10856016725301743 -0.10077518224716187
0.5038759708404541 -0.10862351208925247 -0.08527129888534546
0.5038759708404541 -0.10731372237205505 -0.06976741552352905
0.5038759708404541 -0.10326620936393738 -0.05426359176635742
0.5038759708404541 -0.1035856381058693 -0.007751941680908203
0.5038759708404541 -0.1072155088186264 0.007751941680908203
0.5038759708404541 -0.10825604200363159 0.02325582504272461
0.5038759708404541 -0.10862551629543304 0.038759708404541016
0.5038759708404541 -0.10856586694717407 0.05426359176635742
0.5038759708404541 -0.10670818388462067 0.06976747512817383
0.5038759708404541 -0.10268320143222809 0.08527135848999023
0.5038759708404541 -0.08651243895292282 -0.30232560634613037
0.5038759708404541 -0.08576581627130508 -0.28682172298431396
0.5038759708404541 -0.08582154661417007 -0.27131783962249756
0.5038759708404541 -0.08685724437236786 -0.25581395626068115
0.5038759708404541 -0.08892105519771576 -0.24031007289886475
0.5038759708404541 -0.09555875509977341 -0.22480618953704834
0.5038759708404541 -0.09767421334981918 -0.038759708404541016
0.5038759708404541 -0.09681297838687897 -0.02325582504272461
0.5038759708404541 -0.07069246470928192 -0.3333333134651184
0.5038759708404541 -0.07960977405309677 -0.317829430103302
0.5038759708404541 -0.0561523362994194 -0.3488371968269348
0.5038759708404541 -0.021966032683849335 -0.3643410801887512
0.5038759708404541 0.029780877754092216 -0.3643410801887512
0.5038759708404541 0.05004912614822388 -0.3488371968269348
0.5038759708404541 0.05845582112669945 -0.3333333134651184
0.5038759708404541 0.0673678070306778 -0.317829430103302
0.5038759708404541 0.07329708337783813 -0.30232560634613037
0.5038759708404541 0.07059401273727417 -0.28682172298431396
0.5038759708404541 0.06989898532629013 -0.27131783962249756
0.5038759708404541 0.0712968111038208 -0.25581395626068115
0.5038759708404541 0.07580596953630447 -0.24031007289886475
0.5038759708404541 0.08318023383617401 -0.038759708404541016
0.5038759708404541 0.08082950860261917 -0.02325582504272461
0.5038759708404541 0.08788983523845673 -0.22480617463588715
0.5038759708404541 0.0989328920841217 -0.06976741552352905
0.5038759708404541 0.09246593713760376 -0.05426359176635742
0.5038759708404541 0.09983062744140625 -0.007751941680908203
0.5038759708404541 0.10339928418397903 -0.20930230617523193
0.5038759708404541 0.11580376327037811 -0.19379842281341553
0.5038759708404541 0.11282684653997421 -0.13178294897079468
0.5038759708404541 0.10883162915706635 -0.11627906560897827
0.5038759708404541 0.10888577997684479 -0.10077518224716187
0.5038759708404541 0.10736662149429321 -0.08527129888534546
0.5038759708404541 0.11330851167440414 0.007751941680908203
0.5038759708404541 0.1188926249742508 -0.1782945990562439
0.5038759708404541 0.12012715637683868 -0.1627907156944275
0.5038759708404541 0.11819133162498474 -0.14728683233261108
0.5038759708404541 0.117624431848526 0.02325582504272461
0.5038759708404541 0.11876419931650162 0.038759708404541016
0.5038759708404541 0.11902748048305511 0.05426359176635742
0.5038759708404541 0.11842072010040283 0.06976747512817383
0.5038759708404541 0.11772982776165009 0.08527135848999023
0.5193798542022705 -0.11633390188217163 -0.30232560634613037
0.5193797945976257 -0.11600778996944427 -0.30232560634613037
0.5193798542022705 -0.10436254739761353 -0.19379842281341553
0.5193798542022705 -0.10869454592466354 -0.1782945990562439
0.5193798542022705 -0.1098327487707138 -0.1627907156944275
0.5193798542022705 -0.10794121772050858 -0.14728683233261108
0.5193798542022705 -0.10544277727603912 -0.13178294897079468
0.5193798542022705 -0.10421360284090042 -0.11627906560897827
0.5193798542022705 -0.10303054749965668 -0.10077518224716187
0.5193798542022705 -0.10224087536334991 -0.08527129888534546
0.5193798542022705 -0.10314850509166718 0.007751941680908203
0.5193798542022705 -0.10767921060323715 0.02325582504272461
0.5193798542022705 -0.10918425023555756 0.038759708404541016
0.5193798542022705 -0.10917593538761139 0.05426359176635742
0.5193798542022705 -0.10697732865810394 0.06976747512817383
0.5193798542022705 -0.10382712632417679 0.08527135848999023
0.5193798542022705 -0.10036307573318481 -0.06976741552352905
0.5193798542022705 -0.09175112098455429 -0.05426359176635742
0.5193798542022705 -0.08879147469997406 -0.007751941680908203
0.5193798542022705 -0.07031834125518799 -0.30232560634613037
0.5193798542022705 -0.06986869126558304 -0.28682172298431396
0.5193798542022705 -0.06987099349498749 -0.27131783962249756
0.5193798542022705 -0.07052233070135117 -0.25581395626068115
0.5193798542022705 -0.07112374156713486 -0.24031007289886475
0.5193798542022705 -0.0737917348742485 -0.22480618953704834
0.5193798542022705 -0.08126218616962433 -0.20930229127407074
0.5193798542022705 -0.08406480401754379 -0.038759708404541016
0.5193798542022705 -0.07830847799777985 -0.02325582504272461
0.5193798542022705 -0.055825963616371155 -0.3488371968269348
0.5193798542022705 -0.06136395037174225 -0.3333333134651184
0.5193798542022705 -0.0688679963350296 -0.317829430103302
0.5193798542022705 -0.04783274978399277 -0.3643410801887512
0.5193798542022705 -0.023778226226568222 -0.3798449635505676
0.5193798542022705 0.020350048318505287 -0.25581395626068115
0.5193798542022705 0.02128622494637966 -0.24031007289886475
0.5193798542022705 0.03224915638566017 -0.3798449635505676
0.5193798542022705 0.03659726306796074 -0.30232560634613037
0.5193798542022705 0.028535883873701096 -0.28682172298431396
0.5193798542022705 0.023736001923680305 -0.27131783962249756
0.5193798542022705 0.026225510984659195 -0.22480618953704834
0.5193798542022705 0.036601245403289795 -0.20930230617523193
0.5193798542022705 0.050859350711107254 -0.3643410801887512
0.5193798542022705 0.050832998007535934 -0.3333333134651184
0.5193798542022705 0.043804917484521866 -0.317829430103302
0.5193798542022705 0.05483308061957359 -0.3488371968269348
0.5193798542022705 0.055193427950143814 -0.19379842281341553
0.5193798542022705 0.07241901010274887 -0.1782945990562439
0.5193798542022705 0.08398447185754776 -0.05426359176635742
0.5193798542022705 0.07468469440937042 -0.038759708404541016
0.5193798542022705 0.07016906142234802 -0.02325582504272461
0.5193798542022705 0.08005647361278534 -0.007751941680908203
0.5193798542022705 0.08912116289138794 -0.1627907156944275
0.5193798542022705 0.09599782526493073 -0.14728683233261108
0.5193798542022705 0.09627792984247208 -0.13178294897079468
0.5193798542022705 0.0954660102725029 -0.11627906560897827
0.5193798542022705 0.09409505873918533 -0.10077518224716187
0.5193798542022705 0.09265352785587311 -0.08527129888534546
0.5193798542022705 0.08953623473644257 -0.06976741552352905
0.5193798542022705 0.11514615267515182 -0.19379842281341553
0.5193798542022705 0.10602851212024689 -0.1782945990562439
0.5193798542022705 0.10583209991455078 -0.1627907156944275
0.5193798542022705 0.11195974051952362 -0.14728683233261108
0.5193798542022705 0.10156281292438507 0.007751941215246916
0.5193797945976257 0.11637158691883087 -0.19379842281341553
0.5193798542022705 0.11893995106220245 -0.1782945990562439
0.5193798542022705 0.1206408441066742 -0.1627907156944275
0.5193798542022705 0.11756005883216858 -0.14728684723377228
0.5193798542022705 0.11675621569156647 0.02325582504272461
0.5193798542022705 0.11993781477212906 0.038759708404541016
0.5193798542022705 0.12109729647636414 0.05426359176635742
0.5193798542022705 0.12015911936759949 0.06976747512817383
0.5193798542022705 0.11941809952259064 0.08527135848999023
0.5348837375640869 -0.11700340360403061 -0.30232560634613037
0.5348837375640869 -0.11640835553407669 -0.1782945990562439
0.5348837375640869 -0.11687720566987991 -0.1627907156944275
0.5348837375640869 -0.11677341163158417 -0.14728683233261108
0.5348837375640869 -0.11443890631198883 -0.30232560634613037
0.5348837375640869 -0.10956369340419769 -0.1782945990562439
0.5348837375640869 -0.10688753426074982 0.02325582504272461
0.5348837375640869 -0.10953093320131302 0.038759708404541016
0.5348837375640869 -0.10959187150001526 0.05426359176635742
0.5348837375640869 -0.10743121802806854 0.06976747512817383
0.5348837375640869 -0.10472647100687027 0.08527135848999023
0.5348837375640869 -0.0955972671508789 -0.1627907156944275
0.5348837375640869 -0.09756791591644287 -0.13178294897079468
0.5348837375640869 -0.09577003866434097 -0.11627906560897827
0.5348837375640869 -0.09573078155517578 -0.10077518224716187
0.5348837375640869 -0.0976812019944191 -0.08527129143476486
0.5348837375640869 -0.09627918899059296 -0.06976741552352905
0.5348837375640869 -0.08896645158529282 -0.05426359176635742
0.5348837375640869 -0.0940794125199318 0.007751941680908203
0.5348837375640869 -0.0706392377614975 -0.1782945990562439
0.5348837375640869 -0.08145821839570999 -0.1627907156944275
0.5348837375640869 -0.08212418854236603 -0.038759708404541016
0.5348837375640869 -0.07350732386112213 -0.02325582504272461
0.5348837375640869 -0.07694397866725922 -0.007751941680908203
0.5348837375640869 -0.07219986617565155 0.10077524185180664
0.5348837375640869 -0.05464257299900055 -0.3643410801887512
0.5348837375640869 -0.058588907122612 -0.19379842281341553
0.5348837375640869 -0.05152985826134682 -0.3798449635505676
0.5348837375640869 -0.052519526332616806 -0.3488371968269348
0.5348837375640869 -0.040685802698135376 -0.3333333134651184
0.5348837375640869 -0.0336809903383255 -0.39534884691238403
0.5348837375640869 -0.026700377464294434 -0.317829430103302
0.5348837375640869 -0.0030478781554847956 -0.30232560634613037
0.5348837375640869 0.003998007625341415 -0.19379842281341553
0.5348837375640869 0.009796454571187496 -0.30232560634613037
0.5348837375640869 0.028850648552179337 -0.317829430103302
0.5348837375640869 0.027000999078154564 -0.1782945990562439
0.5348837375640869 0.04003181308507919 -0.39534884691238403
0.5348837375640869 0.05371274799108505 -0.3798449635505676
0.5348837375640869 0.05194932222366333 -0.3488371968269348
0.5348837375640869 0.04181604087352753 -0.3333333134651184
0.5348837375640869 0.048886965960264206 -0.1627907156944275
0.5348837375640869 0.05523231253027916 -0.3643410801887512
0.5348837375640869 0.06733530014753342 -0.14728683233261108
0.5348837375640869 0.0689050704240799 -0.02325582504272461
0.5348837375640869 0.07801920175552368 -0.13178294897079468
0.5348837375640869 0.08387076109647751 -0.11627906560897827
0.5348837375640869 0.08468283712863922 -0.05426359176635742
0.5348837375640869 0.0747528076171875 -0.038759708404541016
0.5348837375640869 0.07186048477888107 -0.007751941680908203
0.5348837375640869 0.08667585253715515 -0.10077518224716187
0.5348837375640869 0.0882951021194458 -0.08527130633592606
0.5348837375640869 0.08765155076980591 -0.06976741552352905
0.5348837375640869 0.08821084350347519 0.007751941680908203
0.5348837375640869 0.11613904684782028 -0.30232560634613037
0.5348837375640869 0.11434189230203629 -0.19379842281341553
0.5348837375640869 0.11085127294063568 -0.1782945990562439
0.5348837375640869 0.10941499471664429 -0.1627907156944275
0.5348837375640869 0.10979077219963074 -0.14728683233261108
0.5348837375640869 0.1151781976222992 -0.13178294897079468
0.5348837375640869 0.11353038251399994 0.02325582504272461
0.5348837375640869 0.1027025431394577 0.10077524185180664
0.5348837375640869 0.11644136905670166 -0.30232560634613037
0.5348837375640869 0.11723177880048752 -0.19379842281341553
0.5348837375640869 0.12051287293434143 -0.1782945990562439
0.5348837375640869 0.12497082352638245 -0.1627907156944275
0.5348837375640869 0.1278200000524521 -0.14728683233261108
0.5348837375640869 0.11872247606515884 -0.13178294897079468
0.5348837375640869 0.12135114520788193 0.038759708404541016
0.5348837375640869 0.12321329861879349 0.05426359176635742
0.5348837375640869 0.12202037125825882 0.06976747512817383
0.5348837375640869 0.1211477518081665 0.08527135848999023
0.5503876209259033 -0.11757038533687592 -0.30232560634613037
0.5503876209259033 -0.11691496521234512 -0.19379842281341553
0.5503876209259033 -0.11839596927165985 -0.1782945990562439
0.5503876209259033 -0.11904841661453247 -0.1627907156944275
0.5503876209259033 -0.11932903528213501 -0.14728683233261108
0.5503876209259033 -0.11902666091918945 -0.13178294897079468
0.5503876209259033 -0.11749839782714844 -0.11627906560897827
0.5503876209259033 -0.113987036049366 -0.30232560634613037
0.5503876209259033 -0.10293123871088028 -0.20930230617523193
0.5503876209259033 -0.10079394280910492 -0.08527129888534546
0.5503876209259033 -0.10660500824451447 0.02325582504272461
0.5503876209259033 -0.10934047400951385 0.038759708404541016
0.5503876209259033 -0.10954655706882477 0.05426359176635742
0.5503876209259033 -0.10794657468795776 0.06976747512817383
0.5503876209259033 -0.10527294874191284 0.08527135848999023
0.5503876209259033 -0.09911290556192398 -0.20930230617523193
0.5503876209259033 -0.09487219154834747 -0.19379842281341553
0.5503876209259033 -0.09384314715862274 -0.1782945990562439
0.5503876209259033 -0.09000623226165771 -0.1627907156944275
0.5503876209259033 -0.09789933264255524 -0.10077518224716187
0.5503876209259033 -0.09814545512199402 -0.06976741552352905
