0.16279065608978271 -0.04969673976302147 -0.7054263353347778
0.16279065608978271 -0.05182872712612152 -0.6899224519729614
0.16279065608978271 -0.04492192715406418 -0.5193798542022705
0.16279065608978271 -0.026470627635717392 -0.5503876209259033
0.16279065608978271 -0.03519320487976074 -0.5348837375640869
0.16279065608978271 -0.03752225637435913 0.7054262757301331
0.16279065608978271 -0.01183441560715437 -0.5658915042877197
0.16279065608978271 -0.017238661646842957 0.20930230617523193
0.16279065608978271 -0.018154917284846306 0.22480618953704834
0.16279065608978271 -0.01639285683631897 0.7209302186965942
0.16279065608978271 -0.004349091090261936 -0.5658915042877197
0.16279065608978271 0.00033430010080337524 0.19379842281341553
0.16279065608978271 0.0060994504019618034 0.30232560634613037
0.16279065608978271 -0.002512397477403283 0.3178294897079468
0.16279064118862152 -0.005377236288040876 0.3333333730697632
0.16279065608978271 -0.004711546935141087 0.3488372564315796
0.16279065608978271 -0.003375209867954254 0.364341139793396
0.16279065608978271 -0.002996138297021389 0.37984490394592285
0.16279065608978271 -0.0019268202595412731 0.39534878730773926
0.16279065608978271 0.0008206435013562441 0.41085267066955566
0.16279065608978271 0.004887149669229984 0.42635655403137207
0.16279065608978271 -0.003014449728652835 0.5658915042877197
0.16279065608978271 0.0156797356903553 -0.5503876209259033
0.16279065608978271 0.008498850278556347 0.4418604373931885
0.16279065608978271 0.015450438484549522 0.4573643207550049
0.16279065608978271 0.019287234172225 0.4728682041168213
0.16279065608978271 0.02029317058622837 0.4883720874786377
0.16279065608978271 0.02137991599738598 0.5038759708404541
0.16279065608978271 0.02079581469297409 0.5193798542022705
0.16279065608978271 0.020992539823055267 0.5348837375640869
0.16279065608978271 0.009142543189227581 0.5503876209259033
0.16279064118862152 0.04002408683300018 -0.5348837375640869
0.16279065608978271 0.05057189613580704 -0.5193798542022705
0.16279065608978271 0.04162953794002533 0.30232560634613037
0.16279065608978271 0.05673469230532646 -0.5038759708404541
0.16279065608978271 0.06062789261341095 -0.4883720874786377
0.16279065608978271 0.06465176492929459 -0.4728682041168213
0.16279065608978271 0.06843224912881851 -0.4573643207550049
0.16279065608978271 0.06546579301357269 0.19379842281341553
0.16279065608978271 0.06391559541225433 0.22480618953704834
0.16279065608978271 0.05641871318221092 0.3178294897079468
0.16279065608978271 0.06447319686412811 0.3333333730697632
0.16279065608978271 0.06934951990842819 0.3488372564315796
0.16279065608978271 0.06721285730600357 0.42635655403137207
0.16279065608978271 0.06423025578260422 0.4418604373931885
0.16279065608978271 0.06072165071964264 0.4573643207550049
0.16279065608978271 0.05921768397092819 0.4728682041168213
0.16279065608978271 0.05964664742350578 0.4883720874786377
0.16279065608978271 0.05913443863391876 0.5038759708404541
0.16279065608978271 0.060457415878772736 0.5193798542022705
0.16279065608978271 0.05773632973432541 0.5348837375640869
0.16279065608978271 0.05969368666410446 0.5503876209259033
0.16279065608978271 0.058102767914533615 0.5658915042877197
0.16279065608978271 0.06792145222425461 0.7209302186965942
0.16279065608978271 0.07262369990348816 -0.4418604373931885
0.16279065608978271 0.0811811089515686 -0.42635661363601685
0.16279065608978271 0.0773271918296814 0.20930230617523193
0.16279065608978271 0.07153458893299103 0.364341139793396
0.16279065608978271 0.07337773591279984 0.37984490394592285
0.16279065608978271 0.07307207584381104 0.39534878730773926
0.16279065608978271 0.07080936431884766 0.41085267066955566
0.16279065608978271 0.10049303621053696 -0.4573643207550049
0.16279065608978271 0.09585727006196976 -0.4418604373931885
0.16279064118862152 0.08848829567432404 -0.42635661363601685
0.16279065608978271 0.09190407395362854 0.7054263353347778
0.16279065608978271 0.11180721968412399 -0.4883720874786377
0.16279065608978271 0.10526446253061295 -0.4728682041168213
0.16279065608978271 0.1108936071395874 0.6899224519729614
0.16279065608978271 0.124494768679142 -0.4883720874786377
0.16279065608978271 0.12643533945083618 0.674418568611145
0.16279065608978271 0.1377430558204651 -0.4728682339191437
0.16279065608978271 0.1403110921382904 0.6589146852493286
0.16279065608978271 0.1474747657775879 -0.4573643207550049
0.16279065608978271 0.15190985798835754 -0.4418604373931885
0.16279065608978271 0.15612642467021942 -0.42635661363601685
0.16279065608978271 0.16015149652957916 -0.41085273027420044
0.16279065608978271 0.16089409589767456 0.6279069185256958
0.16279065608978271 0.15150943398475647 0.6434108018875122
0.16279065608978271 0.16324307024478912 -0.39534884691238403
0.16279065608978271 0.16570022702217102 -0.3798449635505676
0.16279065608978271 0.168546661734581 -0.3643410801887512
0.16279065608978271 0.17114922404289246 -0.3488371968269348
0.16279065608978271 0.1732378900051117 -0.3333333134651184
0.16279065608978271 0.17470479011535645 -0.317829430103302
0.16279065608978271 0.1754397451877594 -0.30232560634613037
0.16279065608978271 0.17577466368675232 -0.28682172298431396
0.16279065608978271 0.17597593367099762 -0.27131783962249756
0.16279065608978271 0.175863116979599 -0.25581395626068115
0.16279065608978271 0.17570604383945465 -0.24031007289886475
0.16279065608978271 0.1757374256849289 -0.22480618953704834
0.16279065608978271 0.17576001584529877 -0.20930230617523193
0.16279065608978271 0.17597636580467224 -0.19379842281341553
0.16279065608978271 0.1764892190694809 -0.1782945990562439
0.16279065608978271 0.17686328291893005 -0.1627907156944275
0.16279065608978271 0.17733405530452728 -0.14728683233261108
0.16279065608978271 0.1778862625360489 -0.13178294897079468
0.16279065608978271 0.17822198569774628 0.5968992710113525
0.16279065608978271 0.17130520939826965 0.612403154373169
0.16279065608978271 0.1786913424730301 -0.11627906560897827
0.16279065608978271 0.17951799929141998 -0.10077518224716187
0.16279065608978271 0.1802845448255539 -0.08527129888534546
0.16279065608978271 0.18103143572807312 -0.06976741552352905
0.16279064118862152 0.18164131045341492 -0.05426359176635742
0.16279065608978271 0.18213751912117004 -0.038759708404541016
0.16279065608978271 0.18250036239624023 -0.02325582504272461
0.16279065608978271 0.18341295421123505 -0.007751941680908203
0.16279065608978271 0.18415993452072144 0.007751941680908203
0.16279065608978271 0.18501468002796173 0.02325582504272461
0.16279065608978271 0.18572819232940674 0.038759708404541016
0.16279065608978271 0.18635785579681396 0.05426359176635742
0.16279065608978271 0.1867983639240265 0.06976747512817383
0.16279065608978271 0.1869763731956482 0.08527135848999023
0.16279065608978271 0.18704451620578766 0.10077524185180664
0.16279065608978271 0.18711885809898376 0.11627912521362305
0.16279065608978271 0.18703845143318176 0.1317828893661499
0.16279065608978271 0.18688234686851501 0.1472867727279663
0.16279065608978271 0.1869073063135147 0.16279065608978271
0.16279065608978271 0.18731021881103516 0.17829453945159912
0.16279065608978271 0.18892720341682434 0.19379842281341553
0.16279065608978271 0.19030126929283142 0.20930230617523193
0.16279065608978271 0.19048824906349182 0.22480618953704834
0.16279065608978271 0.1905309110879898 0.24031007289886475
0.16279065608978271 0.19019830226898193 0.25581395626068115
0.16279065608978271 0.18937332928180695 0.27131783962249756
0.16279065608978271 0.18880274891853333 0.28682172298431396
0.16279065608978271 0.18845528364181519 0.30232560634613037
0.16279065608978271 0.18781912326812744 0.3178294897079468
0.16279065608978271 0.18717212975025177 0.3333333730697632
0.16279065608978271 0.18656253814697266 0.3488372564315796
0.16279065608978271 0.18593989312648773 0.364341139793396
0.16279065608978271 0.18575462698936462 0.37984490394592285
0.16279065608978271 0.18609069287776947 0.39534878730773926
0.16279065608978271 0.18660223484039307 0.41085267066955566
0.16279065608978271 0.18707361817359924 0.42635655403137207
0.16279065608978271 0.1877749264240265 0.4418604373931885
0.16279065608978271 0.18826165795326233 0.4573643207550049
0.16279065608978271 0.18868151307106018 0.4728682041168213
0.16279065608978271 0.18885588645935059 0.4883720874786377
0.16279065608978271 0.18889960646629333 0.5038759708404541
0.16279065608978271 0.18890437483787537 0.5193798542022705
0.16279065608978271 0.18813052773475647 0.5348837375640869
0.16279065608978271 0.18695050477981567 0.5503876209259033
0.16279065608978271 0.18584999442100525 0.5658915042877197
0.16279065608978271 0.18390321731567383 0.5813953876495361
0.17829453945159912 -0.10114667564630508 0.06976747512817383
0.17829453945159912 -0.10245149582624435 0.08527135848999023
0.17829453945159912 -0.103350430727005 0.10077524185180664
0.17829453945159912 -0.10451219975948334 0.11627912521362305
0.17829453945159912 -0.10553719103336334 0.1317828893661499
0.17829453945159912 -0.1063276156783104 0.1472867727279663
0.17829453945159912 -0.10694742947816849 0.16279065608978271
0.17829453945159912 -0.10836105048656464 0.17829453945159912
0.17829453945159912 -0.11151747405529022 0.19379842281341553
0.17829453945159912 -0.11317482590675354 0.20930230617523193
0.17829453945159912 -0.11430615186691284 0.22480618953704834
0.17829453945159912 -0.11466143280267715 0.24031007289886475
0.17829453945159912 -0.11427085101604462 0.25581395626068115
0.17829453945159912 -0.11349287629127502 0.27131783962249756
0.17829453945159912 -0.11314801871776581 0.28682172298431396
0.17829453945159912 -0.11300987750291824 0.30232560634613037
0.17829453945159912 -0.11283288896083832 0.3178294897079468
0.17829453945159912 -0.11264453828334808 0.3333333730697632
0.17829453945159912 -0.11238973587751389 0.3488372564315796
0.17829453945159912 -0.11208856105804443 0.364341139793396
0.17829453945159912 -0.11196901649236679 0.37984487414360046
0.17829455435276031 -0.11197318881750107 0.39534878730773926
0.17829453945159912 -0.1119285374879837 0.41085267066955566
0.17829453945159912 -0.11180796474218369 0.42635655403137207
0.17829453945159912 -0.11188468337059021 0.4418604373931885
0.17829453945159912 -0.11191753298044205 0.4573643207550049
0.17829453945159912 -0.11200986057519913 0.4728682041168213
0.17829453945159912 -0.11190594732761383 0.4883720874786377
0.17829453945159912 -0.11172817647457123 0.5038759708404541
0.17829453945159912 -0.11162175238132477 0.5193798542022705
0.17829453945159912 -0.1110895648598671 0.5348837375640869
0.17829453945159912 -0.11036823689937592 0.5503876209259033
0.17829453945159912 -0.10999244451522827 0.5658915042877197
0.17829453945159912 -0.10905991494655609 0.5813953876495361
0.17829453945159912 -0.10313719511032104 0.5968992710113525
0.17829453945159912 -0.08744276314973831 -0.751937985420227
0.17829453945159912 -0.08946824818849564 -0.7364341020584106
0.17829453945159912 -0.09092137962579727 -0.7209302186965942
0.17829453945159912 -0.09164673089981079 -0.7054263353347778
0.17829453945159912 -0.09177263081073761 -0.6899224519729614
0.17829453945159912 -0.09122258424758911 -0.674418568611145
0.17829453945159912 -0.09052979201078415 -0.6589146852493286
0.17829453945159912 -0.09017646312713623 -0.643410861492157
0.17829453945159912 -0.08955849707126617 -0.6279069781303406
0.17829453945159912 -0.08843395113945007 -0.6124030947685242
0.17829453945159912 -0.08742282539606094 -0.5968992710113525
0.17829453945159912 -0.08680104464292526 -0.5813953876495361
0.17829453945159912 -0.0864064022898674 -0.5658915042877197
0.17829453945159912 -0.0862027034163475 -0.5503876209259033
0.17829453945159912 -0.08665134012699127 -0.5348837375640869
0.17829453945159912 -0.08766946196556091 -0.5193798542022705
0.17829453945159912 -0.08740346878767014 -0.5038759708404541
0.17829453945159912 -0.08611047267913818 -0.3333333134651184
0.17829453945159912 -0.08903968334197998 -0.317829430103302
0.17829453945159912 -0.09122706949710846 -0.30232560634613037
0.17829453945159912 -0.09235859662294388 -0.28682172298431396
0.17829453945159912 -0.09338729083538055 -0.27131783962249756
0.17829453945159912 -0.09394270926713943 -0.25581395626068115
0.17829453945159912 -0.09436508268117905 -0.24031007289886475
0.17829453945159912 -0.09455597400665283 -0.22480618953704834
0.17829453945159912 -0.09484077990055084 -0.20930230617523193
0.17829453945159912 -0.09522341936826706 -0.19379842281341553
0.17829453945159912 -0.09554211795330048 -0.1782945990562439
0.17829453945159912 -0.09547070413827896 -0.1627907156944275
0.17829453945159912 -0.09551751613616943 -0.14728683233261108
0.17829453945159912 -0.09583579003810883 -0.13178294897079468
0.17829453945159912 -0.09615877270698547 -0.11627906560897827
0.17829453945159912 -0.09668996930122375 -0.10077518224716187
0.17829453945159912 -0.09705003350973129 -0.08527129888534546
0.17829453945159912 -0.09742584824562073 -0.06976741552352905
0.17829453945159912 -0.0976753830909729 -0.05426359176635742
0.17829453945159912 -0.09782785177230835 -0.038759708404541016
0.17829453945159912 -0.09784606844186783 -0.02325582504272461
0.17829453945159912 -0.09833131730556488 -0.007751941680908203
0.17829453945159912 -0.09891622513532639 0.007751941680908203
0.17829453945159912 -0.09943496435880661 0.02325582318007946
0.17829453945159912 -0.09984102100133896 0.038759708404541016
0.17829453945159912 -0.10032585263252258 0.05426359176635742
0.17829453945159912 -0.09388171136379242 0.612403154373169
0.17829453945159912 -0.07412253320217133 -0.5658915042877197
0.17829453945159912 -0.07854721695184708 -0.5503876209259033
0.17829453945159912 -0.07965300977230072 -0.5348837375640869
0.17829453945159912 -0.07772622257471085 -0.5193798542022705
0.17829453945159912 -0.0779588371515274 -0.5038759708404541
0.17829453945159912 -0.07263554632663727 -0.3798449635505676
0.17829453945159912 -0.07940921187400818 -0.3643410801887512
0.17829453945159912 -0.08349785208702087 -0.3488371968269348
0.17829453945159912 -0.08353079855442047 0.6279069185256958
0.17829453945159912 -0.07271671295166016 0.6434108018875122
0.17829453945159912 -0.06340886652469635 -0.751937985420227
0.17829453945159912 -0.055175621062517166 -0.7364341020584106
0.17829453945159912 -0.055420998483896255 -0.7054263353347778
0.17829453945159912 -0.05953414738178253 -0.6899224519729614
0.17829453945159912 -0.06290064007043839 -0.674418568611145
0.17829453945159912 -0.0650579184293747 -0.6589146852493286
0.17829453945159912 -0.066212497651577 -0.643410861492157
0.17829453945159912 -0.06743628531694412 -0.6279069781303406
0.17829453945159912 -0.06852739304304123 -0.612403154373169
0.17829453945159912 -0.06936240941286087 -0.5968992114067078
0.17829453945159912 -0.06971211731433868 -0.5813953876495361
0.17829453945159912 -0.05452810972929001 -0.4573643207550049
0.17829453945159912 -0.05759014934301376 -0.4418604373931885
0.17829453945159912 -0.060478486120700836 -0.42635661363601685
0.17829453945159912 -0.0633617639541626 -0.41085273027420044
0.17829453945159912 -0.0677664577960968 -0.39534884691238403
0.17829453945159912 -0.0597723051905632 0.6589146852493286
0.17829453945159912 -0.05408410727977753 -0.720930278301239
0.17829453945159912 -0.04567442834377289 -0.4728682041168213
0.17829453945159912 -0.04474812000989914 0.674418568611145
0.17829453945159912 -0.03377215191721916 -0.4883720874786377
0.17829453945159912 -0.025409646332263947 0.6899224519729614
0.17829453945159912 -0.009080566465854645 0.20930230617523193
0.17829453945159912 -0.008813983760774136 0.22480618953704834
0.17829453945159912 0.006144602783024311 0.3333333730697632
0.17829453945159912 0.00698730256408453 0.3488372564315796
0.17829453945159912 0.006878841668367386 0.7054263353347778
0.17829453945159912 0.008649643510580063 -0.4883720874786377
0.17829453945159912 0.008878151886165142 0.19379842281341553
0.17829453945159912 0.012136397883296013 0.3178294897079468
0.17829453945159912 0.008977376855909824 0.364341139793396
0.17829455435276031 0.009978151880204678 0.37984490394592285
0.17829453945159912 0.011346560902893543 0.39534878730773926
0.17829453945159912 0.015604976564645767 0.41085267066955566
0.17829453945159912 0.022019941359758377 0.42635655403137207
0.17829453945159912 0.028103042393922806 0.3178294897079468
0.17829453945159912 0.04034990444779396 -0.4728682041168213
0.17829453945159912 0.04925296828150749 -0.4573643207550049
0.17829453945159912 0.04534480720758438 0.19379842281341553
0.17829453945159912 0.04753909260034561 0.22480618953704834
0.17829453945159912 0.03987414389848709 0.3333333730697632
0.17829453945159912 0.04176311194896698 0.3488372564315796
0.17829453945159912 0.043873079121112823 0.364341139793396
0.17829453945159912 0.0480191595852375 0.37984490394592285
0.17829453945159912 0.04965708777308464 0.39534878730773926
0.17829453945159912 0.0470006987452507 0.41085267066955566
0.17829452455043793 0.04199979826807976 0.42635655403137207
0.17829453945159912 0.040027305483818054 0.7054263353347778
0.17829453945159912 0.05482492595911026 -0.4418604373931885
0.17829453945159912 0.05968523398041725 -0.42635661363601685
0.17829453945159912 0.06630715727806091 -0.41085273027420044
0.17829453945159912 0.057751044631004333 0.20930230617523193
0.17829453945159912 0.08063162118196487 -0.39534884691238403
0.17829453945159912 0.07627733051776886 0.6899224519729614
0.17829453945159912 0.09919117391109467 -0.39534884691238403
0.17829453945159912 0.09749245643615723 0.674418568611145
0.17829453945159912 0.11478513479232788 0.6589146852493286
0.17829453945159912 0.12940950691699982 -0.39534884691238403
0.17829453945159912 0.12940457463264465 0.6434108018875122
0.17829453945159912 0.1350039839744568 -0.37984493374824524
0.17829453945159912 0.13952738046646118 -0.3643410801887512
0.17829453945159912 0.1444079577922821 -0.3488371968269348
0.17829453945159912 0.14190900325775146 0.6279069185256958
0.17829453945159912 0.14753484725952148 -0.3333333134651184
0.17829453945159912 0.14947697520256042 -0.317829430103302
0.17829453945159912 0.1511283665895462 -0.30232560634613037
0.17829453945159912 0.1521872580051422 -0.28682172298431396
0.17829453945159912 0.15298651158809662 -0.27131783962249756
0.17829453945159912 0.153124138712883 -0.25581395626068115
0.17829453945159912 0.15313981473445892 -0.24031007289886475
0.17829453945159912 0.15329784154891968 -0.22480618953704834
0.17829453945159912 0.1534884124994278 -0.20930230617523193
0.17829453945159912 0.15397202968597412 -0.19379842281341553
0.17829453945159912 0.1550360471010208 -0.1782945990562439
0.17829453945159912 0.15601740777492523 -0.1627907156944275
0.17829453945159912 0.15705353021621704 -0.14728683233261108
0.17829453945159912 0.15811118483543396 -0.13178294897079468
0.17829453945159912 0.15907207131385803 -0.11627906560897827
0.17829453945159912 0.1597694307565689 -0.10077518224716187
0.17829453945159912 0.16040948033332825 -0.08527129888534546
0.17829453945159912 0.161036416888237 -0.06976741552352905
0.17829453945159912 0.16162385046482086 -0.05426359176635742
0.17829453945159912 0.16217854619026184 -0.038759708404541016
0.17829453945159912 0.1625887006521225 -0.02325582504272461
0.17829453945159912 0.1615157574415207 0.5968992710113525
0.17829453945159912 0.1529889553785324 0.612403154373169
0.17829453945159912 0.163514643907547 -0.007751941680908203
0.17829453945159912 0.1643943190574646 0.007751941680908203
0.17829453945159912 0.165253147482872 0.02325582504272461
0.17829453945159912 0.16593527793884277 0.038759708404541016
0.17829453945159912 0.16670984029769897 0.05426359176635742
0.17829453945159912 0.16709284484386444 0.06976747512817383
0.17829453945159912 0.16729290783405304 0.08527135848999023
0.17829453945159912 0.1674119532108307 0.10077524185180664
0.17829453945159912 0.16761837899684906 0.11627912521362305
0.17829453945159912 0.16779673099517822 0.1317828893661499
0.17829453945159912 0.16783125698566437 0.1472867727279663
0.17829453945159912 0.16804927587509155 0.16279065608978271
0.17829453945159912 0.16899678111076355 0.17829453945159912
0.17829453945159912 0.17186886072158813 0.19379842281341553
0.17829453945159912 0.1740172654390335 0.20930230617523193
0.17829453945159912 0.17426148056983948 0.22480618953704834
0.17829453945159912 0.17414548993110657 0.24031007289886475
0.17829453945159912 0.17368757724761963 0.25581395626068115
0.17829453945159912 0.17284166812896729 0.27131783962249756
0.17829453945159912 0.1720096468925476 0.28682172298431396
0.17829453945159912 0.1716650128364563 0.30232560634613037
0.17829453945159912 0.17109434306621552 0.3178294897079468
0.17829453945159912 0.17056724429130554 0.3333333730697632
0.17829453945159912 0.17011743783950806 0.3488372564315796
0.17829453945159912 0.16960658133029938 0.364341139793396
0.17829453945159912 0.1695576012134552 0.37984490394592285
0.17829453945159912 0.1700463593006134 0.39534878730773926
0.17829453945159912 0.1705949604511261 0.41085267066955566
0.17829453945159912 0.1710975021123886 0.42635655403137207
0.17829453945159912 0.17184828221797943 0.4418604373931885
0.17829453945159912 0.17237959802150726 0.4573643207550049
0.17829453945159912 0.17290981113910675 0.4728682041168213
0.17829453945159912 0.1732170581817627 0.4883720874786377
0.17829453945159912 0.17336177825927734 0.5038759708404541
0.17829453945159912 0.17353834211826324 0.5193798542022705
0.17829453945159912 0.17298224568367004 0.5348837375640869
0.17829453945159912 0.1717524528503418 0.5503876209259033
0.17829453945159912 0.17015177011489868 0.5658915042877197
0.17829453945159912 0.16756559908390045 0.5813953876495361
0.19379842281341553 -0.0855947956442833 -0.751937985420227
0.19379842281341553 -0.08792899549007416 -0.7364341020584106
0.19379842281341553 -0.08962982892990112 -0.7209302186965942
0.19379842281341553 -0.09065213054418564 -0.7054263353347778
0.19379842281341553 -0.09104089438915253 -0.6899224519729614
0.19379842281341553 -0.09088777005672455 -0.674418568611145
0.19379842281341553 -0.09063945710659027 -0.6589146852493286
0.19379842281341553 -0.0906374603509903 -0.643410861492157
0.19379842281341553 -0.09026819467544556 -0.6279069781303406
0.19379842281341553 -0.08932428807020187 -0.6124030947685242
0.19379842281341553 -0.0884142518043518 -0.5968992114067078
0.19379842281341553 -0.08778996765613556 -0.5813953876495361
0.19379842281341553 -0.08745995163917542 -0.5658915042877197
0.19379842281341553 -0.08747521787881851 -0.5503876209259033
0.19379842281341553 -0.08839907497167587 -0.5348837375640869
0.19379842281341553 -0.08994187414646149 -0.5193798542022705
0.19379842281341553 -0.09024964272975922 -0.5038759708404541
0.19379842281341553 -0.08828377723693848 -0.4883720874786377
0.19379842281341553 -0.08675266057252884 0.17829453945159912
0.19379842281341553 -0.09301185607910156 0.19379842281341553
0.19379842281341553 -0.09598182886838913 0.20930230617523193
0.19379842281341553 -0.09696011245250702 0.22480620443820953
0.19379842281341553 -0.09739352762699127 0.24031007289886475
0.19379842281341553 -0.09737389534711838 0.25581395626068115
0.19379842281341553 -0.09665489196777344 0.27131783962249756
0.19379842281341553 -0.09618410468101501 0.28682172298431396
0.19379843771457672 -0.09578652679920197 0.30232560634613037
0.19379842281341553 -0.09540713578462601 0.3178294897079468
0.19379842281341553 -0.09515978395938873 0.3333333730697632
0.19379842281341553 -0.09485964477062225 0.3488372564315796
0.19379842281341553 -0.09433579444885254 0.364341139793396
0.19379842281341553 -0.09410247206687927 0.37984490394592285
0.19379842281341553 -0.09408169239759445 0.39534878730773926
0.19379842281341553 -0.09403343498706818 0.41085267066955566
0.19379842281341553 -0.09396074712276459 0.42635655403137207
0.19379842281341553 -0.09417790174484253 0.4418604373931885
0.19379842281341553 -0.09436273574829102 0.4573643207550049
0.19379842281341553 -0.09458944946527481 0.4728682041168213
0.19379842281341553 -0.09454229474067688 0.4883720874786377
0.19379842281341553 -0.09427355229854584 0.5038759708404541
0.19379842281341553 -0.09412943571805954 0.5193798542022705
0.19379842281341553 -0.09305104613304138 0.5348837375640869
0.19379842281341553 -0.09163417667150497 0.5503876209259033
0.19379842281341553 -0.09098154306411743 0.5658915042877197
0.19379842281341553 -0.08955052495002747 0.5813953876495361
0.19379842281341553 -0.08315057307481766 -0.751937985420227
0.19379842281341553 -0.07050063461065292 -0.5813953876495361
0.19379842281341553 -0.07382674515247345 -0.5658915042877197
0.19379842281341553 -0.07478910684585571 -0.5503876209259033
0.19379842281341553 -0.07304052263498306 -0.5348837375640869
0.19379842281341553 -0.07031936943531036 -0.4883720874786377
0.19379842281341553 -0.07065373659133911 -0.25581395626068115
0.19379842281341553 -0.07121165096759796 -0.24031007289886475
0.19379842281341553 -0.07124093919992447 -0.22480618953704834
0.19379842281341553 -0.0716337263584137 -0.20930230617523193
0.19379842281341553 -0.07229167968034744 -0.19379842281341553
0.19379842281341553 -0.07302635163068771 -0.1782945990562439
0.19379842281341553 -0.07314486801624298 -0.1627907156944275
0.19379842281341553 -0.0736141949892044 -0.14728683233261108
0.19379842281341553 -0.07437504827976227 -0.13178294897079468
0.19379842281341553 -0.07496430724859238 -0.11627906560897827
0.19379842281341553 -0.0758504867553711 -0.10077518224716187
0.19379842281341553 -0.07640480995178223 -0.08527129888534546
0.19379842281341553 -0.07696543633937836 -0.06976741552352905
0.19379842281341553 -0.07732538878917694 -0.05426359176635742
0.19379842281341553 -0.07776659727096558 -0.038759708404541016
0.19379842281341553 -0.07794715464115143 -0.02325582504272461
0.19379842281341553 -0.0788712203502655 -0.007751941680908203
0.19379842281341553 -0.07978072017431259 0.007751941680908203
0.19379842281341553 -0.0804964080452919 0.02325582504272461
0.19379842281341553 -0.0810706615447998 0.038759708404541016
0.19379842281341553 -0.08155269175767899 0.05426358804106712
0.19379842281341553 -0.0819694846868515 0.06976747512817383
0.19379842281341553 -0.08243831247091293 0.08527135848999023
0.19379842281341553 -0.08277789503335953 0.10077524185180664
0.19379842281341553 -0.08326003700494766 0.11627912521362305
0.19379842281341553 -0.08376872539520264 0.1317828893661499
0.19379842281341553 -0.08423586189746857 0.1472867727279663
0.19379842281341553 -0.08469992876052856 0.16279064118862152
0.19379842281341553 -0.0842406153678894 0.5968992710113525
0.19379842281341553 -0.07412420213222504 0.612403154373169
0.19379842281341553 -0.06826652586460114 -0.7364341020584106
0.19379842281341553 -0.06694493442773819 -0.7209302186965942
0.19379842281341553 -0.06659990549087524 -0.7054263353347778
0.19379842281341553 -0.06698816269636154 -0.6899224519729614
0.19379842281341553 -0.06755726784467697 -0.674418568611145
0.19379842281341553 -0.06799127906560898 -0.6589146852493286
0.19379842281341553 -0.06819412857294083 -0.643410861492157
0.19379842281341553 -0.06857581436634064 -0.6279069781303406
0.19379842281341553 -0.0690564438700676 -0.612403154373169
0.19379842281341553 -0.06953278928995132 -0.5968992114067078
0.19379842281341553 -0.06951694935560226 -0.5193797945976257
0.19379842281341553 -0.06924115866422653 -0.5038759708404541
0.19379842281341553 -0.05660151690244675 -0.3643410801887512
0.19379842281341553 -0.060497310012578964 -0.3488371968269348
0.19379842281341553 -0.06423629075288773 -0.3333333134651184
0.19379842281341553 -0.06661760061979294 -0.317829430103302
0.19379842281341553 -0.06813762336969376 -0.30232560634613037
0.19379840791225433 -0.06891147792339325 -0.28682172298431396
0.19379842281341553 -0.06970367580652237 -0.27131783962249756
0.19379842281341553 -0.06131037324666977 0.6279069185256958
0.19379842281341553 -0.041602425277233124 -0.42635661363601685
0.19379842281341553 -0.044474124908447266 -0.41085273027420044
0.19379842281341553 -0.04868454486131668 -0.39534884691238403
0.19379842281341553 -0.05337589234113693 -0.3798449635505676
0.19379842281341553 -0.04758833721280098 0.6434108018875122
0.19379842281341553 -0.036912284791469574 -0.4418604373931885
0.19379842281341553 -0.029925886541604996 0.6589146852493286
0.19379842281341553 0.0011839030776172876 -0.4418604373931885
0.19379842281341553 -0.004046968184411526 0.674418568611145
0.19379842281341553 0.02267724834382534 -0.42635661363601685
0.19379842281341553 0.04717027395963669 -0.41085273027420044
0.19379842281341553 0.051392413675785065 0.674418568611145
0.19379842281341553 0.060161035507917404 -0.39534884691238403
0.19379842281341553 0.06925171613693237 -0.3798449635505676
0.19379842281341553 0.07779546082019806 -0.3643410801887512
0.19379842281341553 0.0851437970995903 -0.3488371968269348
0.19379842281341553 0.08044759929180145 0.6589146852493286
0.19379842281341553 0.09506583958864212 -0.3333333134651184
0.19379842281341553 0.10266276448965073 -0.317829430103302
0.19379842281341553 0.10853768140077591 -0.30232560634613037
0.19379842281341553 0.112059086561203 -0.28682172298431396
0.19379842281341553 0.11439462006092072 -0.27131783962249756
0.19379842281341553 0.11569783091545105 -0.25581395626068115
0.19379842281341553 0.11605675518512726 0.6279069185256958
0.19379842281341553 0.101250059902668 0.6434108018875122
0.19379842281341553 0.11663390696048737 -0.24031007289886475
0.19379842281341553 0.11731141805648804 -0.22480617463588715
0.19379843771457672 0.1181483119726181 -0.20930230617523193
0.19379842281341553 0.11936318874359131 -0.19379842281341553
0.19379842281341553 0.12099330127239227 -0.1782945990562439
0.19379842281341553 0.12265919148921967 -0.1627907156944275
0.19379842281341553 0.12445976585149765 -0.14728683233261108
0.19379842281341553 0.12640798091888428 -0.13178294897079468
0.19379842281341553 0.12818710505962372 -0.11627906560897827
0.19379842281341553 0.12965670228004456 -0.10077518224716187
0.19379842281341553 0.1311894655227661 -0.08527129888534546
0.19379842281341553 0.12906746566295624 0.612403154373169
0.19379842281341553 0.13273386657238007 -0.06976741552352905
0.19379842281341553 0.134403258562088 -0.05426359176635742
0.19379842281341553 0.1360357105731964 -0.038759708404541016
0.19379842281341553 0.13705122470855713 -0.02325582504272461
0.19379842281341553 0.1385357677936554 -0.007751941680908203
0.19379842281341553 0.13997451961040497 0.007751941680908203
0.19379842281341553 0.14106449484825134 0.02325582504272461
0.19379842281341553 0.14167563617229462 0.038759708404541016
0.19379842281341553 0.14231957495212555 0.05426359176635742
0.19379842281341553 0.1424216628074646 0.06976747512817383
0.19379842281341553 0.142522931098938 0.08527135848999023
0.19379842281341553 0.1426141858100891 0.10077524185180664
0.19379842281341553 0.14281219244003296 0.11627912521362305
0.19379842281341553 0.14317283034324646 0.1317828893661499
0.19379842281341553 0.14334237575531006 0.1472867727279663
0.19379842281341553 0.1435297131538391 0.16279065608978271
0.19379842281341553 0.14434725046157837 0.17829453945159912
0.19379842281341553 0.14676529169082642 0.19379842281341553
0.19379842281341553 0.1471155285835266 0.3333333730697632
0.19379842281341553 0.14700289070606232 0.3488372564315796
0.19379842281341553 0.14668287336826324 0.364341139793396
0.19379842281341553 0.14667345583438873 0.37984490394592285
0.19379842281341553 0.1470133513212204 0.39534878730773926
0.19379842281341553 0.1457701474428177 0.5813953876495361
0.19379842281341553 0.1406899392604828 0.5968992710113525
0.19379842281341553 0.15094807744026184 0.20930230617523193
0.19379842281341553 0.15176695585250854 0.22480618953704834
0.19379842281341553 0.15021683275699615 0.24031007289886475
0.19379842281341553 0.14940676093101501 0.25581395626068115
0.19379842281341553 0.14876551926136017 0.27131783962249756
0.19379843771457672 0.1477767527103424 0.28682172298431396
0.19379842281341553 0.14779630303382874 0.30232560634613037
0.19379842281341553 0.14739157259464264 0.3178294897079468
0.19379842281341553 0.14737175405025482 0.4108526408672333
0.19379842281341553 0.14803916215896606 0.42635655403137207
0.19379842281341553 0.14918288588523865 0.4418604373931885
0.19379842281341553 0.1500968337059021 0.4573643207550049
0.19379842281341553 0.15124642848968506 0.4728682041168213
0.19379842281341553 0.1521468162536621 0.4883720874786377
0.19379842281341553 0.15257948637008667 0.5038759708404541
0.19379842281341553 0.15325425565242767 0.5193798542022705
0.19379843771457672 0.15213076770305634 0.5348837375640869
0.19379842281341553 0.14999428391456604 0.5503876209259033
0.19379842281341553 0.14792457222938538 0.5658915042877197
0.20930230617523193 -0.08563783764839172 -0.751937985420227
0.20930230617523193 -0.08816491812467575 -0.7364341020584106
0.20930230617523193 -0.08951517194509506 -0.7209302186965942
0.20930230617523193 -0.09022627025842667 -0.7054263353347778
0.20930230617523193 -0.09055577218532562 -0.6899224519729614
0.20930230617523193 -0.09055420011281967 -0.674418568611145
0.20930230617523193 -0.09045946598052979 -0.6589146852493286
0.20930230617523193 -0.09052976220846176 -0.643410861492157
0.20930230617523193 -0.09016679972410202 -0.6279069781303406
0.20930230617523193 -0.08935140073299408 -0.6124030947685242
0.20930230617523193 -0.08856669068336487 -0.5968992114067078
0.20930230617523193 -0.08805279433727264 -0.5813953876495361
0.20930230617523193 -0.08786691725254059 -0.5658915042877197
0.20930230617523193 -0.08796381950378418 -0.5503876209259033
0.20930230617523193 -0.08868207037448883 -0.5348837375640869
0.20930230617523193 -0.08964336663484573 -0.5193798542022705
0.20930230617523193 -0.08991045504808426 -0.5038759708404541
0.20930230617523193 -0.08878005295991898 -0.4883720874786377
0.20930230617523193 -0.0860208049416542 -0.4728682041168213
0.20930229127407074 -0.08477145433425903 -0.751937985420227
0.20930230617523193 -0.07525927573442459 -0.7364341020584106
0.20930230617523193 -0.0717114731669426 -0.4728682041168213
0.20930230617523193 -0.07295355200767517 0.20930230617523193
0.20930230617523193 -0.07602504640817642 0.22480618953704834
0.20930230617523193 -0.07652325928211212 0.24031007289886475
0.20930230617523193 -0.07586902379989624 0.25581395626068115
0.20930230617523193 -0.07466216385364532 0.27131783962249756
0.20930230617523193 -0.07331434637308121 0.28682172298431396
0.20930230617523193 -0.07176578044891357 0.30232560634613037
0.20930230617523193 -0.0703674703836441 0.3178294897079468
0.20930230617523193 -0.06920351088047028 -0.7209302186965942
0.20930229127407074 -0.06882679462432861 -0.7054263353347778
0.20930230617523193 -0.06874528527259827 -0.6899224519729614
0.20930230617523193 -0.06875348836183548 -0.674418568611145
0.20930230617523193 -0.06876692175865173 -0.6589146852493286
0.20930229127407074 -0.06871533393859863 -0.6434108018875122
0.20930230617523193 -0.06884942948818207 -0.6279069781303406
0.20930230617523193 -0.06909838318824768 -0.6124030947685242
0.20930230617523193 -0.06942649930715561 -0.5968992114067078
0.20930230617523193 -0.069636769592762 -0.5813953876495361
0.20930230617523193 -0.0697418749332428 -0.5658915042877197
0.20930230617523193 -0.06957194209098816 -0.5503876209259033
0.20930230617523193 -0.06917726993560791 -0.5348837375640869
0.20930230617523193 -0.06862041354179382 -0.5193798542022705
0.20930230617523193 -0.06817406415939331 -0.5038759708404541
0.20930230617523193 -0.06817910075187683 -0.4883720576763153
0.20930230617523193 -0.054271094501018524 -0.02325582504272461
0.20930230617523193 -0.05540918558835983 -0.007751941680908203
0.20930230617523193 -0.056731656193733215 0.007751941680908203
0.20930230617523193 -0.05760642886161804 0.02325582504272461
0.20930230617523193 -0.058297038078308105 0.038759708404541016
0.20930230617523193 -0.05899174511432648 0.05426359176635742
0.20930230617523193 -0.05945597589015961 0.06976747512817383
0.20930230617523193 -0.060103096067905426 0.08527135848999023
0.20930230617523193 -0.060637302696704865 0.10077524185180664
0.20930230617523193 -0.061376944184303284 0.11627912521362305
0.20930230617523193 -0.062032509595155716 0.1317828893661499
0.20930230617523193 -0.06255249679088593 0.1472867727279663
0.20930230617523193 -0.06302547454833984 0.16279065608978271
0.20930230617523193 -0.064828060567379 0.17829453945159912
0.20930230617523193 -0.06822001934051514 0.19379842281341553
0.20930230617523193 -0.06937035173177719 0.3333333730697632
0.20930230617523193 -0.06892156600952148 0.3488372564315796
0.20930232107639313 -0.06849896162748337 0.364341139793396
0.20930230617523193 -0.06839229166507721 0.37984490394592285
0.20930230617523193 -0.06847049295902252 0.39534878730773926
0.20930230617523193 -0.06853039562702179 0.41085267066955566
0.20930232107639313 -0.06861178576946259 0.42635655403137207
0.20930230617523193 -0.06886692345142365 0.4418604373931885
0.20930230617523193 -0.06912504136562347 0.4573643207550049
0.20930230617523193 -0.06939392536878586 0.4728682041168213
0.20930230617523193 -0.06946095079183578 0.4883720874786377
0.20930230617523193 -0.06927533447742462 0.5038759708404541
0.20930230617523193 -0.0691475123167038 0.5193798542022705
0.20930230617523193 -0.0684417113661766 0.5348837375640869
0.20930230617523193 -0.06770145148038864 0.5503876209259033
0.20930230617523193 -0.06723356992006302 0.5658915042877197
0.20930230617523193 -0.06651607900857925 0.5813953876495361
0.20930230617523193 -0.059411272406578064 0.5968992710113525
0.20930230617523193 -0.0403265655040741 -0.3333333134651184
0.20930230617523193 -0.044103384017944336 -0.317829430103302
0.20930230617523193 -0.047623880207538605 -0.30232560634613037
0.20930230617523193 -0.0494188517332077 -0.28682172298431396
0.20930230617523193 -0.05053618177771568 -0.27131783962249756
0.20930230617523193 -0.05104139819741249 -0.25581395626068115
0.20930230617523193 -0.05122155323624611 -0.24031007289886475
0.20930230617523193 -0.05108267441391945 -0.22480618953704834
0.20930230617523193 -0.05113666504621506 -0.20930230617523193
0.20930230617523193 -0.051343828439712524 -0.19379842281341553
0.20930230617523193 -0.05170448496937752 -0.1782945990562439
0.20930230617523193 -0.05191895365715027 -0.1627907156944275
0.20930230617523193 -0.052218638360500336 -0.14728683233261108
0.20930230617523193 -0.05260760337114334 -0.13178294897079468
0.20930230617523193 -0.05288071185350418 -0.11627906560897827
0.20930230617523193 -0.05323624983429909 -0.10077518969774246
0.20930229127407074 -0.05345873907208443 -0.08527129143476486
0.20930230617523193 -0.05370206758379936 -0.06976741552352905
0.20930230617523193 -0.053894709795713425 -0.05426359176635742
0.20930230617523193 -0.05411548912525177 -0.038759708404541016
0.20930230617523193 -0.04695286601781845 0.612403154373169
0.20930230617523193 -0.03311413154006004 -0.3488371968269348
0.20930230617523193 -0.030788902193307877 0.6279069185256958
0.20930230617523193 -0.01034953910857439 0.6434108018875122
0.20930230617523193 0.034463588148355484 -0.3488371968269348
0.20930230617523193 0.04774761572480202 -0.3333333134651184
0.20930230617523193 0.05613165348768234 -0.317829430103302
0.20930230617523193 0.061403900384902954 -0.30232560634613037
0.20930230617523193 0.0654381811618805 -0.28682172298431396
0.20930230617523193 0.06843769550323486 -0.27131783962249756
0.20930230617523193 0.05734635517001152 0.6434108018875122
0.20930230617523193 0.07050978392362595 -0.25581395626068115
0.20930232107639313 0.07248979806900024 -0.24031007289886475
0.20930232107639313 0.07396336644887924 -0.22480618953704834
0.20930230617523193 0.07559352368116379 -0.20930230617523193
0.20930230617523193 0.07724171876907349 -0.19379842281341553
0.20930230617523193 0.07885676622390747 -0.1782945990562439
0.20930230617523193 0.08045195043087006 -0.1627907156944275
0.20930230617523193 0.0822627991437912 -0.14728683233261108
0.20930230617523193 0.08415378630161285 -0.13178294897079468
0.20930230617523193 0.08104182034730911 0.6279069185256958
0.20930230617523193 0.08624663203954697 -0.11627906560897827
0.20930230617523193 0.08862662315368652 -0.10077518224716187
0.20930230617523193 0.09135331213474274 -0.08527129888534546
0.20930230617523193 0.09391757845878601 -0.06976741552352905
0.20930230617523193 0.09614953398704529 -0.05426359176635742
0.20930230617523193 0.09814969450235367 -0.038759708404541016
0.20930230617523193 0.09931184351444244 -0.02325582504272461
0.20930230617523193 0.09877608716487885 0.612403154373169
0.20930230617523193 0.10104916989803314 -0.007751941680908203
0.20930230617523193 0.10308478772640228 0.007751941680908203
0.20930230617523193 0.10467889904975891 0.02325582504272461
0.20930230617523193 0.10567374527454376 0.038759708404541016
0.20930230617523193 0.1068827360868454 0.05426359176635742
0.20930230617523193 0.1071193516254425 0.06976747512817383
0.20930230617523193 0.10743312537670135 0.08527135848999023
0.20930230617523193 0.10789027810096741 0.10077524185180664
0.20930230617523193 0.10850712656974792 0.11627912521362305
0.20930230617523193 0.10942741483449936 0.1317828893661499
0.20930230617523193 0.11015890538692474 0.1472867727279663
0.20930230617523193 0.11063797771930695 0.16279065608978271
0.20930230617523193 0.11194226890802383 0.17829453945159912
0.20930230617523193 0.11548038572072983 0.19379842281341553
0.20930230617523193 0.11263422667980194 0.5968992710113525
0.20930232107639313 0.12064160406589508 0.20930232107639313
0.20930230617523193 0.12041985988616943 0.22480620443820953
0.20930230617523193 0.11874023824930191 0.24031007289886475
0.20930230617523193 0.1182030513882637 0.25581395626068115
0.20930230617523193 0.11734121292829514 0.27131783962249756
0.20930232107639313 0.11758669465780258 0.28682172298431396
0.20930230617523193 0.1179073229432106 0.30232560634613037
0.20930230617523193 0.11890611797571182 0.3178294897079468
0.20930229127407074 0.11957623064517975 0.3333333432674408
0.20930230617523193 0.12032723426818848 0.3488372564315796
0.20930230617523193 0.12029463052749634 0.364341139793396
0.20930232107639313 0.12064565718173981 0.37984490394592285
0.20930230617523193 0.12155847251415253 0.39534878730773926
0.20930230617523193 0.12220989167690277 0.41085267066955566
0.20930230617523193 0.12300576269626617 0.42635655403137207
0.20930230617523193 0.12411101162433624 0.4418604373931885
0.20930230617523193 0.1249285638332367 0.4573643207550049
0.20930230617523193 0.1258668452501297 0.4728682041168213
0.20930230617523193 0.1266576498746872 0.4883720874786377
0.20930230617523193 0.1270313411951065 0.5038759708404541
0.20930230617523193 0.12756866216659546 0.5193798542022705
0.20930230617523193 0.12699905037879944 0.5348837375640869
0.20930230617523193 0.1255980134010315 0.5503876209259033
0.20930230617523193 0.12360125780105591 0.5658915042877197
0.20930230617523193 0.11942820996046066 0.5813953876495361
0.22480618953704834 -0.08800837397575378 -0.751937985420227
0.22480618953704834 -0.08950457721948624 -0.7364341020584106
0.22480618953704834 -0.09029468894004822 -0.7209302186965942
0.22480618953704834 -0.09061858057975769 -0.7054263353347778
0.22480618953704834 -0.09082559496164322 -0.6899224519729614
0.22480618953704834 -0.09077967703342438 -0.674418568611145
0.22480618953704834 -0.0905928686261177 -0.6589146852493286
0.22480618953704834 -0.0905657410621643 -0.643410861492157
0.22480618953704834 -0.09013044834136963 -0.6279069781303406
0.22480618953704834 -0.08938619494438171 -0.6124030947685242
0.22480618953704834 -0.08870981633663177 -0.5968992114067078
0.22480618953704834 -0.08829212188720703 -0.5813953876495361
0.22480618953704834 -0.08813506364822388 -0.5658915042877197
0.22480618953704834 -0.08803077042102814 -0.5503876209259033
0.22480618953704834 -0.0881870910525322 -0.5348837375640869
0.22480618953704834 -0.08828458189964294 -0.5193798542022705
0.22480618953704834 -0.0881587564945221 -0.5038759708404541
0.22480618953704834 -0.08750367164611816 -0.4883720874786377
0.22480618953704834 -0.08567474782466888 -0.4728682041168213
0.22480620443820953 -0.08326227217912674 -0.751937985420227
0.22480618953704834 -0.07900065928697586 -0.7364341020584106
0.22480618953704834 -0.07144025713205338 -0.7209302186965942
0.22480618953704834 -0.06941191852092743 -0.7054263353347778
0.22480617463588715 -0.06917012482881546 -0.6899224519729614
0.22480618953704834 -0.06900990754365921 -0.674418568611145
0.22480618953704834 -0.06888428330421448 -0.6589146852493286
0.22480617463588715 -0.06875474005937576 -0.6434108018875122
0.22480618953704834 -0.0688156709074974 -0.6279069781303406
0.22480618953704834 -0.06897842139005661 -0.6124030947685242
0.22480618953704834 -0.06923273205757141 -0.596899151802063
0.22480618953704834 -0.06938577443361282 -0.5813953876495361
0.22480618953704834 -0.06938786059617996 -0.5658915042877197
0.22480618953704834 -0.06912684440612793 -0.5503876209259033
0.22480618953704834 -0.06878387928009033 -0.5348837375640869
0.22480618953704834 -0.06835754960775375 -0.5193798542022705
0.22480618953704834 -0.06788256764411926 -0.5038759708404541
0.22480618953704834 -0.06778468191623688 -0.4883720874786377
0.22480618953704834 -0.0688403844833374 -0.4728682041168213
0.22480618953704834 -0.04140863195061684 0.20930230617523193
0.22480618953704834 -0.042044300585985184 0.22480618953704834
0.22480618953704834 -0.04089125245809555 0.24031007289886475
0.22480618953704834 -0.040854886174201965 0.25581395626068115
0.22480618953704834 -0.03936384990811348 0.27131783962249756
0.22480618953704834 -0.03890625387430191 0.4573643207550049
0.22480618953704834 -0.03994143009185791 0.4728682041168213
0.22480618953704834 -0.04050445929169655 0.4883720874786377
0.22480618953704834 -0.040292173624038696 0.5038759708404541
0.22480618953704834 -0.03991023078560829 0.5193798542022705
0.22480618953704834 -0.023485960438847542 0.06976747512817383
0.22480618953704834 -0.024079158902168274 0.08527135848999023
0.22480618953704834 -0.02473519742488861 0.10077524185180664
0.22480618953704834 -0.02546149678528309 0.11627912521362305
0.22480618953704834 -0.02593984454870224 0.1317828893661499
0.22480618953704834 -0.02638562023639679 0.1472867727279663
0.22480618953704834 -0.026410803198814392 0.16279065608978271
0.22480618953704834 -0.02948584035038948 0.17829453945159912
0.22480618953704834 -0.036112356930971146 0.19379842281341553
0.22480618953704834 -0.038359224796295166 0.28682172298431396
0.22480620443820953 -0.03782790154218674 0.30232560634613037
0.22480618953704834 -0.03701168671250343 0.3178294897079468
0.22480618953704834 -0.035979561507701874 0.3333333432674408
0.22480618953704834 -0.035784345120191574 0.3488372564315796
0.22480618953704834 -0.035782814025878906 0.364341139793396
0.22480618953704834 -0.03630722686648369 0.37984490394592285
0.22480618953704834 -0.037025194615125656 0.39534878730773926
0.22480618953704834 -0.03734323009848595 0.41085267066955566
0.22480620443820953 -0.037713706493377686 0.42635658383369446
0.22480618953704834 -0.038281530141830444 0.4418604373931885
0.22480618953704834 -0.03831174969673157 0.5348837375640869
0.22480618953704834 -0.03679010644555092 0.5503876209259033
0.22480618953704834 -0.03552114963531494 0.5658915042877197
0.22480618953704834 -0.03309250995516777 0.5813953876495361
0.22480618953704834 -0.00910157710313797 -0.10077518224716187
0.22480618953704834 -0.011075600050389767 -0.08527129888534546
0.22480618953704834 -0.012968677096068859 -0.06976741552352905
0.22480618953704834 -0.014077205210924149 -0.05426359176635742
0.22480618953704834 -0.015077592805027962 -0.038759708404541016
0.22480618953704834 -0.015533759258687496 -0.02325582504272461
0.22480618953704834 -0.017508074641227722 -0.007751941680908203
0.22480618953704834 -0.019951140508055687 0.007751941680908203
0.22480617463588715 -0.021146805956959724 0.02325582504272461
0.22480618953704834 -0.021896852180361748 0.038759708404541016
0.22480620443820953 -0.022977685555815697 0.05426359176635742
0.22480618953704834 -0.02256382443010807 0.5968992710113525
0.22480618953704834 0.005808952264487743 -0.13178294897079468
0.22480618953704834 -0.0047019291669130325 -0.11627906560897827
