0.04780226945877075 -0.038759708404541016 0.5503876209259033
0.05266401171684265 -0.038759708404541016 0.5658915042877197
0.048037849366664886 -0.038759708404541016 0.6589146852493286
0.050649531185626984 -0.038759708404541016 0.8294574022293091
0.04210106283426285 -0.038759708404541016 0.8449612855911255
0.04083425551652908 -0.02325582504272461 0.5348837375640869
0.05320882052183151 -0.02325582504272461 0.5503876209259033
0.04656500369310379 -0.02325582504272461 0.674418568611145
0.04885823652148247 -0.02325582504272461 0.8449612855911255
0.041312240064144135 -0.02325582504272461 0.8604651093482971
0.049048542976379395 -0.007751941680908203 0.5503876209259033
0.05172932147979736 -0.007751941680908203 0.5658915042877197
0.04894082993268967 -0.007751941680908203 0.674418568611145
0.04192269593477249 -0.007751941680908203 0.6899224519729614
0.052123259752988815 -0.007751941680908203 0.8449612855911255
0.04525909572839737 -0.007751941680908203 0.8604651689529419
0.04153430461883545 0.00775194214656949 0.5658915042877197
0.048017095774412155 0.007751941680908203 0.5813953876495361
0.04944566637277603 0.007751941680908203 0.6589146852493286
0.04380752146244049 0.007751941680908203 0.674418568611145
0.0507114976644516 0.007751941680908203 0.8449612855911255
0.043471820652484894 0.007751941680908203 0.8604651689529419
0.05112772062420845 0.02325582504272461 0.5968992710113525
0.053678713738918304 0.02325582504272461 0.6279069185256958
0.04662945866584778 0.02325582504272461 0.6434108018875122
0.039015088230371475 0.02325582504272461 0.6589146852493286
0.053802795708179474 0.02325582504272461 0.8294574022293091
0.04448600858449936 0.02325582504272461 0.8449612855911255
0.03883042186498642 0.038759708404541016 0.4573643207550049
0.04049016907811165 0.038759708404541016 0.5968992710113525
0.045375630259513855 0.038759708404541016 0.612403154373169
0.04230748116970062 0.038759708404541016 0.6279069185256958
0.05270002409815788 0.038759708404541016 0.8139535188674927
0.039874494075775146 0.038759708404541016 0.8294574022293091
0.04360980913043022 0.05426359176635742 0.4418604373931885
0.047876328229904175 0.05426359176635742 0.7984496355056763
0.053848959505558014 0.06976747512817383 0.7674418687820435
0.047436341643333435 0.08527135848999023 -0.9689922332763672
0.04281451553106308 0.08527135848999023 -0.9534883499145508
0.04545725882053375 0.08527135848999023 -0.9379844665527344
0.04725907742977142 0.08527135848999023 -0.9224806427955627
0.049578361213207245 0.08527135848999023 -0.9069767594337463
0.05256069824099541 0.08527135848999023 -0.8914728760719299
0.04739125072956085 0.08527135848999023 -0.6899224519729614
0.051068540662527084 0.08527135848999023 -0.674418568611145
0.03935014456510544 0.08527135848999023 -0.4418604075908661
0.04644676297903061 0.08527135848999023 -0.42635661363601685
0.045028068125247955 0.08527135848999023 -0.41085273027420044
0.04016541689634323 0.08527135848999023 0.7519380450248718
0.04059598222374916 0.10077524930238724 -0.25581395626068115
0.045227088034152985 0.10077524185180664 -0.24031007289886475
0.04874006286263466 0.10077524185180664 -0.22480618953704834
0.04712885990738869 0.10077524185180664 -0.20930230617523193
0.04003668949007988 0.10077524185180664 -0.19379842281341553
0.03991788998246193 0.10077524185180664 -0.13178294897079468
0.03923480957746506 0.10077524185180664 -0.10077518224716187
0.040545105934143066 0.10077524185180664 -0.08527129888534546
0.041123900562524796 0.10077524185180664 -0.06976741552352905
0.044214509427547455 0.10077523440122604 -0.05426359176635742
0.04912611469626427 0.10077524185180664 -0.038759708404541016
0.05326220020651817 0.10077524185180664 -0.02325582504272461
0.05168018117547035 0.10077524185180664 -0.007751941680908203
0.04287701100111008 0.10077524185180664 0.007751941215246916
0.042462896555662155 0.10077524185180664 0.02325582504272461
0.043402254581451416 0.10077524185180664 0.038759708404541016
0.0530402734875679 0.10077524185180664 0.05426359176635742
0.04548945277929306 0.10077524185180664 0.7209302186965942
0.048344068229198456 0.11627912521362305 -0.3643410801887512
0.041119880974292755 0.11627911776304245 0.24031007289886475
0.049631357192993164 0.11627912521362305 0.25581395626068115
0.0542159341275692 0.11627912521362305 0.27131783962249756
0.04893223196268082 0.11627912521362305 0.3333333730697632
0.0415017232298851 0.11627912521362305 0.3488372564315796
0.047298140823841095 0.11627912521362305 0.364341139793396
0.043054189532995224 0.11627912521362305 0.6899224519729614
0.04161496087908745 0.1317828893661499 0.39534878730773926
0.04620631784200668 0.1317828893661499 0.6434108018875122
0.04538564011454582 0.1472867727279663 -0.6589146852493286
0.05241408571600914 0.1472867727279663 0.5658915042877197
0.04391796141862869 0.1472867727279663 0.5813953876495361
0.0521274209022522 0.16279065608978271 0.3333333730697632
0.04920642822980881 0.16279065608978271 0.3488372564315796
0.04777905344963074 0.16279065608978271 0.364341139793396
0.05004241317510605 0.16279065608978271 0.37984490394592285
0.05052690580487251 0.16279065608978271 0.41085267066955566
0.0430462509393692 0.16279065608978271 0.42635655403137207
0.04726340249180794 0.17829453945159912 -0.643410861492157
0.03933754563331604 0.17829453945159912 -0.6279069781303406
0.038900505751371384 0.17829453945159912 -0.5658915042877197
0.04024980962276459 0.17829453945159912 -0.39534884691238403
0.043452925980091095 0.17829453945159912 -0.3798449635505676
0.044269949197769165 0.17829453945159912 -0.3643410801887512
0.04046515002846718 0.17829453945159912 -0.3488371968269348
0.054629117250442505 -0.1627907156944275 -0.5968992114067078
0.06728628277778625 -0.1627907156944275 -0.5813953876495361
0.06566856056451797 -0.1627907156944275 -0.5348837375640869
0.06540730595588684 -0.1627907156944275 -0.5193798542022705
0.06712083518505096 -0.1627907156944275 -0.5038759708404541
0.0686187669634819 -0.1627907156944275 -0.4883720874786377
0.06903575360774994 -0.1627907156944275 -0.4728682041168213
0.0690031349658966 -0.1627907156944275 -0.4573643207550049
0.0692826509475708 -0.1627907156944275 -0.4418604373931885
0.06903813034296036 -0.1627907156944275 -0.42635661363601685
0.06796149164438248 -0.1627907156944275 -0.41085273027420044
0.06825399398803711 -0.1627907156944275 -0.39534884691238403
0.06875061243772507 -0.1627907156944275 0.3333333730697632
0.06781600415706635 -0.1627907156944275 0.3488372564315796
0.06815996021032333 -0.1627907156944275 0.364341139793396
0.06867437064647675 -0.1627907156944275 0.4418604373931885
0.0659560114145279 -0.1627907156944275 0.4573643207550049
0.06316535174846649 -0.1627907156944275 0.4728682041168213
0.05979523807764053 -0.1627907156944275 0.4883720874786377
0.056811366230249405 -0.1627907156944275 0.5038759708404541
0.05493786185979843 -0.1627907156944275 0.5193798542022705
0.06489734351634979 -0.14728683233261108 0.5968992710113525
0.05490608885884285 -0.14728683233261108 0.612403154373169
0.059751302003860474 -0.13178294897079468 0.6589146852493286
0.06428292393684387 -0.11627906560897827 0.37984490394592285
0.06836196780204773 -0.11627906560897827 0.6899224519729614
0.05572383478283882 -0.10077518224716187 -0.9844961762428284
0.05490478500723839 -0.10077518224716187 -0.8294574022293091
0.054752521216869354 -0.10077518224716187 -0.8139535188674927
0.054433826357126236 -0.10077518224716187 -0.7984496355056763
0.057513900101184845 -0.10077518969774246 -0.6744186282157898
0.055570702999830246 -0.10077518224716187 0.25581395626068115
0.059961095452308655 -0.10077518224716187 0.27131783962249756
0.06512463837862015 -0.10077518224716187 0.28682172298431396
0.0696522444486618 -0.10077518224716187 0.30232560634613037
0.05551020801067352 -0.10077517479658127 0.7364341020584106
0.06726124882698059 -0.08527129888534546 -0.9689922332763672
0.06650472432374954 -0.08527129888534546 -0.9534883499145508
0.06811052560806274 -0.08527129888534546 -0.9379844665527344
0.06961826980113983 -0.08527129888534546 -0.9224806427955627
0.06457117944955826 -0.08527129888534546 -0.3488371968269348
0.05471089109778404 -0.08527129143476486 -0.25581395626068115
0.05723642557859421 -0.08527129888534546 -0.24031007289886475
0.05910529941320419 -0.08527129888534546 -0.22480618953704834
0.058942556381225586 -0.08527129888534546 -0.20930230617523193
0.055280111730098724 -0.08527129143476486 -0.19379842281341553
0.05450698360800743 -0.08527130633592606 -0.13178296387195587
0.054484978318214417 -0.08527129888534546 -0.06976741552352905
0.056959036737680435 -0.08527129888534546 -0.05426359176635742
0.06009954959154129 -0.08527129888534546 -0.038759708404541016
0.06240597367286682 -0.08527129888534546 -0.02325582504272461
0.06229554861783981 -0.08527129888534546 -0.007751941680908203
0.05728991702198982 -0.08527129888534546 0.007751941680908203
0.055070456117391586 -0.08527129888534546 0.05426359176635742
0.057377733290195465 -0.08527129888534546 0.06976747512817383
0.05949629843235016 -0.08527129888534546 0.08527135848999023
0.059567224234342575 -0.08527129888534546 0.10077524185180664
0.06322092562913895 -0.08527129888534546 0.11627912521362305
0.05963195860385895 -0.08527129888534546 0.41085267066955566
0.06433678418397903 -0.08527129888534546 0.751937985420227
0.05729883164167404 -0.06976741552352905 -0.39534884691238403
0.060058388859033585 -0.06976741552352905 0.7829457521438599
0.05542188882827759 -0.05426359176635742 -0.4573642909526825
0.06602607667446136 -0.05426359176635742 -0.4418604373931885
0.06301954388618469 -0.05426359176635742 0.42635655403137207
0.06062854081392288 -0.05426359176635742 0.4418604373931885
0.06084854528307915 -0.05426359176635742 0.5968992710113525
0.0604216530919075 -0.05426359176635742 0.612403154373169
0.05647420883178711 -0.05426359176635742 0.6279069185256958
0.06225734204053879 -0.05426359176635742 0.7984496355056763
0.06312436610460281 -0.038759708404541016 -0.4728682041168213
0.06892605125904083 -0.038759708404541016 -0.4573643207550049
0.06140494346618652 -0.038759708404541016 0.4573643207550049
0.05732223391532898 -0.038759708404541016 0.5813953876495361
0.06490775942802429 -0.038759708404541016 0.5968992710113525
0.06520266830921173 -0.038759708404541016 0.612403154373169
0.0622551292181015 -0.038759708404541016 0.6279069185256958
0.05649470537900925 -0.038759708404541016 0.6434108018875122
0.06199067085981369 -0.038759708404541016 0.8139535188674927
0.060009777545928955 -0.02325582504272461 -0.4883720874786377
0.0680299922823906 -0.02325582504272461 -0.4728682041168213
0.06436142325401306 -0.02325582504272461 0.4573643207550049
0.05569908767938614 -0.02325582504272461 0.5658915042877197
0.058757297694683075 -0.02325582504272461 0.5813953876495361
0.06665943562984467 -0.02325582504272461 0.5968992710113525
0.06770695000886917 -0.02325582504272461 0.612403154373169
0.06567412614822388 -0.02325582504272461 0.6279069185256958
0.06066548824310303 -0.02325582504272461 0.6434108018875122
0.05441012978553772 -0.02325582504272461 0.6589146852493286
0.06678678095340729 -0.02325582504272461 0.8139535188674927
0.05942736193537712 -0.02325582504272461 0.8294574022293091
0.056086499243974686 -0.007751941680908203 -0.5038759708404541
0.06437742710113525 -0.007751941680908203 -0.4883720874786377
0.06280934810638428 -0.007751941680908203 0.4573643207550049
0.055899281054735184 -0.007751941680908203 0.5813953876495361
0.06556038558483124 -0.007751941680908203 0.5968992710113525
0.06740900874137878 -0.007751941680908203 0.612403154373169
0.06574345380067825 -0.007751941680908203 0.6279069185256958
0.0608862042427063 -0.007751941680908203 0.6434108018875122
0.05507078394293785 -0.00775194214656949 0.6589146852493286
0.06940888613462448 -0.007751941680908203 0.8139535188674927
0.06165669858455658 -0.007751941680908203 0.8294574022293091
0.05987425148487091 0.007751941680908203 -0.5038759708404541
0.0682278424501419 0.007751941680908203 -0.4883720874786377
0.06027835234999657 0.007751941680908203 0.4573643207550049
0.05959460139274597 0.007751941680908203 0.5968992710113525
0.06261667609214783 0.007751941680908203 0.612403154373169
0.06112683564424515 0.007751941680908203 0.6279069185256958
0.055959973484277725 0.007751941680908203 0.6434108018875122
0.0680602639913559 0.007751941680908203 0.8139535188674927
0.060417503118515015 0.007751941680908203 0.8294573426246643
0.05541284382343292 0.02325582504272461 -0.5038759708404541
0.06683176010847092 0.02325582504272461 -0.4883720874786377
0.06588342040777206 0.02325582504272461 0.4418604373931885
0.05457066372036934 0.02325582690536976 0.4573643207550049
0.05533435568213463 0.02325582504272461 0.612403154373169
0.06390468031167984 0.02325582504272461 0.8139535188674927
0.06190584599971771 0.038759708404541016 -0.4883720874786377
0.06517399847507477 0.038759708404541016 0.42635655403137207
0.05726833641529083 0.038759708404541016 0.4418604373931885
0.06448839604854584 0.038759708404541016 0.7984496355056763
0.0565018430352211 0.05426359176635742 -0.4883720874786377
0.06886348873376846 0.05426359176635742 -0.4728682041168213
0.054897207766771317 0.05426359176635742 0.42635655403137207
0.06306567788124084 0.05426359176635742 0.7829457521438599
0.0676119476556778 0.06976747512817383 -0.9689922332763672
0.06559382379055023 0.06976747512817383 -0.9534883499145508
0.06790581345558167 0.06976747512817383 -0.9379844665527344
0.055852945894002914 0.06976747512817383 -0.4728682041168213
0.061506155878305435 0.06976747512817383 -0.4573643207550049
0.06854912638664246 0.06976747512817383 -0.4418604373931885
0.06921733170747757 0.06976747512817383 0.41085267066955566
0.0683203786611557 0.06976747512817383 0.751937985420227
0.05908813327550888 0.08527135848999023 -0.9844960570335388
0.05484652519226074 0.08527135848999023 -0.8759690523147583
0.05689293518662453 0.08527135848999023 -0.8604651093482971
0.0585860013961792 0.08527135848999023 -0.8449612259864807
0.060629986226558685 0.08527135848999023 -0.8294573426246643
0.06133495271205902 0.08527135848999023 -0.8139535188674927
0.0612921416759491 0.08527135848999023 -0.7984496355056763
0.06122424453496933 0.08527135848999023 -0.7829457521438599
0.06084545701742172 0.08527135848999023 -0.7674418687820435
0.06064525991678238 0.08527135848999023 -0.751937985420227
0.06022883206605911 0.08527135848999023 -0.7364341020584106
0.060105711221694946 0.08527135848999023 -0.7209302186965942
0.057253167033195496 0.08527135848999023 -0.7054263353347778
0.05620618537068367 0.08527135848999023 -0.39534884691238403
0.06306665390729904 0.08527135848999023 -0.3333333134651184
0.061492711305618286 0.08527135848999023 -0.317829430103302
0.06726161390542984 0.08527135848999023 -0.19379842281341553
0.06389690190553665 0.08527135848999023 -0.1782945990562439
0.06343229115009308 0.08527135848999023 -0.1627907156944275
0.06578406691551208 0.08527135848999023 -0.14728683233261108
0.06636897474527359 0.08527135848999023 -0.13178294897079468
0.06527426093816757 0.08527135848999023 -0.11627906560897827
0.06549826264381409 0.08527135848999023 -0.10077518224716187
0.0664897933602333 0.08527135848999023 -0.08527129888534546
0.06714969873428345 0.08527135848999023 -0.06976741552352905
0.06946589797735214 0.08527135848999023 -0.05426359176635742
0.0693044438958168 0.08527135848999023 0.02325582504272461
0.05856462940573692 0.08527135848999023 0.41085267066955566
0.06044112145900726 0.08527135848999023 0.7364341020584106
0.05960908532142639 0.10077524185180664 0.06976747512817383
0.06239250302314758 0.10077524185180664 0.08527135848999023
0.061984531581401825 0.10077524185180664 0.10077524185180664
0.06269397586584091 0.10077524185180664 0.11627912521362305
0.0652492493391037 0.10077524185180664 0.1317828893661499
0.06554138660430908 0.10077524185180664 0.1472867727279663
0.06574535369873047 0.10077524185180664 0.16279065608978271
0.06500010192394257 0.10077524185180664 0.17829453945159912
0.06342016160488129 0.10077524185180664 0.19379842281341553
0.061867546290159225 0.10077524185180664 0.20930230617523193
0.06406860798597336 0.10077524185180664 0.22480618953704834
0.061866920441389084 0.10077524185180664 0.7054263353347778
0.06800888478755951 0.11627912521362305 -0.3643410801887512
0.056323423981666565 0.11627912521362305 0.28682172298431396
0.05731237307190895 0.11627913266420364 0.30232560634613037
0.055420488119125366 0.11627912521362305 0.3178294897079468
0.06441067159175873 0.11627912521362305 0.37984490394592285
0.06767821311950684 0.11627912521362305 0.6589146852493286
0.057359952479600906 0.11627912521362305 0.674418568611145
0.06608745455741882 0.1317828893661499 0.612403154373169
0.05634675174951553 0.1317828893661499 0.6279069185256958
0.0689491257071495 0.1472867727279663 0.5038759708404541
0.06778529286384583 0.1472867727279663 0.5193798542022705
0.06564808636903763 0.1472867727279663 0.5348837375640869
0.06060926616191864 0.1472867727279663 0.5503876209259033
0.06719718873500824 0.16279065608978271 -0.6279069781303406
0.05718149617314339 0.16279065608978271 -0.6124030947685242
0.05796949937939644 0.16279065608978271 -0.5968992114067078
0.06535719335079193 0.16279065608978271 -0.5348837375640869
0.06499405205249786 0.16279065608978271 -0.5193798542022705
0.06726061552762985 0.16279065608978271 -0.5038759708404541
0.06968175619840622 0.16279065608978271 -0.4883720874786377
0.06905381381511688 0.16279065608978271 -0.4728682041168213
0.06698685884475708 0.16279065608978271 -0.4573643207550049
0.06513117253780365 0.16279065608978271 -0.4418604373931885
0.06293371319770813 0.16279065608978271 -0.42635661363601685
0.06166130304336548 0.16279065608978271 -0.41085273027420044
0.06211160868406296 0.16279065608978271 -0.39534884691238403
0.06511951982975006 0.16279065608978271 -0.3798449635505676
0.06747139990329742 0.16279065608978271 -0.3643410801887512
0.06562390923500061 0.16279065608978271 -0.3488371968269348
0.06516765058040619 0.16279065608978271 -0.3333333134651184
0.06612347811460495 0.16279065608978271 -0.317829430103302
0.06691151112318039 0.16279065608978271 -0.30232560634613037
0.06747303158044815 0.16279065608978271 -0.28682172298431396
0.06799831241369247 0.16279065608978271 -0.27131783962249756
0.06811726838350296 0.16279065608978271 -0.25581395626068115
0.06814271211624146 0.16279065608978271 -0.24031007289886475
0.06834948807954788 0.16279065608978271 -0.22480618953704834
0.06852878630161285 0.16279065608978271 -0.20930230617523193
0.0685916319489479 0.16279065608978271 -0.19379842281341553
0.06878405809402466 0.16279065608978271 -0.1782945990562439
0.06918918341398239 0.16279065608978271 -0.1627907156944275
0.06972729414701462 0.16279065608978271 -0.14728683233261108
0.06964660435914993 0.16279065608978271 -0.10077518224716187
0.06931040436029434 0.16279065608978271 -0.08527129888534546
0.06865348666906357 0.16279065608978271 -0.06976741552352905
0.06822918355464935 0.16279065608978271 -0.05426359176635742
0.06764619052410126 0.16279065608978271 -0.038759708404541016
0.06703155487775803 0.16279065608978271 -0.02325582504272461
0.06648968160152435 0.16279065608978271 -0.007751941680908203
0.06578940898180008 0.16279065608978271 0.007751941680908203
0.06547516584396362 0.16279065608978271 0.02325582504272461
0.06532536447048187 0.16279065608978271 0.038759708404541016
0.06544660031795502 0.16279065608978271 0.05426359176635742
0.0654309019446373 0.16279065608978271 0.06976747512817383
0.06550900638103485 0.16279065608978271 0.08527135848999023
0.06530483812093735 0.16279065608978271 0.10077524185180664
0.06499350070953369 0.16279065608978271 0.11627912521362305
0.06465325504541397 0.16279065608978271 0.1317828893661499
0.06418732553720474 0.16279065608978271 0.1472867727279663
0.06355652213096619 0.16279065608978271 0.16279065608978271
0.06300569325685501 0.16279065608978271 0.17829453945159912
0.06250842660665512 0.16279065608978271 0.19379842281341553
0.06196025013923645 0.16279065608978271 0.20930230617523193
0.06167950853705406 0.16279065608978271 0.22480618953704834
0.061716631054878235 0.16279065608978271 0.24031007289886475
0.0615851990878582 0.16279065608978271 0.25581395626068115
0.060932762920856476 0.16279065608978271 0.27131783962249756
0.06015336886048317 0.16279065608978271 0.28682172298431396
0.05867811664938927 0.16279065608978271 0.30232560634613037
0.055661868304014206 0.16279065608978271 0.31782951951026917
0.05819009616971016 0.16279065608978271 0.39534878730773926
0.07464909553527832 -0.1627907156944275 -0.5658915042877197
0.06997048109769821 -0.1627907156944275 -0.5503875613212585
0.07199640572071075 -0.1627907156944275 -0.3798449635505676
0.07734730839729309 -0.1627907156944275 -0.3643410801887512
0.07601553946733475 -0.1627907156944275 -0.3488371968269348
0.07296115905046463 -0.1627907156944275 -0.3333333134651184
0.0725407600402832 -0.1627907007932663 -0.317829430103302
0.07350761443376541 -0.1627907156944275 -0.30232560634613037
0.07418955117464066 -0.1627907156944275 -0.28682172298431396
0.07442630082368851 -0.1627907156944275 -0.27131783962249756
0.07437125593423843 -0.1627907156944275 -0.25581395626068115
0.07417532801628113 -0.1627907156944275 -0.24031007289886475
0.07439364492893219 -0.1627907156944275 -0.22480618953704834
0.07452236860990524 -0.1627907156944275 -0.20930230617523193
0.0746273621916771 -0.1627907156944275 -0.19379843771457672
0.07513988018035889 -0.1627907156944275 -0.1782945990562439
0.07592366635799408 -0.1627907156944275 -0.1627907156944275
0.07703833281993866 -0.1627907156944275 -0.14728683233261108
0.07786145806312561 -0.1627907156944275 -0.13178294897079468
0.07855422794818878 -0.1627907156944275 -0.11627906560897827
0.07920388877391815 -0.1627907156944275 -0.10077518224716187
0.07946715503931046 -0.1627907156944275 -0.08527129888534546
0.07967833429574966 -0.1627907156944275 -0.06976741552352905
0.07975500822067261 -0.1627907156944275 -0.05426359176635742
0.0797450840473175 -0.1627907156944275 -0.038759708404541016
0.0795556828379631 -0.1627907156944275 -0.02325582504272461
0.07939398288726807 -0.1627907156944275 -0.007751941680908203
0.07911619544029236 -0.1627907156944275 0.007751941680908203
0.0788746103644371 -0.1627907156944275 0.02325582504272461
0.07902132719755173 -0.1627907156944275 0.038759708404541016
0.07910903543233871 -0.1627907156944275 0.05426359176635742
0.07949412614107132 -0.1627907156944275 0.06976747512817383
0.07967130094766617 -0.1627907156944275 0.08527135848999023
0.07972335815429688 -0.1627907156944275 0.10077524185180664
0.07957875728607178 -0.1627907156944275 0.11627912521362305
0.0793909952044487 -0.1627907156944275 0.1317828893661499
0.07921934872865677 -0.1627907156944275 0.1472867727279663
0.07894478738307953 -0.1627907156944275 0.16279065608978271
0.07894686609506607 -0.1627907156944275 0.17829453945159912
0.07872971147298813 -0.1627907156944275 0.19379842281341553
0.07815488427877426 -0.1627907156944275 0.20930230617523193
0.07738020271062851 -0.1627907156944275 0.22480618953704834
0.07667878270149231 -0.1627907156944275 0.24031007289886475
0.07579517364501953 -0.1627907156944275 0.25581395626068115
0.07435739040374756 -0.1627907156944275 0.27131783962249756
0.07327844202518463 -0.1627907156944275 0.28682172298431396
0.07187768816947937 -0.16279073059558868 0.30232560634613037
0.06996005028486252 -0.1627907156944275 0.3178294897079468
0.07363222539424896 -0.1627907156944275 0.37984490394592285
0.07935971021652222 -0.1627907156944275 0.39534878730773926
0.07647870481014252 -0.1627907156944275 0.41085267066955566
0.07234299927949905 -0.1627907007932663 0.4263565242290497
0.08022554218769073 -0.14728683233261108 -0.643410861492157
0.07735703140497208 -0.14728683233261108 -0.6279069185256958
0.07707063853740692 -0.14728683233261108 -0.6124030947685242
0.08285205811262131 -0.14728683233261108 -0.5968992114067078
0.0829467922449112 -0.14728683233261108 0.5503876209259033
0.07755888253450394 -0.14728683233261108 0.5658915042877197
0.07037132978439331 -0.1472868174314499 0.5813953876495361
0.07594344019889832 -0.13178294897079468 -0.6589146852493286
0.08526512235403061 -0.13178294897079468 0.612403154373169
0.08061423152685165 -0.13178294897079468 0.6279069185256958
0.07011114060878754 -0.13178294897079468 0.6434107422828674
0.07078193128108978 -0.11627905815839767 0.39534878730773926
0.07900680601596832 -0.11627906560897827 0.674418568611145
0.06996230781078339 -0.10077518224716187 0.3178294897079468
0.07010249048471451 -0.10077518224716187 0.3333333730697632
0.07147456705570221 -0.10077518224716187 0.3488372564315796
0.0775497555732727 -0.10077518224716187 0.364341139793396
0.07987404614686966 -0.10077518224716187 0.7054263353347778
0.06994818896055222 -0.10077518224716187 0.7209302186965942
0.07392768561840057 -0.08527129888534546 -0.9844961762428284
0.07086814939975739 -0.08527129888534546 -0.9069767594337463
0.07253701984882355 -0.08527129888534546 -0.8914728760719299
0.07391680032014847 -0.08527129888534546 -0.8759690523147583
0.07485675811767578 -0.08527129888534546 -0.8604651093482971
0.07554065436124802 -0.08527129888534546 -0.8449612259864807
0.07612677663564682 -0.08527129888534546 -0.8294573426246643
0.07565547525882721 -0.08527129888534546 -0.8139535188674927
0.07499048113822937 -0.08527129888534546 -0.7984496355056763
0.07419922202825546 -0.08527129888534546 -0.7829457521438599
0.07349824160337448 -0.08527129888534546 -0.7674418687820435
0.07327193021774292 -0.08527129888534546 -0.751937985420227
0.07318075001239777 -0.08527129888534546 -0.7364341020584106
0.07339660823345184 -0.08527129888534546 -0.7209302186965942
0.07254362106323242 -0.08527129888534546 -0.7054263353347778
0.07062691450119019 -0.08527129888534546 -0.6899224519729614
0.07291512191295624 -0.08527129888534546 -0.674418568611145
0.07099707424640656 -0.08527129888534546 -0.3643410801887512
0.06992634385824203 -0.08527129888534546 0.1317828893661499
0.07237604260444641 -0.08527129888534546 0.1472867727279663
0.07463089376688004 -0.08527129888534546 0.16279065608978271
0.07601054757833481 -0.08527129888534546 0.17829453945159912
0.07662048935890198 -0.08527129888534546 0.19379842281341553
0.07644359767436981 -0.08527129888534546 0.20930230617523193
0.0783786028623581 -0.08527129888534546 0.22480618953704834
0.08256182074546814 -0.08527129888534546 0.24031007289886475
0.07720458507537842 -0.08527129888534546 0.7364341020584106
0.08026780188083649 -0.06976741552352905 -0.9844961166381836
0.07839764654636383 -0.06976741552352905 -0.9689922332763672
0.07909157872200012 -0.06976741552352905 -0.9534883499145508
0.08039864897727966 -0.06976741552352905 -0.9379844665527344
0.08118188381195068 -0.06976741552352905 -0.9224806427955627
0.08206675201654434 -0.06976741552352905 -0.9069767594337463
0.08338844776153564 -0.06976741552352905 -0.8914728760719299
0.08468636125326157 -0.06976741552352905 -0.8759689927101135
0.08412180840969086 -0.06976741552352905 -0.6899224519729614
0.07391366362571716 -0.06976741552352905 -0.3798449635505676
0.08526096493005753 -0.06976741552352905 -0.3488371968269348
0.07616233825683594 -0.06976741552352905 -0.3333333134651184
0.07296966761350632 -0.06976741552352905 -0.317829430103302
0.07724624872207642 -0.06976741552352905 -0.30232560634613037
0.07922440022230148 -0.06976741552352905 -0.28682172298431396
0.08048086613416672 -0.06976741552352905 -0.27131783962249756
0.08189082145690918 -0.06976741552352905 -0.25581395626068115
0.0830773189663887 -0.06976741552352905 -0.24031007289886475
0.0839669406414032 -0.06976741552352905 -0.22480618953704834
0.08376172184944153 -0.06976741552352905 -0.20930230617523193
0.08100402355194092 -0.06976741552352905 -0.19379842281341553
0.07831685245037079 -0.06976741552352905 -0.1782945990562439
0.07785837352275848 -0.06976741552352905 -0.1627907156944275
0.07910427451133728 -0.06976741552352905 -0.14728683233261108
0.07947202771902084 -0.06976741552352905 -0.13178294897079468
0.07857796549797058 -0.06976741552352905 -0.11627906560897827
0.07868984341621399 -0.06976741552352905 -0.10077518224716187
0.07916834205389023 -0.06976741552352905 -0.08527129888534546
0.07959501445293427 -0.06976741552352905 -0.06976741552352905
0.08127374947071075 -0.06976741552352905 -0.05426359176635742
0.08342555910348892 -0.06976741552352905 -0.038759708404541016
0.08501911908388138 -0.06976741552352905 -0.02325582504272461
0.08473635464906693 -0.06976741552352905 -0.007751941680908203
0.08138291537761688 -0.06976741552352905 0.007751941680908203
0.07957925647497177 -0.06976741552352905 0.02325582504272461
0.07991448789834976 -0.06976741552352905 0.038759708404541016
0.08166191726922989 -0.06976741552352905 0.05426359176635742
0.08384072035551071 -0.06976741552352905 0.06976747512817383
0.0740189179778099 -0.06976741552352905 0.41085267066955566
0.08038821816444397 -0.06976741552352905 0.751937985420227
0.07190753519535065 -0.06976741552352905 0.7674419283866882
0.07149660587310791 -0.05426359176635742 -0.42635661363601685
0.07427478581666946 -0.05426359176635742 -0.41085273027420044
0.07635264843702316 -0.05426359176635742 -0.39534884691238403
0.08494514971971512 -0.05426359176635742 -0.3798449635505676
0.08256076276302338 -0.05426359176635742 0.41085267066955566
0.08119839429855347 -0.05426359176635742 0.7674418687820435
0.07390668243169785 -0.05426359176635742 0.7829457521438599
0.0730295181274414 -0.038759708404541016 -0.4418604373931885
0.07648038119077682 -0.038759708404541016 -0.42635661363601685
0.07997366786003113 -0.038759708404541016 -0.41085273027420044
0.08197347819805145 -0.038759708404541016 -0.39534884691238403
0.06982118636369705 -0.038759708404541016 0.42635658383369446
0.07003437727689743 -0.038759708404541016 0.4418604373931885
0.07983977347612381 -0.038759708404541016 0.7829457521438599
0.07150943577289581 -0.038759712129831314 0.7984496355056763
0.07134582847356796 -0.02325582504272461 -0.4573643207550049
0.07444052398204803 -0.02325582504272461 -0.4418604373931885
0.07789669185876846 -0.02325582504272461 -0.42635661363601685
0.0823512002825737 -0.02325582504272461 -0.41085273027420044
0.08395218104124069 -0.02325582504272461 -0.39534884691238403
0.08471422642469406 -0.02325582504272461 -0.3798449635505676
0.0728425532579422 -0.02325582504272461 0.42635655403137207
0.07289262115955353 -0.02325582504272461 0.4418604373931885
0.0846915990114212 -0.02325582504272461 0.7829457521438599
0.07648807764053345 -0.02325582504272461 0.7984496355056763
0.07050497829914093 -0.007751941215246916 -0.4728681743144989
0.07314220070838928 -0.007751941680908203 -0.4573643207550049
0.07583773136138916 -0.007751941680908203 -0.4418604373931885
0.0793679878115654 -0.007751941680908203 -0.42635661363601685
0.08428432047367096 -0.007751941680908203 -0.41085273027420044
0.08521268516778946 -0.007751941680908203 -0.3798449635505676
0.07263122498989105 -0.007751941215246916 0.42635655403137207
0.0719662755727768 -0.007751941680908203 0.4418604373931885
0.07803718000650406 -0.007751941680908203 0.7984496355056763
0.07391330599784851 0.007751941680908203 -0.4728682041168213
0.07597550004720688 0.007751941680908203 -0.4573643207550049
0.07811084389686584 0.007751941680908203 -0.4418604373931885
0.08106948435306549 0.007751941680908203 -0.42635661363601685
0.07361942529678345 0.007751941680908203 0.42635655403137207
0.07017684727907181 0.007751941680908203 0.4418604373931885
0.08512750267982483 0.007751941680908203 0.7829457521438599
0.07721345126628876 0.007751941680908203 0.7984496355056763
0.07274185866117477 0.02325582504272461 -0.4728682041168213
0.07456716895103455 0.02325582504272461 -0.4573643207550049
0.07654610276222229 0.02325582504272461 -0.4418604373931885
0.0788775384426117 0.02325582504272461 -0.42635661363601685
0.08226009458303452 0.02325582504272461 -0.41085273027420044
0.08432460576295853 0.02325582504272461 -0.39534884691238403
0.07104050368070602 0.02325582504272461 0.42635655403137207
0.08135229349136353 0.02325582504272461 0.7829457521438599
0.07224640250205994 0.02325582504272461 0.7984496355056763
0.07086601853370667 0.038759708404541016 -0.4728682041168213
0.0728040412068367 0.038759708404541016 -0.4573643207550049
0.075033999979496 0.038759708404541016 -0.4418604373931885
0.07705388963222504 0.038759708404541016 -0.42635661363601685
0.07965691387653351 0.038759708404541016 -0.41085273027420044
0.08238586783409119 0.038759708404541016 -0.39534884691238403
0.08292901515960693 0.038759708404541016 0.41085267066955566
0.08359033614397049 0.038759708404541016 0.7674418687820435
0.07517973333597183 0.038759708404541016 0.7829457521438599
0.08165717124938965 0.05426359176635742 -0.9844961166381836
0.07902198284864426 0.05426359176635742 -0.9689922332763672
0.07938506454229355 0.05426359176635742 -0.9534883499145508
0.0810418650507927 0.05426359176635742 -0.9379844665527344
0.08214472234249115 0.05426359176635742 -0.9224806427955627
0.08382202684879303 0.05426359176635742 -0.9069767594337463
0.07166384905576706 0.05426359176635742 -0.4573643207550049
0.07421676069498062 0.05426359176635742 -0.4418604373931885
0.07588320970535278 0.05426359176635742 -0.42635661363601685
0.07753798365592957 0.05426359176635742 -0.41085273027420044
0.08061279356479645 0.05426359176635742 -0.39534884691238403
0.07788534462451935 0.05426359176635742 0.41085267066955566
0.08362310379743576 0.05426359176635742 0.751937985420227
0.07440502196550369 0.05426359549164772 0.7674418687820435
0.0753161683678627 0.06976747512817383 -0.9844961166381836
0.07001295685768127 0.06976747512817383 -0.9224806427955627
0.07212543487548828 0.06976747512817383 -0.9069768190383911
0.07463476806879044 0.06976747512817383 -0.8914728164672852
0.07633435726165771 0.06976747512817383 -0.8759689927101135
0.07783003896474838 0.06976747512817383 -0.8604651093482971
0.0789644867181778 0.06976747512817383 -0.8449611663818359
0.08015213906764984 0.06976747512817383 -0.8294573426246643
0.08076822757720947 0.06976747512817383 -0.8139535188674927
0.08087924122810364 0.06976747512817383 -0.7984496355056763
0.08107659965753555 0.06976747512817383 -0.7829457521438599
0.08105544745922089 0.06976747512817383 -0.7674418687820435
0.08115588873624802 0.06976747512817383 -0.751937985420227
0.08117043972015381 0.06976747512817383 -0.7364341020584106
0.08133745938539505 0.06976747512817383 -0.7209302186965942
0.07936357706785202 0.06976747512817383 -0.7054263353347778
0.07320667803287506 0.06976747512817383 -0.6899224519729614
0.07281944155693054 0.06976747512817383 -0.674418568611145
0.07148060947656631 0.06976747512817383 -0.42635661363601685
0.0721159353852272 0.06976747512817383 -0.41085273027420044
0.07550570368766785 0.06976747512817383 -0.39534884691238403
0.0805882066488266 0.06976747512817383 -0.3333333134651184
0.07931362837553024 0.06976747512817383 -0.317829430103302
0.08386310189962387 0.06976747512817383 -0.30232560634613037
0.08446220308542252 0.06976747512817383 -0.28682172298431396
0.08390124887228012 0.06976747512817383 -0.27131783962249756
0.0840165987610817 0.06976747512817383 -0.25581395626068115
0.08408477157354355 0.06976747512817383 -0.24031007289886475
0.08437834680080414 0.06976747512817383 -0.22480618953704834
0.08408673107624054 0.06976747512817383 -0.20930230617523193
0.08180848509073257 0.06976747512817383 -0.19379842281341553
0.07939642667770386 0.06976747512817383 -0.1782945990562439
0.07863932847976685 0.06976747512817383 -0.1627907156944275
0.08011632412672043 0.06976747512817383 -0.14728683233261108
0.08022953569889069 0.06976747512817383 -0.13178294897079468
0.07927548885345459 0.06976747512817383 -0.11627906560897827
0.0794060081243515 0.06976747512817383 -0.10077518224716187
0.08005952835083008 0.06976747512817383 -0.08527129888534546
0.08055363595485687 0.06976747512817383 -0.06976741552352905
0.0822296068072319 0.06976747512817383 -0.05426359176635742
0.08474475145339966 0.06976747512817383 -0.038759708404541016
0.08319839835166931 0.06976747512817383 0.007751941680908203
0.08208593726158142 0.06976747512817383 0.02325582504272461
0.0822163000702858 0.06976747512817383 0.038759708404541016
0.08435952663421631 0.06976747512817383 0.05426359176635742
0.08109383285045624 0.06976747512817383 0.7364341020584106
0.08444128930568695 0.08527135848999023 -0.3798449635505676
0.07034101337194443 0.08527135848999023 -0.30232560634613037
0.07088807225227356 0.08527136594057083 -0.28682172298431396
0.07025574147701263 0.08527135848999023 -0.27131783962249756
0.0708097442984581 0.08527135848999023 -0.25581395626068115
0.07112273573875427 0.08527135848999023 -0.24031007289886475
0.07141432166099548 0.08527135848999023 -0.22480618953704834
0.0706588476896286 0.08527135848999023 -0.20930230617523193
0.07180389016866684 0.08527135848999023 -0.038759708404541016
0.07334353029727936 0.08527135848999023 -0.02325582504272461
0.07279208302497864 0.08527135848999023 -0.007751941680908203
0.06987454742193222 0.08527135848999023 0.007751941680908203
0.06980761140584946 0.08527135848999023 0.038759708404541016
0.07254807651042938 0.08527135848999023 0.05426359176635742
0.07590997964143753 0.08527135848999023 0.06976747512817383
0.07794634997844696 0.08527135848999023 0.08527135848999023
0.07808272540569305 0.08527135848999023 0.10077524185180664
0.07870859652757645 0.08527135848999023 0.11627912521362305
0.08013429492712021 0.08527135848999023 0.1317828893661499
0.08031497895717621 0.08527135848999023 0.1472867727279663
0.08028997480869293 0.08527135848999023 0.16279065608978271
0.08031253516674042 0.08527135848999023 0.17829453945159912
0.07997610419988632 0.08527135848999023 0.19379842281341553
0.0795881599187851 0.08527135848999023 0.20930230617523193
0.08127490431070328 0.08527135848999023 0.22480618953704834
0.08301004022359848 0.08527135848999023 0.7054263353347778
0.07395149022340775 0.08527135848999023 0.7209302186965942
0.07014137506484985 0.10077524185180664 -0.3798449635505676
0.07434152066707611 0.10077524930238724 -0.3488371968269348
0.07048296183347702 0.10077524185180664 0.24031007289886475
0.07384597510099411 0.10077524185180664 0.25581395626068115
0.07564067095518112 0.10077524185180664 0.27131783962249756
0.07743050158023834 0.10077524185180664 0.28682172298431396
0.078460693359375 0.10077524185180664 0.30232560634613037
0.07754789292812347 0.10077524185180664 0.3178294897079468
0.07536567747592926 0.10077524185180664 0.3333333730697632
0.07330958545207977 0.10077524185180664 0.3488372564315796
0.07670462876558304 0.10077524185180664 0.364341139793396
0.08196332305669785 0.10077524185180664 0.674418568611145
0.07352058589458466 0.10077524185180664 0.6899224519729614
0.07121224701404572 0.11627912521362305 0.39534878730773926
0.08296800404787064 0.11627912521362305 0.6279069185256958
0.07689705491065979 0.11627912521362305 0.6434108018875122
0.08043213188648224 0.1317828893661499 -0.6589146852493286
0.08389241993427277 0.1317828893661499 0.5658915042877197
0.0790657252073288 0.1317828893661499 0.5813953876495361
0.07247790694236755 0.1317828893661499 0.5968992710113525
0.08521690219640732 0.1472867727279663 0.22480618953704834
0.08498036116361618 0.1472867727279663 0.27131783962249756
0.08468907326459885 0.1472867727279663 0.28682172298431396
0.08433184772729874 0.1472867727279663 0.30232560634613037
0.08353780210018158 0.1472867727279663 0.3178294897079468
0.08271864056587219 0.1472867727279663 0.3333333730697632
0.08194460719823837 0.1472867727279663 0.3488372564315796
0.0816507637500763 0.1472867727279663 0.364341139793396
0.08312109112739563 0.1472867727279663 0.37984490394592285
0.08517159521579742 0.1472867727279663 0.41085267066955566
0.08165793865919113 0.1472867727279663 0.42635655403137207
0.07961168140172958 0.1472867727279663 0.4418604373931885
0.07724270224571228 0.1472867727279663 0.4573643207550049
0.07420232146978378 0.1472867727279663 0.4728682041168213
0.07111303508281708 0.14728675782680511 0.4883720874786377
0.0716022327542305 0.16279065608978271 -0.643410861492157
0.07178189605474472 0.16279065608978271 -0.5813953876495361
0.07595757395029068 0.16279065608978271 -0.5658915042877197
0.07255347073078156 0.1627906709909439 -0.5503876209259033
0.0700347051024437 0.16279065608978271 -0.13178294897079468
0.06996295601129532 0.16279065608978271 -0.11627906560897827
0.0920243039727211 -0.14728683233261108 -0.5813953876495361
0.0990859866142273 -0.14728683233261108 -0.5658915042877197
0.09552675485610962 -0.14728683233261108 -0.5503876209259033
0.09387952089309692 -0.14728683233261108 -0.5348837375640869
0.09470109641551971 -0.14728683233261108 -0.5193798542022705
0.09612002223730087 -0.14728683233261108 -0.5038759708404541
0.09720880538225174 -0.14728683233261108 -0.4883720874786377
0.0976075828075409 -0.14728683233261108 -0.4728682041168213
0.09764446318149567 -0.14728683233261108 -0.4573643207550049
0.09766555577516556 -0.14728683233261108 -0.4418604373931885
0.09735661000013351 -0.14728683233261108 -0.42635661363601685
0.096656434237957 -0.14728683233261108 -0.41085273027420044
0.09650073200464249 -0.14728683233261108 -0.39534884691238403
0.09748539328575134 -0.14728683233261108 -0.3798449635505676
0.10055382549762726 -0.14728683233261108 -0.3643410801887512
0.09876289963722229 -0.14728683233261108 -0.3488371968269348
0.0970037430524826 -0.14728683233261108 -0.3333333134651184
0.09670496731996536 -0.14728683233261108 -0.317829430103302
0.0969255343079567 -0.14728683233261108 -0.30232560634613037
0.09708201885223389 -0.14728683233261108 -0.28682172298431396
0.09719432890415192 -0.14728683233261108 -0.27131783962249756
0.09729178994894028 -0.14728683233261108 -0.25581395626068115
0.0972774550318718 -0.14728683233261108 -0.24031007289886475
0.09731642156839371 -0.14728683233261108 -0.22480618953704834
0.09747681766748428 -0.14728683233261108 -0.20930230617523193
0.0977129116654396 -0.14728683233261108 -0.19379842281341553
0.09800627082586288 -0.14728683233261108 -0.1782945990562439
0.09829723834991455 -0.14728683233261108 -0.1627907156944275
0.09864993393421173 -0.14728683233261108 -0.14728683233261108
0.09905078262090683 -0.14728683233261108 -0.13178294897079468
0.09936080127954483 -0.14728683233261108 -0.11627906560897827
0.09980619698762894 -0.14728683233261108 -0.10077518224716187
0.0999574363231659 -0.14728683233261108 -0.08527129888534546
0.09994472563266754 -0.14728683233261108 -0.06976741552352905
0.09985504299402237 -0.14728683233261108 -0.05426359176635742
0.09967925399541855 -0.14728683233261108 -0.038759708404541016
0.09935814887285233 -0.14728683233261108 -0.02325582504272461
0.09920210391283035 -0.14728683233261108 -0.007751941680908203
0.09909698367118835 -0.14728683233261108 0.007751941680908203
0.09903253614902496 -0.14728683233261108 0.02325582504272461
0.09906527400016785 -0.14728683233261108 0.038759708404541016
0.09905464202165604 -0.14728683233261108 0.05426359176635742
0.09930683672428131 -0.14728683233261108 0.06976747512817383
0.09948617964982986 -0.14728683233261108 0.08527135848999023
0.09941459447145462 -0.14728683233261108 0.10077524185180664
0.09929262101650238 -0.14728683233261108 0.11627912521362305
0.09915322065353394 -0.14728683233261108 0.1317828893661499
0.0989169031381607 -0.14728683233261108 0.1472867727279663
0.09868693351745605 -0.14728683233261108 0.16279065608978271
0.09868311882019043 -0.14728683233261108 0.17829453945159912
0.098618283867836 -0.14728683233261108 0.19379842281341553
0.09842687845230103 -0.14728683233261108 0.20930230617523193
0.09817621856927872 -0.14728683233261108 0.22480618953704834
0.09788024425506592 -0.14728683233261108 0.24031007289886475
0.09756317734718323 -0.14728683233261108 0.25581395626068115
0.09713819622993469 -0.14728683233261108 0.27131783962249756
0.09688113629817963 -0.14728683233261108 0.28682172298431396
0.09654195606708527 -0.14728683233261108 0.30232560634613037
0.09601335227489471 -0.14728683233261108 0.3178294897079468
0.09561426937580109 -0.14728683233261108 0.3333333730697632
0.09527821093797684 -0.14728683233261108 0.3488372564315796
0.09560852497816086 -0.14728683233261108 0.364341139793396
0.09743288159370422 -0.14728683233261108 0.37984490394592285
0.10057975351810455 -0.14728683233261108 0.41085267066955566
0.09843943268060684 -0.14728683233261108 0.42635655403137207
0.09661637246608734 -0.14728683233261108 0.4418604373931885
0.09491756558418274 -0.14728683233261108 0.4573643207550049
0.09235699474811554 -0.14728683233261108 0.4728682041168213
0.0895434096455574 -0.14728683233261108 0.4883720874786377
0.08803746104240417 -0.14728683233261108 0.5038759708404541
0.08740118891000748 -0.14728683233261108 0.5193798542022705
0.08604980260133743 -0.14728683233261108 0.5348837375640869
0.10010748356580734 -0.13178294897079468 0.5658915042877197
0.09680894017219543 -0.13178294897079468 0.5813953876495361
0.09198559075593948 -0.13178294897079468 0.5968992710113525
0.10017368942499161 -0.11627906560897827 0.6279069185256958
0.09559489786624908 -0.11627906560897827 0.6434108018875122
0.08688974380493164 -0.11627906560897827 0.6589146852493286
0.08557325601577759 -0.10077518224716187 0.37984490394592285
0.08672778308391571 -0.10077518224716187 0.39534881711006165
0.09792295098304749 -0.10077518224716187 0.674418568611145
0.08996492624282837 -0.10077518224716187 0.6899224519729614
0.08614742010831833 -0.08527129888534546 0.25581395626068115
0.08757362514734268 -0.08527129888534546 0.27131783962249756
0.08923593163490295 -0.08527129888534546 0.28682172298431396
0.0903981477022171 -0.08527129888534546 0.30232560634613037
0.09016896784305573 -0.08527129888534546 0.3178294897079468
0.09004926681518555 -0.08527129888534546 0.3333333730697632
0.09091094136238098 -0.08527129888534546 0.3488372564315796
0.0945940762758255 -0.08527129888534546 0.364341139793396
0.0997198298573494 -0.08527129888534546 0.37984490394592285
0.09944752603769302 -0.08527129888534546 0.39534878730773926
0.09547765552997589 -0.08527129888534546 0.7054263353347778
0.08820140361785889 -0.08527129888534546 0.7209302186965942
0.08569977432489395 -0.06976741552352905 -0.8604651093482971
0.08621715754270554 -0.06976741552352905 -0.8449612259864807
0.08664730191230774 -0.06976741552352905 -0.8294573426246643
0.08663349598646164 -0.06976741552352905 -0.8139535188674927
0.08649983257055283 -0.06976741552352905 -0.7984496355056763
0.08632637560367584 -0.06976741552352905 -0.7829457521438599
0.08613213896751404 -0.06976741552352905 -0.7674418687820435
0.0861549898982048 -0.06976741552352905 -0.7519380450248718
0.0862269252538681 -0.06976741552352905 -0.7364341020584106
0.08645755052566528 -0.06976741552352905 -0.7209302186965942
0.08606515824794769 -0.06976741552352905 -0.7054263353347778
0.08563081175088882 -0.06976741552352905 -0.674418568611145
0.0868009701371193 -0.06976741552352905 -0.36434105038642883
0.08569955825805664 -0.06976741552352905 0.08527135848999023
0.0857258066534996 -0.06976741552352905 0.10077524185180664
0.08641526103019714 -0.06976741552352905 0.11627912521362305
0.08791401237249374 -0.06976741552352905 0.1317828893661499
0.08909659832715988 -0.06976741552352905 0.1472867727279663
0.09048352390527725 -0.06976741552352905 0.16279065608978271
0.09182105958461761 -0.06976741552352905 0.17829453945159912
0.09260398149490356 -0.06976741552352905 0.19379842281341553
0.09273001551628113 -0.06976741552352905 0.20930230617523193
0.09407714009284973 -0.06976741552352905 0.22480618953704834
0.09678951650857925 -0.06976741552352905 0.24031007289886475
0.0991860032081604 -0.06976741552352905 0.25581395626068115
0.10072275251150131 -0.06976741552352905 0.27131783962249756
0.09806397557258606 -0.06976741552352905 0.7209302186965942
0.09090888500213623 -0.06976741552352905 0.7364341020584106
0.09223881363868713 -0.05426359176635742 -0.9844961166381836
0.08745500445365906 -0.05426359176635742 -0.9689922332763672
0.08703311532735825 -0.05426359176635742 -0.9534883499145508
0.08844570815563202 -0.05426359176635742 -0.9379844069480896
0.0894722044467926 -0.05426359176635742 -0.9224806427955627
0.09047170728445053 -0.05426359176635742 -0.9069768190383911
0.09166282415390015 -0.05426359176635742 -0.8914728164672852
