0.09383328258991241 0.08527135848999023 0.364341139793396
0.09492091834545135 0.08527135848999023 0.37984490394592285
0.09621897339820862 0.08527135848999023 0.39534878730773926
0.09493021667003632 0.08527135848999023 0.41085267066955566
0.09085887670516968 0.08527135848999023 0.4263565242290497
0.08733509480953217 0.08527135848999023 0.4418604373931885
0.10094994306564331 -0.08527129143476486 -0.22480618953704834
0.10186642408370972 -0.08527130633592606 -0.20930230617523193
0.10250204056501389 -0.08527129888534546 -0.19379842281341553
0.10350191593170166 -0.08527129888534546 -0.1782945990562439
0.1044834554195404 -0.08527129888534546 -0.1627907156944275
0.10553275793790817 -0.08527129888534546 -0.14728683233261108
0.10638298839330673 -0.08527129888534546 -0.13178294897079468
0.10675446689128876 -0.08527129888534546 -0.11627906560897827
0.10714691877365112 -0.08527129888534546 -0.10077518224716187
0.10715760290622711 -0.08527129888534546 -0.08527129888534546
0.10703693330287933 -0.08527129888534546 -0.06976741552352905
0.10687832534313202 -0.08527129888534546 -0.05426359176635742
0.10638992488384247 -0.08527129888534546 -0.038759708404541016
0.10564151406288147 -0.08527129888534546 -0.02325582504272461
0.10506464540958405 -0.08527129888534546 -0.007751941680908203
0.10445515811443329 -0.08527129888534546 0.007751941680908203
0.10400302708148956 -0.08527129888534546 0.02325582504272461
0.10382118821144104 -0.08527129888534546 0.038759708404541016
0.10369265824556351 -0.08527129888534546 0.05426359176635742
0.10359500348567963 -0.08527129888534546 0.06976747512817383
0.10361551493406296 -0.08527129888534546 0.08527135848999023
0.10332521796226501 -0.08527130633592606 0.10077524185180664
0.10306927561759949 -0.08527129888534546 0.11627912521362305
0.10256851464509964 -0.08527129888534546 0.1317828893661499
0.10199730098247528 -0.08527129888534546 0.1472867727279663
0.1012316346168518 -0.08527129888534546 0.16279065608978271
0.10531589388847351 -0.06976741552352905 -0.9844960570335388
0.10090641677379608 -0.06976741552352905 -0.8914728760719299
0.10197648406028748 -0.06976741552352905 -0.8759690523147583
0.10323677957057953 -0.06976741552352905 -0.8604651093482971
0.10454443097114563 -0.06976741552352905 -0.8449611663818359
0.1054995059967041 -0.06976741552352905 -0.8294573426246643
0.10615970939397812 -0.06976741552352905 -0.8139535188674927
0.10667873919010162 -0.06976741552352905 -0.7984496355056763
0.10703962296247482 -0.06976741552352905 -0.7829457521438599
0.10740487277507782 -0.06976741552352905 -0.7674418687820435
0.10705187916755676 -0.06976741552352905 -0.751937985420227
0.10669447481632233 -0.06976741552352905 -0.7364341020584106
0.10618531703948975 -0.06976741552352905 -0.7209302186965942
0.10570327937602997 -0.06976741552352905 -0.7054263353347778
0.10538075864315033 -0.06976741552352905 -0.6899224519729614
0.10507179796695709 -0.06976741552352905 -0.674418568611145
0.10469550639390945 -0.06976741552352905 -0.6589146852493286
0.10431810468435287 -0.06976741552352905 -0.643410861492157
0.10418275743722916 -0.06976741552352905 -0.6279069781303406
0.10366997122764587 -0.06976741552352905 -0.6124030947685242
0.10339436680078506 -0.06976741552352905 -0.5968992710113525
0.10327211022377014 -0.06976741552352905 -0.5813953876495361
0.10323493927717209 -0.06976741552352905 -0.5658915042877197
0.10322501510381699 -0.06976741552352905 -0.5503876209259033
0.10365185141563416 -0.06976741552352905 -0.5348837375640869
0.10426171123981476 -0.06976741552352905 -0.5193798542022705
0.10496631264686584 -0.06976741552352905 -0.5038759708404541
0.10605968534946442 -0.06976741552352905 -0.4883720874786377
0.1069716066122055 -0.06976741552352905 -0.4728682041168213
0.10762227326631546 -0.06976741552352905 -0.4573643207550049
0.10831671953201294 -0.06976741552352905 -0.4418604373931885
0.10853451490402222 -0.06976741552352905 -0.42635661363601685
0.1081976592540741 -0.06976741552352905 -0.41085273027420044
0.10869821161031723 -0.06976741552352905 -0.39534884691238403
0.10897377878427505 -0.06976741552352905 -0.3798449635505676
0.10902783274650574 -0.06976741552352905 -0.3643410801887512
0.10930474102497101 -0.06976741552352905 -0.3488371968269348
0.10955467820167542 -0.06976741552352905 -0.3333333134651184
0.11004894971847534 -0.06976741552352905 -0.317829430103302
0.11068865656852722 -0.06976741552352905 -0.30232560634613037
0.11130514740943909 -0.06976741552352905 -0.28682172298431396
0.11191456764936447 -0.06976741552352905 -0.27131783962249756
0.1124856173992157 -0.06976741552352905 -0.25581395626068115
0.11303883790969849 -0.06976741552352905 -0.24031007289886475
0.11348268389701843 -0.06976741552352905 -0.22480618953704834
0.11382605135440826 -0.06976741552352905 -0.20930230617523193
0.11408456414937973 -0.06976741552352905 -0.19379842281341553
0.114386647939682 -0.06976741552352905 -0.1782945990562439
0.1146736741065979 -0.06976741552352905 -0.1627907156944275
0.11493878811597824 -0.06976741552352905 -0.14728683233261108
0.1151745468378067 -0.06976741552352905 -0.13178294897079468
0.11532045900821686 -0.06976741552352905 -0.11627906560897827
0.1155245453119278 -0.06976741552352905 -0.10077518224716187
0.11562532186508179 -0.06976741552352905 -0.08527129888534546
0.11561765521764755 -0.06976741552352905 -0.06976741552352905
0.11560574173927307 -0.06976741552352905 -0.05426359176635742
0.11544045805931091 -0.06976741552352905 -0.038759708404541016
0.11521490663290024 -0.06976741552352905 -0.02325582504272461
0.11505550891160965 -0.06976741552352905 -0.007751941680908203
0.11494087427854538 -0.06976741552352905 0.007751941680908203
0.11483195424079895 -0.06976741552352905 0.02325582504272461
0.11475543677806854 -0.06976741552352905 0.038759708404541016
0.11469034850597382 -0.06976741552352905 0.05426359176635742
0.1145695373415947 -0.06976741552352905 0.06976747512817383
0.11453836411237717 -0.06976741552352905 0.08527135848999023
0.1144188940525055 -0.06976741552352905 0.10077524185180664
0.1143147200345993 -0.06976741552352905 0.11627912521362305
0.1141706258058548 -0.06976741552352905 0.1317828893661499
0.11400027573108673 -0.06976741552352905 0.1472867727279663
0.11374534666538239 -0.06976741552352905 0.16279065608978271
0.11341236531734467 -0.06976741552352905 0.17829453945159912
0.11303531378507614 -0.06976741552352905 0.19379842281341553
0.11258534342050552 -0.06976741552352905 0.20930230617523193
0.11213192343711853 -0.06976741552352905 0.22480618953704834
0.11175033450126648 -0.06976741552352905 0.24031007289886475
0.11146856844425201 -0.06976741552352905 0.25581395626068115
0.11112678050994873 -0.06976741552352905 0.27131783962249756
0.11092706024646759 -0.06976741552352905 0.28682172298431396
0.11065861582756042 -0.06976741552352905 0.30232560634613037
0.11039823293685913 -0.06976741552352905 0.3178294897079468
0.11039426177740097 -0.06976741552352905 0.3333333730697632
0.11041121184825897 -0.06976741552352905 0.3488372564315796
0.11021816730499268 -0.06976741552352905 0.364341139793396
0.11106438934803009 -0.06976741552352905 0.37984490394592285
0.11271227151155472 -0.06976741552352905 0.39534878730773926
0.11117547005414963 -0.06976741552352905 0.41085267066955566
0.10778985917568207 -0.06976741552352905 0.42635655403137207
0.10559764504432678 -0.06976741552352905 0.4418604373931885
0.10254360735416412 -0.06976741552352905 0.4573643207550049
0.10909421741962433 -0.05426359176635742 -0.9844961166381836
0.10720331966876984 -0.05426359176635742 -0.9689922332763672
0.10778382420539856 -0.05426359176635742 -0.9534883499145508
0.10767446458339691 -0.05426359176635742 -0.9379844665527344
0.10746714472770691 -0.05426359176635742 -0.9224807024002075
0.10795693099498749 -0.05426359176635742 -0.9069767594337463
0.10891692340373993 -0.05426359176635742 -0.8914728760719299
0.10990659892559052 -0.05426359176635742 -0.8759689331054688
0.1107717975974083 -0.05426359176635742 -0.8604651093482971
0.11163543164730072 -0.05426359176635742 -0.8449611663818359
0.11231012642383575 -0.05426359176635742 -0.8294572830200195
0.11291356384754181 -0.05426359176635742 -0.8139535188674927
0.1133519634604454 -0.05426359176635742 -0.7984496355056763
0.11363273859024048 -0.05426359176635742 -0.7829457521438599
0.11389496922492981 -0.05426359176635742 -0.7674418687820435
0.11362519860267639 -0.05426359176635742 -0.751937985420227
0.11335057765245438 -0.05426359176635742 -0.7364341020584106
0.11293235421180725 -0.05426359176635742 -0.7209302186965942
0.11252547800540924 -0.05426359176635742 -0.7054263353347778
0.11230333894491196 -0.05426359176635742 -0.6899224519729614
0.11208123713731766 -0.05426359176635742 -0.674418568611145
0.11181291192770004 -0.05426359176635742 -0.6589146852493286
0.11156822741031647 -0.05426359176635742 -0.643410861492157
0.11151836812496185 -0.05426359176635742 -0.6279069781303406
0.1111268699169159 -0.05426359176635742 -0.6124030947685242
0.11094526946544647 -0.05426359176635742 -0.5968992114067078
0.11083901673555374 -0.05426359176635742 -0.5813953876495361
0.11073866486549377 -0.05426359176635742 -0.5658915042877197
0.1106637567281723 -0.05426359176635742 -0.5503876209259033
0.11085006594657898 -0.05426359176635742 -0.5348837375640869
0.11120736598968506 -0.05426359176635742 -0.5193798542022705
0.11161107569932938 -0.05426359176635742 -0.5038759708404541
0.11231517791748047 -0.05426359176635742 -0.4883720874786377
0.11299235373735428 -0.05426359176635742 -0.4728682041168213
0.11348558962345123 -0.05426359176635742 -0.4573643207550049
0.11409378051757812 -0.05426359176635742 -0.4418604373931885
0.11444985866546631 -0.05426359176635742 -0.42635661363601685
0.11413547396659851 -0.05426359176635742 -0.41085273027420044
0.11414787918329239 -0.05426359176635742 -0.39534884691238403
0.11406324058771133 -0.05426359176635742 -0.3798449635505676
0.11402319371700287 -0.05426359176635742 -0.3643410801887512
0.11408190429210663 -0.05426359176635742 -0.3488371968269348
0.1140952929854393 -0.05426359176635742 -0.3333333134651184
0.11428128182888031 -0.05426359176635742 -0.317829430103302
0.11472950875759125 -0.05426359176635742 -0.30232560634613037
0.11547382920980453 -0.05426359176635742 -0.28682172298431396
0.11623965948820114 -0.05426359176635742 0.3333333730697632
0.11610441654920578 -0.05426359176635742 0.3488372564315796
0.11582321673631668 -0.05426359176635742 0.364341139793396
0.11417928338050842 -0.05426359176635742 0.42635655403137207
0.11229761689901352 -0.05426359176635742 0.4418604373931885
0.11105199158191681 -0.05426359176635742 0.4573643207550049
0.10960642993450165 -0.05426359176635742 0.4728682041168213
0.10800918936729431 -0.05426359176635742 0.4883720874786377
0.10658144950866699 -0.05426359176635742 0.5038759708404541
0.10501548647880554 -0.05426359176635742 0.5193798542022705
0.10330389440059662 -0.05426359176635742 0.5348837375640869
0.1020580530166626 -0.05426359176635742 0.5503876805305481
0.10132221132516861 -0.05426359176635742 0.5658915042877197
0.11610393226146698 -0.038759708404541016 -0.9844961166381836
0.11447854340076447 -0.038759708404541016 -0.9689922332763672
0.11342053860425949 -0.038759708404541016 -0.9534883499145508
0.11309560388326645 -0.038759708404541016 -0.9379844665527344
0.11292414367198944 -0.038759708404541016 -0.9224806427955627
0.1133645623922348 -0.038759708404541016 -0.9069766998291016
0.11412713676691055 -0.038759708404541016 -0.8914728760719299
0.11509133130311966 -0.038759708404541016 -0.8759689927101135
0.11607210338115692 -0.038759708404541016 -0.8604651093482971
0.11603482812643051 -0.038759708404541016 -0.6124030947685242
0.11564983427524567 -0.038759708404541016 -0.5968992114067078
0.11532258987426758 -0.038759708404541016 -0.5813953876495361
0.11495515704154968 -0.038759708404541016 -0.5658915042877197
0.11463018506765366 -0.038759708404541016 -0.5503876209259033
0.11457349359989166 -0.038759708404541016 -0.5348837375640869
0.1147284284234047 -0.038759708404541016 -0.5193798542022705
0.11493896692991257 -0.038759708404541016 -0.5038759708404541
0.11564550548791885 -0.038759708404541016 -0.4883720874786377
0.11491318047046661 -0.038759708404541016 0.4573643207550049
0.11371000111103058 -0.038759708404541016 0.4728682041168213
0.11249829083681107 -0.038759708404541016 0.4883720874786377
0.11139380931854248 -0.038759708404541016 0.5038759708404541
0.11039845645427704 -0.038759708404541016 0.5193798542022705
0.10925169289112091 -0.038759708404541016 0.5348837375640869
0.10798374563455582 -0.038759708404541016 0.5503876209259033
0.106976717710495 -0.038759708404541016 0.5658915042877197
0.10567347705364227 -0.038759708404541016 0.5813953876495361
0.10312197357416153 -0.038759708404541016 0.5968992710113525
0.11583207547664642 -0.02325582504272461 0.4883720874786377
0.11456188559532166 -0.02325582504272461 0.5038759708404541
0.11347758769989014 -0.02325582504272461 0.5193798542022705
0.11256194114685059 -0.02325582504272461 0.5348837375640869
0.11153991520404816 -0.02325582504272461 0.5503876209259033
0.11050622165203094 -0.02325582504272461 0.5658915042877197
0.10876607894897461 -0.02325582504272461 0.5813953876495361
0.10694803297519684 -0.02325582504272461 0.5968992710113525
0.10445646196603775 -0.02325582504272461 0.612403154373169
0.10098698735237122 -0.02325582504272461 0.627906858921051
0.11590739339590073 -0.007751941680908203 0.5193798542022705
0.11475946754217148 -0.007751941680908203 0.5348837375640869
0.11354845762252808 -0.007751941680908203 0.5503876209259033
0.1124102920293808 -0.007751941680908203 0.5658915042877197
0.11084362864494324 -0.007751941680908203 0.5813953876495361
0.10847257077693939 -0.007751941680908203 0.5968992710113525
0.106453076004982 -0.007751941680908203 0.612403154373169
0.10281611233949661 -0.007751941680908203 0.6279069185256958
0.11567740142345428 0.007751941680908203 0.5193798542022705
0.11450483649969101 0.007751941680908203 0.5348837375640869
0.11328648030757904 0.007751941680908203 0.5503876209259033
0.11217959225177765 0.007751941680908203 0.5658915042877197
0.11064781248569489 0.007751941680908203 0.5813953876495361
0.10836970806121826 0.007751941680908203 0.5968992710113525
0.10629642754793167 0.007751941680908203 0.612403154373169
0.10241268575191498 0.007751941680908203 0.6279069185256958
0.11505581438541412 0.02325582504272461 0.4883720874786377
0.1136268749833107 0.02325582504272461 0.5038759708404541
0.11267287284135818 0.02325582504272461 0.5193798542022705
0.11189046502113342 0.02325582504272461 0.5348837375640869
0.11097509413957596 0.02325582504272461 0.5503876209259033
0.10995446145534515 0.02325582504272461 0.5658915042877197
0.10823657363653183 0.02325582504272461 0.5813953876495361
0.10650399327278137 0.02325582504272461 0.5968992710113525
0.10322817414999008 0.02325582504272461 0.612403154373169
0.11006223410367966 0.038759708404541016 -0.9844961166381836
0.10988691449165344 0.038759708404541016 -0.9689922332763672
0.10929091274738312 0.038759708404541016 -0.9534883499145508
0.1092977523803711 0.038759708404541016 -0.9379844665527344
0.1095997765660286 0.038759708404541016 -0.9224806427955627
0.11016031354665756 0.038759708404541016 -0.9069768190383911
0.11084727197885513 0.038759708404541016 -0.8914728760719299
0.1121617928147316 0.038759708404541016 -0.8759689927101135
0.11343619972467422 0.038759708404541016 -0.8604651093482971
0.11487585306167603 0.038759708404541016 -0.8449612259864807
0.11605983972549438 0.038759708404541016 -0.8294573426246643
0.11609186232089996 0.038759708404541016 -0.7054263353347778
0.11600218713283539 0.038759708404541016 -0.6899224519729614
0.11569633334875107 0.038759708404541016 -0.674418568611145
0.11528047174215317 0.038759708404541016 -0.6589146852493286
0.11486563831567764 0.038759708404541016 -0.643410861492157
0.11483653634786606 0.038759708404541016 -0.6279069781303406
0.11407861858606339 0.038759708404541016 -0.6124030947685242
0.11370767652988434 0.038759708404541016 -0.5968992114067078
0.11345341801643372 0.038759708404541016 -0.5813953876495361
0.11305372416973114 0.038759708404541016 -0.5658915042877197
0.11262751370668411 0.038759708404541016 -0.5503876209259033
0.11243786662817001 0.038759708404541016 -0.5348837375640869
0.11265026777982712 0.038759708404541016 -0.5193798542022705
0.11273277550935745 0.038759708404541016 -0.5038759708404541
0.11322908848524094 0.038759708404541016 -0.4883720874786377
0.1136402115225792 0.038759708404541016 -0.4728682041168213
0.11357180029153824 0.038759708404541016 -0.4573643207550049
0.11377628892660141 0.038759708404541016 -0.4418604373931885
0.11374181509017944 0.038759708404541016 -0.42635661363601685
0.11325150728225708 0.038759708404541016 -0.41085273027420044
0.1143016591668129 0.038759708404541016 -0.39534884691238403
0.1151687428355217 0.038759708404541016 -0.3798449635505676
0.1154974177479744 0.038759708404541016 -0.3643410801887512
0.11611917614936829 0.038759708404541016 -0.3488371968269348
0.11503007262945175 0.038759708404541016 0.4418604373931885
0.11284006386995316 0.038759708404541016 0.4573643207550049
0.11163347959518433 0.038759708404541016 0.4728682041168213
0.11058284342288971 0.038759708404541016 0.4883720874786377
0.10958181321620941 0.038759708404541016 0.5038759708404541
0.10871919244527817 0.038759708404541016 0.5193798542022705
0.10779069364070892 0.038759708404541016 0.5348837375640869
0.10684113204479218 0.038759708404541016 0.5503876209259033
0.1058262437582016 0.038759708404541016 0.5658915042877197
0.10380039364099503 0.038759708404541016 0.5813953876495361
0.10112422704696655 0.038759708404541016 0.5968992710113525
0.10737915337085724 0.05426359176635742 -0.9844961166381836
0.10371804237365723 0.05426359176635742 -0.9689922332763672
0.10317282378673553 0.05426359176635742 -0.9534883499145508
0.10307251662015915 0.05426359176635742 -0.9379844069480896
0.10308581590652466 0.05426359176635742 -0.9224807024002075
0.10345996916294098 0.05426359176635742 -0.9069767594337463
0.10410212725400925 0.05426359176635742 -0.8914728760719299
0.10512649267911911 0.05426359176635742 -0.8759689331054688
0.10618627816438675 0.05426359176635742 -0.8604651689529419
0.10733062773942947 0.05426359176635742 -0.8449612259864807
0.10825884342193604 0.05426359176635742 -0.8294574022293091
0.10898494720458984 0.05426359176635742 -0.8139535188674927
0.10954850912094116 0.05426359176635742 -0.7984496355056763
0.10986138880252838 0.05426359176635742 -0.7829457521438599
0.11015954613685608 0.05426359176635742 -0.7674418687820435
0.10977146029472351 0.05426359176635742 -0.751937985420227
0.10946568846702576 0.05426359176635742 -0.7364341020584106
0.10894395411014557 0.05426359176635742 -0.7209302186965942
0.1084461435675621 0.05426359176635742 -0.7054263353347778
0.10827726125717163 0.05426359176635742 -0.6899224519729614
0.10797819495201111 0.05426359176635742 -0.674418568611145
0.10757926106452942 0.05426359176635742 -0.6589146852493286
0.10730771720409393 0.05426359176635742 -0.643410861492157
0.107267364859581 0.05426359176635742 -0.6279069781303406
0.1067260205745697 0.05426359176635742 -0.6124030947685242
0.10643163323402405 0.05426359176635742 -0.5968992114067078
0.10627197474241257 0.05426359176635742 -0.5813953876495361
0.10596689581871033 0.05426359176635742 -0.5658915042877197
0.10559336841106415 0.05426359176635742 -0.5503876209259033
0.10543829202651978 0.05426359176635742 -0.5348837375640869
0.10558246076107025 0.05426359176635742 -0.5193798542022705
0.10567036271095276 0.05426359176635742 -0.5038759708404541
0.10604138672351837 0.05426359176635742 -0.4883720874786377
0.10633067786693573 0.05426359176635742 -0.4728682041168213
0.10614918917417526 0.05426359176635742 -0.4573642909526825
0.10621190071105957 0.05426358804106712 -0.4418604373931885
0.1060529351234436 0.05426359176635742 -0.42635661363601685
0.10580858588218689 0.05426359176635742 -0.41085273027420044
0.10678684711456299 0.05426359176635742 -0.39534884691238403
0.10797330737113953 0.05426359176635742 -0.3798449635505676
0.10879240185022354 0.05426359176635742 -0.3643410801887512
0.1097007691860199 0.05426359176635742 -0.3488371968269348
0.11036510020494461 0.05426359176635742 -0.3333333134651184
0.11089686304330826 0.05426359176635742 -0.317829430103302
0.11153704673051834 0.05426359176635742 -0.30232560634613037
0.11213182657957077 0.05426359176635742 -0.28682172298431396
0.11274643242359161 0.05426359176635742 -0.27131783962249756
0.11351435631513596 0.05426359176635742 -0.25581395626068115
0.11433780938386917 0.05426359176635742 -0.24031007289886475
0.11515052616596222 0.05426359176635742 -0.22480618953704834
0.1160280704498291 0.05426359176635742 -0.20930230617523193
0.11568257212638855 0.05426359176635742 0.20930230617523193
0.11501464247703552 0.05426359176635742 0.22480618953704834
0.11441457271575928 0.05426359176635742 0.24031007289886475
0.11380905658006668 0.05426359176635742 0.25581395626068115
0.11324431002140045 0.05426359176635742 0.27131783962249756
0.11304303258657455 0.05426359176635742 0.28682172298431396
0.11304622888565063 0.05426359176635742 0.30232560634613037
0.11317569017410278 0.05426359176635742 0.3178294897079468
0.11350105702877045 0.05426359176635742 0.3333333730697632
0.11392787098884583 0.05426359176635742 0.3488372564315796
0.11405224353075027 0.05426359176635742 0.364341139793396
0.11515745520591736 0.05426359176635742 0.37984490394592285
0.11446087807416916 0.05426359176635742 0.41085267066955566
0.11066637933254242 0.05426359176635742 0.42635655403137207
0.10902921855449677 0.05426359176635742 0.4418604373931885
0.10743897408246994 0.05426359176635742 0.4573643207550049
0.10595410317182541 0.05426358804106712 0.4728681743144989
0.1044350191950798 0.05426359176635742 0.4883720576763153
0.10286413133144379 0.05426359176635742 0.5038759708404541
0.10169023275375366 0.05426359176635742 0.5193798542022705
0.10111387073993683 0.06976747512817383 -0.8294573426246643
0.10171927511692047 0.06976747512817383 -0.8139535188674927
0.10225709527730942 0.06976747512817383 -0.798449695110321
0.1026306226849556 0.06976747512817383 -0.7829457521438599
0.10291048884391785 0.06976747512817383 -0.7674418687820435
0.10260956734418869 0.06976747512817383 -0.751937985420227
0.10230769962072372 0.06976748257875443 -0.7364341020584106
0.10177826136350632 0.06976747512817383 -0.7209302186965942
0.10128225386142731 0.06976747512817383 -0.7054262757301331
0.10110509395599365 0.06976747512817383 -0.6899224519729614
0.10083214193582535 0.06976748257875443 -0.6744186282157898
0.10173516720533371 0.06976747512817383 -0.317829430103302
0.10316095501184464 0.06976747512817383 -0.30232560634613037
0.10458602011203766 0.06976747512817383 -0.28682172298431396
0.10579649358987808 0.06976747512817383 -0.27131783962249756
0.1069595068693161 0.06976747512817383 -0.25581395626068115
0.10789209604263306 0.06976747512817383 -0.24031007289886475
0.10875044763088226 0.06976747512817383 -0.22480618953704834
0.10958674550056458 0.06976747512817383 -0.20930230617523193
0.11023455113172531 0.06976747512817383 -0.19379842281341553
0.11071086674928665 0.06976747512817383 -0.1782945990562439
0.11109720170497894 0.06976747512817383 -0.1627907156944275
0.11141487956047058 0.06976747512817383 -0.14728683233261108
0.11156581342220306 0.06976747512817383 -0.13178294897079468
0.11167655885219574 0.06976747512817383 -0.11627906560897827
0.11178651452064514 0.06976747512817383 -0.10077518224716187
0.11186841130256653 0.06976747512817383 -0.08527129888534546
0.11186505854129791 0.06976747512817383 -0.06976741552352905
0.11187171190977097 0.06976747512817383 -0.05426359176635742
0.11186961829662323 0.06976747512817383 -0.038759708404541016
0.11171497404575348 0.06976747512817383 -0.02325582504272461
0.11163078993558884 0.06976747512817383 -0.007751941680908203
0.11142504215240479 0.06976747512817383 0.007751941680908203
0.11116358637809753 0.06976747512817383 0.02325582504272461
0.11094839125871658 0.06976747512817383 0.038759708404541016
0.11075295507907867 0.06976747512817383 0.05426359176635742
0.11048971116542816 0.06976747512817383 0.06976747512817383
0.11032460629940033 0.06976747512817383 0.08527135848999023
0.11007187515497208 0.06976747512817383 0.10077524185180664
0.10978034138679504 0.06976747512817383 0.11627912521362305
0.10960564017295837 0.06976747512817383 0.1317828893661499
0.10941015183925629 0.06976747512817383 0.1472867727279663
0.10919523984193802 0.06976747512817383 0.16279065608978271
0.109163299202919 0.06976747512817383 0.17829453945159912
0.10899904370307922 0.06976747512817383 0.19379842281341553
0.10867498070001602 0.06976747512817383 0.20930230617523193
0.10824650526046753 0.06976747512817383 0.22480618953704834
0.10781940817832947 0.06976747512817383 0.24031007289886475
0.10736124217510223 0.06976747512817383 0.25581395626068115
0.10683919489383698 0.06976747512817383 0.27131783962249756
0.10663074254989624 0.06976747512817383 0.28682172298431396
0.1065513864159584 0.06976747512817383 0.30232560634613037
0.10654427111148834 0.06976747512817383 0.3178294897079468
0.10664354264736176 0.06976747512817383 0.3333333730697632
0.10684836655855179 0.06976747512817383 0.3488372564315796
0.10673679411411285 0.06976747512817383 0.364341139793396
0.10796195268630981 0.06976747512817383 0.37984490394592285
0.10904209315776825 0.06976747512817383 0.39534878730773926
0.10704579949378967 0.06976747512817383 0.41085267066955566
0.1029777005314827 0.06976747512817383 0.42635655403137207
0.1166190579533577 -0.05426359176635742 -0.27131783962249756
0.11791262030601501 -0.05426359176635742 -0.25581395626068115
0.11912720650434494 -0.05426359176635742 -0.24031007289886475
0.11992894113063812 -0.05426359176635742 -0.22480618953704834
0.1204734519124031 -0.05426359176635742 -0.20930230617523193
0.12086264044046402 -0.05426359176635742 -0.19379842281341553
0.12140603363513947 -0.05426359176635742 -0.1782945990562439
0.12219101190567017 -0.05426359176635742 -0.1627907156944275
0.12308168411254883 -0.05426359176635742 -0.14728683233261108
0.12395843863487244 -0.05426359176635742 -0.13178294897079468
0.12464171648025513 -0.05426359176635742 -0.11627906560897827
0.1252290904521942 -0.05426359176635742 -0.10077518224716187
0.12553592026233673 -0.05426359176635742 -0.08527129888534546
0.12556827068328857 -0.05426359176635742 -0.06976741552352905
0.12555840611457825 -0.05426359176635742 -0.05426359176635742
0.12533897161483765 -0.05426359176635742 -0.038759708404541016
0.12499196827411652 -0.05426359176635742 -0.02325582504272461
0.1246991977095604 -0.05426359176635742 -0.007751941680908203
0.12437397241592407 -0.05426359176635742 0.007751941680908203
0.12398660182952881 -0.05426359176635742 0.02325582504272461
0.12378458678722382 -0.05426359176635742 0.038759708404541016
0.12376639991998672 -0.05426359176635742 0.05426359176635742
0.12363559007644653 -0.05426359176635742 0.06976747512817383
0.12371445447206497 -0.05426359176635742 0.08527135848999023
0.12356673181056976 -0.05426359176635742 0.10077524185180664
0.1233915388584137 -0.05426359176635742 0.11627912521362305
0.12317192554473877 -0.05426359176635742 0.1317828893661499
0.12288275361061096 -0.05426359176635742 0.1472867727279663
0.12241464853286743 -0.05426359176635742 0.16279065608978271
0.12190275639295578 -0.05426359176635742 0.17829453945159912
0.12130376696586609 -0.05426359176635742 0.19379842281341553
0.12047795206308365 -0.05426359176635742 0.20930230617523193
0.11967145651578903 -0.05426359176635742 0.22480618953704834
0.11892708390951157 -0.05426359176635742 0.24031007289886475
0.11821559816598892 -0.05426358804106712 0.25581395626068115
0.1174427792429924 -0.05426359176635742 0.27131783962249756
0.11706683784723282 -0.05426359549164772 0.28682175278663635
0.11668898910284042 -0.05426359176635742 0.30232560634613037
0.11635765433311462 -0.05426359176635742 0.3178294897079468
0.11663322895765305 -0.05426359176635742 0.37984487414360046
0.11877984553575516 -0.05426359176635742 0.39534878730773926
0.11724400520324707 -0.05426359176635742 0.41085267066955566
0.11664743721485138 -0.038759708404541016 -0.8449612259864807
0.11703422665596008 -0.038759708404541016 -0.8294573426246643
0.11745025962591171 -0.038759708404541016 -0.8139534592628479
0.11778199672698975 -0.038759708404541016 -0.7984496355056763
0.11794621497392654 -0.038759708404541016 -0.7829457521438599
0.11810026317834854 -0.038759708404541016 -0.7674418687820435
0.11775600910186768 -0.038759708404541016 -0.751937985420227
0.11749248206615448 -0.038759708404541016 -0.7364340424537659
0.11715508252382278 -0.038759708404541016 -0.7209302186965942
0.11689139902591705 -0.03875970467925072 -0.7054263353347778
0.11681318283081055 -0.038759708404541016 -0.6899224519729614
0.11674554646015167 -0.038759708404541016 -0.674418568611145
0.1166134774684906 -0.038759708404541016 -0.6589146852493286
0.11647769063711166 -0.038759708404541016 -0.643410861492157
0.11641036719083786 -0.038759708404541016 -0.6279069781303406
0.11632052063941956 -0.038759708404541016 -0.4728682041168213
0.11654135584831238 -0.038759708404541016 -0.4573642909526825
0.11696555465459824 -0.038759708404541016 -0.4418604373931885
0.1173531636595726 -0.038759708404541016 -0.42635661363601685
0.1174706295132637 -0.038759708404541016 -0.41085273027420044
0.11763926595449448 -0.038759708404541016 -0.39534884691238403
0.11777126789093018 -0.038759712129831314 -0.3798449635505676
0.1180160716176033 -0.038759708404541016 -0.3643410801887512
0.11852489411830902 -0.038759712129831314 -0.3488371968269348
0.11898122727870941 -0.038759708404541016 -0.3333333134651184
0.11975087225437164 -0.038759708404541016 -0.317829430103302
0.12085267901420593 -0.038759708404541016 -0.30232560634613037
0.12205260992050171 -0.038759708404541016 -0.28682172298431396
0.12305590510368347 -0.038759708404541016 -0.27131783962249756
0.12389027327299118 -0.038759708404541016 -0.25581395626068115
0.1245269775390625 -0.038759708404541016 -0.24031007289886475
0.1249295026063919 -0.038759708404541016 -0.22480618953704834
0.12524467706680298 -0.038759708404541016 -0.20930230617523193
0.1255207359790802 -0.038759708404541016 -0.19379842281341553
0.1259024441242218 -0.038759708404541016 -0.1782945990562439
0.12637345492839813 -0.038759708404541016 -0.1627907156944275
0.12681713700294495 -0.038759708404541016 -0.14728683233261108
0.12728343904018402 -0.038759708404541016 -0.13178294897079468
0.1277393251657486 -0.038759708404541016 -0.11627906560897827
0.12823733687400818 -0.038759708404541016 -0.10077518224716187
0.12861688435077667 -0.038759708404541016 -0.08527129888534546
0.12877649068832397 -0.038759708404541016 -0.06976741552352905
0.1288917064666748 -0.038759708404541016 -0.05426359176635742
0.128828227519989 -0.038759708404541016 -0.038759708404541016
0.12863466143608093 -0.038759708404541016 -0.02325582504272461
0.12852588295936584 -0.038759708404541016 -0.007751941680908203
0.1284165382385254 -0.038759708404541016 0.007751941680908203
0.12818078696727753 -0.038759708404541016 0.02325582504272461
0.1279783844947815 -0.038759708404541016 0.038759708404541016
0.12781326472759247 -0.038759708404541016 0.05426359176635742
0.12753930687904358 -0.038759708404541016 0.06976747512817383
0.12748481333255768 -0.038759708404541016 0.08527135848999023
0.12731368839740753 -0.038759708404541016 0.10077524185180664
0.1271141767501831 -0.038759708404541016 0.11627912521362305
0.1269717961549759 -0.038759708404541016 0.1317828893661499
0.12681978940963745 -0.038759708404541016 0.1472867727279663
0.12654969096183777 -0.038759708404541016 0.16279065608978271
0.12633737921714783 -0.038759708404541016 0.17829453945159912
0.12608109414577484 -0.038759708404541016 0.19379842281341553
0.12560613453388214 -0.038759708404541016 0.20930230617523193
0.12512600421905518 -0.038759708404541016 0.22480618953704834
0.12466045469045639 -0.038759708404541016 0.24031007289886475
0.12416322529315948 -0.038759708404541016 0.25581395626068115
0.12364435195922852 -0.038759708404541016 0.27131783962249756
0.12344026565551758 -0.038759708404541016 0.28682172298431396
0.12319169193506241 -0.038759708404541016 0.30232560634613037
0.1229882761836052 -0.038759708404541016 0.3178294897079468
0.12301186472177505 -0.038759708404541016 0.3333333730697632
0.12302593886852264 -0.038759708404541016 0.3488372564315796
0.12276627123355865 -0.038759708404541016 0.364341139793396
0.1231607049703598 -0.038759708404541016 0.37984490394592285
0.12434863299131393 -0.038759708404541016 0.39534878730773926
0.12258291244506836 -0.038759708404541016 0.41085267066955566
0.11858248710632324 -0.038759708404541016 0.42635655403137207
0.11674445867538452 -0.038759708404541016 0.4418604373931885
0.12149330973625183 -0.02325582504272461 -0.9844961166381836
0.1178189367055893 -0.02325582504272461 -0.9689922332763672
0.11718618869781494 -0.02325582318007946 -0.9534883499145508
0.11705301702022552 -0.02325582504272461 -0.9379844665527344
0.11713533848524094 -0.02325582504272461 -0.9224807024002075
0.11739762127399445 -0.02325582504272461 -0.9069767594337463
0.11779993027448654 -0.02325582504272461 -0.8914728760719299
0.11879421770572662 -0.02325582504272461 -0.8759690523147583
0.1198769360780716 -0.02325582504272461 -0.8604651093482971
0.120833620429039 -0.02325582504272461 -0.8449612855911255
0.12123394757509232 -0.02325582504272461 -0.8294574022293091
0.1216517984867096 -0.02325582504272461 -0.8139535188674927
0.12204514443874359 -0.02325582504272461 -0.7984496355056763
0.12223055958747864 -0.02325582504272461 -0.7829457521438599
0.12249484658241272 -0.02325582504272461 -0.7674418687820435
0.12216216325759888 -0.02325582504272461 -0.751937985420227
0.12200726568698883 -0.02325582504272461 -0.7364341020584106
0.12171925604343414 -0.02325582504272461 -0.7209302186965942
0.12137047946453094 -0.02325582504272461 -0.7054263353347778
0.12132878601551056 -0.02325582504272461 -0.6899224519729614
0.12120264768600464 -0.02325582318007946 -0.674418568611145
0.12080298364162445 -0.02325582504272461 -0.6589146852493286
0.120213083922863 -0.02325582504272461 -0.643410861492157
0.11980748921632767 -0.02325582504272461 -0.6279069781303406
0.11910125613212585 -0.02325582504272461 -0.6124030947685242
0.11868639290332794 -0.02325582504272461 -0.5968992114067078
0.11836801469326019 -0.02325582504272461 -0.5813953876495361
0.11803355067968369 -0.02325582504272461 -0.565891444683075
0.11779604852199554 -0.02325582504272461 -0.5503876209259033
0.11770223081111908 -0.02325582504272461 -0.5348837375640869
0.1177334263920784 -0.02325582504272461 -0.5193798542022705
0.11771401762962341 -0.02325582318007946 -0.5038759708404541
0.11804148554801941 -0.02325582504272461 -0.4883720874786377
0.11838998645544052 -0.02325582504272461 -0.4728682041168213
0.11855213344097137 -0.02325582504272461 -0.4573643207550049
0.11910989880561829 -0.02325582504272461 -0.4418604373931885
0.11956508457660675 -0.02325582504272461 -0.42635661363601685
0.1199045181274414 -0.02325582504272461 -0.41085273027420044
0.12066010385751724 -0.02325582504272461 -0.39534884691238403
0.12137074768543243 -0.02325582504272461 -0.3798449635505676
0.12199604511260986 -0.02325582504272461 -0.3643410801887512
0.1226930096745491 -0.02325582504272461 -0.3488371968269348
0.12311521172523499 -0.02325582504272461 -0.3333333134651184
0.12360703200101852 -0.02325582504272461 -0.317829430103302
0.12442569434642792 -0.02325582504272461 -0.30232560634613037
0.12539854645729065 -0.02325582504272461 -0.28682172298431396
0.12605834007263184 -0.02325582504272461 -0.27131783962249756
0.12634818255901337 -0.02325582504272461 -0.25581395626068115
0.12640449404716492 -0.02325582504272461 -0.24031007289886475
0.12641456723213196 -0.02325582504272461 -0.22480618953704834
0.1264580339193344 -0.02325582504272461 -0.20930230617523193
0.12657588720321655 -0.02325582504272461 -0.19379842281341553
0.1268208771944046 -0.02325582504272461 -0.1782945990562439
0.12721511721611023 -0.02325582504272461 -0.1627907156944275
0.12763698399066925 -0.02325582504272461 -0.14728683233261108
0.1281723976135254 -0.02325582504272461 -0.13178294897079468
0.1288081556558609 -0.02325582504272461 -0.11627906560897827
0.12946365773677826 -0.02325582504272461 -0.10077518224716187
0.13002963364124298 -0.02325582504272461 -0.08527129888534546
0.13038299977779388 -0.02325582504272461 -0.06976741552352905
0.1307193636894226 -0.02325582504272461 -0.05426359176635742
0.1308353841304779 -0.02325582504272461 -0.038759708404541016
0.13073816895484924 -0.02325582504272461 -0.02325582504272461
0.1306668370962143 -0.02325582504272461 -0.007751941680908203
0.13056811690330505 -0.02325582504272461 0.007751941680908203
0.13031688332557678 -0.02325582504272461 0.02325582504272461
0.13006728887557983 -0.02325582504272461 0.038759708404541016
0.12984611093997955 -0.02325582504272461 0.05426359176635742
0.12948983907699585 -0.02325582504272461 0.06976747512817383
0.12948983907699585 -0.02325582504272461 0.08527135848999023
0.12936916947364807 -0.02325582504272461 0.10077524185180664
0.12920016050338745 -0.02325582504272461 0.11627912521362305
0.12915663421154022 -0.02325582504272461 0.1317828893661499
0.12910737097263336 -0.02325582504272461 0.1472867727279663
0.12882734835147858 -0.02325582504272461 0.16279065608978271
0.1287098228931427 -0.02325582504272461 0.17829453945159912
0.12852683663368225 -0.02325582504272461 0.19379842281341553
0.12808722257614136 -0.02325582504272461 0.20930230617523193
0.1276436597108841 -0.02325582504272461 0.22480618953704834
0.1272052824497223 -0.02325582504272461 0.24031007289886475
0.12676772475242615 -0.02325582504272461 0.25581395626068115
0.12637755274772644 -0.02325582504272461 0.27131783962249756
0.12624360620975494 -0.02325582504272461 0.28682172298431396
0.12609857320785522 -0.02325582504272461 0.30232560634613037
0.12601706385612488 -0.02325582504272461 0.3178294897079468
0.12612365186214447 -0.02325582504272461 0.3333333730697632
0.12619392573833466 -0.02325582504272461 0.3488372564315796
0.12602688372135162 -0.02325582504272461 0.364341139793396
0.1264217644929886 -0.02325582504272461 0.37984490394592285
0.12713055312633514 -0.02325582504272461 0.39534878730773926
0.12509669363498688 -0.02325582504272461 0.41085267066955566
0.12210867553949356 -0.02325582504272461 0.42635655403137207
0.11987311393022537 -0.02325582504272461 0.4418604373931885
0.11784370988607407 -0.02325582504272461 0.4573643207550049
0.11674428731203079 -0.02325582504272461 0.4728682041168213
0.12272876501083374 -0.007751941680908203 -0.9844961166381836
0.11898376047611237 -0.00775194214656949 -0.9689922332763672
0.11848799884319305 -0.007751941215246916 -0.9534883499145508
0.11856093257665634 -0.007751941680908203 -0.9379844069480896
0.11892548948526382 -0.007751941215246916 -0.922480583190918
0.11954430490732193 -0.007751941680908203 -0.9069767594337463
0.1203908920288086 -0.007751941680908203 -0.8914728760719299
0.12232637405395508 -0.007751941215246916 -0.8759689331054688
0.12460020184516907 -0.007751941680908203 -0.8604651093482971
0.1265699416399002 -0.007751941680908203 -0.8449612855911255
0.12778951227664948 -0.007751941680908203 -0.8294573426246643
0.1288556009531021 -0.007751941680908203 -0.8139535188674927
0.1302662193775177 -0.007751941680908203 -0.7984496355056763
0.13163349032402039 -0.007751941680908203 -0.7829457521438599
0.1304888278245926 -0.007751941680908203 -0.6124030947685242
0.13036179542541504 -0.007751941680908203 -0.5968992114067078
0.13044336438179016 -0.007751941680908203 -0.5813953876495361
0.1304759532213211 -0.007751941680908203 -0.5658915042877197
0.1309082806110382 -0.007751941680908203 -0.5503876209259033
0.12596584856510162 -0.007751941680908203 -0.41085273027420044
0.1252792477607727 -0.007751941680908203 -0.39534884691238403
0.125524640083313 -0.007751941680908203 -0.3798449635505676
0.12559139728546143 -0.007751941680908203 -0.3643410801887512
0.12556180357933044 -0.007751941680908203 -0.3488371968269348
0.12532684206962585 -0.007751941680908203 -0.3333333134651184
0.12519468367099762 -0.007751941680908203 -0.317829430103302
0.12538813054561615 -0.007751941680908203 -0.30232560634613037
0.1257566660642624 -0.007751941680908203 -0.28682172298431396
0.12602803111076355 -0.007751941680908203 -0.27131783962249756
0.12624028325080872 -0.007751941680908203 -0.25581395626068115
0.12637509405612946 -0.007751941680908203 -0.24031007289886475
0.1263715624809265 -0.007751941680908203 -0.22480618953704834
0.12626835703849792 -0.007751941680908203 -0.20930230617523193
0.1262192577123642 -0.007751941680908203 -0.19379842281341553
0.12634091079235077 -0.007751941680908203 -0.1782945990562439
0.12672856450080872 -0.007751941680908203 -0.1627907156944275
0.1271984875202179 -0.007751941680908203 -0.14728683233261108
0.12798160314559937 -0.007751941680908203 -0.13178294897079468
0.1291092187166214 -0.007751941680908203 -0.11627906560897827
0.13027991354465485 -0.007751941680908203 -0.10077518224716187
0.13140951097011566 -0.007751941680908203 -0.08527129888534546
0.1314348727464676 -0.007751941680908203 0.038759708404541016
0.13116395473480225 -0.007751941680908203 0.05426359176635742
0.13064666092395782 -0.007751941680908203 0.06976747512817383
0.1306915432214737 -0.007751941680908203 0.08527135848999023
0.13050858676433563 -0.007751941680908203 0.10077524185180664
0.13027328252792358 -0.007751941680908203 0.11627912521362305
0.1302819550037384 -0.007751941680908203 0.1317828893661499
0.13033078610897064 -0.007751941680908203 0.1472867727279663
0.13004088401794434 -0.007751941680908203 0.16279065608978271
0.1299927830696106 -0.007751941680908203 0.17829453945159912
0.12975279986858368 -0.007751941680908203 0.19379842281341553
0.1291898936033249 -0.007751941680908203 0.20930230617523193
0.12863555550575256 -0.007751941680908203 0.22480618953704834
0.1280837208032608 -0.007751941680908203 0.24031007289886475
0.12754586338996887 -0.007751941680908203 0.25581395626068115
0.12708067893981934 -0.007751941680908203 0.27131783962249756
0.1269664466381073 -0.007751941680908203 0.28682172298431396
0.1268710047006607 -0.007751941680908203 0.30232560634613037
0.126852348446846 -0.007751941680908203 0.3178294897079468
0.12699367105960846 -0.007751941680908203 0.3333333730697632
0.12710636854171753 -0.007751941680908203 0.3488372564315796
0.1270497441291809 -0.007751941680908203 0.364341139793396
0.12748530507087708 -0.007751941680908203 0.37984490394592285
0.12848712503910065 -0.007751941680908203 0.39534878730773926
0.12616503238677979 -0.007751941680908203 0.41085267066955566
0.12298418581485748 -0.007751941680908203 0.42635655403137207
0.12127414345741272 -0.007751941680908203 0.4418604373931885
0.11956623941659927 -0.007751941680908203 0.4573643207550049
0.11828642338514328 -0.007751941680908203 0.4728682041168213
0.11733347177505493 -0.007751941680908203 0.4883721172809601
0.1166546493768692 -0.007751941680908203 0.5038759708404541
0.1221965104341507 0.007751941680908203 -0.9844961166381836
0.11844374984502792 0.007751941680908203 -0.9689921736717224
0.11803027242422104 0.007751941680908203 -0.9534883499145508
0.11820919066667557 0.00775194214656949 -0.9379844665527344
0.11861288547515869 0.007751941680908203 -0.9224806427955627
0.11932992935180664 0.00775194214656949 -0.9069767594337463
0.12026992440223694 0.007751941680908203 -0.8914728760719299
0.12212184071540833 0.007751941680908203 -0.8759689331054688
0.12481217086315155 0.007751941680908203 -0.8604651093482971
0.12782391905784607 0.007751941680908203 -0.8449612259864807
0.13141538202762604 0.007751941680908203 -0.8294572830200195
0.12876075506210327 0.007751941680908203 -0.39534884691238403
0.12684990465641022 0.007751941680908203 -0.3798449635505676
0.12599709630012512 0.007751941680908203 -0.3643410801887512
0.1255049705505371 0.007751941680908203 -0.3488371968269348
0.12504488229751587 0.007751941680908203 -0.3333333134651184
0.12472063302993774 0.007751941680908203 -0.317829430103302
0.12475554645061493 0.007751941680908203 -0.30232560634613037
0.12500755488872528 0.007751941680908203 -0.28682172298431396
0.12523381412029266 0.007751941680908203 -0.27131783962249756
0.12545141577720642 0.007751941680908203 -0.25581395626068115
0.12567874789237976 0.007751941680908203 -0.24031007289886475
0.1257619559764862 0.007751941680908203 -0.22480618953704834
0.12571510672569275 0.007751941680908203 -0.20930230617523193
0.12566439807415009 0.007751941680908203 -0.19379842281341553
0.1257041096687317 0.007751941680908203 -0.1782945990562439
0.12599171698093414 0.007751941680908203 -0.1627907156944275
0.1263541877269745 0.007751941680908203 -0.14728683233261108
0.1270245462656021 0.007751941680908203 -0.13178294897079468
0.12801077961921692 0.007751941680908203 -0.11627906560897827
0.12901243567466736 0.007751941680908203 -0.10077518224716187
0.13007336854934692 0.007751941680908203 -0.08527129888534546
0.13073354959487915 0.007751941680908203 -0.06976741552352905
0.13140013813972473 0.007751941680908203 -0.05426359176635742
0.13154955208301544 0.007751941680908203 -0.038759708404541016
0.13129349052906036 0.007751941680908203 -0.02325582504272461
0.13117510080337524 0.007751941680908203 -0.007751941680908203
0.1308441311120987 0.007751941680908203 0.007751941680908203
0.13028191030025482 0.007751941680908203 0.02325582504272461
0.12985648214817047 0.007751941680908203 0.038759708404541016
0.1295672059059143 0.007751941680908203 0.05426359176635742
0.12902672588825226 0.007751941680908203 0.06976747512817383
0.12893617153167725 0.007751941680908203 0.08527135848999023
0.12867970764636993 0.007751941680908203 0.10077524185180664
0.12840300798416138 0.007751941680908203 0.11627912521362305
0.12843243777751923 0.007751941680908203 0.1317828893661499
0.12854473292827606 0.007751941680908203 0.1472867727279663
0.12840811908245087 0.007751941680908203 0.16279065608978271
0.1284881979227066 0.007751941680908203 0.17829453945159912
0.12842147052288055 0.007751941680908203 0.19379842281341553
0.128025621175766 0.007751941680908203 0.20930230617523193
0.12760119140148163 0.007751941680908203 0.22480618953704834
0.12716099619865417 0.007751941680908203 0.24031007289886475
0.1267525553703308 0.007751941680908203 0.25581395626068115
0.12641802430152893 0.007751941680908203 0.27131783962249756
0.1263917088508606 0.007751941680908203 0.28682172298431396
0.1264135241508484 0.007751941680908203 0.30232560634613037
0.1264859437942505 0.007751941680908203 0.3178294897079468
0.12665799260139465 0.007751941680908203 0.3333333730697632
0.12682069838047028 0.007751941680908203 0.3488372564315796
0.12685951590538025 0.007751941680908203 0.364341139793396
0.12739762663841248 0.007751941680908203 0.37984490394592285
0.12827695906162262 0.007751941680908203 0.39534878730773926
0.1257258653640747 0.007751941680908203 0.41085267066955566
0.1226913183927536 0.007751941680908203 0.42635655403137207
0.12107271701097488 0.007751941680908203 0.4418604373931885
0.11940312385559082 0.00775194214656949 0.4573643207550049
0.11819280683994293 0.007751941680908203 0.4728682041168213
0.11726488918066025 0.007751941680908203 0.4883720874786377
0.11658545583486557 0.007751941680908203 0.5038759708404541
0.11895059049129486 0.02325582504272461 -0.9844961166381836
0.11682210862636566 0.02325582504272461 -0.9689922332763672
0.11641887575387955 0.02325582318007946 -0.9534883499145508
0.11643271148204803 0.02325582504272461 -0.9379844665527344
0.11661957204341888 0.02325582504272461 -0.9224806427955627
0.11691013723611832 0.02325582504272461 -0.9069767594337463
0.11727065593004227 0.02325582690536976 -0.8914728760719299
0.1179846003651619 0.02325582504272461 -0.8759689927101135
0.11882812529802322 0.02325582504272461 -0.8604651093482971
0.11993478238582611 0.02325582504272461 -0.8449611663818359
0.12084010243415833 0.02325582504272461 -0.8294573426246643
0.12174129486083984 0.02325582504272461 -0.8139535188674927
0.12264860421419144 0.02325582504272461 -0.7984496355056763
0.123300701379776 0.02325582504272461 -0.7829457521438599
