-0.2211424559354782 0.25581395626068115 -0.3488371968269348
-0.22336384654045105 0.25581395626068115 -0.333333283662796
-0.22191883623600006 0.25581395626068115 -0.317829430103302
-0.22012877464294434 0.25581395626068115 -0.30232560634613037
-0.22315257787704468 0.25581395626068115 -0.28682172298431396
-0.21927469968795776 0.25581395626068115 0.02325582504272461
-0.22258087992668152 0.25581395626068115 0.22480618953704834
-0.22123050689697266 0.27131783962249756 -0.5193798542022705
-0.2147647738456726 0.27131783962249756 -0.3798449635505676
-0.21260668337345123 0.27131783962249756 -0.3643410801887512
-0.2104610651731491 0.27131783962249756 -0.3488371968269348
-0.2107430249452591 0.27131783962249756 -0.3333333134651184
-0.2098991572856903 0.27131783962249756 -0.317829430103302
-0.209532231092453 0.27131783962249756 -0.30232560634613037
-0.2109198123216629 0.27131783962249756 -0.28682172298431396
-0.21762868762016296 0.27131783962249756 -0.27131783962249756
-0.21126754581928253 0.27131783962249756 0.22480618953704834
-0.21970364451408386 0.28682172298431396 -0.5193798542022705
-0.209339901804924 0.28682172298431396 -0.25581395626068115
-0.21977534890174866 0.28682172298431396 -0.24031007289886475
-0.2215728759765625 0.28682172298431396 0.20930229127407074
-0.2186490297317505 0.30232560634613037 -0.5193798542022705
-0.21552501618862152 0.30232560634613037 -0.20930230617523193
-0.22373278439044952 0.30232560634613037 -0.19379842281341553
-0.21125061810016632 0.30232560634613037 0.20930230617523193
-0.2177627980709076 0.3178294897079468 -0.5193798542022705
-0.21344217658042908 0.3178294897079468 -0.19379842281341553
-0.2198743224143982 0.3178294897079468 -0.1782945990562439
-0.22245614230632782 0.3178294897079468 -0.1627907156944275
-0.22234518826007843 0.3178294897079468 -0.14728683233261108
-0.2205999493598938 0.3178294897079468 -0.13178294897079468
-0.22167643904685974 0.3178294897079468 -0.11627906560897827
-0.22166147828102112 0.3178294897079468 0.19379842281341553
-0.21721777319908142 0.3333333730697632 -0.5193798542022705
-0.22345392405986786 0.3333333730697632 -0.3488371968269348
-0.22198820114135742 0.3333333730697632 -0.3333333134651184
-0.22143474221229553 0.3333333730697632 -0.317829430103302
-0.22173359990119934 0.3333333730697632 -0.30232560634613037
-0.22252187132835388 0.3333333730697632 -0.28682172298431396
-0.21529105305671692 0.3333333730697632 -0.1782945990562439
-0.21859723329544067 0.3333333730697632 -0.1627907156944275
-0.21939821541309357 0.3333333730697632 -0.14728683233261108
-0.21846838295459747 0.3333333730697632 -0.13178294897079468
-0.22007693350315094 0.3333333730697632 -0.11627906560897827
-0.22447660565376282 0.3333333730697632 -0.10077517479658127
-0.21273201704025269 0.3333333730697632 0.19379842281341553
-0.21715420484542847 0.3488372564315796 -0.5193798542022705
-0.22114594280719757 0.3488372564315796 -0.39534884691238403
-0.21591877937316895 0.3488372564315796 -0.3798449635505676
-0.2123437523841858 0.3488372564315796 -0.3643410801887512
-0.20941349864006042 0.3488372564315796 -0.3488371968269348
-0.21069183945655823 0.3488372564315796 -0.28682172298431396
-0.21640238165855408 0.3488372564315796 -0.27131783962249756
-0.22363393008708954 0.3488372564315796 -0.25581395626068115
-0.21254609525203705 0.3488372564315796 -0.1782945990562439
-0.21612796187400818 0.3488372564315796 -0.1627907156944275
-0.21764031052589417 0.3488372564315796 -0.14728683233261108
-0.21738079190254211 0.3488372564315796 -0.13178294897079468
-0.21924087405204773 0.3488372564315796 -0.11627907305955887
-0.2232121378183365 0.348837286233902 -0.10077518224716187
-0.2227807343006134 0.3488372564315796 0.17829453945159912
-0.21710596978664398 0.364341139793396 -0.5193798542022705
-0.21937295794487 0.364341139793396 -0.41085273027420044
-0.21015529334545135 0.364341139793396 -0.39534884691238403
-0.21695655584335327 0.364341139793396 -0.25581395626068115
-0.20963013172149658 0.364341139793396 -0.1782945990562439
-0.2133152335882187 0.364341139793396 -0.1627907156944275
-0.21533611416816711 0.364341139793396 -0.14728683233261108
-0.21574360132217407 0.364341139793396 -0.13178294897079468
-0.21789267659187317 0.364341139793396 -0.11627906560897827
-0.22141624987125397 0.364341139793396 -0.10077518224716187
-0.22234389185905457 0.364341139793396 -0.08527129888534546
-0.21851545572280884 0.364341139793396 -0.007751941215246916
-0.21361634135246277 0.364341139793396 0.17829453945159912
-0.21715860068798065 0.37984490394592285 -0.5193798542022705
-0.21064941585063934 0.37984490394592285 -0.41085273027420044
-0.2198878973722458 0.37984490394592285 -0.24031007289886475
-0.20933061838150024 0.37984490394592285 -0.1627907156944275
-0.21152162551879883 0.37984490394592285 -0.14728683233261108
-0.21265380084514618 0.37984490394592285 -0.13178294897079468
-0.21553108096122742 0.37984490394592285 -0.11627906560897827
-0.21880197525024414 0.37984490394592285 -0.10077518224716187
-0.2186741679906845 0.37984490394592285 -0.08527129888534546
-0.22068901360034943 0.37984490394592285 -0.06976741552352905
-0.2210732400417328 0.37984490394592285 -0.02325582504272461
-0.2212570607662201 0.37984490394592285 0.16279065608978271
-0.21716248989105225 0.39534878730773926 -0.5193798542022705
-0.2150329351425171 0.39534878730773926 -0.42635661363601685
-0.21090693771839142 0.39534878730773926 -0.24031007289886475
-0.2210816740989685 0.39534878730773926 -0.22480618953704834
-0.21198849380016327 0.39534878730773926 -0.11627906560897827
-0.21531730890274048 0.39534878730773926 -0.10077518224716187
-0.21438908576965332 0.39534878730773926 -0.08527129888534546
-0.21393230557441711 0.39534878730773926 -0.06976741552352905
-0.21546784043312073 0.39534878730773926 -0.05426359176635742
-0.2157875895500183 0.39534878730773926 -0.038759708404541016
-0.20945242047309875 0.39534878730773926 -0.02325582504272461
-0.21010911464691162 0.39534878730773926 0.16279065608978271
-0.21690060198307037 0.41085267066955566 -0.5193798542022705
-0.2123894840478897 0.41085267066955566 -0.22480618953704834
-0.22199763357639313 0.41085267066955566 -0.20930230617523193
-0.20964039862155914 0.41085267066955566 -0.10077518224716187
-0.21552231907844543 0.41085267066955566 0.1472867727279663
-0.21664737164974213 0.42635655403137207 -0.5193798542022705
-0.21189038455486298 0.42635655403137207 -0.20930230617523193
-0.22118854522705078 0.42635655403137207 -0.19379842281341553
-0.2173977494239807 0.42635655403137207 0.1317828893661499
-0.21665629744529724 0.4418604373931885 -0.5193798542022705
-0.21065475046634674 0.4418604373931885 -0.19379842281341553
-0.21938496828079224 0.4418604373931885 -0.1782945990562439
-0.21774454414844513 0.4418604373931885 0.11627912521362305
-0.21703606843948364 0.4573643207550049 -0.5193798542022705
-0.21805495023727417 0.4573643207550049 -0.1627907156944275
-0.2173003852367401 0.4573643207550049 0.10077524185180664
-0.2174292504787445 0.4728682041168213 -0.5193798542022705
-0.21843339502811432 0.4728682041168213 -0.14728683233261108
-0.21666523814201355 0.4728682041168213 0.08527135848999023
-0.21820831298828125 0.4883720874786377 -0.5193798542022705
-0.2106645107269287 0.4883720874786377 -0.14728683233261108
-0.22235552966594696 0.4883720874786377 -0.13178294897079468
-0.21597400307655334 0.4883720874786377 0.06976747512817383
-0.2191062718629837 0.5038759708404541 -0.5193798542022705
-0.21461844444274902 0.5038759708404541 -0.13178294897079468
-0.224717378616333 0.5038759708404541 -0.007751941680908203
-0.22395969927310944 0.5038759708404541 0.007751941215246916
-0.2225341796875 0.5038759708404541 0.02325582504272461
-0.21916893124580383 0.5038759708404541 0.038759708404541016
-0.2140158712863922 0.5038759708404541 0.05426359176635742
-0.22002558410167694 0.5193798542022705 -0.5193798542022705
-0.21560020744800568 0.5193798542022705 -0.11627906560897827
-0.22020845115184784 0.5193798542022705 -0.10077518224716187
-0.22102797031402588 0.5193798542022705 -0.08527129888534546
-0.21950891613960266 0.5193798542022705 -0.06976741552352905
-0.21704372763633728 0.5193798542022705 -0.05426359176635742
-0.21494734287261963 0.5193798542022705 -0.038759708404541016
-0.21343132853507996 0.5193798542022705 -0.02325582504272461
-0.21256741881370544 0.5193798542022705 -0.007751941680908203
-0.21186165511608124 0.5193798542022705 0.007751941680908203
-0.21080508828163147 0.5193798542022705 0.02325582504272461
-0.22103171050548553 0.5348837375640869 -0.5193798542022705
-0.21678809821605682 0.5348837375640869 -0.4418604373931885
-0.20951034128665924 0.5348837375640869 -0.08527129888534546
-0.2219018042087555 0.5503876209259033 -0.5193798542022705
-0.22257216274738312 0.5658915042877197 -0.5193798542022705
-0.2227681577205658 0.5813953876495361 -0.5193798542022705
-0.22240492701530457 0.5968992710113525 -0.5193798542022705
-0.22017285227775574 0.5968992710113525 -0.4573643207550049
-0.22161410748958588 0.612403154373169 -0.5193798542022705
-0.2204117625951767 0.6279069185256958 -0.5193798542022705
-0.21887198090553284 0.6434108018875122 -0.5193798542022705
-0.2181149423122406 0.6434108018875122 -0.4728682041168213
-0.21686920523643494 0.6589146852493286 -0.5193798542022705
-0.2207370400428772 0.6589146852493286 -0.5038759708404541
-0.22165048122406006 0.6589146852493286 -0.4883720874786377
-0.2128225415945053 0.6589146852493286 -0.4728682041168213
-0.21467769145965576 0.674418568611145 -0.5193798542022705
-0.21784362196922302 0.674418568611145 -0.5038759708404541
-0.217346653342247 0.674418568611145 -0.4883720874786377
-0.21027988195419312 0.674418568611145 -0.4728682041168213
-0.2120647132396698 0.6899224519729614 -0.5193798542022705
-0.21553435921669006 0.6899224519729614 -0.5038759708404541
-0.21478530764579773 0.6899224519729614 -0.4883720874786377
-0.20978249609470367 0.7054263353347778 -0.5193798542022705
-0.2127991020679474 0.7054263353347778 -0.5038759708404541
-0.21219725906848907 0.7054263353347778 -0.4883720874786377
-0.2102680504322052 0.7209302186965942 -0.5038759708404541
-0.20955032110214233 0.7209302186965942 -0.4883720874786377
-0.19919553399085999 -0.8294574022293091 -0.30232560634613037
-0.2029510736465454 -0.8294573426246643 -0.28682172298431396
-0.20289933681488037 -0.8294573426246643 -0.27131783962249756
-0.19890278577804565 -0.8294573426246643 -0.25581395626068115
-0.2018471360206604 -0.8139535188674927 -0.317829430103302
-0.20745675265789032 -0.8139535188674927 -0.30232560634613037
-0.20794475078582764 -0.8139535188674927 -0.24031005799770355
-0.19723981618881226 -0.8139535188674927 -0.22480618953704834
-0.19522030651569366 -0.7984496355056763 -0.3333333134651184
-0.20377568900585175 -0.7984496355056763 -0.317829430103302
-0.20801293849945068 -0.7984496355056763 -0.30232560634613037
-0.20910558104515076 -0.798449695110321 -0.25581398606300354
-0.2082052230834961 -0.7984496355056763 -0.24031007289886475
-0.2058754861354828 -0.7984496355056763 -0.22480618953704834
-0.19868060946464539 -0.7984496355056763 -0.20930230617523193
-0.1956271231174469 -0.7829457521438599 -0.3333333134651184
-0.20247992873191833 -0.7829457521438599 -0.317829430103302
-0.20613659918308258 -0.7829457521438599 -0.30232560634613037
-0.20673534274101257 -0.7829457521438599 -0.28682172298431396
-0.20626160502433777 -0.7829457521438599 -0.27131783962249756
-0.2058435082435608 -0.7829457521438599 -0.25581395626068115
-0.20457780361175537 -0.7829457521438599 -0.24031007289886475
-0.20263412594795227 -0.7829457521438599 -0.22480618953704834
-0.20016153156757355 -0.7829457521438599 -0.20930230617523193
-0.19549666345119476 -0.7829457521438599 -0.19379842281341553
-0.19397416710853577 -0.7674418687820435 -0.3333333134651184
-0.1998319774866104 -0.7674418687820435 -0.317829430103302
-0.2030734419822693 -0.7674418687820435 -0.30232560634613037
-0.2037557065486908 -0.7674418687820435 -0.28682172298431396
-0.20366594195365906 -0.7674418687820435 -0.27131783962249756
-0.20325309038162231 -0.7674418687820435 -0.25581395626068115
-0.20164310932159424 -0.7674418687820435 -0.24031007289886475
-0.19937554001808167 -0.7674418687820435 -0.22480618953704834
-0.19724947214126587 -0.7674418687820435 -0.20930230617523193
-0.19470994174480438 -0.7674418687820435 -0.19379842281341553
-0.1960732489824295 -0.751937985420227 -0.317829430103302
-0.198743999004364 -0.751937985420227 -0.30232560634613037
-0.20026978850364685 -0.751937985420227 -0.28682172298431396
-0.20083917677402496 -0.751937985420227 -0.27131783962249756
-0.20058047771453857 -0.751937985420227 -0.25581395626068115
-0.19915595650672913 -0.751937985420227 -0.24031007289886475
-0.19731000065803528 -0.751937985420227 -0.22480618953704834
-0.19513748586177826 -0.751937985420227 -0.20930230617523193
-0.19588491320610046 -0.7364341020584106 -0.30232560634613037
-0.19778865575790405 -0.7364341020584106 -0.28682172298431396
-0.1987197995185852 -0.7364341020584106 -0.27131783962249756
-0.19887220859527588 -0.7364341020584106 -0.25581395626068115
-0.1978740096092224 -0.7364341020584106 -0.24031007289886475
-0.19616663455963135 -0.7364341020584106 -0.22480618953704834
-0.19384746253490448 -0.7364341020584106 -0.20930230617523193
-0.19452938437461853 -0.7209302186965942 -0.30232560634613037
-0.19645796716213226 -0.7209302186965942 -0.28682172298431396
-0.1975371092557907 -0.7209302186965942 -0.27131783962249756
-0.19774457812309265 -0.7209302186965942 -0.25581395626068115
-0.19679901003837585 -0.7209302186965942 -0.24031007289886475
-0.19504740834236145 -0.7209302186965942 -0.22480618953704834
-0.1938786506652832 -0.7054263353347778 -0.30232560634613037
-0.1956011950969696 -0.7054263353347778 -0.28682172298431396
-0.19662335515022278 -0.7054263353347778 -0.27131783962249756
-0.19676406681537628 -0.7054263353347778 -0.25581395626068115
-0.19575569033622742 -0.7054263353347778 -0.24031007289886475
-0.19391930103302002 -0.7054263353347778 -0.22480618953704834
-0.19509750604629517 -0.6899224519729614 -0.28682172298431396
-0.1960003823041916 -0.6899224519729614 -0.27131783962249756
-0.1960718333721161 -0.6899224519729614 -0.25581395626068115
-0.19498339295387268 -0.6899224519729614 -0.24031007289886475
-0.1948418766260147 -0.674418568611145 -0.28682172298431396
-0.19561947882175446 -0.674418568611145 -0.27131783962249756
-0.19560837745666504 -0.674418568611145 -0.25581395626068115
-0.19444698095321655 -0.674418568611145 -0.24031007289886475
-0.1947460174560547 -0.6589146852493286 -0.28682172298431396
-0.19544558227062225 -0.6589146852493286 -0.27131783962249756
-0.1953866332769394 -0.6589146852493286 -0.25581395626068115
-0.1942135989665985 -0.6589146852493286 -0.24031007289886475
-0.19476737082004547 -0.643410861492157 -0.28682172298431396
-0.195420503616333 -0.643410861492157 -0.27131783962249756
-0.19532731175422668 -0.643410861492157 -0.25581395626068115
-0.194144606590271 -0.643410861492157 -0.24031007289886475
-0.19494201242923737 -0.6279069781303406 -0.28682172298431396
-0.19559338688850403 -0.6279069185256958 -0.27131783962249756
-0.19551526010036469 -0.6279069185256958 -0.25581395626068115
-0.19434531033039093 -0.6279069781303406 -0.24031007289886475
-0.19387537240982056 -0.6124030947685242 -0.30232560634613037
-0.19502970576286316 -0.6124030947685242 -0.28682172298431396
-0.19566622376441956 -0.6124030947685242 -0.27131783962249756
-0.19562199711799622 -0.6124030947685242 -0.25581395626068115
-0.19450117647647858 -0.6124030947685242 -0.24031007289886475
-0.1939283162355423 -0.5968992114067078 -0.30232560634613037
-0.195017009973526 -0.5968992114067078 -0.28682172298431396
-0.19563081860542297 -0.5968992114067078 -0.27131783962249756
-0.19563718140125275 -0.596899151802063 -0.25581395626068115
-0.19459576904773712 -0.5968992114067078 -0.24031007289886475
-0.19481161236763 -0.5813953876495361 -0.28682172298431396
-0.19543279707431793 -0.5813953876495361 -0.27131783962249756
-0.1954934000968933 -0.5813953876495361 -0.25581395626068115
-0.19454726576805115 -0.5813953876495361 -0.24031007289886475
-0.19477367401123047 -0.5658915042877197 -0.28682172298431396
-0.19544117152690887 -0.5658915042877197 -0.27131783962249756
-0.19553399085998535 -0.5658915042877197 -0.25581395626068115
-0.19466416537761688 -0.5658915042877197 -0.24031007289886475
-0.19497434794902802 -0.5503876209259033 -0.28682172298431396
-0.19570407271385193 -0.5503876209259033 -0.27131783962249756
-0.19580519199371338 -0.5503876209259033 -0.25581395626068115
-0.19499549269676208 -0.5503876209259033 -0.24031007289886475
-0.19510586559772491 -0.5348837375640869 -0.28682172298431396
-0.19593480229377747 -0.5348837375640869 -0.27131783962249756
-0.19608303904533386 -0.5348837375640869 -0.25581395626068115
-0.1953524947166443 -0.5348837375640869 -0.24031007289886475
-0.19403532147407532 -0.5348837375640869 -0.22480618953704834
-0.19385893642902374 -0.5193798542022705 -0.30232560634613037
-0.19541426002979279 -0.5193798542022705 -0.28682172298431396
-0.1963823437690735 -0.5193798542022705 -0.27131783962249756
-0.19663551449775696 -0.5193798542022705 -0.25581395626068115
-0.1960030198097229 -0.5193798542022705 -0.24031007289886475
-0.1947668045759201 -0.5193798542022705 -0.22480618953704834
-0.19419658184051514 -0.5038759708404541 -0.30232560634613037
-0.19582882523536682 -0.5038759708404541 -0.28682172298431396
-0.19690683484077454 -0.5038759708404541 -0.27131783962249756
-0.19727197289466858 -0.5038759708404541 -0.25581395626068115
-0.19673949480056763 -0.5038759708404541 -0.24031007289886475
-0.19559146463871002 -0.5038759708404541 -0.22480618953704834
-0.19403931498527527 -0.5038759708404541 -0.20930230617523193
-0.19470006227493286 -0.4883720874786377 -0.30232560634613037
-0.1963914930820465 -0.4883720874786377 -0.28682172298431396
-0.19753527641296387 -0.4883720874786377 -0.27131783962249756
-0.19799399375915527 -0.4883720874786377 -0.25581395626068115
-0.1975688636302948 -0.4883720874786377 -0.24031007289886475
-0.19653144478797913 -0.4883720874786377 -0.22480618953704834
-0.19504885375499725 -0.4883720874786377 -0.20930230617523193
-0.1938469260931015 -0.4728682041168213 -0.317829430103302
-0.1952737271785736 -0.4728682041168213 -0.30232560634613037
-0.19700545072555542 -0.4728682041168213 -0.28682172298431396
-0.198183074593544 -0.4728682041168213 -0.27131783962249756
-0.19871845841407776 -0.4728682041168213 -0.25581395626068115
-0.19839534163475037 -0.4728682041168213 -0.24031007289886475
-0.1974804699420929 -0.4728682041168213 -0.22480618953704834
-0.19609613716602325 -0.4728682041168213 -0.20930230617523193
-0.19433096051216125 -0.4728682041168213 -0.19379842281341553
-0.19426295161247253 -0.4573643207550049 -0.317829430103302
-0.1957654505968094 -0.4573643207550049 -0.30232560634613037
-0.1975652575492859 -0.4573643207550049 -0.28682172298431396
-0.19877886772155762 -0.4573643207550049 -0.27131783962249756
-0.19940730929374695 -0.4573643207550049 -0.25581395626068115
-0.1991751343011856 -0.4573643207550049 -0.24031007289886475
-0.1983630657196045 -0.4573643207550049 -0.22480618953704834
-0.19710704684257507 -0.4573643207550049 -0.20930230617523193
-0.19540034234523773 -0.4573643207550049 -0.19379842281341553
-0.19468353688716888 -0.4418604373931885 -0.317829430103302
-0.1963312029838562 -0.4418604373931885 -0.30232560634613037
-0.19823236763477325 -0.4418604373931885 -0.28682172298431396
-0.19947806000709534 -0.4418604373931885 -0.27131783962249756
-0.2002011239528656 -0.4418604373931885 -0.25581395626068115
-0.2000144124031067 -0.4418604373931885 -0.24031007289886475
-0.19922679662704468 -0.4418604373931885 -0.22480618953704834
-0.19804680347442627 -0.4418604373931885 -0.20930230617523193
-0.19645659625530243 -0.4418604373931885 -0.19379842281341553
-0.1948467195034027 -0.4418604373931885 -0.1782945990562439
-0.1940135806798935 -0.42635661363601685 -0.3333333134651184
-0.19511628150939941 -0.42635661363601685 -0.317829430103302
-0.19700798392295837 -0.42635661363601685 -0.30232560634613037
-0.19903352856636047 -0.42635661363601685 -0.28682172298431396
-0.20039702951908112 -0.42635661363601685 -0.27131783962249756
-0.20114117860794067 -0.42635661363601685 -0.25581395626068115
-0.20095640420913696 -0.42635661363601685 -0.24031007289886475
-0.20017395913600922 -0.42635661363601685 -0.22480618953704834
-0.1989547610282898 -0.42635661363601685 -0.20930230617523193
-0.19742494821548462 -0.42635661363601685 -0.19379842281341553
-0.1959473192691803 -0.42635661363601685 -0.1782945990562439
-0.19395871460437775 -0.42635661363601685 -0.1627907156944275
-0.1939466893672943 -0.41085273027420044 -0.3488371968269348
-0.1943259984254837 -0.41085273027420044 -0.3333333134651184
-0.19549967348575592 -0.41085273027420044 -0.317829430103302
-0.1974804401397705 -0.41085273027420044 -0.30232560634613037
-0.19949811697006226 -0.41085273027420044 -0.28682172298431396
-0.20090067386627197 -0.41085273027420044 -0.27131783962249756
-0.20161505043506622 -0.41085273027420044 -0.25581395626068115
-0.20150601863861084 -0.41085273027420044 -0.24031007289886475
-0.20087912678718567 -0.41085273027420044 -0.22480618953704834
-0.19971366226673126 -0.41085273027420044 -0.20930230617523193
-0.198172926902771 -0.41085273027420044 -0.19379842281341553
-0.19685913622379303 -0.41085273027420044 -0.1782945990562439
-0.19496701657772064 -0.41085273027420044 -0.1627907156944275
-0.19421280920505524 -0.39534884691238403 -0.3643410801887512
-0.1945716291666031 -0.39534884691238403 -0.3488371968269348
-0.19490021467208862 -0.39534884691238403 -0.3333333134651184
-0.19607070088386536 -0.39534884691238403 -0.317829430103302
-0.19787080585956573 -0.39534884691238403 -0.30232560634613037
-0.1997838318347931 -0.39534884691238403 -0.28682172298431396
-0.20127955079078674 -0.39534884691238403 -0.27131783962249756
-0.20218110084533691 -0.39534884691238403 -0.25581395626068115
-0.20231235027313232 -0.39534884691238403 -0.24031007289886475
-0.2019556164741516 -0.39534884691238403 -0.22480618953704834
-0.20092561841011047 -0.39534884691238403 -0.20930230617523193
-0.19921906292438507 -0.39534884691238403 -0.19379842281341553
-0.197970449924469 -0.39534884691238403 -0.1782945990562439
-0.19627512991428375 -0.39534884691238403 -0.1627907156944275
-0.19417952001094818 -0.39534884691238403 -0.14728683233261108
-0.1979111284017563 -0.39534884691238403 0.39534878730773926
-0.20243214070796967 -0.39534884691238403 0.41085267066955566
-0.2056502252817154 -0.39534884691238403 0.42635655403137207
-0.20706766843795776 -0.3953488767147064 0.44186046719551086
-0.20623484253883362 -0.3953488767147064 0.45736435055732727
-0.19914698600769043 -0.39534884691238403 0.4728682041168213
-0.19429972767829895 -0.3798449635505676 -0.3798449635505676
-0.19510868191719055 -0.3798449635505676 -0.3643410801887512
-0.19545911252498627 -0.3798449635505676 -0.3488371968269348
-0.19576308131217957 -0.3798449635505676 -0.3333333134651184
-0.19680577516555786 -0.3798449635505676 -0.317829430103302
-0.1984315812587738 -0.3798449635505676 -0.30232560634613037
-0.20037038624286652 -0.3798449635505676 -0.28682172298431396
-0.20205926895141602 -0.3798449635505676 -0.27131783962249756
-0.2031075358390808 -0.3798449635505676 -0.25581395626068115
-0.20339064300060272 -0.3798449635505676 -0.24031007289886475
-0.20324979722499847 -0.3798449635505676 -0.22480618953704834
-0.20246830582618713 -0.3798449635505676 -0.20930230617523193
-0.20076413452625275 -0.3798449635505676 -0.19379842281341553
-0.19935283064842224 -0.3798449635505676 -0.1782945990562439
-0.19784744083881378 -0.3798449635505676 -0.1627907156944275
-0.19573695957660675 -0.3798449635505676 -0.14728683233261108
-0.2007163166999817 -0.3798449635505676 0.37984490394592285
-0.20496410131454468 -0.3798449635505676 0.4728682041168213
-0.19413185119628906 -0.3643410801887512 -0.39534884691238403
-0.19521406292915344 -0.3643410801887512 -0.3798449635505676
-0.19607065618038177 -0.3643410801887512 -0.3643410801887512
-0.1964142620563507 -0.3643410801887512 -0.3488371968269348
-0.19671811163425446 -0.3643410801887512 -0.3333333134651184
-0.19768036901950836 -0.3643410801887512 -0.317829430103302
-0.19923126697540283 -0.3643410801887512 -0.30232560634613037
-0.20119668543338776 -0.3643410801887512 -0.28682172298431396
-0.20297130942344666 -0.3643410801887512 -0.27131783962249756
-0.20401564240455627 -0.3643410801887512 -0.25581395626068115
-0.20439350605010986 -0.3643410801887512 -0.24031007289886475
-0.2043723165988922 -0.3643410801887512 -0.22480618953704834
-0.20372259616851807 -0.3643410801887512 -0.20930230617523193
-0.20233610272407532 -0.3643410801887512 -0.19379842281341553
-0.2009560912847519 -0.3643410801887512 -0.1782945990562439
-0.19941256940364838 -0.3643410801887512 -0.1627907156944275
-0.1975858360528946 -0.3643410801887512 -0.14728683233261108
-0.19529521465301514 -0.3643410801887512 -0.13178294897079468
-0.19719727337360382 -0.3643410801887512 0.364341139793396
-0.2051776647567749 -0.3643410801887512 0.4728682041168213
-0.1954447478055954 -0.3488371968269348 -0.39534884691238403
-0.1966111660003662 -0.3488371968269348 -0.3798449635505676
-0.19749031960964203 -0.3488371968269348 -0.3643410801887512
-0.19785253703594208 -0.3488371968269348 -0.3488371968269348
-0.19823162257671356 -0.3488371968269348 -0.3333333134651184
-0.19920478761196136 -0.3488371968269348 -0.317829430103302
-0.20064479112625122 -0.3488371968269348 -0.30232560634613037
-0.2026427686214447 -0.3488371968269348 -0.28682172298431396
-0.2042883336544037 -0.3488371968269348 -0.27131783962249756
-0.20538020133972168 -0.3488371968269348 -0.25581395626068115
-0.20603683590888977 -0.3488371968269348 -0.24031007289886475
-0.20624752342700958 -0.3488371968269348 -0.22480618953704834
-0.20568698644638062 -0.3488371968269348 -0.20930230617523193
-0.20411375164985657 -0.3488371968269348 -0.19379842281341553
-0.20296409726142883 -0.3488371968269348 -0.1782945990562439
-0.201490581035614 -0.3488371968269348 -0.1627907156944275
-0.20000553131103516 -0.3488371968269348 -0.14728683233261108
-0.19795748591423035 -0.3488371968269348 -0.13178294897079468
-0.19572670757770538 -0.3488371968269348 -0.11627906560897827
-0.19381016492843628 -0.3488371968269348 -0.10077518224716187
-0.2047235369682312 -0.3488371968269348 0.364341139793396
-0.1998772919178009 -0.3488371968269348 0.4728682041168213
-0.1951647698879242 -0.3333333134651184 -0.41085273027420044
-0.19718676805496216 -0.3333333134651184 -0.39534884691238403
-0.19829639792442322 -0.3333333134651184 -0.3798449635505676
-0.19918686151504517 -0.3333333134651184 -0.3643410801887512
-0.19965007901191711 -0.3333333134651184 -0.3488371968269348
-0.20013479888439178 -0.3333333134651184 -0.3333333134651184
-0.20112130045890808 -0.3333333134651184 -0.317829430103302
-0.20254327356815338 -0.3333333134651184 -0.30232560634613037
-0.20440462231636047 -0.3333333134651184 -0.28682172298431396
-0.20583254098892212 -0.3333333134651184 -0.27131783962249756
-0.20741057395935059 -0.3333333134651184 -0.25581395626068115
-0.20877352356910706 -0.3333333134651184 -0.24031007289886475
-0.20714466273784637 -0.3333333134651184 -0.19379842281341553
-0.2052464485168457 -0.3333333134651184 -0.1782945990562439
-0.203730970621109 -0.3333333134651184 -0.1627907156944275
-0.20228490233421326 -0.3333333134651184 -0.14728683233261108
-0.20105929672718048 -0.3333333134651184 -0.13178294897079468
-0.19916778802871704 -0.3333333134651184 -0.11627906560897827
-0.19678649306297302 -0.3333333134651184 -0.10077518224716187
-0.1942196488380432 -0.3333333134651184 -0.08527129888534546
-0.1959553062915802 -0.3333333134651184 0.3488372564315796
-0.1938064843416214 -0.3333333134651184 0.4728682041168213
-0.19426937401294708 -0.317829430103302 -0.42635661363601685
-0.19677308201789856 -0.317829430103302 -0.41085273027420044
-0.1987512707710266 -0.317829430103302 -0.39534884691238403
-0.19968967139720917 -0.317829430103302 -0.3798449635505676
-0.20064333081245422 -0.317829430103302 -0.3643410801887512
-0.2013205587863922 -0.317829430103302 -0.3488371968269348
-0.20204471051692963 -0.317829430103302 -0.3333333134651184
-0.20311444997787476 -0.317829430103302 -0.317829430103302
-0.20434348285198212 -0.317829430103302 -0.30232560634613037
-0.2058154046535492 -0.317829430103302 -0.28682172298431396
-0.20751717686653137 -0.317829430103302 -0.27131783962249756
-0.206115260720253 -0.317829430103302 -0.16279073059558868
-0.20445051789283752 -0.317829430103302 -0.14728683233261108
-0.20333045721054077 -0.317829430103302 -0.13178294897079468
-0.2022111862897873 -0.317829430103302 -0.11627906560897827
-0.20050019025802612 -0.317829430103302 -0.10077518224716187
-0.19773104786872864 -0.317829430103302 -0.08527129888534546
-0.19556543231010437 -0.317829430103302 -0.06976741552352905
-0.19439959526062012 -0.317829430103302 -0.05426359176635742
-0.19404727220535278 -0.317829430103302 -0.038759708404541016
-0.20654086768627167 -0.317829430103302 0.3488372564315796
-0.19606681168079376 -0.30232560634613037 -0.42635661363601685
-0.19875898957252502 -0.30232560634613037 -0.41085273027420044
-0.20039735734462738 -0.30232560634613037 -0.39534884691238403
-0.20137742161750793 -0.30232560634613037 -0.3798449635505676
-0.2026444375514984 -0.30232560634613037 -0.3643410801887512
-0.20355159044265747 -0.30232560634613037 -0.3488371968269348
-0.20435872673988342 -0.30232560634613037 -0.3333333134651184
-0.2052285075187683 -0.30232560634613037 -0.317829430103302
-0.20622314512729645 -0.30232560634613037 -0.30232560634613037
-0.20788021385669708 -0.30232560634613037 -0.28682172298431396
-0.20781894028186798 -0.30232560634613037 -0.14728684723377228
-0.20605748891830444 -0.30232560634613037 -0.13178294897079468
-0.20473234355449677 -0.30232560634613037 -0.11627906560897827
-0.2034492790699005 -0.30232560634613037 -0.10077518224716187
-0.20174311101436615 -0.30232560634613037 -0.08527129888534546
-0.1999736726284027 -0.30232560634613037 -0.06976741552352905
-0.19851356744766235 -0.30232560634613037 -0.05426359176635742
-0.19804586470127106 -0.30232560634613037 -0.038759708404541016
-0.19714581966400146 -0.30232560634613037 -0.02325582504272461
-0.19575965404510498 -0.30232560634613037 -0.007751941680908203
-0.20401060581207275 -0.30232560634613037 0.4573643207550049
-0.19508810341358185 -0.28682172298431396 -0.4418604373931885
-0.19854339957237244 -0.28682172298431396 -0.42635661363601685
-0.20094527304172516 -0.28682172298431396 -0.41085273027420044
-0.20262348651885986 -0.28682172298431396 -0.39534884691238403
-0.20334160327911377 -0.28682172298431396 -0.3798449635505676
-0.20462436974048615 -0.28682172298431396 -0.3643410801887512
-0.2059527039527893 -0.28682172298431396 -0.3488371968269348
-0.20717938244342804 -0.28682172298431396 -0.3333333134651184
-0.20844952762126923 -0.28682172298431396 -0.317829430103302
-0.20730513334274292 -0.28682172298431396 -0.10077518224716187
-0.20506292581558228 -0.28682172298431396 -0.08527129888534546
-0.20359086990356445 -0.28682172298431396 -0.06976741552352905
-0.2024918496608734 -0.28682172298431396 -0.05426359176635742
-0.20203599333763123 -0.28682172298431396 -0.038759708404541016
-0.20154044032096863 -0.28682172298431396 -0.02325582504272461
-0.2008608877658844 -0.28682172298431396 -0.007751941680908203
-0.19927948713302612 -0.28682172298431396 0.007751941680908203
-0.19624368846416473 -0.28682172298431396 0.02325582504272461
-0.194139301776886 -0.28682172298431396 0.038759708404541016
-0.197162464261055 -0.28682172298431396 0.3333333730697632
-0.19426804780960083 -0.27131783962249756 -0.4573643207550049
-0.1976400911808014 -0.27131783962249756 -0.4418604373931885
-0.20110169053077698 -0.27131783962249756 -0.42635661363601685
-0.20347753167152405 -0.27131783962249756 -0.41085273027420044
-0.2045740932226181 -0.27131783962249756 -0.39534884691238403
-0.2066677063703537 -0.27131783962249756 -0.3798449635505676
-0.20725098252296448 -0.27131783962249756 -0.05426359176635742
-0.2062254250049591 -0.27131783962249756 -0.038759708404541016
-0.20536155998706818 -0.27131783962249756 -0.02325582504272461
-0.20476609468460083 -0.27131783962249756 -0.007751941680908203
-0.2038811445236206 -0.27131783962249756 0.007751941680908203
-0.20267519354820251 -0.27131783962249756 0.02325582504272461
-0.20140790939331055 -0.27131783962249756 0.038759708404541016
-0.19896286725997925 -0.27131783962249756 0.05426359176635742
-0.19404739141464233 -0.27131783962249756 0.06976747512817383
-0.19526447355747223 -0.27131783962249756 0.28682172298431396
-0.20418670773506165 -0.27131783962249756 0.30232560634613037
-0.20207327604293823 -0.27131783962249756 0.4418604373931885
-0.19674311578273773 -0.25581395626068115 -0.4573643207550049
-0.20050138235092163 -0.25581395626068115 -0.4418604373931885
-0.20405066013336182 -0.25581395626068115 -0.42635661363601685
-0.20580293238162994 -0.25581395626068115 -0.41085270047187805
-0.20811103284358978 -0.25581395626068115 0.02325582504272461
-0.20711340010166168 -0.25581395626068115 0.038759708404541016
-0.20541906356811523 -0.25581395626068115 0.05426359176635742
-0.20242024958133698 -0.25581395626068115 0.06976747512817383
-0.19741415977478027 -0.25581395626068115 0.08527135848999023
-0.19682346284389496 -0.25581395626068115 0.22480618953704834
-0.20096418261528015 -0.25581395626068115 0.24031007289886475
-0.2079191356897354 -0.25581395626068115 0.25581395626068115
-0.20841601490974426 -0.25581395626068115 0.42635655403137207
-0.19593778252601624 -0.24031007289886475 -0.4728682041168213
-0.19948558509349823 -0.24031007289886475 -0.4573643207550049
-0.20334061980247498 -0.24031007289886475 -0.4418604373931885
-0.2064191699028015 -0.24031007289886475 -0.42635661363601685
-0.19414056837558746 -0.24031007289886475 -0.19379842281341553
-0.19438686966896057 -0.24031007289886475 -0.1782945990562439
-0.20566566288471222 -0.24031007289886475 0.08527135848999023
-0.20127837359905243 -0.24031007289886475 0.10077524185180664
-0.19622746109962463 -0.24031007289886475 0.11627912521362305
-0.19645042717456818 -0.24031007289886475 0.17829453945159912
-0.20540443062782288 -0.24031007289886475 0.19379842281341553
-0.195447638630867 -0.22480618953704834 -0.4883720874786377
-0.19840487837791443 -0.22480618953704834 -0.4728682041168213
-0.2019074559211731 -0.22480618953704834 -0.4573643207550049
-0.2058161199092865 -0.22480618953704834 -0.44186046719551086
-0.19533641636371613 -0.22480618953704834 -0.20930230617523193
-0.19884712994098663 -0.22480618953704834 -0.19379842281341553
-0.19933122396469116 -0.22480618953704834 -0.1782945990562439
-0.1978568732738495 -0.22480618953704834 -0.1627907156944275
-0.19622546434402466 -0.22480618953704834 -0.14728683233261108
-0.19491805136203766 -0.22480618953704834 -0.13178294897079468
-0.19422736763954163 -0.22480618953704834 -0.11627906560897827
-0.1946229189634323 -0.22480618953704834 -0.10077518224716187
-0.19492124021053314 -0.22480618953704834 -0.08527129888534546
-0.19555087387561798 -0.22480618953704834 -0.06976741552352905
-0.19632044434547424 -0.22480618953704834 -0.05426359176635742
-0.19735383987426758 -0.22480618953704834 -0.038759708404541016
-0.1964370459318161 -0.22480618953704834 -0.02325582504272461
-0.2086006999015808 -0.22480618953704834 0.11627911776304245
-0.20735599100589752 -0.22480618953704834 0.1317828893661499
-0.20903290808200836 -0.22480618953704834 0.14728675782680511
-0.19884051382541656 -0.22480618953704834 0.41085267066955566
-0.19786162674427032 -0.20930230617523193 -0.4883720874786377
-0.2007857859134674 -0.20930230617523193 -0.4728682041168213
-0.20436212420463562 -0.20930230617523193 -0.4573643207550049
-0.20789650082588196 -0.20930230617523193 -0.4418604075908661
-0.194831982254982 -0.20930230617523193 -0.22480618953704834
-0.20149347186088562 -0.20930230617523193 -0.20930230617523193
-0.2055281400680542 -0.20930230617523193 -0.19379842281341553
-0.20633545517921448 -0.20930230617523193 -0.1782945990562439
-0.20534545183181763 -0.20930230617523193 -0.1627907156944275
-0.204289972782135 -0.20930230617523193 -0.14728683233261108
-0.20341888070106506 -0.20930232107639313 -0.13178294897079468
-0.2030143141746521 -0.20930230617523193 -0.11627907305955887
-0.20399150252342224 -0.20930230617523193 -0.10077518224716187
-0.20479297637939453 -0.20930230617523193 -0.08527129888534546
-0.20561712980270386 -0.20930230617523193 -0.06976741552352905
-0.20609217882156372 -0.20930230617523193 -0.05426359549164772
-0.2065158486366272 -0.20930230617523193 -0.038759708404541016
-0.20528849959373474 -0.20930230617523193 -0.02325582504272461
-0.2020900696516037 -0.20930230617523193 -0.007751941680908203
-0.1956339180469513 -0.20930230617523193 0.007751941680908203
-0.20848627388477325 -0.20930230617523193 0.39534878730773926
-0.19604232907295227 -0.19379842281341553 -0.5038759708404541
-0.2005610167980194 -0.19379842281341553 -0.4883720874786377
-0.203159362077713 -0.19379842281341553 -0.4728682041168213
-0.20664474368095398 -0.19379842281341553 -0.4573643207550049
-0.1950036585330963 -0.19379842281341553 -0.24031007289886475
-0.20414403080940247 -0.19379842281341553 -0.22480618953704834
-0.20650938153266907 -0.19379840791225433 0.007751941680908203
-0.19638478755950928 -0.19379842281341553 0.02325582504272461
-0.20271578431129456 -0.19379842281341553 0.28682172298431396
-0.20234814286231995 -0.19379842281341553 0.39534878730773926
-0.198433518409729 -0.1782945990562439 -0.5038759708404541
-0.2026721090078354 -0.1782945990562439 -0.4883720874786377
-0.20560714602470398 -0.1782945990562439 -0.4728681743144989
-0.20909389853477478 -0.1782945990562439 -0.4573643207550049
-0.19495046138763428 -0.1782945990562439 -0.3798449635505676
-0.19426338374614716 -0.1782945990562439 -0.3643410801887512
-0.2068951427936554 -0.1782945990562439 -0.24031007289886475
-0.1958690881729126 -0.1782945990562439 0.038759708404541016
-0.19822944700717926 -0.1782945990562439 0.39534878730773926
-0.20104500651359558 -0.1627907156944275 -0.5038759708404541
-0.20511865615844727 -0.1627907156944275 -0.4883720874786377
-0.2082158327102661 -0.1627907156944275 -0.4728682041168213
-0.1954202502965927 -0.1627907156944275 -0.39534884691238403
-0.1969703584909439 -0.1627907156944275 -0.3798449635505676
-0.1962946355342865 -0.1627907156944275 -0.3643410801887512
-0.1951984465122223 -0.1627907156944275 -0.3488371968269348
-0.19422414898872375 -0.1627907156944275 -0.3333333134651184
-0.20497626066207886 -0.1627907156944275 -0.25581395626068115
-0.19582009315490723 -0.1627907156944275 0.05426359176635742
-0.20517410337924957 -0.1627907156944275 0.19379842281341553
-0.19435381889343262 -0.1627907156944275 0.39534878730773926
-0.20336005091667175 -0.14728683233261108 -0.5038759708404541
-0.20779168605804443 -0.14728683233261108 -0.4883720874786377
-0.19727206230163574 -0.14728683233261108 -0.39534884691238403
-0.1993708610534668 -0.14728683233261108 -0.3798449635505676
-0.19886040687561035 -0.14728683233261108 -0.3643410801887512
-0.1982380747795105 -0.14728683233261108 -0.3488371968269348
-0.19777372479438782 -0.14728683233261108 -0.3333333134651184
-0.19605626165866852 -0.14728683233261108 -0.317829430103302
-0.19406530261039734 -0.14728683233261108 -0.30232560634613037
-0.20238330960273743 -0.14728683233261108 -0.27131783962249756
-0.2080056071281433 -0.14728683233261108 0.05426359176635742
-0.19767597317695618 -0.14728683233261108 0.06976747512817383
-0.207658588886261 -0.14728683233261108 0.37984490394592285
-0.20540140569210052 -0.13178294897079468 -0.5038759708404541
-0.19977574050426483 -0.13178294897079468 -0.39534884691238403
-0.20243732631206512 -0.13178294897079468 -0.3798449635505676
-0.2022406905889511 -0.13178294897079468 -0.3643410801887512
-0.20215043425559998 -0.13178294897079468 -0.3488371968269348
-0.20231086015701294 -0.13178294897079468 -0.3333333134651184
-0.2016003131866455 -0.13178294897079468 -0.317829430103302
-0.20144662261009216 -0.13178294897079468 -0.30232560634613037
-0.20431837439537048 -0.13178294897079468 -0.28682172298431396
-0.20710179209709167 -0.13178294897079468 0.06976747512817383
-0.19747446477413177 -0.13178294897079468 0.08527135848999023
-0.19526611268520355 -0.13178294897079468 0.17829453945159912
-0.2003227323293686 -0.13178294897079468 0.30232560634613037
-0.20288333296775818 -0.13178294897079468 0.37984490394592285
-0.20892399549484253 -0.11627907305955887 -0.5038759708404541
-0.1943647712469101 -0.11627906560897827 -0.41085273027420044
-0.2031826674938202 -0.11627906560897827 -0.39534884691238403
-0.20644119381904602 -0.11627906560897827 -0.3798449635505676
-0.20672260224819183 -0.11627906560897827 -0.3643410801887512
-0.20721551775932312 -0.11627906560897827 -0.3488371968269348
-0.208162322640419 -0.11627906560897827 -0.3333333134651184
-0.20881342887878418 -0.11627906560897827 -0.317829430103302
-0.20308181643486023 -0.11627906560897827 0.08527135848999023
-0.20878182351589203 -0.11627906560897827 0.17829453945159912
-0.19998809695243835 -0.11627906560897827 0.37984490394592285
-0.19644829630851746 -0.10077518224716187 -0.41085273027420044
-0.20692212879657745 -0.10077517479658127 -0.39534884691238403
-0.2057955414056778 -0.10077518224716187 0.08527135848999023
-0.1970154345035553 -0.10077518224716187 0.37984490394592285
-0.2003140151500702 -0.08527129888534546 -0.41085273027420044
-0.2074802964925766 -0.08527129143476486 0.08527135103940964
-0.2054586559534073 -0.06976741552352905 -0.4108527600765228
-0.20657585561275482 -0.06976741552352905 0.30232560634613037
-0.19820274412631989 -0.05426359176635742 -0.42635661363601685
-0.20422324538230896 -0.05426359549164772 0.364341139793396
-0.1948331743478775 -0.038759708404541016 -0.4418604373931885
-0.20308932662010193 -0.038759708404541016 -0.42635658383369446
-0.19629347324371338 -0.038759708404541016 0.364341139793396
-0.19467885792255402 -0.02325582504272461 -0.5193798542022705
-0.1994507908821106 -0.02325582504272461 -0.4418604373931885
-0.20866070687770844 -0.02325582504272461 -0.42635661363601685
-0.19998414814472198 -0.02325582504272461 0.19379842281341553
-0.19905604422092438 -0.02325582504272461 0.27131783962249756
-0.19999998807907104 -0.007751941680908203 -0.5193798542022705
-0.20306500792503357 -0.007751941680908203 -0.4418604373931885
-0.2077595293521881 -0.007751941680908203 0.08527135103940964
-0.20163536071777344 -0.007751941680908203 0.20930230617523193
-0.19885100424289703 -0.007751941680908203 0.25581395626068115
-0.20240935683250427 -0.007751941680908203 0.3488372564315796
-0.20287203788757324 0.007751941680908203 -0.5193798542022705
-0.19599121809005737 0.007751941680908203 -0.4573643207550049
-0.2068176567554474 0.007751941215246916 -0.4418604373931885
-0.20657868683338165 0.007751941680908203 0.08527135103940964
-0.20503777265548706 0.02325582690536976 -0.5193798542022705
-0.19682258367538452 0.02325582504272461 -0.4573643207550049
-0.20840764045715332 0.02325582504272461 -0.4418604373931885
-0.2068096250295639 0.02325582504272461 0.08527135848999023
-0.20423614978790283 0.02325582690536976 0.3333333730697632
-0.2055036723613739 0.038759708404541016 -0.5193798542022705
-0.19804322719573975 0.038759708404541016 -0.4573643207550049
-0.19664189219474792 0.038759708404541016 0.10077524185180664
-0.20765231549739838 0.05426359176635742 -0.5193798542022705
-0.1991688311100006 0.05426359176635742 -0.4573643207550049
-0.200349360704422 0.05426359176635742 0.10077524185180664
-0.20282314717769623 0.05426359176635742 0.3178294897079468
-0.20105278491973877 0.06976747512817383 -0.4573643207550049
-0.20293202996253967 0.06976747512817383 0.10077524185180664
-0.20219136774539948 0.08527135848999023 -0.4573643207550049
-0.19926601648330688 0.08527135848999023 0.10077524185180664
-0.20877185463905334 0.08527135848999023 0.30232560634613037
-0.20368444919586182 0.10077524185180664 -0.4573643207550049
-0.20184001326560974 0.10077524185180664 0.30232560634613037
-0.20561157166957855 0.11627912521362305 -0.4573643207550049
-0.2036682367324829 0.11627912521362305 0.08527135848999023
-0.1948823630809784 0.11627912521362305 0.30232560634613037
-0.20630881190299988 0.1317828893661499 -0.4573643207550049
-0.19706305861473083 0.1317828893661499 0.08527135848999023
-0.19675704836845398 0.1317828893661499 0.20930230617523193
-0.20594455301761627 0.1472867727279663 -0.4573643207550049
-0.20168733596801758 0.1472867727279663 0.22480618953704834
-0.20517051219940186 0.1472867727279663 0.28682172298431396
-0.2035602331161499 0.16279065608978271 -0.4573643207550049
-0.206260085105896 0.16279065608978271 0.06976747512817383
-0.20396418869495392 0.16279065608978271 0.22480618953704834
-0.19613522291183472 0.16279065608978271 0.28682172298431396
-0.19936521351337433 0.17829453945159912 -0.4573643207550049
-0.20869114995002747 0.17829453945159912 -0.4418604373931885
-0.1990748643875122 0.17829453945159912 0.06976747512817383
-0.19960033893585205 0.17829453945159912 0.17829453945159912
-0.1974554806947708 0.17829453945159912 0.22480618953704834
-0.19478021562099457 0.19379842281341553 -0.4573643207550049
-0.20335546135902405 0.19379842281341553 -0.4418604373931885
-0.20792800188064575 0.19379842281341553 -0.42635661363601685
-0.20547249913215637 0.19379842281341553 0.20930230617523193
-0.20120012760162354 0.19379842281341553 0.27131783962249756
-0.19764140248298645 0.20930230617523193 -0.4418604373931885
-0.20163360238075256 0.20930230617523193 -0.42635661363601685
-0.20697447657585144 0.20930230617523193 -0.41085273027420044
-0.20218943059444427 0.20930230617523193 0.05426359176635742
-0.19666337966918945 0.22480618953704834 -0.42635661363601685
-0.20336666703224182 0.22480618953704834 -0.41085273027420044
-0.20208503305912018 0.22480618953704834 0.25581395626068115
-0.2001379430294037 0.24031007289886475 -0.41085273027420044
-0.2016483098268509 0.24031007289886475 0.038759708404541016
-0.19483616948127747 0.25581395626068115 -0.41085273027420044
-0.20126715302467346 0.25581395626068115 0.24031007289886475
-0.2059006690979004 0.27131783962249756 -0.39534884691238403
-0.20203858613967896 0.27131783962249756 0.02325582504272461
-0.19613994657993317 0.28682172298431396 -0.39534884691238403
-0.20763123035430908 0.28682172298431396 -0.3798449635505676
-0.20488864183425903 0.28682172298431396 -0.3643410801887512
-0.20033420622348785 0.28682172298431396 -0.3488371968269348
-0.19961443543434143 0.28682172298431396 -0.3333333134651184
-0.19918304681777954 0.28682172298431396 -0.317829430103302
-0.19957482814788818 0.28682172298431396 -0.30232560634613037
-0.20049452781677246 0.28682172298431396 -0.28682172298431396
-0.20328013598918915 0.28682172298431396 -0.27131783962249756
-0.20161575078964233 0.28682172298431396 0.22480618953704834
-0.19651877880096436 0.30232560634613037 -0.3798449635505676
-0.1943739354610443 0.30232560634613037 -0.3643410801887512
-0.19390639662742615 0.30232560634613037 -0.25581395626068115
-0.19934405386447906 0.30232560634613037 -0.24031007289886475
-0.20681390166282654 0.30232560634613037 -0.22480618953704834
-0.2086578905582428 0.30232560634613037 0.007751941680908203
-0.1949838101863861 0.3178294897079468 -0.22480618953704834
-0.2042100727558136 0.3178294897079468 -0.20930230617523193
-0.2057274878025055 0.3178294897079468 0.007751941680908203
-0.20242531597614288 0.3178294897079468 0.20930230617523193
-0.19970878958702087 0.3333333730697632 -0.20930230617523193
-0.20886863768100739 0.3333333730697632 -0.19379842281341553
-0.20444504916667938 0.3333333730697632 0.007751941680908203
-0.2080235481262207 0.3488372564315796 -0.333333283662796
-0.20777404308319092 0.3488372564315796 -0.317829430103302
-0.20863252878189087 0.3488372564315796 -0.30232560634613037
-0.19795750081539154 0.3488372564315796 -0.20930230617523193
-0.20668832957744598 0.3488372564315796 -0.19379843771457672
-0.20204466581344604 0.3488372564315796 0.007751941680908203
-0.2039518803358078 0.3488372564315796 0.19379843771457672
-0.20223987102508545 0.364341139793396 -0.3798449635505676
-0.19771887362003326 0.364341139793396 -0.3643410801887512
-0.19455596804618835 0.364341139793396 -0.3488371968269348
