0.20930230617523193 -0.22480618953704834 -0.42797160148620605
0.20930230617523193 -0.22480618953704834 -0.21825341880321503
0.20930230617523193 -0.22480618953704834 0.027090638875961304
0.20930230617523193 -0.22480618953704834 0.356035441160202
0.20930230617523193 -0.20930230617523193 -0.4295101761817932
0.20930232107639313 -0.20930232107639313 -0.23496246337890625
0.20930230617523193 -0.20930230617523193 0.03573766350746155
0.20930230617523193 -0.20930230617523193 0.3626854121685028
0.20930230617523193 -0.19379842281341553 -0.4312857985496521
0.20930230617523193 -0.19379842281341553 -0.24820594489574432
0.20930230617523193 -0.19379842281341553 0.04789663851261139
0.20930230617523193 -0.19379842281341553 0.3681546449661255
0.20930230617523193 -0.1782945990562439 -0.43304136395454407
0.20930230617523193 -0.1782945990562439 -0.25754863023757935
0.20930230617523193 -0.1782945990562439 0.06468086689710617
0.20930230617523193 -0.1782945990562439 0.37289053201675415
0.20930230617523193 -0.1627907156944275 -0.4347728192806244
0.20930230617523193 -0.1627907156944275 -0.2617790102958679
0.20930230617523193 -0.1627907156944275 0.08744176477193832
0.20930230617523193 -0.1627907156944275 0.3777938783168793
0.20930230617523193 -0.14728683233261108 -0.436259925365448
0.20930230617523193 -0.14728683233261108 -0.2648898959159851
0.20930230617523193 -0.14728683233261108 0.11017879843711853
0.20930230617523193 -0.14728683233261108 0.38191574811935425
0.20930230617523193 -0.13178294897079468 -0.43745654821395874
0.20930230617523193 -0.13178294897079468 -0.2673340439796448
0.20930230617523193 -0.13178294897079468 0.12399893999099731
0.20930230617523193 -0.13178294897079468 0.3846077620983124
0.20930230617523193 -0.11627906560897827 -0.4386827349662781
0.20930230617523193 -0.11627906560897827 -0.2694666385650635
0.20930232107639313 -0.11627906560897827 0.1347341239452362
0.20930230617523193 -0.11627906560897827 0.38683265447616577
0.20930232107639313 -0.10077518224716187 -0.44031789898872375
0.20930230617523193 -0.10077518224716187 -0.27082359790802
0.20930230617523193 -0.10077518224716187 0.1417248249053955
0.20930230617523193 -0.10077518224716187 0.3877702057361603
0.20930230617523193 -0.08527129888534546 -0.4421219527721405
0.20930230617523193 -0.08527129888534546 -0.2734798789024353
0.20930230617523193 -0.08527129888534546 0.14764438569545746
0.20930230617523193 -0.08527129888534546 0.3878224194049835
0.20930230617523193 -0.06976741552352905 -0.4431306719779968
0.20930230617523193 -0.06976741552352905 -0.2756797969341278
0.20930230617523193 -0.06976741552352905 0.15261220932006836
0.20930230617523193 -0.06976741552352905 0.3872816562652588
0.20930230617523193 -0.05426359176635742 -0.4439012110233307
0.20930230617523193 -0.05426359176635742 -0.27646946907043457
0.20930230617523193 -0.05426359176635742 0.15531030297279358
0.20930230617523193 -0.05426359176635742 0.3864094018936157
0.20930230617523193 -0.038759708404541016 -0.4444761872291565
0.20930230617523193 -0.038759708404541016 -0.2766152024269104
0.20930230617523193 -0.038759708404541016 0.15685564279556274
0.20930230617523193 -0.038759708404541016 0.38484272360801697
0.20930230617523193 -0.02325582504272461 -0.44466662406921387
0.20930230617523193 -0.02325582504272461 -0.27765753865242004
0.20930230617523193 -0.02325582504272461 0.15986156463623047
0.20930230617523193 -0.02325582504272461 0.3822314143180847
0.20930230617523193 -0.007751941680908203 -0.44447061419487
0.20930230617523193 -0.007751941680908203 -0.2762954831123352
0.20930230617523193 -0.007751941680908203 0.16332979500293732
0.20930230617523193 -0.007751941680908203 0.3788134753704071
0.20930230617523193 0.007751941680908203 -0.44371795654296875
0.20930230617523193 0.007751941680908203 -0.2726961672306061
0.20930229127407074 0.007751941680908203 0.163289412856102
0.20930230617523193 0.007751941680908203 0.3741123676300049
0.20930230617523193 0.02325582504272461 -0.4425639808177948
0.20930230617523193 0.02325582504272461 -0.26420164108276367
0.20930230617523193 0.02325582504272461 0.15579552948474884
0.20930232107639313 0.02325582504272461 0.3696385622024536
0.20930230617523193 0.038759708404541016 -0.44081851840019226
0.20930230617523193 0.038759708404541016 -0.25929298996925354
0.20930230617523193 0.038759708404541016 0.13975895941257477
0.20930230617523193 0.038759708404541016 0.36392247676849365
0.20930230617523193 0.05426359176635742 -0.43901342153549194
0.20930230617523193 0.05426359176635742 -0.2570574879646301
0.20930230617523193 0.05426358804106712 0.11862374097108841
0.20930230617523193 0.05426359176635742 0.35626256465911865
0.20930230617523193 0.06976747512817383 -0.43772798776626587
0.20930230617523193 0.06976747512817383 -0.25582149624824524
0.20930229127407074 0.06976747512817383 0.09119988977909088
0.20930230617523193 0.06976747512817383 0.3477921187877655
0.20930230617523193 0.08527135848999023 -0.43680286407470703
0.20930230617523193 0.08527135848999023 -0.25191986560821533
0.20930230617523193 0.08527135848999023 0.07470282167196274
0.20930230617523193 0.08527135848999023 0.3382990062236786
0.20930230617523193 0.10077524185180664 -0.43610966205596924
0.20930230617523193 0.10077524185180664 -0.24976305663585663
0.20930230617523193 0.10077524185180664 0.06687338650226593
0.20930230617523193 0.10077524185180664 0.32721462845802307
0.20930230617523193 0.11627912521362305 -0.4352743625640869
0.20930230617523193 0.11627911776304245 -0.24951083958148956
0.20930230617523193 0.11627912521362305 0.05856898054480553
0.20930230617523193 0.11627912521362305 0.3156321346759796
0.20930230617523193 0.1317828893661499 -0.4343518018722534
0.20930230617523193 0.1317828893661499 -0.2537854015827179
0.20930230617523193 0.1317828893661499 0.04795127734541893
0.20930230617523193 0.1317828893661499 0.3037185072898865
0.20930230617523193 0.1472867727279663 -0.4333111643791199
0.20930230617523193 0.1472867727279663 -0.26274582743644714
0.20930230617523193 0.1472867727279663 0.03590906783938408
0.20930230617523193 0.1472867727279663 0.28880032896995544
0.20930230617523193 0.16279065608978271 -0.43204474449157715
0.20930230617523193 0.16279065608978271 -0.2716231048107147
0.20930230617523193 0.16279065608978271 0.02085885778069496
0.20930230617523193 0.16279065608978271 0.26944828033447266
0.20930230617523193 0.17829453945159912 -0.4302503168582916
0.20930230617523193 0.17829453945159912 -0.2759401202201843
0.20930230617523193 0.17829453945159912 0.001993217272683978
0.20930230617523193 0.17829453945159912 0.24609559774398804
0.20930230617523193 0.19379842281341553 -0.4282396137714386
0.20930230617523193 0.19379842281341553 -0.274711012840271
0.20930230617523193 0.19379842281341553 -0.016860676929354668
0.20930230617523193 0.19379842281341553 0.2162429392337799
0.20930230617523193 0.20930230617523193 -0.4265114963054657
0.20930230617523193 0.20930230617523193 -0.26506125926971436
0.20930230617523193 0.20930230617523193 -0.03794137015938759
0.20930230617523193 0.20930230617523193 0.17421501874923706
0.20930230617523193 0.22480618953704834 -0.42216330766677856
0.20930230617523193 0.22480618953704834 -0.24136210978031158
0.20930230617523193 0.22480618953704834 -0.13918718695640564
0.20930232107639313 0.22480618953704834 -0.09547398239374161
0.20930230617523193 0.22480618953704834 -0.0807846263051033
0.20930230617523193 0.22480620443820953 0.13241375982761383
0.20930230617523193 0.24031007289886475 -0.4190913438796997
0.20930230617523193 0.24031007289886475 0.09520482271909714
0.20930230617523193 0.25581395626068115 -0.4175548553466797
0.20930230617523193 0.25581395626068115 0.07413490861654282
0.20930230617523193 0.27131783962249756 -0.4157591760158539
0.20930230617523193 0.27131783962249756 0.057055242359638214
0.20930230617523193 0.28682172298431396 -0.4132552742958069
0.20930230617523193 0.28682172298431396 0.0360824353992939
0.20930230617523193 0.302325576543808 -0.4098936915397644
0.20930230617523193 0.30232560634613037 -0.05533573031425476
0.20930230617523193 0.3178294897079468 -0.40434128046035767
0.20930230617523193 0.3178294897079468 -0.07478239387273788
0.20930230617523193 0.3333333730697632 -0.398044228553772
0.20930230617523193 0.3333333730697632 -0.08853805065155029
0.20930230617523193 0.348837286233902 -0.3599908947944641
0.20930230617523193 0.3488372564315796 -0.10663585364818573
0.20930230617523193 0.364341139793396 -0.33151328563690186
0.20930230617523193 0.364341139793396 -0.15326327085494995
0.20930230617523193 0.37984490394592285 -0.3093032240867615
0.20930230617523193 0.37984490394592285 -0.19865871965885162
0.20930230617523193 0.39534878730773926 -0.2723187208175659
0.20930230617523193 0.39534878730773926 -0.24516934156417847
0.22480618953704834 -0.8759689927101135 -0.280371755361557
0.22480618953704834 -0.8759689927101135 -0.261846661567688
0.22480618953704834 -0.8604651093482971 -0.28832244873046875
0.22480618953704834 -0.8604650497436523 -0.25015756487846375
0.22480618953704834 -0.8449612259864807 -0.29190441966056824
0.22480618953704834 -0.8449612259864807 -0.24077901244163513
0.22480618953704834 -0.8294574022293091 -0.2956060767173767
0.22480618953704834 -0.8294574022293091 -0.22553682327270508
0.22480618953704834 -0.8139534592628479 -0.3014308214187622
0.22480618953704834 -0.8139535188674927 -0.18730926513671875
0.22480618953704834 -0.7984496355056763 -0.3052271902561188
0.22480618953704834 -0.7984496355056763 -0.13884800672531128
0.22480618953704834 -0.7829457521438599 -0.30928799510002136
0.22480618953704834 -0.7829457521438599 -0.1216067224740982
0.22480617463588715 -0.7674418687820435 -0.3150849938392639
0.22480618953704834 -0.7674418687820435 -0.11180127412080765
0.22480618953704834 -0.751937985420227 -0.32049596309661865
0.22480618953704834 -0.751937985420227 -0.10562577843666077
0.22480618953704834 -0.7364341020584106 -0.32679328322410583
0.22480618953704834 -0.7364341020584106 -0.10068584978580475
0.22480618953704834 -0.7209302186965942 -0.3364641070365906
0.22480618953704834 -0.7209302186965942 -0.09757229685783386
0.22480620443820953 -0.7054263353347778 -0.34539368748664856
0.22480618953704834 -0.7054263353347778 -0.09390774369239807
0.22480618953704834 -0.6899224519729614 -0.35316845774650574
0.22480618953704834 -0.6899224519729614 -0.08925658464431763
0.22480618953704834 -0.674418568611145 -0.3586643636226654
0.22480618953704834 -0.674418568611145 -0.08571044355630875
0.22480618953704834 -0.6589146852493286 -0.3646817207336426
0.22480618953704834 -0.6589146852493286 -0.08346059918403625
0.22480618953704834 -0.6589146852493286 0.3013822138309479
0.22480618953704834 -0.6589146852493286 0.35090911388397217
0.22480618953704834 -0.643410861492157 -0.36907339096069336
0.22480620443820953 -0.643410861492157 -0.08202672004699707
0.22480618953704834 -0.643410861492157 0.21440690755844116
0.22480618953704834 -0.643410861492157 0.35153353214263916
0.22480618953704834 -0.6279069781303406 -0.3718491196632385
0.22480620443820953 -0.6279069781303406 -0.08219152688980103
0.22480618953704834 -0.6279069781303406 0.177490234375
0.22480618953704834 -0.6279069781303406 0.34099337458610535
0.22480618953704834 -0.6124030351638794 -0.3744935393333435
0.22480618953704834 -0.6124030947685242 -0.08330176025629044
0.22480618953704834 -0.6124030947685242 0.16140048205852509
0.22480618953704834 -0.6124030947685242 0.3249530792236328
0.22480620443820953 -0.5968992114067078 -0.37814709544181824
0.22480618953704834 -0.5968992114067078 -0.0841483548283577
0.22480618953704834 -0.5968992114067078 0.15629884600639343
0.22480618953704834 -0.5968992114067078 0.2997232675552368
0.22480618953704834 -0.5813953876495361 -0.381462037563324
0.22480618953704834 -0.5813953876495361 -0.08408030867576599
0.22480618953704834 -0.5813953876495361 0.15047886967658997
0.22480618953704834 -0.5813953876495361 0.2778548300266266
0.22480618953704834 -0.5658915042877197 -0.38356906175613403
0.22480618953704834 -0.5658915042877197 -0.08241961896419525
0.22480618953704834 -0.5658915042877197 0.14500422775745392
0.22480618953704834 -0.5658915042877197 0.263005793094635
0.22480618953704834 -0.5503876209259033 -0.3854415714740753
0.22480618953704834 -0.5503876209259033 -0.07798715680837631
0.22480618953704834 -0.5503876209259033 0.14026157557964325
0.22480618953704834 -0.5503876209259033 0.25302454829216003
0.22480618953704834 -0.5348837375640869 -0.387077659368515
0.22480618953704834 -0.5348837375640869 -0.07292795181274414
0.22480618953704834 -0.5348837375640869 0.13096654415130615
0.22480618953704834 -0.5348837375640869 0.24698524177074432
0.22480618953704834 -0.5193798542022705 -0.3892170190811157
0.22480618953704834 -0.5193798542022705 -0.06373429298400879
0.22480618953704834 -0.5193798542022705 0.1269935518503189
0.22480618953704834 -0.5193798542022705 0.24412813782691956
0.22480620443820953 -0.5038759708404541 -0.39265725016593933
0.22480618953704834 -0.5038759708404541 -0.05485696718096733
0.22480618953704834 -0.5038759708404541 0.1156267523765564
0.22480618953704834 -0.5038759708404541 0.2412736862897873
0.22480618953704834 -0.4883720874786377 -0.39588630199432373
0.22480618953704834 -0.4883720874786377 -0.04213237017393112
0.22480617463588715 -0.4883720874786377 0.10466915369033813
0.22480618953704834 -0.4883720874786377 0.23754292726516724
0.22480618953704834 -0.4728682041168213 -0.3973255753517151
0.22480618953704834 -0.4728682041168213 -0.02946624904870987
0.22480618953704834 -0.4728682041168213 0.07586337625980377
0.22480618953704834 -0.4728682041168213 0.2352014034986496
0.22480618953704834 -0.4573643207550049 -0.3986784517765045
0.22480618953704834 -0.4573643207550049 -0.014093593694269657
0.22480618953704834 -0.45736435055732727 0.030162276700139046
0.22480618953704834 -0.4573643207550049 0.23410016298294067
0.22480618953704834 -0.4418604373931885 -0.40018516778945923
0.22480618953704834 -0.4418604373931885 0.2332315444946289
0.22480618953704834 -0.42635661363601685 -0.4013013541698456
0.22480618953704834 -0.42635661363601685 0.23239119350910187
0.22480618953704834 -0.41085273027420044 -0.40231698751449585
0.22480617463588715 -0.41085273027420044 0.23153816163539886
0.22480618953704834 -0.39534884691238403 -0.40326040983200073
0.22480620443820953 -0.39534884691238403 0.23120805621147156
0.22480618953704834 -0.3798449635505676 -0.40414106845855713
0.22480618953704834 -0.3798449635505676 0.23277780413627625
0.22480618953704834 -0.3643410801887512 -0.4046834707260132
0.22480618953704834 -0.3643410801887512 0.23759151995182037
0.22480620443820953 -0.3488371968269348 -0.4054834544658661
0.22480618953704834 -0.3488371968269348 0.24546173214912415
0.22480618953704834 -0.3333333134651184 -0.40708816051483154
0.22480617463588715 -0.3333333134651184 0.2559330463409424
0.22480618953704834 -0.317829430103302 -0.4089469909667969
0.22480618953704834 -0.317829430103302 0.27334797382354736
0.22480618953704834 -0.30232560634613037 -0.411240816116333
0.22480618953704834 -0.30232560634613037 0.2915330231189728
0.22480618953704834 -0.28682172298431396 -0.4124543368816376
0.22480618953704834 -0.28682172298431396 0.3062676191329956
0.22480618953704834 -0.27131783962249756 -0.41392552852630615
0.22480618953704834 -0.27131783962249756 -0.08684898167848587
0.22480618953704834 -0.27131783962249756 -0.05137122422456741
0.22480617463588715 -0.27131783962249756 0.3186967968940735
0.22480618953704834 -0.25581395626068115 -0.4154949188232422
0.22480618953704834 -0.25581395626068115 -0.10871875286102295
0.22480618953704834 -0.25581395626068115 -0.010754771530628204
0.22480618953704834 -0.25581395626068115 0.32700732350349426
0.22480618953704834 -0.24031007289886475 -0.4173526167869568
0.22480618953704834 -0.24031007289886475 -0.13240358233451843
0.22480618953704834 -0.24031007289886475 0.009431295096874237
0.22480618953704834 -0.24031007289886475 0.3360024690628052
0.22480618953704834 -0.22480618953704834 -0.4193792939186096
0.22480618953704834 -0.22480618953704834 -0.15647707879543304
0.22480618953704834 -0.22480618953704834 0.02071891538798809
0.22480618953704834 -0.22480618953704834 0.34249401092529297
0.22480618953704834 -0.20930230617523193 -0.4214915633201599
0.22480618953704834 -0.20930230617523193 -0.2183970808982849
0.22480618953704834 -0.20930230617523193 0.030897222459316254
0.22480618953704834 -0.20930230617523193 0.34981289505958557
0.22480618953704834 -0.19379842281341553 -0.4239046573638916
0.22480618953704834 -0.19379842281341553 -0.23616912961006165
0.22480617463588715 -0.19379842281341553 0.04465445503592491
0.22480618953704834 -0.19379842281341553 0.355103075504303
0.22480618953704834 -0.1782945990562439 -0.42663338780403137
0.22480618953704834 -0.1782945990562439 -0.24613571166992188
0.22480618953704834 -0.1782945990562439 0.06394518911838531
0.22480618953704834 -0.1782945990562439 0.36043882369995117
0.22480618953704834 -0.1627907156944275 -0.42783135175704956
0.22480618953704834 -0.1627907156944275 -0.2508375644683838
0.22480618953704834 -0.1627907156944275 0.09082502126693726
0.22480618953704834 -0.1627907156944275 0.36615949869155884
0.22480618953704834 -0.14728683233261108 -0.42908400297164917
0.22480618953704834 -0.14728683233261108 -0.25434041023254395
0.22480618953704834 -0.14728683233261108 0.11230053007602692
0.22480618953704834 -0.14728683233261108 0.36979514360427856
0.22480618953704834 -0.13178294897079468 -0.43054813146591187
0.22480618953704834 -0.13178294897079468 -0.25697869062423706
0.22480618953704834 -0.13178294897079468 0.12426678836345673
0.22480618953704834 -0.13178294897079468 0.37252694368362427
0.22480618953704834 -0.11627906560897827 -0.4323776662349701
0.22480618953704834 -0.11627906560897827 -0.2591283321380615
0.22480618953704834 -0.11627906560897827 0.13392916321754456
0.22480618953704834 -0.11627906560897827 0.37475496530532837
0.22480618953704834 -0.10077518224716187 -0.43395623564720154
0.22480618953704834 -0.10077518224716187 -0.26039478182792664
0.22480618953704834 -0.10077518224716187 0.14012619853019714
0.22480618953704834 -0.10077518224716187 0.375836580991745
0.22480618953704834 -0.08527129888534546 -0.43504542112350464
0.22480618953704834 -0.08527129888534546 -0.26242026686668396
0.22480618953704834 -0.08527129888534546 0.14493830502033234
0.22480618953704834 -0.08527129888534546 0.37583330273628235
0.22480618953704834 -0.06976741552352905 -0.4357438087463379
0.22480618953704834 -0.06976741552352905 -0.2637762129306793
0.22480618953704834 -0.06976741552352905 0.14876475930213928
0.22480618953704834 -0.06976741552352905 0.3750923275947571
0.22480618953704834 -0.05426359176635742 -0.43617281317710876
0.22480618953704834 -0.05426359176635742 -0.2635723054409027
0.22480618953704834 -0.05426359176635742 0.15052473545074463
0.22480618953704834 -0.05426359176635742 0.3740605115890503
0.22480618953704834 -0.038759708404541016 -0.4364498257637024
0.22480618953704834 -0.038759708404541016 -0.26227688789367676
0.22480618953704834 -0.038759708404541016 0.15072861313819885
0.22480618953704834 -0.038759708404541016 0.37244945764541626
0.22480620443820953 -0.02325582504272461 -0.43641769886016846
0.22480618953704834 -0.02325582504272461 -0.26162558794021606
0.22480618953704834 -0.02325582504272461 0.15208575129508972
0.22480618953704834 -0.02325582504272461 0.36987730860710144
0.22480618953704834 -0.007751941680908203 -0.4360928535461426
0.22480618953704834 -0.007751941680908203 -0.25885188579559326
0.22480618953704834 -0.007751941680908203 0.1532938927412033
0.22480618953704834 -0.007751941680908203 0.36667314171791077
0.22480618953704834 0.007751941680908203 -0.4354015290737152
0.22480618953704834 0.007751941680908203 -0.2541591227054596
0.22480618953704834 0.007751941680908203 0.14989908039569855
0.22480618953704834 0.007751941680908203 0.36223968863487244
0.22480618953704834 0.02325582504272461 -0.4344395101070404
0.22480618953704834 0.02325582504272461 -0.24486732482910156
0.22480618953704834 0.02325582690536976 0.13635852932929993
0.22480618953704834 0.02325582504272461 0.3566341996192932
0.22480618953704834 0.038759708404541016 -0.43338602781295776
0.22480618953704834 0.038759708404541016 -0.2374715805053711
0.22480618953704834 0.038759708404541016 0.11957177519798279
0.22480618953704834 0.038759708404541016 0.3512163460254669
0.22480618953704834 0.05426359176635742 -0.432450532913208
0.22480618953704834 0.05426359176635742 -0.23291951417922974
0.22480618953704834 0.05426359176635742 0.09672538191080093
0.22480618953704834 0.05426359176635742 0.34292569756507874
0.22480618953704834 0.06976747512817383 -0.4315299391746521
0.22480618953704834 0.06976747512817383 -0.2300070971250534
0.22480617463588715 0.06976747512817383 0.07383303344249725
0.22480620443820953 0.06976748257875443 0.33464837074279785
0.22480618953704834 0.08527135848999023 -0.43072956800460815
0.22480618953704834 0.08527135848999023 -0.22495096921920776
0.22480618953704834 0.08527135848999023 0.060637615621089935
0.22480620443820953 0.08527135848999023 0.32436129450798035
0.22480618953704834 0.10077524185180664 -0.43006908893585205
0.22480618953704834 0.10077524185180664 -0.2182016670703888
0.22480618953704834 0.10077524185180664 0.05352501943707466
0.22480618953704834 0.10077524185180664 0.3125454783439636
0.22480618953704834 0.11627912521362305 -0.4291843771934509
0.22480618953704834 0.11627912521362305 -0.21434636414051056
0.22480618953704834 0.11627911776304245 0.04411233961582184
0.22480618953704834 0.11627912521362305 0.29977765679359436
0.22480618953704834 0.1317828893661499 -0.4282222390174866
0.22480618953704834 0.1317828893661499 -0.21402937173843384
0.22480618953704834 0.1317828893661499 0.03358755633234978
0.22480618953704834 0.1317828893661499 0.2850017547607422
0.22480618953704834 0.1472867727279663 -0.42726823687553406
0.22480618953704834 0.1472867727279663 -0.21924638748168945
0.22480618953704834 0.1472867727279663 0.02235991694033146
0.22480618953704834 0.1472867727279663 0.26738208532333374
0.22480618953704834 0.16279065608978271 -0.426266610622406
0.22480618953704834 0.16279065608978271 -0.22040288150310516
0.22480618953704834 0.16279065608978271 0.0005915369838476181
0.22480618953704834 0.16279065608978271 0.24561728537082672
0.22480618953704834 0.17829453945159912 -0.4227466881275177
0.22480618953704834 0.17829453945159912 -0.21211916208267212
0.22480618953704834 0.17829453945159912 -0.018514148890972137
0.22480618953704834 0.17829453945159912 0.2175058126449585
0.22480618953704834 0.19379842281341553 -0.4196688234806061
0.22480618953704834 0.19379842281341553 -0.18632864952087402
0.22480618953704834 0.19379842281341553 -0.1534648835659027
0.22480618953704834 0.19379842281341553 -0.11178965866565704
0.22480618953704834 0.19379842281341553 -0.043190717697143555
0.22480618953704834 0.19379842281341553 0.17167410254478455
0.22480618953704834 0.20930230617523193 -0.41788941621780396
0.22480618953704834 0.20930230617523193 0.130926251411438
0.22480618953704834 0.22480618953704834 -0.4165036380290985
0.22480618953704834 0.22480618953704834 0.09340386837720871
0.22480618953704834 0.24031007289886475 -0.41430678963661194
0.22480618953704834 0.24031005799770355 0.0751662403345108
0.22480618953704834 0.25581395626068115 -0.41226717829704285
0.22480618953704834 0.25581395626068115 0.06082625314593315
0.22480618953704834 0.27131783962249756 -0.4090852737426758
0.22480618953704834 0.27131783962249756 0.04416939243674278
0.22480618953704834 0.28682172298431396 -0.40362727642059326
0.22480618953704834 0.28682172298431396 -0.05350400507450104
0.22480618953704834 0.30232560634613037 -0.3970487713813782
0.22480618953704834 0.30232560634613037 -0.07860426604747772
0.22480618953704834 0.3178294897079468 -0.33660978078842163
0.22480618953704834 0.3178294897079468 -0.09521093964576721
0.22480618953704834 0.3333333730697632 -0.3152986466884613
0.22480617463588715 0.3333333730697632 -0.11088646948337555
0.22480618953704834 0.3488372564315796 -0.2912384271621704
0.22480618953704834 0.3488372564315796 -0.13800501823425293
0.22480618953704834 0.364341139793396 -0.2574254274368286
0.22480618953704834 0.364341139793396 -0.21705397963523865
0.24031007289886475 -0.8449612259864807 -0.2896156311035156
0.24031007289886475 -0.8449612259864807 -0.2648943364620209
0.24031007289886475 -0.8294573426246643 -0.2935550808906555
0.24031007289886475 -0.8294573426246643 -0.2581079304218292
0.24031007289886475 -0.8139535188674927 -0.29801660776138306
0.24031007289886475 -0.8139535188674927 -0.2486542910337448
0.24031007289886475 -0.7984496355056763 -0.3033756613731384
0.24031007289886475 -0.7984496355056763 -0.23967893421649933
0.24031007289886475 -0.7829457521438599 -0.306214302778244
0.24031007289886475 -0.7829457521438599 -0.2256992906332016
0.24031007289886475 -0.7674418687820435 -0.31010162830352783
0.24031007289886475 -0.7674418687820435 -0.20378217101097107
0.24031005799770355 -0.751937985420227 -0.31644895672798157
0.24031007289886475 -0.751937985420227 -0.1790960729122162
0.24031007289886475 -0.7364341020584106 -0.3217509984970093
0.24031007289886475 -0.7364341020584106 -0.16498836874961853
0.24031005799770355 -0.7209302186965942 -0.3292067050933838
0.24031007289886475 -0.7209302186965942 -0.15569505095481873
0.24031007289886475 -0.7054263353347778 -0.33804816007614136
0.24031007289886475 -0.7054263353347778 -0.1472862958908081
0.24031007289886475 -0.6899224519729614 -0.3455761671066284
0.24031007289886475 -0.6899224519729614 -0.13879410922527313
0.24031007289886475 -0.674418568611145 -0.35265108942985535
0.24031007289886475 -0.674418568611145 -0.13084331154823303
0.24031007289886475 -0.6589146852493286 -0.35696476697921753
0.24031007289886475 -0.6589146852493286 -0.12361694872379303
0.24031007289886475 -0.643410861492157 -0.36136338114738464
0.24031007289886475 -0.643410861492157 -0.11648236960172653
0.24031007289886475 -0.6434108018875122 0.23236337304115295
0.24031008780002594 -0.6434109210968018 0.3335212469100952
0.24031007289886475 -0.6279069185256958 -0.36616986989974976
0.24031007289886475 -0.6279069781303406 -0.11133596301078796
0.24031007289886475 -0.6279069781303406 0.1937839388847351
0.24031007289886475 -0.6279069781303406 0.32706141471862793
0.24031007289886475 -0.6124030947685242 -0.36923933029174805
0.24031007289886475 -0.6124030947685242 -0.10795113444328308
0.24031007289886475 -0.6124030947685242 0.17313101887702942
0.24031007289886475 -0.6124030947685242 0.3124539852142334
0.24031007289886475 -0.5968992114067078 -0.3712809383869171
0.24031007289886475 -0.5968992114067078 -0.10568791627883911
0.24031007289886475 -0.5968992114067078 0.1618814617395401
0.24031007289886475 -0.5968992114067078 0.29015645384788513
0.24031007289886475 -0.5813953876495361 -0.37350666522979736
0.24031007289886475 -0.5813953876495361 -0.10360101610422134
0.24031007289886475 -0.5813953876495361 0.15757204592227936
0.24031007289886475 -0.5813953876495361 0.27165576815605164
0.24031007289886475 -0.5658915042877197 -0.3765137195587158
0.24031007289886475 -0.5658915042877197 -0.10097207874059677
0.24031007289886475 -0.5658915042877197 0.1509115844964981
0.24031007289886475 -0.5658915042877197 0.24963396787643433
0.24031007289886475 -0.5503876209259033 -0.38040822744369507
0.24031007289886475 -0.5503876209259033 -0.09692523628473282
0.24031007289886475 -0.5503876209259033 0.14440245926380157
0.24031007289886475 -0.5503876209259033 0.2346472591161728
0.24031007289886475 -0.5348837375640869 -0.3823719322681427
0.24031007289886475 -0.5348837375640869 -0.09336566925048828
0.24031005799770355 -0.5348837375640869 0.13869018852710724
0.24031007289886475 -0.5348837375640869 0.2305038571357727
0.24031007289886475 -0.5193798542022705 -0.38412320613861084
0.24031007289886475 -0.5193798542022705 -0.08911146223545074
0.24031007289886475 -0.5193798542022705 0.13021260499954224
0.24031007289886475 -0.5193798542022705 0.22927874326705933
0.24031007289886475 -0.5038759708404541 -0.38585585355758667
0.24031005799770355 -0.5038759708404541 -0.08282148838043213
0.24031007289886475 -0.5038759708404541 0.12556827068328857
0.24031007289886475 -0.5038759708404541 0.22805872559547424
0.24031007289886475 -0.4883720874786377 -0.387737512588501
0.24031007289886475 -0.4883720874786377 -0.07562478631734848
0.24031007289886475 -0.4883720874786377 0.11402633786201477
0.24031007289886475 -0.4883720874786377 0.22660678625106812
0.24031007289886475 -0.4728682041168213 -0.38999760150909424
0.24031007289886475 -0.4728682041168213 -0.06902457028627396
0.24031007289886475 -0.4728682041168213 0.09956353157758713
0.24031007289886475 -0.4728682041168213 0.22585991024971008
0.24031007289886475 -0.4573643207550049 -0.39245593547821045
0.24031007289886475 -0.4573643207550049 -0.05907512456178665
0.24031007289886475 -0.4573643207550049 0.0749613493680954
0.24031007289886475 -0.4573643207550049 0.22596529126167297
0.24031007289886475 -0.4418604373931885 -0.39543482661247253
0.24031007289886475 -0.4418604373931885 -0.04747592657804489
0.24031007289886475 -0.4418604373931885 0.041689131408929825
0.24031008780002594 -0.4418604373931885 0.22599577903747559
0.24031007289886475 -0.42635661363601685 -0.396109402179718
0.24031007289886475 -0.42635661363601685 -0.03634462505578995
0.24031007289886475 -0.42635661363601685 0.02875351905822754
0.24031008780002594 -0.42635661363601685 0.22561396658420563
0.24031007289886475 -0.41085273027420044 -0.3966952860355377
0.24031007289886475 -0.41085273027420044 -0.024573935195803642
0.24031007289886475 -0.41085273027420044 0.01668878085911274
0.24031007289886475 -0.41085273027420044 0.22459013760089874
0.24031007289886475 -0.39534884691238403 -0.39719557762145996
0.24031007289886475 -0.39534884691238403 0.22289800643920898
0.24031007289886475 -0.3798449635505676 -0.3976312279701233
0.24031007289886475 -0.3798449635505676 0.22375234961509705
0.24031007289886475 -0.3643410801887512 -0.39784473180770874
0.24031007289886475 -0.3643410801887512 0.22709175944328308
0.24031007289886475 -0.3488371968269348 -0.39822685718536377
0.24031007289886475 -0.3488371968269348 0.23222507536411285
0.24031007289886475 -0.3333333134651184 -0.3990510106086731
0.24031008780002594 -0.3333333134651184 0.24084743857383728
0.24031007289886475 -0.317829430103302 -0.3999756872653961
0.24031007289886475 -0.317829430103302 0.2527278661727905
0.24031007289886475 -0.30232560634613037 -0.40151992440223694
0.24031007289886475 -0.30232560634613037 0.2684224247932434
0.24031007289886475 -0.28682172298431396 -0.40345221757888794
0.24031007289886475 -0.28682172298431396 0.28563210368156433
0.24031008780002594 -0.27131783962249756 -0.40583187341690063
0.24031007289886475 -0.27131783962249756 0.30165421962738037
0.24031007289886475 -0.25581395626068115 -0.4087059795856476
0.24031007289886475 -0.25581395626068115 0.31256330013275146
0.24031007289886475 -0.24031007289886475 -0.41142967343330383
0.24031007289886475 -0.24031007289886475 -0.09989830106496811
0.24031007289886475 -0.24031007289886475 -0.018528390675783157
0.24031007289886475 -0.24031007289886475 0.32230305671691895
0.24031007289886475 -0.22480618953704834 -0.4129754602909088
0.24031005799770355 -0.22480617463588715 -0.11597783863544464
0.24031007289886475 -0.22480618953704834 0.0038672303780913353
0.24031007289886475 -0.22480618953704834 0.32956209778785706
0.24031007289886475 -0.20930230617523193 -0.41490113735198975
0.24031007289886475 -0.20930230617523193 -0.14176401495933533
0.24031007289886475 -0.20930230617523193 0.018443509936332703
0.24031007289886475 -0.20930230617523193 0.3367171883583069
0.24031007289886475 -0.19379842281341553 -0.41702163219451904
0.24031007289886475 -0.19379842281341553 -0.20013955235481262
0.24031007289886475 -0.19379842281341553 0.03526085615158081
0.24031007289886475 -0.19379842281341553 0.3422790765762329
0.24031007289886475 -0.1782945990562439 -0.41891491413116455
0.24031007289886475 -0.1782945990562439 -0.22550219297409058
0.24031007289886475 -0.1782945990562439 0.05380433052778244
0.24031007289886475 -0.1782945990562439 0.34907957911491394
0.24031007289886475 -0.1627907156944275 -0.4206138551235199
0.24031007289886475 -0.1627907156944275 -0.23219765722751617
0.24031007289886475 -0.1627907156944275 0.08291985839605331
0.24031007289886475 -0.1627907156944275 0.35363924503326416
0.24031007289886475 -0.14728683233261108 -0.4223277270793915
0.24031008780002594 -0.14728683233261108 -0.23718608915805817
0.24031007289886475 -0.14728683233261108 0.10613144934177399
0.24031007289886475 -0.14728683233261108 0.35741740465164185
0.24031007289886475 -0.13178294897079468 -0.4244571030139923
0.24031007289886475 -0.13178294897079468 -0.24099040031433105
0.24031007289886475 -0.13178294897079468 0.11928948760032654
0.24031007289886475 -0.13178294897079468 0.36100292205810547
0.24031007289886475 -0.11627906560897827 -0.42672666907310486
0.24031007289886475 -0.11627906560897827 -0.2435310333967209
0.24031007289886475 -0.11627906560897827 0.12948423624038696
0.24031007289886475 -0.11627906560897827 0.36461082100868225
0.24031007289886475 -0.10077518224716187 -0.4278189241886139
0.24031007289886475 -0.10077518224716187 -0.24465465545654297
0.24031008780002594 -0.10077518224716187 0.13573893904685974
0.24031007289886475 -0.10077517479658127 0.3654921352863312
0.24031007289886475 -0.08527129888534546 -0.4288630783557892
0.24031007289886475 -0.08527129888534546 -0.24606341123580933
0.24031007289886475 -0.08527129888534546 0.1397494375705719
0.24031007289886475 -0.08527129888534546 0.36540713906288147
0.24031007289886475 -0.06976741552352905 -0.42972850799560547
0.24031007289886475 -0.06976741552352905 -0.24612267315387726
0.24031007289886475 -0.06976741552352905 0.14223957061767578
0.24031005799770355 -0.06976741552352905 0.36473920941352844
0.24031007289886475 -0.05426359176635742 -0.4303314685821533
0.24031007289886475 -0.05426359176635742 -0.2440299093723297
0.24031007289886475 -0.05426359176635742 0.14242634177207947
0.24031007289886475 -0.05426359176635742 0.3633164167404175
0.24031007289886475 -0.038759708404541016 -0.4307805895805359
0.24031007289886475 -0.038759708404541016 -0.24049441516399384
0.24031007289886475 -0.038759708404541016 0.14054301381111145
0.24031007289886475 -0.038759708404541016 0.3605283498764038
0.24031007289886475 -0.02325582504272461 -0.43083763122558594
0.24031007289886475 -0.02325582504272461 -0.23679213225841522
0.24031007289886475 -0.02325582504272461 0.13903138041496277
0.24031007289886475 -0.02325582504272461 0.35722362995147705
0.24031007289886475 -0.007751941680908203 -0.4305981695652008
0.24031007289886475 -0.007751941680908203 -0.23080232739448547
0.24031007289886475 -0.007751941680908203 0.13634754717350006
0.24031007289886475 -0.007751941680908203 0.3540569245815277
0.24031007289886475 0.007751941680908203 -0.42991021275520325
0.24031007289886475 0.007751941680908203 -0.22331975400447845
0.24031007289886475 0.007751941680908203 0.12915664911270142
0.24031007289886475 0.007751941680908203 0.35045650601387024
0.24031007289886475 0.02325582504272461 -0.42894989252090454
0.24031007289886475 0.02325582504272461 -0.19675084948539734
0.24031007289886475 0.02325582504272461 0.11488517373800278
0.24031007289886475 0.02325582504272461 0.3442433774471283
0.24031007289886475 0.038759708404541016 -0.42790907621383667
0.24031007289886475 0.038759708404541016 -0.1610269546508789
0.24031007289886475 0.038759708404541016 0.08973557502031326
0.24031007289886475 0.038759708404541016 0.33876776695251465
0.24031007289886475 0.05426359176635742 -0.4271671175956726
0.24031007289886475 0.05426359176635742 -0.15173009037971497
0.24031007289886475 0.05426359176635742 0.05748637765645981
0.24031007289886475 0.05426359176635742 0.33115920424461365
0.24031007289886475 0.06976747512817383 -0.426530659198761
0.24031007289886475 0.06976747512817383 -0.13856622576713562
0.24031007289886475 0.06976747512817383 0.04831888526678085
0.24031007289886475 0.06976747512817383 0.32227516174316406
0.24031005799770355 0.08527135848999023 -0.4253863990306854
0.24031007289886475 0.08527135848999023 -0.12254667282104492
0.24031008780002594 0.08527135848999023 0.04050749912858009
0.24031007289886475 0.08527135848999023 0.31053411960601807
0.24031007289886475 0.10077524185180664 -0.42409801483154297
0.24031007289886475 0.10077524185180664 -0.11369851231575012
0.24031007289886475 0.10077524185180664 0.032576724886894226
0.24031007289886475 0.10077524185180664 0.2973262667655945
0.24031008780002594 0.11627913266420364 -0.42230916023254395
0.24031007289886475 0.11627912521362305 -0.1082269549369812
0.24031007289886475 0.11627912521362305 0.023562166839838028
0.24031007289886475 0.11627912521362305 0.2812267243862152
0.24031007289886475 0.1317828893661499 -0.42062216997146606
0.24031007289886475 0.1317828893661499 -0.10357089340686798
0.24031007289886475 0.1317828893661499 0.005656765773892403
0.24031007289886475 0.1317828893661499 0.26381751894950867
0.24031007289886475 0.1472867727279663 -0.41921988129615784
0.24031007289886475 0.1472867727279663 -0.09813150763511658
0.24031007289886475 0.1472867727279663 -0.012835131958127022
0.24031007289886475 0.1472867727279663 0.24340912699699402
0.24031007289886475 0.16279065608978271 -0.4181934595108032
0.24031007289886475 0.16279065608978271 -0.0880689024925232
0.24031007289886475 0.16279065608978271 -0.06238047778606415
0.24031007289886475 0.16279065608978271 0.21639308333396912
0.24031007289886475 0.17829453945159912 -0.41729140281677246
0.24031007289886475 0.17829453945159912 0.1692304015159607
0.24031007289886475 0.19379842281341553 -0.41574400663375854
0.24031007289886475 0.19379842281341553 0.12614527344703674
0.24031007289886475 0.20930230617523193 -0.41363561153411865
0.24031007289886475 0.20930230617523193 0.08930522948503494
0.24031007289886475 0.22480618953704834 -0.4114064574241638
0.24031007289886475 0.22480618953704834 0.07405027747154236
0.24031007289886475 0.24031007289886475 -0.4053523540496826
0.24031007289886475 0.24031007289886475 0.062420740723609924
0.24031007289886475 0.25581395626068115 -0.39762404561042786
0.24031007289886475 0.25581395626068115 -0.3761351704597473
0.24031007289886475 0.25581395626068115 -0.34264320135116577
0.24031007289886475 0.25581395626068115 0.04950312525033951
0.24031007289886475 0.27131783962249756 -0.3177758753299713
0.24031007289886475 0.27131783962249756 -0.05481868237257004
0.24031007289886475 0.27131783962249756 -0.0024095058906823397
0.24031007289886475 0.27131783962249756 0.027193685993552208
0.24031007289886475 0.28682172298431396 -0.28213807940483093
0.24031005799770355 0.28682172298431396 -0.08438635617494583
0.24031007289886475 0.30232560634613037 -0.2607116401195526
0.24031007289886475 0.30232560634613037 -0.10592234879732132
0.24031007289886475 0.3178294897079468 -0.24254313111305237
0.24031007289886475 0.3178294897079468 -0.11931997537612915
0.24031007289886475 0.3333333730697632 -0.2122277319431305
0.24031005799770355 0.3333333730697632 -0.13011474907398224
0.24031007289886475 0.3488372564315796 -0.1644023060798645
0.24031007289886475 0.3488372564315796 -0.15565921366214752
0.25581395626068115 -0.8294573426246643 -0.28702080249786377
0.25581395626068115 -0.8294573426246643 -0.2862077057361603
0.25581395626068115 -0.8139535188674927 -0.2932003140449524
0.25581395626068115 -0.8139535188674927 -0.27401649951934814
0.25581395626068115 -0.7984496355056763 -0.30130255222320557
0.25581395626068115 -0.7984496355056763 -0.2655421197414398
0.25581395626068115 -0.7829457521438599 -0.3044986426830292
0.25581395626068115 -0.7829457521438599 -0.25929686427116394
0.25581395626068115 -0.7674418687820435 -0.3071061968803406
0.25581395626068115 -0.7674418687820435 -0.25133490562438965
0.25581395626068115 -0.751937985420227 -0.3113518953323364
0.25581395626068115 -0.751937985420227 -0.24343125522136688
0.25581395626068115 -0.7364341020584106 -0.31872326135635376
0.25581395626068115 -0.7364341020584106 -0.23403772711753845
0.25581395626068115 -0.7209302186965942 -0.3242713510990143
0.25581395626068115 -0.7209302186965942 -0.22285641729831696
0.25581395626068115 -0.7054263353347778 -0.332448273897171
0.25581395626068115 -0.7054263353347778 -0.20944714546203613
0.25581395626068115 -0.6899224519729614 -0.33936870098114014
0.25581395626068115 -0.6899225115776062 -0.1934213638305664
0.25581395626068115 -0.674418568611145 -0.3457633852958679
0.25581395626068115 -0.674418568611145 -0.17864662408828735
0.25581395626068115 -0.6589146852493286 -0.3516777753829956
0.25581395626068115 -0.6589146852493286 -0.16708733141422272
0.25581395626068115 -0.643410861492157 -0.3555496037006378
0.25581395626068115 -0.643410861492157 -0.15685328841209412
0.25581395626068115 -0.643410861492157 0.24678176641464233
0.25581395626068115 -0.643410861492157 0.310832679271698
0.25581395626068115 -0.6279069781303406 -0.35865938663482666
0.25581395626068115 -0.6279069781303406 -0.14705416560173035
0.25581395626068115 -0.6279069781303406 0.2093595564365387
0.25581395626068115 -0.6279069781303406 0.31330156326293945
0.25581395626068115 -0.612403154373169 -0.3637133538722992
0.25581395626068115 -0.6124030947685242 -0.13970491290092468
0.25581395626068115 -0.6124030947685242 0.1857893466949463
0.25581395626068115 -0.612403154373169 0.3029420077800751
0.25581395626068115 -0.5968992114067078 -0.36684417724609375
0.25581395626068115 -0.5968992114067078 -0.13315856456756592
0.25581395626068115 -0.5968992114067078 0.17227137088775635
0.25581395626068115 -0.5968992114067078 0.2807649075984955
0.25581395626068115 -0.5813953876495361 -0.36906659603118896
0.25581395626068115 -0.5813953876495361 -0.1294592171907425
0.25581395626068115 -0.5813953876495361 0.16218429803848267
0.25581395626068115 -0.5813953876495361 0.2605080008506775
0.25581395626068115 -0.5658915042877197 -0.37078189849853516
0.25581395626068115 -0.5658915042877197 -0.12606164813041687
0.25581395626068115 -0.5658915042877197 0.15767285227775574
0.25581395626068115 -0.5658915042877197 0.2367282211780548
0.25581395626068115 -0.5503876209259033 -0.3732159733772278
0.25581395626068115 -0.5503876209259033 -0.12184964120388031
0.25581395626068115 -0.5503876209259033 0.14717498421669006
0.25581395626068115 -0.5503876805305481 0.22504721581935883
0.25581395626068115 -0.5348837375640869 -0.3769221007823944
0.25581395626068115 -0.5348837375640869 -0.11882419884204865
0.25581395626068115 -0.5348837375640869 0.14343684911727905
0.25581395626068115 -0.5348837375640869 0.21951892971992493
0.25581395626068115 -0.5193798542022705 -0.38049569725990295
0.25581395626068115 -0.5193798542022705 -0.11551986634731293
0.25581395626068115 -0.5193798542022705 0.13592486083507538
0.25581395626068115 -0.5193798542022705 0.2177215814590454
0.25581395626068115 -0.5038759708404541 -0.3823751211166382
0.25581395626068115 -0.5038759708404541 -0.11143277585506439
0.25581395626068115 -0.5038759708404541 0.12911683320999146
0.25581395626068115 -0.5038759708404541 0.21635812520980835
0.25581395626068115 -0.4883720874786377 -0.38400042057037354
0.25581395626068115 -0.4883720874786377 -0.10656320303678513
0.25581395626068115 -0.4883720874786377 0.1225447952747345
0.25581395626068115 -0.4883720874786377 0.21483755111694336
0.25581395626068115 -0.4728682041168213 -0.38531994819641113
0.25581395626068115 -0.4728682041168213 -0.09953227639198303
0.25581395626068115 -0.4728682041168213 0.11054384708404541
0.25581395626068115 -0.4728682041168213 0.21431249380111694
0.25581395626068115 -0.4573643207550049 -0.3863893747329712
0.25581395626068115 -0.4573643207550049 -0.0923728495836258
0.25581395626068115 -0.4573643207550049 0.09560027718544006
0.25581395626068115 -0.4573642909526825 0.21470706164836884
0.25581395626068115 -0.4418604373931885 -0.38773873448371887
0.25581395626068115 -0.4418604373931885 -0.08166732639074326
0.25581395626068115 -0.4418604373931885 0.07599448412656784
0.25581395626068115 -0.4418604373931885 0.2149529606103897
0.25581395626068115 -0.42635658383369446 -0.38908666372299194
0.25581395626068115 -0.42635661363601685 -0.07101042568683624
0.25581395626068115 -0.42635661363601685 0.05197082459926605
0.25581395626068115 -0.42635661363601685 0.21467208862304688
0.25581395626068115 -0.41085273027420044 -0.39025965332984924
0.25581395626068115 -0.41085273027420044 -0.060528360307216644
0.25581395626068115 -0.41085273027420044 0.03731921315193176
0.25581395626068115 -0.41085273027420044 0.2139078974723816
0.25581395626068115 -0.39534884691238403 -0.39123645424842834
0.25581395626068115 -0.39534884691238403 -0.04913150891661644
0.25581395626068115 -0.39534884691238403 0.03125011548399925
0.25581395626068115 -0.39534884691238403 0.21327245235443115
0.25581395626068115 -0.3798449635505676 -0.3919849395751953
0.25581395626068115 -0.37984499335289 -0.03759303689002991
0.25581395626068115 -0.3798449635505676 0.021908672526478767
0.25581395626068115 -0.3798449635505676 0.21354924142360687
0.25581395626068115 -0.3643410801887512 -0.39240220189094543
0.25581395626068115 -0.3643410801887512 -0.024023516103625298
0.25581395626068115 -0.3643410801887512 0.011045452207326889
0.25581395626068115 -0.3643410801887512 0.2159881889820099
0.25581395626068115 -0.3488371968269348 -0.3932240903377533
0.25581395626068115 -0.3488371968269348 0.220774307847023
0.25581395626068115 -0.3333333134651184 -0.39508897066116333
0.25581395626068115 -0.3333333134651184 0.22813133895397186
0.25581395626068115 -0.317829430103302 -0.39572179317474365
0.25581395626068115 -0.317829430103302 0.23789142072200775
0.25581395626068115 -0.30232560634613037 -0.3965223729610443
0.25581395626068115 -0.30232560634613037 0.24893346428871155
0.25581395626068115 -0.28682172298431396 -0.3976818323135376
0.25581395626068115 -0.28682172298431396 0.26155179738998413
0.25581395626068115 -0.27131783962249756 -0.3991773724555969
0.25581395626068115 -0.27131783962249756 0.2778584361076355
0.25581395626068115 -0.25581395626068115 -0.40086501836776733
0.25581395626068115 -0.25581395626068115 0.2936762571334839
0.25581395626068115 -0.24031007289886475 -0.4029175043106079
0.25581395626068115 -0.24031007289886475 0.30641379952430725
0.25581395626068115 -0.22480620443820953 -0.40557870268821716
0.25581395626068115 -0.22480618953704834 -0.07799047231674194
0.25581395626068115 -0.22480618953704834 -0.03454519063234329
0.25581395626068115 -0.22480618953704834 0.31693869829177856
0.25581395626068115 -0.20930230617523193 -0.40918028354644775
0.25581395626068115 -0.20930230617523193 -0.10187657177448273
0.25581395626068115 -0.20930230617523193 -0.0020750099793076515
0.25581395626068115 -0.20930230617523193 0.32376664876937866
0.25581395626068115 -0.19379842281341553 -0.4117262065410614
0.25581395626068115 -0.19379842281341553 -0.1247466653585434
0.25581395626068115 -0.19379842281341553 0.025792764499783516
0.25581395626068115 -0.19379842281341553 0.33120203018188477
0.25581395626068115 -0.1782945990562439 -0.4132307767868042
0.25581395626068115 -0.1782945990562439 -0.1490592658519745
0.25581395626068115 -0.1782945990562439 0.04890431463718414
0.25581395626068115 -0.1782945990562439 0.3377021849155426
0.25581395626068115 -0.1627907156944275 -0.41483670473098755
0.25581395626068115 -0.1627907156944275 -0.1667444109916687
0.25581395626068115 -0.1627907156944275 0.07745729386806488
0.25581395626068115 -0.1627907156944275 0.34244221448898315
0.25581395626068115 -0.14728683233261108 -0.41641807556152344
0.25581395626068115 -0.14728683233261108 -0.21079303324222565
0.25581392645835876 -0.14728683233261108 0.10086718946695328
0.25581395626068115 -0.14728683233261108 0.3482780158519745
0.25581395626068115 -0.13178294897079468 -0.41795605421066284
0.25581395626068115 -0.13178294897079468 -0.2197607457637787
0.25581395626068115 -0.13178294897079468 0.11374074965715408
0.25581395626068115 -0.13178294897079468 0.3516004681587219
0.25581395626068115 -0.11627906560897827 -0.41942667961120605
0.25581395626068115 -0.11627906560897827 -0.22640378773212433
0.25581395626068115 -0.11627906560897827 0.12484490871429443
0.25581395626068115 -0.11627906560897827 0.3538876473903656
0.25581395626068115 -0.10077518224716187 -0.42072969675064087
