-0.5193798542022705 -0.14728683233261108 -0.23503877222537994
-0.5193798542022705 -0.13178294897079468 -0.41834235191345215
-0.5193798542022705 -0.13178294897079468 -0.23340988159179688
-0.5193798542022705 -0.11627906560897827 -0.4225372076034546
-0.5193798542022705 -0.11627906560897827 -0.2318318784236908
-0.5193798542022705 -0.10077518969774246 -0.42423930764198303
-0.5193798542022705 -0.10077518224716187 -0.22964391112327576
-0.5193798542022705 -0.08527129888534546 -0.42834779620170593
-0.5193798542022705 -0.08527129888534546 -0.2258272022008896
-0.5193798542022705 -0.06976741552352905 -0.43294307589530945
-0.5193798542022705 -0.06976741552352905 -0.22282545268535614
-0.5193798542022705 -0.05426359176635742 -0.4359675645828247
-0.5193798542022705 -0.05426359176635742 -0.22058916091918945
-0.5193798542022705 -0.038759708404541016 -0.43771791458129883
-0.5193798542022705 -0.038759708404541016 -0.21846871078014374
-0.5193798542022705 -0.02325582690536976 -0.4385738670825958
-0.5193798542022705 -0.02325582504272461 -0.2164909839630127
-0.5193798542022705 -0.007751941680908203 -0.4388428032398224
-0.5193798542022705 -0.007751941680908203 -0.21525320410728455
-0.5193798542022705 0.007751941680908203 -0.43863368034362793
-0.5193798542022705 0.007751941680908203 -0.21576586365699768
-0.5193798542022705 0.02325582504272461 -0.43805962800979614
-0.5193798542022705 0.02325582504272461 -0.21709413826465607
-0.5193798542022705 0.038759708404541016 -0.43707162141799927
-0.5193798542022705 0.038759708404541016 -0.21936459839344025
-0.5193798542022705 0.05426359176635742 -0.43568363785743713
-0.5193798542022705 0.05426358804106712 -0.22190123796463013
-0.5193798542022705 0.06976747512817383 -0.4341273307800293
-0.5193799138069153 0.06976748257875443 -0.22427204251289368
-0.5193798542022705 0.08527135848999023 -0.43235522508621216
-0.5193798542022705 0.08527135848999023 -0.22717784345149994
-0.5193798542022705 0.10077524185180664 -0.4304363429546356
-0.5193798542022705 0.10077524185180664 -0.22919905185699463
-0.5193798542022705 0.11627912521362305 -0.42769497632980347
-0.5193798542022705 0.11627912521362305 -0.23080985248088837
-0.5193798542022705 0.1317828893661499 -0.4248755872249603
-0.5193798542022705 0.1317828893661499 -0.2329784631729126
-0.5193798542022705 0.1472867727279663 -0.423495888710022
-0.5193798542022705 0.1472867727279663 -0.2360752522945404
-0.5193798542022705 0.16279065608978271 -0.42149072885513306
-0.5193798542022705 0.16279065608978271 -0.23941223323345184
-0.5193798542022705 0.17829453945159912 -0.4166562259197235
-0.5193798542022705 0.17829453945159912 -0.2467094212770462
-0.5193798542022705 0.19379842281341553 -0.4088737964630127
-0.5193798542022705 0.19379842281341553 -0.25662311911582947
-0.5193798542022705 0.20930230617523193 -0.40398329496383667
-0.5193798542022705 0.20930230617523193 -0.2710382640361786
-0.5193798542022705 0.22480618953704834 -0.3941660523414612
-0.5193799138069153 0.22480618953704834 -0.28635165095329285
-0.5193798542022705 0.24031007289886475 -0.38537824153900146
-0.5193798542022705 0.24031007289886475 -0.2909725308418274
-0.5193798542022705 0.25581395626068115 -0.37357619404792786
-0.5193798542022705 0.25581395626068115 -0.2721497118473053
-0.5193798542022705 0.27131783962249756 -0.36507296562194824
-0.5193798542022705 0.27131783962249756 -0.2537015378475189
-0.5193798542022705 0.28682172298431396 -0.357180118560791
-0.5193798542022705 0.2868216931819916 -0.23869764804840088
-0.5193798542022705 0.30232560634613037 -0.34426262974739075
-0.5193798542022705 0.30232560634613037 -0.23306691646575928
-0.5193798542022705 0.3178294897079468 -0.33124005794525146
-0.5193798542022705 0.3178294897079468 -0.23336806893348694
-0.5193798542022705 0.3333333730697632 -0.3197653591632843
-0.5193798542022705 0.3333333730697632 -0.2386065274477005
-0.5193798542022705 0.3488372564315796 -0.30497580766677856
-0.5193798542022705 0.3488372564315796 -0.2532987594604492
-0.5038759708404541 -0.3798449635505676 -0.25709429383277893
-0.5038759708404541 -0.3798449635505676 -0.25578945875167847
-0.5038759708404541 -0.3643410801887512 -0.3066357970237732
-0.5038759708404541 -0.3643410801887512 -0.2303747534751892
-0.5038759708404541 -0.3488371968269348 -0.3217093348503113
-0.5038759708404541 -0.3488371968269348 -0.22140726447105408
-0.5038759708404541 -0.3333333134651184 -0.33017727732658386
-0.5038759708404541 -0.3333333134651184 -0.2220449000597
-0.5038759708404541 -0.317829430103302 -0.33669376373291016
-0.5038759708404541 -0.317829430103302 -0.23319631814956665
-0.5038759708404541 -0.30232560634613037 -0.3373849391937256
-0.5038759708404541 -0.30232560634613037 -0.24908992648124695
-0.5038759708404541 -0.28682172298431396 -0.33698660135269165
-0.5038759708404541 -0.28682172298431396 -0.2569955885410309
-0.5038759708404541 -0.27131783962249756 -0.34050703048706055
-0.5038759708404541 -0.27131783962249756 -0.26121529936790466
-0.5038759708404541 -0.25581395626068115 -0.35060858726501465
-0.5038759708404541 -0.25581395626068115 -0.2605411112308502
-0.5038759708404541 -0.24031007289886475 -0.364500492811203
-0.5038759708404541 -0.24031007289886475 -0.2574811279773712
-0.5038759708404541 -0.22480618953704834 -0.37786221504211426
-0.5038759708404541 -0.22480618953704834 -0.25459104776382446
-0.5038759708404541 -0.20930230617523193 -0.39010554552078247
-0.5038759708404541 -0.20930230617523193 -0.25141099095344543
-0.5038759708404541 -0.19379842281341553 -0.40129584074020386
-0.5038759708404541 -0.19379842281341553 -0.24514392018318176
-0.5038759708404541 -0.1782946139574051 -0.40789055824279785
-0.5038759708404541 -0.1782945990562439 -0.23933491110801697
-0.5038759708404541 -0.1627907156944275 -0.41422489285469055
-0.5038759708404541 -0.1627907156944275 -0.23611164093017578
-0.5038759708404541 -0.14728683233261108 -0.4207156300544739
-0.5038759708404541 -0.14728683233261108 -0.2337997406721115
-0.5038759708404541 -0.13178294897079468 -0.4235329329967499
-0.5038759708404541 -0.13178294897079468 -0.23184937238693237
-0.5038759708404541 -0.11627906560897827 -0.4268812835216522
-0.5038759708404541 -0.11627906560897827 -0.22998738288879395
-0.5038759708404541 -0.10077518224716187 -0.4325469136238098
-0.5038759708404541 -0.10077518224716187 -0.22707220911979675
-0.5038759708404541 -0.08527129888534546 -0.43685096502304077
-0.5038759708404541 -0.08527129888534546 -0.22340932488441467
-0.5038759708404541 -0.06976741552352905 -0.4384927749633789
-0.5038759708404541 -0.06976741552352905 -0.22101479768753052
-0.5038759708404541 -0.05426359176635742 -0.4393608272075653
-0.5038759708404541 -0.05426359176635742 -0.21874797344207764
-0.5038759708404541 -0.038759708404541016 -0.4411599636077881
-0.5038759708404541 -0.038759708404541016 -0.21638278663158417
-0.5038759708404541 -0.02325582504272461 -0.4431556463241577
-0.5038759708404541 -0.02325582504272461 -0.21410095691680908
-0.5038759708404541 -0.007751941680908203 -0.4436597526073456
-0.5038759708404541 -0.007751941680908203 -0.21253818273544312
-0.5038759708404541 0.007751941680908203 -0.4427023231983185
-0.5038759708404541 0.007751941680908203 -0.21308094263076782
-0.5038759708404541 0.02325582504272461 -0.44085973501205444
-0.5038759708404541 0.02325582504272461 -0.2145492285490036
-0.5038759708404541 0.038759708404541016 -0.43941381573677063
-0.5038759708404541 0.038759708404541016 -0.21700748801231384
-0.5038759708404541 0.05426359176635742 -0.4388066530227661
-0.5038759708404541 0.05426359176635742 -0.21962812542915344
-0.5038759708404541 0.06976747512817383 -0.4383997321128845
-0.5038759708404541 0.06976747512817383 -0.22217507660388947
-0.5038759708404541 0.08527135848999023 -0.43781164288520813
-0.5038759708404541 0.08527135848999023 -0.22445541620254517
-0.5038759708404541 0.10077524185180664 -0.43699756264686584
-0.5038759708404541 0.10077524185180664 -0.22702915966510773
-0.5038759708404541 0.11627912521362305 -0.4354734420776367
-0.5038759708404541 0.11627912521362305 -0.22925160825252533
-0.5038759708404541 0.1317828893661499 -0.43277907371520996
-0.5038759708404541 0.1317828893661499 -0.23217861354351044
-0.5038759708404541 0.1472867727279663 -0.4289907217025757
-0.5038759708404541 0.1472867727279663 -0.23629945516586304
-0.5038759708404541 0.16279065608978271 -0.42447274923324585
-0.5038759708404541 0.16279065608978271 -0.24113817512989044
-0.5038759708404541 0.17829453945159912 -0.4221615791320801
-0.5038759708404541 0.17829453945159912 -0.25187918543815613
-0.5038759708404541 0.19379842281341553 -0.41602617502212524
-0.5038759708404541 0.19379842281341553 -0.267808198928833
-0.5038759708404541 0.20930230617523193 -0.40742799639701843
-0.5038759708404541 0.20930230617523193 -0.28822675347328186
-0.5038759708404541 0.22480618953704834 -0.40055540204048157
-0.5038759708404541 0.22480618953704834 -0.30133241415023804
-0.5038759708404541 0.24031007289886475 -0.3904137909412384
-0.5038759708404541 0.24031007289886475 -0.30750319361686707
-0.5038759708404541 0.25581395626068115 -0.3810350000858307
-0.5038759708404541 0.25581395626068115 -0.29548507928848267
-0.5038759708404541 0.27131783962249756 -0.37153440713882446
-0.5038759708404541 0.27131783962249756 -0.26677197217941284
-0.5038759708404541 0.28682172298431396 -0.36125004291534424
-0.5038759708404541 0.28682172298431396 -0.2467646300792694
-0.5038759708404541 0.30232560634613037 -0.3517557680606842
-0.5038759708404541 0.30232560634613037 -0.23513463139533997
-0.5038759708404541 0.3178294897079468 -0.3398294448852539
-0.5038759708404541 0.3178294897079468 -0.2321065366268158
-0.5038759708404541 0.3333333730697632 -0.32664963603019714
-0.5038759708404541 0.3333333730697632 -0.2353859692811966
-0.5038759708404541 0.3488372564315796 -0.312152624130249
-0.5038759708404541 0.3488372564315796 -0.24644169211387634
-0.5038759708404541 0.364341139793396 -0.2896874248981476
-0.5038759708404541 0.364341139793396 -0.26806584000587463
-0.4883720874786377 -0.3798449635505676 -0.2901597321033478
-0.4883720874786377 -0.3798449635505676 -0.2395719587802887
-0.4883720874786377 -0.3643410801887512 -0.31281352043151855
-0.4883720874786377 -0.3643410801887512 -0.22202876210212708
-0.4883720874786377 -0.3488371968269348 -0.32642433047294617
-0.4883720874786377 -0.3488371968269348 -0.21761059761047363
-0.4883720874786377 -0.3333333134651184 -0.3346225619316101
-0.4883720874786377 -0.3333333134651184 -0.21974685788154602
-0.4883720874786377 -0.317829430103302 -0.33746233582496643
-0.4883720874786377 -0.317829430103302 -0.23261424899101257
-0.4883720874786377 -0.30232560634613037 -0.33409303426742554
-0.4883720874786377 -0.30232560634613037 -0.25445500016212463
-0.4883720874786377 -0.28682172298431396 -0.32516756653785706
-0.4883720874786377 -0.28682172298431396 -0.27106305956840515
-0.4883720874786377 -0.27131783962249756 -0.32346174120903015
-0.4883720874786377 -0.27131783962249756 -0.2808649241924286
-0.4883720874786377 -0.25581395626068115 -0.33671143651008606
-0.4883720874786377 -0.25581395626068115 -0.2808048129081726
-0.4883720874786377 -0.24031007289886475 -0.35625481605529785
-0.4883720874786377 -0.24031007289886475 -0.27472102642059326
-0.4883720874786377 -0.22480618953704834 -0.3767300546169281
-0.4883720576763153 -0.22480618953704834 -0.26876404881477356
-0.4883720874786377 -0.20930230617523193 -0.39255115389823914
-0.4883720874786377 -0.20930230617523193 -0.25972795486450195
-0.4883720874786377 -0.19379842281341553 -0.4051766097545624
-0.4883720874786377 -0.19379842281341553 -0.2507762312889099
-0.4883720874786377 -0.1782945990562439 -0.4137721061706543
-0.4883720874786377 -0.1782945990562439 -0.24102655053138733
-0.4883720874786377 -0.1627907156944275 -0.4211732745170593
-0.4883720874786377 -0.1627907156944275 -0.23639242351055145
-0.4883721172809601 -0.14728683233261108 -0.4244675636291504
-0.4883720874786377 -0.14728683233261108 -0.23324930667877197
-0.4883720874786377 -0.13178294897079468 -0.4299790561199188
-0.4883720874786377 -0.13178294897079468 -0.23085355758666992
-0.4883721172809601 -0.11627906560897827 -0.43555593490600586
-0.4883720874786377 -0.11627906560897827 -0.2285255789756775
-0.4883720874786377 -0.10077518224716187 -0.4383474588394165
-0.4883720874786377 -0.10077518224716187 -0.2246631532907486
-0.4883720874786377 -0.08527129888534546 -0.4398817718029022
-0.4883720874786377 -0.08527129888534546 -0.22200676798820496
-0.4883720874786377 -0.06976741552352905 -0.44278255105018616
-0.4883720874786377 -0.06976741552352905 -0.21969085931777954
-0.4883720874786377 -0.05426359176635742 -0.44572991132736206
-0.4883720874786377 -0.05426359176635742 -0.21729764342308044
-0.4883720874786377 -0.038759708404541016 -0.44835448265075684
-0.4883720874786377 -0.038759708404541016 -0.2147442251443863
-0.4883720576763153 -0.02325582504272461 -0.44986939430236816
-0.4883720874786377 -0.02325582504272461 -0.21221598982810974
-0.4883720874786377 -0.007751941680908203 -0.44996678829193115
-0.4883720874786377 -0.007751941680908203 -0.2103343904018402
-0.4883720874786377 0.007751941680908203 -0.4487863779067993
-0.4883720874786377 0.007751941680908203 -0.21097230911254883
-0.4883720874786377 0.02325582504272461 -0.4466072916984558
-0.4883720874786377 0.02325582504272461 -0.21264269948005676
-0.4883720874786377 0.038759708404541016 -0.44435012340545654
-0.4883720874786377 0.038759708404541016 -0.2153920829296112
-0.4883720874786377 0.05426359176635742 -0.4423624277114868
-0.4883720874786377 0.05426359176635742 -0.21823763847351074
-0.4883720874786377 0.06976747512817383 -0.4408124089241028
-0.4883720874786377 0.06976747512817383 -0.22086495161056519
-0.4883720874786377 0.08527135848999023 -0.4398326873779297
-0.4883720874786377 0.08527135848999023 -0.22346077859401703
-0.4883720874786377 0.10077524185180664 -0.4393167793750763
-0.4883720874786377 0.10077524185180664 -0.22576095163822174
-0.4883720874786377 0.11627912521362305 -0.438782274723053
-0.4883720874786377 0.11627912521362305 -0.22879333794116974
-0.4883720874786377 0.1317828893661499 -0.437752366065979
-0.4883720874786377 0.1317828893661499 -0.2326720952987671
-0.4883720874786377 0.1472867727279663 -0.43559664487838745
-0.4883720874786377 0.1472867727279663 -0.23769019544124603
-0.4883720874786377 0.16279065608978271 -0.43097037076950073
-0.4883720874786377 0.16279065608978271 -0.24551445245742798
-0.4883720874786377 0.17829453945159912 -0.4247814416885376
-0.4883720874786377 0.17829453945159912 -0.2575171887874603
-0.4883721172809601 0.19379842281341553 -0.42069345712661743
-0.4883720874786377 0.19379842281341553 -0.2773849368095398
-0.4883720874786377 0.20930230617523193 -0.4120137095451355
-0.4883720874786377 0.20930230617523193 -0.29565054178237915
-0.4883721172809601 0.22480618953704834 -0.4041862487792969
-0.4883720874786377 0.22480618953704834 -0.3075304627418518
-0.4883720874786377 0.24031007289886475 -0.39648789167404175
-0.4883720874786377 0.24031007289886475 -0.31361931562423706
-0.4883720874786377 0.25581395626068115 -0.3867362141609192
-0.4883720874786377 0.25581395626068115 -0.3084494173526764
-0.4883720874786377 0.27131783962249756 -0.37637263536453247
-0.4883720874786377 0.27131783962249756 -0.28003647923469543
-0.4883720874786377 0.28682172298431396 -0.36888986825942993
-0.4883720874786377 0.28682172298431396 -0.25445011258125305
-0.4883720874786377 0.30232560634613037 -0.3579769730567932
-0.4883720874786377 0.30232560634613037 -0.23763138055801392
-0.4883720874786377 0.3178294897079468 -0.34413331747055054
-0.4883720874786377 0.3178294897079468 -0.23070409893989563
-0.4883721172809601 0.3333333730697632 -0.33029377460479736
-0.4883720874786377 0.3333333730697632 -0.23161065578460693
-0.4883720874786377 0.3488372564315796 -0.31676602363586426
-0.4883720874786377 0.3488372564315796 -0.23853269219398499
-0.4883720874786377 0.364341139793396 -0.2987819015979767
-0.4883720874786377 0.364341139793396 -0.2549944519996643
-0.4728682041168213 -0.3798449635505676 -0.2989025115966797
-0.4728682041168213 -0.3798449635505676 -0.2306060791015625
-0.4728682041168213 -0.3643410801887512 -0.3189827799797058
-0.4728682041168213 -0.3643410801887512 -0.21642300486564636
-0.4728682041168213 -0.3488371968269348 -0.3301112949848175
-0.4728682041168213 -0.3488371968269348 -0.2115638703107834
-0.4728682041168213 -0.3333333134651184 -0.33750367164611816
-0.4728682041168213 -0.3333333134651184 -0.21703436970710754
-0.4728682041168213 -0.317829430103302 -0.3364061713218689
-0.4728682041168213 -0.317829430103302 -0.23279134929180145
-0.4728682041168213 -0.30232560634613037 -0.3246198892593384
-0.4728682041168213 -0.30232560634613037 -0.2661706805229187
-0.4728682041168213 -0.24031005799770355 -0.34624749422073364
-0.4728682041168213 -0.24031007289886475 -0.3134707808494568
-0.4728682041168213 -0.22480618953704834 -0.3728262186050415
-0.4728682041168213 -0.22480618953704834 -0.29022103548049927
-0.4728682041168213 -0.20930230617523193 -0.39445772767066956
-0.4728682041168213 -0.20930230617523193 -0.2712188959121704
-0.4728682041168213 -0.19379842281341553 -0.40873968601226807
-0.4728682041168213 -0.19379842281341553 -0.25519153475761414
-0.4728682041168213 -0.1782945990562439 -0.419829398393631
-0.4728682041168213 -0.1782945990562439 -0.24486225843429565
-0.4728681743144989 -0.1627907156944275 -0.42529842257499695
-0.4728682041168213 -0.1627907156944275 -0.237117201089859
-0.4728682041168213 -0.14728683233261108 -0.4323365092277527
-0.4728682339191437 -0.14728683233261108 -0.2330959290266037
-0.4728682041168213 -0.13178294897079468 -0.4372338056564331
-0.4728682041168213 -0.13178294897079468 -0.23010924458503723
-0.4728682041168213 -0.11627906560897827 -0.43929323554039
-0.4728682041168213 -0.11627906560897827 -0.22713932394981384
-0.4728682041168213 -0.10077518224716187 -0.4426448345184326
-0.4728682041168213 -0.10077518224716187 -0.22346854209899902
-0.4728682041168213 -0.08527129888534546 -0.4473022520542145
-0.4728682041168213 -0.08527129888534546 -0.22083376348018646
-0.4728682041168213 -0.06976741552352905 -0.4506499767303467
-0.4728682041168213 -0.06976741552352905 -0.2184920608997345
-0.4728682041168213 -0.05426359176635742 -0.4523216187953949
-0.4728682041168213 -0.05426359176635742 -0.21591049432754517
-0.4728682041168213 -0.038759708404541016 -0.4532530903816223
-0.4728682041168213 -0.038759708404541016 -0.21317648887634277
-0.4728681743144989 -0.02325582504272461 -0.45368507504463196
-0.4728682041168213 -0.02325582504272461 -0.21044911444187164
-0.4728682041168213 -0.007751941215246916 -0.45365387201309204
-0.4728682041168213 -0.007751941680908203 -0.2089637666940689
-0.4728682041168213 0.007751941680908203 -0.45316576957702637
-0.4728682041168213 0.007751941680908203 -0.2093411087989807
-0.4728682041168213 0.02325582504272461 -0.45205631852149963
-0.4728682041168213 0.02325582504272461 -0.21117886900901794
-0.4728682041168213 0.038759708404541016 -0.4504181146621704
-0.4728682041168213 0.038759708404541016 -0.21419332921504974
-0.4728682041168213 0.05426359176635742 -0.44853901863098145
-0.4728682041168213 0.05426359176635742 -0.21728599071502686
-0.4728682041168213 0.06976747512817383 -0.4469362497329712
-0.4728682041168213 0.06976747512817383 -0.22002074122428894
-0.4728682041168213 0.08527135848999023 -0.4454992413520813
-0.4728682041168213 0.08527135848999023 -0.2228710651397705
-0.4728682041168213 0.10077524185180664 -0.4442164897918701
-0.4728682041168213 0.10077524185180664 -0.22528375685214996
-0.4728682041168213 0.11627912521362305 -0.442243367433548
-0.4728682041168213 0.11627912521362305 -0.2290440797805786
-0.4728681743144989 0.1317828893661499 -0.439969003200531
-0.4728682041168213 0.1317828893661499 -0.233463317155838
-0.4728682041168213 0.1472867727279663 -0.4388042986392975
-0.4728682041168213 0.1472867727279663 -0.23909008502960205
-0.4728682041168213 0.16279065608978271 -0.43654483556747437
-0.4728682041168213 0.16279065608978271 -0.24880950152873993
-0.4728682041168213 0.17829453945159912 -0.4309902787208557
-0.4728682041168213 0.17829453945159912 -0.2629052698612213
-0.4728682041168213 0.19379842281341553 -0.423316091299057
-0.4728682041168213 0.19379842281341553 -0.28172335028648376
-0.4728682041168213 0.20930230617523193 -0.4165601134300232
-0.4728682041168213 0.20930229127407074 -0.29815757274627686
-0.4728682041168213 0.22480618953704834 -0.40744489431381226
-0.4728682041168213 0.22480618953704834 -0.30983030796051025
-0.4728682041168213 0.24031007289886475 -0.4005463719367981
-0.4728682041168213 0.24031007289886475 -0.31624412536621094
-0.4728682041168213 0.25581395626068115 -0.39293724298477173
-0.4728682041168213 0.25581395626068115 -0.31545597314834595
-0.4728682041168213 0.27131783962249756 -0.3847466707229614
-0.4728682041168213 0.27131783962249756 -0.2957640588283539
-0.4728682041168213 0.28682172298431396 -0.37382972240448
-0.4728682041168213 0.28682172298431396 -0.2656158208847046
-0.4728682041168213 0.30232560634613037 -0.36275312304496765
-0.4728682041168213 0.30232560634613037 -0.24188733100891113
-0.4728682041168213 0.3178294897079468 -0.3512868285179138
-0.4728682041168213 0.3178294897079468 -0.2300390601158142
-0.4728682041168213 0.3333333730697632 -0.33837243914604187
-0.4728682041168213 0.3333333730697632 -0.22605471312999725
-0.4728682041168213 0.3488372564315796 -0.3242286443710327
-0.4728682041168213 0.3488372564315796 -0.23318599164485931
-0.4728682041168213 0.364341139793396 -0.30697768926620483
-0.4728682041168213 0.364341139793396 -0.24684706330299377
-0.4573643207550049 -0.3798449635505676 -0.30715253949165344
-0.4573643207550049 -0.3798449635505676 -0.22124436497688293
-0.4573643207550049 -0.3643410801887512 -0.3244289755821228
-0.4573643207550049 -0.3643410801887512 -0.20862098038196564
-0.4573643207550049 -0.3488371968269348 -0.33544453978538513
-0.4573643207550049 -0.3488371968269348 -0.20690935850143433
-0.4573643207550049 -0.3333333134651184 -0.3397534489631653
-0.4573643207550049 -0.3333333134651184 -0.21373030543327332
-0.4573643207550049 -0.317829430103302 -0.3339676260948181
-0.4573643207550049 -0.317829430103302 -0.23241640627384186
-0.4573643207550049 -0.30232560634613037 -0.3099392056465149
-0.4573643207550049 -0.30232560634613037 -0.2800692319869995
-0.4573643207550049 -0.22480618953704834 -0.3684927225112915
-0.4573643207550049 -0.22480618953704834 -0.3084982931613922
-0.4573643207550049 -0.20930230617523193 -0.3955109119415283
-0.4573643207550049 -0.20930230617523193 -0.28567641973495483
-0.4573643207550049 -0.19379842281341553 -0.4135332405567169
-0.4573643207550049 -0.19379842281341553 -0.26360461115837097
-0.4573643207550049 -0.1782945990562439 -0.42445629835128784
-0.4573643207550049 -0.1782945990562439 -0.24795624613761902
-0.4573643207550049 -0.1627907156944275 -0.4334597885608673
-0.4573643207550049 -0.1627907156944275 -0.23762144148349762
-0.4573643207550049 -0.14728683233261108 -0.4382924437522888
-0.4573643207550049 -0.14728683233261108 -0.232731431722641
-0.4573643207550049 -0.13178294897079468 -0.4414094090461731
-0.4573643207550049 -0.13178294897079468 -0.22904884815216064
-0.4573643207550049 -0.11627906560897827 -0.44683006405830383
-0.4573643207550049 -0.11627906560897827 -0.22498391568660736
-0.4573643207550049 -0.10077518224716187 -0.45121896266937256
-0.4573643207550049 -0.10077518224716187 -0.22205817699432373
-0.4573643207550049 -0.08527129888534546 -0.453480064868927
-0.4573643207550049 -0.08527129888534546 -0.2195526361465454
-0.4573643207550049 -0.06976741552352905 -0.45457276701927185
-0.4573643207550049 -0.06976741552352905 -0.21702513098716736
-0.4573643207550049 -0.05426359176635742 -0.45590493083000183
-0.4573643207550049 -0.05426359176635742 -0.21421140432357788
-0.4573643207550049 -0.038759708404541016 -0.457535982131958
-0.4573643207550049 -0.038759708404541016 -0.21126140654087067
-0.4573643207550049 -0.02325582504272461 -0.45820221304893494
-0.45736435055732727 -0.02325582690536976 -0.2088930308818817
-0.4573643207550049 -0.02325582504272461 -0.1319582611322403
-0.4573643207550049 -0.02325582504272461 -0.10863764584064484
-0.4573643207550049 -0.007751941680908203 -0.4579325318336487
-0.4573643207550049 -0.007751941680908203 -0.20816639065742493
-0.4573643207550049 -0.007751941680908203 -0.133800208568573
-0.4573643207550049 -0.007751941680908203 -0.10174409300088882
-0.45736435055732727 0.007751941680908203 -0.45662620663642883
-0.4573643207550049 0.007751941680908203 -0.2086246907711029
-0.4573643207550049 0.007751941680908203 -0.13236819207668304
-0.4573643207550049 0.007751941680908203 -0.10905011743307114
-0.4573643207550049 0.02325582504272461 -0.4549766182899475
-0.4573643207550049 0.02325582504272461 -0.20975914597511292
-0.4573643207550049 0.038759708404541016 -0.4541277289390564
-0.4573643207550049 0.038759708404541016 -0.2130768895149231
-0.4573643207550049 0.05426359176635742 -0.4535474181175232
-0.4573643207550049 0.05426359176635742 -0.21641315519809723
-0.4573643207550049 0.06976747512817383 -0.45294180512428284
-0.4573643207550049 0.06976747512817383 -0.21926671266555786
-0.4573643207550049 0.08527135848999023 -0.4521443843841553
-0.4573643207550049 0.08527135848999023 -0.22224120795726776
-0.4573643207550049 0.10077524185180664 -0.4512556195259094
-0.4573643207550049 0.10077524185180664 -0.22469276189804077
-0.4573643207550049 0.11627912521362305 -0.4495844841003418
-0.4573643207550049 0.11627912521362305 -0.22886574268341064
-0.4573643207550049 0.1317828893661499 -0.446863055229187
-0.4573643207550049 0.1317828893661499 -0.23355543613433838
-0.4573643207550049 0.1472867727279663 -0.4434889853000641
-0.4573643207550049 0.1472867727279663 -0.23958593606948853
-0.4573643207550049 0.16279065608978271 -0.4394581913948059
-0.4573643207550049 0.16279065608978271 -0.24988365173339844
-0.4573643207550049 0.17829453945159912 -0.43672168254852295
-0.4573643207550049 0.17829453945159912 -0.2643246650695801
-0.4573643207550049 0.19379842281341553 -0.429320365190506
-0.4573643207550049 0.19379842281341553 -0.2823270559310913
-0.4573643207550049 0.20930230617523193 -0.4210546910762787
-0.4573643207550049 0.20930230617523193 -0.29803743958473206
-0.4573643207550049 0.22480618953704834 -0.41347452998161316
-0.4573643207550049 0.22480618953704834 -0.3098127245903015
-0.4573643207550049 0.24031008780002594 -0.40548691153526306
-0.4573643207550049 0.24031007289886475 -0.31686732172966003
-0.4573643207550049 0.25581395626068115 -0.4004374146461487
-0.4573643207550049 0.25581395626068115 -0.31815245747566223
-0.4573643207550049 0.27131783962249756 -0.39294347167015076
-0.4573643207550049 0.27131783962249756 -0.306647390127182
-0.4573643207550049 0.28682172298431396 -0.38307297229766846
-0.4573643207550049 0.28682172298431396 -0.27533453702926636
-0.4573643207550049 0.30232560634613037 -0.3707246482372284
-0.4573643207550049 0.30232560634613037 -0.2479451596736908
-0.4573643207550049 0.3178294897079468 -0.3582596778869629
-0.4573643207550049 0.3178294897079468 -0.22907790541648865
-0.4573643207550049 0.3333333730697632 -0.34378325939178467
-0.4573643207550049 0.3333333730697632 -0.22262625396251678
-0.4573643207550049 0.3488372564315796 -0.32866188883781433
-0.4573643207550049 0.3488372564315796 -0.22712191939353943
-0.4573643207550049 0.364341139793396 -0.31244537234306335
-0.4573643207550049 0.364341139793396 -0.23844541609287262
-0.4573643207550049 0.37984490394592285 -0.2870245575904846
-0.4573643207550049 0.37984490394592285 -0.26355940103530884
-0.4418604373931885 -0.39534884691238403 -0.2792049050331116
-0.4418604373931885 -0.39534884691238403 -0.2413860559463501
-0.4418604373931885 -0.3798449635505676 -0.312608927488327
-0.4418604373931885 -0.3798449635505676 -0.21380341053009033
-0.4418604373931885 -0.3643410801887512 -0.3288137912750244
-0.4418604373931885 -0.3643410801887512 -0.20414839684963226
-0.4418604373931885 -0.3488371968269348 -0.34081876277923584
-0.44186046719551086 -0.3488371968269348 -0.20321640372276306
-0.4418604373931885 -0.3333333134651184 -0.3431624174118042
-0.4418604075908661 -0.3333333134651184 -0.20856355130672455
-0.4418604373931885 -0.317829430103302 -0.33295848965644836
-0.4418604373931885 -0.317829430103302 -0.22599540650844574
-0.4418604373931885 -0.30232560634613037 -0.30384641885757446
-0.4418604373931885 -0.30232560634613037 -0.27843600511550903
-0.4418604373931885 -0.22480618953704834 -0.3655892014503479
-0.4418604373931885 -0.22480618953704834 -0.3169685900211334
-0.4418604373931885 -0.20930230617523193 -0.3970944285392761
-0.4418604373931885 -0.20930230617523193 -0.2953985333442688
-0.4418604373931885 -0.19379842281341553 -0.4192044138908386
-0.4418604075908661 -0.19379840791225433 -0.2693341374397278
-0.4418604373931885 -0.1782945990562439 -0.4327221214771271
-0.4418604373931885 -0.1782945990562439 -0.250284343957901
-0.4418604373931885 -0.1627907156944275 -0.43930938839912415
-0.4418604373931885 -0.1627907156944275 -0.2379361093044281
-0.4418604373931885 -0.14728683233261108 -0.44559359550476074
-0.4418604373931885 -0.14728683233261108 -0.23218747973442078
-0.4418604373931885 -0.13178294897079468 -0.4508545398712158
-0.4418604373931885 -0.13178294897079468 -0.2275727391242981
-0.4418604373931885 -0.11627906560897827 -0.453646183013916
-0.4418604373931885 -0.11627906560897827 -0.2235066443681717
-0.44186046719551086 -0.10077518969774246 -0.45559248328208923
-0.4418604373931885 -0.10077518224716187 -0.22067667543888092
-0.4418604373931885 -0.08527129888534546 -0.45875582098960876
-0.4418604373931885 -0.08527129888534546 -0.21821963787078857
-0.4418604373931885 -0.06976741552352905 -0.4616888761520386
-0.4418604373931885 -0.06976741552352905 -0.21543392539024353
-0.4418604373931885 -0.05426359176635742 -0.4638352394104004
-0.4418604373931885 -0.05426359176635742 -0.21236439049243927
-0.4418604373931885 -0.038759708404541016 -0.46528422832489014
-0.44186046719551086 -0.038759708404541016 -0.20921896398067474
-0.4418604373931885 -0.02325582504272461 -0.4656987190246582
-0.4418604075908661 -0.02325582504272461 -0.2079504132270813
-0.4418604373931885 -0.02325582504272461 -0.13348020613193512
-0.4418604373931885 -0.02325582504272461 -0.09768389910459518
-0.4418604373931885 -0.007751941680908203 -0.46520817279815674
-0.4418604373931885 -0.00775194214656949 -0.20742133259773254
-0.4418604373931885 -0.007751941680908203 -0.1355353742837906
-0.4418604373931885 -0.007751941680908203 -0.09419795870780945
-0.4418604373931885 0.007751941680908203 -0.46361860632896423
-0.4418604373931885 0.007751941680908203 -0.20806293189525604
-0.4418604373931885 0.007751941680908203 -0.13370409607887268
-0.4418604373931885 0.007751941680908203 -0.0973849967122078
-0.4418604373931885 0.02325582504272461 -0.4613524079322815
-0.4418604373931885 0.02325582504272461 -0.209051251411438
-0.4418604373931885 0.038759708404541016 -0.45931461453437805
-0.4418604373931885 0.038759708404541016 -0.21224744617938995
-0.4418604373931885 0.05426359176635742 -0.4577457308769226
-0.4418604373931885 0.05426359176635742 -0.21576517820358276
-0.4418604373931885 0.06976747512817383 -0.45635491609573364
-0.4418604373931885 0.06976747512817383 -0.21866106986999512
-0.4418604373931885 0.08527135848999023 -0.45537668466567993
-0.4418604373931885 0.08527135848999023 -0.22162121534347534
-0.4418604373931885 0.10077524185180664 -0.45484495162963867
-0.4418604373931885 0.10077524185180664 -0.2242327779531479
-0.4418604373931885 0.11627912521362305 -0.45431947708129883
-0.4418604373931885 0.11627912521362305 -0.22816891968250275
-0.4418604373931885 0.1317828893661499 -0.45341047644615173
-0.4418604373931885 0.1317828893661499 -0.23282837867736816
-0.4418604373931885 0.1472867727279663 -0.4514203667640686
-0.4418604373931885 0.1472867727279663 -0.2387893795967102
-0.4418604373931885 0.16279065608978271 -0.4468846917152405
-0.4418604373931885 0.16279065608978271 -0.2482820749282837
-0.4418604373931885 0.17829453945159912 -0.4410204291343689
-0.4418604373931885 0.17829453945159912 -0.2615897059440613
-0.4418604373931885 0.19379842281341553 -0.43627768754959106
-0.4418604373931885 0.19379842281341553 -0.27898895740509033
-0.4418604373931885 0.20930230617523193 -0.42835062742233276
-0.4418604373931885 0.20930230617523193 -0.2946016788482666
-0.4418604373931885 0.22480618953704834 -0.42045122385025024
-0.4418604373931885 0.22480618953704834 -0.30687516927719116
-0.4418604373931885 0.24031007289886475 -0.414786696434021
-0.4418604373931885 0.24031007289886475 -0.31529852747917175
-0.4418604373931885 0.25581395626068115 -0.4100020229816437
-0.4418604373931885 0.25581395626068115 -0.31743505597114563
-0.4418604373931885 0.27131783962249756 -0.403448224067688
-0.4418604373931885 0.27131783962249756 -0.31053173542022705
-0.4418604373931885 0.28682172298431396 -0.39297449588775635
-0.4418604373931885 0.28682172298431396 -0.2807871699333191
-0.44186046719551086 0.30232560634613037 -0.37795841693878174
-0.4418604373931885 0.30232560634613037 -0.248539000749588
-0.4418604373931885 0.3178294897079468 -0.3646726608276367
-0.4418604373931885 0.3178294897079468 -0.22448550164699554
-0.4418604373931885 0.3333333730697632 -0.35057780146598816
-0.4418604373931885 0.3333333730697632 -0.2189810872077942
-0.4418604373931885 0.3488372564315796 -0.33423784375190735
-0.4418604373931885 0.3488372564315796 -0.22087258100509644
-0.4418604373931885 0.3643411695957184 -0.31718114018440247
-0.4418604373931885 0.364341139793396 -0.23198655247688293
-0.4418604373931885 0.37984490394592285 -0.29603856801986694
-0.4418604373931885 0.37984493374824524 -0.2507900595664978
-0.42635661363601685 -0.39534884691238403 -0.29132750630378723
-0.42635661363601685 -0.39534884691238403 -0.2313987910747528
-0.42635661363601685 -0.3798449635505676 -0.31814470887184143
-0.42635661363601685 -0.3798449635505676 -0.2064715027809143
-0.42635661363601685 -0.3643410801887512 -0.3339077830314636
-0.42635661363601685 -0.3643410801887512 -0.19929330050945282
-0.42635661363601685 -0.3488371968269348 -0.34487342834472656
-0.42635661363601685 -0.3488371968269348 -0.19812384247779846
-0.42635661363601685 -0.3333333134651184 -0.3472435474395752
-0.42635661363601685 -0.3333333134651184 -0.20668527483940125
-0.42635661363601685 -0.317829430103302 -0.3336896002292633
-0.42635661363601685 -0.317829430103302 -0.22354239225387573
-0.42635661363601685 -0.30232560634613037 -0.3035147190093994
-0.42635661363601685 -0.30232563614845276 -0.2709583342075348
-0.42635661363601685 -0.22480618953704834 -0.36063429713249207
-0.42635661363601685 -0.22480618953704834 -0.3284575343132019
-0.42635661363601685 -0.20930230617523193 -0.40088748931884766
-0.42635661363601685 -0.20930230617523193 -0.30095529556274414
-0.42635661363601685 -0.19379842281341553 -0.4274601936340332
-0.42635661363601685 -0.19379842281341553 -0.2764982283115387
-0.42635661363601685 -0.1782945990562439 -0.4395880401134491
-0.42635661363601685 -0.1782945990562439 -0.252157986164093
-0.42635661363601685 -0.1627907156944275 -0.44818738102912903
-0.42635661363601685 -0.1627907156944275 -0.23809605836868286
-0.42635661363601685 -0.14728683233261108 -0.4530636668205261
-0.42635661363601685 -0.14728683233261108 -0.23140114545822144
-0.42635661363601685 -0.13178294897079468 -0.4556111991405487
-0.42635661363601685 -0.13178294897079468 -0.2254023402929306
-0.42635661363601685 -0.11627906560897827 -0.459506094455719
-0.42635661363601685 -0.11627905815839767 -0.22190217673778534
-0.42635661363601685 -0.10077518224716187 -0.46348312497138977
-0.42635658383369446 -0.10077518224716187 -0.21921707689762115
-0.42635661363601685 -0.08527129888534546 -0.4666988253593445
-0.42635661363601685 -0.08527129888534546 -0.21658775210380554
-0.42635661363601685 -0.06976741552352905 -0.4683798551559448
-0.42635661363601685 -0.06976741552352905 -0.21342803537845612
-0.42635661363601685 -0.05426359176635742 -0.46910977363586426
-0.42635661363601685 -0.05426359176635742 -0.20976150035858154
-0.42635661363601685 -0.038759708404541016 -0.46962106227874756
-0.42635661363601685 -0.038759708404541016 -0.20774030685424805
-0.42635661363601685 -0.02325582318007946 -0.46978089213371277
-0.42635664343833923 -0.02325582504272461 -0.20623259246349335
-0.42635661363601685 -0.02325582504272461 -0.13452228903770447
-0.42635661363601685 -0.02325582504272461 -0.09257379174232483
-0.42635661363601685 -0.007751941680908203 -0.46956098079681396
-0.42635661363601685 -0.007751941680908203 -0.20584233105182648
-0.42635661363601685 -0.007751941680908203 -0.13814733922481537
-0.42635661363601685 -0.007751941680908203 -0.08514482527971268
-0.42635661363601685 0.007751941680908203 -0.46907493472099304
-0.42635661363601685 0.007751941680908203 -0.2068694680929184
-0.42635661363601685 0.007751941680908203 -0.134962260723114
-0.42635661363601685 0.007751941680908203 -0.09181606024503708
-0.42635661363601685 0.02325582504272461 -0.4681181311607361
-0.42635661363601685 0.02325582504272461 -0.20831862092018127
-0.42635661363601685 0.02325582504272461 -0.11738404631614685
-0.42635661363601685 0.02325582504272461 -0.11297444254159927
-0.42635661363601685 0.038759708404541016 -0.4665931761264801
-0.42635661363601685 0.038759708404541016 -0.21099810302257538
-0.42635661363601685 0.05426359176635742 -0.4647977948188782
-0.42635661363601685 0.05426359176635742 -0.21467898786067963
-0.42635661363601685 0.06976747512817383 -0.46324536204338074
-0.42635661363601685 0.06976747512817383 -0.21763946115970612
-0.42635661363601685 0.08527135848999023 -0.46187204122543335
-0.42635661363601685 0.08527135848999023 -0.22043709456920624
-0.42635661363601685 0.10077524185180664 -0.46078142523765564
-0.42635661363601685 0.10077524185180664 -0.22314345836639404
-0.42635661363601685 0.11627912521362305 -0.45915135741233826
-0.42635661363601685 0.11627912521362305 -0.22627510130405426
-0.42635658383369446 0.1317828893661499 -0.4569728970527649
-0.42635661363601685 0.1317828893661499 -0.230916827917099
-0.42635661363601685 0.1472867727279663 -0.4548812210559845
-0.42635661363601685 0.1472867727279663 -0.2364661544561386
-0.42635661363601685 0.16279065608978271 -0.4532061815261841
-0.42635661363601685 0.16279065608978271 -0.24449515342712402
-0.42635661363601685 0.17829453945159912 -0.44859805703163147
-0.42635661363601685 0.17829453945159912 -0.25573691725730896
-0.42635658383369446 0.19379842281341553 -0.441375732421875
-0.42635661363601685 0.19379842281341553 -0.2723841369152069
-0.42635661363601685 0.20930230617523193 -0.43529534339904785
-0.42635661363601685 0.20930230617523193 -0.28889405727386475
-0.42635661363601685 0.22480618953704834 -0.4283868670463562
-0.42635661363601685 0.22480618953704834 -0.3011237382888794
-0.42635661363601685 0.24031007289886475 -0.42206770181655884
-0.42635661363601685 0.24031008780002594 -0.3113670349121094
-0.42635661363601685 0.25581395626068115 -0.4181651175022125
-0.42635664343833923 0.25581395626068115 -0.31544819474220276
-0.42635661363601685 0.27131783962249756 -0.4126147925853729
-0.42635661363601685 0.27131783962249756 -0.31182384490966797
-0.42635661363601685 0.28682172298431396 -0.40366190671920776
-0.42635661363601685 0.28682172298431396 -0.2869502007961273
-0.42635661363601685 0.30232560634613037 -0.38838911056518555
-0.42635661363601685 0.30232560634613037 -0.25088202953338623
-0.42635661363601685 0.3178294897079468 -0.37234005331993103
-0.42635661363601685 0.3178294897079468 -0.22290675342082977
-0.42635661363601685 0.3333333730697632 -0.358077734708786
-0.42635661363601685 0.3333333730697632 -0.21450909972190857
-0.42635661363601685 0.3488372564315796 -0.3413075804710388
-0.42635661363601685 0.3488372564315796 -0.21642103791236877
-0.42635661363601685 0.364341139793396 -0.323537141084671
-0.42635661363601685 0.364341139793396 -0.22472724318504333
-0.42635661363601685 0.37984490394592285 -0.30281639099121094
-0.42635661363601685 0.37984490394592285 -0.24282118678092957
-0.41085270047187805 -0.39534881711006165 -0.29781657457351685
-0.41085273027420044 -0.39534881711006165 -0.222015842795372
-0.41085273027420044 -0.3798449635505676 -0.323117733001709
-0.41085273027420044 -0.3798449635505676 -0.20201300084590912
-0.41085273027420044 -0.3643410801887512 -0.33908727765083313
-0.41085273027420044 -0.3643411099910736 -0.19296815991401672
-0.41085273027420044 -0.3488371968269348 -0.35034018754959106
-0.41085273027420044 -0.3488371968269348 -0.19340477883815765
-0.41085273027420044 -0.3333333134651184 -0.3514041602611542
-0.41085273027420044 -0.3333333134651184 -0.2054404765367508
-0.41085273027420044 -0.317829430103302 -0.3351441025733948
-0.41085273027420044 -0.317829430103302 -0.22294358909130096
-0.41085273027420044 -0.30232560634613037 -0.30335262417793274
-0.41085273027420044 -0.30232560634613037 -0.271738737821579
-0.41085273027420044 -0.22480618953704834 -0.35379913449287415
-0.41085273027420044 -0.22480618953704834 -0.34032952785491943
-0.41085273027420044 -0.20930230617523193 -0.408098965883255
-0.41085273027420044 -0.20930230617523193 -0.30691057443618774
-0.41085273027420044 -0.19379842281341553 -0.43626391887664795
-0.41085273027420044 -0.19379842281341553 -0.2818838953971863
-0.41085273027420044 -0.1782945990562439 -0.4484723210334778
-0.41085273027420044 -0.1782945990562439 -0.2529158294200897
-0.4108527600765228 -0.1627907156944275 -0.45420247316360474
-0.41085273027420044 -0.1627907156944275 -0.2373635619878769
-0.41085273027420044 -0.14728683233261108 -0.4590703845024109
-0.41085273027420044 -0.14728683233261108 -0.22955748438835144
-0.41085273027420044 -0.13178294897079468 -0.4635636508464813
-0.41085273027420044 -0.13178294897079468 -0.2232329547405243
-0.41085273027420044 -0.11627906560897827 -0.4672239422798157
-0.41085273027420044 -0.11627907305955887 -0.219874769449234
-0.41085273027420044 -0.10077518969774246 -0.46908989548683167
-0.41085273027420044 -0.10077518224716187 -0.21718886494636536
-0.41085273027420044 -0.08527129143476486 -0.4706532955169678
-0.41085273027420044 -0.08527129888534546 -0.21388596296310425
-0.41085273027420044 -0.06976742297410965 -0.4727509021759033
-0.41085273027420044 -0.06976740807294846 -0.20927907526493073
-0.41085273027420044 -0.05426359176635742 -0.4742221236228943
-0.4108527600765228 -0.05426359176635742 -0.2062576562166214
-0.41085273027420044 -0.038759708404541016 -0.47535181045532227
-0.41085273027420044 -0.038759708404541016 -0.20306675136089325
-0.41085273027420044 -0.02325582504272461 -0.47551244497299194
-0.41085273027420044 -0.02325582504272461 -0.2004590928554535
-0.41085273027420044 -0.02325582504272461 -0.13990718126296997
-0.41085273027420044 -0.02325582504272461 -0.084951251745224
-0.41085273027420044 -0.007751941680908203 -0.47490233182907104
-0.41085273027420044 -0.007751941680908203 -0.2002306580543518
-0.41085273027420044 -0.007751941215246916 -0.1469317525625229
-0.41085273027420044 -0.007751941215246916 -0.07868251204490662
-0.41085273027420044 0.007751941680908203 -0.47355666756629944
-0.41085273027420044 0.007751941680908203 -0.20212526619434357
-0.41085273027420044 0.007751941680908203 -0.14069212973117828
-0.41085273027420044 0.007751941215246916 -0.08260592818260193
-0.41085273027420044 0.02325582504272461 -0.4716763496398926
-0.41085273027420044 0.02325582504272461 -0.20464405417442322
-0.41085273027420044 0.02325582504272461 -0.12365691363811493
-0.41085273027420044 0.02325582504272461 -0.09889082610607147
-0.41085273027420044 0.038759708404541016 -0.4702611565589905
-0.41085273027420044 0.038759708404541016 -0.20794570446014404
-0.41085273027420044 0.05426359176635742 -0.46962663531303406
-0.41085273027420044 0.05426359176635742 -0.21145674586296082
-0.41085273027420044 0.06976747512817383 -0.46916234493255615
-0.41085273027420044 0.06976747512817383 -0.21517205238342285
-0.41085273027420044 0.08527135848999023 -0.4685558080673218
-0.41085273027420044 0.08527135848999023 -0.21807751059532166
-0.41085273027420044 0.10077524185180664 -0.46790027618408203
-0.41085273027420044 0.10077524185180664 -0.22065585851669312
-0.41085273027420044 0.11627912521362305 -0.4666367173194885
-0.41085270047187805 0.11627912521362305 -0.22319868206977844
-0.41085273027420044 0.1317828893661499 -0.4643925726413727
-0.41085273027420044 0.1317828893661499 -0.2271217703819275
-0.41085273027420044 0.1472867727279663 -0.461189866065979
-0.41085273027420044 0.1472867727279663 -0.23235397040843964
-0.41085273027420044 0.16279065608978271 -0.45713165402412415
-0.41085273027420044 0.16279065608978271 -0.2386903464794159
-0.41085273027420044 0.17829453945159912 -0.45394107699394226
-0.41085273027420044 0.17829453945159912 -0.2486264705657959
-0.41085273027420044 0.19379842281341553 -0.44892168045043945
-0.41085273027420044 0.19379842281341553 -0.26261481642723083
-0.41085273027420044 0.20930229127407074 -0.4414256513118744
-0.41085273027420044 0.20930230617523193 -0.27827534079551697
-0.41085273027420044 0.22480618953704834 -0.4357483386993408
-0.41085273027420044 0.22480618953704834 -0.2921026647090912
-0.41085273027420044 0.24031007289886475 -0.4302813410758972
-0.41085273027420044 0.24031007289886475 -0.30404365062713623
-0.41085273027420044 0.25581395626068115 -0.4253014326095581
-0.41085273027420044 0.25581395626068115 -0.3113221526145935
-0.41085273027420044 0.27131783962249756 -0.42018061876296997
-0.41085273027420044 0.27131783962249756 -0.3106616735458374
-0.41085273027420044 0.28682172298431396 -0.41202253103256226
-0.41085273027420044 0.28682172298431396 -0.2944997549057007
-0.41085273027420044 0.30232560634613037 -0.39926016330718994
-0.41085273027420044 0.30232560634613037 -0.2547716200351715
-0.41085273027420044 0.3178294897079468 -0.37882930040359497
-0.41085273027420044 0.3178294897079468 -0.22154226899147034
-0.41085273027420044 0.3333333730697632 -0.3619428277015686
-0.41085273027420044 0.3333333730697632 -0.20851537585258484
-0.4108527600765228 0.3488372564315796 -0.3445936441421509
-0.41085273027420044 0.3488372564315796 -0.21018177270889282
-0.41085273027420044 0.364341139793396 -0.32756930589675903
-0.41085273027420044 0.364341139793396 -0.21970146894454956
-0.41085273027420044 0.37984490394592285 -0.30807945132255554
-0.41085273027420044 0.37984490394592285 -0.23570111393928528
-0.39534884691238403 -0.39534884691238403 -0.3049984872341156
-0.39534884691238403 -0.39534884691238403 -0.21435672044754028
-0.39534884691238403 -0.3798449635505676 -0.3269098997116089
-0.39534884691238403 -0.3798449635505676 -0.19498147070407867
-0.39534884691238403 -0.3643410801887512 -0.34316301345825195
-0.39534884691238403 -0.3643410801887512 -0.19045476615428925
-0.39534884691238403 -0.3488371968269348 -0.35548990964889526
-0.39534884691238403 -0.3488371968269348 -0.19208990037441254
-0.39534884691238403 -0.3333333134651184 -0.35597991943359375
-0.39534884691238403 -0.3333333134651184 -0.2037789225578308
-0.39534884691238403 -0.317829430103302 -0.3384331166744232
-0.39534884691238403 -0.317829430103302 -0.22161969542503357
-0.39534884691238403 -0.30232560634613037 -0.3056577146053314
-0.39534884691238403 -0.30232560634613037 -0.2686440944671631
-0.39534884691238403 -0.20930230617523193 -0.42164263129234314
-0.39534884691238403 -0.20930230617523193 -0.31222298741340637
-0.39534884691238403 -0.19379842281341553 -0.44642186164855957
-0.3953488767147064 -0.19379843771457672 -0.2864041030406952
-0.39534884691238403 -0.1782945990562439 -0.4554365575313568
-0.39534884691238403 -0.1782945841550827 -0.25352001190185547
-0.39534884691238403 -0.1627907156944275 -0.4622025489807129
-0.3953488767147064 -0.1627907156944275 -0.23661643266677856
-0.39534884691238403 -0.14728683233261108 -0.46706053614616394
-0.39534884691238403 -0.14728683233261108 -0.22756576538085938
-0.39534884691238403 -0.13178294897079468 -0.4693663716316223
-0.39534884691238403 -0.13178294897079468 -0.22137492895126343
-0.39534884691238403 -0.11627906560897827 -0.47188475728034973
-0.39534884691238403 -0.11627906560897827 -0.2180282175540924
-0.39534884691238403 -0.10077518224716187 -0.4748119115829468
-0.39534884691238403 -0.10077518224716187 -0.2146179974079132
