0.24031007289886475 0.7548485994338989 -0.14728683233261108
0.24031007289886475 0.766497015953064 0.17829453945159912
0.24031007289886475 0.7908675670623779 0.16279065608978271
0.24031007289886475 0.8090112209320068 0.1472867727279663
0.24031007289886475 0.8252251744270325 0.1317828893661499
0.24031007289886475 0.8396124839782715 0.11627912521362305
0.24031007289886475 0.8510053157806396 -0.14728683233261108
0.24031007289886475 0.8515232801437378 0.10077524185180664
0.24031007289886475 0.8747701644897461 0.06976747512817383
0.24031007289886475 0.8619863986968994 0.08527135848999023
0.24031007289886475 0.8883510231971741 0.05426359176635742
0.24031007289886475 0.9022648334503174 -0.13178294897079468
0.24031007289886475 0.9015594124794006 0.038759708404541016
0.24031007289886475 0.9217219352722168 0.007751941680908203
0.24031005799770355 0.9114605784416199 0.02325582504272461
0.24031007289886475 0.9340662956237793 -0.007751941680908203
0.24031007289886475 0.945874810218811 -0.11627906560897827
0.24031007289886475 0.9516853094100952 -0.038759708404541016
0.24031007289886475 0.9412883520126343 -0.02325582504272461
0.24031007289886475 0.966802716255188 -0.10077518224716187
0.24031007289886475 0.9676259160041809 -0.06976741552352905
0.24031007289886475 0.9591191411018372 -0.05426359176635742
0.24031007289886475 0.9705625176429749 -0.08527129888534546
0.25581395626068115 -0.3352908492088318 -0.08527129888534546
0.25581395626068115 -0.33873239159584045 -0.06976741552352905
0.25581395626068115 -0.3376646637916565 -0.05426359176635742
0.25581395626068115 -0.3337976932525635 -0.038759708404541016
0.25581395626068115 -0.32745277881622314 -0.02325582504272461
0.25581395626068115 -0.31876882910728455 -0.007751941680908203
0.25581395626068115 -0.3037252128124237 0.007751941680908203
0.25581395626068115 -0.29343342781066895 -0.10077518224716187
0.25581395626068115 -0.2891504466533661 0.02325582504272461
0.25581395626068115 -0.27837708592414856 0.038759708404541016
0.25581395626068115 -0.2696347236633301 0.05426359176635742
0.25581395626068115 -0.2606414258480072 0.06976747512817383
0.25581395626068115 -0.2518620193004608 0.08527135848999023
0.25581395626068115 -0.24304261803627014 0.10077524185180664
0.25581395626068115 -0.2378779649734497 -0.10077518224716187
0.25581395626068115 -0.23082534968852997 0.11627912521362305
0.25581395626068115 -0.2188292294740677 0.1317828893661499
0.25581395626068115 -0.20924314856529236 0.1472867727279663
0.25581395626068115 -0.19711729884147644 0.16279065608978271
0.25581395626068115 -0.19252458214759827 -0.08527129888534546
0.25581395626068115 -0.18380233645439148 0.17829453945159912
0.25581395626068115 -0.17127105593681335 0.19379842281341553
0.25581395626068115 -0.15366299450397491 -0.06976741552352905
0.25581395626068115 -0.16036666929721832 0.20930230617523193
0.25581395626068115 -0.14888623356819153 0.22480618953704834
0.25581395626068115 -0.1348343789577484 -0.3643410801887512
0.25581395626068115 -0.1415845900774002 -0.3488371968269348
0.25581395626068115 -0.14471250772476196 -0.3333333134651184
0.25581395626068115 -0.14615485072135925 -0.317829430103302
0.25581395626068115 -0.14437329769134521 -0.30232560634613037
0.25581395626068115 -0.14104287326335907 -0.28682172298431396
0.25581395626068115 -0.13481982052326202 -0.27131783962249756
0.25581395626068115 -0.13689573109149933 0.24031007289886475
0.25581395626068115 -0.12255082279443741 -0.3798449635505676
0.25581395626068115 -0.126972958445549 -0.25581395626068115
0.25581395626068115 -0.11685598641633987 -0.24031007289886475
0.25581395626068115 -0.1285146027803421 0.25581395626068115
0.25581395626068115 -0.11923574656248093 0.27131783962249756
0.25581395626068115 -0.10458475351333618 -0.39534884691238403
0.25581395626068115 -0.10465791076421738 -0.22480618953704834
0.25581395626068115 -0.10683264583349228 0.28682172298431396
0.25581395626068115 -0.09167284518480301 -0.20930230617523193
0.25581395626068115 -0.08909877389669418 0.30232560634613037
0.25581395626068115 -0.07202049344778061 -0.41085273027420044
0.25581395626068115 -0.07630804181098938 -0.19379842281341553
0.25581395626068115 -0.05845910683274269 0.3178294897079468
0.25581395626068115 -0.017221031710505486 -0.1782945990562439
0.25581395626068115 -0.0010680286213755608 -0.1782945990562439
0.25581395626068115 0.09740745276212692 -0.05426359176635742
0.25581395626068115 0.14860229194164276 -0.41085273027420044
0.25581395626068115 0.15290042757987976 -0.19379842281341553
0.25581395626068115 0.19613336026668549 -0.39534884691238403
0.25581395626068115 0.19564981758594513 -0.20930230617523193
0.25581395626068115 0.21209192276000977 0.3178294897079468
0.25581395626068115 0.22681652009487152 -0.3798449635505676
0.25581395626068115 0.2282850593328476 -0.22480618953704834
0.25581395626068115 0.24971000850200653 -0.3643410801887512
0.25581395626068115 0.2541061043739319 -0.24031007289886475
0.25581395626068115 0.26637136936187744 -0.3488371968269348
0.25581395626068115 0.27996641397476196 -0.3333333134651184
0.25581395626068115 0.2783307731151581 -0.25581395626068115
0.25581395626068115 0.2728347182273865 0.30232560634613037
0.25581395626068115 0.29407745599746704 -0.317829430103302
0.25581395626068115 0.29619506001472473 -0.27131783962249756
0.25581395626068115 0.2994626760482788 -0.05426359176635742
0.25581395626068115 0.303457647562027 -0.302325576543808
0.25581395626068115 0.3046749234199524 -0.28682172298431396
0.25581395626068115 0.3796333372592926 0.28682172298431396
0.25581395626068115 0.43827956914901733 0.27131783962249756
0.25581395626068115 0.49240654706954956 0.25581395626068115
0.25581395626068115 0.5541048049926758 -0.06976741552352905
0.25581395626068115 0.5571986436843872 0.24031007289886475
0.25581395626068115 0.6100135445594788 -0.08527129888534546
0.25581395626068115 0.6133910417556763 0.22480618953704834
0.25581395626068115 0.6547969579696655 -0.10077518224716187
0.25581395626068115 0.6633478999137878 0.20930230617523193
0.25581395626068115 0.6998677253723145 -0.11627906560897827
0.25581395626068115 0.7106726169586182 0.19379842281341553
0.25581395626068115 0.7435436248779297 -0.13178294897079468
0.25581395626068115 0.7470704913139343 0.17829453945159912
0.25581395626068115 0.7743881344795227 0.16279065608978271
0.25581395626068115 0.79427170753479 0.1472867727279663
0.25581395626068115 0.8110741376876831 0.1317828893661499
0.25581395626068115 0.8263235688209534 0.11627912521362305
0.25581395626068115 0.8398943543434143 0.10077524185180664
0.25581395626068115 0.8516222238540649 0.08527135848999023
0.25581395626068115 0.8749979138374329 0.05426359176635742
0.25581395626068115 0.8623875379562378 0.06976747512817383
0.25581395626068115 0.8887758851051331 -0.13178294897079468
0.25581395626068115 0.8891139626502991 0.038759708404541016
0.25581395626068115 0.9026428461074829 0.02325582504272461
0.25581395626068115 0.9142544865608215 0.007751941680908203
0.25581395626068115 0.9375079870223999 -0.11627906560897827
0.25581395626068115 0.9359598755836487 -0.02325582504272461
0.25581395626068115 0.9233589768409729 -0.00775194214656949
0.25581395626068115 0.9458962678909302 -0.038759708404541016
0.25581395626068115 0.9637060165405273 -0.10077518224716187
0.25581395626068115 0.9674142599105835 -0.08527129888534546
0.25581395626068115 0.9625920057296753 -0.06976741552352905
0.25581395626068115 0.9538682103157043 -0.05426359176635742
0.27131783962249756 -0.3023684620857239 -0.05426359176635742
0.27131783962249756 -0.30079859495162964 -0.06976741552352905
0.27131783962249756 -0.2974203824996948 -0.038759708404541016
0.27131783962249756 -0.2918357253074646 -0.02325582504272461
0.27131783962249756 -0.2805713713169098 -0.08527129888534546
0.27131783962249756 -0.28473567962646484 -0.007751941680908203
0.27131783962249756 -0.27399182319641113 0.007751941680908203
0.27131783962249756 -0.26592469215393066 0.02325582504272461
0.27131783962249756 -0.259535551071167 0.038759708404541016
0.27131783962249756 -0.25031769275665283 0.05426359176635742
0.27131783962249756 -0.24163910746574402 0.06976747512817383
0.27131783962249756 -0.23226378858089447 -0.08527129888534546
0.27131783962249756 -0.22980861365795135 0.08527135848999023
0.27131783962249756 -0.21841563284397125 0.10077524185180664
0.27131783962249756 -0.20543235540390015 -0.06976741552352905
0.27131783962249756 -0.20851759612560272 0.11627912521362305
0.27131783962249756 -0.1962166130542755 0.1317828893661499
0.27131783962249756 -0.18328024446964264 -0.05426359176635742
0.27131783962249756 -0.18346911668777466 0.1472867727279663
0.27131783962249756 -0.17195731401443481 0.16279065608978271
0.27131783962249756 -0.1623418629169464 0.17829453945159912
0.27131783962249756 -0.14983290433883667 0.19379842281341553
0.27131783962249756 -0.13624007999897003 0.20930230617523193
0.27131783962249756 -0.12402218580245972 0.22480618953704834
0.27131783962249756 -0.11483309417963028 0.24031007289886475
0.27131783962249756 -0.10577137768268585 0.25581395626068115
0.27131783962249756 -0.0988849550485611 0.27131783962249756
0.27131783962249756 -0.08756528794765472 0.28682172298431396
0.27131783962249756 -0.07105237990617752 -0.3333333134651184
0.27131783962249756 -0.07458188384771347 -0.317829430103302
0.27131783962249756 -0.0730070173740387 -0.30232560634613037
0.27131783962249756 -0.06537485122680664 -0.3488371968269348
0.27131783962249756 -0.06882684677839279 -0.28682172298431396
0.27131783962249756 -0.06041671708226204 -0.27131783962249756
0.27131783962249756 -0.0687391608953476 0.30232560634613037
0.27131783962249756 -0.05372639372944832 -0.3643410801887512
0.27131783962249756 -0.047280456870794296 -0.25581395626068115
0.27131783962249756 -0.025236651301383972 -0.3798449635505676
0.27131783962249756 -0.027418989688158035 -0.24031007289886475
0.27131783962249756 -0.030689040198922157 0.3178294897079468
0.27131783962249756 0.010037373751401901 -0.22480618953704834
0.27131783962249756 0.061222709715366364 -0.22480618953704834
0.27131783962249756 0.12773233652114868 -0.3798449635505676
0.27131783962249756 0.17262782156467438 -0.3643410801887512
0.27131783962249756 0.16315169632434845 -0.24031005799770355
0.27131783962249756 0.1801096498966217 0.3178294897079468
0.27131783962249756 0.195038303732872 -0.3488372266292572
0.27131783962249756 0.19424140453338623 -0.25581395626068115
0.27131783962249756 0.21001829206943512 -0.3333333134651184
0.27131783962249756 0.22319091856479645 -0.317829430103302
0.27131783962249756 0.2129446566104889 -0.27131783962249756
0.27131783962249756 0.2276282161474228 -0.30232560634613037
0.27131783962249756 0.2249453216791153 -0.28682172298431396
0.27131783962249756 0.2303791493177414 0.30232560634613037
0.27131783962249756 0.3000430762767792 0.28682172298431396
0.27131783962249756 0.3229992985725403 -0.05426359176635742
0.27131783962249756 0.3950929045677185 0.27131783962249756
0.27131783962249756 0.4470612406730652 0.25581395626068115
0.27131783962249756 0.5025011301040649 0.24031007289886475
0.27131783962249756 0.5668840408325195 -0.06976741552352905
0.27131783962249756 0.5691912770271301 0.22480618953704834
0.27131783962249756 0.6197478771209717 -0.08527129888534546
0.27131783962249756 0.6223537921905518 0.20930230617523193
0.27131783962249756 0.6637550592422485 -0.10077518224716187
0.27131783962249756 0.6719141006469727 0.19379842281341553
0.27131783962249756 0.7126045227050781 -0.11627906560897827
0.27131783962249756 0.7192198634147644 0.17829453945159912
0.27131783962249756 0.7525116205215454 0.16279065608978271
0.27131783962249756 0.7750208377838135 -0.13178294897079468
0.27131783962249756 0.7780844569206238 0.1472867727279663
0.27131783962249756 0.7959066033363342 0.1317828893661499
0.27131783962249756 0.8117104768753052 0.11627912521362305
0.27131783962249756 0.8261356353759766 0.10077524185180664
0.27131783962249756 0.839275598526001 0.08527135848999023
0.27131783962249756 0.8510423898696899 0.06976747512817383
0.27131783962249756 0.8679479360580444 -0.13178294897079468
0.27131783962249756 0.8750325441360474 0.038759708404541016
0.27131783962249756 0.8619440793991089 0.05426359176635742
0.27131783962249756 0.8890963196754456 0.02325582504272461
0.27131783962249756 0.9027775526046753 0.007751941680908203
0.27131783962249756 0.9159473180770874 -0.007751941680908203
0.27131783962249756 0.9295921325683594 -0.11627906560897827
0.27131783962249756 0.9373003840446472 -0.038759708404541016
0.27131783962249756 0.9260095357894897 -0.02325582504272461
0.27131783962249756 0.9489946365356445 -0.05426359176635742
0.27131783962249756 0.9550725817680359 -0.10077518224716187
0.27131783962249756 0.9611218571662903 -0.08527129888534546
0.27131783962249756 0.9550052285194397 -0.06976741552352905
0.28682172298431396 -0.2436513453722 0.007751941680908203
0.28682172298431396 -0.24397045373916626 0.02325582504272461
0.28682172298431396 -0.24074554443359375 0.038759708404541016
0.28682172298431396 -0.23990599811077118 -0.007751941215246916
0.28682172298431396 -0.23089826107025146 0.05426359176635742
0.28682172298431396 -0.2239408642053604 -0.02325582504272461
0.28682172298431396 -0.2185426950454712 0.06976747512817383
0.28682172298431396 -0.20684999227523804 0.08527135848999023
0.28682172298431396 -0.1952345371246338 0.10077524185180664
0.28682172298431396 -0.18202629685401917 0.11627912521362305
0.28682172298431396 -0.16861462593078613 0.1317828893661499
0.28682172298431396 -0.15762421488761902 0.1472867727279663
0.28682172298431396 -0.14833448827266693 0.16279065608978271
0.28682172298431396 -0.13553021848201752 0.17829453945159912
0.28682172298431396 -0.12227189540863037 0.19379842281341553
0.28682172298431396 -0.1086549311876297 -0.038759708404541016
0.28682172298431396 -0.10987994074821472 0.20930230617523193
0.28682172298431396 -0.09871275722980499 0.22480618953704834
0.28682172298431396 -0.08811604976654053 0.24031007289886475
0.28682172298431396 -0.08053214102983475 0.25581395626068115
0.28682172298431396 -0.0737961009144783 0.27131783962249756
0.28682172298431396 -0.06269925832748413 0.28682172298431396
0.28682172298431396 -0.042950961738824844 0.30232560634613037
0.28682172298431396 0.13751481473445892 -0.038759708404541016
0.28682172298431396 0.20295403897762299 0.30232560634613037
0.28682172298431396 0.24855411052703857 -0.038759708404541016
0.28682172298431396 0.2518908381462097 0.28682172298431396
0.28682172298431396 0.3286883234977722 0.27131783962249756
0.28682172298431396 0.3996050953865051 0.25581395626068115
0.28682172298431396 0.4496791362762451 0.24031007289886475
0.28682172298431396 0.5180811882019043 -0.05426359176635742
0.28682172298431396 0.5085598826408386 0.22480618953704834
0.28682172298431396 0.5754597187042236 0.20930230617523193
0.28682172298431396 0.5818654298782349 -0.06976741552352905
0.28682172298431396 0.6278235912322998 0.19379842281341553
0.28682172298431396 0.6308601498603821 -0.08527129888534546
0.28682172298431396 0.6743848323822021 -0.10077518224716187
0.28682172298431396 0.681525707244873 0.17829453945159912
0.28682172298431396 0.7306928038597107 -0.11627906560897827
0.28682172298431396 0.7281056642532349 0.16279065608978271
0.28682172298431396 0.7587239742279053 0.1472867727279663
0.28682172298431396 0.7799034714698792 0.1317828893661499
0.28682172298431396 0.7965719103813171 0.11627912521362305
0.28682172298431396 0.8116983771324158 0.10077524185180664
0.28682172298431396 0.82574462890625 0.08527135848999023
0.28682172298431396 0.8387953042984009 0.06976747512817383
0.28682172298431396 0.8500181436538696 0.05426359176635742
0.28682172298431396 0.8745414018630981 0.02325582504272461
0.28682172298431396 0.8614006638526917 0.038759708404541016
0.28682172298431396 0.8886364102363586 0.007751941680908203
0.28682172298431396 0.9026329517364502 -0.007751941680908203
0.28682172298431396 0.9173447489738464 -0.11627906560897827
0.28682172298431396 0.9166417717933655 -0.02325582504272461
0.28682172298431396 0.9283084273338318 -0.038759708404541016
0.28682172298431396 0.9491167068481445 -0.10077518224716187
0.28682172298431396 0.9501919150352478 -0.06976741552352905
0.28682172298431396 0.9382590651512146 -0.05426358804106712
0.28682172298431396 0.9540364742279053 -0.08527129888534546
0.30232560634613037 -0.21579518914222717 0.007751941680908203
0.30232560634613037 -0.22043216228485107 0.02325582504272461
0.30232560634613037 -0.2182987928390503 0.038759708404541016
0.30232560634613037 -0.21043893694877625 0.05426359176635742
0.30232560634613037 -0.20052479207515717 -0.007751941680908203
0.30232560634613037 -0.19660192728042603 0.06976747512817383
0.30232560634613037 -0.18154805898666382 0.08527135848999023
0.30232560634613037 -0.16757455468177795 0.10077524185180664
0.30232560634613037 -0.1548338532447815 0.11627912521362305
0.30232560634613037 -0.13706840574741364 -0.02325582504272461
0.30232560634613037 -0.14341133832931519 0.1317828893661499
0.30232560634613037 -0.1329827904701233 0.1472867727279663
0.30232560634613037 -0.12056746333837509 0.16279065608978271
0.30232560634613037 -0.1084909588098526 0.17829453945159912
0.30232560634613037 -0.09633603692054749 0.19379842281341553
0.30232560634613037 -0.08291400223970413 0.20930230617523193
0.30232560634613037 -0.07012946903705597 0.22480618953704834
0.30232560634613037 -0.05914706736803055 0.24031007289886475
0.30232560634613037 -0.05236852169036865 0.25581395626068115
0.30232560634613037 -0.04551701247692108 0.27131783962249756
0.30232560634613037 -0.03590482473373413 0.28682172298431396
0.30232560634613037 -0.010996084660291672 0.30232560634613037
0.30232560634613037 0.1841728240251541 0.30232560634613037
0.30232560634613037 0.22795900702476501 0.28682172298431396
0.30232560634613037 0.2783088684082031 -0.038759708404541016
0.30232560634613037 0.2765321433544159 0.27131783962249756
0.30232560634613037 0.3453989028930664 0.25581395626068115
0.30232560634613037 0.3976646661758423 0.24031007289886475
0.30232560634613037 0.4467242658138275 0.22480617463588715
0.30232560634613037 0.5093807578086853 0.20930230617523193
0.30232560634613037 0.5405459403991699 -0.05426359176635742
0.30232560634613037 0.57853102684021 0.19379842281341553
0.30232560634613037 0.5950397253036499 -0.06976741552352905
0.30232560634613037 0.6417063474655151 -0.08527129888534546
0.30232560634613037 0.634088397026062 0.17829453945159912
0.30232560634613037 0.6867269277572632 -0.10077518224716187
0.30232560634613037 0.687688410282135 0.16279065608978271
0.30232560634613037 0.7319276332855225 0.1472867727279663
0.30232560634613037 0.7502637505531311 -0.11627906560897827
0.30232560634613037 0.761325478553772 0.1317828893661499
0.30232560634613037 0.7804794311523438 0.11627912521362305
0.30232560634613037 0.7964853644371033 0.10077524185180664
0.30232560634613037 0.8113421201705933 0.08527135848999023
0.30232560634613037 0.8253146409988403 0.06976747512817383
0.30232560634613037 0.8379185199737549 0.05426359176635742
0.30232560634613037 0.8603799343109131 0.02325582504272461
0.30232560634613037 0.8493581414222717 0.038759708404541016
0.30232560634613037 0.8740869760513306 0.007751941680908203
0.30232560634613037 0.8883957266807556 -0.007751941680908203
0.30232560634613037 0.9036998152732849 -0.11627906560897827
0.30232560634613037 0.9026937484741211 -0.02325582504272461
0.30232560634613037 0.9173606634140015 -0.038759708404541016
0.30232560634613037 0.9308885335922241 -0.05426359176635742
0.30232560634613037 0.9425303936004639 -0.10077518224716187
0.30232560634613037 0.9486916661262512 -0.08527129888534546
0.30232560634613037 0.939240038394928 -0.06976741552352905
0.3178294897079468 -0.19445070624351501 0.02325582504272461
0.3178294897079468 -0.1948670595884323 0.038759708404541016
0.3178294897079468 -0.18430432677268982 0.007751941680908203
0.3178294897079468 -0.18578797578811646 0.05426359176635742
0.3178294897079468 -0.17136913537979126 0.06976747512817383
0.3178294897079468 -0.15605150163173676 0.08527135848999023
0.3178294897079468 -0.1458803117275238 -0.007751941680908203
0.3178294897079468 -0.1432035118341446 0.10077523440122604
0.3178294897079468 -0.1318170428276062 0.11627912521362305
0.3178294897079468 -0.11911170184612274 0.1317828893661499
0.3178294897079468 -0.1066562756896019 0.1472867727279663
0.3178294897079468 -0.09535054117441177 0.16279065608978271
0.3178294897079468 -0.08356636017560959 0.17829453945159912
0.31782951951026917 -0.06960184872150421 0.19379843771457672
0.3178294897079468 -0.05501662939786911 0.20930230617523193
0.3178294897079468 -0.041654203087091446 0.22480618953704834
0.3178294897079468 -0.030633993446826935 0.24031007289886475
0.3178294897079468 -0.024240929633378983 0.25581395626068115
0.3178294897079468 -0.023098191246390343 -0.02325582504272461
0.3178294897079468 -0.014991618692874908 0.27131783962249756
0.3178294897079468 0.00022894679568707943 0.28682172298431396
0.3178294897079468 0.055880192667245865 0.30232560634613037
0.3178294897079468 0.17097243666648865 0.30232560634613037
0.3178294897079468 0.20818842947483063 0.28682172298431396
0.3178294897079468 0.2490037977695465 0.27131783962249756
0.3178294897079468 0.31189534068107605 -0.038759708404541016
0.3178294897079468 0.3025037348270416 0.25581395626068115
0.3178294897079468 0.3550923466682434 0.24031007289886475
0.3178294897079468 0.39196914434432983 0.22480618953704834
0.3178294897079468 0.4383159875869751 0.20930230617523193
0.3178294897079468 0.5088011622428894 0.19379840791225433
0.3178294897079468 0.5570127367973328 -0.05426359176635742
0.3178294897079468 0.58339524269104 0.17829453945159912
0.3178294897079468 0.6068907976150513 -0.06976741552352905
0.3178294897079468 0.6396764516830444 0.16279065608978271
0.3178294897079468 0.6519501209259033 -0.08527129888534546
0.3178294897079468 0.6972037553787231 -0.10077518224716187
0.3178294897079468 0.6952033638954163 0.1472867727279663
0.3178294897079468 0.7344915866851807 0.1317828893661499
0.3178294897079468 0.7626462578773499 0.11627912521362305
0.3178294897079468 0.7699916958808899 -0.11627906560897827
0.3178294897079468 0.7805766463279724 0.10077524185180664
0.3178294897079468 0.7962597012519836 0.08527135848999023
0.3178294897079468 0.8110010623931885 0.06976747512817383
0.3178294897079468 0.824485182762146 0.05426359176635742
0.3178294897079468 0.8370347023010254 0.038759708404541016
0.3178294897079468 0.8599967360496521 0.007751941680908203
0.3178294897079468 0.8480015397071838 0.02325582504272461
0.3178294897079468 0.8739230036735535 -0.007751941680908203
0.3178294897079468 0.8840909004211426 -0.11627906560897827
0.3178294897079468 0.8883941769599915 -0.02325582504272461
0.3178294897079468 0.9033251404762268 -0.038759708404541016
0.3178294897079468 0.9182713627815247 -0.05426359176635742
0.3178294897079468 0.9336462020874023 -0.10077518224716187
0.3178294897079468 0.9316387176513672 -0.06976741552352905
0.3178294897079468 0.9384364485740662 -0.08527129888534546
0.3333333730697632 -0.1660441756248474 0.038759708404541016
0.3333333730697632 -0.1591847985982895 0.02325582504272461
0.3333333730697632 -0.15993863344192505 0.05426359176635742
0.3333333730697632 -0.14824806153774261 0.06976747512817383
0.3333333730697632 -0.13325856626033783 0.007751941680908203
0.3333333730697632 -0.133555069565773 0.08527135848999023
0.3333333730697632 -0.1190841794013977 0.10077524185180664
0.3333333730697632 -0.10569967329502106 0.11627912521362305
0.3333333730697632 -0.09306445717811584 0.1317828893661499
0.33333340287208557 -0.08169509470462799 0.1472867727279663
0.3333333730697632 -0.06988570094108582 0.16279065608978271
0.3333333730697632 -0.06776724755764008 -0.007751941680908203
0.3333333730697632 -0.056343935430049896 0.17829453945159912
0.3333333730697632 -0.04184792935848236 0.19379842281341553
0.3333333730697632 -0.027640361338853836 0.20930230617523193
0.3333333730697632 -0.013673626817762852 0.22480618953704834
0.3333333730697632 -0.0012661730870604515 0.24031007289886475
0.33333340287208557 0.011250237002968788 0.25581395626068115
0.3333333730697632 0.0297594852745533 0.27131783962249756
0.3333333730697632 0.05417191982269287 0.28682172298431396
0.3333333730697632 0.18251550197601318 0.28682172298431396
0.3333333730697632 0.22438295185565948 0.27131783962249756
0.3333333730697632 0.25083431601524353 -0.02325582504272461
0.3333333730697632 0.26391535997390747 0.25581395626068115
0.3333333730697632 0.31283342838287354 0.24031007289886475
0.3333333730697632 0.34747040271759033 0.22480618953704834
0.3333333730697632 0.3755844533443451 0.20930230617523193
0.3333333730697632 0.42327386140823364 0.19379842281341553
0.3333333730697632 0.5021474361419678 0.17829453945159912
0.3333333730697632 0.5159064531326294 -0.038759708404541016
0.3333333730697632 0.5729434490203857 -0.05426359176635742
0.3333333730697632 0.5830758213996887 0.16279065608978271
0.3333333730697632 0.6192383170127869 -0.06976741552352905
0.3333333730697632 0.6427621245384216 0.1472867727279663
0.3333333730697632 0.6626922488212585 -0.08527129888534546
0.3333333730697632 0.6977144479751587 0.1317828893661499
0.3333333730697632 0.7082786560058594 -0.10077518224716187
0.3333333730697632 0.7346265316009521 0.11627912521362305
0.3333333730697632 0.7610485553741455 0.10077524185180664
0.3333333730697632 0.7793182134628296 0.08527135848999023
0.3333333730697632 0.7950524091720581 0.06976747512817383
0.3333333730697632 0.8020637631416321 -0.11627906560897827
0.3333333730697632 0.8090052604675293 0.05426359176635742
0.3333333730697632 0.8218786716461182 0.038759708404541016
0.3333333730697632 0.8334795832633972 0.02325582504272461
0.3333333730697632 0.847398042678833 -0.11627906560897827
0.3333333730697632 0.8590579032897949 -0.007751941680908203
0.3333333730697632 0.8451895713806152 0.007751941215246916
0.3333333730697632 0.873218834400177 -0.02325582504272461
0.3333333730697632 0.8882876038551331 -0.038759708404541016
0.3333333730697632 0.9034335017204285 -0.05426359176635742
0.3333333730697632 0.9223331809043884 -0.10077518224716187
0.3333333730697632 0.9175342321395874 -0.06976741552352905
0.3333333730697632 0.927452027797699 -0.08527129888534546
0.3488372564315796 -0.1344374567270279 0.038759708404541016
0.3488372564315796 -0.13298338651657104 0.05426359176635742
0.3488372564315796 -0.11877837777137756 0.02325582504272461
0.3488372564315796 -0.12263832986354828 0.06976747512817383
0.3488372564315796 -0.10842839628458023 0.08527135848999023
0.3488372564315796 -0.09280054271221161 0.10077524185180664
0.3488372564315796 -0.07539552450180054 0.007751941680908203
0.3488372564315796 -0.07929673790931702 0.11627912521362305
0.3488372564315796 -0.06779802590608597 0.1317828893661499
0.3488372564315796 -0.05579949915409088 0.1472867727279663
0.3488372564315796 -0.04253487288951874 0.16279065608978271
0.3488372564315796 -0.029394391924142838 0.17829453945159912
0.3488372564315796 -0.014876317232847214 0.19379842281341553
0.3488372564315796 0.0001813117414712906 0.20930230617523193
0.3488372564315796 0.01754453405737877 0.22480618953704834
0.3488372564315796 0.035743508487939835 0.24031007289886475
0.3488372564315796 0.04914548993110657 0.3178294897079468
0.3488372564315796 0.058029238134622574 0.25581395626068115
0.3488372564315796 0.06721674650907516 0.30232560634613037
0.3488372564315796 0.07496770471334457 0.30232560634613037
0.3488372564315796 0.08538612723350525 0.27131783962249756
0.3488372564315796 0.09844963252544403 0.3178294897079468
0.3488372564315796 0.12067163735628128 -0.007751941680908203
0.3488372564315796 0.18402093648910522 0.27131783962249756
0.3488372564315796 0.22167688608169556 0.25581395626068115
0.3488372564315796 0.26251059770584106 0.24031008780002594
0.3488372564315796 0.29862430691719055 0.22480618953704834
0.3488372564315796 0.3113247752189636 -0.02325582504272461
0.3488372564315796 0.32437241077423096 0.20930230617523193
0.3488372564315796 0.3536558747291565 0.19379842281341553
0.3488372564315796 0.4050908088684082 0.17829453945159912
0.3488372564315796 0.48425984382629395 0.16279065608978271
0.3488372564315796 0.5446311235427856 -0.038759708404541016
0.3488372564315796 0.5760461688041687 0.1472867727279663
0.3488372564315796 0.5922304391860962 -0.05426359176635742
0.3488372564315796 0.6349339485168457 -0.06976741552352905
0.3488372564315796 0.6403709053993225 0.1317828893661499
0.3488372564315796 0.6766353249549866 -0.08527129888534546
0.3488372564315796 0.6928412318229675 0.11627913266420364
0.3488372564315796 0.7231284976005554 -0.10077518224716187
0.3488372564315796 0.7302937507629395 0.10077524185180664
0.3488372564315796 0.7534273862838745 0.08527135103940964
0.3488372564315796 0.7741873860359192 0.06976747512817383
0.3488372564315796 0.7893214821815491 0.05426359176635742
0.3488372564315796 0.8133698105812073 0.02325582504272461
0.3488372564315796 0.8014660477638245 0.038759708404541016
0.3488372564315796 0.8275763392448425 0.007751941680908203
0.3488372564315796 0.8420487642288208 -0.007751941680908203
0.3488372564315796 0.8565084934234619 -0.02325582504272461
0.3488372564315796 0.8715336918830872 -0.038759708404541016
0.3488372564315796 0.8860962986946106 -0.05426359176635742
0.3488372564315796 0.9069385528564453 -0.10077518224716187
0.3488372564315796 0.899971604347229 -0.06976741552352905
0.3488372564315796 0.910651445388794 -0.08527129888534546
0.364341139793396 -0.1013442724943161 0.038759708404541016
0.364341139793396 -0.10376928746700287 0.05426359176635742
0.364341139793396 -0.09596508741378784 0.06976747512817383
0.364341139793396 -0.07584167271852493 0.02325582504272461
0.364341139793396 -0.08211715519428253 0.08527135848999023
0.364341139793396 -0.06645604223012924 0.10077524930238724
0.364341139793396 -0.05312265455722809 0.11627912521362305
0.364341139793396 -0.040912456810474396 0.1317828893661499
0.364341139793396 -0.02894670143723488 0.1472867727279663
0.364341139793396 -0.018292296677827835 0.16279065608978271
0.364341139793396 -0.007322885096073151 0.17829453945159912
0.364341139793396 0.008244721218943596 0.19379840791225433
0.364341139793396 0.02884727530181408 0.20930230617523193
0.364341139793396 0.03283359482884407 0.3178294897079468
0.364341139793396 0.0385136716067791 0.3333333730697632
0.364341139793396 0.05238214135169983 0.007751941680908203
0.364341139793396 0.052188292145729065 0.22480618953704834
0.364341139793396 0.04892221838235855 0.30232560634613037
0.364341139793396 0.08162418007850647 0.24031007289886475
0.364341139793396 0.10835540294647217 0.30232560634613037
0.364341139793396 0.1282646805047989 0.3333333730697632
0.364341139793396 0.1402849555015564 0.3178294897079468
0.364341139793396 0.2005448192358017 0.24031007289886475
0.364341139793396 0.24323797225952148 0.22480618953704834
0.364341139793396 0.2720228135585785 -0.007751941680908203
0.364341139793396 0.27730122208595276 0.20930230617523193
0.364341139793396 0.30639398097991943 0.19379842281341553
0.364341139793396 0.34213846921920776 0.17829453945159912
0.364341139793396 0.3914073705673218 0.16279065608978271
0.364341139793396 0.465618759393692 0.1472867727279663
0.364341139793396 0.5150638222694397 -0.02325582504272461
0.364341139793396 0.5599873661994934 0.1317828893661499
0.364341139793396 0.572492778301239 -0.038759708404541016
0.364341139793396 0.6141669750213623 -0.05426359176635742
0.364341139793396 0.6276301741600037 0.11627912521362305
0.364341139793396 0.6534744501113892 -0.06976741552352905
0.364341139793396 0.6804319620132446 0.10077524185180664
0.364341139793396 0.6924915909767151 -0.08527129888534546
0.364341139793396 0.7184825539588928 0.08527135848999023
0.364341139793396 0.7388495206832886 -0.10077518224716187
0.364341139793396 0.7460150122642517 0.06976747512817383
0.364341139793396 0.7635614275932312 0.05426359176635742
0.364341139793396 0.777349054813385 0.038759708404541016
0.364341139793396 0.790202260017395 0.02325582504272461
0.364341139793396 0.8048020005226135 0.007751941215246916
0.364341139793396 0.8198001384735107 -0.007751941680908203
0.364341139793396 0.8348913788795471 -0.02325582504272461
0.364341139793396 0.8507068157196045 -0.038759708404541016
0.364341139793396 0.8645496368408203 -0.05426359176635742
0.364341139793396 0.8839267492294312 -0.10077518224716187
0.364341139793396 0.8890303373336792 -0.08527129888534546
0.364341139793396 0.8768817782402039 -0.06976741552352905
0.37984490394592285 -0.05444392189383507 0.038759708404541016
0.37984490394592285 -0.06496632099151611 0.05426359176635742
0.37984490394592285 -0.0613846555352211 0.06976747512817383
0.37984490394592285 -0.04870619252324104 0.08527135848999023
0.37984490394592285 -0.033752650022506714 0.10077524185180664
0.37984490394592285 -0.022270090878009796 0.11627912521362305
0.37984490394592285 -0.011336622759699821 0.1317828893661499
0.37984490394592285 -0.003519868478178978 0.1472867727279663
0.37984490394592285 0.005454729311168194 0.16279065608978271
0.37984490394592285 0.01670128107070923 0.17829453945159912
0.37984490394592285 0.03277311101555824 0.19379842281341553
0.37984490394592285 0.02653268165886402 0.3178294897079468
0.37984490394592285 0.02479727193713188 0.3333333730697632
0.37984490394592285 0.05299335718154907 0.20930230617523193
0.37984490394592285 0.04515524208545685 0.30232560634613037
0.37984490394592285 0.046737607568502426 0.3488372564315796
0.37984490394592285 0.08018393814563751 0.02325582504272461
0.37984490394592285 0.09240689873695374 0.22480618953704834
0.37984490394592285 0.12050025165081024 0.30232560634613037
0.37984490394592285 0.12005318701267242 0.3488372564315796
0.37984490394592285 0.15383478999137878 0.3178294897079468
0.37984490394592285 0.1557535082101822 0.3333333730697632
0.37984490394592285 0.18435138463974 0.22480618953704834
0.37984490394592285 0.23412752151489258 0.20930230617523193
0.37984490394592285 0.25036704540252686 0.007751941680908203
0.37984490394592285 0.27271685004234314 0.19379842281341553
0.37984490394592285 0.3049975037574768 0.17829453945159912
0.37984490394592285 0.3386303782463074 0.16279065608978271
0.37984490394592285 0.3789151608943939 -0.007751941680908203
0.37984490394592285 0.37977612018585205 0.1472867727279663
0.37984490394592285 0.3967416286468506 -0.007751941680908203
0.37984490394592285 0.4404425323009491 0.1317828893661499
0.37984490394592285 0.4816973805427551 -0.007751941680908203
0.37984490394592285 0.5280684232711792 0.11627912521362305
0.37984490394592285 0.5678725838661194 -0.02325582318007946
0.37984490394592285 0.610015869140625 -0.038759708404541016
0.37984490394592285 0.5986741185188293 0.10077524185180664
0.37984490394592285 0.6464784741401672 -0.05426358804106712
0.37984490394592285 0.6549904346466064 0.08527135848999023
0.37984490394592285 0.6788148880004883 -0.06976741552352905
0.37984490394592285 0.6970908045768738 0.06976747512817383
0.37984490394592285 0.71178138256073 -0.08527129888534546
0.37984490394592285 0.7228437662124634 0.05426359176635742
0.37984490394592285 0.7505618929862976 0.02325582504272461
0.37984490394592285 0.7392507195472717 0.038759708404541016
0.37984490394592285 0.7644978165626526 -0.10077518224716187
0.37984490394592285 0.7650700211524963 0.007751941680908203
0.37984490394592285 0.7825056314468384 -0.007751941680908203
0.37984490394592285 0.8024359941482544 -0.02325582504272461
0.37984490394592285 0.8216245174407959 -0.038759708404541016
0.37984490394592285 0.8426388502120972 -0.10077518224716187
0.37984490394592285 0.8378726243972778 -0.05426359176635742
0.37984490394592285 0.8522651791572571 -0.06976741552352905
0.37984487414360046 0.8608649969100952 -0.08527129888534546
0.39534878730773926 -0.00045080273412168026 0.06976747512817383
0.39534878730773926 0.006701909936964512 0.08527135848999023
0.39534878730773926 0.022879360243678093 0.05426359176635742
0.39534878730773926 0.017673958092927933 0.10077524185180664
0.39534878730773926 0.023176664486527443 0.11627912521362305
0.39534878730773926 0.020426439121365547 0.3333333730697632
0.39534878730773926 0.027608148753643036 0.1317828893661499
0.39534878730773926 0.03167746216058731 0.1472867727279663
0.39534878730773926 0.03741227835416794 0.16279065608978271
0.39534878730773926 0.023261182010173798 0.3178294599056244
0.39534878730773926 0.028287053108215332 0.3488372564315796
0.39534878730773926 0.045711107552051544 0.17829453945159912
0.39534878730773926 0.0416761189699173 0.30232560634613037
0.39534878730773926 0.05992281436920166 0.19379842281341553
0.39534878730773926 0.08399758487939835 0.20930230617523193
0.39534878730773926 0.13237330317497253 0.30232560634613037
0.39534878730773926 0.15369093418121338 0.3488372564315796
0.39534878730773926 0.16800063848495483 0.038759708404541016
0.39534878730773926 0.1697959303855896 0.3178294897079468
0.39534878730773926 0.1750320941209793 0.3333333730697632
0.39534878730773926 0.1965371072292328 0.20930230617523193
0.39534878730773926 0.24256570637226105 0.19379842281341553
0.39534875750541687 0.2760201096534729 0.17829453945159912
0.39534878730773926 0.2992427349090576 0.16279065608978271
0.39534875750541687 0.3070032298564911 0.02325582504272461
0.39534878730773926 0.32421255111694336 0.1472867727279663
0.39534878730773926 0.3506909906864166 0.1317828893661499
0.39534878730773926 0.38488447666168213 0.11627912521362305
0.39534878730773926 0.43540918827056885 0.10077524185180664
0.39534878730773926 0.5033320784568787 0.08527135848999023
0.39534878730773926 0.5676193237304688 0.06976747512817383
0.39534878730773926 0.5945132970809937 0.02325582504272461
0.39534878730773926 0.604944109916687 0.05426359176635742
0.39534878730773926 0.6167535781860352 0.038759708404541016
0.41085267066955566 0.022901372984051704 0.3178294897079468
0.41085267066955566 0.018665285781025887 0.3333333730697632
0.41085267066955566 0.021527014672756195 0.3488372564315796
0.41085267066955566 0.039863601326942444 0.30232560634613037
0.41085267066955566 0.042074818164110184 0.3643411099910736
0.41085267066955566 0.09554460644721985 0.1317828893661499
0.41085270047187805 0.08723017573356628 0.1472867727279663
0.41085267066955566 0.08667042851448059 0.16279065608978271
0.41085267066955566 0.09048454463481903 0.17829453945159912
0.41085267066955566 0.1094018965959549 0.11627912521362305
0.41085267066955566 0.10750555992126465 0.19379842281341553
0.41085267066955566 0.12913699448108673 0.364341139793396
0.41085267066955566 0.13556694984436035 0.10077524185180664
0.41085267066955566 0.1553860902786255 0.30232560634613037
0.41085267066955566 0.1882142573595047 0.3178294897079468
0.41085267066955566 0.19137775897979736 0.3333333730697632
0.41085267066955566 0.17832347750663757 0.3488372564315796
0.41085267066955566 0.20476245880126953 0.08527135848999023
0.41085267066955566 0.1999669373035431 0.19379842281341553
0.41085267066955566 0.2390427440404892 0.17829453945159912
0.41085270047187805 0.26031020283699036 0.16279065608978271
0.4108526408672333 0.27572861313819885 0.1472867727279663
0.41085267066955566 0.2971377372741699 0.08527135848999023
0.41085267066955566 0.3017076253890991 0.10077524185180664
0.41085267066955566 0.29614564776420593 0.11627912521362305
0.41085267066955566 0.287141889333725 0.1317828893661499
0.42635655403137207 0.018471047282218933 0.3333333730697632
0.42635655403137207 0.019443029537796974 0.3488372564315796
0.42635655403137207 0.024181915447115898 0.3178294897079468
0.42635655403137207 0.03178061917424202 0.364341139793396
0.42635655403137207 0.04253401979804039 0.30232560634613037
0.42635655403137207 0.163845494389534 0.364341139793396
0.42635655403137207 0.1858978569507599 0.30232560634613037
0.42635655403137207 0.20295152068138123 0.3178294897079468
0.42635655403137207 0.20428624749183655 0.3333333730697632
0.42635658383369446 0.1946382224559784 0.3488372564315796
0.4418604373931885 0.019962580874562263 0.3333333730697632
0.4418604373931885 0.019131354987621307 0.3488372564315796
0.4418604373931885 0.029333066195249557 0.3178294897079468
0.4418604373931885 0.027282223105430603 0.364341139793396
0.4418604373931885 0.049676135182380676 0.30232560634613037
0.4418604373931885 0.0530441515147686 0.37984490394592285
0.4418604373931885 0.11230503767728806 0.37984490394592285
0.4418604373931885 0.18385013937950134 0.364341139793396
0.4418604373931885 0.19887962937355042 0.30232560634613037
0.4418604373931885 0.20438973605632782 0.3488372564315796
0.4418604075908661 0.21206961572170258 0.3178294897079468
0.4418604373931885 0.21295137703418732 0.3333333730697632
0.4573643207550049 0.021511327475309372 0.3488372564315796
0.4573643207550049 0.03552735596895218 0.3178294897079468
0.4573643207550049 0.02416953817009926 0.3333333730697632
0.4573643207550049 0.028395019471645355 0.364341139793396
0.4573643207550049 0.046783480793237686 0.37984490394592285
0.4573643207550049 0.060718268156051636 0.30232560634613037
0.4573643207550049 0.1433771252632141 0.37984490394592285
0.4573643207550049 0.19259858131408691 0.364341139793396
0.4573643207550049 0.20194584131240845 0.30232560634613037
0.4573643207550049 0.20928406715393066 0.3488372564315796
0.4573643207550049 0.2140098214149475 0.3178294897079468
0.4573643207550049 0.21530652046203613 0.3333333730697632
0.4728682041168213 0.032801464200019836 0.3333333730697632
0.4728682041168213 0.028733456507325172 0.3488372564315796
0.4728682041168213 0.032544396817684174 0.364341139793396
0.4728682041168213 0.046200476586818695 0.3178294897079468
0.4728682041168213 0.04880690574645996 0.37984490394592285
0.4728682041168213 0.0803312286734581 0.30232560634613037
0.4728682041168213 0.15628643333911896 0.37984490394592285
0.4728682041168213 0.19995048642158508 0.30232560634613037
0.4728681743144989 0.19522592425346375 0.364341139793396
0.4728682041168213 0.2124747484922409 0.3178294897079468
0.4728682041168213 0.21462006866931915 0.3333333730697632
0.4728681743144989 0.20962102711200714 0.3488372564315796
0.4883720874786377 0.03628435730934143 0.3488372564315796
0.4883720874786377 0.042369045317173004 0.33333340287208557
0.4883720874786377 0.04165961593389511 0.364341139793396
0.4883720874786377 0.05885763466358185 0.3178294897079468
0.4883720874786377 0.06119991093873978 0.37984490394592285
0.4883720874786377 0.10679494589567184 0.30232560634613037
0.4883720874786377 0.1581765115261078 0.37984490394592285
0.4883720874786377 0.1932169795036316 0.30232560634613037
0.4883720874786377 0.20911797881126404 0.3178294897079468
0.4883720874786377 0.2086540013551712 0.3488372564315796
0.4883720874786377 0.19491897523403168 0.3643411695957184
0.4883720874786377 0.21228285133838654 0.3333333730697632
0.5038759708404541 0.05327855050563812 0.3333333730697632
0.5038759708404541 0.047780923545360565 0.3488372564315796
0.5038759708404541 0.05344586446881294 0.364341139793396
0.5038759708404541 0.07318359613418579 0.3178294897079468
0.5038759708404541 0.08069989830255508 0.37984490394592285
0.5038759708404541 0.1244020015001297 0.30232560634613037
0.5038759708404541 0.15428227186203003 0.37984490394592285
0.5038759708404541 0.18154644966125488 0.30232560634613037
0.5038759708404541 0.19295839965343475 0.364341139793396
0.5038759708404541 0.20482012629508972 0.3178294897079468
0.5038759708404541 0.20633403956890106 0.3488372564315796
0.5038759708404541 0.20933043956756592 0.3333333730697632
0.5193798542022705 0.06822776049375534 0.3333333730697632
0.5193798542022705 0.06294475495815277 0.3488372564315796
0.5193798542022705 0.0732182040810585 0.364341139793396
0.5193798542022705 0.09101828932762146 0.3178294897079468
0.5193798542022705 0.1847807615995407 0.364341139793396
0.5193798542022705 0.19644615054130554 0.3178294897079468
0.5193798542022705 0.2031402289867401 0.3333333730697632
0.5193798542022705 0.199329674243927 0.3488372564315796
0.5348837375640869 0.09178878366947174 0.3333333730697632
0.5348837375640869 0.08562958240509033 0.3488372564315796
0.5348837375640869 0.11590320616960526 0.3178294897079468
0.5348837375640869 0.10280175507068634 0.3643411695957184
0.5348837375640869 0.1624392718076706 0.364341139793396
0.5348837375640869 0.17930102348327637 0.3178294897079468
0.5348837375640869 0.18970659375190735 0.3333333730697632
0.5348837375640869 0.18565739691257477 0.3488372564315796
0.5503876209259033 0.13068683445453644 0.3333333730697632
0.5503876209259033 0.15367409586906433 0.3333333730697632
-0.5503876209259033 0.1317828893661499 0.33324626088142395
-0.5503876209259033 0.1317828893661499 0.33851444721221924
-0.5503876209259033 0.1472867727279663 0.3330441117286682
-0.5503876209259033 0.1472867727279663 0.3356383740901947
-0.5348837375640869 0.08527135848999023 0.3460582196712494
-0.5348837375640869 0.08527135848999023 0.3507711589336395
-0.5348837375640869 0.10077524185180664 0.3290073275566101
-0.5348837375640869 0.10077524185180664 0.36342063546180725
-0.5348837375640869 0.11627912521362305 0.32209518551826477
-0.5348837375640869 0.11627911776304245 0.3681231141090393
-0.5348837375640869 0.1317828893661499 0.3167468011379242
-0.5348837375640869 0.1317828893661499 0.36863866448402405
-0.5348837375640869 0.1472867727279663 0.3156437873840332
-0.5348837375640869 0.1472867727279663 0.3668074607849121
-0.5348837375640869 0.16279065608978271 0.3159039616584778
-0.5348837375640869 0.16279065608978271 0.3630760610103607
-0.5348837375640869 0.17829453945159912 0.32065239548683167
-0.5348837375640869 0.17829453945159912 0.35518673062324524
-0.5193798542022705 0.06976747512817383 0.3336142897605896
-0.5193798542022705 0.06976747512817383 0.3582357168197632
-0.5193798542022705 0.08527135848999023 0.3253639340400696
-0.5193798542022705 0.08527135848999023 0.3712526857852936
-0.5193798542022705 0.10077524185180664 0.31713566184043884
-0.5193798542022705 0.10077524185180664 0.3755186200141907
-0.5193798542022705 0.11627912521362305 0.31399643421173096
-0.5193798542022705 0.11627912521362305 0.37694215774536133
-0.5193798542022705 0.1317828893661499 0.3113105893135071
-0.5193798542022705 0.1317828893661499 0.3768914043903351
-0.5193798542022705 0.1472867727279663 0.30923211574554443
-0.5193798542022705 0.1472867727279663 0.3755214512348175
-0.5193798542022705 0.16279065608978271 0.30884772539138794
-0.5193798542022705 0.16279065608978271 0.371989369392395
-0.5193798542022705 0.17829453945159912 0.3112666606903076
-0.5193798542022705 0.17829453945159912 0.3660818338394165
-0.5193798542022705 0.19379842281341553 0.316677987575531
-0.5193798542022705 0.19379842281341553 0.3562335968017578
-0.5038759708404541 0.05426358804106712 0.3363509476184845
-0.5038759708404541 0.05426359176635742 0.3580259084701538
-0.5038759708404541 0.06976747512817383 0.32351088523864746
-0.5038759708404541 0.06976747512817383 0.37368953227996826
-0.5038759708404541 0.08527135848999023 0.31613850593566895
-0.5038759708404541 0.08527135848999023 0.3785882890224457
-0.5038759708404541 0.10077524185180664 0.31315669417381287
-0.5038759708404541 0.10077524185180664 0.38109973073005676
-0.5038759708404541 0.11627912521362305 0.31021004915237427
-0.5038759708404541 0.11627912521362305 0.3813423812389374
-0.5038759708404541 0.1317828893661499 0.3057718575000763
-0.5038759708404541 0.1317828893661499 0.3806842863559723
-0.5038759708404541 0.1472867727279663 0.301988422870636
-0.5038759708404541 0.1472867727279663 0.37899065017700195
-0.5038759708404541 0.16279065608978271 0.3017963171005249
-0.5038759708404541 0.16279065608978271 0.3761589229106903
-0.5038759708404541 0.17829453945159912 0.30523359775543213
-0.5038759708404541 0.17829453945159912 0.3708898425102234
-0.5038759708404541 0.19379842281341553 0.31120845675468445
-0.5038759708404541 0.19379842281341553 0.3626501262187958
-0.5038759708404541 0.20930230617523193 0.3263433575630188
-0.5038759708404541 0.20930230617523193 0.3427775502204895
-0.4883720874786377 0.05426359176635742 0.3244348168373108
-0.4883720874786377 0.05426359176635742 0.3730292022228241
-0.4883720874786377 0.06976747512817383 0.3155525326728821
-0.4883720874786377 0.06976747512817383 0.3807315230369568
-0.4883720874786377 0.08527135848999023 0.3122260570526123
-0.4883720874786377 0.08527135848999023 0.38362863659858704
