-0.043699271976947784 0.39534878730773926 -0.08527129888534546
-0.0489334762096405 0.4108526408672333 -0.08527129888534546
-0.045798324048519135 0.41085267066955566 -0.06976741552352905
-0.05372673645615578 0.42635655403137207 -0.08527130633592606
-0.05149739235639572 0.42635655403137207 -0.06976741552352905
-0.04117782041430473 0.4418604373931885 -0.05426359176635742
-0.044732339680194855 0.4573643207550049 -0.05426359176635742
-0.04881227761507034 0.4728682041168213 -0.05426359176635742
-0.053356677293777466 0.4728682041168213 0.4418604373931885
-0.046717263758182526 0.4883720874786377 -0.05426359176635742
-0.05164134502410889 0.4883720874786377 0.4418604373931885
-0.04989480972290039 0.5038759708404541 0.4418604373931885
-0.047877684235572815 0.5193798542022705 0.4418604373931885
-0.053514137864112854 0.5348837375640869 -0.08527129888534546
-0.049189526587724686 0.5348837375640869 -0.06976741552352905
-0.04549390822649002 0.5348837375640869 0.4418604373931885
-0.04996488243341446 0.5503876209259033 -0.08527129888534546
-0.045213498175144196 0.5503876209259033 -0.06976741552352905
-0.042782485485076904 0.5503876209259033 0.4418604373931885
-0.054133180528879166 0.5658915042877197 -0.10077518224716187
-0.0482109971344471 0.5658915042877197 -0.08527129888534546
-0.04426421970129013 0.5658915042877197 -0.06976741552352905
-0.03932921960949898 0.5658915042877197 0.4418604373931885
-0.05358040705323219 0.5813953876495361 -0.10077518224716187
-0.048766206949949265 0.5813953876495361 -0.08527129888534546
-0.04605783522129059 0.5813953876495361 -0.06976741552352905
-0.04198839142918587 0.5813953876495361 -0.05426359176635742
-0.05383801460266113 0.5968992114067078 -0.10077518224716187
-0.050637148320674896 0.5968992710113525 -0.08527129888534546
-0.049242690205574036 0.5968992710113525 -0.06976741552352905
-0.04817026108503342 0.5968992710113525 -0.05426359176635742
-0.03932349756360054 0.5968992710113525 -0.038759708404541016
-0.05294935032725334 0.612403154373169 -0.08527130633592606
-0.05268917232751846 0.612403154373169 -0.06976742297410965
-0.05330497771501541 0.612403154373169 -0.05426358804106712
-0.051429349929094315 0.612403154373169 -0.038759708404541016
-0.04865111783146858 0.6279069185256958 -0.02325582504272461
-0.04921640083193779 0.6279069185256958 0.42635655403137207
-0.04307127743959427 0.6434108018875122 0.42635655403137207
-0.04139586538076401 0.674418568611145 -0.007751941680908203
-0.047976911067962646 0.674418568611145 0.41085267066955566
-0.05287845432758331 0.6899224519729614 -0.8759689927101135
-0.0531168207526207 0.7054263353347778 -0.8759689927101135
-0.054021578282117844 0.7054263353347778 -0.8604651689529419
-0.048548296093940735 0.7054263353347778 0.39534878730773926
-0.04173290729522705 0.7364341020584106 -0.007751941680908203
-0.04951927065849304 0.7364341020584106 0.37984490394592285
-0.04889089986681938 0.751937985420227 -0.007751941680908203
-0.040745675563812256 0.751937985420227 0.37984490394592285
-0.04591389745473862 0.7674418687820435 0.007751941680908203
-0.049054671078920364 0.7674418687820435 0.364341139793396
-0.04818277806043625 0.7829457521438599 0.02325582504272461
-0.04037782922387123 0.7829457521438599 0.364341139793396
-0.05345156788825989 0.7984496355056763 0.038759708404541016
-0.04565456137061119 0.7984496355056763 0.05426359176635742
-0.04626119136810303 0.7984496355056763 0.3488372564315796
-0.0387735441327095 0.8139535188674927 0.24031007289886475
-0.04818136245012283 0.8139535188674927 0.3333333730697632
-0.039343029260635376 0.8139535188674927 0.3488372564315796
-0.03993305191397667 0.8294574022293091 0.27131783962249756
-0.05066119506955147 0.8294574618339539 0.28682172298431396
-0.05044177919626236 0.8294574022293091 0.30232560634613037
-0.047754280269145966 0.8294574022293091 0.3178294897079468
-0.04246341064572334 0.8294574022293091 0.3333333730697632
-0.043482065200805664 0.8449612855911255 0.30232560634613037
-0.042202338576316833 0.8449612855911255 0.3178294897079468
-0.03898575156927109 0.8604651689529419 0.30232560634613037
-0.03898246958851814 0.9069766998291016 0.24031007289886475
-0.039023563265800476 0.922480583190918 0.20930230617523193
-0.039032258093357086 0.922480583190918 0.22480618953704834
-0.03904833272099495 0.9379844665527344 -0.02325582504272461
-0.04053853824734688 0.9379844665527344 -0.007751941680908203
-0.04005676507949829 0.9379844665527344 0.007751941680908203
-0.025002334266901016 -0.9689922332763672 0.5503876209259033
-0.02485278993844986 -0.9689922332763672 0.5658915042877197
-0.02374088764190674 -0.9534883499145508 0.5348837375640869
-0.0263421218842268 -0.9534883499145508 0.5503876209259033
-0.027259865775704384 -0.9534883499145508 0.5658915042877197
-0.024982698261737823 -0.9534883499145508 0.5813953876495361
-0.02456819824874401 -0.9379844665527344 0.5503876209259033
-0.026930708438158035 -0.9379844665527344 0.5658915042877197
-0.025894759222865105 -0.9379844665527344 0.5813953876495361
-0.024802131578326225 -0.922480583190918 0.5658915042877197
-0.02536451816558838 -0.9224806427955627 0.5813953876495361
-0.0237880852073431 -0.9224806427955627 0.5968992710113525
-0.02350435219705105 -0.9069767594337463 0.5658915042877197
-0.025690097361803055 -0.9069767594337463 0.5813953876495361
-0.025363394990563393 -0.9069767594337463 0.5968992710113525
-0.025871986523270607 -0.8914728760719299 0.5658915042877197
-0.02815130166709423 -0.8914728760719299 0.5813953876495361
-0.028071604669094086 -0.8914728164672852 0.5968992710113525
-0.026429593563079834 -0.8914728760719299 0.612403154373169
-0.023899147287011147 -0.8759689927101135 0.5503876209259033
-0.02841474860906601 -0.8759690523147583 0.5658915042877197
-0.030475322157144547 -0.8759689927101135 0.5813953876495361
-0.03099653869867325 -0.8759689927101135 0.5968992710113525
-0.030408959835767746 -0.8759689927101135 0.612403154373169
-0.028386009857058525 -0.8759689331054688 0.6279069185256958
-0.023499835282564163 -0.8604651093482971 0.5503876209259033
-0.02905365452170372 -0.8604651689529419 0.5658915042877197
-0.031735554337501526 -0.8604651093482971 0.5813953876495361
-0.03263958916068077 -0.8604651093482971 0.5968992710113525
-0.032911792397499084 -0.8604651093482971 0.612403154373169
-0.03307259827852249 -0.8604650497436523 0.6279069185256958
-0.02954065427184105 -0.8604651093482971 0.6434108018875122
-0.027560921385884285 -0.8449612259864807 0.5658915042877197
-0.032361049205064774 -0.8449612259864807 0.5813953876495361
-0.03434287756681442 -0.8449612855911255 0.5968992710113525
-0.035407014191150665 -0.8449612855911255 0.612403154373169
-0.036171942949295044 -0.8449612259864807 0.6279069185256958
-0.034603845328092575 -0.8449612855911255 0.6434108018875122
-0.029699843376874924 -0.8449612259864807 0.6589146852493286
-0.03065788373351097 -0.8294573426246643 0.5813953876495361
-0.03433673083782196 -0.8294573426246643 0.5968992710113525
-0.03696271777153015 -0.8294573426246643 0.612403154373169
-0.03609343618154526 -0.8294573426246643 0.6589146852493286
-0.02882358245551586 -0.8294573426246643 0.674418568611145
-0.02657363936305046 -0.8139535188674927 0.5813953876495361
-0.03312065824866295 -0.8139535188674927 0.5968992710113525
-0.037715550512075424 -0.8139535188674927 0.6124030947685242
-0.03717479854822159 -0.8139535188674927 0.674418568611145
-0.02861959859728813 -0.8139535188674927 0.6899224519729614
-0.03079603612422943 -0.7984496355056763 0.5968992710113525
-0.03755902871489525 -0.7984495759010315 0.612403154373169
-0.03855205327272415 -0.7984496355056763 0.6899224519729614
-0.029173772782087326 -0.7984496355056763 0.7054263353347778
-0.026276662945747375 -0.7829457521438599 0.5968992710113525
-0.03574201464653015 -0.7829457521438599 0.612403154373169
-0.029816873371601105 -0.7829457521438599 0.7209302186965942
-0.03164060041308403 -0.7674418687820435 0.612403154373169
-0.032246191054582596 -0.7674418687820435 0.7364341020584106
-0.02679818496108055 -0.751937985420227 0.612403154373169
-0.036672502756118774 -0.751937985420227 0.6279069185256958
-0.03710920736193657 -0.751937985420227 0.751937985420227
-0.03275522589683533 -0.7364341020584106 0.6279069185256958
-0.028833765536546707 -0.7209302186965942 0.6279069185256958
-0.03726647421717644 -0.7209302186965942 0.6434108018875122
-0.025443146005272865 -0.7054263353347778 0.6279069185256958
-0.03457007557153702 -0.7054263353347778 0.6434108018875122
-0.03196093067526817 -0.6899224519729614 0.6434108018875122
-0.02951868809759617 -0.674418568611145 0.6434108018875122
-0.027846962213516235 -0.6589146852493286 0.6434108018875122
-0.026766082271933556 -0.643410861492157 0.6434108018875122
-0.02771937847137451 -0.6279069781303406 0.6434108018875122
-0.03215262293815613 -0.6124030947685242 0.6434108018875122
-0.034301113337278366 -0.6124030947685242 0.7984496355056763
-0.029515396803617477 -0.5968992114067078 0.6279069185256958
-0.029118694365024567 -0.5813953876495361 0.5968992710113525
-0.037997663021087646 -0.5813953876495361 0.612403154373169
-0.029383253306150436 -0.5658915042877197 0.5658915042877197
-0.03721382096409798 -0.5658915042877197 0.5813953876495361
-0.031616657972335815 -0.5658915042877197 0.7829457521438599
-0.02333896793425083 -0.5503876209259033 0.5038759708404541
-0.029057076200842857 -0.5503876209259033 0.5193798542022705
-0.0336490124464035 -0.5503876209259033 0.5348837375640869
-0.023838357999920845 -0.5348837375640869 0.3333333730697632
-0.028339479118585587 -0.5348837375640869 0.3488372564315796
-0.03192654624581337 -0.5348837375640869 0.364341139793396
-0.03444727137684822 -0.5348837375640869 0.37984490394592285
-0.035937514156103134 -0.5348837375640869 0.39534878730773926
-0.03751233220100403 -0.5348837375640869 0.41085267066955566
-0.038462746888399124 -0.5348837375640869 0.42635655403137207
-0.03855469450354576 -0.5348837375640869 0.4418604373931885
-0.02646423876285553 -0.5193798542022705 0.27131783962249756
-0.03041650913655758 -0.5193798542022705 0.28682172298431396
-0.03450075536966324 -0.5193798542022705 0.30232560634613037
-0.035277463495731354 -0.5193798542022705 0.7674418687820435
-0.027406392619013786 -0.5038759708404541 0.22480618953704834
-0.03298177570104599 -0.5038759708404541 0.24031007289886475
-0.03812562674283981 -0.5038759708404541 0.25581395626068115
-0.02991187572479248 -0.4883720874786377 0.19379842281341553
-0.037466131150722504 -0.4883721172809601 0.20930230617523193
-0.03416525200009346 -0.4883720874786377 0.7519380450248718
-0.02530294470489025 -0.4728682041168213 0.1472867727279663
-0.03502805531024933 -0.4728682041168213 0.16279065608978271
-0.03251940384507179 -0.4573643207550049 0.11627912521362305
-0.038259267807006836 -0.4418604373931885 0.08527135848999023
-0.03293497860431671 -0.44186046719551086 0.7209302186965942
-0.03323620930314064 -0.42635661363601685 0.05426359176635742
-0.02668456919491291 -0.42635661363601685 0.7054263353347778
-0.025880897417664528 -0.41085273027420044 0.6899224519729614
-0.031146153807640076 -0.39534884691238403 0.674418568611145
-0.03568638861179352 -0.3333333134651184 0.5503876209259033
-0.031008556485176086 -0.30232560634613037 -0.05426359176635742
-0.03754675015807152 -0.28682172298431396 0.5193798542022705
-0.02510334737598896 -0.27131783962249756 0.5193798542022705
-0.030787333846092224 -0.25581395626068115 -0.08527129888534546
-0.038516849279403687 -0.24031005799770355 -0.8759689331054688
-0.02923315390944481 -0.22480618953704834 0.5038759708404541
-0.0365273542702198 -0.1782945841550827 0.4883720874786377
-0.024891730397939682 -0.1627907156944275 0.4883720874786377
-0.03405235707759857 -0.10077518224716187 0.4728682041168213
-0.03078814595937729 -0.08527129888534546 0.4728682041168213
-0.027320656925439835 -0.06976741552352905 0.4728682041168213
-0.02326621301472187 -0.05426359176635742 0.4728682041168213
-0.03843388333916664 0.038759708404541016 0.4573643207550049
-0.034695908427238464 0.05426358804106712 0.4573643207550049
-0.03203083574771881 0.06976747512817383 0.4573643207550049
-0.031331777572631836 0.08527135848999023 0.4573643207550049
-0.029434239491820335 0.10077524185180664 -0.14728683233261108
-0.031626202166080475 0.10077524185180664 0.4573643207550049
-0.03266735374927521 0.11627912521362305 0.4573643207550049
-0.033190105110406876 0.1317828893661499 0.4573642909526825
-0.03329761326313019 0.1472867727279663 0.4573643207550049
-0.03306074067950249 0.16279065608978271 0.45736435055732727
-0.031465571373701096 0.17829453945159912 0.4573643207550049
-0.028668098151683807 0.19379842281341553 0.4573643207550049
-0.025042587891221046 0.20930230617523193 0.4573643207550049
-0.03202934190630913 0.22480618953704834 -0.14728683233261108
-0.03658970072865486 0.25581395626068115 -0.13178294897079468
-0.028278691694140434 0.3178294897079468 -0.10077518224716187
-0.033296167850494385 0.3333333730697632 -0.10077518224716187
-0.036857351660728455 0.3488372564315796 -0.10077518224716187
-0.026532631367444992 0.364341139793396 -0.08527129888534546
-0.03562163934111595 0.37984490394592285 -0.08527129888534546
-0.03698091208934784 0.39534878730773926 -0.06976741552352905
-0.03365698456764221 0.42635655403137207 -0.05426359176635742
-0.03418603166937828 0.5658915042877197 -0.05426359176635742
-0.035274822264909744 0.5813953876495361 0.4418604373931885
-0.03165191784501076 0.5968992710113525 0.4418604373931885
-0.026980234310030937 0.612403154373169 0.4418604373931885
-0.035245828330516815 0.6589146256446838 0.4263565242290497
-0.028109673410654068 0.674418568611145 0.42635655403137207
-0.03120257705450058 0.6899224519729614 -0.007751941680908203
-0.038649383932352066 0.6899225115776062 0.41085270047187805
-0.02680460549890995 0.7054263353347778 -0.007751941680908203
-0.030232705175876617 0.7054263353347778 0.41085267066955566
-0.03617176041007042 0.720930278301239 -0.007751941680908203
-0.03874710947275162 0.7209302186965942 0.39534878730773926
-0.029730111360549927 0.7364341020584106 0.39534878730773926
-0.02636573649942875 0.751937985420227 0.007751941680908203
-0.02335558459162712 0.7674418687820435 0.02325582504272461
-0.030597098171710968 0.7674418687820435 0.37984490394592285
-0.032160595059394836 0.7829457521438599 0.038759708404541016
-0.036440249532461166 0.7984496355056763 0.06976747512817383
-0.032775428146123886 0.7984496355056763 0.08527135848999023
-0.029721427708864212 0.7984496355056763 0.10077524185180664
-0.026376020163297653 0.7984496355056763 0.11627912521362305
-0.03216451779007912 0.7984496355056763 0.364341139793396
-0.03874967247247696 0.8139535188674927 0.24031007289886475
-0.02608525939285755 0.8139535188674927 0.364341139793396
-0.03344308212399483 0.8294574022293091 0.3488372564315796
-0.02832229807972908 0.8449612855911255 0.27131783962249756
-0.03873920440673828 0.8449612259864807 0.28682172298431396
-0.036415886133909225 0.8449612855911255 0.3333333730697632
-0.026788633316755295 0.8449612855911255 0.3488372564315796
-0.02813311666250229 0.8604651689529419 0.27131783962249756
-0.03534156456589699 0.8604651689529419 0.28682172298431396
-0.036220304667949677 0.8604651689529419 0.3178294897079468
-0.02966492623090744 0.8604651689529419 0.3333333730697632
-0.024609670042991638 0.8759689331054688 0.24031007289886475
-0.028680069372057915 0.8759689331054688 0.25581395626068115
-0.032850977033376694 0.8759689927101135 0.27131783962249756
-0.03586941584944725 0.8759689331054688 0.28682172298431396
-0.03443414717912674 0.8759689331054688 0.30232560634613037
-0.029737725853919983 0.8759689331054688 0.3178294897079468
-0.0277194082736969 0.8914728164672852 0.22480618953704834
-0.03191296383738518 0.8914728164672852 0.24031007289886475
-0.03516090288758278 0.8914728760719299 0.25581395626068115
-0.03537232056260109 0.8914728164672852 0.27131783962249756
-0.03293517231941223 0.8914728164672852 0.28682172298431396
-0.028095170855522156 0.8914728164672852 0.30232560634613037
-0.0245689507573843 0.9069766998291016 -0.06976741552352905
-0.02992098405957222 0.9069766998291016 -0.05426359176635742
-0.030563443899154663 0.9069766998291016 -0.038759708404541016
-0.02790105901658535 0.9069766998291016 -0.02325582504272461
-0.0241982564330101 0.9069766998291016 -0.007751941680908203
-0.023943740874528885 0.9069766998291016 0.19379842281341553
-0.030130106955766678 0.9069766998291016 0.20930230617523193
-0.03589681163430214 0.9069766998291016 0.22480618953704834
-0.03576129302382469 0.9069766402244568 0.25581395626068115
-0.03147872909903526 0.9069766998291016 0.27131783962249756
-0.025871112942695618 0.9069766998291016 0.28682172298431396
-0.024087868630886078 0.922480583190918 -0.06976741552352905
-0.032427962869405746 0.922480583190918 -0.05426359176635742
-0.03678766265511513 0.922480583190918 -0.038759708404541016
-0.03780157491564751 0.9224805235862732 -0.02325582504272461
-0.03329586982727051 0.922480583190918 -0.007751941680908203
-0.027919892221689224 0.922480583190918 0.007751941680908203
-0.02355056256055832 0.922480583190918 0.17829453945159912
-0.032233238220214844 0.922480583190918 0.19379842281341553
-0.034689269959926605 0.922480583190918 0.24031007289886475
-0.029291123151779175 0.922480583190918 0.25581395626068115
-0.023300712928175926 0.922480583190918 0.27131783962249756
-0.02710886485874653 0.9379844665527344 -0.05426359176635742
-0.03400048241019249 0.9379844665527344 -0.038759708404541016
-0.034054193645715714 0.9379844665527344 0.02325582504272461
-0.024764765053987503 0.9379844665527344 0.038759708404541016
-0.024433260783553123 0.9379844665527344 0.16279065608978271
-0.03348939120769501 0.9379844665527344 0.17829453945159912
-0.035854190587997437 0.9379844665527344 0.19379842281341553
-0.0346958190202713 0.9379844665527344 0.20930230617523193
-0.031122568994760513 0.9379844665527344 0.22480618953704834
-0.025179624557495117 0.9379844665527344 0.24031007289886475
-0.027325205504894257 0.9534883499145508 -0.02325582504272461
-0.03283190727233887 0.9534883499145508 -0.007751941680908203
-0.03547879308462143 0.9534883499145508 0.00775194214656949
-0.03717644140124321 0.9534883499145508 0.02325582504272461
-0.03484907001256943 0.9534883499145508 0.038759708404541016
-0.028949115425348282 0.9534883499145508 0.05426359176635742
-0.02661052905023098 0.9534883499145508 0.1472867727279663
-0.02946578711271286 0.9534883499145508 0.16279065608978271
-0.0302059818059206 0.9534883499145508 0.17829453945159912
-0.02816850319504738 0.9534883499145508 0.19379842281341553
-0.024882351979613304 0.9534883499145508 0.20930230617523193
-0.024114100262522697 0.9689922332763672 0.02325582504272461
-0.025956900790333748 0.9689922332763672 0.038759708404541016
-0.026654262095689774 0.9689922332763672 0.05426359176635742
-0.026639502495527267 0.9689922332763672 0.06976747512817383
-0.026143541559576988 0.9689922332763672 0.08527135848999023
-0.025605563074350357 0.9689922332763672 0.10077524185180664
-0.024966685101389885 0.9689922332763672 0.11627912521362305
-0.023923031985759735 0.9689922332763672 0.1317828893661499
-0.00851853284984827 -0.9844961166381836 0.5658915042877197
-0.01754029281437397 -0.9689922332763672 0.5348837375640869
-0.01980367861688137 -0.9689922332763672 0.5813953876495361
-0.012978874146938324 -0.9534883499145508 0.5193798542022705
-0.018264612182974815 -0.9534883499145508 0.5968992710113525
-0.012036947533488274 -0.9379844665527344 0.5193798542022705
-0.016510775312781334 -0.9379844665527344 0.5348837375640869
-0.021792026236653328 -0.9379844665527344 0.5968992710113525
-0.011566068977117538 -0.9379844665527344 0.612403154373169
-0.008897995576262474 -0.9224806427955627 0.5038759708404541
-0.01095115952193737 -0.9224806427955627 0.5193798542022705
-0.013195997104048729 -0.9224806427955627 0.5348837375640869
-0.020472271367907524 -0.9224806427955627 0.5503876209259033
-0.0176674947142601 -0.9224807024002075 0.612403154373169
-0.011162618175148964 -0.9069767594337463 0.5038759708404541
-0.012589190155267715 -0.9069767594337463 0.5193798542022705
-0.013578910380601883 -0.9069766998291016 0.5348837375640869
-0.01840519718825817 -0.9069767594337463 0.5503876209259033
-0.021555690094828606 -0.9069767594337463 0.612403154373169
-0.011768270283937454 -0.9069768190383911 0.6279069185256958
-0.011790325865149498 -0.8914728760719299 0.5038759708404541
-0.014280371367931366 -0.8914728760719299 0.5193798542022705
-0.016052059829235077 -0.8914728760719299 0.5348837375640869
-0.020813828334212303 -0.8914728760719299 0.5503876209259033
-0.02134115993976593 -0.8914728760719299 0.6279069185256958
-0.008920162916183472 -0.8759689927101135 0.5038759708404541
-0.01206335611641407 -0.8759689927101135 0.5193798542022705
-0.01602768711745739 -0.8759689927101135 0.5348837375640869
-0.019611157476902008 -0.8759689927101135 0.6434108018875122
-0.016830168664455414 -0.8604651093482971 0.6589146852493286
-0.008201416581869125 -0.8449612259864807 0.5503876209259033
-0.013305289670825005 -0.8449612259864807 0.674418568611145
-0.021513285115361214 -0.8294574022293091 0.5658915042877197
-0.011395363137125969 -0.8294573426246643 0.6899224519729614
-0.010734735056757927 -0.8139535188674927 0.7054263353347778
-0.01806986890733242 -0.7984496355056763 0.5813953876495361
-0.010094719007611275 -0.7984496355056763 0.7209302186965942
-0.008371617645025253 -0.7829457521438599 0.7364341020584106
-0.016877857968211174 -0.7674418687820435 0.5968992710113525
-0.008079912513494492 -0.7674418687820435 0.751937985420227
-0.009436570107936859 -0.751937985420227 0.7674418687820435
-0.022943345829844475 -0.7364341020584106 0.612403154373169
-0.012120427563786507 -0.7364341020584106 0.7829457521438599
-0.013944411650300026 -0.7209302186965942 0.612403154373169
-0.008168153464794159 -0.7054263353347778 0.612403154373169
-0.022213557735085487 -0.6899224519729614 0.6279069185256958
-0.014198482036590576 -0.674418568611145 0.6279069185256958
-0.009592028334736824 -0.674418568611145 0.7984496355056763
-0.013078328222036362 -0.6589146852493286 0.7984496355056763
-0.017773909494280815 -0.643410861492157 0.7984496355056763
-0.023123035207390785 -0.6279069781303406 0.7984496355056763
-0.013468804769217968 -0.6124030947685242 0.6279069185256958
-0.017461569979786873 -0.5968992114067078 0.612403154373169
-0.017632143571972847 -0.5813953876495361 0.5813953876495361
-0.016589045524597168 -0.5813953876495361 0.7829457521438599
-0.022777866572141647 -0.5658915042877197 0.5503876209259033
-0.012943398207426071 -0.5503876209259033 0.4883720874786377
-0.009873922914266586 -0.5348837375640869 0.30232560634613037
-0.01660819537937641 -0.5348837375640869 0.3178294897079468
-0.019351687282323837 -0.5348837375640869 0.7674418687820435
-0.013515031896531582 -0.5193798542022705 0.24031007289886475
-0.02142057754099369 -0.5193798542022705 0.25581395626068115
-0.01832181215286255 -0.5038759708404541 0.20930230617523193
-0.01814911514520645 -0.5038759708404541 0.751937985420227
-0.020171569660305977 -0.4883720874786377 0.17829453945159912
-0.020623579621315002 -0.4728682041168213 0.7364341020584106
-0.0124905314296484 -0.4573643207550049 0.10077524185180664
-0.013722820207476616 -0.4573643207550049 0.7209302186965942
-0.01669030264019966 -0.4418604373931885 0.06976747512817383
-0.01664355956017971 -0.3798449635505676 0.6434108018875122
-0.018418088555336 -0.317829430103302 -0.038759708404541016
-0.020555606111884117 -0.22480618953704834 -0.10077518224716187
-0.010579317808151245 -0.19379842281341553 -0.11627906560897827
-0.01991378329694271 0.22480618953704834 0.4573643207550049
-0.013966892845928669 0.24031007289886475 0.4573643207550049
-0.010679127648472786 0.25581395626068115 0.4573643207550049
-0.008889110758900642 0.27131783962249756 0.4573643207550049
-0.008248189464211464 0.28682172298431396 0.4573643207550049
-0.010194079950451851 0.30232560634613037 0.4573643207550049
-0.012701679021120071 0.3178294897079468 0.4573643207550049
-0.013914428651332855 0.3333333730697632 0.4573643207550049
-0.01619633287191391 0.3488372564315796 0.4573643207550049
-0.01710132136940956 0.364341139793396 0.4573643207550049
-0.016498547047376633 0.37984490394592285 0.4573643207550049
-0.014429289847612381 0.39534878730773926 0.4573643207550049
-0.01308390498161316 0.41085267066955566 0.4573643207550049
-0.010594962164759636 0.42635655403137207 0.4573643207550049
-0.00874948501586914 0.4418604373931885 0.4573643207550049
-0.021325964480638504 0.6279069185256958 0.4418604373931885
-0.013347197324037552 0.6434108018875122 0.4418604373931885
-0.00945697259157896 0.6899224519729614 -0.007751941680908203
-0.0176724623888731 0.6899224519729614 0.42635655403137207
-0.019325407221913338 0.7209302186965942 0.41085267066955566
-0.018206726759672165 0.751937985420227 0.39534878730773926
-0.02065841667354107 0.7829457521438599 0.37984493374824524
-0.023102935403585434 0.7984496355056763 0.1317828893661499
-0.020276324823498726 0.7984496355056763 0.1472867727279663
-0.018982967361807823 0.7984496355056763 0.16279065608978271
-0.01696128211915493 0.7984496355056763 0.17829453945159912
-0.011119766160845757 0.7984496355056763 0.37984490394592285
-0.02146068774163723 0.8294574022293091 0.25581395626068115
-0.01816660165786743 0.8294574022293091 0.364341139793396
-0.017157617956399918 0.8449613451957703 0.25581395626068115
-0.013659910298883915 0.8604651689529419 0.24031007289886475
-0.021026821807026863 0.8604651689529419 0.25581395626068115
-0.015713170170783997 0.8604651689529419 0.3488372564315796
-0.008792083710432053 0.8759689331054688 0.20930230617523193
-0.01750865951180458 0.8759689331054688 0.22480618953704834
-0.01996692456305027 0.8759689331054688 0.3333333730697632
-0.00881221890449524 0.8914728164672852 -0.08527129888534546
-0.017454225569963455 0.8914728164672852 -0.06976741552352905
-0.022242868319153786 0.8914728164672852 -0.05426359549164772
-0.020440025255084038 0.8914728164672852 -0.038759708404541016
-0.013831102289259434 0.8914728164672852 -0.02325582504272461
-0.011142580769956112 0.8914728164672852 0.19379842281341553
-0.02224106900393963 0.8914728164672852 0.20930230617523193
-0.020156430080533028 0.8914728164672852 0.3178294897079468
-0.01260150596499443 0.9069766998291016 -0.08527129888534546
-0.01565406657755375 0.9069766998291016 0.007751941680908203
-0.011906439438462257 0.9069766998291016 0.17829453945159912
-0.01648893766105175 0.9069766998291016 0.30232560634613037
-0.009707607328891754 0.922480583190918 -0.08527129888534546
-0.02168777398765087 0.9224806427955627 0.02325582504272461
-0.011836985126137733 0.922480583190918 0.038759708404541016
-0.012288238853216171 0.922480583190918 0.16279065608978271
-0.011239077895879745 0.922480583190918 0.28682172298431396
-0.01618942990899086 0.9379844665527344 -0.06976741552352905
-0.015281088650226593 0.9379844665527344 0.05426359176635742
-0.009208068251609802 0.9379844665527344 0.06976747512817383
-0.008196034468710423 0.9379844665527344 0.1317828893661499
-0.014130055904388428 0.9379844665527344 0.1472867727279663
-0.015369875356554985 0.9379844665527344 0.25581395626068115
-0.010223142802715302 0.9534883499145508 -0.05426359176635742
-0.021508323028683662 0.9534883499145508 -0.038759708404541016
-0.022089293226599693 0.9534883499145508 0.06976747512817383
-0.014828220009803772 0.9534883499145508 0.08527135848999023
-0.012477269396185875 0.9534883499145508 0.10077524185180664
-0.014316461980342865 0.9534883499145508 0.11627912521362305
-0.020928828045725822 0.9534883499145508 0.1317828893661499
-0.017694707959890366 0.9534883499145508 0.22480618953704834
-0.008397465571761131 0.9534883499145508 0.24031007289886475
-0.010414534248411655 0.9689922332763672 -0.007751941680908203
-0.017563479021191597 0.9689922332763672 0.007751941680908203
-0.02264103852212429 0.968992292881012 0.1472867727279663
-0.019918769598007202 0.9689922332763672 0.16279065608978271
-0.017616672441363335 0.9689922332763672 0.17829453945159912
-0.012645695358514786 0.9689922332763672 0.19379842281341553
-0.010698271915316582 0.9844961166381836 0.05426359176635742
-0.01431345660239458 0.9844961166381836 0.06976747512817383
-0.01605137810111046 0.9844961762428284 0.08527135848999023
-0.01579226180911064 0.9844961166381836 0.10077524185180664
-0.013705017045140266 0.9844961166381836 0.11627912521362305
-0.009981402195990086 0.9844961166381836 0.1317828893661499
0.0041509876027703285 -0.5658915042877197 0.5348837375640869
0.0007013659924268723 -0.038759708404541016 0.4728682041168213
0.006574018858373165 0.25581395626068115 -0.13178294897079468
0.004333700053393841 0.28682172298431396 -0.11627906560897827
-0.006342560984194279 0.3178294897079468 -0.10077518224716187
0.006033417768776417 0.3333333730697632 -0.10077518224716187
-0.0014757320750504732 0.364341139793396 -0.08527129888534546
-0.005799378268420696 0.4573643207550049 0.4573643207550049
0.006050749681890011 0.4728682041168213 -0.05426359176635742
-0.00702731404453516 0.4883720874786377 -0.05426359176635742
-0.0034696112852543592 0.674418568611145 -0.007751941680908203
-0.002863249508664012 0.7054263353347778 -0.007751941680908203
0.006959162652492523 0.9379844665527344 0.1317828893661499
-0.0017552506178617477 0.9689922332763672 0.20930230617523193
0.0067849187180399895 0.9844961166381836 0.1472867727279663
0.008356746286153793 -0.9844961166381836 0.5658915042877197
0.018112314864993095 -0.9689922332763672 0.5348837375640869
0.019657038152217865 -0.9689922332763672 0.5813953876495361
0.014084040187299252 -0.9534883499145508 0.5193798542022705
0.018820257857441902 -0.9534883499145508 0.5968992710113525
0.013859299942851067 -0.9379844665527344 0.5193798542022705
0.020191431045532227 -0.9379844665527344 0.5348837375640869
0.012726138345897198 -0.9379844665527344 0.612403154373169
0.009955205954611301 -0.9224806427955627 0.5038759708404541
0.012451054528355598 -0.9224806427955627 0.5193798542022705
0.015232942998409271 -0.9224806427955627 0.5348837375640869
0.019878117367625237 -0.922480583190918 0.612403154373169
0.012524859979748726 -0.9069766998291016 0.5038759708404541
0.01452658697962761 -0.9069768190383911 0.5193798542022705
0.015567785128951073 -0.9069767594337463 0.5348837375640869
0.02090136520564556 -0.9069768190383911 0.5503876209259033
0.014670157805085182 -0.9069766998291016 0.6279069185256958
0.013246335089206696 -0.8914728164672852 0.5038759708404541
0.01611044630408287 -0.8914728760719299 0.5193798542022705
0.018004823476076126 -0.8914728760719299 0.5348837375640869
0.009037358686327934 -0.8759690523147583 0.5038759708404541
0.01257938239723444 -0.8759689927101135 0.5193798542022705
0.017121365293860435 -0.8759689927101135 0.5348837375640869
0.022527026012539864 -0.8604651093482971 0.6589146852493286
0.009183851070702076 -0.8449611663818359 0.5503876209259033
0.017552999779582024 -0.8449612259864807 0.674418568611145
0.022816864773631096 -0.8294573426246643 0.5658915042877197
0.015473190695047379 -0.8294572830200195 0.6899224519729614
0.015574358403682709 -0.8139535188674927 0.7054263353347778
0.018208162859082222 -0.7984496355056763 0.5813953876495361
0.015760637819767 -0.7984496355056763 0.7209302186965942
0.013554845005273819 -0.7829457521438599 0.7364341020584106
0.01589156873524189 -0.7674418687820435 0.5968992710113525
0.0140193160623312 -0.7674418687820435 0.751937985420227
0.020198814570903778 -0.751937985420227 0.7674418687820435
0.02104685641825199 -0.7364341020584106 0.612403154373169
0.013027457520365715 -0.7209302186965942 0.612403154373169
0.008135141804814339 -0.7054263353347778 0.612403154373169
0.02144406922161579 -0.6899224519729614 0.6279069185256958
0.013471357524394989 -0.674418568611145 0.6279069185256958
0.010196303948760033 -0.674418568611145 0.7984495759010315
0.013659551739692688 -0.6589146852493286 0.7984496355056763
0.01873926818370819 -0.643410861492157 0.7984496355056763
0.014028226025402546 -0.612403154373169 0.6279069185256958
0.016292069107294083 -0.5968992114067078 0.612403154373169
0.016864044591784477 -0.5813953876495361 0.5813953876495361
0.018197722733020782 -0.5813953876495361 0.7829457521438599
0.008022413589060307 -0.565891444683075 0.5348837375640869
0.02221732959151268 -0.5658915042877197 0.5503876209259033
0.015080654993653297 -0.5503876209259033 0.4883720874786377
0.012892015278339386 -0.5348837375640869 0.30232560634613037
0.022388529032468796 -0.5348837375640869 0.3178294897079468
0.021486692130565643 -0.5348837375640869 0.7674418687820435
0.01736239157617092 -0.5193798542022705 0.24031007289886475
0.020250478759407997 -0.5038759708404541 0.751937985420227
0.02324089966714382 -0.4728682041168213 0.7364341020584106
0.016394471749663353 -0.4573643207550049 0.10077524185180664
0.014835333451628685 -0.4573643207550049 0.7209302186965942
0.0223128292709589 -0.4418604373931885 0.06976747512817383
0.015559343621134758 -0.3798449635505676 0.6434108018875122
0.02307906560599804 -0.3488371968269348 0.5968992710113525
0.015173647552728653 -0.3333333134651184 0.5658915042877197
0.012283903546631336 -0.317829430103302 -0.038759708404541016
0.012409510090947151 -0.30232560634613037 0.5348837375640869
0.0141081428155303 -0.22480618953704834 -0.10077518224716187
0.017258575186133385 0.10077524185180664 -0.14728683233261108
0.01104852557182312 0.22480618953704834 -0.14728683233261108
0.01732110232114792 0.24031007289886475 0.4573643207550049
0.013240594416856766 0.25581395626068115 0.4573643207550049
0.011033431626856327 0.27131783962249756 0.4573643207550049
0.01010347343981266 0.28682172298431396 0.4573643207550049
0.011874604970216751 0.30232560634613037 0.4573643207550049
0.014311607927083969 0.3178294897079468 0.4573643207550049
0.015425555408000946 0.3333333730697632 0.4573643207550049
0.015639953315258026 0.3488372564315796 -0.10077518224716187
0.017578769475221634 0.3488372564315796 0.4573643207550049
0.01841532438993454 0.364341139793396 0.4573643207550049
0.018393289297819138 0.37984490394592285 -0.08527129888534546
0.017823971807956696 0.37984490394592285 0.4573643207550049
0.016550658270716667 0.39534878730773926 -0.06976741552352905
0.015821337699890137 0.39534878730773926 0.4573643207550049
0.014399111270904541 0.41085267066955566 0.4573643207550049
0.009160859510302544 0.42635655403137207 -0.05426359549164772
0.011758718639612198 0.42635655403137207 0.4573643207550049
0.013402437791228294 0.4418604373931885 -0.05426359176635742
0.009727071970701218 0.4418604373931885 0.4573643207550049
0.011134698987007141 0.4573643207550049 -0.05426359176635742
0.008471616543829441 0.4573643207550049 0.4573643207550049
0.020350662991404533 0.5658915042877197 -0.05426359176635742
0.019564740359783173 0.6279069185256958 0.4418604373931885
0.012329379096627235 0.6434108018875122 0.4418604373931885
0.0154825858771801 0.6899224519729614 0.42635655403137207
0.02315535582602024 0.7209302186965942 -0.007751941680908203
0.017103051766753197 0.7209302186965942 0.41085267066955566
0.017825165763497353 0.751937985420227 0.007751941680908203
0.016328010708093643 0.751937985420227 0.39534878730773926
0.015079875476658344 0.7674418687820435 0.02325582504272461
0.019339287653565407 0.7829457521438599 0.37984490394592285
0.02243860997259617 0.7984496355056763 0.11627912521362305
0.021091967821121216 0.7984496355056763 0.1317828893661499
0.01976916939020157 0.7984496355056763 0.1472867727279663
0.01952473446726799 0.7984496355056763 0.16279065608978271
0.018906142562627792 0.7984496355056763 0.17829453945159912
0.010917376726865768 0.7984496355056763 0.37984490394592285
0.02088840864598751 0.8294574022293091 0.25581395626068115
0.018747195601463318 0.8294574022293091 0.364341139793396
0.016211465001106262 0.8449612855911255 0.25581395626068115
0.012540429830551147 0.8604651689529419 0.24031007289886475
0.018688367679715157 0.8604651689529419 0.25581395626068115
0.016416696831583977 0.8604651689529419 0.3488372564315796
0.008484477177262306 0.8759689331054688 0.20930230617523193
0.01566152460873127 0.8759689331054688 0.22480618953704834
0.021697042509913445 0.8759689331054688 0.24031007289886475
0.020639093592762947 0.8759689331054688 0.3333333730697632
0.00926368311047554 0.8914728760719299 -0.08527129888534546
0.017878547310829163 0.8914728164672852 -0.06976741552352905
0.022024905309081078 0.8914728164672852 -0.05426359176635742
0.02030033990740776 0.8914728164672852 -0.038759708404541016
0.014037884771823883 0.8914728164672852 -0.02325582504272461
0.010508928447961807 0.8914728164672852 0.19379842281341553
0.019274750724434853 0.8914728164672852 0.20930230617523193
0.021120278164744377 0.8914728164672852 0.3178294897079468
0.013286656700074673 0.9069767594337463 -0.08527129888534546
0.015757929533720016 0.9069766998291016 0.007751941680908203
0.011194364167749882 0.9069766998291016 0.17829453945159912
0.021479686722159386 0.9069766998291016 0.19379842281341553
0.017530467361211777 0.9069766998291016 0.30232560634613037
0.010020235553383827 0.922480583190918 -0.08527130633592606
0.020665688440203667 0.922480583190918 0.02325582504272461
0.011775853112339973 0.9224805235862732 0.038759708404541016
0.011454666033387184 0.922480583190918 0.16279065608978271
0.020536841824650764 0.922480583190918 0.17829453945159912
0.012058882042765617 0.9224805235862732 0.28682172298431396
0.016332147642970085 0.9379844665527344 -0.06976741552352905
0.014730507507920265 0.9379845261573792 0.05426359176635742
0.009065346792340279 0.9379844665527344 0.06976747512817383
0.012627014890313148 0.9379844665527344 0.1472867727279663
0.020444365218281746 0.9379844665527344 0.16279065608978271
0.016763264313340187 0.9379844665527344 0.25581395626068115
0.011269096285104752 0.9534883499145508 -0.05426359549164772
0.022727709263563156 0.9534883499145508 -0.038759708404541016
0.01823951117694378 0.9534883499145508 0.06976747512817383
0.01296193152666092 0.9534883499145508 0.08527135848999023
0.010975981131196022 0.9534883499145508 0.10077524185180664
0.012036227621138096 0.9534883499145508 0.11627912521362305
0.016016719862818718 0.9534883499145508 0.1317828893661499
0.0192006453871727 0.9534883499145508 0.22480618953704834
0.009422034956514835 0.9534883499145508 0.24031007289886475
0.011395527049899101 0.9689921736717224 -0.007751941680908203
0.01939934305846691 0.9689922332763672 0.007751941680908203
0.022992270067334175 0.9689922332763672 0.1472867727279663
0.02116294763982296 0.9689922332763672 0.16279065608978271
0.018694695085287094 0.9689922332763672 0.17829453945159912
0.014181110076606274 0.9689922332763672 0.19379842281341553
0.008407974615693092 0.9689922332763672 0.20930230617523193
0.011471614241600037 0.9844961166381836 0.05426359176635742
0.01520024798810482 0.9844961166381836 0.06976747512817383
0.01669948361814022 0.9844961166381836 0.08527135848999023
0.01627199351787567 0.9844961166381836 0.10077524185180664
0.014287153258919716 0.9844961166381836 0.11627912521362305
0.010784480720758438 0.9844961762428284 0.1317828893661499
0.007808727212250233 0.9844961166381836 0.1472867727279663
0.025598475709557533 -0.9689921736717224 0.5503876209259033
0.0253783967345953 -0.9689922332763672 0.5658915042877197
0.02512960508465767 -0.9534883499145508 0.5348837375640869
0.027911849319934845 -0.953488290309906 0.5503876209259033
0.028942884877324104 -0.9534883499145508 0.5658915042877197
0.026371488347649574 -0.9534883499145508 0.5813953876495361
0.026576336473226547 -0.9379845261573792 0.5503876209259033
0.02928033471107483 -0.9379844665527344 0.5658915042877197
0.028044968843460083 -0.9379844665527344 0.5813953876495361
0.023798629641532898 -0.9379844665527344 0.5968992710113525
0.023473471403121948 -0.9224806427955627 0.5503876209259033
0.02767244353890419 -0.9224806427955627 0.5658915042877197
0.028018668293952942 -0.9224807024002075 0.5813953876495361
0.026072103530168533 -0.9224806427955627 0.5968992710113525
0.02663794718682766 -0.9069767594337463 0.5658915042877197
0.028853226453065872 -0.9069768190383911 0.5813953876495361
0.028259634971618652 -0.9069767594337463 0.5968992710113525
0.024952653795480728 -0.9069767594337463 0.612403154373169
0.02374880388379097 -0.8914728760719299 0.5503876209259033
0.028718218207359314 -0.8914729356765747 0.5658915042877197
0.030900586396455765 -0.8914728760719299 0.5813953876495361
0.031195301562547684 -0.8914728760719299 0.5968992710113525
0.030096309259533882 -0.8914728760719299 0.612403154373169
0.025128480046987534 -0.8914729356765747 0.6279069185256958
0.025667613372206688 -0.8759689927101135 0.5503876209259033
0.03084864281117916 -0.8759689331054688 0.5658915042877197
0.03292642906308174 -0.8759689331054688 0.5813953876495361
0.03309274837374687 -0.8759689927101135 0.5968992710113525
0.03313028812408447 -0.8759689927101135 0.612403154373169
0.03195662051439285 -0.8759689927101135 0.6279069185256958
0.024253109470009804 -0.8759689331054688 0.6434108018875122
0.024215057492256165 -0.8604651093482971 0.5503876209259033
0.03146296739578247 -0.8604651093482971 0.5658915042877197
0.0346766822040081 -0.8604651093482971 0.5813953876495361
0.03581675887107849 -0.8604650497436523 0.5968992710113525
0.03598342090845108 -0.8604651093482971 0.612403154373169
0.03542786091566086 -0.8604651093482971 0.6279069185256958
0.03291359171271324 -0.8604651689529419 0.6434108018875122
0.02936118096113205 -0.8449612855911255 0.5658915042877197
0.03488597646355629 -0.8449611663818359 0.5813953876495361
0.037499167025089264 -0.8449612259864807 0.5968992710113525
0.03358016163110733 -0.8449612855911255 0.6589146852493286
0.03237887844443321 -0.8294573426246643 0.5813953876495361
0.03702862560749054 -0.8294573426246643 0.5968992710113525
0.03354687988758087 -0.8294572830200195 0.674418568611145
0.02734605222940445 -0.8139535188674927 0.5813953876495361
0.03481690213084221 -0.8139535188674927 0.5968992710113525
0.034196462482213974 -0.8139535188674927 0.6899224519729614
0.031436577439308167 -0.7984496355056763 0.5968992710113525
0.03587086871266365 -0.7984496355056763 0.7054263353347778
0.02599918283522129 -0.7829457521438599 0.5968992710113525
0.03731247037649155 -0.7829457521438599 0.612403154373169
0.03814108297228813 -0.7829457521438599 0.7209302186965942
0.031874533742666245 -0.7674418687820435 0.612403154373169
0.02634754218161106 -0.751937985420227 0.612403154373169
0.037687864154577255 -0.751937985420227 0.6279069185256958
0.0329836942255497 -0.7364341020584106 0.6279069185256958
0.02550324611365795 -0.7364341020584106 0.7829457521438599
0.028734946623444557 -0.7209302186965942 0.6279069185256958
0.03846555948257446 -0.7209302186965942 0.6434108018875122
0.025280440226197243 -0.7054263353347778 0.6279069185256958
0.035614125430583954 -0.7054263353347778 0.6434108018875122
0.03322404623031616 -0.6899224519729614 0.6434108018875122
0.03080623783171177 -0.674418568611145 0.6434108018875122
0.029001295566558838 -0.6589146852493286 0.6434108018875122
0.028088387101888657 -0.643410861492157 0.6434108018875122
0.029300503432750702 -0.6279069781303406 0.6434108018875122
0.026073485612869263 -0.6279069781303406 0.7984496355056763
0.03403327986598015 -0.6124030947685242 0.6434108018875122
0.03669332340359688 -0.6124030351638794 0.7984496355056763
0.02967309206724167 -0.5968992114067078 0.6279069185256958
0.027617260813713074 -0.5813953876495361 0.5968992710113525
0.03656137362122536 -0.5813953876495361 0.612403154373169
0.02923734113574028 -0.5658915042877197 0.5658915042877197
0.036830417811870575 -0.5658915042877197 0.5813953876495361
0.03451824188232422 -0.5658915042877197 0.7829457521438599
0.024020416662096977 -0.5503876209259033 0.5038759708404541
0.029349159449338913 -0.5503876209259033 0.5193798542022705
0.033926330506801605 -0.5503876209259033 0.5348837375640869
0.028102003037929535 -0.5348837375640869 0.3333333730697632
0.03292093053460121 -0.5348837375640869 0.3488372564315796
0.03709692507982254 -0.5348837375640869 0.364341139793396
0.025782741606235504 -0.5193798542022705 0.25581395626068115
0.030160613358020782 -0.5193798542022705 0.27131783962249756
0.035048481076955795 -0.5193798542022705 0.28682172298431396
0.037479232996702194 -0.5193798542022705 0.7674418687820435
0.02346804551780224 -0.5038759708404541 0.20930230617523193
0.030784504488110542 -0.5038759708404541 0.22480618953704834
0.03742671012878418 -0.5038759708404541 0.24031007289886475
0.024982381612062454 -0.4883720874786377 0.17829453945159912
0.0340757854282856 -0.4883720874786377 0.19379842281341553
0.0372781865298748 -0.4883720874786377 0.751937985420227
0.02911299467086792 -0.4728682041168213 0.1472867727279663
0.03783110901713371 -0.4573643207550049 0.11627912521362305
0.035370901226997375 -0.4418604373931885 0.7209302186965942
0.03745580464601517 -0.42635661363601685 0.05426359176635742
0.02915201336145401 -0.42635661363601685 0.7054263353347778
0.027927376329898834 -0.41085273027420044 0.6899224519729614
0.03184513747692108 -0.39534884691238403 0.674418568611145
0.02348184958100319 -0.3488371968269348 0.5968992710113525
0.025640781968832016 -0.3333333134651184 0.5658915042877197
0.027938518673181534 -0.30232560634613037 -0.05426359176635742
0.02676376700401306 -0.30232560634613037 0.5348837375640869
0.037899259477853775 -0.28682172298431396 -0.06976741552352905
0.030273396521806717 -0.27131783962249756 0.5193798542022705
0.028555771335959435 -0.25581395626068115 -0.08527129888534546
0.03830994665622711 -0.24031007289886475 -0.8759689927101135
0.03443494439125061 -0.22480618953704834 0.5038759708404541
0.0285195205360651 -0.1627907156944275 0.4883720874786377
0.03520505875349045 -0.08527129888534546 0.4728682041168213
0.03151716664433479 -0.06976741552352905 0.4728682041168213
0.027695726603269577 -0.05426359176635742 0.4728682041168213
0.02338937297463417 -0.038759708404541016 -0.13178293406963348
0.023414624854922295 -0.038759708404541016 0.4728682339191437
0.03555925562977791 0.06976747512817383 -0.14728683233261108
0.03730369731783867 0.06976747512817383 0.4573643207550049
0.029608964920043945 0.08527135848999023 -0.14728683233261108
0.03631910681724548 0.08527135848999023 0.4573643207550049
0.03648534044623375 0.10077524185180664 0.4573643207550049
0.03737642616033554 0.11627912521362305 0.4573643207550049
0.03763832151889801 0.1317828893661499 0.4573643207550049
0.03741510212421417 0.1472867727279663 0.4573643207550049
0.03684654459357262 0.16279065608978271 0.4573643207550049
0.03490598499774933 0.17829453945159912 0.4573643207550049
0.031737424433231354 0.19379842281341553 0.4573643207550049
0.027743566781282425 0.20930229127407074 0.4573643207550049
0.023749804124236107 0.22480617463588715 0.4573643207550049
0.03611927479505539 0.24031007289886475 -0.14728683233261108
0.0339127741754055 0.27131783962249756 -0.13178294897079468
0.02612375281751156 0.30232560634613037 -0.11627906560897827
0.03442570939660072 0.3178294897079468 -0.11627906560897827
0.03862762078642845 0.3333333730697632 -0.11627906560897827
0.02423122711479664 0.364341139793396 -0.10077518224716187
0.032074280083179474 0.37984490394592285 -0.10077518224716187
0.03163871914148331 0.39534878730773926 -0.08527129888534546
0.0317801870405674 0.41085267066955566 -0.06976741552352905
0.03813497722148895 0.5658915042877197 0.4418604373931885
0.0379658043384552 0.5813953876495361 -0.05426359176635742
0.03423461690545082 0.5813953876495361 0.4418604373931885
0.03170014172792435 0.5968992710113525 -0.038759708404541016
0.03073728457093239 0.5968992710113525 0.4418604373931885
0.02592157945036888 0.612403154373169 0.4418604373931885
0.03301694989204407 0.6589146852493286 0.42635655403137207
0.025492187589406967 0.674418568611145 0.42635655403137207
0.035104840993881226 0.6899224519729614 0.41085267066955566
0.027571670711040497 0.7054263353347778 0.41085267066955566
0.03509732335805893 0.7209302186965942 0.39534878730773926
0.03454722464084625 0.7364341020584106 -0.007751941680908203
0.027167726308107376 0.7364341020584106 0.39534878730773926
0.036445241421461105 0.751937985420227 0.37984490394592285
0.02863532304763794 0.7674418687820435 0.37984490394592285
0.02707482874393463 0.7829457521438599 0.038759708404541016
0.037434790283441544 0.7829457521438599 0.364341139793396
