0.16436442732810974 -0.1782945990562439 0.37984490394592285
0.1694301962852478 -0.1627907156944275 -0.13178294897079468
0.17780686914920807 -0.1627907156944275 -0.11627906560897827
0.17642448842525482 -0.1627907156944275 0.3488372564315796
0.17115473747253418 -0.1627907156944275 0.364341139793396
0.1662379801273346 -0.1627907156944275 0.37984490394592285
0.16961762309074402 -0.14728683233261108 -0.13178294897079468
0.17815503478050232 -0.14728683233261108 0.3488372564315796
0.17305202782154083 -0.14728683233261108 0.364341139793396
0.16796597838401794 -0.14728683233261108 0.37984490394592285
0.1635046750307083 -0.14728683233261108 0.39534878730773926
0.16916713118553162 -0.13178294897079468 -0.13178294897079468
0.17445379495620728 -0.13178294897079468 0.364341139793396
0.16942358016967773 -0.13178294897079468 0.37984490394592285
0.16471800208091736 -0.13178294897079468 0.39534875750541687
0.16811113059520721 -0.11627906560897827 -0.13178294897079468
0.17587590217590332 -0.11627906560897827 0.364341139793396
0.171164408326149 -0.11627906560897827 0.37984490394592285
0.16641327738761902 -0.11627906560897827 0.39534881711006165
0.16614145040512085 -0.10077518224716187 -0.13178294897079468
0.17796006798744202 -0.10077518224716187 -0.11627906560897827
0.1771680861711502 -0.10077518224716187 0.364341139793396
0.17271718382835388 -0.10077518224716187 0.37984490394592285
0.16794350743293762 -0.10077518224716187 0.39534878730773926
0.16349858045578003 -0.10077518224716187 0.41085267066955566
0.16388200223445892 -0.08527129888534546 -0.13178294897079468
0.1772279143333435 -0.08527129888534546 -0.11627906560897827
0.17417943477630615 -0.08527129888534546 0.37984490394592285
0.16946542263031006 -0.08527129888534546 0.39534878730773926
0.16478458046913147 -0.08527129888534546 0.4108526408672333
0.17652831971645355 -0.06976741552352905 -0.11627906560897827
0.17560900747776031 -0.06976741552352905 0.37984490394592285
0.1711978316307068 -0.06976741552352905 0.39534878730773926
0.16656792163848877 -0.06976741552352905 0.41085267066955566
0.17594856023788452 -0.05426359176635742 -0.11627906560897827
0.17717456817626953 -0.05426359176635742 0.37984490394592285
0.17299844324588776 -0.05426359176635742 0.39534878730773926
0.16845589876174927 -0.05426359176635742 0.41085267066955566
0.16388139128684998 -0.05426359176635742 0.42635655403137207
0.17496070265769958 -0.038759708404541016 -0.11627906560897827
0.17447859048843384 -0.038759708404541016 0.39534878730773926
0.1699923276901245 -0.038759708404541016 0.41085267066955566
0.16540908813476562 -0.038759708404541016 0.42635655403137207
0.17381924390792847 -0.02325582504272461 -0.11627906560897827
0.17574143409729004 -0.02325582504272461 0.39534878730773926
0.17142069339752197 -0.02325582504272461 0.41085267066955566
0.16704030334949493 -0.02325582504272461 0.42635655403137207
0.17207932472229004 -0.007751941680908203 -0.11627906560897827
0.17704226076602936 -0.007751941680908203 0.39534878730773926
0.17286384105682373 -0.007751941680908203 0.41085267066955566
0.16863250732421875 -0.007751941680908203 0.42635655403137207
0.1635831743478775 -0.00775194214656949 0.44186046719551086
0.1695297658443451 0.007751941680908203 -0.11627906560897827
0.17412066459655762 0.007751941680908203 0.41085267066955566
0.16994720697402954 0.007751941680908203 0.42635655403137207
0.16467711329460144 0.007751941680908203 0.4418604373931885
0.16527985036373138 0.02325582504272461 -0.11627906560897827
0.17494677007198334 0.02325582504272461 0.41085267066955566
0.17078298330307007 0.02325582504272461 0.42635655403137207
0.16556093096733093 0.02325582504272461 0.4418604373931885
0.17544759809970856 0.038759708404541016 0.41085267066955566
0.17127296328544617 0.038759708404541016 0.42635655403137207
0.1661776304244995 0.038759708404541016 0.4418604075908661
0.1770239621400833 0.05426359176635742 -0.10077518224716187
0.17585580050945282 0.05426359176635742 0.41085267066955566
0.17162957787513733 0.05426359176635742 0.42635655403137207
0.16665169596672058 0.05426359176635742 0.4418604373931885
0.17600558698177338 0.06976747512817383 -0.10077518224716187
0.17596040666103363 0.06976747512817383 0.41085267066955566
0.17168748378753662 0.06976747512817383 0.42635655403137207
0.16672009229660034 0.06976747512817383 0.4418604075908661
0.1763884276151657 0.08527135848999023 -0.10077518224716187
0.17588482797145844 0.08527135848999023 0.41085267066955566
0.17154201865196228 0.08527135848999023 0.42635655403137207
0.16646823287010193 0.08527135848999023 0.4418604373931885
0.17602649331092834 0.10077524185180664 0.41085267066955566
0.1714668571949005 0.10077524185180664 0.42635655403137207
0.16617020964622498 0.10077524185180664 0.4418604373931885
0.16415251791477203 0.11627912521362305 -0.11627906560897827
0.1760336309671402 0.11627912521362305 0.41085267066955566
0.1712033599615097 0.11627912521362305 0.42635655403137207
0.16554829478263855 0.11627912521362305 0.4418604373931885
0.16878598928451538 0.1317828893661499 -0.11627906560897827
0.17583487927913666 0.1317828893661499 0.41085267066955566
0.17072802782058716 0.1317828893661499 0.42635655403137207
0.16467955708503723 0.1317828893661499 0.4418604373931885
0.17240369319915771 0.1472867727279663 -0.11627906560897827
0.1754799783229828 0.1472867727279663 0.41085267066955566
0.17005357146263123 0.1472867727279663 0.42635655403137207
0.1636955440044403 0.1472867727279663 0.4418604373931885
0.17492756247520447 0.16279065608978271 -0.11627906560897827
0.17486663162708282 0.16279065608978271 0.41085267066955566
0.16900786757469177 0.16279065608978271 0.42635655403137207
0.17663413286209106 0.17829453945159912 -0.11627906560897827
0.17372053861618042 0.17829453945159912 0.41085267066955566
0.1672448217868805 0.17829453945159912 0.42635655403137207
0.17701378464698792 0.19379842281341553 -0.11627906560897827
0.17245721817016602 0.19379842281341553 0.41085267066955566
0.1652447134256363 0.19379842281341553 0.42635655403137207
0.17706306278705597 0.20930230617523193 -0.11627906560897827
0.17136406898498535 0.20930230617523193 0.41085267066955566
0.16349820792675018 0.20930230617523193 0.42635655403137207
0.1768181174993515 0.22480618953704834 -0.11627906560897827
0.17017951607704163 0.22480618953704834 0.41085267066955566
0.17680631577968597 0.24031007289886475 -0.11627906560897827
0.17692717909812927 0.24031007289886475 0.39534878730773926
0.16880230605602264 0.24031007289886475 0.41085267066955566
0.17704662680625916 0.25581395626068115 -0.11627906560897827
0.17517876625061035 0.25581395626068115 0.39534878730773926
0.16718171536922455 0.25581395626068115 0.41085267066955566
0.17754234373569489 0.27131783962249756 -0.11627906560897827
0.17394083738327026 0.27131783962249756 0.39534878730773926
0.16592606902122498 0.27131783962249756 0.41085267066955566
0.17789578437805176 0.28682172298431396 -0.11627906560897827
0.17294242978096008 0.28682172298431396 0.39534878730773926
0.16474580764770508 0.28682175278663635 0.41085270047187805
0.172064870595932 0.30232560634613037 0.39534878730773926
0.1635739654302597 0.30232560634613037 0.41085267066955566
0.16320811212062836 0.3178294897079468 -0.13178294897079468
0.1713048368692398 0.3178294897079468 0.39534878730773926
0.16347762942314148 0.3333333730697632 -0.13178294897079468
0.1704075038433075 0.3333333730697632 0.39534878730773926
0.16379386186599731 0.3488372564315796 -0.13178294897079468
0.17730632424354553 0.3488372564315796 0.37984490394592285
0.16922780871391296 0.3488372564315796 0.39534878730773926
0.16392740607261658 0.364341139793396 -0.13178294897079468
0.17517389357089996 0.364341139793396 0.37984490394592285
0.16738086938858032 0.364341139793396 0.39534878730773926
0.1633070707321167 0.37984490394592285 -0.13178296387195587
0.17704711854457855 0.37984490394592285 -0.11627906560897827
0.17334899306297302 0.37984490394592285 0.37984490394592285
0.1652907133102417 0.37984490394592285 0.39534878730773926
0.17584826052188873 0.39534878730773926 -0.11627906560897827
0.1723254770040512 0.39534878730773926 0.37984490394592285
0.16351619362831116 0.39534878730773926 0.39534878730773926
0.16294348239898682 0.41085267066955566 -0.13178294897079468
0.17537738382816315 0.41085267066955566 -0.11627906560897827
0.17141804099082947 0.41085267066955566 0.37984490394592285
0.16374754905700684 0.42635655403137207 -0.13178294897079468
0.17547132074832916 0.42635655403137207 -0.11627906560897827
0.1701672524213791 0.42635655403137207 0.37984490394592285
0.16527295112609863 0.4418604373931885 -0.13178294897079468
0.1762475073337555 0.4418604373931885 -0.11627906560897827
0.17599160969257355 0.4418604373931885 0.364341139793396
0.16853144764900208 0.4418604373931885 0.37984490394592285
0.16685986518859863 0.4573643207550049 -0.13178294897079468
0.17717036604881287 0.4573643207550049 -0.11627906560897827
0.1742316484451294 0.4573643207550049 0.364341139793396
0.1668899655342102 0.4573643207550049 0.37984493374824524
0.16852310299873352 0.4728682041168213 -0.13178294897079468
0.17298662662506104 0.4728682041168213 0.364341139793396
0.1650771051645279 0.4728682041168213 0.37984490394592285
0.16981187462806702 0.4883720874786377 -0.13178294897079468
0.17194724082946777 0.4883720874786377 0.364341139793396
0.1632203906774521 0.4883720874786377 0.37984490394592285
0.17081782221794128 0.5038759708404541 -0.13178294897079468
0.1707240492105484 0.5038759708404541 0.364341139793396
0.17169514298439026 0.5193798542022705 -0.13178294897079468
0.17706403136253357 0.5193798542022705 0.3488372564315796
0.16912108659744263 0.5193798542022705 0.364341139793396
0.17288024723529816 0.5348837375640869 -0.13178294897079468
0.1745000183582306 0.5348837375640869 0.3488372564315796
0.16699674725532532 0.5348837375640869 0.3643411099910736
0.16416719555854797 0.5503876209259033 -0.14728683233261108
0.174200177192688 0.5503876209259033 -0.13178294897079468
0.17234036326408386 0.5503876209259033 0.3488372564315796
0.16376937925815582 0.5503876209259033 0.364341139793396
0.16622869670391083 0.5658915042877197 -0.14728683233261108
0.17550316452980042 0.5658915042877197 -0.13178294897079468
0.1699310839176178 0.5658915042877197 0.3488372564315796
0.16414140164852142 0.5813953280448914 -0.1627907156944275
0.16931241750717163 0.5813953876495361 -0.14728683233261108
0.1769491732120514 0.5813953876495361 -0.13178294897079468
0.17329885065555573 0.5813953876495361 0.3333333730697632
0.1657172441482544 0.5813953876495361 0.3488372564315796
0.16776660084724426 0.5968992710113525 -0.1782945990562439
0.17083314061164856 0.5968992710113525 -0.1627907156944275
0.17338839173316956 0.5968992710113525 -0.14728683233261108
0.1702166497707367 0.5968992710113525 0.3333333730697632
0.1699967384338379 0.612403154373169 -0.19379842281341553
0.17453794181346893 0.612403154373169 -0.1782945990562439
0.17753855884075165 0.612403154373169 -0.1627907156944275
0.17281578481197357 0.612403154373169 0.3178294897079468
0.16464833915233612 0.612403154373169 0.3333333730697632
0.16966640949249268 0.6279069185256958 -0.20930230617523193
0.17601798474788666 0.6279069185256958 -0.19379842281341553
0.1759873330593109 0.6279069185256958 0.30232560634613037
0.1678394377231598 0.6279069185256958 0.3178294897079468
0.16581352055072784 0.6434108018875122 -0.22480618953704834
0.175449937582016 0.6434108018875122 -0.20930230617523193
0.17040792107582092 0.6434108018875122 0.30232560634613037
0.1720173954963684 0.6589146852493286 -0.22480618953704834
0.17292965948581696 0.6589146852493286 0.28682172298431396
0.16367807984352112 0.6589146852493286 0.30232560634613037
0.16666342318058014 0.674418568611145 -0.24031007289886475
0.17763414978981018 0.674418568611145 -0.22480618953704834
0.17593425512313843 0.674418568611145 0.27131783962249756
0.1673468053340912 0.674418568611145 0.28682172298431396
0.16609400510787964 0.6899224519729614 -0.25581395626068115
0.17372018098831177 0.6899224519729614 -0.24031007289886475
0.17134752869606018 0.6899224519729614 0.27131783962249756
0.16662368178367615 0.7054263353347778 -0.27131783962249756
0.1716790795326233 0.7054263353347778 -0.25581395626068115
0.17696303129196167 0.7054263353347778 -0.24031007289886475
0.1743253469467163 0.7054263353347778 0.25581395626068115
0.16555321216583252 0.7054263353347778 0.27131783962249756
0.1642601191997528 0.7209302186965942 -0.28682172298431396
0.16918081045150757 0.7209302186965942 -0.27131783962249756
0.17326387763023376 0.7209302186965942 -0.25581395626068115
0.17774328589439392 0.7209302186965942 -0.24031007289886475
0.1706255078315735 0.7209302186965942 0.25581395626068115
0.16557367146015167 0.7364341020584106 -0.28682172298431396
0.16982650756835938 0.7364341020584106 -0.27131783962249756
0.17342279851436615 0.7364341020584106 -0.25581395626068115
0.1773792952299118 0.7364341020584106 -0.24031007289886475
0.1734745353460312 0.7364341020584106 0.24031007289886475
0.16411682963371277 0.7364341020584106 0.25581395626068115
0.16592831909656525 0.751937985420227 -0.28682172298431396
0.1696414053440094 0.751937985420227 -0.27131783962249756
0.1727287769317627 0.751937985420227 -0.25581395626068115
0.17613528668880463 0.751937985420227 -0.24031007289886475
0.17502988874912262 0.751937985420227 0.22480618953704834
0.16807019710540771 0.751937985420227 0.24031007289886475
0.1654406487941742 0.7674418687820435 -0.28682172298431396
0.16881564259529114 0.7674418687820435 -0.27131783962249756
0.17111548781394958 0.7674418687820435 -0.25581395626068115
0.17367663979530334 0.7674418687820435 -0.24031007289886475
0.17668995261192322 0.7674418687820435 -0.22480618953704834
0.17541365325450897 0.7674418687820435 0.20930230617523193
0.169650137424469 0.7674418687820435 0.22480618953704834
0.16378366947174072 0.7829458117485046 -0.28682172298431396
0.16654172539710999 0.7829457521438599 -0.27131783962249756
0.16903193295001984 0.7829457521438599 -0.25581395626068115
0.17101185023784637 0.7829457521438599 -0.24031007289886475
0.17248903214931488 0.7829457521438599 -0.22480618953704834
0.17346568405628204 0.7829457521438599 -0.20930230617523193
0.1741967350244522 0.7829457521438599 -0.19379842281341553
0.17491663992404938 0.7829457521438599 -0.1782945990562439
0.1760106086730957 0.7829457521438599 -0.1627907156944275
0.17754921317100525 0.7829457521438599 -0.14728683233261108
0.17381155490875244 0.7829457521438599 0.19379842281341553
0.16660696268081665 0.7829457521438599 0.20930230617523193
0.16342827677726746 0.7984496355056763 -0.25581395626068115
0.16412237286567688 0.7984496355056763 -0.24031007289886475
0.16467005014419556 0.7984496355056763 -0.22480618953704834
0.16476726531982422 0.7984496355056763 -0.20930229127407074
0.16469521820545197 0.7984496355056763 -0.19379842281341553
0.16486752033233643 0.7984496355056763 -0.1782945990562439
0.1654883325099945 0.7984496355056763 -0.1627907156944275
0.16663667559623718 0.7984496355056763 -0.14728683233261108
0.16859067976474762 0.7984496355056763 -0.13178294897079468
0.17075134813785553 0.7984496355056763 -0.11627906560897827
0.1731823831796646 0.7984496355056763 -0.10077518224716187
0.17582236230373383 0.7984496355056763 -0.08527129888534546
0.17564836144447327 0.7984496355056763 0.1472867727279663
0.1726607382297516 0.7984496355056763 0.16279065608978271
0.16756044328212738 0.7984496355056763 0.17829453945159912
0.16501212120056152 0.8139535188674927 -0.06976741552352905
0.16818884015083313 0.8139535188674927 -0.05426359176635742
0.1716119647026062 0.8139535188674927 -0.038759708404541016
0.17530369758605957 0.8139535188674927 -0.02325582504272461
0.1769695281982422 0.8139535188674927 0.06976747512817383
0.1743898242712021 0.8139535188674927 0.08527135848999023
0.17182224988937378 0.8139535188674927 0.10077524185180664
0.16918738186359406 0.8139535188674927 0.11627912521362305
0.1650785654783249 0.8139535188674927 0.1317828893661499
0.178422749042511 -0.27131783962249756 0.05426359176635742
0.1791503131389618 -0.27131783962249756 0.06976747512817383
0.1800026148557663 -0.27131783962249756 0.08527135848999023
0.1806357204914093 -0.27131783962249756 0.10077524185180664
0.18142032623291016 -0.27131783962249756 0.11627912521362305
0.1816183477640152 -0.27131783962249756 0.1317828893661499
0.1816963404417038 -0.27131783962249756 0.1472867727279663
0.18166041374206543 -0.27131783962249756 0.16279065608978271
0.18108732998371124 -0.27131783962249756 0.17829453945159912
0.1803290992975235 -0.27131783962249756 0.19379842281341553
0.17956361174583435 -0.27131783962249756 0.20930232107639313
0.17874525487422943 -0.27131783962249756 0.22480618953704834
0.17983710765838623 -0.25581395626068115 -0.007751941680908203
0.18179383873939514 -0.25581395626068115 0.007751941680908203
0.1836109757423401 -0.25581395626068115 0.02325582504272461
0.18496191501617432 -0.25581395626068115 0.038759708404541016
0.18602678179740906 -0.25581395626068115 0.05426359176635742
0.18672986328601837 -0.25581395626068115 0.06976747512817383
0.18737569451332092 -0.25581395626068115 0.08527135848999023
0.1878473460674286 -0.25581395626068115 0.10077524185180664
0.18842577934265137 -0.25581395626068115 0.11627912521362305
0.18858885765075684 -0.25581395626068115 0.1317828893661499
0.18865692615509033 -0.25581395626068115 0.1472867727279663
0.18860460817813873 -0.25581395626068115 0.16279065608978271
0.18798816204071045 -0.25581395626068115 0.17829453945159912
0.18699702620506287 -0.25581395626068115 0.19379842281341553
0.18583717942237854 -0.25581395626068115 0.20930230617523193
0.18443045020103455 -0.25581395626068115 0.22480618953704834
0.18267935514450073 -0.25581395626068115 0.24031007289886475
0.18074791133403778 -0.25581395626068115 0.25581395626068115
0.17876289784908295 -0.25581395626068115 0.27131783962249756
0.17931249737739563 -0.24031007289886475 -0.05426359176635742
0.18274149298667908 -0.24031007289886475 -0.038759708404541016
0.18571527302265167 -0.24031007289886475 -0.02325582504272461
0.187343031167984 -0.24031007289886475 -0.007751941680908203
0.1885845810174942 -0.24031007289886475 0.007751941680908203
0.18954072892665863 -0.24031007289886475 0.02325582504272461
0.19026610255241394 -0.24031007289886475 0.038759708404541016
0.19110074639320374 -0.24031007289886475 0.05426359176635742
0.19184669852256775 -0.24031007289886475 0.06976747512817383
0.19255807995796204 -0.24031007289886475 0.08527135848999023
0.19318854808807373 -0.24031007289886475 0.10077524185180664
0.19361847639083862 -0.24031007289886475 0.17829453945159912
0.1923515349626541 -0.24031007289886475 0.19379842281341553
0.19105571508407593 -0.24031007289886475 0.20930230617523193
0.1895589828491211 -0.24031007289886475 0.22480618953704834
0.18771256506443024 -0.24031007289886475 0.24031007289886475
0.1853281855583191 -0.24031007289886475 0.25581395626068115
0.18275409936904907 -0.24031007289886475 0.27131783962249756
0.18009501695632935 -0.24031007289886475 0.28682175278663635
0.1817299723625183 -0.22480618953704834 -0.06976741552352905
0.18572084605693817 -0.22480618953704834 -0.05426359176635742
0.18814635276794434 -0.22480618953704834 -0.038759708404541016
0.19008681178092957 -0.22480618953704834 -0.02325582504272461
0.19166365265846252 -0.22480618953704834 -0.007751941680908203
0.193037211894989 -0.22480618953704834 0.007751941680908203
0.19149082899093628 -0.22480618953704834 0.24031007289886475
0.189289391040802 -0.22480618953704834 0.25581395626068115
0.1867050975561142 -0.22480618953704834 0.27131783962249756
0.1836645007133484 -0.22480618953704834 0.28682172298431396
0.180447518825531 -0.22480618953704834 0.30232560634613037
0.18196168541908264 -0.20930232107639313 -0.08527129888534546
0.18561197817325592 -0.20930230617523193 -0.06976741552352905
0.1885090470314026 -0.20930230617523193 -0.05426359176635742
0.19119219481945038 -0.20930230617523193 -0.038759708404541016
0.1921498328447342 -0.20930230617523193 0.25581395626068115
0.18947690725326538 -0.20930230617523193 0.27131783962249756
0.18674570322036743 -0.20930230617523193 0.28682172298431396
0.18323291838169098 -0.20930230617523193 0.30232560634613037
0.17974203824996948 -0.20930230617523193 0.3178294897079468
0.18014034628868103 -0.19379840791225433 -0.10077518224716187
0.18460340797901154 -0.19379842281341553 -0.08527129888534546
0.18744198977947235 -0.19379842281341553 -0.06976741552352905
0.19065308570861816 -0.19379842281341553 -0.05426359176635742
0.19129694998264313 -0.19379842281341553 0.27131783962249756
0.18888697028160095 -0.19379842281341553 0.28682172298431396
0.1854533851146698 -0.19379842281341553 0.30232560634613037
0.18179631233215332 -0.19379842281341553 0.3178294897079468
0.18177838623523712 -0.1782945990562439 -0.10077518224716187
0.18580225110054016 -0.1782945990562439 -0.08527129888534546
0.18891353905200958 -0.1782945990562439 -0.06976741552352905
0.19256743788719177 -0.1782945990562439 -0.05426359176635742
0.1924317181110382 -0.1782945990562439 0.27131783962249756
0.19019977748394012 -0.1782945990562439 0.28682172298431396
0.18739953637123108 -0.1782945990562439 0.30232560634613037
0.18362845480442047 -0.1782945990562439 0.3178294897079468
0.1793629378080368 -0.1782945990562439 0.3333333730697632
0.18290412425994873 -0.1627907156944275 -0.10077518224716187
0.18671905994415283 -0.1627907156944275 -0.08527129888534546
0.18999840319156647 -0.1627907156944275 -0.06976741552352905
0.19337667524814606 -0.1627907156944275 0.27131783962249756
0.19129854440689087 -0.1627907156944275 0.28682172298431396
0.1890033781528473 -0.1627907156944275 0.30232560634613037
0.18532052636146545 -0.1627907156944275 0.3178294897079468
0.1809115707874298 -0.1627907156944275 0.3333333432674408
0.17836777865886688 -0.14728683233261108 -0.11627906560897827
0.18367856740951538 -0.14728683233261108 -0.10077518224716187
0.18758603930473328 -0.14728683233261108 -0.08527129888534546
0.19104830920696259 -0.14728683233261108 -0.06976741552352905
0.19255146384239197 -0.14728683233261108 0.28682172298431396
0.19024500250816345 -0.14728683233261108 0.30232560634613037
0.18699431419372559 -0.14728683233261108 0.3178294897079468
0.1825171262025833 -0.14728683233261108 0.3333333730697632
0.1783953160047531 -0.13178294897079468 -0.11627906560897827
0.18414032459259033 -0.13178294897079468 -0.10077518224716187
0.18833577632904053 -0.13178294897079468 -0.08527129888534546
0.19199204444885254 -0.13178294897079468 -0.06976741552352905
0.19128024578094482 -0.13178294897079468 0.30232560634613037
0.18846330046653748 -0.13178294897079468 0.3178294897079468
0.18389447033405304 -0.13178294897079468 0.3333333730697632
0.17913560569286346 -0.13178294897079468 0.3488372564315796
0.17834153771400452 -0.11627906560897827 -0.11627906560897827
0.18455150723457336 -0.11627906560897827 -0.10077518224716187
0.18908296525478363 -0.11627906560897827 -0.08527129888534546
0.19304640591144562 -0.11627906560897827 -0.06976741552352905
0.1926708072423935 -0.11627906560897827 0.30232560634613037
0.18988487124443054 -0.11627906560897827 0.3178294897079468
0.1855345070362091 -0.11627906560897827 0.3333333730697632
0.180571511387825 -0.11627906560897827 0.3488372564315796
0.18476137518882751 -0.10077518224716187 -0.10077518224716187
0.1896914392709732 -0.10077518224716187 -0.08527129888534546
0.19119612872600555 -0.10077518224716187 0.3178294897079468
0.18722003698349 -0.10077518224716187 0.3333333730697632
0.18213459849357605 -0.10077518224716187 0.3488372564315796
0.18488809466362 -0.08527129888534546 -0.10077518224716187
0.19037877023220062 -0.08527129888534546 -0.08527129888534546
0.19276046752929688 -0.08527129888534546 0.3178294897079468
0.1889682412147522 -0.08527129888534546 0.3333333730697632
0.18375656008720398 -0.08527129888534546 0.3488372564315796
0.1786026954650879 -0.08527129143476486 0.364341139793396
0.1850142776966095 -0.06976741552352905 -0.10077518224716187
0.19117963314056396 -0.06976741552352905 -0.08527129888534546
0.19063745439052582 -0.06976741552352905 0.3333333730697632
0.18568193912506104 -0.06976741552352905 0.3488372564315796
0.18012098968029022 -0.06976741552352905 0.364341139793396
0.18521767854690552 -0.05426359176635742 -0.10077518224716187
0.1919952780008316 -0.05426359176635742 -0.08527129888534546
0.19243544340133667 -0.05426359176635742 0.3333333730697632
0.1878560334444046 -0.05426359176635742 0.3488372564315796
0.18206360936164856 -0.05426359176635742 0.364341139793396
0.18529236316680908 -0.038759708404541016 -0.10077518224716187
0.1925542652606964 -0.038759708404541016 -0.08527129888534546
0.18958896398544312 -0.038759708404541016 0.3488372564315796
0.18379494547843933 -0.038759708404541016 0.364341139793396
0.17866335809230804 -0.038759708404541016 0.37984490394592285
0.18532973527908325 -0.02325582504272461 -0.10077518224716187
0.19292868673801422 -0.02325582504272461 -0.08527129888534546
0.1909506767988205 -0.02325582504272461 0.3488372564315796
0.1854688823223114 -0.02325582504272461 0.364341139793396
0.17994314432144165 -0.02325582504272461 0.37984490394592285
0.1849289983510971 -0.007751941680908203 -0.10077518224716187
0.19299662113189697 -0.007751941680908203 -0.08527129888534546
0.1923673450946808 -0.007751941680908203 0.3488372564315796
0.18720681965351105 -0.007751941680908203 0.364341139793396
0.18146884441375732 -0.007751941680908203 0.37984490394592285
0.18394607305526733 0.007751941680908203 -0.10077518224716187
0.192916601896286 0.007751941680908203 -0.08527129888534546
0.1887417435646057 0.007751941680908203 0.364341139793396
0.18289481103420258 0.007751941680908203 0.37984490394592285
0.17833618819713593 0.007751941680908203 0.39534881711006165
0.18167895078659058 0.02325582504272461 -0.10077518224716187
0.19239796698093414 0.02325582504272461 -0.08527129888534546
0.18960416316986084 0.02325582504272461 0.364341139793396
0.18373583257198334 0.02325582504272461 0.37984490394592285
0.17891588807106018 0.02325582504272461 0.39534878730773926
0.17904701828956604 0.038759708404541016 -0.10077518224716187
0.19193723797798157 0.038759708404541016 -0.08527129888534546
0.1903013288974762 0.038759708404541016 0.364341139793396
0.18439216911792755 0.038759708404541016 0.37984490394592285
0.17936497926712036 0.038759708404541016 0.39534878730773926
0.19157689809799194 0.05426359176635742 -0.08527129888534546
0.1908237338066101 0.05426359176635742 0.364341139793396
0.18492257595062256 0.05426359176635742 0.37984490394592285
0.17977280914783478 0.05426359176635742 0.39534878730773926
0.19142594933509827 0.06976747512817383 -0.08527129888534546
0.19109925627708435 0.06976747512817383 0.364341139793396
0.18515321612358093 0.06976747512817383 0.37984490394592285
0.1799413561820984 0.06976747512817383 0.39534878730773926
0.19161705672740936 0.08527135848999023 -0.08527129888534546
0.19134370982646942 0.08527135848999023 0.364341139793396
0.1853218376636505 0.08527135848999023 0.37984490394592285
0.18001146614551544 0.08527135848999023 0.39534881711006165
0.17851783335208893 0.10077523440122604 -0.10077518224716187
0.19241029024124146 0.10077524185180664 -0.08527129888534546
0.1920698881149292 0.10077524185180664 0.364341139793396
0.1859399676322937 0.10077524185180664 0.37984490394592285
0.18039211630821228 0.10077524185180664 0.39534878730773926
0.1817125380039215 0.11627912521362305 -0.10077518224716187
0.19355152547359467 0.11627912521362305 -0.08527129888534546
0.1928626000881195 0.11627912521362305 0.364341139793396
0.18655633926391602 0.11627912521362305 0.37984490394592285
0.18077288568019867 0.11627912521362305 0.39534878730773926
0.18447864055633545 0.1317828893661499 -0.10077518224716187
0.1937354952096939 0.1317828893661499 0.364341139793396
0.18711701035499573 0.1317828893661499 0.37984490394592285
0.18108470737934113 0.1317828893661499 0.39534878730773926
0.1863994002342224 0.1472867727279663 -0.10077518224716187
0.18776413798332214 0.1472867727279663 0.37984490394592285
0.18142224848270416 0.1472867727279663 0.39534878730773926
0.18754073977470398 0.16279065608978271 -0.10077518224716187
0.18820807337760925 0.16279065608978271 0.37984490394592285
0.18157435953617096 0.16279065608978271 0.39534878730773926
0.18826067447662354 0.17829453945159912 -0.10077518224716187
0.18819688260555267 0.17829453945159912 0.37984490394592285
0.18120934069156647 0.17829453945159912 0.39534878730773926
0.1882975846529007 0.19379842281341553 -0.10077518224716187
0.18777455389499664 0.19379842281341553 0.37984490394592285
0.18046431243419647 0.19379842281341553 0.39534878730773926
0.18816694617271423 0.20930230617523193 -0.10077518224716187
0.1872977912425995 0.20930230617523193 0.37984490394592285
0.17959797382354736 0.20930230617523193 0.39534878730773926
0.18772001564502716 0.22480618953704834 -0.10077518224716187
0.18658773601055145 0.22480618953704834 0.37984490394592285
0.17851470410823822 0.22480618953704834 0.39534878730773926
0.18748492002487183 0.24031007289886475 -0.10077518224716187
0.1857375204563141 0.24031007289886475 0.37984490394592285
0.18731775879859924 0.25581395626068115 -0.10077518224716187
0.19219423830509186 0.25581395626068115 0.364341139793396
0.18452933430671692 0.25581395626068115 0.37984490394592285
0.18727236986160278 0.27131783962249756 -0.10077518224716187
0.19071447849273682 0.27131783962249756 0.364341139793396
0.18342743813991547 0.27131783962249756 0.37984490394592285
0.18714717030525208 0.28682172298431396 -0.10077518224716187
0.18933963775634766 0.28682172298431396 0.364341139793396
0.18229025602340698 0.28682172298431396 0.37984490394592285
0.17860525846481323 0.30232560634613037 -0.11627907305955887
0.18730393052101135 0.30232560634613037 -0.10077518224716187
0.1881910264492035 0.30232560634613037 0.364341139793396
0.18108078837394714 0.30232560634613037 0.37984490394592285
0.17907580733299255 0.3178294897079468 -0.11627906560897827
0.18750226497650146 0.3178294897079468 -0.10077518224716187
0.1874205470085144 0.3178294897079468 0.364341139793396
0.1800002008676529 0.3178294897079468 0.37984490394592285
0.17912043631076813 0.3333333730697632 -0.11627906560897827
0.18735265731811523 0.3333333730697632 -0.10077518224716187
0.18671637773513794 0.3333333730697632 0.364341139793396
0.17884746193885803 0.3333333730697632 0.37984487414360046
0.17895546555519104 0.3488372564315796 -0.11627906560897827
0.187017023563385 0.3488372564315796 -0.10077518224716187
0.1933598816394806 0.3488372564315796 0.3488372564315796
0.18586212396621704 0.3488372564315796 0.364341139793396
0.1784539818763733 0.364341139793396 -0.11627906560897827
0.18646277487277985 0.364341139793396 -0.10077518224716187
0.1914552003145218 0.364341139793396 0.3488372564315796
0.1845114529132843 0.364341139793396 0.364341139793396
0.18564985692501068 0.37984490394592285 -0.10077518224716187
0.19290289282798767 0.37984490394592285 -0.08527129888534546
0.1896696537733078 0.37984490394592285 0.3488372564315796
0.18281245231628418 0.37984490394592285 0.364341139793396
0.18487897515296936 0.39534878730773926 -0.10077518224716187
0.19137096405029297 0.39534878730773926 -0.08527129888534546
0.18857574462890625 0.39534878730773926 0.3488372564315796
0.18120966851711273 0.39534878730773926 0.3643411099910736
0.18434888124465942 0.41085267066955566 -0.10077518224716187
0.19016507267951965 0.41085267066955566 -0.08527129888534546
0.18773230910301208 0.41085267066955566 0.3488372564315796
0.17970627546310425 0.41085267066955566 0.3643411099910736
0.18412768840789795 0.42635655403137207 -0.10077518969774246
0.18945327401161194 0.42635655403137207 -0.08527129888534546
0.18669316172599792 0.42635655403137207 0.3488372564315796
0.17834098637104034 0.42635655403137207 0.3643411695957184
0.1843397468328476 0.4418604373931885 -0.10077518224716187
0.18926747143268585 0.4418604373931885 -0.08527129888534546
0.1921839565038681 0.4418604373931885 0.3333333730697632
0.1851973682641983 0.4418604373931885 0.3488372564315796
0.1845448911190033 0.4573643207550049 -0.10077518224716187
0.18915541470050812 0.4573643207550049 -0.08527129888534546
0.19033563137054443 0.4573643207550049 0.3333333730697632
0.18375647068023682 0.4573643207550049 0.3488372564315796
0.17834800481796265 0.4728682041168213 -0.11627906560897827
0.18486228585243225 0.4728682041168213 -0.10077518224716187
0.18919560313224792 0.4728682041168213 -0.08527129888534546
0.18900571763515472 0.4728682041168213 0.3333333730697632
0.1822332739830017 0.4728682041168213 0.3488372564315796
0.17896850407123566 0.4883720874786377 -0.11627907305955887
0.18503986299037933 0.4883720874786377 -0.10077518224716187
0.18917091190814972 0.4883720874786377 -0.08527129888534546
0.18801990151405334 0.4883720874786377 0.3333333730697632
0.18073958158493042 0.4883720874786377 0.3488372564315796
0.17945902049541473 0.5038759708404541 -0.11627906560897827
0.18511386215686798 0.5038759708404541 -0.10077518224716187
0.18903252482414246 0.5038759708404541 -0.08527129888534546
0.19364486634731293 0.5038759708404541 -0.06976741552352905
0.18699592351913452 0.5038759708404541 0.3333333730697632
0.1792658567428589 0.5038759708404541 0.3488372564315796
0.1798451691865921 0.5193798542022705 -0.11627906560897827
0.18519327044487 0.5193798542022705 -0.10077518224716187
0.18891474604606628 0.5193798542022705 -0.08527129888534546
0.1932488977909088 0.5193798542022705 -0.06976741552352905
0.19374620914459229 0.5193798542022705 0.3178294897079468
0.18577277660369873 0.5193798542022705 0.3333333730697632
0.18041366338729858 0.5348837375640869 -0.11627905815839767
0.18545153737068176 0.5348837375640869 -0.10077518224716187
0.1890130341053009 0.5348837375640869 -0.08527129888534546
0.19313065707683563 0.5348837375640869 -0.06976741552352905
0.19148384034633636 0.5348837375640869 0.3178294897079468
0.18434029817581177 0.5348837375640869 0.3333333730697632
0.18100157380104065 0.5503876209259033 -0.11627906560897827
0.185744047164917 0.5503876209259033 -0.10077518224716187
0.18917585909366608 0.5503876209259033 -0.08527129888534546
0.1930346041917801 0.5503876209259033 -0.06976741552352905
0.188933327794075 0.5503876209259033 0.3178294897079468
0.18189184367656708 0.5503876209259033 0.3333333730697632
0.1816355139017105 0.5658915042877197 -0.11627906560897827
0.18609613180160522 0.5658915042877197 -0.10077518224716187
0.18945583701133728 0.5658915042877197 -0.08527129888534546
0.193129301071167 0.5658915042877197 -0.06976741552352905
0.1868799924850464 0.5658915042877197 0.3178294897079468
0.17845720052719116 0.5658915042877197 0.3333333730697632
0.18228188157081604 0.5813953876495361 -0.11627906560897827
0.18657851219177246 0.5813953876495361 -0.10077518224716187
0.1899096518754959 0.5813953876495361 -0.08527129888534546
0.19352060556411743 0.5813953876495361 -0.06976741552352905
0.1908004730939865 0.5813953876495361 0.30232560634613037
0.18364107608795166 0.5813953876495361 0.3178294897079468
0.17863570153713226 0.5968993306159973 -0.13178294897079468
0.18291015923023224 0.5968992710113525 -0.11627906560897827
0.1870357096195221 0.5968992710113525 -0.10077518224716187
0.190347820520401 0.5968992710113525 -0.08527129888534546
0.1873941570520401 0.5968992710113525 0.30232560634613037
0.17912916839122772 0.5968992710113525 0.3178294897079468
0.1788146197795868 0.612403154373169 -0.14728683233261108
0.1802714318037033 0.612403154373169 -0.13178294897079468
0.18393468856811523 0.612403154373169 -0.11627906560897827
0.18778884410858154 0.612403154373169 -0.10077518224716187
0.19115707278251648 0.612403154373169 -0.08527129888534546
0.1904832124710083 0.612403154373169 0.28682172298431396
0.18297109007835388 0.612403154373169 0.30232560634613037
0.1797809600830078 0.6279069185256958 -0.1782945990562439
0.18158423900604248 0.6279069185256958 -0.1627907156944275
0.18220338225364685 0.6279069185256958 -0.14728683233261108
0.1828131228685379 0.6279069185256958 -0.13178294897079468
0.18546731770038605 0.6279069185256958 -0.11627906560897827
0.1890183389186859 0.6279069185256958 -0.10077518224716187
0.19249387085437775 0.6279069185256958 -0.08527129888534546
0.18593430519104004 0.6279069185256958 0.28682172298431396
0.1806083768606186 0.6434108018875122 -0.19379842281341553
0.18339593708515167 0.6434108018875122 -0.1782945990562439
0.18483877182006836 0.6434108018875122 -0.1627907156944275
0.18550875782966614 0.6434108018875122 -0.14728683233261108
0.18609143793582916 0.6434108018875122 -0.13178294897079468
0.1880382001399994 0.6434108018875122 -0.11627906560897827
0.19104817509651184 0.6434108018875122 -0.10077518224716187
0.18824222683906555 0.6434108018875122 0.27131783962249756
0.17985476553440094 0.6434108018875122 0.28682172298431396
0.18007983267307281 0.6589146852493286 -0.20930230617523193
0.18381990492343903 0.6589146852493286 -0.19379842281341553
0.185743510723114 0.6589146852493286 -0.1782945990562439
0.187016099691391 0.6589146852493286 -0.1627907156944275
0.18803225457668304 0.6589146852493286 -0.14728683233261108
0.1890719085931778 0.6589146852493286 -0.13178294897079468
0.19072836637496948 0.6589146852493286 -0.11627906560897827
0.19063028693199158 0.6589146852493286 0.25581395626068115
0.18284036219120026 0.6589146852493286 0.27131783962249756
0.18299654126167297 0.674418568611145 -0.20930232107639313
0.1856202781200409 0.674418568611145 -0.19379842281341553
0.18718887865543365 0.674418568611145 -0.1782945990562439
0.1884240210056305 0.674418568611145 -0.1627907156944275
0.18930163979530334 0.674418568611145 -0.14728683233261108
0.19048815965652466 0.674418568611145 -0.13178294897079468
0.1926003247499466 0.674418568611145 -0.11627906560897827
0.18596240878105164 0.674418568611145 0.25581395626068115
0.18079328536987305 0.6899224519729614 -0.22480618953704834
0.18465633690357208 0.6899224519729614 -0.20930230617523193
0.1865428388118744 0.6899224519729614 -0.19379842281341553
0.18799197673797607 0.6899224519729614 -0.1782945990562439
0.18913286924362183 0.6899224519729614 -0.1627907156944275
0.19014587998390198 0.6899224519729614 -0.14728683233261108
0.19161562621593475 0.6899224519729614 -0.13178294897079468
0.1883849799633026 0.6899224519729614 0.24031007289886475
0.18028977513313293 0.6899223923683167 0.25581395626068115
0.1821729838848114 0.7054263353347778 -0.22480618953704834
0.18511387705802917 0.7054263353347778 -0.20930230617523193
0.18669094145298004 0.7054263353347778 -0.19379842281341553
0.18806728720664978 0.7054263353347778 -0.1782945990562439
0.18942727148532867 0.7054263353347778 -0.1627907156944275
0.19066163897514343 0.7054263353347778 -0.14728683233261108
0.19254204630851746 0.7054263353347778 -0.13178294897079468
0.1905178278684616 0.7054263353347778 0.22480618953704834
0.1839352548122406 0.7054263353347778 0.24031007289886475
0.18217241764068604 0.7209302186965942 -0.22480618953704834
0.18488354980945587 0.7209302186965942 -0.20930230617523193
0.1862412989139557 0.7209302186965942 -0.19379842281341553
0.1876717209815979 0.7209302186965942 -0.1782945990562439
0.18907952308654785 0.7209302186965942 -0.1627907156944275
0.19041025638580322 0.7209302186965942 -0.14728683233261108
0.19255314767360687 0.7209302186965942 -0.13178294897079468
0.19305701553821564 0.7209302186965942 0.20930230617523193
0.18671254813671112 0.7209302186965942 0.22480618953704834
0.17836903035640717 0.7209302186965942 0.24031005799770355
0.18144890666007996 0.7364341616630554 -0.22480620443820953
0.18447624146938324 0.7364341020584106 -0.20930230617523193
0.18601226806640625 0.7364341020584106 -0.19379842281341553
0.18709596991539001 0.7364341020584106 -0.1782945990562439
0.18855677545070648 0.7364341020584106 -0.1627907156944275
0.18978232145309448 0.7364341020584106 -0.14728683233261108
0.1915648877620697 0.7364341020584106 -0.13178294897079468
0.1882164180278778 0.7364341020584106 0.20930230617523193
0.180802583694458 0.7364341020584106 0.22480618953704834
0.17981456220149994 0.751937985420227 -0.22480618953704834
0.18273647129535675 0.751937985420227 -0.20930230617523193
0.18509061634540558 0.751937985420227 -0.19379842281341553
0.1864117532968521 0.751937985420227 -0.1782945990562439
0.18730932474136353 0.751937985420227 -0.1627907156944275
0.1880474090576172 0.751937985420227 -0.14728683233261108
0.18967536091804504 0.751937985420227 -0.13178294897079468
0.19167141616344452 0.751937985420227 -0.11627906560897827
0.18882691860198975 0.751937985420227 0.19379842281341553
0.1823815256357193 0.751937985420227 0.20930230617523193
0.17884205281734467 0.7674419283866882 -0.20930230617523193
0.18031755089759827 0.7674418687820435 -0.19379840791225433
0.1819332093000412 0.7674418687820435 -0.1782945990562439
0.1837795376777649 0.7674418687820435 -0.1627907156944275
0.18529559671878815 0.7674418687820435 -0.14728683233261108
0.1868841052055359 0.7674418687820435 -0.13178294897079468
0.18799349665641785 0.7674418687820435 -0.11627906560897827
0.1897299438714981 0.7674418687820435 -0.10077518224716187
0.19308389723300934 0.7674418687820435 -0.08527129888534546
0.1915130764245987 0.7674418687820435 0.16279065608978271
0.18809586763381958 0.7674418687820435 0.17829453945159912
0.18175485730171204 0.7674418687820435 0.19379842281341553
0.179163858294487 0.7829457521438599 -0.13178294897079468
0.18101181089878082 0.7829457521438599 -0.11627905815839767
0.1837736964225769 0.7829457521438599 -0.10077518224716187
0.18670842051506042 0.7829457521438599 -0.08527129888534546
0.18888571858406067 0.7829457521438599 -0.06976741552352905
0.1920890361070633 0.7829457521438599 -0.05426359176635742
0.19070081412792206 0.7829457521438599 0.1317828893661499
0.18812155723571777 0.7829457521438599 0.1472867727279663
0.18423277139663696 0.7829457521438599 0.16279065608978271
0.1785997599363327 0.7829457521438599 0.17829453945159912
0.17927409708499908 0.7984496355056763 -0.06976741552352905
0.1818103790283203 0.798449695110321 -0.05426359549164772
0.1853809505701065 0.7984496355056763 -0.038759708404541016
0.18854805827140808 0.7984496355056763 -0.02325582504272461
0.1912367045879364 0.7984496355056763 -0.007751941680908203
0.19157786667346954 0.7984496355056763 0.06976747512817383
0.18941645324230194 0.7984496355056763 0.08527135848999023
0.18689292669296265 0.7984496355056763 0.10077524185180664
0.183786541223526 0.7984496355056763 0.11627912521362305
0.1799108386039734 0.7984496355056763 0.1317828893661499
0.17886725068092346 0.8139535784721375 -0.007751941680908203
0.18029440939426422 0.8139535188674927 0.007751941215246916
0.1812092661857605 0.8139535188674927 0.02325582504272461
0.18107923865318298 0.8139535188674927 0.03875970467925072
0.17955626547336578 0.8139535188674927 0.05426359176635742
0.19390352070331573 -0.24031005799770355 0.11627912521362305
0.19404566287994385 -0.24031007289886475 0.1317828893661499
0.19412150979042053 -0.24031007289886475 0.14728675782680511
0.194116473197937 -0.24031007289886475 0.16279065608978271
0.1941140741109848 -0.22480618953704834 0.02325582504272461
0.19478245079517365 -0.22480618953704834 0.038759708404541016
0.1956573873758316 -0.22480618953704834 0.05426359176635742
0.19651168584823608 -0.22480618953704834 0.06976747512817383
0.19730432331562042 -0.22480620443820953 0.08527135848999023
0.19793522357940674 -0.22480618953704834 0.10077524185180664
0.1985737830400467 -0.22480618953704834 0.11627912521362305
0.1987278312444687 -0.22480618953704834 0.1317828893661499
0.19875922799110413 -0.22480617463588715 0.1472867727279663
0.19866856932640076 -0.22480618953704834 0.16279065608978271
0.19800330698490143 -0.22480617463588715 0.17829453945159912
0.196853369474411 -0.22480618953704834 0.19379842281341553
0.19558075070381165 -0.22480618953704834 0.20930230617523193
0.1940942257642746 -0.22480618953704834 0.22480618953704834
0.19395869970321655 -0.20930230617523193 -0.02325582504272461
0.19517523050308228 -0.20930230617523193 -0.00775194214656949
0.19633294641971588 -0.20930230617523193 0.007751941680908203
0.19739149510860443 -0.20930230617523193 0.02325582504272461
0.19819682836532593 -0.20930230617523193 0.038759708404541016
0.1990145444869995 -0.20930230617523193 0.05426359176635742
0.19969433546066284 -0.20930230617523193 0.06976747512817383
0.20027565956115723 -0.20930230617523193 0.08527135848999023
0.20073825120925903 -0.20930230617523193 0.10077524185180664
0.20121429860591888 -0.20930230617523193 0.11627912521362305
0.20136107504367828 -0.20930230617523193 0.1317828893661499
0.2014005482196808 -0.20930230617523193 0.1472867727279663
0.2013295590877533 -0.20930230617523193 0.16279065608978271
0.20075419545173645 -0.20930230617523193 0.17829453945159912
0.19972148537635803 -0.20930230617523193 0.19379842281341553
0.19843459129333496 -0.20930230617523193 0.20930230617523193
0.1965930461883545 -0.20930230617523193 0.22480618953704834
0.19460280239582062 -0.20930230617523193 0.24031007289886475
0.1940796822309494 -0.19379842281341553 -0.038759708404541016
0.19597311317920685 -0.19379842281341553 -0.02325582504272461
0.1977146416902542 -0.19379840791225433 -0.007751941680908203
0.19887320697307587 -0.19379842281341553 0.007751941680908203
0.19965805113315582 -0.19379842281341553 0.02325582504272461
0.20019137859344482 -0.19379842281341553 0.038759708404541016
0.20077255368232727 -0.19379842281341553 0.05426359176635742
0.2013363242149353 -0.19379842281341553 0.06976747512817383
0.20188593864440918 -0.19379842281341553 0.08527135848999023
0.20236533880233765 -0.19379842281341553 0.10077524185180664
0.20284757018089294 -0.19379842281341553 0.11627912521362305
0.20295847952365875 -0.19379842281341553 0.1317828893661499
0.20294490456581116 -0.19379842281341553 0.1472867727279663
0.20281559228897095 -0.19379842281341553 0.16279065608978271
0.20218133926391602 -0.19379842281341553 0.17829453945159912
0.2010582983493805 -0.19379842281341553 0.19379842281341553
0.19981738924980164 -0.19379842281341553 0.20930230617523193
0.19807715713977814 -0.19379842281341553 0.22480618953704834
0.19594921171665192 -0.19379842281341553 0.24031007289886475
0.194094717502594 -0.19379843771457672 0.25581395626068115
0.19529391825199127 -0.1782945990562439 -0.038759708404541016
0.19774232804775238 -0.1782945990562439 -0.02325582504272461
0.199457585811615 -0.1782945990562439 -0.007751941680908203
0.20037095248699188 -0.1782945990562439 0.007751941680908203
0.20096802711486816 -0.1782945990562439 0.02325582504272461
0.20139509439468384 -0.1782945990562439 0.038759708404541016
0.2019084393978119 -0.1782945990562439 0.05426359176635742
0.2024562805891037 -0.1782945990562439 0.06976747512817383
0.20300371944904327 -0.1782945990562439 0.08527135848999023
0.2034367024898529 -0.1782945990562439 0.10077524185180664
0.20380836725234985 -0.1782945990562439 0.11627912521362305
0.20379430055618286 -0.1782945990562439 0.1317828893661499
0.2036474645137787 -0.1782945990562439 0.1472867727279663
0.20337645709514618 -0.1782945990562439 0.16279065608978271
0.20264622569084167 -0.1782945990562439 0.17829453945159912
0.20142120122909546 -0.1782945990562439 0.19379842281341553
0.2001352310180664 -0.1782945990562439 0.20930230617523193
0.198464035987854 -0.1782945990562439 0.22480618953704834
0.19646504521369934 -0.1782945990562439 0.24031007289886475
0.1946212500333786 -0.1782945990562439 0.25581395626068115
0.1938672810792923 -0.1627907156944275 -0.05426358804106712
0.19644036889076233 -0.1627907156944275 -0.038759708404541016
0.19907400012016296 -0.1627907156944275 -0.02325582504272461
0.20058482885360718 -0.1627907156944275 -0.007751941680908203
0.20138084888458252 -0.1627907156944275 0.007751941680908203
0.20192724466323853 -0.1627907156944275 0.02325582504272461
0.2023327797651291 -0.1627907156944275 0.038759708404541016
0.20282629132270813 -0.1627907156944275 0.05426359176635742
0.2033422440290451 -0.1627907156944275 0.06976747512817383
0.20383155345916748 -0.1627907156944275 0.08527135848999023
0.2041751593351364 -0.1627907156944275 0.10077524185180664
0.20444388687610626 -0.1627907156944275 0.11627912521362305
0.20433096587657928 -0.1627907156944275 0.1317828893661499
0.2040618360042572 -0.1627907156944275 0.1472867727279663
0.2036127746105194 -0.1627907156944275 0.16279065608978271
