-0.4232069253921509 -0.08527129888534546 0.5193798542022705
-0.41569867730140686 -0.08527129888534546 0.7209302186965942
-0.4173159897327423 -0.06976741552352905 0.007751941680908203
-0.4251004457473755 -0.06976742297410965 0.02325582504272461
-0.41445425152778625 -0.05426359176635742 -0.007751941680908203
-0.42454543709754944 -0.05426359176635742 0.007751941680908203
-0.4223426580429077 -0.038759708404541016 -0.007751941215246916
-0.41784951090812683 -0.02325582504272461 -0.02325582504272461
-0.42404747009277344 -0.02325582504272461 0.8294574618339539
-0.41979050636291504 -0.007751941680908203 -0.02325582504272461
-0.4215227961540222 -0.007751941680908203 0.8294574022293091
-0.4162287712097168 0.007751941680908203 -0.02325582504272461
-0.4261424243450165 0.007751941215246916 -0.007751941215246916
-0.4214189648628235 0.007751941680908203 0.8294574022293091
-0.419527530670166 0.02325582504272461 -0.007751941680908203
-0.4235032796859741 0.02325582318007946 0.8294574022293091
-0.4202526807785034 0.038759708404541016 0.007751941680908203
-0.4216434359550476 0.05426359176635742 0.02325582504272461
-0.41657859086990356 0.06976747512817383 0.02325582504272461
-0.4240252673625946 0.06976747512817383 0.038759708404541016
-0.41453564167022705 0.06976747512817383 0.8139535188674927
-0.4122922420501709 0.08527135848999023 0.02325582504272461
-0.4215051233768463 0.08527135848999023 0.038759708404541016
-0.415687620639801 0.08527135848999023 0.612403154373169
-0.4194478392601013 0.08527135848999023 0.6279069185256958
-0.42010658979415894 0.08527135848999023 0.6434108018875122
-0.42143362760543823 0.08527135848999023 0.6589146852493286
-0.4245411455631256 0.08527135848999023 0.674418568611145
-0.419683039188385 0.08527135848999023 0.7209302186965942
-0.4158475995063782 0.08527135848999023 0.8139535188674927
-0.41161543130874634 0.10077524185180664 0.02325582504272461
-0.42091771960258484 0.10077524185180664 0.038759708404541016
-0.4255858063697815 0.10077524185180664 0.05426359176635742
-0.4198930263519287 0.10077524185180664 0.4883720874786377
-0.4229399263858795 0.10077524185180664 0.7364341020584106
-0.4130285680294037 0.10077524185180664 0.8139535188674927
-0.4197583794593811 0.11627912521362305 0.038759708404541016
-0.42341795563697815 0.11627912521362305 0.05426359176635742
-0.42456841468811035 0.11627912521362305 0.8294574022293091
-0.41561269760131836 0.1317828893661499 0.038759708404541016
-0.42087438702583313 0.1317828893661499 0.05426359176635742
-0.4235678017139435 0.1317828893661499 0.06976747512817383
-0.4197312593460083 0.1317828893661499 0.8294574022293091
-0.4116096794605255 0.1472867727279663 0.05426359176635742
-0.41672536730766296 0.1472867727279663 0.06976747512817383
-0.4198242425918579 0.1472867727279663 0.08527135848999023
-0.4217571020126343 0.1472867727279663 0.10077524185180664
-0.4235462546348572 0.1472867727279663 0.11627912521362305
-0.4258768856525421 0.1472867727279663 0.1317828893661499
-0.4121510684490204 0.1472867727279663 0.3488372564315796
-0.414648175239563 0.1472867727279663 0.8294574022293091
-0.4114072024822235 0.16279065608978271 0.1317828893661499
-0.4145612120628357 0.16279065608978271 0.1472867727279663
-0.417664498090744 0.16279065608978271 0.16279065608978271
-0.4207218885421753 0.16279065608978271 0.17829453945159912
-0.42371273040771484 0.16279065608978271 0.19379842281341553
-0.41917186975479126 0.16279065608978271 0.28682172298431396
-0.42563602328300476 0.16279065608978271 0.8449612855911255
-0.3955058455467224 -0.1782945990562439 0.1472867727279663
-0.39646047353744507 -0.1782945990562439 0.16279065608978271
-0.3975338041782379 -0.1782945990562439 0.17829453945159912
-0.39694735407829285 -0.1782945990562439 0.19379842281341553
-0.39589038491249084 -0.1782945990562439 0.20930230617523193
-0.3956564962863922 -0.1627907156944275 0.05426359176635742
-0.3990737497806549 -0.1627907156944275 0.06976747512817383
-0.4012612998485565 -0.1627907156944275 0.08527135848999023
-0.40298938751220703 -0.1627907156944275 0.10077524185180664
-0.4046821594238281 -0.1627907156944275 0.11627912521362305
-0.4068143367767334 -0.1627907156944275 0.1317828893661499
-0.4092683792114258 -0.1627907156944275 0.1472867727279663
-0.4090847074985504 -0.1627907156944275 0.24031008780002594
-0.4032531976699829 -0.1627907156944275 0.25581395626068115
-0.3955341875553131 -0.1627907156944275 0.27131783962249756
-0.4085509777069092 -0.1627907156944275 0.8139535188674927
-0.3955804407596588 -0.14728683233261108 0.02325582504272461
-0.40116792917251587 -0.14728683233261108 0.038759708404541016
-0.403877317905426 -0.14728683233261108 0.05426359176635742
-0.4060635566711426 -0.14728683233261108 0.06976747512817383
-0.40814486145973206 -0.14728683233261108 0.08527135848999023
-0.39763975143432617 -0.14728683233261108 0.30232560634613037
-0.4108444154262543 -0.14728683233261108 0.7829457521438599
-0.4026174545288086 -0.14728683233261108 0.7984496355056763
-0.4050794243812561 -0.14728683233261108 0.8139535188674927
-0.39998510479927063 -0.13178294897079468 0.02325582504272461
-0.40511029958724976 -0.13178294897079468 0.038759708404541016
-0.40778082609176636 -0.13178294897079468 0.05426359176635742
-0.40624916553497314 -0.13178294897079468 0.3333333730697632
-0.39779430627822876 -0.13178294897079468 0.7829457521438599
-0.3965438902378082 -0.13178294897079468 0.7984496355056763
-0.40479886531829834 -0.13178294897079468 0.8139535188674927
-0.4040100574493408 -0.11627905815839767 0.02325582504272461
-0.40907570719718933 -0.11627906560897827 0.038759708404541016
-0.404413640499115 -0.11627906560897827 0.39534878730773926
-0.3976404666900635 -0.11627906560897827 0.7674418687820435
-0.3954523205757141 -0.11627906560897827 0.7984496355056763
-0.40540099143981934 -0.11627906560897827 0.8139535188674927
-0.4005672335624695 -0.10077518224716187 0.007751941680908203
-0.40850791335105896 -0.10077518224716187 0.02325582504272461
-0.39907827973365784 -0.10077518224716187 0.751937985420227
-0.396573930978775 -0.10077518224716187 0.7984496355056763
-0.4069719612598419 -0.10077518224716187 0.8139535784721375
-0.4069332480430603 -0.08527129888534546 0.007751941680908203
-0.39969193935394287 -0.08527129888534546 0.5038759708404541
-0.39764827489852905 -0.08527129888534546 0.7984496355056763
-0.40915000438690186 -0.08527129888534546 0.8139535188674927
-0.40440458059310913 -0.06976741552352905 -0.007751941680908203
-0.4019181430339813 -0.06976741552352905 0.612403154373169
-0.4053797125816345 -0.06976741552352905 0.6279069185256958
-0.40486979484558105 -0.06976741552352905 0.6434108018875122
-0.40291351079940796 -0.06976741552352905 0.6589146852493286
-0.40115249156951904 -0.06976741552352905 0.674418568611145
-0.39770856499671936 -0.06976741552352905 0.6899224519729614
-0.3968294858932495 -0.06976741552352905 0.7984496355056763
-0.4102787971496582 -0.06976741552352905 0.8139535188674927
-0.3999525010585785 -0.05426359176635742 -0.02325582504272461
-0.4094465970993042 -0.05426359176635742 0.8139535188674927
-0.40967828035354614 -0.038759708404541016 -0.02325582504272461
-0.4075234532356262 -0.038759708404541016 0.8139535188674927
-0.4022846817970276 -0.02325582504272461 -0.038759708404541016
-0.4054911434650421 -0.02325582504272461 0.8139535188674927
-0.40526697039604187 -0.007751941680908203 -0.038759708404541016
-0.4042164087295532 -0.007751941680908203 0.8139535188674927
-0.4012865424156189 0.007751941680908203 -0.038759708404541016
-0.4043586850166321 0.007751941680908203 0.8139535188674927
-0.40533357858657837 0.02325582504272461 -0.02325582504272461
-0.40602999925613403 0.02325582504272461 0.8139535188674927
-0.4067634344100952 0.038759708404541016 -0.007751941680908203
-0.4080890119075775 0.038759708404541016 0.8139535188674927
-0.39710772037506104 0.05426359176635742 -0.007751941680908203
-0.4100843667984009 0.05426359176635742 0.007751941680908203
-0.3960556089878082 0.05426359176635742 0.7984496355056763
-0.4103983938694 0.05426359549164772 0.8139535188674927
-0.40434467792510986 0.06976747512817383 0.007751941680908203
-0.3993573784828186 0.06976747512817383 0.612403154373169
-0.401965856552124 0.06976747512817383 0.6279069185256958
-0.40139126777648926 0.06976747512817383 0.6434108018875122
-0.40053075551986694 0.06976747512817383 0.6589146852493286
-0.4010351598262787 0.06976747512817383 0.674418568611145
-0.4012855887413025 0.06976747512817383 0.6899224519729614
-0.399131178855896 0.06976747512817383 0.7054263353347778
-0.40051665902137756 0.06976747512817383 0.7984496355056763
-0.4018065333366394 0.08527135848999023 0.007751941680908203
-0.4015803337097168 0.08527135848999023 0.5193798542022705
-0.40352874994277954 0.08527135848999023 0.5348837375640869
-0.4027237892150879 0.08527135848999023 0.5503876209259033
-0.4027821123600006 0.08527135848999023 0.5658915042877197
-0.4058581590652466 0.08527135848999023 0.5813953876495361
-0.4096716642379761 0.08527135848999023 0.5968992710113525
-0.4051428735256195 0.08527135848999023 0.7364341020584106
-0.40240007638931274 0.08527135848999023 0.7984496355056763
-0.402083158493042 0.10077524185180664 0.007751941680908203
-0.40110087394714355 0.10077524185180664 0.4728682041168213
-0.4020540714263916 0.10077524185180664 0.751937985420227
-0.4023892879486084 0.10077524185180664 0.7984496355056763
-0.40243297815322876 0.11627912521362305 0.007751941680908203
-0.4105278253555298 0.11627912521362305 0.02325582504272461
-0.4108090400695801 0.11627912521362305 0.4418604373931885
-0.407677561044693 0.11627912521362305 0.751937985420227
-0.3961946368217468 0.11627912521362305 0.7674418687820435
-0.40147846937179565 0.11627912521362305 0.7984496355056763
-0.40925711393356323 0.11627912521362305 0.8139535188674927
-0.4000323712825775 0.1317828893661499 0.007751941680908203
-0.4077054560184479 0.1317828893661499 0.02325582504272461
-0.4018278121948242 0.1317828893661499 0.7674418687820435
-0.39964455366134644 0.1317828893661499 0.7984496355056763
-0.40676072239875793 0.1317828893661499 0.8139535188674927
-0.4019545912742615 0.1472867727279663 0.02325582504272461
-0.4074324369430542 0.1472867727279663 0.038759708404541016
-0.4017639458179474 0.1472867727279663 0.7829457521438599
-0.4001869559288025 0.1472867727279663 0.7984496355056763
-0.40536272525787354 0.1472867727279663 0.8139535188674927
-0.39843517541885376 0.16279065608978271 0.05426359176635742
-0.40298980474472046 0.16279065608978271 0.06976747512817383
-0.4056764245033264 0.16279065608978271 0.08527135848999023
-0.4079771935939789 0.16279064118862152 0.10077524185180664
-0.4095379412174225 0.16279065608978271 0.11627912521362305
-0.4066457748413086 0.16279065608978271 0.30232560634613037
-0.40646618604660034 0.16279065608978271 0.7984496355056763
-0.40605637431144714 0.16279065608978271 0.8139534592628479
-0.41071227192878723 0.16279065608978271 0.8294574022293091
-0.3970600366592407 0.17829453945159912 0.16279065608978271
-0.3999508321285248 0.17829453945159912 0.17829453945159912
-0.4025185704231262 0.17829453945159912 0.19379842281341553
-0.40521615743637085 0.17829453945159912 0.20930230617523193
-0.40622368454933167 0.17829453945159912 0.22480618953704834
-0.40453511476516724 0.17829453945159912 0.24031007289886475
-0.3992449641227722 0.17829453945159912 0.25581395626068115
-0.3800104856491089 -0.19379842281341553 0.17829453945159912
-0.3801078796386719 -0.1782945990562439 0.038759708404541016
-0.3840520977973938 -0.1782945990562439 0.05426359176635742
-0.387406587600708 -0.1782945990562439 0.06976747512817383
-0.38927990198135376 -0.1782945990562439 0.08527135848999023
-0.3906984329223633 -0.1782945990562439 0.10077523440122604
-0.39217913150787354 -0.1782945990562439 0.11627912521362305
-0.3939162492752075 -0.1782945990562439 0.1317828893661499
-0.3934429883956909 -0.1782945990562439 0.22480618953704834
-0.3886990547180176 -0.1782945990562439 0.24031007289886475
-0.3827865719795227 -0.1782945990562439 0.25581395626068115
-0.3840528726577759 -0.1627907156944275 0.007751941680908203
-0.3895229995250702 -0.1627907156944275 0.02325582504272461
-0.3932269215583801 -0.1627907156944275 0.038759708404541016
-0.38214269280433655 -0.1627907156944275 0.28682172298431396
-0.3835791051387787 -0.14728683233261108 -0.007751941680908203
-0.39040523767471313 -0.14728683233261108 0.007751941680908203
-0.382211834192276 -0.14728683233261108 0.3178294897079468
-0.38628268241882324 -0.13178294897079468 -0.007751941680908203
-0.39267873764038086 -0.13178294897079468 0.007751941680908203
-0.3916189670562744 -0.13178294897079468 0.3488372564315796
-0.3881004750728607 -0.11627906560897827 -0.007751941680908203
-0.3951817452907562 -0.11627906560897827 0.007751941680908203
-0.3925338387489319 -0.11627905815839767 0.7829457521438599
-0.3902767300605774 -0.10077518224716187 -0.007751941215246916
-0.39019775390625 -0.10077518224716187 0.4573643207550049
-0.39070242643356323 -0.10077518224716187 0.7674418687820435
-0.39058151841163635 -0.10077518224716187 0.7829458117485046
-0.3839679956436157 -0.08527129888534546 -0.02325582504272461
-0.39524614810943604 -0.08527129888534546 -0.007751941680908203
-0.38020527362823486 -0.08527129888534546 0.4883720874786377
-0.39527949690818787 -0.08527129888534546 0.7364341020584106
-0.3871406316757202 -0.08527129888534546 0.751937985420227
-0.3850361704826355 -0.08527129888534546 0.7674418687820435
-0.3889583349227905 -0.08527129888534546 0.7829457521438599
-0.3901486098766327 -0.06976741552352905 -0.02325582504272461
-0.3808998167514801 -0.06976741552352905 0.5348837375640869
-0.3847505450248718 -0.06976741552352905 0.5503876209259033
-0.3874054551124573 -0.06976741552352905 0.5658915042877197
-0.39150822162628174 -0.06976741552352905 0.5813953876495361
-0.3951464891433716 -0.06976741552352905 0.5968992710113525
-0.39175862073898315 -0.06976741552352905 0.7054263353347778
-0.3819364011287689 -0.06976741552352905 0.7209302186965942
-0.386491060256958 -0.06976741552352905 0.7829457521438599
-0.3844448924064636 -0.05426359176635742 -0.038759708404541016
-0.3830142915248871 -0.05426359176635742 0.5968992710113525
-0.3871113657951355 -0.05426359176635742 0.612403154373169
-0.3876839280128479 -0.05426359176635742 0.6279069185256958
-0.3840746283531189 -0.05426359176635742 0.6434108018875122
-0.38219282031059265 -0.05426359176635742 0.7829457521438599
-0.3939628005027771 -0.05426359176635742 0.7984496355056763
-0.3932516276836395 -0.038759708404541016 -0.038759708404541016
-0.3913058042526245 -0.038759708404541016 0.7984496355056763
-0.3852775990962982 -0.02325582504272461 -0.05426359176635742
-0.389113187789917 -0.02325582504272461 0.7984496355056763
-0.3887075185775757 -0.007751941680908203 -0.05426359176635742
-0.3878057599067688 -0.007751941680908203 0.7984496355056763
-0.3855384588241577 0.007751941680908203 -0.05426359176635742
-0.3880467116832733 0.007751941680908203 0.7984496355056763
-0.39042729139328003 0.02325582504272461 -0.038759708404541016
-0.3899348974227905 0.02325582504272461 0.7984496355056763
-0.3922422230243683 0.038759708404541016 -0.02325582504272461
-0.3925608694553375 0.038759708404541016 0.7984496355056763
-0.3848657011985779 0.05426359176635742 -0.02325582504272461
-0.38002848625183105 0.05426359176635742 0.5813953876495361
-0.38604891300201416 0.05426359176635742 0.5968992710113525
-0.38936901092529297 0.05426359176635742 0.612403154373169
-0.3902356028556824 0.05426359176635742 0.6279069185256958
-0.38871508836746216 0.05426359176635742 0.6434108018875122
-0.3865824043750763 0.05426359176635742 0.6589146852493286
-0.384994238615036 0.05426359176635742 0.674418568611145
-0.38299036026000977 0.05426359176635742 0.6899224519729614
-0.38517650961875916 0.05426359176635742 0.7829457521438599
-0.3914532959461212 0.06976747512817383 -0.007751941215246916
-0.3824094533920288 0.06976747512817383 0.5503876209259033
-0.3863738179206848 0.06976747512817383 0.5658915042877197
-0.39078062772750854 0.06976747512817383 0.5813953876495361
-0.39461907744407654 0.06976747512817383 0.5968992710113525
-0.3935418426990509 0.06976747512817383 0.7209302186965942
-0.38778090476989746 0.06976747512817383 0.7364341020584106
-0.3832867741584778 0.06976747512817383 0.751937985420227
-0.3836134672164917 0.06976747512817383 0.7674418687820435
-0.38928884267807007 0.06976747512817383 0.7829457521438599
-0.3900179862976074 0.08527135848999023 -0.007751941680908203
-0.39305993914604187 0.08527135848999023 0.5038759708404541
-0.39289867877960205 0.08527135848999023 0.751937985420227
-0.3895127773284912 0.08527135848999023 0.7674418687820435
-0.3921235203742981 0.08527136594057083 0.7829457521438599
-0.38045528531074524 0.10077524185180664 -0.02325582504272461
-0.3907093405723572 0.10077524185180664 -0.00775194214656949
-0.3931852877140045 0.10077524185180664 0.7674418091773987
-0.3936210572719574 0.10077523440122604 0.7829457521438599
-0.38332119584083557 0.11627912521362305 -0.02325582504272461
-0.39157912135124207 0.11627912521362305 -0.007751941680908203
-0.38041412830352783 0.11627912521362305 0.42635655403137207
-0.39444398880004883 0.11627913266420364 0.7829457521438599
-0.383009135723114 0.1317828893661499 -0.02325582504272461
-0.3908413350582123 0.1317828893661499 -0.007751941680908203
-0.3952520787715912 0.1317828893661499 0.7829456925392151
-0.3858972191810608 0.1472867727279663 -0.007751941680908203
-0.39272573590278625 0.1472867727279663 0.007751941680908203
-0.3816569447517395 0.1472867727279663 0.364341139793396
-0.3800700604915619 0.16279065608978271 0.007751941680908203
-0.3879361152648926 0.16279065608978271 0.02325582504272461
-0.39362022280693054 0.16279065608978271 0.038759708404541016
-0.39328041672706604 0.16279065608978271 0.3178294897079468
-0.3810100257396698 0.17829453945159912 0.05426359176635742
-0.38579052686691284 0.17829453945159912 0.06976747512817383
-0.38868212699890137 0.17829453945159912 0.08527135848999023
-0.3908865749835968 0.17829453945159912 0.10077524185180664
-0.3922213912010193 0.17829453945159912 0.11627912521362305
-0.39343443512916565 0.17829455435276031 0.1317828893661499
-0.3947831094264984 0.17829453945159912 0.1472867727279663
-0.3911149203777313 0.17829453945159912 0.27131783962249756
-0.3798724412918091 0.19379842281341553 0.19379842281341553
-0.3807966411113739 0.19379842281341553 0.20930230617523193
-0.36538222432136536 -0.19379842281341553 0.05426359176635742
-0.3697878122329712 -0.19379842281341553 0.06976747512817383
-0.3727707862854004 -0.19379842281341553 0.08527135848999023
-0.3748200535774231 -0.19379842281341553 0.10077524185180664
-0.376605749130249 -0.19379842281341553 0.11627913266420364
-0.3781769871711731 -0.19379840791225433 0.1317828893661499
-0.3793163001537323 -0.19379843771457672 0.1472867876291275
-0.3796553611755371 -0.19379842281341553 0.16279065608978271
-0.37890753149986267 -0.19379840791225433 0.19379840791225433
-0.37679722905158997 -0.19379842281341553 0.20930230617523193
-0.37212711572647095 -0.19379842281341553 0.22480618953704834
-0.3665832281112671 -0.19379842281341553 0.24031007289886475
-0.3703800439834595 -0.1782945990562439 0.007751941680908203
-0.37613117694854736 -0.1782945841550827 0.02325582504272461
-0.3708112835884094 -0.1782945990562439 0.27131783962249756
-0.36736276745796204 -0.1627907156944275 -0.02325582504272461
-0.37641698122024536 -0.1627907156944275 -0.007751941680908203
-0.3663647472858429 -0.1627907156944275 0.30232560634613037
-0.36544162034988403 -0.14728683233261108 -0.038759708404541016
-0.37390172481536865 -0.14728683233261108 -0.02325582504272461
-0.3673017919063568 -0.14728683233261108 0.3333333730697632
-0.36809197068214417 -0.13178294897079468 -0.038759708404541016
-0.37618911266326904 -0.13178294897079468 -0.02325582504272461
-0.37589576840400696 -0.13178294897079468 0.364341139793396
-0.36872291564941406 -0.11627906560897827 -0.038759708404541016
-0.37738585472106934 -0.11627906560897827 -0.02325582504272461
-0.36856257915496826 -0.10077518224716187 -0.038759708404541016
-0.37886399030685425 -0.10077518224716187 -0.02325582504272461
-0.3708779513835907 -0.08527129888534546 -0.038759708404541016
-0.37552374601364136 -0.06976741552352905 -0.038759708404541016
-0.3737177848815918 -0.06976741552352905 0.5193798542022705
-0.3741019368171692 -0.06976741552352905 0.7364341020584106
-0.3735666275024414 -0.06976741552352905 0.751937985420227
-0.37703678011894226 -0.06976741552352905 0.7674418687820435
-0.36753541231155396 -0.05426359176635742 -0.05426359176635742
-0.36746832728385925 -0.05426359176635742 0.5503876209259033
-0.37354153394699097 -0.05426359176635742 0.5658915042877197
-0.37807121872901917 -0.05426359176635742 0.5813953876495361
-0.3792034983634949 -0.05426359549164772 0.6589146852493286
-0.3752819895744324 -0.05426359176635742 0.674418568611145
-0.3696475327014923 -0.05426359176635742 0.6899224519729614
-0.37015748023986816 -0.05426359176635742 0.7674418687820435
-0.3758995532989502 -0.038759708404541016 -0.05426359176635742
-0.36870256066322327 -0.038759708404541016 0.5813953876495361
-0.37379127740859985 -0.038759708404541016 0.5968992710113525
-0.37564900517463684 -0.038759708404541016 0.612403154373169
-0.3746078908443451 -0.038759708404541016 0.6279069185256958
-0.3686848282814026 -0.038759708404541016 0.6434108018875122
-0.377143919467926 -0.038759708404541016 0.7829458117485046
-0.36936599016189575 -0.02325582504272461 -0.06976741552352905
-0.373913437128067 -0.02325582504272461 0.7829457521438599
-0.37327051162719727 -0.007751941680908203 -0.06976741552352905
-0.37226927280426025 -0.007751941680908203 0.7829457521438599
-0.3706728219985962 0.007751941680908203 -0.06976741552352905
-0.3727762997150421 0.007751941680908203 0.7829457521438599
-0.3756040334701538 0.02325582504272461 -0.05426359176635742
-0.36806756258010864 0.02325582504272461 0.5968992710113525
-0.36999017000198364 0.02325582504272461 0.612403154373169
-0.3685668110847473 0.02325582504272461 0.6279069185256958
-0.3753640055656433 0.02325582504272461 0.7829457521438599
-0.3650261163711548 0.038759708404541016 -0.05426359176635742
-0.3786281943321228 0.038759708404541016 -0.038759708404541016
-0.36698228120803833 0.038759708404541016 0.5658915042877197
-0.37326908111572266 0.038759708404541016 0.5813953876495361
-0.37705057859420776 0.038759708404541016 0.5968992710113525
-0.3788072168827057 0.038759708404541016 0.6124032139778137
-0.3787207007408142 0.038759708404541016 0.6279069185256958
-0.37648680806159973 0.038759708404541016 0.6434108018875122
-0.3734305500984192 0.038759708404541016 0.6589146852493286
-0.3704673647880554 0.038759708404541016 0.674418568611145
-0.3672724962234497 0.038759708404541016 0.6899224519729614
-0.3692209720611572 0.038759708404541016 0.7674418687820435
-0.37982481718063354 0.038759708404541016 0.7829458117485046
-0.3714134395122528 0.05426359176635742 -0.038759708404541016
-0.3706936240196228 0.05426359176635742 0.5503876209259033
-0.37626516819000244 0.05426359176635742 0.5658915042877197
-0.37929171323776245 0.05426359176635742 0.7054263353347778
-0.3753473460674286 0.05426359176635742 0.7209302186965942
-0.37166550755500793 0.05426359176635742 0.7364341020584106
-0.37216800451278687 0.05426359176635742 0.751937985420227
-0.37554508447647095 0.05426359176635742 0.7674418687820435
-0.3674378991127014 0.06976747512817383 -0.038759708404541016
-0.37916216254234314 0.06976747512817383 -0.02325582504272461
-0.3659839332103729 0.06976747512817383 0.5038759708404541
-0.37444108724594116 0.06976747512817383 0.5193798542022705
-0.37889334559440613 0.06976747512817383 0.5348837375640869
-0.36732879281044006 0.08527135848999023 -0.038759708404541016
-0.37820112705230713 0.08527135103940964 -0.02325582504272461
-0.3782574236392975 0.08527135848999023 0.4883720874786377
-0.37123727798461914 0.10077524185180664 -0.038759708404541016
-0.3795866072177887 0.10077524185180664 0.4573643207550049
-0.36611515283584595 0.11627912521362305 -0.05426359176635742
-0.3745919167995453 0.11627912521362305 -0.038759708404541016
-0.3683148920536041 0.1317828893661499 -0.05426359176635742
-0.3749668002128601 0.1317828893661499 -0.038759708404541016
-0.3646338880062103 0.1472867727279663 -0.05426359176635742
-0.3710949718952179 0.1472867727279663 -0.038759708404541016
-0.3772836923599243 0.1472867727279663 -0.02325582504272461
-0.3662070035934448 0.16279065608978271 -0.02325582504272461
-0.37337803840637207 0.16279065608978271 -0.007751941680908203
-0.3743552267551422 0.16279065608978271 0.3333333730697632
-0.37081462144851685 0.17829453945159912 0.02325582504272461
-0.3768917918205261 0.17829453945159912 0.038759708404541016
-0.37822920083999634 0.17829453945159912 0.28682172298431396
-0.36575204133987427 0.19379842281341553 0.06976747512817383
-0.3689839839935303 0.19379842281341553 0.08527135848999023
-0.371432900428772 0.19379842281341553 0.10077524185180664
-0.3730006814002991 0.19379842281341553 0.11627912521362305
-0.3744412660598755 0.19379842281341553 0.1317828893661499
-0.3759954869747162 0.19379842281341553 0.1472867727279663
-0.3775184750556946 0.19379842281341553 0.1627906709909439
-0.37888237833976746 0.19379843771457672 0.17829455435276031
-0.37972134351730347 0.19379842281341553 0.22480618953704834
-0.3753759562969208 0.19379842281341553 0.24031007289886475
-0.36509087681770325 0.19379842281341553 0.25581395626068115
-0.34991487860679626 -0.20930230617523193 0.08527135848999023
-0.3529932498931885 -0.20930230617523193 0.10077524185180664
-0.35541754961013794 -0.20930230617523193 0.11627912521362305
-0.3572871685028076 -0.20930230617523193 0.1317828893661499
-0.35850754380226135 -0.20930230617523193 0.1472867727279663
-0.35826388001441956 -0.20930230617523193 0.16279065608978271
-0.3571476638317108 -0.20930230617523193 0.17829453945159912
-0.35338732600212097 -0.20930230617523193 0.19379842281341553
-0.3494992256164551 -0.19379842281341553 0.007751941680908203
-0.3557230234146118 -0.19379842281341553 0.02325582504272461
-0.3614250123500824 -0.19379842281341553 0.038759708404541016
-0.3519582748413086 -0.19379842281341553 0.25581395626068115
-0.3542846441268921 -0.1782945990562439 -0.02325582504272461
-0.36286407709121704 -0.1782945990562439 -0.007751941680908203
-0.3539477586746216 -0.1782945990562439 0.28682172298431396
-0.3504197299480438 -0.1627907156944275 -0.05426359176635742
-0.3577330708503723 -0.1627907156944275 -0.038759708404541016
-0.35009726881980896 -0.14728683233261108 -0.08527129888534546
-0.3525359630584717 -0.14728683233261108 -0.06976741552352905
-0.35728999972343445 -0.14728683233261108 -0.05426359176635742
-0.35014575719833374 -0.13178294897079468 -0.10077518224716187
-0.35268720984458923 -0.13178294897079468 -0.08527129888534546
-0.3561297059059143 -0.13178294897079468 -0.06976741552352905
-0.3606586456298828 -0.13178294897079468 -0.05426359176635742
-0.3506447672843933 -0.11627906560897827 -0.08527129888534546
-0.35481947660446167 -0.11627906560897827 -0.06976741552352905
-0.3608071208000183 -0.11627906560897827 -0.05426359176635742
-0.3509712517261505 -0.10077518224716187 -0.06976741552352905
-0.35862308740615845 -0.10077518224716187 -0.05426359176635742
-0.35952484607696533 -0.10077518224716187 0.4418604373931885
-0.3571995496749878 -0.08527129888534546 -0.05426359176635742
-0.36150413751602173 -0.08527129888534546 0.4728682041168213
-0.3593308925628662 -0.06976741552352905 -0.05426359176635742
-0.36121222376823425 -0.06976741552352905 0.5038759708404541
-0.35021039843559265 -0.05426359176635742 -0.06976741552352905
-0.3596656322479248 -0.05426359176635742 0.5348837375640869
-0.36268359422683716 -0.05426359176635742 0.7054263353347778
-0.358659029006958 -0.05426359176635742 0.7209302186965942
-0.3569471836090088 -0.05426359176635742 0.7364341020584106
-0.3610022962093353 -0.05426359176635742 0.751937985420227
-0.3590151071548462 -0.038759708404541016 -0.06976741552352905
-0.35162675380706787 -0.038759708404541016 0.5503876209259033
-0.3619649112224579 -0.038759708404541016 0.5658915042877197
-0.3617092967033386 -0.038759708404541016 0.6589146852493286
-0.3553279638290405 -0.038759708404541016 0.674418568611145
-0.3489484488964081 -0.038759708404541016 0.6899224519729614
-0.3532148003578186 -0.038759708404541016 0.751937985420227
-0.36329880356788635 -0.038759708404541016 0.7674418687820435
-0.3520548343658447 -0.02325582504272461 -0.08527129888534546
-0.34966960549354553 -0.02325582504272461 0.5658915042877197
-0.3595905601978302 -0.02325582504272461 0.5813953876495361
-0.3633185625076294 -0.02325582504272461 0.5968992710113525
-0.3642738163471222 -0.02325582504272461 0.612403154373169
-0.36255329847335815 -0.02325582504272461 0.6279069185256958
-0.3562396764755249 -0.02325582504272461 0.6434108018875122
-0.35939064621925354 -0.02325582504272461 0.7674418687820435
-0.35714268684387207 -0.007751941680908203 -0.08527129888534546
-0.35469967126846313 -0.007751941680908203 0.5813953876495361
-0.3596521019935608 -0.00775194214656949 0.5968992710113525
-0.36044198274612427 -0.007751941680908203 0.612403154373169
-0.35822272300720215 -0.007751941680908203 0.6279069185256958
-0.3500097393989563 -0.007751941680908203 0.6434108018875122
-0.35780784487724304 -0.007751941680908203 0.7674418687820435
-0.3545290231704712 0.007751941680908203 -0.08527129888534546
-0.3571547865867615 0.007751941680908203 0.5813953876495361
-0.361202210187912 0.007751941680908203 0.5968992710113525
-0.3620463013648987 0.007751941680908203 0.6124032139778137
-0.3603806495666504 0.007751941680908203 0.6279069185256958
-0.35440146923065186 0.007751941680908203 0.6434108018875122
-0.34914466738700867 0.007751941680908203 0.751937985420227
-0.35919326543807983 0.007751941680908203 0.7674418687820435
-0.3620571494102478 0.02325582504272461 -0.06976741552352905
-0.35732197761535645 0.02325582504272461 0.5658915042877197
-0.3630790412425995 0.02325582504272461 0.5813953876495361
-0.3633304238319397 0.02325582504272461 0.643410861492157
-0.3593502640724182 0.02325582504272461 0.6589146852493286
-0.3557516932487488 0.02325582504272461 0.674418568611145
-0.353005588054657 0.02325582504272461 0.6899224519729614
-0.3506127893924713 0.02325582504272461 0.7054263353347778
-0.34967321157455444 0.02325582504272461 0.7209302186965942
-0.35051029920578003 0.02325582504272461 0.7364341020584106
-0.3559178113937378 0.02325582504272461 0.751937985420227
-0.36297035217285156 0.02325582504272461 0.7674418687820435
-0.35107851028442383 0.038759708404541016 -0.06976741552352905
-0.34962406754493713 0.038759708404541016 0.5348837375640869
-0.3600861430168152 0.038759708404541016 0.5503876209259033
-0.3636218309402466 0.038759708404541016 0.7054263353347778
-0.3614940643310547 0.038759708404541016 0.7209302186965942
-0.3603183925151825 0.038759708404541016 0.7364341020584106
-0.3627047836780548 0.038759708404541016 0.7519380450248718
-0.35616081953048706 0.05426359176635742 -0.05426359176635742
-0.35742294788360596 0.05426359176635742 0.5193798542022705
-0.3638732433319092 0.05426359176635742 0.5348837375640869
-0.3531709611415863 0.06976747512817383 -0.05426359176635742
-0.35247400403022766 0.06976747512817383 0.4883720874786377
-0.35458147525787354 0.08527135848999023 -0.05426359176635742
-0.36258935928344727 0.08527135848999023 0.4728682041168213
-0.3505270481109619 0.10077524185180664 -0.06976741552352905
-0.3596716821193695 0.10077523440122604 -0.05426358804106712
-0.35388171672821045 0.10077524185180664 0.4418604373931885
-0.3513740301132202 0.11627912521362305 -0.08527129888534546
-0.3582632541656494 0.11627912521362305 -0.06976741552352905
-0.34911075234413147 0.1317828893661499 -0.11627906560897827
-0.3534679412841797 0.1317828893661499 -0.10077518224716187
-0.3578055500984192 0.1317828893661499 -0.08527129888534546
-0.36201193928718567 0.1317828893661499 -0.06976741552352905
-0.3498496413230896 0.1472867727279663 -0.11627906560897827
-0.35296353697776794 0.1472867727279663 -0.10077518224716187
-0.35600540041923523 0.1472867727279663 -0.08527129888534546
-0.3592950105667114 0.1472867727279663 -0.06976741552352905
-0.35107895731925964 0.16279065608978271 -0.06976741552352905
-0.355227530002594 0.16279065608978271 -0.05426359176635742
-0.36028555035591125 0.16279065608978271 -0.038759708404541016
-0.3517705202102661 0.17829453945159912 -0.02325582504272461
-0.35809823870658875 0.17829453945159912 -0.00775194214656949
-0.36379435658454895 0.17829452455043793 0.007751941680908203
-0.36185234785079956 0.17829453945159912 0.30232560634613037
-0.3513216972351074 0.19379842281341553 0.02325582504272461
-0.357174277305603 0.19379842281341553 0.038759708404541016
-0.3619784712791443 0.19379842281341553 0.05426359176635742
-0.3501298129558563 0.20930230617523193 0.10077524185180664
-0.35167747735977173 0.20930230617523193 0.11627912521362305
-0.35290229320526123 0.20930230617523193 0.1317828893661499
-0.3540501296520233 0.20930230617523193 0.1472867727279663
-0.3549231290817261 0.20930230617523193 0.16279065608978271
-0.3549453020095825 0.20930230617523193 0.17829453945159912
-0.352303147315979 0.20930230617523193 0.19379842281341553
-0.33538004755973816 -0.20930230617523193 0.038759708404541016
-0.34033167362213135 -0.20930230617523193 0.05426359176635742
-0.34566450119018555 -0.20930230617523193 0.06976747512817383
-0.3460984230041504 -0.20930229127407074 0.20930229127407074
-0.33546000719070435 -0.19379842281341553 -0.02325582504272461
-0.3429754972457886 -0.19379842281341553 -0.007751941680908203
-0.3338523507118225 -0.1782945990562439 -0.06976741552352905
-0.33899205923080444 -0.1782945990562439 -0.05426359176635742
-0.3460434079170227 -0.1782945990562439 -0.038759708404541016
-0.33637094497680664 -0.1627907156944275 -0.13178294897079468
-0.33959347009658813 -0.1627907156944275 -0.11627906560897827
-0.34121376276016235 -0.1627907156944275 -0.10077518224716187
-0.34230077266693115 -0.1627907156944275 -0.08527129888534546
-0.3450866639614105 -0.1627907156944275 -0.06976741552352905
-0.34872111678123474 -0.1627907156944275 0.3178294897079468
-0.3389401137828827 -0.14728683233261108 -0.14728683233261108
-0.34370726346969604 -0.14728683233261108 -0.13178294897079468
-0.3459117114543915 -0.14728683233261108 -0.11627906560897827
-0.3484192490577698 -0.14728683233261108 -0.10077518224716187
-0.348349392414093 -0.14728683233261108 0.3488372564315796
-0.3353382349014282 -0.13178294897079468 -0.14728683233261108
-0.34256577491760254 -0.13178294897079468 -0.13178294897079468
-0.3465222418308258 -0.13178294897079468 -0.11627906560897827
-0.33417120575904846 -0.11627906560897827 -0.13178294897079468
-0.34142476320266724 -0.11627906560897827 -0.11627906560897827
-0.3460124135017395 -0.11627905815839767 -0.10077518224716187
-0.33753883838653564 -0.10077518224716187 -0.10077518224716187
-0.34347933530807495 -0.10077518224716187 -0.08527129888534546
-0.3369578719139099 -0.08527129888534546 -0.08527129888534546
-0.34620726108551025 -0.08527129888534546 -0.06976741552352905
-0.33843904733657837 -0.08527129888534546 0.4573643207550049
-0.3340941369533539 -0.06976741552352905 -0.08527129888534546
-0.34493187069892883 -0.06976741552352905 -0.06976741552352905
-0.3446245789527893 -0.06976741552352905 0.4883720874786377
-0.33564990758895874 -0.05426359176635742 -0.08527129888534546
-0.33350449800491333 -0.05426359176635742 0.5038759708404541
-0.34801435470581055 -0.05426359176635742 0.5193798542022705
-0.341774046421051 -0.038759708404541016 -0.08527129888534546
-0.3373039662837982 -0.038759708404541016 0.5348837375640869
-0.3462287485599518 -0.038759708404541016 0.7054263353347778
-0.3452867567539215 -0.038759708404541016 0.7209302186965942
-0.34613457322120667 -0.03875970467925072 0.7364341020584106
-0.3356582224369049 -0.02325582504272461 -0.10077518224716187
-0.33434614539146423 -0.02325582504272461 0.5503876209259033
-0.34755176305770874 -0.02325582504272461 0.6589146852493286
-0.3427117168903351 -0.02325582504272461 0.674418568611145
-0.3395397365093231 -0.02325582504272461 0.6899224519729614
-0.33795830607414246 -0.02325582504272461 0.7054263353347778
-0.33888372778892517 -0.02325582504272461 0.7209302186965942
-0.3416520655155182 -0.02325582504272461 0.7364341020584106
-0.347773015499115 -0.02325582504272461 0.751937985420227
-0.3400443196296692 -0.007751941680908203 -0.10077518224716187
-0.3449113368988037 -0.007751941680908203 0.5658915042877197
-0.34372785687446594 -0.007751941680908203 0.6589146852493286
-0.3389858603477478 -0.007751941680908203 0.674418568611145
-0.33654487133026123 -0.007751941680908203 0.6899224519729614
-0.3359367251396179 -0.007751941680908203 0.7054263353347778
-0.33766552805900574 -0.007751941680908203 0.7209302186965942
-0.34077581763267517 -0.007751941680908203 0.7364341020584106
-0.34671974182128906 -0.00775194214656949 0.7519380450248718
-0.3380126953125 0.007751941680908203 -0.10077518224716187
-0.3472156822681427 0.00775194214656949 0.5658915042877197
-0.3473033010959625 0.00775194214656949 0.6589146852493286
-0.3437603712081909 0.007751941680908203 0.674418568611145
-0.3419666886329651 0.007751941215246916 0.6899224519729614
-0.3413369059562683 0.007751941680908203 0.7054263353347778
-0.34219545125961304 0.007751941680908203 0.7209302186965942
-0.34411948919296265 0.007751941680908203 0.7364341020584106
-0.3467921316623688 0.02325582504272461 -0.08527129888534546
-0.3458590507507324 0.02325582504272461 0.5503876209259033
-0.3368210792541504 0.038759708404541016 -0.08527129888534546
-0.3399825394153595 0.038759708404541016 0.5193798542022705
-0.34216880798339844 0.05426359176635742 -0.06976741552352905
-0.3478505313396454 0.05426359176635742 0.5038759708404541
-0.3397286832332611 0.06976747512817383 -0.06976741552352905
-0.3356480002403259 0.06976747512817383 0.4728682041168213
-0.3417494595050812 0.08527135848999023 -0.06976741552352905
-0.34167569875717163 0.08527135848999023 0.4573643207550049
-0.34044039249420166 0.10077524185180664 -0.08527129888534546
-0.33942756056785583 0.11627912521362305 -0.11627906560897827
-0.34476733207702637 0.11627912521362305 -0.10077518224716187
-0.33540159463882446 0.11627912521362305 0.41085267066955566
-0.337198942899704 0.1317828893661499 -0.14728683233261108
-0.3437935709953308 0.1317828893661499 -0.13178294897079468
-0.33553606271743774 0.1472867727279663 -0.1627907156944275
-0.34262800216674805 0.1472867727279663 -0.14728683233261108
-0.34569376707077026 0.1472867727279663 -0.13178294897079468
-0.33737704157829285 0.16279065608978271 -0.14728683233261108
-0.34189754724502563 0.16279065608978271 -0.13178294897079468
-0.34361135959625244 0.16279065608978271 -0.11627906560897827
-0.3453124165534973 0.16279065608978271 -0.10077518224716187
-0.34801581501960754 0.16279065608978271 -0.08527129143476486
-0.3344048261642456 0.17829453945159912 -0.10077518224716187
-0.33621516823768616 0.17829453945159912 -0.08527129888534546
-0.33897897601127625 0.17829453945159912 -0.06976741552352905
-0.34204787015914917 0.17829453945159912 -0.05426359176635742
-0.3466425836086273 0.17829453945159912 -0.038759708404541016
-0.33580711483955383 0.17829453945159912 0.3178294897079468
-0.3339129090309143 0.19379842281341553 -0.02325582504272461
-0.3397566080093384 0.19379842281341553 -0.007751941680908203
-0.34578827023506165 0.19379842281341553 0.007751941680908203
-0.34677058458328247 0.19379842281341553 0.27131783962249756
-0.33517831563949585 0.20930230617523193 0.038759708404541016
-0.339937686920166 0.20930230617523193 0.05426359176635742
-0.3449186682701111 0.20930230617523193 0.06976747512817383
-0.3478584587574005 0.20930230617523193 0.08527135848999023
-0.3456098139286041 0.20930229127407074 0.20930229127407074
-0.3242183327674866 -0.20930230617523193 0.007751941680908203
-0.330105721950531 -0.20930230617523193 0.02325582504272461
-0.31984394788742065 -0.20930230617523193 0.22480618953704834
-0.3224601745605469 -0.19379842281341553 -0.05426359176635742
-0.3285987675189972 -0.19379842281341553 -0.038759708404541016
-0.3205481767654419 -0.1782945990562439 -0.14728683233261108
-0.3241724967956543 -0.1782945990562439 -0.13178294897079468
-0.3260802626609802 -0.1782945990562439 -0.11627906560897827
-0.32781967520713806 -0.1782945990562439 -0.10077518224716187
-0.3301166892051697 -0.1782945990562439 -0.08527129888534546
-0.320325642824173 -0.1627907156944275 -0.19379842281341553
-0.3265492916107178 -0.1627907156944275 -0.1782945990562439
-0.32941246032714844 -0.1627907156944275 -0.1627907156944275
-0.33229079842567444 -0.1627907156944275 -0.14728683233261108
-0.3220573365688324 -0.14728683233261108 -0.19379842281341553
-0.3285885751247406 -0.14728683233261108 -0.1782945990562439
-0.3324436843395233 -0.14728683233261108 -0.1627907007932663
-0.3216121792793274 -0.13178294897079468 -0.1782945990562439
-0.32846328616142273 -0.13178294897079468 -0.1627907156944275
-0.3258591592311859 -0.11627906560897827 -0.14728683233261108
-0.3220565915107727 -0.10077518224716187 -0.13178294897079468
-0.33023470640182495 -0.10077518224716187 -0.11627906560897827
-0.3295154571533203 -0.10077518224716187 0.42635655403137207
-0.31946784257888794 -0.08527129888534546 -0.11627906560897827
-0.3269205093383789 -0.08527129888534546 -0.10077518224716187
-0.32195422053337097 -0.06976741552352905 -0.10077518224716187
-0.325036883354187 -0.06976741552352905 0.4728682041168213
-0.3217741549015045 -0.05426359176635742 -0.10077518224716187
-0.32668232917785645 -0.038759708404541016 -0.10077518224716187
-0.3211803436279297 -0.038759708404541016 0.5193798542022705
-0.3201214373111725 -0.02325582504272461 -0.11627906560897827
-0.3239062428474426 -0.007751941680908203 -0.11627906560897827
-0.3273673951625824 -0.007751941680908203 0.5503876209259033
-0.32193297147750854 0.007751941680908203 -0.11627906560897827
-0.3316473960876465 0.007751941680908203 0.5503876209259033
-0.33171799778938293 0.02325582504272461 -0.10077518224716187
-0.33018267154693604 0.02325582504272461 0.5348837375640869
-0.32180991768836975 0.038759708404541016 -0.10077518224716187
-0.32664310932159424 0.038759708404541016 0.5038759708404541
-0.3292049169540405 0.05426359549164772 -0.08527129888534546
-0.332681804895401 0.05426359176635742 0.4883720874786377
-0.326384574174881 0.06976747512817383 -0.08527129888534546
-0.31919121742248535 0.08527135848999023 -0.10077518224716187
-0.3305509090423584 0.08527135848999023 -0.08527129888534546
-0.32174986600875854 0.10077524185180664 -0.11627906560897827
-0.3317323327064514 0.10077524185180664 -0.10077518224716187
-0.3243078589439392 0.10077524185180664 0.42635655403137207
-0.3215089738368988 0.11627912521362305 -0.14728683233261108
-0.3301694989204407 0.11627912521362305 -0.13178294897079468
-0.3228721022605896 0.1317828893661499 -0.1782945990562439
-0.3289889991283417 0.1317828893661499 -0.1627907156944275
-0.32465019822120667 0.1472867727279663 -0.19379842281341553
-0.32971689105033875 0.1472867727279663 -0.1782945841550827
-0.3178538978099823 0.16279065608978271 -0.20930230617523193
-0.3238755166530609 0.16279065608978271 -0.19379842281341553
-0.3291444480419159 0.16279065608978271 -0.1782945990562439
-0.3324277698993683 0.16279065608978271 -0.1627907007932663
-0.3193117678165436 0.17829453945159912 -0.1782945990562439
-0.3243759274482727 0.17829453945159912 -0.1627907156944275
-0.3273776173591614 0.17829453945159912 -0.14728683233261108
-0.3300241529941559 0.17829455435276031 -0.13178294897079468
-0.33261024951934814 0.17829453945159912 -0.11627906560897827
-0.3190322518348694 0.19379842281341553 -0.10077518224716187
-0.32053476572036743 0.19379842281341553 -0.08527129888534546
-0.32265305519104004 0.19379842281341553 -0.06976741552352905
-0.3253464698791504 0.19379842281341553 -0.05426359176635742
-0.32947883009910583 0.19379842281341553 -0.038759708404541016
-0.3183184862136841 0.20930230617523193 -0.007751941680908203
-0.32387781143188477 0.20930230617523193 0.007751941680908203
-0.33010953664779663 0.20930230617523193 0.02325582504272461
-0.32216620445251465 0.20930230617523193 0.22480618953704834
-0.3059161603450775 -0.22480618953704834 0.06976747512817383
-0.30955055356025696 -0.22480618953704834 0.08527135848999023
-0.3122982978820801 -0.22480618953704834 0.10077524185180664
-0.31412357091903687 -0.22480618953704834 0.11627912521362305
-0.311306893825531 -0.22480618953704834 0.1317828893661499
-0.30532920360565186 -0.20930230617523193 -0.038759708404541016
-0.3116302788257599 -0.20930230617523193 -0.02325582504272461
-0.3176617920398712 -0.20930230617523193 -0.007751941680908203
-0.3055594265460968 -0.19379842281341553 -0.13178294897079468
-0.30798259377479553 -0.19379842281341553 -0.11627906560897827
-0.3105132579803467 -0.19379842281341553 -0.10077518224716187
-0.3134100139141083 -0.19379842281341553 -0.08527129888534546
-0.3170873820781708 -0.19379842281341553 -0.06976741552352905
-0.31402289867401123 -0.19379842281341553 0.27131783962249756
-0.30516311526298523 -0.1782945990562439 -0.20930230617523193
-0.31054455041885376 -0.1782945990562439 -0.19379842281341553
-0.31358200311660767 -0.1782945841550827 -0.1782945841550827
-0.3165822923183441 -0.1782945990562439 -0.1627907156944275
-0.3070145547389984 -0.1782945990562439 0.30232560634613037
-0.30615973472595215 -0.1627907156944275 -0.24031007289886475
-0.31215986609458923 -0.1627907156944275 -0.22480618953704834
-0.3156270980834961 -0.1627907156944275 -0.20930230617523193
-0.3090377449989319 -0.14728683233261108 -0.22480618953704834
-0.3146589696407318 -0.14728683233261108 -0.20930230617523193
-0.3024575114250183 -0.14728683233261108 0.3488372564315796
-0.31137514114379883 -0.13178294897079468 -0.19379842281341553
-0.3045622408390045 -0.11627906560897827 -0.1782945990562439
-0.3164735734462738 -0.11627907305955887 -0.1627907156944275
-0.30919960141181946 -0.11627906560897827 0.39534878730773926
-0.30960774421691895 -0.10077518224716187 -0.14728683233261108
-0.30602043867111206 -0.08527129888534546 -0.13178294897079468
-0.31082648038864136 -0.08527129888534546 0.4418604373931885
-0.30867666006088257 -0.06976741552352905 -0.11627906560897827
-0.306545615196228 -0.05426359176635742 -0.11627906560897827
-0.3139858841896057 -0.05426359176635742 0.4883720874786377
-0.3114263117313385 -0.038759708404541016 -0.11627906560897827
-0.31255969405174255 -0.02325582504272461 0.5348837375640869
-0.3061883747577667 -0.007751941680908203 -0.13178294897079468
-0.303885817527771 0.007751941680908203 -0.13178294897079468
-0.3091636300086975 0.007751941680908203 0.5348837375640869
-0.3162456154823303 0.02325582318007946 -0.11627906560897827
-0.3131468594074249 0.02325582504272461 0.5193798542022705
-0.3053676187992096 0.038759708404541016 -0.11627906560897827
-0.3054305911064148 0.038759708404541016 0.4883720874786377
-0.3159657418727875 0.05426359176635742 -0.10077518224716187
-0.311065673828125 0.05426359176635742 0.4728682041168213
-0.3132845163345337 0.06976747512817383 -0.10077518224716187
-0.3103625178337097 0.06976747512817383 0.4573643207550049
-0.304355263710022 0.08527135848999023 -0.11627906560897827
-0.3151155114173889 0.08527135848999023 0.4418604373931885
-0.3082807660102844 0.10077524185180664 -0.13178294897079468
-0.308727890253067 0.11627912521362305 -0.1627907156944275
-0.3115696609020233 0.1317828893661499 -0.19379842281341553
-0.31059736013412476 0.1472867727279663 -0.22480618953704834
-0.3170229196548462 0.1472867727279663 -0.20930230617523193
-0.3059577941894531 0.16279065608978271 -0.24031007289886475
-0.31273987889289856 0.16279065608978271 -0.22480618953704834
-0.3031163215637207 0.17829453945159912 -0.22480618953704834
-0.3096778988838196 0.17829453945159912 -0.20930230617523193
-0.313904732465744 0.17829453945159912 -0.19379842281341553
-0.30453765392303467 0.17829453945159912 0.3178294897079468
-0.30337297916412354 0.19379842281341553 -0.1782945990562439
-0.30816134810447693 0.19379842281341553 -0.1627907156944275
-0.3115301728248596 0.19379842281341553 -0.14728683233261108
-0.3149597644805908 0.19379843771457672 -0.13178294897079468
-0.3173964023590088 0.19379842281341553 -0.11627906560897827
