0.007751941680908203 0.29528647661209106 0.10077524185180664
0.007751941680908203 0.29324638843536377 0.24031007289886475
0.007751941680908203 0.3148575723171234 0.22480618953704834
0.007751941680908203 0.32273611426353455 0.11627912521362305
0.007751941680908203 0.3425648808479309 0.1317828893661499
0.007751941680908203 0.3362835943698883 0.20930230617523193
0.007751941680908203 0.3564213514328003 0.1472867727279663
0.007751941680908203 0.3630249798297882 0.17829453945159912
0.007751941680908203 0.3520936071872711 0.19379842281341553
0.007751941215246916 0.365196168422699 0.16279065608978271
0.007751941680908203 0.45038625597953796 -0.11627906560897827
0.007751941680908203 0.4758622646331787 0.4573643207550049
0.007751941680908203 0.5340614914894104 -0.13178294897079468
0.007751941680908203 0.5495720505714417 0.4418604373931885
0.007751941680908203 0.5992869138717651 0.42635655403137207
0.007751941680908203 0.6366300582885742 0.41085267066955566
0.007751941680908203 0.6705302000045776 0.39534878730773926
0.007751941680908203 0.6989096403121948 -0.13178294897079468
0.007751941680908203 0.706259548664093 0.37984490394592285
0.007751941680908203 0.7359129786491394 0.364341139793396
0.007751941680908203 0.7487853765487671 -0.11627906560897827
0.00775194214656949 0.7593452334403992 0.3488372564315796
0.007751941680908203 0.7774381637573242 0.3333333730697632
0.007751941680908203 0.784649133682251 -0.10077518969774246
0.007751941680908203 0.7938140034675598 0.3178294897079468
0.007751941680908203 0.809378981590271 0.30232560634613037
0.007751941680908203 0.8239279985427856 -0.08527129888534546
0.007751941680908203 0.8252732157707214 0.28682172298431396
0.007751941680908203 0.8438543677330017 -0.06976741552352905
0.007751941680908203 0.8414289355278015 0.17829453945159912
0.007751941680908203 0.8418257236480713 0.27131783962249756
0.007751941680908203 0.8511711955070496 -0.05426359549164772
0.007751941680908203 0.859280526638031 -0.038759708404541016
0.007751941680908203 0.8571020364761353 0.1317828893661499
0.007751941680908203 0.8493911027908325 0.1472867727279663
0.007751941680908203 0.8452768325805664 0.16279065608978271
0.007751941680908203 0.8599693179130554 0.25581395626068115
0.007751941680908203 0.8614659309387207 -0.02325582504272461
0.007751941680908203 0.8627306222915649 -0.007751941680908203
0.007751941680908203 0.8640676140785217 0.007751941680908203
0.007751941680908203 0.8655214309692383 0.02325582504272461
0.007751941680908203 0.8664352893829346 0.038759708404541016
0.007751941680908203 0.86683189868927 0.05426359176635742
0.007751941680908203 0.8662975430488586 0.06976747512817383
0.007751941680908203 0.8650188446044922 0.08527135848999023
0.007751941680908203 0.8633756041526794 0.10077524185180664
0.007751941680908203 0.8617867231369019 0.11627912521362305
0.007751941680908203 0.8775160312652588 0.24031007289886475
0.007751941680908203 0.8975163102149963 0.17829453945159912
0.007751941680908203 0.8947211503982544 0.22480618953704834
0.007751941680908203 0.9153776168823242 0.16279065608978271
0.007751941680908203 0.9101898074150085 0.20930229127407074
0.007751941680908203 0.9337321519851685 0.1317828893661499
0.007751941680908203 0.927166223526001 0.1472867727279663
0.007751941680908203 0.9329122304916382 0.17829453945159912
0.007751941680908203 0.9239715337753296 0.19379842281341553
0.007751941680908203 0.9518590569496155 0.06976747512817383
0.007751941680908203 0.949732780456543 0.08527135848999023
0.007751941680908203 0.9474439024925232 0.10077524185180664
0.007751941680908203 0.9398423433303833 0.11627913266420364
0.007751941680908203 0.9530149102210999 0.1317828893661499
0.007751941680908203 0.9459033608436584 0.1472867727279663
0.007751941680908203 0.9405756592750549 0.16279065608978271
0.007751941680908203 0.9681580662727356 -0.08527129888534546
0.007751941680908203 0.9672031998634338 -0.06976741552352905
0.007751941680908203 0.966578483581543 -0.05426359176635742
0.007751941680908203 0.9659377932548523 -0.038759708404541016
0.007751941680908203 0.965259850025177 -0.02325582504272461
0.007751941680908203 0.964281439781189 -0.007751941680908203
0.007751941680908203 0.9632059931755066 0.007751941680908203
0.007751941680908203 0.9621374607086182 0.02325582504272461
0.007751941680908203 0.9608654379844666 0.038759708404541016
0.007751941680908203 0.956479549407959 0.05426359176635742
0.007751941680908203 0.9639708399772644 0.08527135848999023
0.007751941680908203 0.9602280855178833 0.10077524185180664
0.007751941680908203 0.9568414092063904 0.11627912521362305
0.007751941680908203 0.9798791408538818 -0.19379842281341553
0.007751941680908203 0.9792131185531616 -0.1782945990562439
0.007751941680908203 0.9790616035461426 -0.1627907156944275
0.007751941680908203 0.9774335622787476 -0.14728683233261108
0.007751941680908203 0.9755608439445496 -0.13178294897079468
0.007751941215246916 0.9743486642837524 -0.11627906560897827
0.007751941215246916 0.9705591201782227 -0.10077518224716187
0.007751941680908203 0.9814147353172302 -0.007751941680908203
0.007751941680908203 0.9784978032112122 0.007751941680908203
0.007751941680908203 0.9761170744895935 0.02325582504272461
0.007751941680908203 0.9737756252288818 0.038759708404541016
0.007751941680908203 0.9717652797698975 0.05426359176635742
0.007751941680908203 0.9695658683776855 0.06976747512817383
0.007751941680908203 0.984931230545044 -0.19379842281341553
0.00775194214656949 0.9852945804595947 -0.1782945990562439
0.007751941680908203 0.9854779839515686 -0.1627907156944275
0.007751941680908203 0.9856898188591003 -0.14728683233261108
0.007751941680908203 0.9858443140983582 -0.13178294897079468
0.007751941680908203 0.9859161972999573 -0.11627906560897827
0.007751941680908203 0.9859151244163513 -0.10077518224716187
0.007751941215246916 0.9858473539352417 -0.08527129888534546
0.007751941680908203 0.9857047200202942 -0.06976741552352905
0.007751941215246916 0.9855271577835083 -0.05426358804106712
0.007751941215246916 0.9852044582366943 -0.03875970467925072
0.007751941680908203 0.984705924987793 -0.02325582504272461
0.02325582504272461 -0.9694219827651978 0.42635655403137207
0.02325582504272461 -0.9709768295288086 0.4418604373931885
0.02325582504272461 -0.9608511328697205 0.42635655403137207
0.02325582504272461 -0.9619976282119751 0.45736435055732727
0.02325582318007946 -0.9492902755737305 0.4728682041168213
0.02325582504272461 -0.9310059547424316 0.4883720874786377
0.02325582504272461 -0.9149166941642761 0.42635655403137207
0.02325582504272461 -0.9107054471969604 0.5038759708404541
0.02325582504272461 -0.8941246271133423 0.5193798542022705
0.02325582504272461 -0.8827821612358093 0.5348837375640869
0.02325582504272461 -0.873241662979126 0.5503876209259033
0.02325582504272461 -0.865929365158081 0.5658915042877197
0.02325582504272461 -0.8579858541488647 0.5813953876495361
0.02325582504272461 -0.8453333973884583 0.5968992710113525
0.02325582504272461 -0.8197776079177856 0.42635655403137207
0.02325582504272461 -0.8227676153182983 0.612403154373169
0.02325582504272461 -0.79623943567276 0.6279069185256958
0.02325582504272461 -0.7738722562789917 0.4418604373931885
0.02325582504272461 -0.7757852077484131 0.6434108018875122
0.02325582504272461 -0.7577294111251831 0.6589146852493286
0.02325582504272461 -0.7380599975585938 0.674418568611145
0.02325582504272461 -0.6784555315971375 0.4418604373931885
0.02325582504272461 -0.6441091299057007 0.42635655403137207
0.02325582504272461 -0.6529717445373535 0.6899224519729614
0.02325582504272461 -0.6164523363113403 0.41085267066955566
0.02325582504272461 -0.6198830008506775 0.6899224519729614
0.02325582504272461 -0.5895630717277527 0.39534878730773926
0.02325582504272461 -0.5667770504951477 0.3488372564315796
0.02325582504272461 -0.5683438777923584 0.364341139793396
0.02325582504272461 -0.573638379573822 0.37984490394592285
0.02325582504272461 -0.5514155626296997 0.30232560634613037
0.02325582504272461 -0.554685115814209 0.3178294897079468
0.02325582690536976 -0.5608135461807251 0.3333333730697632
0.02325582504272461 -0.5570122003555298 0.674418568611145
0.02325582504272461 -0.5360313057899475 0.24031007289886475
0.02325582504272461 -0.5409177541732788 0.25581395626068115
0.02325582504272461 -0.5446646213531494 0.27131783962249756
0.02325582504272461 -0.5483287572860718 0.28682172298431396
0.02325582504272461 -0.5253119468688965 0.20930230617523193
0.02325582504272461 -0.5301792621612549 0.22480618953704834
0.02325582504272461 -0.5269124507904053 0.6589146852493286
0.02325582504272461 -0.5043708682060242 0.1472867727279663
0.02325582504272461 -0.5087710022926331 0.16279065608978271
0.02325582504272461 -0.5130388736724854 0.17829453945159912
0.02325582504272461 -0.5186566710472107 0.19379842281341553
0.02325582504272461 -0.49200108647346497 0.10077524185180664
0.02325582504272461 -0.4966505765914917 0.11627912521362305
0.02325582504272461 -0.49943017959594727 0.1317828893661499
0.02325582504272461 -0.47384536266326904 0.05426359176635742
0.02325582504272461 -0.48094332218170166 0.06976747512817383
0.02325582504272461 -0.4855143427848816 0.08527135848999023
0.02325582504272461 -0.4819846451282501 0.6434108018875122
0.02325582504272461 -0.4611838459968567 0.02325582504272461
0.02325582504272461 -0.46756404638290405 0.038759708404541016
0.02325582504272461 -0.4438580274581909 -0.007751941680908203
0.02325582504272461 -0.45293402671813965 0.007751941680908203
0.02325582504272461 -0.44951561093330383 0.6279069185256958
0.02325582504272461 -0.4304816424846649 -0.02325582504272461
0.02325582504272461 -0.4128195643424988 -0.038759708404541016
0.02325582504272461 -0.42039984464645386 0.612403154373169
0.02325582504272461 -0.3849703371524811 -0.05426359176635742
0.02325582504272461 -0.39221668243408203 0.5968992710113525
0.02325582504272461 -0.3595321476459503 -0.06976741552352905
0.02325582504272461 -0.3641659617424011 0.5813953876495361
0.02325582504272461 -0.34107327461242676 -0.08527129888534546
0.02325582504272461 -0.3255678415298462 -0.10077518224716187
0.02325582504272461 -0.32576218247413635 0.5658915042877197
0.02325582504272461 -0.3112933039665222 -0.11627906560897827
0.02325582504272461 -0.29648250341415405 -0.13178294897079468
0.02325582504272461 -0.27772945165634155 -0.14728683233261108
0.02325582504272461 -0.24616296589374542 -0.1627907156944275
0.02325582504272461 -0.2444046288728714 0.5503876209259033
0.02325582504272461 -0.1551903784275055 0.5348837375640869
0.02325582504272461 -0.12281618267297745 -0.1627907156944275
0.02325582504272461 -0.09216666221618652 0.5193798542022705
0.02325582504272461 -0.023674409836530685 -0.14728683233261108
0.02325582504272461 -0.029099173843860626 0.5038759708404541
0.02325582504272461 0.030003104358911514 -0.13178294897079468
0.02325582504272461 0.03343769162893295 0.4883720874786377
0.02325582504272461 0.06623642146587372 0.16279065608978271
0.02325582504272461 0.06408748030662537 0.17829453945159912
0.02325582504272461 0.07972443103790283 0.19379842281341553
0.02325582504272461 0.09500464797019958 0.1472867727279663
0.02325582504272461 0.11191157251596451 0.20930230617523193
0.02325582504272461 0.1364474892616272 0.1317828893661499
0.02325582504272461 0.1357482522726059 0.22480618953704834
0.02325582504272461 0.13958954811096191 0.4728682041168213
0.02325582504272461 0.1658667027950287 -0.11627906560897827
0.02325582504272461 0.17346127331256866 0.24031007289886475
0.02325582504272461 0.17877331376075745 0.11627912521362305
0.02325582504272461 0.22284378111362457 -0.10077518224716187
0.02325582504272461 0.22049565613269806 0.10077524185180664
0.02325582504272461 0.27208542823791504 -0.10077518969774246
0.02325582504272461 0.2814437747001648 0.10077524185180664
0.02325582504272461 0.28314805030822754 0.24031007289886475
0.02325582504272461 0.3139198422431946 0.11627912521362305
0.02325582504272461 0.31124812364578247 0.22480618953704834
0.02325582504272461 0.3330008089542389 0.20930230617523193
0.02325582318007946 0.3341876268386841 0.1317828893661499
0.02325582504272461 0.34830236434936523 0.1472867727279663
0.02325582504272461 0.34761691093444824 0.19379842281341553
0.02325582504272461 0.3592427968978882 0.16279065608978271
0.02325582504272461 0.35820847749710083 0.17829453945159912
0.02325582504272461 0.40038615465164185 0.4573643207550049
0.02325582504272461 0.4605567455291748 -0.11627906560897827
0.02325582504272461 0.4987752139568329 0.4418604373931885
0.02325582504272461 0.5286781191825867 -0.13178294897079468
0.02325582504272461 0.5681716799736023 0.42635655403137207
0.02325582504272461 0.6157854199409485 0.41085267066955566
0.02325582504272461 0.6526559591293335 0.39534878730773926
0.02325582504272461 0.6673696041107178 -0.14728683233261108
0.02325582504272461 0.6887400150299072 0.37984490394592285
0.02325582504272461 0.6933009028434753 -0.14728683233261108
0.02325582504272461 0.7201715707778931 0.364341139793396
0.02325582504272461 0.7515361309051514 -0.13178294897079468
0.02325582504272461 0.7460987567901611 0.3488372564315796
0.02325582504272461 0.7651171684265137 0.3333333730697632
0.02325582504272461 0.7779553532600403 -0.11627906560897827
0.02325582504272461 0.7811983227729797 0.3178294897079468
0.02325582504272461 0.7959111928939819 0.30232560634613037
0.02325582504272461 0.8095440864562988 0.28682172298431396
0.02325582318007946 0.8188208937644958 -0.10077518224716187
0.02325582504272461 0.8257391452789307 0.19379842281341553
0.02325582504272461 0.8245317935943604 0.20930230617523193
0.02325582504272461 0.8223360180854797 0.27131783962249756
0.02325582504272461 0.8387693166732788 -0.08527129888534546
0.02325582504272461 0.8440687656402588 0.16279065608978271
0.02325582504272461 0.8328482508659363 0.17829453945159912
0.02325582504272461 0.8383357524871826 0.22480618953704834
0.02325582504272461 0.8415737152099609 0.24031007289886475
0.02325582504272461 0.8328133225440979 0.25581395626068115
0.02325582504272461 0.849950909614563 -0.06976741552352905
0.02325582504272461 0.8596394658088684 -0.05426359176635742
0.02325582504272461 0.8506147861480713 0.1472867727279663
0.02325582504272461 0.8625814318656921 -0.038759708404541016
0.02325582504272461 0.8646881580352783 -0.02325582504272461
0.02325582504272461 0.8672997951507568 -0.007751941680908203
0.02325582504272461 0.8695695400238037 0.007751941680908203
0.02325582504272461 0.8713909983634949 0.02325582504272461
0.02325582504272461 0.8723174333572388 0.038759708404541016
0.02325582504272461 0.8727517127990723 0.05426359176635742
0.02325582504272461 0.8720378875732422 0.06976747512817383
0.02325582504272461 0.8701832294464111 0.08527135848999023
0.02325582504272461 0.8670841455459595 0.10077524185180664
0.02325582504272461 0.8632591366767883 0.11627912521362305
0.02325582690536976 0.8604940176010132 0.1317829042673111
0.038759708404541016 -0.9244874119758606 0.4418604373931885
0.038759708404541016 -0.92597895860672 0.4573643207550049
0.038759708404541016 -0.9175372123718262 0.4728682041168213
0.038759708404541016 -0.9045747518539429 0.4883720874786377
0.038759708404541016 -0.8783557415008545 0.42635655403137207
0.038759708404541016 -0.8885807394981384 0.5038759708404541
0.03875970467925072 -0.8739894032478333 0.5193798542022705
0.038759708404541016 -0.8640210032463074 0.5348837375640869
0.038759708404541016 -0.8549643754959106 0.5503876209259033
0.038759708404541016 -0.8485187888145447 0.5658915042877197
0.038759708404541016 -0.8436781167984009 0.42635655403137207
0.038759708404541016 -0.8414418697357178 0.5813953876495361
0.038759708404541016 -0.8314550518989563 0.5968992710113525
0.038759708404541016 -0.81477290391922 0.612403154373169
0.038759708404541016 -0.7877253293991089 0.4418604373931885
0.038759708404541016 -0.7932618260383606 0.6279069185256958
0.038759708404541016 -0.7721922397613525 0.6434108018875122
0.038759708404541016 -0.7595759630203247 0.4573643207550049
0.038759708404541016 -0.7528099417686462 0.6589146852493286
0.038759708404541016 -0.6815483570098877 0.4573643207550049
0.038759708404541016 -0.6623556017875671 0.674418568611145
0.038759708404541016 -0.6477424502372742 0.4418604373931885
0.038759708404541016 -0.6322745084762573 0.674418568611145
0.038759708404541016 -0.6208126544952393 0.42635655403137207
0.038759708404541016 -0.5978819131851196 0.41085267066955566
0.038759708404541016 -0.6079743504524231 0.6589146852493286
0.038759708404541016 -0.5677132606506348 0.37984490394592285
0.038759708404541016 -0.577029287815094 0.39534878730773926
0.038759708404541016 -0.5713955163955688 0.6434108018875122
0.038759708404541016 -0.5533122420310974 0.3333333730697632
0.038759708404541016 -0.5568289756774902 0.3488372564315796
0.038759708404541016 -0.560621440410614 0.364341139793396
0.038759708404541016 -0.5350381731987 0.25581395626068115
0.038759708404541016 -0.5392354726791382 0.27131783962249756
0.038759708404541016 -0.542219340801239 0.28682172298431396
0.038759708404541016 -0.5446339845657349 0.30232560634613037
0.038759708404541016 -0.5490840673446655 0.3178294897079468
0.038759708404541016 -0.5247644186019897 0.22480618953704834
0.038759708404541016 -0.5292949676513672 0.24031007289886475
0.038759708404541016 -0.5327732563018799 0.6279069185256958
0.038759708404541016 -0.5062901377677917 0.17829453945159912
0.038759708404541016 -0.5119853019714355 0.19379842281341553
0.038759708404541016 -0.5179718732833862 0.20930230617523193
0.038759708404541016 -0.48884809017181396 0.11627912521362305
0.038759708404541016 -0.4935449957847595 0.1317828893661499
0.038759708404541016 -0.49726057052612305 0.1472867727279663
0.038759708404541016 -0.5005761384963989 0.16279065608978271
0.038759708404541016 -0.47906994819641113 0.08527135848999023
0.038759708404541016 -0.4835754632949829 0.10077524185180664
0.038759708404541016 -0.4586101174354553 0.038759708404541016
0.038759708404541016 -0.46614933013916016 0.05426359176635742
0.038759708404541016 -0.4716847836971283 0.06976747512817383
0.038759708404541016 -0.46179473400115967 0.612403154373169
0.038759708404541016 -0.4425189793109894 0.007751941680908203
0.038759708404541016 -0.4513170123100281 0.02325582504272461
0.038759708404541016 -0.43097156286239624 -0.007751941680908203
0.038759708404541016 -0.428856760263443 0.5968992710113525
0.038759708404541016 -0.4142506718635559 -0.02325582504272461
0.038759708404541016 -0.3998420238494873 0.5813953876495361
0.038759708404541016 -0.3909194767475128 -0.038759708404541016
0.038759708404541016 -0.3659273684024811 -0.05426359176635742
0.038759708404541016 -0.37081456184387207 0.5658915042877197
0.038759708404541016 -0.3467004895210266 -0.06976741552352905
0.038759708404541016 -0.31926408410072327 -0.10077518224716187
0.038759708404541016 -0.33185139298439026 -0.08527129888534546
0.038759708404541016 -0.3069830536842346 -0.11627906560897827
0.03875970467925072 -0.3150666058063507 0.5503876209259033
0.038759708404541016 -0.29289501905441284 -0.13178294897079468
0.038759708404541016 -0.2737216651439667 -0.14728683233261108
0.038759708404541016 -0.2382357120513916 -0.1627907156944275
0.038759708404541016 -0.1832112967967987 0.5348837375640869
0.038759708404541016 -0.12814757227897644 -0.1627907156944275
0.03875970467925072 -0.11467718333005905 0.5193798542022705
0.038759708404541016 -0.04768660292029381 0.5038759708404541
0.038759708404541016 -0.01747160032391548 -0.14728683233261108
0.038759708404541016 0.016205932945013046 0.4883720874786377
0.038759708404541016 0.036886267364025116 -0.13178294897079468
0.038759708404541016 0.05799686163663864 0.16279065608978271
0.038759708404541016 0.056260786950588226 0.17829453945159912
0.038759708404541016 0.06895016133785248 0.19379842281341553
0.038759708404541016 0.07762812077999115 0.1472867727279663
0.038759708404541016 0.09880423545837402 0.20930230617523193
0.038759708404541016 0.1017129197716713 0.4728682041168213
0.038759708404541016 0.12080249190330505 0.1317828893661499
0.038759708404541016 0.12633824348449707 0.22480618953704834
0.038759708404541016 0.17242766916751862 -0.11627906560897827
0.038759708404541016 0.16337274014949799 0.11627912521362305
0.038759708404541016 0.16342684626579285 0.24031007289886475
0.038759708404541016 0.20837731659412384 0.10077524185180664
0.038759708404541016 0.21803605556488037 0.25581395626068115
0.038759708404541016 0.23184984922409058 -0.10077518224716187
0.038759708404541016 0.24016080796718597 0.4573643207550049
0.038759708404541016 0.24467527866363525 0.25581395626068115
0.038759708404541016 0.26048552989959717 -0.10077518224716187
0.038759708404541016 0.28669631481170654 0.24031007289886475
0.038759708404541016 0.28862640261650085 0.10077524185180664
0.038759708404541016 0.314931184053421 0.22480618953704834
0.038759708404541016 0.3194923996925354 0.11627912521362305
0.038759708404541016 0.3412359058856964 0.1317828893661499
0.038759708404541016 0.3379000723361969 0.20930230617523193
0.038759708404541016 0.35596656799316406 0.1472867727279663
0.038759708404541016 0.36355865001678467 0.17829453945159912
0.038759708404541016 0.3529717028141022 0.19379842281341553
0.03875970467925072 0.3656150996685028 0.16279065608978271
0.038759708404541016 0.4327022433280945 0.4418604373931885
0.038759708404541016 0.45584169030189514 -0.11627906560897827
0.038759708404541016 0.5239365696907043 -0.13178294897079468
0.038759708404541016 0.5344924926757812 0.42635655403137207
0.038759708404541016 0.5932967662811279 0.41085267066955566
0.038759708404541016 0.6414205431938171 -0.14728683233261108
0.038759708404541016 0.6347826719284058 0.39534878730773926
0.038759708404541016 0.6666617393493652 -0.1627907156944275
0.038759708404541016 0.670946478843689 0.37984490394592285
0.038759708404541016 0.6979053020477295 -0.1782945990562439
0.038759708404541016 0.70260089635849 0.364341139793396
0.038759708404541016 0.7265387773513794 -0.19379842281341553
0.038759708404541016 0.7292415499687195 0.3488372564315796
0.038759708404541016 0.7488725781440735 0.3333333730697632
0.038759708404541016 0.7651886940002441 0.3178294897079468
0.038759708404541016 0.7688823342323303 -0.19379842281341553
0.038759708404541016 0.7728954553604126 -0.1782945990562439
0.038759708404541016 0.7736949324607849 -0.1627907156944275
0.038759708404541016 0.7775756120681763 -0.14728683233261108
0.038759708404541016 0.779566764831543 0.30232560634613037
0.038759708404541016 0.7931166887283325 0.28682172298431396
0.038759708404541016 0.7996835708618164 -0.13178294897079468
0.038759708404541016 0.8051682114601135 0.27131783962249756
0.038759708404541016 0.823257565498352 -0.11627906560897827
0.038759708404541016 0.8217986822128296 0.24031007289886475
0.038759708404541016 0.8142186403274536 0.25581395626068115
0.038759708404541016 0.8409647345542908 -0.10077518224716187
0.038759708404541016 0.8371225595474243 0.19379842281341553
0.038759708404541016 0.8331001996994019 0.20930230617523193
0.038759708404541016 0.8300289511680603 0.22480618953704834
0.038759708404541016 0.8511450290679932 -0.08527129888534546
0.038759708404541016 0.8500438928604126 0.16279065608978271
0.03875970467925072 0.8452853560447693 0.17829453945159912
0.038759708404541016 0.8609599471092224 -0.06976741552352905
0.038759708404541016 0.8644046783447266 -0.05426358804106712
0.038759708404541016 0.8683781027793884 -0.038759708404541016
0.038759708404541016 0.8713078498840332 -0.02325582504272461
0.038759708404541016 0.8738428950309753 -0.007751941680908203
0.038759708404541016 0.8754268884658813 0.10077524185180664
0.038759708404541016 0.8696562051773071 0.11627912521362305
0.038759708404541016 0.8637836575508118 0.1317828893661499
0.038759708404541016 0.8604782223701477 0.1472867727279663
0.038759708404541016 0.8760236501693726 0.007751941215246916
0.038759708404541016 0.8767279386520386 0.02325582504272461
0.038759708404541016 0.8772097229957581 0.038759708404541016
0.038759708404541016 0.8774582147598267 0.05426359549164772
0.038759708404541016 0.8773648142814636 0.06976747512817383
0.038759708404541016 0.8768743872642517 0.08527135848999023
0.05426359176635742 -0.8485337495803833 0.4418604373931885
0.05426359176635742 -0.8588079810142517 0.4573643207550049
0.05426359176635742 -0.849529504776001 0.4728682041168213
0.05426359176635742 -0.8307287096977234 0.4883720874786377
0.05426359176635742 -0.8262382745742798 0.4418604373931885
0.05426359176635742 -0.8045916557312012 0.5038759708404541
0.05426359176635742 -0.7999317646026611 0.5193798542022705
0.05426359176635742 -0.8019724488258362 0.5348837375640869
0.05426359176635742 -0.805027425289154 0.5503876209259033
0.05426359176635742 -0.8065633773803711 0.5658915042877197
0.05426359176635742 -0.8059910535812378 0.5813953876495361
0.05426359176635742 -0.8026862144470215 0.5968992710113525
0.05426359176635742 -0.78993821144104 0.4573643207550049
0.05426359176635742 -0.7937017679214478 0.612403154373169
0.05426359176635742 -0.7790825366973877 0.4728682041168213
0.05426359176635742 -0.7805026769638062 0.6279069185256958
0.05426359176635742 -0.7659237384796143 0.4883720874786377
0.05426359549164772 -0.763536274433136 0.6434108018875122
0.05426359176635742 -0.7219105362892151 0.4883720874786377
0.05426359176635742 -0.7287120819091797 0.6589146852493286
0.05426359176635742 -0.6738197207450867 0.4728681743144989
0.05426359176635742 -0.6461173295974731 0.4573643207550049
0.05426359176635742 -0.6518413424491882 0.674418568611145
0.05426359176635742 -0.6328510046005249 0.6589146852493286
0.05426359176635742 -0.6410784721374512 0.674418568611145
0.05426359176635742 -0.6216903328895569 0.4418604373931885
0.05426359176635742 -0.6177080273628235 0.6434108018875122
0.05426359176635742 -0.6008321642875671 0.42635655403137207
0.05426359176635742 -0.5830057859420776 0.41085267066955566
0.05426359176635742 -0.5818505883216858 0.6279069185256958
0.05426359176635742 -0.5703645944595337 0.39534878730773926
0.05426359176635742 -0.5504193902015686 0.3333333730697632
0.05426359176635742 -0.5536953806877136 0.3488372564315796
0.05426359176635742 -0.557601809501648 0.364341139793396
0.05426359176635742 -0.5642902255058289 0.37984490394592285
0.05426359176635742 -0.5378841161727905 0.28682172298431396
0.05426359176635742 -0.5405194759368896 0.30232560634613037
0.05426359176635742 -0.5439512729644775 0.3178294897079468
0.05426359176635742 -0.5464280247688293 0.612403154373169
0.05426359176635742 -0.5251100063323975 0.24031007289886475
0.05426358804106712 -0.5292760133743286 0.25581395626068115
0.05426359176635742 -0.5345694422721863 0.27131780982017517
0.05426359176635742 -0.5058919191360474 0.19379842281341553
0.05426359176635742 -0.5123910903930664 0.20930230617523193
0.05426359176635742 -0.5184668302536011 0.22480618953704834
0.05426359176635742 -0.4906097948551178 0.1472867727279663
0.05426359176635742 -0.4953300952911377 0.16279065608978271
0.05426359176635742 -0.49914470314979553 0.17829453945159912
0.05426359176635742 -0.48949214816093445 0.5968992710113525
0.05426359176635742 -0.47635629773139954 0.10077524185180664
0.05426358804106712 -0.48190411925315857 0.11627912521362305
0.05426358804106712 -0.4854107201099396 0.1317828893661499
0.05426359176635742 -0.4641936421394348 0.06976747512817383
0.05426359176635742 -0.46916690468788147 0.08527135848999023
0.05426359176635742 -0.4494538903236389 0.038759708404541016
0.05426359176635742 -0.4556150734424591 0.05426359176635742
0.05426359176635742 -0.4482351541519165 0.5813953876495361
0.05426359176635742 -0.42988166213035583 0.007751941680908203
0.05426359176635742 -0.43961870670318604 0.02325582504272461
0.05426359176635742 -0.4144899249076843 -0.007751941680908203
0.05426359176635742 -0.41628021001815796 0.5658915042877197
0.05426359176635742 -0.39138472080230713 -0.02325582504272461
0.05426359176635742 -0.3830147981643677 0.5503876209259033
0.05426359176635742 -0.36821526288986206 -0.038759708404541016
0.05426359176635742 -0.34973248839378357 -0.05426359176635742
0.05426359176635742 -0.3356562554836273 -0.06976741552352905
0.05426359176635742 -0.32401156425476074 -0.08527129888534546
0.05426359176635742 -0.3024938702583313 -0.11627906560897827
0.05426359549164772 -0.31223317980766296 -0.10077518224716187
0.05426359176635742 -0.28942686319351196 -0.13178294897079468
0.05426359176635742 -0.29151812195777893 0.5348837375640869
0.05426359176635742 -0.27067863941192627 -0.14728683233261108
0.05426359176635742 -0.2300170660018921 -0.1627907156944275
0.05426359176635742 -0.14404606819152832 0.5193798542022705
0.05426359176635742 -0.13063132762908936 -0.1627907156944275
0.05426359176635742 -0.07397036999464035 0.5038759708404541
0.05426359176635742 -0.0013606669381260872 -0.14728683233261108
0.05426359176635742 -0.007197892293334007 0.4883720874786377
0.05426359176635742 0.0534311942756176 -0.13178294897079468
0.05426359176635742 0.06452491879463196 0.16279065608978271
0.05426359176635742 0.06261475384235382 0.17829453945159912
0.05426359176635742 0.06444595754146576 0.4728682041168213
0.05426359176635742 0.08511819690465927 0.1472867727279663
0.05426359176635742 0.07698031514883041 0.19379842281341553
0.05426359176635742 0.10281066596508026 0.20930230617523193
0.05426359176635742 0.12201561778783798 0.1317828893661499
0.05426359176635742 0.12574553489685059 0.22480618953704834
0.05426359176635742 0.15696850419044495 0.11627912521362305
0.05426359176635742 0.15327170491218567 0.24031007289886475
0.05426359176635742 0.19274933636188507 -0.11627906560897827
0.05426359176635742 0.192514568567276 0.4573643207550049
0.05426359176635742 0.2011331468820572 0.10077524185180664
0.05426359176635742 0.20168885588645935 0.25581395626068115
0.05426359176635742 0.2475617229938507 0.25581395626068115
0.05426359176635742 0.28582850098609924 0.24031007289886475
0.05426359176635742 0.2884407341480255 0.10077524185180664
0.05426359176635742 0.3173753619194031 0.11627912521362305
0.05426359176635742 0.31343331933021545 0.22480618953704834
0.05426359176635742 0.3200899362564087 -0.11627906560897827
0.05426359176635742 0.3404814600944519 0.1317828893661499
0.05426359176635742 0.3357008397579193 0.20930230617523193
0.05426359176635742 0.3549727499485016 0.1472867727279663
0.05426359176635742 0.3632964789867401 0.16279065608978271
0.05426359176635742 0.3606244921684265 0.17829453945159912
0.05426359549164772 0.34984830021858215 0.19379842281341553
0.05426359176635742 0.38800275325775146 0.4418604373931885
0.05426359176635742 0.491776704788208 0.42635655403137207
0.05426359176635742 0.5182043313980103 -0.13178294897079468
0.05426359176635742 0.5722255706787109 0.41085267066955566
0.05426359176635742 0.619041919708252 0.39534878730773926
0.05426359176635742 0.6295735239982605 -0.14728683233261108
0.05426359176635742 0.6514406204223633 -0.1627907156944275
0.05426359176635742 0.6554537415504456 0.37984490394592285
0.05426359176635742 0.6674059629440308 -0.1782945990562439
0.05426359176635742 0.6864293813705444 -0.19379842281341553
0.05426359176635742 0.6878202557563782 0.364341139793396
0.05426359176635742 0.7111170291900635 -0.20930230617523193
0.05426359176635742 0.7145740389823914 0.3488372564315796
0.05426359176635742 0.734963595867157 -0.22480618953704834
0.05426359176635742 0.735069751739502 0.3333333730697632
0.05426359176635742 0.7666751742362976 0.30232560634613037
0.05426358804106712 0.7529111504554749 0.3178294599056244
0.05426359176635742 0.773798942565918 -0.22480618953704834
0.05426359176635742 0.7801320552825928 0.28682172298431396
0.05426359176635742 0.7904608249664307 -0.20930230617523193
0.05426359176635742 0.7934489250183105 0.27131783962249756
0.05426359176635742 0.7995737195014954 -0.19379843771457672
0.05426359549164772 0.8027098178863525 -0.1782945990562439
0.05426359176635742 0.8067845106124878 -0.1627907156944275
0.05426359176635742 0.8057972192764282 0.25581395626068115
0.05426359176635742 0.8157907724380493 -0.14728683233261108
0.05426358804106712 0.8171760439872742 0.24031007289886475
0.05426359176635742 0.8298270106315613 -0.13178294897079468
0.05426359176635742 0.8434343338012695 -0.11627906560897827
0.05426359176635742 0.8381609916687012 0.20930230617523193
0.05426359176635742 0.8296652436256409 0.22480618953704834
0.05426359176635742 0.851809561252594 -0.10077518224716187
0.05426359176635742 0.8573865294456482 0.16279065608978271
0.05426359176635742 0.8494401574134827 0.17829453945159912
0.05426359176635742 0.8462336659431458 0.19379842281341553
0.05426359176635742 0.8609580397605896 -0.08527129888534546
0.05426359176635742 0.8644119501113892 -0.06976741552352905
0.05426359176635742 0.868923544883728 -0.05426359176635742
0.05426359176635742 0.8718781471252441 -0.038759708404541016
0.05426359176635742 0.8735448122024536 -0.02325582504272461
0.05426359176635742 0.8755102157592773 -0.007751941680908203
0.05426359176635742 0.8753147721290588 0.11627912521362305
0.05426359176635742 0.8679701089859009 0.1317828893661499
0.05426359176635742 0.8624789118766785 0.1472867727279663
0.05426359176635742 0.8764857053756714 0.007751941680908203
0.05426359176635742 0.8772590756416321 0.02325582690536976
0.05426359176635742 0.8779784440994263 0.038759708404541016
0.05426359176635742 0.8784416913986206 0.05426359176635742
0.05426359176635742 0.8785243034362793 0.06976747512817383
0.05426359176635742 0.8780703544616699 0.08527135848999023
0.05426359176635742 0.8772869110107422 0.10077524185180664
0.06976747512817383 -0.768775224685669 0.5968992710113525
0.06976747512817383 -0.7583004832267761 0.5658915042877197
0.06976747512817383 -0.7658547163009644 0.5813953876495361
0.06976747512817383 -0.7656168341636658 0.612403154373169
0.06976747512817383 -0.7565889954566956 0.6279069185256958
0.06976747512817383 -0.7480876445770264 0.5503876209259033
0.06976747512817383 -0.7387501001358032 0.6434108018875122
0.06976747512817383 -0.7431020736694336 0.7054263353347778
0.06976747512817383 -0.7431071996688843 0.7209302186965942
0.06976747512817383 -0.739980936050415 0.7364341020584106
0.06976747512817383 -0.7296593189239502 0.5348837375640869
0.06976747512817383 -0.7320088148117065 0.7054263353347778
0.06976747512817383 -0.7271196842193604 0.7209302186965942
0.06976747512817383 -0.7293641567230225 0.7364341020584106
0.06976747512817383 -0.6925181150436401 0.5193798542022705
0.06976747512817383 -0.6657352447509766 0.5038759708404541
0.06976747512817383 -0.6477401256561279 0.4883720874786377
0.06976747512817383 -0.630315899848938 0.4728682041168213
0.06976747512817383 -0.6281375885009766 0.6279069185256958
0.06976747512817383 -0.6419336795806885 0.6434108018875122
0.06976747512817383 -0.6129726767539978 0.4573643207550049
0.06976747512817383 -0.6052375435829163 0.612403154373169
0.06976747512817383 -0.5960035920143127 0.4418604373931885
0.06976747512817383 -0.5699177980422974 0.41085267066955566
0.06976747512817383 -0.5813935995101929 0.42635655403137207
0.06976747512817383 -0.5759164094924927 0.5968992710113525
0.06976747512817383 -0.5506822466850281 0.3488372564315796
0.06976747512817383 -0.5536604523658752 0.364341139793396
0.06976747512817383 -0.5578648447990417 0.37984490394592285
0.06976747512817383 -0.5636472702026367 0.39534878730773926
0.06976747512817383 -0.535705029964447 0.30232560634613037
0.06976747512817383 -0.5392577052116394 0.3178294897079468
0.06976747512817383 -0.5438275337219238 0.3333333730697632
0.06976747512817383 -0.5465365648269653 0.5813953876495361
0.06976747512817383 -0.5240885019302368 0.25581395626068115
0.06976747512817383 -0.5277371406555176 0.27131783962249756
0.06976747512817383 -0.5310586094856262 0.28682172298431396
0.06976747512817383 -0.5062755346298218 0.20930230617523193
0.06976747512817383 -0.5123193264007568 0.22480618953704834
0.06976747512817383 -0.5178045034408569 0.24031007289886475
0.06976747512817383 -0.49348846077919006 0.17829453945159912
0.06976747512817383 -0.49850308895111084 0.19379842281341553
0.06976747512817383 -0.47321951389312744 0.11627912521362305
0.06976747512817383 -0.4790436029434204 0.1317828893661499
0.06976747512817383 -0.48305627703666687 0.1472867727279663
0.06976747512817383 -0.4875669777393341 0.16279065608978271
0.06976747512817383 -0.48115575313568115 0.5658915042877197
0.06976747512817383 -0.4614483118057251 0.08527135848999023
0.06976747512817383 -0.4674115777015686 0.10077524185180664
0.06976747512817383 -0.4473966956138611 0.05426359176635742
0.06976747512817383 -0.45354893803596497 0.06976747512817383
0.06976747512817383 -0.42841076850891113 0.02325582504272461
0.06976747512817383 -0.4379141628742218 0.038759708404541016
0.06976747512817383 -0.44015687704086304 0.5503876209259033
0.06976747512817383 -0.4146798849105835 0.007751941680908203
0.06976747512817383 -0.40350422263145447 0.5348837375640869
0.06976747512817383 -0.39258524775505066 -0.007751941680908203
0.06976747512817383 -0.3682772219181061 -0.02325582504272461
0.06976747512817383 -0.35137584805488586 -0.038759708404541016
0.06976748257875443 -0.3635745942592621 0.5193798542022705
0.06976747512817383 -0.337814599275589 -0.05426359176635742
0.06976747512817383 -0.32601994276046753 -0.06976741552352905
0.06976747512817383 -0.3077116310596466 -0.10077518224716187
0.06976747512817383 -0.3155295252799988 -0.08527129888534546
0.06976747512817383 -0.2972092926502228 -0.11627906560897827
0.06976747512817383 -0.2864673137664795 -0.13178296387195587
0.06976747512817383 -0.2670467495918274 -0.14728683233261108
0.06976747512817383 -0.24389562010765076 0.5193798542022705
0.06976747512817383 -0.23077787458896637 -0.1627907156944275
0.06976747512817383 -0.19801820814609528 0.5193798542022705
0.06976747512817383 -0.10732478648424149 0.5038759708404541
0.06976747512817383 -0.08552416414022446 -0.1627907156944275
0.06976747512817383 -0.037240058183670044 0.4883720874786377
0.06976747512817383 0.020610056817531586 -0.14728683233261108
0.06976747512817383 0.028753988444805145 0.4728682041168213
0.06976747512817383 0.09306329488754272 -0.13178294897079468
0.06976747512817383 0.11144772171974182 0.16279065608978271
0.06976747512817383 0.10887541621923447 0.17829453945159912
0.06976747512817383 0.13099685311317444 0.1472867727279663
0.06976747512817383 0.12430883944034576 0.19379842281341553
0.06976747512817383 0.13854941725730896 0.20930230617523193
0.06976747512817383 0.13640889525413513 0.4573642909526825
0.06976747512817383 0.15423564612865448 0.1317828893661499
0.06976747512817383 0.1544804722070694 0.22480618953704834
0.06976747512817383 0.1879282295703888 0.11627912521362305
0.06976747512817383 0.18209975957870483 0.24031007289886475
0.06976747512817383 0.23651084303855896 0.10077524185180664
0.06976748257875443 0.2558167576789856 0.10077524185180664
0.06976747512817383 0.2629314661026001 0.24031008780002594
0.06976747512817383 0.2925671339035034 0.11627912521362305
0.06976747512817383 0.29270413517951965 0.22480618953704834
0.06976747512817383 0.29246002435684204 0.4418604373931885
0.06976747512817383 0.31241753697395325 0.1317828893661499
0.06976747512817383 0.3124026358127594 0.20930230617523193
0.06976747512817383 0.32921767234802246 0.1472867727279663
0.06976747512817383 0.3272455930709839 0.19379842281341553
0.06976747512817383 0.3393174409866333 0.16279065608978271
0.06976747512817383 0.3373250365257263 0.17829453945159912
0.06976747512817383 0.4395136833190918 0.42635655403137207
0.06976747512817383 0.4990420341491699 -0.13178294897079468
0.06976747512817383 0.5417600274085999 0.41085267066955566
0.06976747512817383 0.6009839177131653 0.39534878730773926
0.06976747512817383 0.6214845180511475 -0.14728683233261108
0.06976747512817383 0.6391672492027283 0.37984490394592285
0.06976747512817383 0.6587018370628357 -0.1782945990562439
0.06976747512817383 0.6454423666000366 -0.1627907156944275
0.06976747512817383 0.6739262938499451 -0.19379842281341553
0.06976747512817383 0.6727786064147949 0.364341139793396
0.06976747512817383 0.6934343576431274 -0.20930230617523193
0.06976747512817383 0.7009549140930176 0.3488372564315796
0.06976747512817383 0.7141773104667664 -0.22480618953704834
0.06976747512817383 0.7342915534973145 -0.24031007289886475
0.06976747512817383 0.7248187065124512 0.3333333730697632
0.06976747512817383 0.7428107857704163 0.3178294897079468
0.06976747512817383 0.7578961849212646 0.30232560634613037
0.06976747512817383 0.7824646830558777 0.27131783962249756
0.06976747512817383 0.7708873152732849 0.28682172298431396
0.06976747512817383 0.7938578128814697 -0.24031007289886475
0.06976747512817383 0.7958230972290039 0.25581395626068115
0.06976747512817383 0.8111637234687805 -0.22480618953704834
0.06976747512817383 0.808958113193512 0.24031007289886475
0.06976747512817383 0.8192135095596313 -0.20930230617523193
0.06976747512817383 0.8225893974304199 -0.19379842281341553
0.06976747512817383 0.8245671391487122 -0.1782945990562439
0.06976747512817383 0.8214257955551147 0.22480618953704834
0.06976748257875443 0.8294785022735596 -0.1627907156944275
0.06976747512817383 0.8331897258758545 -0.14728683233261108
0.06976747512817383 0.8443156480789185 0.19379842281341553
0.06976747512817383 0.8333806991577148 0.20930229127407074
0.06976748257875443 0.8451886177062988 -0.13178294897079468
0.06976747512817383 0.8520350456237793 -0.11627906560897827
0.06976747512817383 0.8562253713607788 0.16279065608978271
0.06976747512817383 0.8487788438796997 0.17829453945159912
0.06976747512817383 0.8604974746704102 -0.10077518224716187
0.06976747512817383 0.8629912734031677 -0.08527129888534546
0.06976747512817383 0.8664275407791138 -0.06976741552352905
0.06976747512817383 0.8695405721664429 -0.05426359176635742
0.06976747512817383 0.8712243437767029 -0.038759708404541016
0.06976747512817383 0.872092068195343 -0.02325582504272461
0.06976747512817383 0.8732481002807617 -0.007751941680908203
0.06976747512817383 0.8742771744728088 0.007751941680908203
0.06976747512817383 0.8756123781204224 0.02325582504272461
0.06976747512817383 0.8734191060066223 0.11627912521362305
0.06976747512817383 0.8668621778488159 0.1317828893661499
0.06976747512817383 0.8623049855232239 0.1472867727279663
0.06976747512817383 0.8764529228210449 0.038759712129831314
0.06976747512817383 0.8770042657852173 0.05426359176635742
0.06976747512817383 0.8773826360702515 0.06976747512817383
0.06976747512817383 0.8772222995758057 0.08527135848999023
0.06976747512817383 0.8766294121742249 0.10077524185180664
0.08527135848999023 -0.7371598482131958 0.7364341020584106
0.08527135848999023 -0.7366732954978943 0.751937985420227
0.08527135848999023 -0.7233996987342834 0.7364341020584106
0.08527135848999023 -0.7263587713241577 0.7674418687820435
0.08527135848999023 -0.7089880108833313 0.5968992710113525
0.08527135848999023 -0.7122855186462402 0.612403154373169
0.08527135848999023 -0.71515953540802 0.751937985420227
0.08527135848999023 -0.7112741470336914 0.7674418687820435
0.08527135848999023 -0.6940324902534485 0.5813953876495361
0.08527135848999023 -0.6798686981201172 0.612403154373169
0.08527135848999023 -0.671414315700531 0.5813953876495361
0.08527135848999023 -0.666259765625 0.5968992710113525
0.08527135848999023 -0.5891591310501099 0.5038759708404541
0.08527135848999023 -0.5923142433166504 0.5193798542022705
0.08527135848999023 -0.5835928916931152 0.5348837375640869
0.08527135848999023 -0.5665726661682129 0.4573643207550049
0.08527135848999023 -0.5732501745223999 0.4728682041168213
0.08527135848999023 -0.5807622075080872 0.4883721172809601
0.08527135848999023 -0.5506716370582581 0.37984490394592285
0.08527135848999023 -0.5525975227355957 0.39534878730773926
0.08527135848999023 -0.5552761554718018 0.41085267066955566
0.08527135848999023 -0.558219313621521 0.42635655403137207
0.08527135848999023 -0.5625048279762268 0.4418604373931885
0.08527135848999023 -0.5372217893600464 0.3333333730697632
0.08527135848999023 -0.541873574256897 0.3488372564315796
0.08527135848999023 -0.5457161068916321 0.3643411695957184
0.08527135848999023 -0.5199662446975708 0.27131783962249756
0.08527135848999023 -0.5232465267181396 0.28682172298431396
0.08527135848999023 -0.5265295505523682 0.30232560634613037
0.08527135848999023 -0.5315467119216919 0.3178294897079468
0.08527135848999023 -0.5057106614112854 0.22480618953704834
0.08527135848999023 -0.5109977126121521 0.24031007289886475
0.08527135848999023 -0.5143985152244568 0.25581395626068115
0.08527135848999023 -0.49244922399520874 0.19379842281341553
0.08527135848999023 -0.4981640577316284 0.20930230617523193
0.08527135848999023 -0.4951484799385071 0.5348837375640869
0.08527135848999023 -0.47557780146598816 0.1472867727279663
0.08527135848999023 -0.4805726110935211 0.16279065608978271
0.08527135848999023 -0.48496395349502563 0.17829453945159912
0.08527135848999023 -0.4588964879512787 0.10077524185180664
0.08527135848999023 -0.4654559791088104 0.11627912521362305
0.08527135848999023 -0.46985384821891785 0.1317828893661499
0.08527135848999023 -0.44541510939598083 0.06976747512817383
0.08527135848999023 -0.45184892416000366 0.08527135848999023
0.08527135848999023 -0.4461255669593811 0.5193798542022705
0.08527135848999023 -0.42682772874832153 0.038759708404541016
0.08527135848999023 -0.4364067316055298 0.05426359176635742
0.08527135848999023 -0.41325801610946655 0.02325582504272461
0.08527135848999023 -0.4160509705543518 0.5038759708404541
0.08527135848999023 -0.39145398139953613 0.007751941680908203
0.08527135848999023 -0.38957932591438293 0.4883720874786377
0.08527135848999023 -0.36711183190345764 -0.007751941680908203
0.08527135848999023 -0.35007497668266296 -0.02325582504272461
0.08527135848999023 -0.3379476070404053 -0.038759708404541016
0.08527135848999023 -0.3263751268386841 -0.05426359176635742
0.08527135848999023 -0.3093091547489166 -0.08527129888534546
0.08527135848999023 -0.3163948953151703 -0.06976741552352905
0.08527135848999023 -0.293188214302063 -0.11627906560897827
0.08527136594057083 -0.3021365702152252 -0.10077518969774246
0.08527135848999023 -0.2812235355377197 -0.13178294897079468
0.08527135848999023 -0.27757591009140015 0.4883720874786377
0.08527135848999023 -0.2688145637512207 -0.7829457521438599
0.08527135848999023 -0.2634085416793823 -0.14728683233261108
0.08527135848999023 -0.23075535893440247 -0.7674418687820435
0.08527135848999023 -0.23397892713546753 -0.1627907156944275
0.08527135848999023 -0.21417361497879028 -0.7829457521438599
0.08527135848999023 -0.20995613932609558 -0.1782945990562439
0.08527135848999023 -0.2044024020433426 -0.7674418687820435
0.08527135848999023 -0.19707603752613068 0.5038759708404541
0.08527135848999023 -0.1655152291059494 -0.1782945990562439
0.08527135848999023 -0.161929190158844 0.5038759708404541
0.08527135848999023 -0.07189039885997772 0.4883720874786377
0.08527135848999023 -0.02479906752705574 -0.1627907156944275
0.08527135848999023 -0.006777497474104166 0.4728682339191437
0.08527136594057083 0.040373776108026505 -0.14728683233261108
0.08527135848999023 0.06278403103351593 0.4573643207550049
0.08527135848999023 0.15994232892990112 0.16279065608978271
0.08527135848999023 0.15840519964694977 0.17829453945159912
0.08527135848999023 0.17744235694408417 0.1472867727279663
0.08527135848999023 0.17260600626468658 0.19379842281341553
0.08527135848999023 0.18565097451210022 -0.13178294897079468
0.08527135848999023 0.18569107353687286 0.20930230617523193
0.08527135848999023 0.18902984261512756 0.4418604373931885
0.08527135848999023 0.20160141587257385 0.1317828893661499
0.08527135848999023 0.20673950016498566 0.22480618953704834
0.08527135848999023 0.25442206859588623 0.22480618953704834
0.08527135103940964 0.2733333706855774 0.1317828893661499
0.08527135848999023 0.27955594658851624 0.20930230617523193
0.08527135848999023 0.29056787490844727 0.1472867727279663
0.08527135848999023 0.3005407750606537 0.16279065608978271
0.08527135848999023 0.3004967272281647 0.17829453945159912
0.08527135848999023 0.2925925850868225 0.19379842281341553
0.08527135848999023 0.3854460120201111 0.42635655403137207
0.08527135848999023 0.4808848202228546 -0.13178294897079468
0.08527135848999023 0.49340540170669556 0.41085267066955566
0.08527135848999023 0.5745332837104797 0.39534878730773926
0.08527135848999023 0.5859118700027466 -0.14728683233261108
