-0.007751941680908203 -0.07653983682394028 -0.7209302186965942
-0.007751941680908203 -0.07613103091716766 -0.7054263353347778
-0.007751941680908203 -0.07563948631286621 -0.6899224519729614
-0.007751941680908203 -0.07515805959701538 -0.674418568611145
-0.007751941680908203 -0.07468646764755249 -0.6589146852493286
-0.007751941680908203 -0.07421721518039703 -0.643410861492157
-0.007751941680908203 -0.07375432550907135 -0.6279069781303406
-0.007751941680908203 -0.07334037870168686 -0.6124030947685242
-0.007751941680908203 -0.07285851240158081 -0.5968992114067078
-0.007751941680908203 -0.07242023944854736 -0.5813953876495361
-0.007751941680908203 -0.07199332118034363 -0.5658915042877197
-0.007751941680908203 -0.07158908993005753 -0.5503876209259033
-0.007751941680908203 -0.07134159654378891 -0.5348837375640869
-0.007751941680908203 -0.07108500599861145 -0.5193798542022705
-0.007751941680908203 -0.0708693265914917 -0.5038759708404541
-0.007751941680908203 -0.07063309103250504 -0.4883720874786377
-0.007751941680908203 -0.07034356147050858 -0.4728682041168213
-0.007751941680908203 -0.07003331184387207 -0.4573643207550049
-0.007751941680908203 -0.06982658058404922 -0.4418604373931885
-0.007751941680908203 -0.0674290582537651 -0.9534883499145508
-0.007751941680908203 -0.0690833330154419 -0.42635661363601685
-0.00775194214656949 -0.06826784461736679 -0.4108527600765228
-0.007751941680908203 -0.06761181354522705 -0.39534884691238403
-0.007751941680908203 -0.06701517105102539 -0.3798449635505676
-0.00775194214656949 -0.06652034819126129 -0.3643410801887512
-0.007751941680908203 -0.06624792516231537 -0.3488371968269348
-0.007751941680908203 -0.06613949686288834 -0.3333333134651184
-0.007751941680908203 -0.06596200168132782 -0.317829430103302
-0.007751941680908203 -0.0660419836640358 -0.30232560634613037
-0.007751941680908203 -0.0659315288066864 -0.28682172298431396
-0.007751941680908203 -0.06602759659290314 -0.27131783962249756
-0.007751941680908203 -0.06611976027488708 -0.25581395626068115
-0.00775194214656949 -0.0662638247013092 -0.24031008780002594
-0.007751941680908203 -0.06643390655517578 -0.22480618953704834
-0.007751941680908203 -0.06661095470190048 -0.20930230617523193
-0.007751941680908203 -0.0666985958814621 -0.19379842281341553
-0.007751941680908203 -0.06671486794948578 -0.1782945990562439
-0.00775194214656949 -0.06683865934610367 -0.16279073059558868
-0.007751941680908203 -0.06685593724250793 -0.14728683233261108
-0.007751941680908203 -0.06690169125795364 -0.13178294897079468
-0.007751941680908203 -0.06686554849147797 -0.11627906560897827
-0.007751941215246916 -0.06684016436338425 -0.10077518224716187
-0.007751941680908203 -0.06673623621463776 -0.08527129888534546
-0.007751941680908203 -0.06667230278253555 -0.06976741552352905
-0.007751941680908203 -0.06671927869319916 -0.05426359176635742
-0.007751941680908203 -0.06670740991830826 -0.038759708404541016
-0.007751941680908203 -0.0665520653128624 -0.02325582504272461
-0.00775194214656949 -0.0664229691028595 -0.00775194214656949
-0.007751941215246916 -0.06616417318582535 0.007751941215246916
-0.007751941680908203 -0.06598354130983353 0.02325582504272461
-0.007751941680908203 -0.06594230234622955 0.038759708404541016
-0.007751941680908203 -0.06594593822956085 0.05426359549164772
-0.007751941680908203 -0.06594649702310562 0.06976747512817383
-0.007751941680908203 -0.0658157542347908 0.08527135848999023
-0.007751941680908203 -0.06569371372461319 0.10077523440122604
-0.007751941680908203 -0.06559429317712784 0.11627912521362305
-0.007751941680908203 -0.06550215929746628 0.1317828893661499
-0.007751941680908203 -0.06537940353155136 0.1472867727279663
-0.007751941680908203 -0.06526422500610352 0.16279065608978271
-0.007751941680908203 -0.06505409628152847 0.17829453945159912
-0.00775194214656949 -0.06503397226333618 0.19379842281341553
-0.007751941680908203 -0.0650603324174881 0.20930230617523193
-0.007751941680908203 -0.06496815383434296 0.22480618953704834
-0.00775194214656949 -0.06509919464588165 0.24031007289886475
-0.007751941680908203 -0.06534429639577866 0.25581395626068115
-0.007751941680908203 -0.06541432440280914 0.27131783962249756
-0.007751941680908203 -0.06546291708946228 0.28682172298431396
-0.007751941680908203 -0.06540395319461823 0.30232560634613037
-0.007751941680908203 -0.06535449624061584 0.3178294897079468
-0.007751941680908203 -0.06527705490589142 0.3333333730697632
-0.007751941215246916 -0.06486818194389343 0.3488372564315796
-0.007751941680908203 -0.0643603503704071 0.364341139793396
-0.007751941680908203 -0.06349096447229385 0.37984490394592285
-0.007751941680908203 -0.062236785888671875 0.39534878730773926
-0.007751941680908203 -0.06112783029675484 0.41085267066955566
-0.007751941680908203 -0.060981567949056625 0.42635655403137207
-0.007751941680908203 -0.06047116965055466 0.4418604373931885
-0.00775194214656949 -0.06514794379472733 0.4573643207550049
-0.007751941680908203 -0.05294789373874664 -0.968992292881012
-0.007751941680908203 -0.033036135137081146 -0.9844961762428284
-0.007751941680908203 0.031162219122052193 -0.9844961166381836
-0.007751941680908203 0.052473071962594986 -0.9689922332763672
-0.007751941680908203 0.06513045728206635 -0.9534883499145508
-0.007751941680908203 0.06931474059820175 -0.5503876209259033
-0.007751941680908203 0.0689040943980217 -0.5348837375640869
-0.007751941680908203 0.06862402707338333 -0.5193798542022705
-0.007751941680908203 0.06835225969552994 -0.5038759708404541
-0.007751941680908203 0.06815332919359207 -0.4883720874786377
-0.007751941680908203 0.06789267063140869 -0.4728682041168213
-0.007751941680908203 0.0674695074558258 -0.4573643207550049
-0.007751941680908203 0.06698533147573471 -0.4418604373931885
-0.007751941680908203 0.06629756093025208 -0.42635661363601685
-0.007751941680908203 0.06562349945306778 -0.41085273027420044
-0.007751941680908203 0.06502866744995117 -0.39534884691238403
-0.007751941680908203 0.06439526379108429 -0.3798449635505676
-0.007751941680908203 0.06394753605127335 -0.3643410801887512
-0.007751941680908203 0.06362982094287872 -0.3488371968269348
-0.007751941680908203 0.06336221843957901 -0.3333333134651184
-0.007751941680908203 0.06301417946815491 -0.317829430103302
-0.007751941680908203 0.06289422512054443 -0.30232560634613037
-0.007751941680908203 0.06280068308115005 -0.28682172298431396
-0.007751941680908203 0.06279060244560242 -0.27131783962249756
-0.007751941680908203 0.06294204294681549 -0.25581395626068115
-0.007751941680908203 0.0631425604224205 -0.24031007289886475
-0.007751941680908203 0.06335457414388657 -0.22480618953704834
-0.007751941680908203 0.06349118798971176 -0.20930230617523193
-0.007751941680908203 0.06361640989780426 -0.19379842281341553
-0.007751941680908203 0.06366784125566483 -0.1782945990562439
-0.007751941680908203 0.06377275288105011 -0.1627907156944275
-0.007751941680908203 0.06398377567529678 -0.14728683233261108
-0.007751941680908203 0.06419387459754944 -0.13178294897079468
-0.007751941680908203 0.0644412562251091 -0.11627906560897827
-0.007751941680908203 0.06472417712211609 -0.10077518224716187
-0.007751941680908203 0.0649421364068985 -0.08527129888534546
-0.007751941680908203 0.06515275686979294 -0.06976741552352905
-0.007751941680908203 0.06540503352880478 -0.05426359176635742
-0.007751941680908203 0.0655885562300682 -0.038759708404541016
-0.007751941680908203 0.06553852558135986 -0.02325582504272461
-0.007751941680908203 0.06552131474018097 -0.007751941680908203
-0.007751941680908203 0.06532951444387436 0.007751941680908203
-0.007751941680908203 0.06510184705257416 0.02325582504272461
-0.007751941680908203 0.06491215527057648 0.038759708404541016
-0.007751941680908203 0.06485633552074432 0.05426359176635742
-0.007751941680908203 0.06489972770214081 0.06976747512817383
-0.007751941680908203 0.06495314091444016 0.08527135848999023
-0.007751941680908203 0.0651012659072876 0.10077524185180664
-0.007751941680908203 0.06510867178440094 0.11627912521362305
-0.007751941680908203 0.06519574671983719 0.1317828893661499
-0.007751941680908203 0.0652264654636383 0.1472867727279663
-0.007751941680908203 0.06510737538337708 0.16279065608978271
-0.007751941680908203 0.06476523727178574 0.17829453945159912
-0.007751941680908203 0.06428395211696625 0.19379842281341553
-0.007751941680908203 0.06385765969753265 0.20930230617523193
-0.007751941680908203 0.06327707320451736 0.22480618953704834
-0.007751941680908203 0.06302409619092941 0.24031007289886475
-0.007751941680908203 0.06309385597705841 0.25581395626068115
-0.007751941680908203 0.06339462101459503 0.27131783962249756
-0.007751941680908203 0.06392475962638855 0.28682172298431396
-0.007751941680908203 0.06440836191177368 0.30232560634613037
-0.007751941680908203 0.06496942043304443 0.3178294897079468
-0.007751941680908203 0.06529766321182251 0.3333333730697632
-0.007751941680908203 0.06541328132152557 0.3488372564315796
-0.007751941680908203 0.06555139273405075 0.364341139793396
-0.007751941680908203 0.06520427018404007 0.37984490394592285
-0.007751941680908203 0.06435893476009369 0.39534878730773926
-0.007751941680908203 0.06341834366321564 0.41085267066955566
-0.007751941680908203 0.06288578361272812 0.42635655403137207
-0.007751941680908203 0.06217614561319351 0.4418604373931885
-0.007751941680908203 0.06544158607721329 0.4573643207550049
-0.007751941680908203 0.07382579147815704 -0.9379844665527344
-0.007751941680908203 0.07755926251411438 -0.9224806427955627
-0.007751941680908203 0.0788668841123581 -0.9069767594337463
-0.007751941680908203 0.07844825088977814 -0.8914728760719299
-0.007751941680908203 0.07777224481105804 -0.8759689927101135
-0.007751941680908203 0.07705716043710709 -0.8604651093482971
-0.007751941680908203 0.07639112323522568 -0.8449612259864807
-0.007751941680908203 0.07596136629581451 -0.8294573426246643
-0.007751941680908203 0.07555867731571198 -0.8139535188674927
-0.007751941680908203 0.07521343976259232 -0.7984496355056763
-0.007751941680908203 0.07482172548770905 -0.7829457521438599
-0.007751941680908203 0.07433166354894638 -0.7674418687820435
-0.007751941680908203 0.0739436149597168 -0.751937985420227
-0.00775194214656949 0.07356816530227661 -0.7364341020584106
-0.007751941680908203 0.0730932354927063 -0.7209302186965942
-0.007751941680908203 0.0726805329322815 -0.7054263353347778
-0.007751941680908203 0.0724228173494339 -0.6899224519729614
-0.007751941215246916 0.07209567725658417 -0.6744185090065002
-0.007751941680908203 0.07168710231781006 -0.6589146852493286
-0.007751941680908203 0.07136344164609909 -0.643410861492157
-0.007751941215246916 0.07105947285890579 -0.6279069185256958
-0.007751941680908203 0.07072345167398453 -0.6124030947685242
-0.007751941680908203 0.07038106769323349 -0.5968992114067078
-0.00775194214656949 0.07016691565513611 -0.5813953876495361
-0.007751941680908203 0.06989400088787079 -0.5658915042877197
-0.007751941680908203 0.08242975175380707 0.4728682041168213
-0.007751941680908203 0.2214551866054535 0.4883720874786377
-0.007751941680908203 0.2180105298757553 0.9844961166381836
-0.00775194214656949 0.2423611730337143 0.9689922332763672
-0.007751941680908203 0.26069992780685425 0.5038759708404541
-0.007751941680908203 0.2648632228374481 0.5193798542022705
-0.007751941680908203 0.2648705244064331 0.5348837375640869
-0.007751941680908203 0.26448196172714233 0.5503876209259033
-0.007751941680908203 0.2646195888519287 0.5658915042877197
-0.007751941680908203 0.2648383378982544 0.5813953876495361
-0.007751941680908203 0.26504144072532654 0.5968992710113525
-0.007751941680908203 0.26523634791374207 0.612403154373169
-0.007751941680908203 0.26514938473701477 0.6279069185256958
-0.007751941680908203 0.26514604687690735 0.6434108018875122
-0.007751941680908203 0.2653414011001587 0.6589146852493286
-0.007751941680908203 0.26557767391204834 0.674418568611145
-0.007751941680908203 0.2656547427177429 0.6899224519729614
-0.007751941680908203 0.2656973600387573 0.7054263353347778
-0.007751941680908203 0.26571720838546753 0.7209302186965942
-0.007751941680908203 0.2656964659690857 0.7364341020584106
-0.007751941680908203 0.26561155915260315 0.751937985420227
-0.007751941680908203 0.2654070258140564 0.7674418687820435
-0.007751941680908203 0.2650354504585266 0.7829457521438599
-0.007751941680908203 0.2645355463027954 0.7984496355056763
-0.007751941680908203 0.2641009986400604 0.8139535188674927
-0.007751941680908203 0.2640438675880432 0.8294574022293091
-0.007751941680908203 0.2644785940647125 0.8449612855911255
-0.007751941680908203 0.26491618156433105 0.8604651689529419
-0.007751941680908203 0.2651500403881073 0.8759689331054688
-0.007751941680908203 0.26525363326072693 0.8914728164672852
-0.007751941680908203 0.2655426561832428 0.9069766998291016
-0.007751941680908203 0.2662642002105713 0.922480583190918
-0.007751941680908203 0.26716575026512146 0.9379844665527344
-0.007751941680908203 0.2645873725414276 0.9534883499145508
0.007751941680908203 -0.2714455723762512 0.9379844665527344
0.007751941680908203 -0.2660166621208191 0.5038759708404541
0.007751941680908203 -0.2686602473258972 0.5193798542022705
0.007751941680908203 -0.26823872327804565 0.5348837375640869
0.007751941215246916 -0.2674486041069031 0.5503876209259033
0.00775194214656949 -0.26722219586372375 0.5658915042877197
0.007751941680908203 -0.26700568199157715 0.5813953876495361
0.007751941680908203 -0.26640936732292175 0.5968992710113525
0.007751941680908203 -0.26564228534698486 0.612403154373169
0.007751941680908203 -0.2649382948875427 0.6279069185256958
0.007751941680908203 -0.2650042176246643 0.6434108018875122
0.007751941680908203 -0.26558569073677063 0.6589146852493286
0.007751941680908203 -0.26626700162887573 0.674418568611145
0.007751941680908203 -0.2665639817714691 0.6899224519729614
0.007751941680908203 -0.2666383683681488 0.7054263353347778
0.007751941680908203 -0.2666720151901245 0.7209302186965942
0.007751941680908203 -0.2666388154029846 0.7364340424537659
0.007751941215246916 -0.2664663791656494 0.751937985420227
0.007751941680908203 -0.26620036363601685 0.7674418687820435
0.007751941215246916 -0.2656785845756531 0.7829457521438599
0.007751941680908203 -0.2648599147796631 0.7984496355056763
0.007751941680908203 -0.2644306421279907 0.8139535188674927
0.007751941680908203 -0.2647861838340759 0.8294574022293091
0.007751941680908203 -0.26567983627319336 0.8449612855911255
0.007751941680908203 -0.266387015581131 0.8604651689529419
0.007751941680908203 -0.26673251390457153 0.8759689331054688
0.007751941680908203 -0.2670535445213318 0.8914728164672852
0.007751941680908203 -0.26723504066467285 0.9069767594337463
0.007751941680908203 -0.2681606113910675 0.922480583190918
0.007751941680908203 -0.26725882291793823 0.9534883499145508
0.007751941680908203 -0.24593967199325562 0.9689922332763672
0.007751941680908203 -0.2401706576347351 0.4883721172809601
0.00775194214656949 -0.2213086485862732 0.9844961166381836
0.007751941680908203 -0.08719059824943542 0.4728682041168213
0.007751941680908203 -0.07784788310527802 -0.9379844665527344
0.007751941680908203 -0.08022051304578781 -0.922480583190918
0.007751941680908203 -0.08014404773712158 -0.9069767594337463
0.00775194214656949 -0.07944224774837494 -0.8914729356765747
0.007751941680908203 -0.07883384078741074 -0.8759689331054688
0.007751941680908203 -0.07836687564849854 -0.8604651093482971
0.007751941215246916 -0.07815270125865936 -0.8449611663818359
0.00775194214656949 -0.07812551409006119 -0.8294574022293091
0.007751941680908203 -0.07793129235506058 -0.8139535188674927
0.007751941680908203 -0.07762868702411652 -0.7984496355056763
0.007751941680908203 -0.07740462571382523 -0.7829457521438599
0.007751941680908203 -0.07721195369958878 -0.7674418687820435
0.007751941680908203 -0.07698601484298706 -0.751937985420227
0.007751941680908203 -0.0767316073179245 -0.7364341020584106
0.007751941680908203 -0.07632604241371155 -0.7209302186965942
0.007751941680908203 -0.07591135799884796 -0.7054263353347778
0.007751941680908203 -0.07542583346366882 -0.6899224519729614
0.007751941680908203 -0.07495149970054626 -0.674418568611145
0.007751941680908203 -0.07448283582925797 -0.6589146852493286
0.007751941680908203 -0.07400353252887726 -0.643410861492157
0.007751941680908203 -0.07351668924093246 -0.6279069781303406
0.007751941680908203 -0.0730881318449974 -0.6124030947685242
0.007751941680908203 -0.07258135825395584 -0.5968992114067078
0.007751941680908203 -0.07211490720510483 -0.5813953876495361
0.007751941680908203 -0.0716676115989685 -0.5658915042877197
0.007751941680908203 -0.07126272469758987 -0.5503876209259033
0.007751941680908203 -0.07102256268262863 -0.5348837375640869
0.007751941680908203 -0.07077236473560333 -0.5193798542022705
0.007751941680908203 -0.07056867331266403 -0.5038759708404541
0.007751941680908203 -0.0703459307551384 -0.4883720874786377
0.007751941680908203 -0.07006651163101196 -0.4728682041168213
0.007751941680908203 -0.06976917386054993 -0.4573643207550049
0.007751941680908203 -0.06735718250274658 -0.9534884095191956
0.007751941680908203 -0.06919720023870468 -0.4418604373931885
0.007751941680908203 -0.06842011958360672 -0.42635658383369446
0.007751941680908203 -0.06764809787273407 -0.41085273027420044
0.007751941680908203 -0.06704149395227432 -0.39534884691238403
0.007751941215246916 -0.0664721131324768 -0.3798449635505676
0.007751941680908203 -0.0660153329372406 -0.3643410801887512
0.007751941680908203 -0.06576704978942871 -0.3488371968269348
0.00775194214656949 -0.06567487120628357 -0.3333333134651184
0.007751941680908203 -0.06550939381122589 -0.317829430103302
0.007751941680908203 -0.06558644771575928 -0.30232560634613037
0.007751941680908203 -0.06550326943397522 -0.28682172298431396
0.007751941680908203 -0.06562574207782745 -0.27131783962249756
0.007751941680908203 -0.06574756652116776 -0.25581395626068115
0.007751941680908203 -0.0659014880657196 -0.24031007289886475
0.007751941680908203 -0.06608825922012329 -0.22480618953704834
0.007751941680908203 -0.06628105044364929 -0.20930230617523193
0.007751941680908203 -0.06638618558645248 -0.19379842281341553
0.007751941680908203 -0.0664287805557251 -0.1782945990562439
0.007751941680908203 -0.06655647605657578 -0.1627907156944275
0.007751941215246916 -0.06658607721328735 -0.14728683233261108
0.00775194214656949 -0.0666389986872673 -0.13178294897079468
0.007751941680908203 -0.06661135703325272 -0.11627906560897827
0.00775194214656949 -0.06659548729658127 -0.10077518969774246
0.007751941680908203 -0.06650636345148087 -0.08527129888534546
0.007751941680908203 -0.06645859777927399 -0.06976741552352905
0.007751941680908203 -0.06651409715414047 -0.05426358804106712
0.007751941680908203 -0.06651847064495087 -0.038759708404541016
0.007751941680908203 -0.06638147681951523 -0.02325582504272461
0.007751941680908203 -0.06626401096582413 -0.007751941680908203
0.007751941680908203 -0.06601288914680481 0.007751941680908203
0.007751941680908203 -0.06582879275083542 0.02325582504272461
0.007751941680908203 -0.06578092277050018 0.038759708404541016
0.007751941680908203 -0.06577178090810776 0.05426359176635742
0.007751941680908203 -0.06575719267129898 0.06976747512817383
0.007751941680908203 -0.06561771035194397 0.08527135848999023
0.007751941215246916 -0.0654895231127739 0.10077524185180664
0.007751941680908203 -0.06539405882358551 0.11627912521362305
0.007751941680908203 -0.06531912088394165 0.1317828893661499
0.007751941680908203 -0.06521132588386536 0.1472867727279663
0.00775194214656949 -0.06510693579912186 0.16279065608978271
0.00775194214656949 -0.06490546464920044 0.17829453945159912
0.007751941680908203 -0.06490027159452438 0.19379840791225433
0.007751941680908203 -0.06494038552045822 0.20930230617523193
0.007751941680908203 -0.06484100967645645 0.22480618953704834
0.007751941680908203 -0.06496088206768036 0.24031007289886475
0.007751941680908203 -0.06520877033472061 0.25581395626068115
0.007751941680908203 -0.0653001219034195 0.27131783962249756
0.007751941680908203 -0.06534990668296814 0.28682172298431396
0.007751941680908203 -0.06529020518064499 0.30232560634613037
0.007751941680908203 -0.06523218750953674 0.3178294897079468
0.007751941680908203 -0.06515627354383469 0.3333333730697632
0.007751941680908203 -0.06471644341945648 0.3488372564315796
0.007751941680908203 -0.06413693726062775 0.364341139793396
0.007751941680908203 -0.06317490339279175 0.37984490394592285
0.007751941680908203 -0.061824530363082886 0.39534878730773926
0.007751941680908203 -0.06072187423706055 0.41085267066955566
0.007751941680908203 -0.06052573770284653 0.42635655403137207
0.007751941680908203 -0.059910934418439865 0.4418604373931885
0.007751941680908203 -0.06461235880851746 0.4573643207550049
0.007751941215246916 -0.05271529778838158 -0.9689921736717224
0.007751941680908203 -0.03261661157011986 -0.9844961166381836
0.007751941680908203 0.030620649456977844 -0.9844960570335388
0.007751941680908203 0.052118659019470215 -0.9689922332763672
0.007751941680908203 0.06498204171657562 -0.9534883499145508
0.007751941680908203 0.06929793953895569 -0.5503876209259033
0.007751941680908203 0.06890863180160522 -0.5348837375640869
0.007751941680908203 0.06862325221300125 -0.5193798542022705
0.007751941680908203 0.06834542006254196 -0.5038759708404541
0.007751941680908203 0.06812684237957001 -0.4883720874786377
0.007751941680908203 0.06784076988697052 -0.4728682041168213
0.007751941680908203 0.06738349050283432 -0.4573643207550049
0.007751941680908203 0.06686216592788696 -0.4418604373931885
0.007751941680908203 0.06616134941577911 -0.42635661363601685
0.007751941680908203 0.06547673791646957 -0.41085273027420044
0.007751941680908203 0.06488092243671417 -0.39534884691238403
0.007751941680908203 0.06424786150455475 -0.3798449635505676
0.007751941680908203 0.06380718946456909 -0.3643410801887512
0.007751941680908203 0.06351052224636078 -0.3488371968269348
0.007751941680908203 0.06326325982809067 -0.3333333134651184
0.007751941680908203 0.06290837377309799 -0.317829430103302
0.007751941680908203 0.06278493255376816 -0.30232560634613037
0.007751941680908203 0.0626884251832962 -0.28682172298431396
0.007751941680908203 0.06267880648374557 -0.27131783962249756
0.007751941680908203 0.06285121291875839 -0.25581395626068115
0.007751941680908203 0.06305782496929169 -0.24031007289886475
0.007751941680908203 0.06328633427619934 -0.22480618953704834
0.007751941680908203 0.06343665719032288 -0.20930230617523193
0.007751941680908203 0.06357592344284058 -0.19379842281341553
0.007751941680908203 0.06364959478378296 -0.1782945990562439
0.007751941680908203 0.06377817690372467 -0.1627907156944275
0.007751941680908203 0.06399835646152496 -0.14728683233261108
0.007751941680908203 0.0642182007431984 -0.13178294897079468
0.007751941680908203 0.06447683274745941 -0.11627906560897827
0.007751941680908203 0.06476479023694992 -0.10077518224716187
0.007751941680908203 0.06498514115810394 -0.08527129888534546
0.007751941680908203 0.06519247591495514 -0.06976741552352905
0.007751941680908203 0.06543173640966415 -0.05426359176635742
0.007751941680908203 0.06560872495174408 -0.038759708404541016
0.007751941680908203 0.06556184589862823 -0.02325582504272461
0.007751941680908203 0.06554138660430908 -0.007751941680908203
0.007751941680908203 0.06534085422754288 0.007751941680908203
0.007751941680908203 0.06509928405284882 0.02325582504272461
0.007751941680908203 0.06490190327167511 0.038759708404541016
0.007751941680908203 0.06483517587184906 0.05426359176635742
0.007751941680908203 0.06486989557743073 0.06976747512817383
0.007751941680908203 0.0649135559797287 0.08527135848999023
0.007751941680908203 0.06505395472049713 0.10077524185180664
0.007751941680908203 0.06505396217107773 0.11627912521362305
0.007751941680908203 0.06512921303510666 0.1317828893661499
0.007751941680908203 0.06514520943164825 0.1472867727279663
0.007751941680908203 0.06500072032213211 0.16279065608978271
0.007751941680908203 0.06464564800262451 0.17829453945159912
0.007751941680908203 0.06416250020265579 0.19379842281341553
0.007751941680908203 0.06369125097990036 0.20930230617523193
0.007751941680908203 0.0630078837275505 0.22480618953704834
0.007751941680908203 0.0627090185880661 0.24031007289886475
0.007751941680908203 0.0627804845571518 0.25581395626068115
0.007751941680908203 0.06313776969909668 0.27131783962249756
0.007751941680908203 0.06372600793838501 0.28682172298431396
0.007751941680908203 0.06419284641742706 0.30232560634613037
0.007751941680908203 0.06470926105976105 0.3178294897079468
0.007751941680908203 0.06500588357448578 0.3333333730697632
0.007751941680908203 0.06508509069681168 0.3488372564315796
0.007751941680908203 0.06516729295253754 0.364341139793396
0.007751941680908203 0.06478613615036011 0.37984490394592285
0.007751941680908203 0.06390713155269623 0.39534878730773926
0.007751941680908203 0.06294982880353928 0.41085267066955566
0.007751941680908203 0.062375616282224655 0.42635655403137207
0.007751941680908203 0.06162745878100395 0.4418604373931885
0.007751941680908203 0.0649779886007309 0.4573643207550049
0.007751941680908203 0.07368332147598267 -0.9379844665527344
0.007751941680908203 0.07762715220451355 -0.9224806427955627
0.007751941680908203 0.07898247241973877 -0.9069767594337463
0.007751941680908203 0.07858805358409882 -0.8914728760719299
0.007751941680908203 0.07788750529289246 -0.8759689927101135
0.007751941680908203 0.07714015990495682 -0.8604651093482971
0.007751941680908203 0.07643326371908188 -0.8449612855911255
0.007751941680908203 0.07598961889743805 -0.8294573426246643
0.007751941680908203 0.07557424902915955 -0.8139535188674927
0.007751941680908203 0.07522240281105042 -0.7984496355056763
0.007751941680908203 0.07483585923910141 -0.7829457521438599
0.007751941680908203 0.07434119284152985 -0.7674418687820435
0.007751941680908203 0.07395856082439423 -0.751937985420227
0.007751941680908203 0.07357253134250641 -0.7364341020584106
0.007751941680908203 0.07309330999851227 -0.720930278301239
0.00775194214656949 0.07266785949468613 -0.7054263949394226
0.007751941680908203 0.0723997950553894 -0.6899224519729614
0.007751941680908203 0.07205861806869507 -0.674418568611145
0.007751941680908203 0.07163629680871964 -0.6589146852493286
0.007751941680908203 0.07130608707666397 -0.643410861492157
0.007751941680908203 0.0709928423166275 -0.6279069781303406
0.007751941680908203 0.07066822052001953 -0.6124030351638794
0.007751941680908203 0.07033814489841461 -0.5968992114067078
0.007751941680908203 0.07013431936502457 -0.5813953876495361
0.007751941680908203 0.06987614929676056 -0.5658915042877197
0.007751941680908203 0.08114486932754517 0.4728682041168213
0.007751941680908203 0.21992897987365723 0.4883720874786377
0.007751941680908203 0.21792592108249664 0.9844961166381836
0.007751941680908203 0.24228599667549133 0.9689922332763672
0.007751941680908203 0.2605592608451843 0.5038759708404541
0.007751941680908203 0.26461362838745117 0.5193798542022705
0.007751941680908203 0.2646292448043823 0.5348837375640869
0.007751941680908203 0.26429179310798645 0.5503876209259033
0.007751941680908203 0.2644524872303009 0.5658915042877197
0.007751941680908203 0.2646715044975281 0.5813953876495361
0.007751941680908203 0.26484590768814087 0.5968992710113525
0.007751941680908203 0.2650281488895416 0.612403154373169
0.007751941680908203 0.2649364471435547 0.6279069185256958
0.007751941680908203 0.26491600275039673 0.6434108018875122
0.007751941680908203 0.2650873064994812 0.6589146852493286
0.007751941680908203 0.2653382420539856 0.674418568611145
0.007751941680908203 0.2654380798339844 0.6899224519729614
0.007751941680908203 0.2654924690723419 0.7054263353347778
0.007751941680908203 0.2655133008956909 0.7209302186965942
0.007751941680908203 0.26549360156059265 0.7364341020584106
0.007751941680908203 0.26540878415107727 0.751937985420227
0.007751941680908203 0.26519936323165894 0.7674418687820435
0.007751941680908203 0.2648281753063202 0.7829457521438599
0.007751941680908203 0.2643471360206604 0.7984496355056763
0.007751941680908203 0.2639533579349518 0.8139535188674927
0.007751941680908203 0.2639206051826477 0.8294574022293091
0.007751941680908203 0.26436910033226013 0.8449612855911255
0.007751941680908203 0.26482218503952026 0.8604651689529419
0.007751941680908203 0.2650478482246399 0.8759689331054688
0.007751941680908203 0.2651563286781311 0.8914728164672852
0.007751941680908203 0.2654114365577698 0.9069766998291016
0.007751941680908203 0.2660984992980957 0.922480583190918
0.007751941680908203 0.267114520072937 0.9379844665527344
0.007751941680908203 0.26445603370666504 0.9534883499145508
0.02325582504272461 -0.27143096923828125 0.9379844665527344
0.02325582504272461 -0.2656329870223999 0.5038759708404541
0.02325582504272461 -0.2684529721736908 0.5193798542022705
0.02325582504272461 -0.26809218525886536 0.5348837375640869
0.02325582504272461 -0.2674185335636139 0.5503876209259033
0.02325582504272461 -0.26725447177886963 0.5658915042877197
0.02325582504272461 -0.267054945230484 0.5813953876495361
0.02325582504272461 -0.2664746046066284 0.5968992710113525
0.02325582504272461 -0.265718936920166 0.612403154373169
0.02325582504272461 -0.2650221586227417 0.6279069185256958
0.02325582504272461 -0.26506859064102173 0.6434108018875122
0.02325582504272461 -0.26562297344207764 0.6589146852493286
0.02325582504272461 -0.26626551151275635 0.674418568611145
0.02325582504272461 -0.26653698086738586 0.6899224519729614
0.02325582504272461 -0.26660698652267456 0.7054263353347778
0.02325582504272461 -0.2666483521461487 0.7209302186965942
0.02325582504272461 -0.26663610339164734 0.7364341020584106
0.02325582504272461 -0.26646965742111206 0.751937985420227
0.02325582504272461 -0.266193151473999 0.7674418687820435
0.02325582504272461 -0.26566407084465027 0.7829457521438599
0.02325582504272461 -0.26488903164863586 0.7984496355056763
0.02325582504272461 -0.26448681950569153 0.8139535188674927
0.02325582504272461 -0.2648158073425293 0.8294574022293091
0.02325582504272461 -0.26563990116119385 0.8449612259864807
0.02325582504272461 -0.2663196325302124 0.8604651689529419
0.02325582504272461 -0.26668426394462585 0.8759689331054688
0.02325582504272461 -0.2669231593608856 0.8914728760719299
0.02325582504272461 -0.26703545451164246 0.9069766998291016
0.02325582504272461 -0.26799917221069336 0.922480583190918
0.02325582504272461 -0.2673119902610779 0.9534883499145508
0.02325582504272461 -0.24620118737220764 0.9689922332763672
0.02325582504272461 -0.2360670566558838 0.4883720874786377
0.02325582504272461 -0.2215138077735901 0.9844961166381836
0.02325582504272461 -0.07500053942203522 -0.9379844665527344
0.02325582504272461 -0.07761764526367188 -0.9224807024002075
0.02325582504272461 -0.07772201299667358 -0.9069768190383911
0.02325582504272461 -0.07719697058200836 -0.8914728760719299
0.02325582504272461 -0.0767521858215332 -0.8759689927101135
0.02325582504272461 -0.0761866569519043 -0.8604651093482971
0.02325582504272461 -0.07575590908527374 -0.8449612259864807
0.02325582504272461 -0.07555164396762848 -0.8294573426246643
0.02325582504272461 -0.07520540058612823 -0.8139535188674927
0.02325582504272461 -0.07483233511447906 -0.7984496355056763
0.02325582504272461 -0.07450433820486069 -0.7829457521438599
0.02325582504272461 -0.07423149049282074 -0.7674418687820435
0.02325582504272461 -0.07397089153528214 -0.751937985420227
0.02325582504272461 -0.07376102358102798 -0.7364341020584106
0.02325582504272461 -0.0734291672706604 -0.7209302186965942
0.02325582504272461 -0.0730719268321991 -0.7054263353347778
0.02325582504272461 -0.07265061140060425 -0.6899224519729614
0.02325582504272461 -0.0721689760684967 -0.674418568611145
0.02325582504272461 -0.07163635641336441 -0.6589146852493286
0.02325582504272461 -0.07111218571662903 -0.643410861492157
0.02325582504272461 -0.07064319401979446 -0.6279069781303406
0.02325582504272461 -0.0703088790178299 -0.6124030947685242
0.02325582504272461 -0.06995626538991928 -0.5968992114067078
0.02325582318007946 -0.08332569897174835 0.4728682041168213
0.02325582504272461 -0.06505068391561508 -0.9534883499145508
0.02325582504272461 -0.06946180015802383 -0.5813953280448914
0.02325582504272461 -0.06869656592607498 -0.5658915042877197
0.02325582504272461 -0.06810013949871063 -0.5503876209259033
0.02325582504272461 -0.06780057400465012 -0.5348837375640869
0.02325582504272461 -0.06742827594280243 -0.5193798542022705
0.02325582504272461 -0.06714137643575668 -0.5038759708404541
0.02325582504272461 -0.06680317223072052 -0.4883720874786377
0.02325582504272461 -0.06637752801179886 -0.4728682041168213
0.02325582504272461 -0.06586842983961105 -0.4573643207550049
0.02325582504272461 -0.06546960771083832 -0.4418604373931885
0.02325582318007946 -0.06494910269975662 -0.42635661363601685
0.02325582504272461 -0.06440606713294983 -0.41085273027420044
0.02325582504272461 -0.06399807333946228 -0.39534884691238403
0.02325582504272461 -0.06363266706466675 -0.3798449635505676
0.02325582504272461 -0.06342346221208572 -0.3643410801887512
0.02325582504272461 -0.0632777065038681 -0.3488371968269348
0.02325582504272461 -0.06314942240715027 -0.3333333134651184
0.02325582504272461 -0.06279344856739044 -0.317829430103302
0.02325582504272461 -0.06283172965049744 -0.30232560634613037
0.02325582504272461 -0.06277035176753998 -0.28682172298431396
0.02325582504272461 -0.06297658383846283 -0.27131783962249756
0.02325582504272461 -0.06321965157985687 -0.25581395626068115
0.02325582504272461 -0.06345736235380173 -0.24031007289886475
0.02325582504272461 -0.06370516866445541 -0.22480618953704834
0.02325582504272461 -0.06394131481647491 -0.20930230617523193
0.02325582504272461 -0.06417500972747803 -0.19379842281341553
0.02325582504272461 -0.06436138600111008 -0.1782945990562439
0.02325582504272461 -0.06454925239086151 -0.1627907156944275
0.02325582504272461 -0.06463481485843658 -0.14728683233261108
0.02325582504272461 -0.06470131129026413 -0.13178294897079468
0.02325582504272461 -0.06462158262729645 -0.11627905815839767
0.02325582504272461 -0.06459921598434448 -0.10077518224716187
0.02325582504272461 -0.06454012542963028 -0.08527129888534546
0.02325582504272461 -0.06448502093553543 -0.06976741552352905
0.02325582504272461 -0.06446966528892517 -0.05426358804106712
0.02325582504272461 -0.06447166949510574 -0.038759708404541016
0.02325582504272461 -0.0643855482339859 -0.02325582504272461
0.02325582504272461 -0.06429022550582886 -0.007751941680908203
0.02325582504272461 -0.06402163207530975 0.007751941680908203
0.02325582504272461 -0.06382760405540466 0.02325582504272461
0.02325582504272461 -0.06374912708997726 0.038759708404541016
0.02325582504272461 -0.0635908767580986 0.05426359176635742
0.02325582504272461 -0.06342458724975586 0.06976747512817383
0.02325582504272461 -0.06305898725986481 0.08527135848999023
0.02325582504272461 -0.06280647218227386 0.10077524185180664
0.02325582504272461 -0.06268306821584702 0.11627912521362305
0.02325582504272461 -0.0626429095864296 0.1317828893661499
0.02325582504272461 -0.06255082041025162 0.1472867727279663
0.02325582504272461 -0.062451668083667755 0.16279065608978271
0.02325582504272461 -0.06220141425728798 0.17829453945159912
0.02325582504272461 -0.06214749068021774 0.19379842281341553
0.02325582504272461 -0.06226475164294243 0.20930230617523193
0.02325582504272461 -0.06217823922634125 0.22480618953704834
0.02325582504272461 -0.06241574138402939 0.24031007289886475
0.02325582504272461 -0.06276346743106842 0.25581395626068115
0.02325582504272461 -0.06285986304283142 0.27131783962249756
0.02325582504272461 -0.06287533044815063 0.28682172298431396
0.02325582504272461 -0.06272125244140625 0.30232560634613037
0.02325582504272461 -0.06261183321475983 0.3178294897079468
0.02325582504272461 -0.06245206668972969 0.3333333730697632
0.02325582504272461 -0.061683498322963715 0.3488372564315796
0.02325582504272461 -0.06066098064184189 0.364341139793396
0.02325582504272461 -0.0592716708779335 0.37984490394592285
0.02325582504272461 -0.058025144040584564 0.39534878730773926
0.02325582504272461 -0.05719050019979477 0.41085267066955566
0.02325582504272461 -0.05676201730966568 0.42635655403137207
0.02325582504272461 -0.05551106855273247 0.4418604373931885
0.02325582504272461 -0.05978172644972801 0.4573643207550049
0.02325582504272461 -0.04914540797472 -0.9689922332763672
0.02325582504272461 -0.020069854333996773 -0.9844961166381836
0.02325582504272461 0.01727682165801525 -0.9844961166381836
0.02325582504272461 0.046690210700035095 -0.9689922332763672
0.02325582504272461 0.061123885214328766 -0.9534883499145508
0.02325582504272461 0.0694451704621315 -0.674418568611145
0.02325582504272461 0.06876290589570999 -0.6589146852493286
0.02325582504272461 0.06826217472553253 -0.6434109210968018
0.02325582504272461 0.06776611506938934 -0.6279069781303406
0.02325582504272461 0.06722936034202576 -0.6124030947685242
0.02325582504272461 0.06659173965454102 -0.5968992114067078
0.02325582504272461 0.06617226451635361 -0.5813953876495361
0.02325582504272461 0.06562215089797974 -0.5658915042877197
0.02325582504272461 0.06513049453496933 -0.5503876209259033
0.02325582504272461 0.06492768228054047 -0.5348837375640869
0.02325582504272461 0.06476128101348877 -0.5193798542022705
0.02325582504272461 0.06457684934139252 -0.5038759708404541
0.02325582504272461 0.06440122425556183 -0.4883720874786377
0.02325582504272461 0.06420373171567917 -0.4728682041168213
0.02325582504272461 0.06392925977706909 -0.4573643207550049
0.02325582504272461 0.06362149119377136 -0.4418604373931885
0.02325582504272461 0.06324771046638489 -0.42635661363601685
0.02325582504272461 0.0626947209239006 -0.41085273027420044
0.02325582504272461 0.06197735667228699 -0.39534884691238403
0.02325582504272461 0.0610542893409729 -0.3798449635505676
0.02325582504272461 0.06033755838871002 -0.3643410801887512
0.02325582504272461 0.05970681831240654 -0.3488371968269348
0.02325582504272461 0.05911663919687271 -0.3333333134651184
0.02325582504272461 0.058492764830589294 -0.317829430103302
0.02325582504272461 0.058257296681404114 -0.30232560634613037
0.02325582504272461 0.05808761715888977 -0.28682172298431396
0.02325582690536976 0.05808945372700691 -0.27131783962249756
0.02325582504272461 0.05832391977310181 -0.25581395626068115
0.02325582504272461 0.05852851644158363 -0.24031007289886475
0.02325582504272461 0.05876389145851135 -0.22480618953704834
0.02325582504272461 0.05889001488685608 -0.20930230617523193
0.02325582318007946 0.05911965295672417 -0.19379840791225433
0.02325582504272461 0.059228427708148956 -0.1782945990562439
0.02325582504272461 0.05950691178441048 -0.1627907156944275
0.02325582504272461 0.060011282563209534 -0.14728683233261108
0.02325582504272461 0.06050558388233185 -0.13178294897079468
0.02325582504272461 0.06097985431551933 -0.11627907305955887
0.02325582504272461 0.061553291976451874 -0.10077518224716187
0.02325582504272461 0.062018297612667084 -0.08527129888534546
0.02325582504272461 0.06236976012587547 -0.06976741552352905
0.02325582504272461 0.06265555322170258 -0.05426359176635742
0.02325582504272461 0.06284139305353165 -0.038759708404541016
0.02325582504272461 0.06273828446865082 -0.02325582504272461
0.02325582504272461 0.06260473281145096 -0.007751941680908203
0.02325582504272461 0.06217389553785324 0.007751941680908203
0.02325582504272461 0.06169243901968002 0.02325582504272461
0.02325582504272461 0.06128318980336189 0.038759708404541016
0.02325582504272461 0.06101362407207489 0.05426359176635742
0.02325582504272461 0.060986705124378204 0.06976747512817383
0.02325582504272461 0.06100640445947647 0.08527135848999023
0.02325582504272461 0.061233341693878174 0.10077524185180664
0.02325582504272461 0.06122922897338867 0.11627912521362305
0.02325582504272461 0.06134732812643051 0.1317828893661499
0.02325582504272461 0.06136123836040497 0.1472867727279663
0.02325582504272461 0.061011530458927155 0.16279065608978271
0.02325582504272461 0.060415320098400116 0.17829453945159912
0.02325582504272461 0.05973487347364426 0.19379842281341553
0.02325582504272461 0.05918939784169197 0.20930230617523193
0.02325582504272461 0.058617424219846725 0.22480618953704834
0.02325582504272461 0.058466002345085144 0.24031007289886475
0.02325582504272461 0.058472953736782074 0.25581395626068115
0.02325582504272461 0.058728236705064774 0.27131783962249756
0.02325582504272461 0.059243716299533844 0.28682172298431396
0.02325582504272461 0.05973856523633003 0.30232560634613037
0.02325582504272461 0.060320816934108734 0.3178294897079468
0.02325582504272461 0.060659341514110565 0.3333333730697632
0.02325582504272461 0.06070118397474289 0.3488372564315796
0.02325582504272461 0.06071418523788452 0.364341139793396
0.02325582504272461 0.0602099671959877 0.37984490394592285
0.02325582504272461 0.05926448106765747 0.39534878730773926
0.02325582504272461 0.058376066386699677 0.41085267066955566
0.02325582504272461 0.05756295099854469 0.42635655403137207
0.02325582504272461 0.05598778650164604 0.4418604373931885
0.02325582504272461 0.05937030166387558 0.4573643207550049
0.02325582318007946 0.07062084227800369 -0.9379844665527344
0.02325582504272461 0.07562524080276489 -0.9224807024002075
0.02325582504272461 0.076114222407341 -0.9069768190383911
0.02325582504272461 0.07608421891927719 -0.8914728760719299
0.02325582504272461 0.07540356367826462 -0.8759689331054688
0.02325582504272461 0.0745697021484375 -0.8604651689529419
0.02325582504272461 0.07401619106531143 -0.8449612259864807
0.02325582504272461 0.07368496060371399 -0.8294573426246643
0.02325582504272461 0.07328128814697266 -0.8139535188674927
0.02325582504272461 0.07289586216211319 -0.7984496355056763
0.02325582504272461 0.07245048135519028 -0.7829456925392151
0.02325582504272461 0.07188694179058075 -0.7674418687820435
0.02325582504272461 0.07146203517913818 -0.751937985420227
0.02325582504272461 0.07101467996835709 -0.7364341020584106
0.02325582504272461 0.07051627337932587 -0.720930278301239
0.02325582504272461 0.07011556625366211 -0.7054263353347778
0.02325582318007946 0.0698876604437828 -0.6899224519729614
0.02325582504272461 0.07614761590957642 0.4728681743144989
0.02325582504272461 0.21632006764411926 0.4883720874786377
0.02325582504272461 0.2178020179271698 0.9844961166381836
0.02325582690536976 0.24251173436641693 0.968992292881012
0.02325582504272461 0.25998589396476746 0.5038759708404541
0.02325582504272461 0.2642030715942383 0.5193798542022705
0.02325582504272461 0.26431769132614136 0.5348837375640869
0.02325582504272461 0.2641286551952362 0.5503876209259033
0.02325582504272461 0.26434293389320374 0.5658915042877197
0.02325582504272461 0.2645411491394043 0.5813953876495361
0.02325582504272461 0.26465922594070435 0.5968992710113525
0.02325582504272461 0.26479488611221313 0.612403154373169
0.02325582504272461 0.2647008001804352 0.6279069185256958
0.02325582504272461 0.26467421650886536 0.6434108018875122
0.02325582504272461 0.2648734450340271 0.6589146852493286
0.02325582504272461 0.265142560005188 0.674418568611145
0.02325582504272461 0.2652686536312103 0.6899224519729614
0.02325582504272461 0.265333890914917 0.7054263353347778
0.02325582504272461 0.26535534858703613 0.7209302186965942
0.02325582504272461 0.26533469557762146 0.7364341020584106
0.02325582504272461 0.26523298025131226 0.751937985420227
0.02325582504272461 0.2649853825569153 0.7674418687820435
0.02325582504272461 0.264526903629303 0.7829457521438599
0.02325582504272461 0.2640027105808258 0.7984496355056763
0.02325582504272461 0.26363062858581543 0.8139535188674927
0.02325582504272461 0.26361411809921265 0.8294574022293091
0.02325582504272461 0.26406174898147583 0.8449612855911255
0.02325582504272461 0.26452988386154175 0.8604651689529419
0.02325582504272461 0.26480352878570557 0.8759689331054688
0.02325582504272461 0.2649361193180084 0.8914728164672852
0.02325582504272461 0.26516300439834595 0.9069766998291016
0.02325582504272461 0.2657451331615448 0.922480583190918
0.02325582504272461 0.26689279079437256 0.9379844665527344
0.02325582504272461 0.26433202624320984 0.9534883499145508
0.038759708404541016 -0.2714870274066925 0.9379844665527344
0.038759708404541016 -0.26479798555374146 0.5038759708404541
0.038759708404541016 -0.2683447301387787 0.5193798542022705
0.038759708404541016 -0.2680276036262512 0.5348837375640869
0.038759708404541016 -0.2674401104450226 0.5503876209259033
0.038759708404541016 -0.26739004254341125 0.5658915042877197
0.038759708404541016 -0.26725834608078003 0.5813953876495361
0.038759708404541016 -0.26678502559661865 0.5968992710113525
0.038759708404541016 -0.26619210839271545 0.612403154373169
0.038759708404541016 -0.2655935287475586 0.6279069185256958
0.038759708404541016 -0.26555904746055603 0.6434108018875122
0.038759708404541016 -0.2659350037574768 0.6589146852493286
0.038759708404541016 -0.2664031684398651 0.674418568611145
0.038759708404541016 -0.26657313108444214 0.6899224519729614
0.038759708404541016 -0.2666124403476715 0.7054263353347778
0.038759708404541016 -0.26665839552879333 0.7209302186965942
0.038759708404541016 -0.26668697595596313 0.7364341020584106
0.038759708404541016 -0.2665575444698334 0.751937985420227
0.038759708404541016 -0.26633942127227783 0.7674418687820435
0.038759708404541016 -0.26591455936431885 0.7829457521438599
0.038759708404541016 -0.26532691717147827 0.7984496355056763
0.038759708404541016 -0.2650061249732971 0.8139535188674927
0.038759708404541016 -0.2652716040611267 0.8294574022293091
0.038759708404541016 -0.2658880054950714 0.8449612855911255
0.038759708404541016 -0.2664180397987366 0.8604651689529419
0.038759708404541016 -0.26671773195266724 0.8759689331054688
0.038759708404541016 -0.26686254143714905 0.8914728164672852
0.038759708404541016 -0.2670031785964966 0.9069766998291016
0.038759708404541016 -0.268031507730484 0.922480583190918
0.038759708404541016 -0.2674969732761383 0.9534883499145508
0.038759708404541016 -0.24701187014579773 0.9689922332763672
0.038759708404541016 -0.22895310819149017 0.4883720874786377
0.038759708404541016 -0.22214919328689575 0.9844961166381836
0.038759708404541016 -0.07367296516895294 -0.9224806427955627
0.038759708404541016 -0.07335086911916733 -0.9069766998291016
0.038759708404541016 -0.07245323807001114 -0.8914729356765747
0.038759708404541016 -0.07182092219591141 -0.8759689927101135
0.038759708404541016 -0.0711289569735527 -0.8604651093482971
0.038759708404541016 -0.07067824900150299 -0.8449612259864807
0.038759708404541016 -0.07046428322792053 -0.8294573426246643
0.038759708404541016 -0.07015050947666168 -0.8139535188674927
0.038759708404541016 -0.06985878944396973 -0.7984496355056763
0.038759708404541016 -0.07489162683486938 0.4728682041168213
0.038759708404541016 -0.05682668834924698 -0.9534883499145508
0.038759708404541016 -0.0686425194144249 -0.9379844665527344
0.038759708404541016 -0.06938133388757706 -0.7829456925392151
0.038759708404541016 -0.06875140964984894 -0.7674418687820435
0.038759708404541016 -0.06828109920024872 -0.751937985420227
0.038759708404541016 -0.06791681796312332 -0.7364341020584106
0.038759708404541016 -0.06740111857652664 -0.7209302186965942
0.038759708404541016 -0.0668899267911911 -0.7054263353347778
0.038759708404541016 -0.0663575753569603 -0.6899224519729614
0.038759708404541016 -0.06575141847133636 -0.674418568611145
0.038759708404541016 -0.06502974033355713 -0.6589146852493286
0.038759708404541016 -0.06427907943725586 -0.643410861492157
0.038759708404541016 -0.06369180232286453 -0.6279069781303406
0.038759708404541016 -0.06325389444828033 -0.6124030947685242
0.038759708404541016 -0.06277258694171906 -0.5968992710113525
0.038759708404541016 -0.062434062361717224 -0.5813953876495361
0.038759708404541016 -0.06214920058846474 -0.5658915042877197
0.038759708404541016 -0.06190543621778488 -0.5503876209259033
0.038759708404541016 -0.06177661567926407 -0.5348837375640869
0.038759708404541016 -0.06149657815694809 -0.5193798542022705
0.038759708404541016 -0.06118987500667572 -0.5038759708404541
0.038759708404541016 -0.060914941132068634 -0.4883720874786377
0.038759708404541016 -0.06046442314982414 -0.4728682041168213
