-0.9876498579978943 0.16279065608978271 0.02325582504272461
-0.9848906993865967 0.16279065608978271 0.038759708404541016
-0.970096230506897 -0.1627907156944275 -0.007751941680908203
-0.9757881164550781 -0.14728683233261108 0.06976747512817383
-0.9691987633705139 -0.06976741552352905 -0.08527129888534546
-0.9699181318283081 -0.05426359176635742 -0.08527129888534546
-0.9706900119781494 -0.038759708404541016 -0.08527129888534546
-0.9712028503417969 -0.02325582504272461 -0.08527129888534546
-0.97139573097229 -0.007751941680908203 -0.08527129888534546
-0.9710166454315186 0.007751941680908203 -0.08527129888534546
-0.9701796770095825 0.02325582504272461 -0.08527129888534546
-0.9692161679267883 0.038759708404541016 -0.08527129888534546
-0.9740104079246521 0.1317828893661499 -0.06976741552352905
-0.9694644808769226 0.16279065608978271 0.038759708404541016
-0.9568312168121338 -0.1627907156944275 -0.038759708404541016
-0.9626058340072632 -0.1627907156944275 -0.02325582504272461
-0.9678896069526672 -0.1627907156944275 -0.007751941680908203
-0.9649742245674133 -0.1627907156944275 0.038759708404541016
-0.9602217078208923 -0.1627907156944275 0.05426359176635742
-0.961417019367218 -0.14728683233261108 -0.06976741552352905
-0.959406316280365 -0.11627906560897827 -0.08527129888534546
-0.9639831781387329 -0.10077518224716187 -0.08527129888534546
-0.9666088819503784 -0.08527129888534546 -0.08527129888534546
-0.9539491534233093 -0.08527129888534546 0.08527135848999023
-0.9559868574142456 -0.06976741552352905 0.08527135848999023
-0.9572433829307556 -0.05426359176635742 0.08527135848999023
-0.957370936870575 -0.038759708404541016 0.08527135848999023
-0.957817554473877 -0.02325582504272461 0.08527135848999023
-0.9578406810760498 -0.007751941680908203 0.08527135848999023
-0.9561433792114258 0.007751941680908203 0.08527135848999023
-0.9549258947372437 0.02325582504272461 0.08527135848999023
-0.9551308155059814 0.038759708404541016 0.08527135848999023
-0.9663904905319214 0.05426359176635742 -0.08527129888534546
-0.9563508629798889 0.05426359176635742 0.08527135848999023
-0.9646809697151184 0.06976747512817383 -0.08527129888534546
-0.9574419260025024 0.06976747512817383 0.08527135848999023
-0.9636443853378296 0.08527135848999023 -0.08527129888534546
-0.9583265781402588 0.08527135848999023 0.08527135848999023
-0.9624127745628357 0.10077524185180664 -0.08527129888534546
-0.9587560892105103 0.10077524185180664 0.08527135848999023
-0.9592550992965698 0.11627912521362305 -0.08527129888534546
-0.9583443403244019 0.11627912521362305 0.08527135848999023
-0.9553030729293823 0.1317828893661499 0.08527135848999023
-0.9653220772743225 0.1472867727279663 -0.06976741552352905
-0.9537861347198486 0.16279065608978271 -0.05426359176635742
-0.9621247053146362 0.16279065608978271 -0.038759708404541016
-0.9687002301216125 0.16279065608978271 0.038759708404541016
-0.960564374923706 0.16279065608978271 0.05426359176635742
-0.9420464634895325 -0.1627907156944275 -0.06976741552352905
-0.949195146560669 -0.1627907156944275 -0.05426358804106712
-0.9490694999694824 -0.1627907156944275 0.06976747512817383
-0.9412069916725159 -0.14728683233261108 -0.08527129888534546
-0.9425169229507446 -0.14728683233261108 0.08527135848999023
-0.9488709568977356 -0.13178294897079468 -0.08527129888534546
-0.9448070526123047 -0.13178294897079468 0.08527135848999023
-0.9466612339019775 -0.11627906560897827 0.08527135848999023
-0.9396215677261353 -0.10077518224716187 -0.10077518224716187
-0.9502119421958923 -0.10077518224716187 0.08527135848999023
-0.9437993764877319 -0.08527129888534546 -0.10077518224716187
-0.9451829195022583 -0.06976741552352905 -0.10077518224716187
-0.9454837441444397 -0.05426359176635742 -0.10077518224716187
-0.9454684257507324 -0.038759708404541016 -0.10077518224716187
-0.9452630281448364 -0.02325582504272461 -0.10077518224716187
-0.9447636604309082 -0.007751941680908203 -0.10077518224716187
-0.944388747215271 0.007751941680908203 -0.10077518224716187
-0.9439018964767456 0.02325582504272461 -0.10077518224716187
-0.9434710144996643 0.038759708404541016 -0.10077518224716187
-0.9428242444992065 0.05426359176635742 -0.10077518224716187
-0.9409632682800293 0.06976747512817383 -0.10077518224716187
-0.9518268704414368 0.1317828893661499 -0.08527129888534546
-0.9463397264480591 0.1472867727279663 -0.08527129888534546
-0.9466474056243896 0.1472867727279663 0.08527135848999023
-0.9463740587234497 0.16279065608978271 -0.06976741552352905
-0.9466187357902527 0.16279065608978271 0.06976747512817383
-0.9291483163833618 -0.1627907156944275 -0.08527129888534546
-0.9321718215942383 -0.1627907156944275 0.08527135848999023
-0.9294517636299133 -0.13178294897079468 -0.10077518224716187
-0.9254651665687561 -0.13178294897079468 0.10077524185180664
-0.9335541725158691 -0.11627906560897827 -0.10077518224716187
-0.9284000396728516 -0.11627906560897827 0.10077524185180664
-0.9304274320602417 -0.10077518224716187 0.10077524185180664
-0.931713342666626 -0.08527129888534546 0.10077524185180664
-0.9326573014259338 -0.06976741552352905 0.10077524185180664
-0.9335082769393921 -0.05426359176635742 0.10077524185180664
-0.9336706399917603 -0.038759708404541016 0.10077524185180664
-0.9338575601577759 -0.02325582504272461 0.10077524185180664
-0.9336515665054321 -0.007751941680908203 0.10077524185180664
-0.9327431321144104 0.007751941680908203 0.10077524185180664
-0.9322478175163269 0.02325582504272461 0.10077524185180664
-0.932436466217041 0.038759708404541016 0.10077524185180664
-0.9330565929412842 0.05426359176635742 0.10077524185180664
-0.9335965514183044 0.06976747512817383 0.10077523440122604
-0.9372120499610901 0.08527135848999023 -0.10077518224716187
-0.9340326189994812 0.08527135848999023 0.10077524185180664
-0.9349601864814758 0.10077524185180664 -0.10077518224716187
-0.934368908405304 0.10077524930238724 0.10077524930238724
-0.9330474138259888 0.11627912521362305 -0.10077518224716187
-0.9343265295028687 0.11627912521362305 0.10077524185180664
-0.9309819936752319 0.1317828893661499 -0.10077518224716187
-0.9331005811691284 0.1317828893661499 0.10077524930238724
-0.9276422262191772 0.1472867727279663 0.10077524185180664
-0.9310725927352905 0.16279065608978271 -0.08527129888534546
-0.9316128492355347 0.16279065608978271 0.08527135848999023
-0.9074050784111023 -0.1782945990562439 -0.06976741552352905
-0.9075005054473877 -0.1782945990562439 -0.05426359176635742
-0.9100197553634644 -0.1782945990562439 0.06976747512817383
-0.9090777039527893 -0.1782945990562439 0.08527135848999023
-0.9115192890167236 -0.1627907156944275 -0.10077518224716187
-0.9166836738586426 -0.1627907156944275 0.10077524185180664
-0.9189431071281433 -0.14728683233261108 -0.10077518224716187
-0.9199069142341614 -0.14728683233261108 0.10077524185180664
-0.9088113903999329 -0.13178294897079468 0.11627912521362305
-0.9100124835968018 -0.11627906560897827 -0.11627906560897827
-0.913219153881073 -0.11627906560897827 0.11627912521362305
-0.9110836982727051 -0.10077518224716187 -0.11627906560897827
-0.9151290655136108 -0.10077518224716187 0.11627912521362305
-0.9115552306175232 -0.08527129888534546 -0.11627906560897827
-0.916213870048523 -0.08527129888534546 0.11627912521362305
-0.911750316619873 -0.06976741552352905 -0.11627906560897827
-0.91668701171875 -0.06976741552352905 0.11627912521362305
-0.9116668701171875 -0.05426359176635742 -0.11627906560897827
-0.9168108701705933 -0.05426359176635742 0.11627912521362305
-0.9108250141143799 -0.038759708404541016 -0.11627906560897827
-0.9165384769439697 -0.038759708404541016 0.11627912521362305
-0.9099227786064148 -0.02325582504272461 -0.11627906560897827
-0.916236400604248 -0.02325582504272461 0.11627912521362305
-0.9088742733001709 -0.007751941680908203 -0.11627906560897827
-0.9158979654312134 -0.007751941680908203 0.11627912521362305
-0.9088964462280273 0.007751941680908203 -0.11627906560897827
-0.9156622886657715 0.007751941680908203 0.11627912521362305
-0.9092006683349609 0.02325582504272461 -0.11627906560897827
-0.9157570600509644 0.02325582504272461 0.11627912521362305
-0.909609317779541 0.038759708404541016 -0.11627906560897827
-0.9161064624786377 0.038759708404541016 0.11627912521362305
-0.910285472869873 0.05426359176635742 -0.11627906560897827
-0.9166399240493774 0.05426359176635742 0.11627912521362305
-0.9105932712554932 0.06976747512817383 -0.11627906560897827
-0.9171370267868042 0.06976747512817383 0.11627912521362305
-0.9105287194252014 0.08527135848999023 -0.11627906560897827
-0.9174965620040894 0.08527135848999023 0.11627912521362305
-0.9100357890129089 0.10077524185180664 -0.11627906560897827
-0.9176356792449951 0.10077524185180664 0.11627912521362305
-0.9077841639518738 0.11627912521362305 -0.11627906560897827
-0.9174449443817139 0.11627912521362305 0.11627912521362305
-0.9159031510353088 0.1317828893661499 0.11627912521362305
-0.9208499789237976 0.1472867727279663 -0.10077518969774246
-0.9081048965454102 0.1472867727279663 0.11627912521362305
-0.9098108410835266 0.16279065608978271 -0.10077518224716187
-0.9162628054618835 0.16279065608978271 0.10077524185180664
-0.8987625241279602 -0.1782945990562439 -0.08527129888534546
-0.9020792841911316 -0.1782945990562439 -0.038759708404541016
-0.8946084380149841 -0.1782945990562439 -0.02325582504272461
-0.8956512212753296 -0.1782945990562439 0.05426359176635742
-0.897520124912262 -0.1782945990562439 0.10077524185180664
-0.9015086889266968 -0.1627907156944275 0.11627912521362305
-0.8987945318222046 -0.14728683233261108 -0.11627906560897827
-0.9033585786819458 -0.14728683233261108 0.11627911776304245
-0.9012365341186523 -0.13178294897079468 -0.11627905815839767
-0.9004611968994141 0.1317828893661499 -0.11627906560897827
-0.89728844165802 0.1472867727279663 -0.11627906560897827
-0.9010607600212097 0.16279065608978271 0.11627912521362305
-0.8917346596717834 0.17829453945159912 -0.08527129888534546
-0.8959556818008423 0.17829453945159912 0.06976747512817383
-0.8936505317687988 0.17829453945159912 0.08527135848999023
-0.8887186050415039 -0.1782945990562439 -0.10077518224716187
-0.8781553506851196 -0.1782945990562439 -0.007751941680908203
-0.8847343921661377 -0.1782945990562439 0.11627912521362305
-0.8908470869064331 -0.1627907156944275 -0.11627907305955887
-0.8774383068084717 0.007751941680908203 -0.11627906560897827
-0.884857177734375 0.16279065608978271 -0.11627906560897827
-0.8779100775718689 0.17829453945159912 -0.10077518224716187
-0.8901329040527344 0.17829452455043793 0.05426359176635742
-0.8820328712463379 0.17829453945159912 0.10077524185180664
-0.861162543296814 -0.1782945990562439 -0.11627906560897827
-0.8612080216407776 -0.1782945990562439 -0.05426359176635742
-0.8656567931175232 -0.1782945990562439 -0.038759708404541016
-0.8679379224777222 -0.1782945990562439 -0.02325582504272461
-0.8747780323028564 -0.1782945990562439 -0.007751941680908203
-0.8637565970420837 -0.1782945990562439 0.05426359176635742
-0.8623501062393188 -0.038759708404541016 -0.11627906560897827
-0.865601658821106 -0.02325582504272461 -0.11627906560897827
-0.8714343309402466 -0.007751941680908203 -0.11627906560897827
-0.8723375201225281 0.02325582504272461 -0.11627905815839767
-0.8616786003112793 0.17829453945159912 -0.08527129888534546
-0.870990514755249 0.17829453945159912 0.11627912521362305
-0.8465943336486816 -0.10077518224716187 -0.11627906560897827
-0.8478168249130249 -0.05426359176635742 -0.11627906560897827
-0.8602355122566223 0.03875970467925072 -0.11627905815839767
-0.8476746082305908 0.11627912521362305 -0.11627906560897827
-0.8575731515884399 0.1317828893661499 -0.11627906560897827
-0.8570329546928406 0.1472867727279663 -0.11627907305955887
-0.8463054895401001 0.17829453945159912 0.05426359176635742
-0.838577151298523 -0.1782945990562439 -0.06976741552352905
-0.8397334218025208 -0.1782945990562439 0.06976747512817383
-0.8333601951599121 -0.11627906560897827 -0.11627906560897827
-0.8422433137893677 -0.08527129888534546 -0.11627906560897827
-0.835553765296936 -0.06976741552352905 -0.11627906560897827
-0.8334810137748718 0.08527135848999023 -0.11627906560897827
-0.8401669859886169 0.10077524930238724 -0.11627906560897827
-0.8046475648880005 0.17829453945159912 -0.10077518224716187
-0.8088668584823608 0.17829453945159912 0.06976747512817383
-0.7968332767486572 -0.13178294897079468 -0.11627906560897827
-0.7916826605796814 0.05426359176635742 -0.11627907305955887
-0.7935559153556824 0.17829453945159912 0.08527135848999023
-0.7876226902008057 0.17829453945159912 0.10077524185180664
-0.7929699420928955 0.17829453945159912 0.11627911776304245
-0.7829080820083618 -0.1782946139574051 -0.11627907305955887
-0.7809320688247681 -0.1782945841550827 0.08527135103940964
-0.7758888006210327 0.05426359176635742 -0.11627906560897827
-0.7617596387863159 -0.13178294897079468 -0.11627907305955887
-0.7522767186164856 -0.08527129888534546 -0.11627906560897827
-0.7558765411376953 -0.06976741552352905 -0.11627906560897827
-0.7536242008209229 -0.05426359176635742 -0.11627906560897827
-0.7659313082695007 0.08527135848999023 -0.11627906560897827
-0.7558896541595459 0.10077524185180664 -0.11627906560897827
-0.750359296798706 -0.1782945990562439 0.10077524185180664
-0.7402870655059814 -0.1782945990562439 0.11627912521362305
-0.7509968280792236 -0.11627906560897827 -0.11627906560897827
-0.7457815408706665 -0.10077518224716187 -0.11627906560897827
-0.7396609783172607 -0.038759708404541016 -0.11627906560897827
-0.7443040609359741 0.038759708404541016 -0.11627906560897827
-0.7338050603866577 -0.02325582504272461 -0.11627907305955887
-0.7354382276535034 0.11627911776304245 -0.11627906560897827
-0.724972665309906 0.1317828893661499 -0.11627906560897827
-0.7328624129295349 0.1472867727279663 -0.11627906560897827
-0.7209135890007019 -0.00775194214656949 -0.11627907305955887
-0.7182263731956482 0.007751941680908203 -0.11627906560897827
-0.7190686464309692 0.02325582504272461 -0.11627906560897827
-0.7152811884880066 0.16279065608978271 -0.11627906560897827
-0.7052405476570129 -0.1782945841550827 -0.10077518224716187
-0.7053150534629822 -0.1782945990562439 -0.08527129888534546
-0.7021037936210632 -0.1627907156944275 -0.11627906560897827
-0.6972208023071289 -0.1627907156944275 -0.10077518224716187
-0.6967650055885315 -0.1627907156944275 -0.08527129888534546
-0.6966632604598999 -0.1627907156944275 -0.06976741552352905
-0.6957724094390869 -0.1627907156944275 -0.05426359176635742
-0.6952444314956665 -0.1627907156944275 -0.038759708404541016
-0.6950932741165161 -0.1627907156944275 -0.02325582504272461
-0.694765031337738 -0.1627907156944275 -0.007751941680908203
-0.694360077381134 -0.1627907156944275 0.007751941680908203
-0.6943873167037964 -0.1627907156944275 0.02325582504272461
-0.6946007609367371 -0.1627907156944275 0.038759708404541016
-0.6959642171859741 -0.1627907156944275 0.05426359176635742
-0.6978362798690796 -0.1627907156944275 0.06976747512817383
-0.6991416215896606 -0.1627907156944275 0.08527135848999023
-0.7004097104072571 -0.1627907156944275 0.10077524185180664
-0.7028065919876099 -0.1627907156944275 0.11627912521362305
-0.7021875977516174 -0.14728683233261108 -0.11627906560897827
-0.6952272653579712 -0.14728683233261108 -0.10077518224716187
-0.6962811350822449 -0.14728683233261108 -0.08527129888534546
-0.6963696479797363 -0.14728683233261108 -0.06976741552352905
-0.6954258680343628 -0.14728683233261108 -0.05426359176635742
-0.695064902305603 -0.14728683233261108 -0.038759708404541016
-0.6949347257614136 -0.14728683233261108 -0.02325582504272461
-0.6945611238479614 -0.14728683233261108 -0.007751941680908203
-0.6939167976379395 -0.14728683233261108 0.007751941680908203
-0.6938964128494263 -0.14728683233261108 0.02325582504272461
-0.6942551136016846 -0.14728683233261108 0.038759708404541016
-0.6952386498451233 -0.14728683233261108 0.05426359176635742
-0.6965583562850952 -0.14728683233261108 0.06976747512817383
-0.6966873407363892 -0.14728683233261108 0.08527135848999023
-0.6969895958900452 -0.14728683233261108 0.10077524185180664
-0.7000235915184021 -0.14728683233261108 0.11627912521362305
-0.7018352150917053 -0.13178294897079468 -0.11627906560897827
-0.6938380002975464 -0.13178294897079468 -0.10077518224716187
-0.6963651180267334 -0.13178294897079468 -0.08527129888534546
-0.6967495679855347 -0.13178294897079468 -0.06976741552352905
-0.6962888240814209 -0.13178294897079468 -0.05426359176635742
-0.6965786218643188 -0.13178294897079468 -0.038759708404541016
-0.6969567537307739 -0.13178294897079468 -0.02325582504272461
-0.6970357894897461 -0.13178294897079468 -0.007751941680908203
-0.6965901255607605 -0.13178294897079468 0.007751941680908203
-0.696305513381958 -0.13178294897079468 0.02325582504272461
-0.6961544156074524 -0.13178294897079468 0.038759708404541016
-0.6963801383972168 -0.13178294897079468 0.05426359176635742
-0.6969615817070007 -0.13178294897079468 0.06976747512817383
-0.6962540149688721 -0.13178294897079468 0.08527135848999023
-0.6946624517440796 -0.13178294897079468 0.10077524185180664
-0.6968107223510742 -0.13178294897079468 0.11627912521362305
-0.7009671926498413 -0.11627906560897827 -0.11627906560897827
-0.6920832991600037 -0.11627906560897827 -0.10077518224716187
-0.6957960724830627 -0.11627906560897827 -0.08527129888534546
-0.69600510597229 -0.11627906560897827 -0.06976741552352905
-0.6957310438156128 -0.11627906560897827 -0.05426359176635742
-0.6965278387069702 -0.11627906560897827 -0.038759708404541016
-0.6973377466201782 -0.11627906560897827 -0.02325582504272461
-0.6976727247238159 -0.11627906560897827 -0.007751941680908203
-0.6972553133964539 -0.11627906560897827 0.007751941680908203
-0.6966549158096313 -0.11627906560897827 0.02325582504272461
-0.6959056854248047 -0.11627906560897827 0.038759708404541016
-0.6956398487091064 -0.11627906560897827 0.05426359176635742
-0.6957207918167114 -0.11627906560897827 0.06976747512817383
-0.6940779685974121 -0.11627906560897827 0.08527135848999023
-0.6985107064247131 -0.10077518224716187 -0.11627906560897827
-0.6924941539764404 -0.10077518224716187 -0.08527129888534546
-0.6927598714828491 -0.10077518224716187 -0.06976741552352905
-0.6929473280906677 -0.10077518224716187 -0.05426359176635742
-0.6945707201957703 -0.10077518224716187 -0.038759708404541016
-0.6959840059280396 -0.10077518224716187 -0.02325582504272461
-0.6966263055801392 -0.10077518224716187 -0.007751941680908203
-0.6961041688919067 -0.10077518224716187 0.007751941680908203
-0.6950745582580566 -0.10077518224716187 0.02325582504272461
-0.6936277151107788 -0.10077518224716187 0.038759708404541016
-0.6924970149993896 -0.10077518224716187 0.05426359176635742
-0.691595196723938 -0.10077518224716187 0.06976747512817383
-0.6924207210540771 -0.08527129888534546 -0.11627906560897827
-0.692071259021759 -0.08527129888534546 -0.038759708404541016
-0.6940051317214966 -0.08527129888534546 -0.02325582504272461
-0.6948518753051758 -0.08527129888534546 -0.007751941680908203
-0.6943252682685852 -0.08527129888534546 0.007751941680908203
-0.6931363940238953 -0.08527129888534546 0.02325582504272461
-0.6909570097923279 -0.08527129888534546 0.038759708404541016
-0.6899382472038269 0.05426359176635742 -0.11627906560897827
-0.6935436725616455 0.06976747512817383 -0.11627906560897827
-0.6914258599281311 0.06976747512817383 -0.038759708404541016
-0.6932680010795593 0.06976747512817383 -0.02325582504272461
-0.6934090256690979 0.06976747512817383 -0.007751941680908203
-0.6918197870254517 0.06976747512817383 0.007751941680908203
-0.6905038952827454 0.06976747512817383 0.02325582504272461
-0.6957272291183472 0.08527135848999023 -0.11627906560897827
-0.6906301379203796 0.08527135848999023 -0.038759708404541016
-0.6928321719169617 0.08527135848999023 -0.02325582504272461
-0.6939853429794312 0.08527135848999023 -0.007751941680908203
-0.6934288740158081 0.08527135848999023 0.007751941680908203
-0.6917278170585632 0.08527135848999023 0.02325582504272461
-0.696840763092041 0.10077524185180664 -0.11627906560897827
-0.6904418468475342 0.10077524185180664 -0.08527129888534546
-0.6909496188163757 0.10077524185180664 -0.02325582504272461
-0.6920949220657349 0.10077524185180664 -0.007751941680908203
-0.6915563941001892 0.10077524185180664 0.007751941680908203
-0.6989178657531738 0.11627912521362305 -0.11627906560897827
-0.7014333605766296 0.1317828893661499 -0.11627906560897827
-0.7035315632820129 0.1472867727279663 -0.11627905815839767
-0.6937825679779053 0.1472867727279663 -0.10077518224716187
-0.6914503574371338 0.1472867727279663 -0.08527129888534546
-0.6910187602043152 0.1472867727279663 0.10077524185180664
-0.6983807682991028 0.1472867727279663 0.11627912521362305
-0.7002831697463989 0.16279065608978271 -0.10077518224716187
-0.6986560821533203 0.16279065608978271 -0.08527129888534546
-0.6975939273834229 0.16279065608978271 -0.06976741552352905
-0.6969226002693176 0.16279065608978271 -0.05426359176635742
-0.696803092956543 0.16279065608978271 -0.038759708404541016
-0.6966918706893921 0.16279065608978271 -0.02325582504272461
-0.6963051557540894 0.16279065608978271 -0.007751941680908203
-0.6955190300941467 0.16279065608978271 0.007751941680908203
-0.6945778131484985 0.16279065608978271 0.02325582504272461
-0.6940862536430359 0.16279065608978271 0.038759708404541016
-0.6951630711555481 0.16279065608978271 0.05426359176635742
-0.6973309516906738 0.16279065608978271 0.06976747512817383
-0.6991925239562988 0.16279065608978271 0.08527135848999023
-0.7014756798744202 0.16279065608978271 0.10077524185180664
-0.7047765254974365 0.16279065608978271 0.11627913266420364
-0.689791202545166 -0.11627906560897827 0.10077524930238724
-0.6897659301757812 -0.11627906560897827 0.11627912521362305
-0.6891149878501892 -0.10077518224716187 -0.10077518224716187
-0.6890407204627991 -0.10077518224716187 0.08527135848999023
-0.6876223683357239 -0.10077518969774246 0.10077524185180664
-0.6877638101577759 -0.10077518224716187 0.11627912521362305
-0.6866523027420044 -0.08527129888534546 -0.10077518224716187
-0.6885372400283813 -0.08527129888534546 -0.08527129888534546
-0.6890913248062134 -0.08527129888534546 -0.06976741552352905
-0.6896648406982422 -0.08527130633592606 -0.05426359176635742
-0.6891955137252808 -0.08527129888534546 0.05426359176635742
-0.6879867911338806 -0.08527129888534546 0.06976747512817383
-0.6861619353294373 -0.08527129888534546 0.08527135848999023
-0.684941828250885 -0.08527129888534546 0.10077524185180664
-0.6857132911682129 -0.08527129888534546 0.11627912521362305
-0.6890978813171387 -0.06976741552352905 -0.11627906560897827
-0.6836367845535278 -0.06976741552352905 -0.10077518224716187
-0.6855825185775757 -0.06976741552352905 -0.08527129888534546
-0.6868242025375366 -0.06976741552352905 -0.06976741552352905
-0.6881589889526367 -0.06976741552352905 -0.05426359176635742
-0.6896447539329529 -0.06976741552352905 -0.038759708404541016
-0.6897380948066711 -0.06976741552352905 -0.02325582504272461
-0.6886600852012634 -0.06976741552352905 -0.007751941680908203
-0.688334584236145 -0.06976741552352905 0.007751941680908203
-0.6894872784614563 -0.06976741552352905 0.02325582504272461
-0.6891900897026062 -0.06976741552352905 0.038759708404541016
-0.6871060132980347 -0.06976741552352905 0.05426359176635742
-0.68489670753479 -0.06976741552352905 0.06976747512817383
-0.6833682060241699 -0.06976741552352905 0.08527135848999023
-0.6824045181274414 -0.06976741552352905 0.10077524185180664
-0.6835113763809204 -0.06976741552352905 0.11627912521362305
-0.6881952285766602 -0.05426359176635742 -0.11627906560897827
-0.680874228477478 -0.05426359176635742 -0.10077518224716187
-0.6826175451278687 -0.05426359176635742 -0.08527129888534546
-0.6841672658920288 -0.05426359176635742 -0.06976741552352905
-0.6852743029594421 -0.05426359176635742 -0.05426359176635742
-0.6784547567367554 -0.05426359176635742 -0.038759708404541016
-0.6769669651985168 -0.05426359176635742 0.038759708404541016
-0.6840111017227173 -0.05426359176635742 0.05426359176635742
-0.6826959848403931 -0.05426359176635742 0.06976747512817383
-0.6813675761222839 -0.05426359176635742 0.08527135848999023
-0.6804181337356567 -0.05426359176635742 0.10077524185180664
-0.6817026138305664 -0.05426359176635742 0.11627912521362305
-0.6881547570228577 -0.038759708404541016 -0.11627906560897827
-0.6793827414512634 -0.038759708404541016 -0.10077518224716187
-0.68021559715271 -0.038759708404541016 -0.08527129888534546
-0.6798412203788757 -0.038759708404541016 -0.06976741552352905
-0.6809942722320557 -0.038759708404541016 0.06976747512817383
-0.6798364520072937 -0.038759708404541016 0.08527135848999023
-0.6782995462417603 -0.038759708404541016 0.10077524185180664
-0.680159866809845 -0.038759708404541016 0.11627912521362305
-0.6887311935424805 -0.02325582504272461 -0.11627906560897827
-0.6791457533836365 -0.02325582504272461 -0.10077518224716187
-0.6785414814949036 -0.02325582504272461 -0.08527129888534546
-0.6767162084579468 -0.02325582504272461 0.06976747512817383
-0.6766592264175415 -0.02325582504272461 0.08527135848999023
-0.6744766235351562 -0.02325582504272461 0.10077524185180664
-0.6785985827445984 -0.02325582504272461 0.11627912521362305
-0.6894197463989258 -0.007751941680908203 -0.11627906560897827
-0.6788338422775269 -0.007751941680908203 -0.10077518224716187
-0.6767743825912476 -0.007751941680908203 -0.08527129888534546
-0.6779642105102539 -0.007751941680908203 0.11627912521362305
-0.6896817088127136 0.007751941215246916 -0.11627906560897827
-0.6789276599884033 0.007751941680908203 -0.10077518224716187
-0.6771626472473145 0.007751941680908203 -0.08527129888534546
-0.6756598949432373 0.007751941680908203 0.06976747512817383
-0.6766168475151062 0.007751941680908203 0.08527135848999023
-0.6754405498504639 0.007751941680908203 0.10077524185180664
-0.6797032952308655 0.007751941680908203 0.11627912521362305
-0.6897416114807129 0.02325582504272461 -0.11627907305955887
-0.679510235786438 0.02325582504272461 -0.10077518224716187
-0.6787543892860413 0.02325582504272461 -0.08527129888534546
-0.6749099493026733 0.02325582504272461 -0.06976741552352905
-0.6796712279319763 0.02325582504272461 0.06976747512817383
-0.6793001890182495 0.02325582504272461 0.08527135848999023
-0.6786191463470459 0.02325582504272461 0.10077524185180664
-0.6812484264373779 0.02325582504272461 0.11627912521362305
-0.6898031234741211 0.038759708404541016 -0.11627905815839767
-0.6809781789779663 0.038759708404541016 -0.10077518224716187
-0.6812745332717896 0.038759708404541016 -0.08527129888534546
-0.6821127533912659 0.038759708404541016 -0.06976741552352905
-0.6787070631980896 0.038759708404541016 -0.05426359176635742
-0.678857147693634 0.038759708404541016 0.05426359176635742
-0.6820498704910278 0.038759708404541016 0.06976747512817383
-0.6808017492294312 0.038759708404541016 0.08527135848999023
-0.6806867122650146 0.038759708404541016 0.10077524185180664
-0.6829789876937866 0.038759708404541016 0.11627912521362305
-0.6829134821891785 0.05426359176635742 -0.10077518224716187
-0.6840457916259766 0.05426358804106712 -0.08527129888534546
-0.6851287484169006 0.05426359176635742 -0.06976741552352905
-0.6874866485595703 0.05426359176635742 -0.05426359176635742
-0.6885681748390198 0.05426359176635742 -0.038759708404541016
-0.6794132590293884 0.05426359176635742 -0.02325582504272461
-0.6850118637084961 0.05426359176635742 0.038759708404541016
-0.6861013770103455 0.05426359549164772 0.05426359549164772
-0.6837670803070068 0.05426359176635742 0.06976747512817383
-0.6825699806213379 0.05426359176635742 0.08527135848999023
-0.682714581489563 0.05426359176635742 0.10077524185180664
-0.6846904158592224 0.05426359176635742 0.11627912521362305
-0.6854931116104126 0.06976747512817383 -0.10077518224716187
-0.6875462532043457 0.06976747512817383 -0.08527129888534546
-0.6878631114959717 0.06976747512817383 -0.06976741552352905
-0.6888248920440674 0.06976747512817383 -0.05426359176635742
-0.6893185377120972 0.06976747512817383 0.038759708404541016
-0.6879016757011414 0.06976747512817383 0.05426359549164772
-0.6856222152709961 0.06976747512817383 0.06976747512817383
-0.6846208572387695 0.06976747512817383 0.08527135848999023
-0.6846407055854797 0.06976747512817383 0.10077524185180664
-0.6860527396202087 0.06976747512817383 0.11627912521362305
-0.6873515248298645 0.08527135103940964 -0.10077518224716187
-0.6896947622299194 0.08527135848999023 -0.08527129888534546
-0.6893900036811829 0.08527135848999023 -0.06976741552352905
-0.6891458034515381 0.08527135848999023 -0.05426359176635742
-0.6895834803581238 0.08527136594057083 0.038759708404541016
-0.6884862184524536 0.08527135848999023 0.05426359176635742
-0.6870173215866089 0.08527135848999023 0.06976747512817383
-0.6861739158630371 0.08527135848999023 0.08527135848999023
-0.6860868334770203 0.08527135848999023 0.10077524185180664
-0.6870270371437073 0.08527135848999023 0.11627912521362305
-0.6880345940589905 0.10077524185180664 -0.10077518224716187
-0.6896201372146606 0.10077524930238724 -0.06976741552352905
-0.6889699697494507 0.10077524185180664 -0.05426359176635742
-0.6896117925643921 0.10077524185180664 -0.038759708404541016
-0.6898823380470276 0.10077524185180664 0.02325582318007946
-0.689091682434082 0.10077524185180664 0.038759708404541016
-0.6883481740951538 0.10077523440122604 0.05426359176635742
-0.6876615881919861 0.10077524185180664 0.06976747512817383
-0.687002956867218 0.10077524185180664 0.08527135848999023
-0.686965823173523 0.10077524185180664 0.10077524185180664
-0.6877281069755554 0.10077524185180664 0.11627912521362305
-0.6883278489112854 0.11627912521362305 -0.10077518224716187
-0.6897110342979431 0.11627912521362305 -0.08527129888534546
-0.68906569480896 0.11627913266420364 -0.06976741552352905
-0.6885465979576111 0.11627912521362305 -0.05426359176635742
-0.6890546679496765 0.11627912521362305 -0.038759708404541016
-0.689490020275116 0.11627912521362305 -0.02325582504272461
-0.6897596120834351 0.11627912521362305 -0.007751941680908203
-0.689471423625946 0.11627913266420364 0.00775194214656949
-0.6889273524284363 0.11627912521362305 0.02325582504272461
-0.6881966590881348 0.11627912521362305 0.038759708404541016
-0.6877231597900391 0.11627912521362305 0.05426359176635742
-0.6877534985542297 0.11627912521362305 0.06976747512817383
-0.6874805092811584 0.11627912521362305 0.08527135848999023
-0.6877049803733826 0.11627912521362305 0.10077524185180664
-0.6885507106781006 0.11627912521362305 0.11627912521362305
-0.6891834735870361 0.1317828893661499 -0.10077518224716187
-0.6893065571784973 0.1317828893661499 -0.08527129888534546
-0.6884690523147583 0.1317828893661499 -0.06976741552352905
-0.6881527304649353 0.1317828893661499 -0.05426359176635742
-0.6884239912033081 0.1317828893661499 -0.038759708404541016
-0.6885567903518677 0.1317828893661499 -0.02325582504272461
-0.6886079907417297 0.1317828893661499 -0.007751941680908203
-0.6882613301277161 0.1317828893661499 0.007751941215246916
-0.6877307295799255 0.1317828893661499 0.02325582504272461
-0.6871839761734009 0.1317828893661499 0.038759708404541016
-0.6870476603507996 0.1317828893661499 0.05426359176635742
-0.6877363920211792 0.1317828893661499 0.06976747512817383
-0.6880469918251038 0.1317828893661499 0.08527135848999023
-0.6885663270950317 0.1317828893661499 0.10077524185180664
-0.6897794008255005 0.1317828893661499 0.11627912521362305
-0.6895549893379211 0.14728675782680511 -0.06976741552352905
-0.6891891360282898 0.1472867727279663 -0.05426359176635742
-0.6891893744468689 0.1472867727279663 -0.038759708404541016
-0.6891775131225586 0.1472867727279663 -0.02325582504272461
-0.6890619993209839 0.1472867727279663 -0.007751941680908203
-0.6887475252151489 0.1472867727279663 0.007751941215246916
-0.6883929967880249 0.1472867727279663 0.02325582504272461
-0.6880687475204468 0.1472867727279663 0.038759708404541016
-0.6880767345428467 0.1472867727279663 0.05426359176635742
-0.6888353228569031 0.1472867727279663 0.06976747512817383
-0.6893782019615173 0.1472867727279663 0.08527135848999023
-0.6630634665489197 -0.038759708404541016 -0.05426359176635742
-0.6710572242736816 -0.038759708404541016 0.05426359176635742
-0.6726013422012329 -0.02325582504272461 -0.06976741552352905
-0.6661762595176697 -0.007751941680908203 -0.06976741552352905
-0.6735401153564453 -0.007751941215246916 0.06976746767759323
-0.6740677952766418 -0.007751941680908203 0.08527135848999023
-0.6737282276153564 -0.00775194214656949 0.10077524930238724
-0.6681554317474365 0.007751941680908203 -0.06976741552352905
-0.613213300704956 -0.02325582504272461 0.05426359176635742
-0.6212784051895142 0.02325582504272461 0.05426359176635742
-0.5990241765975952 -0.007751941680908203 0.05426359176635742
-0.601750373840332 0.007751941680908203 0.05426359176635742
-0.6086205840110779 0.02325582504272461 -0.05426359176635742
-0.6111903786659241 0.05426359176635742 0.02325582318007946
-0.5906339883804321 -0.02325582504272461 -0.05426359176635742
-0.5954598188400269 0.05426359176635742 -0.007751941680908203
-0.5677602887153625 0.05426359176635742 -0.007751941680908203
-0.43739306926727295 -0.007751941680908203 -0.05426359176635742
-0.39823874831199646 -0.05426359176635742 -0.02325582504272461
-0.3962709307670593 0.038759708404541016 0.038759708404541016
-0.40263211727142334 0.05426359176635742 0.007751941680908203
-0.38634049892425537 -0.007751941680908203 -0.05426359176635742
-0.38440829515457153 0.038759708404541016 0.038759708404541016
-0.3899102807044983 0.05426359176635742 0.007751941680908203
-0.361592561006546 -0.05426359176635742 -0.02325582504272461
-0.3049638867378235 -0.05426359176635742 -0.02325582504272461
-0.29753565788269043 -0.05426359176635742 -0.02325582504272461
-0.27906113862991333 0.038759708404541016 0.038759708404541016
-0.2654760479927063 -0.05426359176635742 -0.02325582504272461
-0.24961715936660767 -0.05426359176635742 0.02325582504272461
-0.23320923745632172 0.05426359176635742 0.007751941680908203
-0.2002648562192917 0.05426359176635742 0.007751941680908203
-0.12438061833381653 -0.05426359176635742 0.02325582504272461
-0.12444603443145752 0.038759708404541016 0.038759708404541016
-0.09954208880662918 0.038759708404541016 0.038759708404541016
-0.05874728411436081 -0.05426359176635742 0.02325582504272461
-0.0007983457762748003 -0.007751941680908203 -0.05426359176635742
0.0019696885719895363 0.007751941680908203 -0.05426359176635742
0.08862180262804031 0.05426359176635742 0.007751941680908203
0.1712646782398224 0.05426359176635742 -0.007751941680908203
0.19089415669441223 0.05426359176635742 -0.007751941680908203
0.22976648807525635 -0.05426359176635742 -0.02325582504272461
0.2972289025783539 -0.05426359176635742 0.02325582504272461
0.39092928171157837 0.05426359176635742 0.007751941680908203
0.5313259363174438 -0.007751941680908203 -0.05426359176635742
0.5400879383087158 -0.007751941680908203 -0.05426359176635742
0.5698026418685913 -0.007751941215246916 -0.05426359176635742
0.6034910678863525 0.007751941680908203 -0.05426359176635742
0.6228345632553101 -0.02325582504272461 -0.05426359176635742
0.6187787652015686 -0.007751941680908203 0.05426359176635742
0.6274086833000183 0.05426359176635742 -0.02325582504272461
0.6608891487121582 -0.05426359176635742 -0.038759708404541016
0.7462663650512695 -0.05426359176635742 -0.038759708404541016
0.7482208013534546 -0.007751941680908203 0.05426359176635742
0.7391241788864136 0.05426359176635742 -0.02325582504272461
0.8162692189216614 -0.007751941215246916 0.05426359176635742
0.9404684901237488 -0.05426359176635742 -0.038759708404541016
0.9493260383605957 -0.038759708404541016 -0.05426359176635742
0.9549246430397034 -0.02325582504272461 0.05426359176635742
0.9545561671257019 0.00775194214656949 0.05426359549164772
0.9556276798248291 0.02325582318007946 -0.05426358804106712
0.9650735855102539 0.05426359176635742 -0.02325582504272461
0.9690703749656677 0.038759708404541016 0.038759708404541016
0.9906103610992432 -0.05426359176635742 -0.038759708404541016
0.9916031360626221 -0.05426359176635742 -0.02325582504272461
0.9916775226593018 -0.05426359176635742 -0.007751941680908203
0.9917292594909668 -0.05426359176635742 0.007751941680908203
0.9914169907569885 -0.05426359176635742 0.02325582504272461
0.9902706742286682 -0.038759708404541016 -0.05426359176635742
0.9917177557945251 -0.038759708404541016 -0.038759708404541016
0.9914019107818604 -0.038759708404541016 -0.02325582504272461
0.9911857843399048 -0.038759708404541016 -0.007751941680908203
0.9913319945335388 -0.038759708404541016 0.007751941680908203
0.9917230010032654 -0.038759708404541016 0.02325582504272461
0.9917284250259399 -0.038759708404541016 0.038759708404541016
0.9916361570358276 -0.02325582504272461 -0.05426359176635742
0.9915553331375122 -0.02325582504272461 -0.038759708404541016
0.991131067276001 -0.02325582504272461 -0.02325582504272461
0.9908356666564941 -0.02325582504272461 -0.007751941680908203
0.9909086227416992 -0.02325582504272461 0.007751941680908203
0.9914101362228394 -0.02325582504272461 0.02325582504272461
0.9918124675750732 -0.02325582504272461 0.038759708404541016
0.9897388219833374 -0.02325582504272461 0.05426359176635742
0.9917305707931519 -0.007751941680908203 -0.05426359176635742
0.9914213418960571 -0.007751941680908203 -0.038759708404541016
0.9910246133804321 -0.007751941680908203 -0.02325582504272461
0.9905719757080078 -0.007751941680908203 -0.007751941680908203
0.9906005263328552 -0.007751941680908203 0.007751941680908203
0.9911764860153198 -0.007751941680908203 0.02325582504272461
0.9917405843734741 -0.007751941680908203 0.038759708404541016
0.9909241199493408 -0.00775194214656949 0.05426359549164772
0.9916978478431702 0.007751941680908203 -0.05426359176635742
0.9915374517440796 0.00775194214656949 -0.038759708404541016
0.9910561442375183 0.007751941680908203 -0.02325582504272461
0.9906014800071716 0.007751941680908203 -0.007751941680908203
0.9906448125839233 0.007751941680908203 0.007751941680908203
0.9912130236625671 0.007751941680908203 0.02325582504272461
0.9917436838150024 0.007751941680908203 0.038759708404541016
0.9900060892105103 0.007751941680908203 0.05426359176635742
0.9904820322990417 0.02325582504272461 -0.05426359176635742
0.9917147755622864 0.02325582504272461 -0.038759708404541016
0.9912183880805969 0.02325582504272461 -0.02325582504272461
0.9907644987106323 0.02325582504272461 -0.007751941680908203
0.990875244140625 0.02325582504272461 0.007751941680908203
0.9915153980255127 0.02325582504272461 0.02325582504272461
0.991644561290741 0.02325582504272461 0.038759708404541016
0.9913862347602844 0.038759708404541016 -0.038759708404541016
0.9916114211082458 0.038759708404541016 -0.02325582504272461
0.9913519620895386 0.038759708404541016 -0.007751941215246916
0.9914865493774414 0.038759708404541016 0.007751941680908203
0.9917088150978088 0.038759708404541016 0.02325582504272461
0.988106906414032 0.038759708404541016 0.038759708404541016
0.9889423251152039 0.05426359176635742 -0.02325582504272461
0.9910688400268555 0.05426359176635742 -0.007751941680908203
0.9907572269439697 0.05426359176635742 0.007751941680908203
-0.9844961166381836 -0.16359806060791016 -0.007751941680908203
-0.9844961166381836 -0.16474439203739166 0.007751941680908203
-0.9844961166381836 -0.16349215805530548 0.02325582504272461
-0.9844961166381836 -0.15443062782287598 -0.05426359176635742
-0.9844961166381836 -0.15770530700683594 -0.038759708404541016
-0.9844961166381836 -0.16082771122455597 -0.02325582504272461
-0.9844961166381836 -0.16067804396152496 0.038759708404541016
-0.9844961166381836 -0.15748068690299988 0.05426359176635742
-0.9844961166381836 -0.1365000456571579 -0.06976741552352905
-0.9844961166381836 -0.1454477161169052 0.06976747512817383
-0.9844961166381836 0.12497717142105103 -0.06976741552352905
-0.9844961166381836 0.1539633870124817 -0.05426359176635742
-0.9844961166381836 0.15830069780349731 -0.038759708404541016
-0.9844961166381836 0.1581130176782608 0.05426359176635742
-0.9844961166381836 0.15099741518497467 0.06976747512817383
-0.9844961166381836 0.16410697996616364 -0.02325582504272461
-0.9844961166381836 0.16673672199249268 -0.007751941680908203
-0.9844961166381836 0.16715264320373535 0.00775194214656949
-0.9844961166381836 0.16612300276756287 0.02325582504272461
-0.9844961166381836 0.1632050722837448 0.038759708404541016
-0.9689922332763672 -0.16313768923282623 0.007751941680908203
-0.9689922332763672 -0.16279858350753784 0.02325582504272461
-0.9689922332763672 -0.15396258234977722 -0.05426359176635742
-0.968992292881012 -0.15706364810466766 -0.038759708404541016
-0.9689922332763672 -0.1597539335489273 -0.02325582504272461
-0.9689922332763672 -0.16224604845046997 -0.00775194214656949
-0.9689922332763672 -0.1607871800661087 0.038759708404541016
-0.9689922332763672 -0.15785935521125793 0.05426359176635742
-0.9689922332763672 -0.15073078870773315 0.06976747512817383
-0.9689922332763672 -0.1403779685497284 -0.06976741552352905
-0.9689922332763672 -0.07450123131275177 -0.08527129888534546
-0.9689921736717224 0.04313666373491287 -0.08527129888534546
-0.9689922332763672 0.14250363409519196 -0.06976741552352905
-0.9689922332763672 0.15524935722351074 -0.05426359176635742
-0.9689922332763672 0.15939858555793762 -0.038759708404541016
-0.9689922332763672 0.16269446909427643 0.038759708404541016
-0.9689922332763672 0.15932218730449677 0.05426359176635742
-0.9689922332763672 0.1517539918422699 0.06976747512817383
-0.968992292881012 0.16302862763404846 -0.02325582690536976
-0.9689922332763672 0.16402491927146912 -0.007751941680908203
-0.9689922332763672 0.16425243020057678 0.007751941680908203
-0.9689922332763672 0.16374780237674713 0.02325582504272461
-0.9534883499145508 -0.16385948657989502 -0.038759708404541016
-0.9534883499145508 -0.16529586911201477 -0.02325582504272461
-0.9534883499145508 -0.16611748933792114 -0.007751941680908203
-0.9534883499145508 -0.16651128232479095 0.007751941680908203
-0.9534883499145508 -0.16634643077850342 0.02325582504272461
-0.9534883499145508 -0.16587544977664948 0.038759708404541016
-0.9534883499145508 -0.16514217853546143 0.05426359176635742
-0.9534883499145508 -0.15317752957344055 -0.06976741552352905
-0.9534883499145508 -0.1593284010887146 -0.05426359176635742
-0.9534883499145508 -0.15816844999790192 0.06976747512817383
-0.9534883499145508 -0.12386710941791534 -0.08527129888534546
-0.9534883499145508 -0.08730781078338623 0.08527135848999023
-0.9534883499145508 0.1277191936969757 -0.08527129888534546
-0.9534883499145508 0.1342383772134781 0.08527135848999023
-0.9534883499145508 0.15696445107460022 -0.06976741552352905
-0.9534883499145508 0.15715625882148743 0.06976747512817383
-0.953488290309906 0.16287200152873993 -0.05426358804106712
-0.9534883499145508 0.1650964766740799 -0.038759708404541016
-0.9534883499145508 0.16594555974006653 -0.02325582318007946
-0.9534883499145508 0.16647909581661224 -0.007751941680908203
-0.9534883499145508 0.16656364500522614 0.007751941215246916
-0.953488290309906 0.16610126197338104 0.02325582318007946
-0.9534883499145508 0.16530179977416992 0.038759708404541016
-0.953488290309906 0.16440026462078094 0.05426359176635742
-0.9379844665527344 -0.1652168184518814 -0.06976741552352905
-0.9379844665527344 -0.16898362338542938 -0.05426359176635742
-0.9379844665527344 -0.16973531246185303 -0.038759708404541016
-0.9379844665527344 -0.1694341003894806 -0.02325582504272461
-0.9379844665527344 -0.1694161593914032 -0.007751941680908203
-0.9379844665527344 -0.16959932446479797 0.007751941680908203
-0.9379844665527344 -0.16960501670837402 0.02325582504272461
-0.9379844665527344 -0.16970142722129822 0.038759708404541016
-0.9379844665527344 -0.1697925180196762 0.05426359176635742
-0.9379844665527344 -0.16913321614265442 0.06976747512817383
-0.9379844665527344 -0.15107092261314392 -0.08527129888534546
-0.9379844665527344 -0.15317516028881073 0.08527135848999023
-0.9379844665527344 -0.10364355891942978 -0.10077518224716187
-0.9379844665527344 0.08133512735366821 -0.10077518224716187
-0.9379844665527344 0.15590691566467285 -0.08527129888534546
-0.9379844665527344 0.15586239099502563 0.08527135848999023
-0.9379844665527344 0.1664005070924759 -0.06976741552352905
-0.9379844665527344 0.16902020573616028 -0.05426358804106712
-0.9379844069480896 0.16976095736026764 -0.038759708404541016
-0.9379844665527344 0.16937491297721863 -0.02325582504272461
-0.9379844665527344 0.16912293434143066 -0.007751941680908203
-0.9379844665527344 0.16900742053985596 0.007751941680908203
-0.9379844665527344 0.1688595861196518 0.02325582504272461
-0.9379844069480896 0.16884921491146088 0.038759708404541016
-0.9379844665527344 0.16862040758132935 0.05426359176635742
-0.9379844665527344 0.1666926145553589 0.06976747512817383
-0.922480583190918 -0.16822755336761475 -0.08527129888534546
-0.9224807024002075 -0.1734263300895691 -0.06976741552352905
-0.9224806427955627 -0.17513324320316315 -0.05426359176635742
-0.9224806427955627 -0.17537258565425873 -0.038759708404541016
-0.9224806427955627 -0.17465732991695404 -0.02325582504272461
-0.9224806427955627 -0.17392146587371826 -0.007751941680908203
-0.9224807024002075 -0.17359817028045654 0.007751941680908203
-0.922480583190918 -0.1736949384212494 0.02325582318007946
-0.9224806427955627 -0.1743406504392624 0.038759708404541016
-0.922480583190918 -0.17508924007415771 0.05426359176635742
-0.9224806427955627 -0.17554563283920288 0.06976747512817383
-0.922480583190918 -0.17184653878211975 0.08527135848999023
-0.9224806427955627 -0.14168179035186768 -0.10077518969774246
-0.9224806427955627 -0.13930509984493256 0.10077524185180664
-0.9224806427955627 0.14482635259628296 -0.10077518224716187
-0.9224807024002075 0.1531326174736023 0.10077524185180664
-0.9224806427955627 0.16788695752620697 -0.08527129888534546
-0.9224807024002075 0.17221836745738983 -0.06976741552352905
-0.9224806427955627 0.17323853075504303 -0.05426359176635742
-0.9224807024002075 0.17373798787593842 -0.038759708404541016
-0.9224807024002075 0.17326480150222778 -0.02325582504272461
-0.9224806427955627 0.17285789549350739 -0.007751941680908203
-0.9224807024002075 0.1727309226989746 0.007751941680908203
-0.9224806427955627 0.17277289927005768 0.02325582504272461
-0.9224806427955627 0.172939270734787 0.038759708404541016
-0.9224806427955627 0.1726410835981369 0.05426359176635742
-0.9224806427955627 0.17178422212600708 0.06976747512817383
-0.9224806427955627 0.16850276291370392 0.08527135848999023
-0.9069767594337463 -0.17837080359458923 -0.06976741552352905
-0.9069767594337463 -0.17834123969078064 -0.05426359176635742
-0.9069767594337463 -0.17853645980358124 0.06976747512817383
-0.9069767594337463 -0.17870433628559113 0.08527135848999023
-0.9069768190383911 -0.16714102029800415 -0.10077518224716187
-0.9069766998291016 -0.17623499035835266 -0.08527129143476486
-0.9069767594337463 -0.1779390275478363 -0.038759712129831314
-0.9069768190383911 -0.177077978849411 -0.02325582504272461
-0.9069766998291016 -0.1761883944272995 -0.007751941680908203
-0.9069768190383911 -0.17568427324295044 0.007751941680908203
-0.9069767594337463 -0.1756730079650879 0.02325582504272461
-0.9069767594337463 -0.17631979286670685 0.038759712129831314
-0.9069768190383911 -0.17730934917926788 0.05426359176635742
-0.9069767594337463 -0.17408455908298492 0.10077524185180664
-0.9069768190383911 -0.13678878545761108 0.11627912521362305
-0.9069768190383911 -0.1230923980474472 -0.11627906560897827
-0.9069767594337463 0.1178150326013565 -0.11627906560897827
-0.9069766998291016 0.1490906924009323 0.11627912521362305
-0.9069767594337463 0.16463002562522888 -0.10077518224716187
-0.9069767594337463 0.17350539565086365 -0.08527129888534546
-0.9069767594337463 0.17652034759521484 -0.06976741552352905
-0.9069767594337463 0.17650413513183594 -0.05426359176635742
-0.9069767594337463 0.17580674588680267 -0.038759708404541016
-0.9069767594337463 0.17513388395309448 -0.02325582504272461
-0.9069767594337463 0.17471390962600708 -0.007751941680908203
-0.9069767594337463 0.17469868063926697 0.007751941680908203
-0.9069766998291016 0.17500430345535278 0.02325582504272461
-0.9069767594337463 0.1756778508424759 0.038759708404541016
