-0.09150062501430511 -0.02325582504272461 0.7829457521438599
-0.09474301338195801 -0.02325582504272461 0.7984496355056763
-0.09440681338310242 -0.02325582504272461 0.8139535188674927
-0.09371151775121689 -0.02325582504272461 0.8294574022293091
-0.09331026673316956 -0.02325582504272461 0.8449612855911255
-0.09323475509881973 -0.02325582504272461 0.8604651689529419
-0.09334886074066162 -0.02325582504272461 0.8759689331054688
-0.09370854496955872 -0.02325582504272461 0.8914728164672852
-0.09485828876495361 -0.02325582504272461 0.9069766998291016
-0.09610562026500702 -0.02325582504272461 0.922480583190918
-0.09652838855981827 -0.02325582504272461 0.9379844665527344
-0.09113986790180206 -0.02325582504272461 0.9534883499145508
-0.08540420979261398 -0.007751941680908203 -0.9534883499145508
-0.0863843560218811 -0.007751941680908203 -0.9379844665527344
-0.08527633547782898 -0.007751941680908203 0.6589146852493286
-0.0854993537068367 -0.007751941680908203 0.674418568611145
-0.09170947968959808 -0.007751941680908203 0.7829457521438599
-0.09477575123310089 -0.007751941680908203 0.7984496355056763
-0.09429962933063507 -0.007751941680908203 0.8139535188674927
-0.09366167336702347 -0.007751941680908203 0.8294574022293091
-0.0933334082365036 -0.007751941215246916 0.8449612855911255
-0.0932970643043518 -0.007751941680908203 0.8604651689529419
-0.09343691170215607 -0.007751941680908203 0.8759689331054688
-0.09382683038711548 -0.007751941680908203 0.8914728164672852
-0.09493758529424667 -0.007751941680908203 0.9069766998291016
-0.09618556499481201 -0.007751941680908203 0.922480583190918
-0.09658993035554886 -0.007751941680908203 0.9379844665527344
-0.09101007878780365 -0.007751941680908203 0.9534883499145508
-0.0856281965970993 0.007751941680908203 -0.9534883499145508
-0.08638030290603638 0.007751941680908203 -0.9379844665527344
-0.08542315661907196 0.007751941680908203 0.674418568611145
-0.09154948592185974 0.007751941680908203 0.7829457521438599
-0.09454191476106644 0.007751941680908203 0.7984496355056763
-0.09409335255622864 0.007751941680908203 0.8139535188674927
-0.09359751641750336 0.007751941680908203 0.8294574022293091
-0.09336067736148834 0.00775194214656949 0.8449612855911255
-0.09336502850055695 0.007751941680908203 0.8604651689529419
-0.09353968501091003 0.007751941680908203 0.8759689331054688
-0.09397517144680023 0.007751941680908203 0.8914728164672852
-0.09507331252098083 0.007751941680908203 0.9069766998291016
-0.09635259211063385 0.007751941680908203 0.9224805235862732
-0.09681553393602371 0.007751941680908203 0.9379845261573792
-0.09111855924129486 0.007751941680908203 0.9534883499145508
-0.09096044301986694 0.02325582504272461 0.7829457521438599
-0.09417656064033508 0.02325582504272461 0.7984496355056763
-0.09396381676197052 0.02325582504272461 0.8139535188674927
-0.09363850951194763 0.02325582504272461 0.8294574022293091
-0.09346908330917358 0.02325582504272461 0.8449612855911255
-0.09350023418664932 0.02325582504272461 0.8604651689529419
-0.09369522333145142 0.02325582504272461 0.8759689331054688
-0.0941595584154129 0.02325582504272461 0.8914727568626404
-0.09521214663982391 0.02325582504272461 0.9069766998291016
-0.09649883210659027 0.02325582504272461 0.922480583190918
-0.09702499955892563 0.02325582504272461 0.9379845261573792
-0.0911148190498352 0.02325582504272461 0.9534883499145508
-0.09039796888828278 0.038759708404541016 0.7829457521438599
-0.09385259449481964 0.038759708404541016 0.7984496355056763
-0.09384150803089142 0.038759708404541016 0.8139535188674927
-0.09361608326435089 0.038759708404541016 0.8294574022293091
-0.09343218803405762 0.038759708404541016 0.8449612855911255
-0.09345968812704086 0.038759708404541016 0.8604651689529419
-0.09369272738695145 0.038759708404541016 0.8759689331054688
-0.0941593274474144 0.038759708404541016 0.8914728164672852
-0.09516531229019165 0.038759708404541016 0.9069766998291016
-0.09650139510631561 0.038759708404541016 0.922480583190918
-0.09714782238006592 0.038759708404541016 0.9379844665527344
-0.09148572385311127 0.038759708404541016 0.9534883499145508
-0.08983655273914337 0.05426359176635742 0.7829457521438599
-0.09363946318626404 0.05426359176635742 0.7984496355056763
-0.09387558698654175 0.05426359176635742 0.8139535188674927
-0.09373228251934052 0.05426359176635742 0.8294574022293091
-0.09350550919771194 0.05426359176635742 0.8449612855911255
-0.09349571168422699 0.05426359176635742 0.8604651689529419
-0.0937356948852539 0.05426359176635742 0.8759689331054688
-0.09415403008460999 0.05426359176635742 0.8914728164672852
-0.09510307759046555 0.05426358804106712 0.9069766998291016
-0.09646105021238327 0.05426359176635742 0.922480583190918
-0.09713736921548843 0.05426359176635742 0.9379844069480896
-0.09169939160346985 0.05426359176635742 0.9534883499145508
-0.08924783766269684 0.06976747512817383 0.7829457521438599
-0.09341809153556824 0.06976747512817383 0.7984496355056763
-0.09390963613986969 0.06976747512817383 0.8139535188674927
-0.09386098384857178 0.06976747512817383 0.8294574022293091
-0.0936250314116478 0.06976747512817383 0.8449612855911255
-0.09358207881450653 0.06976747512817383 0.8604651689529419
-0.09380629658699036 0.06976747512817383 0.8759689331054688
-0.09412865340709686 0.06976747512817383 0.8914728164672852
-0.0950155109167099 0.06976747512817383 0.9069766998291016
-0.09634704887866974 0.06976747512817383 0.922480583190918
-0.09700220823287964 0.06976747512817383 0.9379844665527344
-0.09162865579128265 0.06976747512817383 0.9534883499145508
-0.0886736661195755 0.08527135848999023 0.7829457521438599
-0.09318423271179199 0.08527135848999023 0.7984496355056763
-0.09389786422252655 0.08527135848999023 0.8139535188674927
-0.09393370151519775 0.08527135848999023 0.8294574022293091
-0.09370770305395126 0.08527135848999023 0.8449612855911255
-0.0936451405286789 0.08527135848999023 0.8604651689529419
-0.09384549409151077 0.08527135848999023 0.8759689331054688
-0.09409315884113312 0.08527135848999023 0.8914727568626404
-0.09496430307626724 0.08527135848999023 0.9069766998291016
-0.09624600410461426 0.08527135848999023 0.9224806427955627
-0.09689012169837952 0.08527135848999023 0.9379844665527344
-0.09162138402462006 0.08527135848999023 0.9534883499145508
-0.08788101375102997 0.10077524185180664 0.7829457521438599
-0.09292437136173248 0.10077524185180664 0.7984496355056763
-0.09386363625526428 0.10077524185180664 0.8139535188674927
-0.09392614662647247 0.10077524185180664 0.8294574022293091
-0.09369416534900665 0.10077524185180664 0.8449612855911255
-0.09361614286899567 0.10077524185180664 0.8604651689529419
-0.09379453212022781 0.10077524185180664 0.8759689331054688
-0.09402726590633392 0.10077524185180664 0.8914728164672852
-0.09496113657951355 0.10077524185180664 0.9069766998291016
-0.09626217931509018 0.10077524185180664 0.922480583190918
-0.09692907333374023 0.10077523440122604 0.9379844665527344
-0.09164067357778549 0.10077524185180664 0.9534883499145508
-0.08658286184072495 0.11627912521362305 0.7829457521438599
-0.09233257174491882 0.11627912521362305 0.7984496355056763
-0.09367144852876663 0.11627912521362305 0.8139535188674927
-0.09369263052940369 0.11627912521362305 0.8294574022293091
-0.09337212890386581 0.11627912521362305 0.8449612855911255
-0.0932488888502121 0.11627912521362305 0.8604651689529419
-0.09340690821409225 0.11627912521362305 0.8759689331054688
-0.09368930757045746 0.11627912521362305 0.8914728164672852
-0.0948052704334259 0.11627912521362305 0.9069766998291016
-0.09621325135231018 0.11627912521362305 0.922480583190918
-0.09696921706199646 0.11627912521362305 0.9379845261573792
-0.0914996787905693 0.11627912521362305 0.9534883499145508
-0.0915987640619278 0.1317828893661499 0.7984496355056763
-0.09349033236503601 0.1317828893661499 0.8139535188674927
-0.09349732100963593 0.1317828893661499 0.8294574022293091
-0.09307008981704712 0.1317828893661499 0.8449612855911255
-0.09288617968559265 0.1317828893661499 0.8604651689529419
-0.0930156409740448 0.1317828893661499 0.8759689331054688
-0.0933782160282135 0.1317828893661499 0.8914728164672852
-0.09471435844898224 0.1317828893661499 0.9069766998291016
-0.0962262749671936 0.1317828893661499 0.922480583190918
-0.09699995070695877 0.1317828893661499 0.9379844069480896
-0.09148494154214859 0.1317828893661499 0.9534883499145508
-0.09089282155036926 0.1472867727279663 0.7984496355056763
-0.09337562322616577 0.1472867727279663 0.8139535188674927
-0.09344005584716797 0.1472867727279663 0.8294574022293091
-0.093044713139534 0.1472867727279663 0.8449612855911255
-0.09282378852367401 0.1472867727279663 0.8604651689529419
-0.09284664690494537 0.1472867727279663 0.8759689331054688
-0.0932035744190216 0.1472867727279663 0.8914728164672852
-0.09465949982404709 0.1472867727279663 0.9069766402244568
-0.09622766077518463 0.1472867727279663 0.922480583190918
-0.09702344983816147 0.1472867727279663 0.9379844665527344
-0.09151597321033478 0.1472867727279663 0.9534883499145508
-0.09047041833400726 0.16279065608978271 0.7984496355056763
-0.09325827658176422 0.16279065608978271 0.8139535188674927
-0.09331812709569931 0.16279065608978271 0.8294574022293091
-0.09304245561361313 0.16279065608978271 0.8449612855911255
-0.09292243421077728 0.16279065608978271 0.8604651689529419
-0.09291332960128784 0.16279065608978271 0.8759689331054688
-0.09323731064796448 0.16279065608978271 0.8914728164672852
-0.09470878541469574 0.16279065608978271 0.9069766998291016
-0.09631027281284332 0.16279065608978271 0.922480583190918
-0.09713239967823029 0.16279065608978271 0.9379844665527344
-0.09160445630550385 0.16279065608978271 0.9534883499145508
-0.08998144418001175 0.17829453945159912 0.7984496355056763
-0.09312129020690918 0.17829453945159912 0.8139535188674927
-0.09317128360271454 0.17829453945159912 0.8294574022293091
-0.09293698519468307 0.17829453945159912 0.8449612855911255
-0.09291820228099823 0.17829453945159912 0.8604651689529419
-0.0929926335811615 0.17829453945159912 0.8759689331054688
-0.09339418262243271 0.17829453945159912 0.8914728164672852
-0.09489007294178009 0.17829453945159912 0.9069766998291016
-0.09647486358880997 0.17829453945159912 0.922480583190918
-0.09729684144258499 0.17829453945159912 0.9379844665527344
-0.09211654216051102 0.17829453945159912 0.9534883499145508
-0.08933178335428238 0.19379842281341553 0.7984496355056763
-0.09281910210847855 0.19379842281341553 0.8139535188674927
-0.09296347200870514 0.19379842281341553 0.8294574022293091
-0.09279032796621323 0.19379842281341553 0.8449612855911255
-0.09290239214897156 0.19379842281341553 0.8604651689529419
-0.09309542179107666 0.19379842281341553 0.8759689331054688
-0.0936034694314003 0.19379842281341553 0.8914728164672852
-0.09508733451366425 0.19379842281341553 0.9069766998291016
-0.09664753079414368 0.19379842281341553 0.922480583190918
-0.09746415168046951 0.19379842281341553 0.9379845261573792
-0.09257820248603821 0.19379842281341553 0.9534883499145508
-0.08857962489128113 0.20930230617523193 0.7984496355056763
-0.09235947579145432 0.20930230617523193 0.8139535188674927
-0.0927165150642395 0.20930230617523193 0.8294574022293091
-0.09274546802043915 0.20930230617523193 0.8449612855911255
-0.09299391508102417 0.20930230617523193 0.8604651689529419
-0.09324926137924194 0.20930230617523193 0.8759689331054688
-0.09376586973667145 0.20930230617523193 0.8914728164672852
-0.09516242146492004 0.20930230617523193 0.9069766998291016
-0.09672372788190842 0.20930232107639313 0.9224806427955627
-0.09766680002212524 0.20930230617523193 0.9379844665527344
-0.09324716031551361 0.20930230617523193 0.9534883499145508
-0.08764258027076721 0.22480618953704834 0.7984496355056763
-0.09179908782243729 0.22480618953704834 0.8139535188674927
-0.09246799349784851 0.22480618953704834 0.8294574022293091
-0.09272004663944244 0.22480618953704834 0.8449612855911255
-0.09302259981632233 0.22480618953704834 0.8604651689529419
-0.09326955676078796 0.22480618953704834 0.8759689331054688
-0.09375150501728058 0.22480618953704834 0.8914728164672852
-0.09510531276464462 0.22480618953704834 0.9069766998291016
-0.09668998420238495 0.22480618953704834 0.922480583190918
-0.09783290326595306 0.22480618953704834 0.9379844665527344
-0.09392456710338593 0.22480618953704834 0.9534883499145508
-0.08639311790466309 0.24031007289886475 0.7984496355056763
-0.09119938313961029 0.24031007289886475 0.8139535188674927
-0.09232685714960098 0.24031007289886475 0.8294574022293091
-0.09276367723941803 0.24031007289886475 0.8449612855911255
-0.09305129945278168 0.24031007289886475 0.8604651689529419
-0.09323930740356445 0.24031007289886475 0.8759689331054688
-0.0936228334903717 0.24031007289886475 0.8914728164672852
-0.0949251800775528 0.24031007289886475 0.9069766998291016
-0.09652546793222427 0.24031007289886475 0.9224805235862732
-0.09785924851894379 0.24031007289886475 0.9379844665527344
-0.0944092720746994 0.24031007289886475 0.9534883499145508
-0.085311658680439 0.25581395626068115 0.7984496355056763
-0.090690977871418 0.25581395626068115 0.8139535188674927
-0.09223282337188721 0.25581395626068115 0.8294574022293091
-0.09275682270526886 0.25581395626068115 0.8449612855911255
-0.09298403561115265 0.25581395626068115 0.8604651689529419
-0.09309962391853333 0.25581395626068115 0.8759689331054688
-0.09334871172904968 0.25581395626068115 0.8914728164672852
-0.0945650041103363 0.25581395626068115 0.9069767594337463
-0.09616254270076752 0.25581395626068115 0.922480583190918
-0.0976654440164566 0.25581395626068115 0.9379844665527344
-0.0948062539100647 0.25581395626068115 0.9534883499145508
-0.09059659391641617 0.27131783962249756 0.8139535188674927
-0.09238259494304657 0.27131783962249756 0.8294574022293091
-0.09291902184486389 0.27131783962249756 0.8449612855911255
-0.09310342371463776 0.27131783962249756 0.8604651689529419
-0.09316053986549377 0.27131783962249756 0.8759689331054688
-0.0932888388633728 0.27131783962249756 0.8914728164672852
-0.09437231719493866 0.27131783962249756 0.9069766998291016
-0.09590403735637665 0.27131783962249756 0.922480583190918
-0.09746597707271576 0.27131783962249756 0.9379844665527344
-0.0951569676399231 0.27131783962249756 0.9534883499145508
-0.08638183772563934 0.27131783962249756 0.9689922332763672
-0.09068271517753601 0.28682172298431396 0.8139535188674927
-0.09251393377780914 0.28682172298431396 0.8294574022293091
-0.09299406409263611 0.28682172298431396 0.8449612855911255
-0.09314551949501038 0.28682172298431396 0.8604651689529419
-0.09316447377204895 0.28682172298431396 0.8759689331054688
-0.09320396929979324 0.28682172298431396 0.8914728164672852
-0.09415553510189056 0.28682172298431396 0.9069766998291016
-0.09560106694698334 0.28682172298431396 0.9224806427955627
-0.09712803363800049 0.28682172298431396 0.9379844665527344
-0.095356285572052 0.28682172298431396 0.9534883499145508
-0.08754106611013412 0.28682172298431396 0.9689922332763672
-0.09091063588857651 0.30232560634613037 0.8139535188674927
-0.09267349541187286 0.30232560634613037 0.8294574022293091
-0.09310100972652435 0.30232560634613037 0.8449612855911255
-0.0932677686214447 0.30232560634613037 0.8604651689529419
-0.09328553080558777 0.30232560634613037 0.8759689331054688
-0.09326568245887756 0.30232560634613037 0.8914728164672852
-0.09405918419361115 0.30232560634613037 0.9069766998291016
-0.09537744522094727 0.30232560634613037 0.922480583190918
-0.09683185815811157 0.30232560634613037 0.9379845261573792
-0.09552605450153351 0.30232560634613037 0.9534883499145508
-0.08903918415307999 0.30232560634613037 0.9689922332763672
-0.09163743257522583 0.3178294897079468 0.8139535188674927
-0.09298734366893768 0.3178294897079468 0.8294574022293091
-0.09334933757781982 0.3178294897079468 0.8449612855911255
-0.09360317885875702 0.3178294897079468 0.8604651689529419
-0.09364781528711319 0.3178294897079468 0.8759689331054688
-0.09359263628721237 0.3178294897079468 0.8914728164672852
-0.09421944618225098 0.3178294897079468 0.9069766998291016
-0.09536086022853851 0.3178294897079468 0.922480583190918
-0.09674941748380661 0.3178294897079468 0.9379845261573792
-0.09577050060033798 0.3178294897079468 0.9534883499145508
-0.09077343344688416 0.3178294897079468 0.9689922332763672
-0.08624379336833954 0.3333333730697632 0.7984496355056763
-0.09270460158586502 0.3333333730697632 0.8139535188674927
-0.09309542179107666 0.3333333730697632 0.8294574022293091
-0.09336218237876892 0.3333333730697632 0.8449612855911255
-0.09387513250112534 0.3333333730697632 0.8604651689529419
-0.09415100514888763 0.3333333730697632 0.8759689331054688
-0.09412531554698944 0.3333333730697632 0.8914728164672852
-0.09456618875265121 0.3333333730697632 0.9069766998291016
-0.09550540149211884 0.3333333730697632 0.922480583190918
-0.09681111574172974 0.3333333730697632 0.9379844665527344
-0.09613622725009918 0.3333333730697632 0.9534883499145508
-0.09257972240447998 0.3333333730697632 0.9689922332763672
-0.08862628042697906 0.3488372564315796 0.7984496355056763
-0.09316784888505936 0.3488372564315796 0.8139535188674927
-0.09306460618972778 0.3488372564315796 0.8294574022293091
-0.0931670218706131 0.3488372564315796 0.8449612855911255
-0.09381219744682312 0.3488372564315796 0.8604651689529419
-0.0944499522447586 0.3488372564315796 0.8759689331054688
-0.09460997581481934 0.3488372564315796 0.8914728164672852
-0.09499092400074005 0.3488372564315796 0.9069766998291016
-0.09580552577972412 0.3488372564315796 0.922480583190918
-0.09713047742843628 0.3488372564315796 0.9379844665527344
-0.09668329358100891 0.3488372564315796 0.9534884095191956
-0.09424066543579102 0.3488372564315796 0.9689922332763672
-0.08957869559526443 0.364341139793396 0.7984496355056763
-0.09346108138561249 0.364341139793396 0.8139535188674927
-0.09327034652233124 0.364341139793396 0.8294574022293091
-0.09328752756118774 0.364341139793396 0.8449612855911255
-0.0939272940158844 0.364341139793396 0.8604651689529419
-0.09465570747852325 0.364341139793396 0.8759689331054688
-0.09491267800331116 0.364341139793396 0.8914728164672852
-0.09526637196540833 0.364341139793396 0.9069766998291016
-0.0959819108247757 0.364341139793396 0.922480583190918
-0.09732936322689056 0.364341139793396 0.9379844665527344
-0.09701861441135406 0.3643411099910736 0.9534883499145508
-0.0950535237789154 0.364341139793396 0.9689922332763672
-0.08961406350135803 0.37984490394592285 0.7984496355056763
-0.09393024444580078 0.37984490394592285 0.8139535188674927
-0.09381294250488281 0.37984490394592285 0.8294574022293091
-0.0938412994146347 0.37984490394592285 0.8449612855911255
-0.09446995705366135 0.37984490394592285 0.8604651689529419
-0.09509526938199997 0.37984490394592285 0.8759689331054688
-0.09527980536222458 0.37984490394592285 0.8914728164672852
-0.0955268070101738 0.37984490394592285 0.9069766998291016
-0.09614317864179611 0.37984490394592285 0.922480583190918
-0.09753469377756119 0.37984490394592285 0.9379844069480896
-0.09738531708717346 0.37984490394592285 0.9534883499145508
-0.09559378772974014 0.37984490394592285 0.9689922332763672
-0.09029510617256165 0.39534878730773926 0.7984496355056763
-0.09436388313770294 0.39534878730773926 0.8139535188674927
-0.09437374770641327 0.39534878730773926 0.8294574022293091
-0.09444509446620941 0.39534878730773926 0.8449612855911255
-0.09496799111366272 0.39534878730773926 0.8604651689529419
-0.0954248234629631 0.39534878730773926 0.8759689331054688
-0.09550652652978897 0.39534878730773926 0.8914728164672852
-0.09569046646356583 0.39534878730773926 0.9069766998291016
-0.09628034383058548 0.39534878730773926 0.922480583190918
-0.09772647172212601 0.39534878730773926 0.9379844069480896
-0.09792682528495789 0.39534878730773926 0.9534883499145508
-0.09604443609714508 0.39534878730773926 0.9689922332763672
-0.08680813759565353 0.39534878730773926 0.9844961166381836
-0.09111392498016357 0.41085267066955566 0.7984496355056763
-0.09462325274944305 0.41085267066955566 0.8139535188674927
-0.09465163946151733 0.41085267066955566 0.8294574022293091
-0.09473827481269836 0.4108526408672333 0.8449612855911255
-0.09524749219417572 0.41085267066955566 0.8604651689529419
-0.09565900266170502 0.41085267066955566 0.8759689331054688
-0.0957174077630043 0.41085267066955566 0.8914728164672852
-0.09585712850093842 0.41085267066955566 0.9069766998291016
-0.09643230587244034 0.41085270047187805 0.922480583190918
-0.09794577956199646 0.41085267066955566 0.9379844665527344
-0.09851918369531631 0.41085267066955566 0.9534883499145508
-0.09652429819107056 0.41085270047187805 0.9689922332763672
-0.08830496668815613 0.41085267066955566 0.9844961166381836
-0.09180209040641785 0.42635655403137207 0.7984496355056763
-0.09462855756282806 0.42635655403137207 0.8139535188674927
-0.09461662918329239 0.42635655403137207 0.8294574022293091
-0.09473106265068054 0.42635655403137207 0.8449612855911255
-0.09527913480997086 0.42635655403137207 0.8604651689529419
-0.09567789733409882 0.42635655403137207 0.8759689331054688
-0.09572930634021759 0.4263565242290497 0.8914728164672852
-0.09585893154144287 0.42635655403137207 0.9069766998291016
-0.09644021838903427 0.42635655403137207 0.922480583190918
-0.09795403480529785 0.42635655403137207 0.9379844665527344
-0.0987703874707222 0.42635655403137207 0.9534883499145508
-0.0969342291355133 0.42635655403137207 0.9689922332763672
-0.08928142488002777 0.42635655403137207 0.9844961166381836
-0.09236128628253937 0.4418604373931885 0.7984496355056763
-0.09457893669605255 0.4418604075908661 0.8139535188674927
-0.0945359468460083 0.4418604373931885 0.8294574022293091
-0.09464108943939209 0.4418604373931885 0.8449612855911255
-0.095189668238163 0.4418604373931885 0.8604651689529419
-0.09558049589395523 0.44186046719551086 0.8759689331054688
-0.09563817083835602 0.4418604373931885 0.8914728164672852
-0.09578625112771988 0.4418604373931885 0.9069766998291016
-0.09636522829532623 0.4418604373931885 0.922480583190918
-0.09780974686145782 0.4418604373931885 0.9379844665527344
-0.09877308458089828 0.4418604373931885 0.9534883499145508
-0.0971641018986702 0.4418604373931885 0.9689922332763672
-0.08975618332624435 0.4418604373931885 0.9844961166381836
-0.09271018207073212 0.4573643207550049 0.7984496355056763
-0.09444276243448257 0.4573643207550049 0.8139535188674927
-0.09435644745826721 0.4573643207550049 0.8294574022293091
-0.09442485123872757 0.4573643207550049 0.8449612855911255
-0.09494057297706604 0.4573643207550049 0.8604651689529419
-0.09533445537090302 0.4573643207550049 0.8759689331054688
-0.09539870917797089 0.4573643207550049 0.8914728164672852
-0.09559129923582077 0.4573643207550049 0.9069766998291016
-0.09619726240634918 0.4573643207550049 0.922480583190918
-0.09757041186094284 0.4573643207550049 0.9379844665527344
-0.0985841453075409 0.4573643207550049 0.953488290309906
-0.09729070216417313 0.4573643207550049 0.9689922332763672
-0.08995908498764038 0.4573643207550049 0.9844961166381836
-0.09306532144546509 0.4728682041168213 0.7984496355056763
-0.09426847100257874 0.4728682041168213 0.8139535188674927
-0.0941459983587265 0.4728682041168213 0.8294574022293091
-0.09418867528438568 0.4728682041168213 0.8449612855911255
-0.09467417001724243 0.4728682041168213 0.8604651689529419
-0.09507620334625244 0.4728682041168213 0.8759689331054688
-0.09515312314033508 0.4728682041168213 0.8914728164672852
-0.09538748860359192 0.4728682041168213 0.9069766998291016
-0.09600862115621567 0.4728682041168213 0.922480583190918
-0.0973164513707161 0.4728681743144989 0.9379844069480896
-0.09839535504579544 0.4728682041168213 0.9534883499145508
-0.09743722528219223 0.4728682041168213 0.9689922332763672
-0.0900263637304306 0.4728682041168213 0.9844961166381836
-0.09345909208059311 0.4883720874786377 0.7984496355056763
-0.09417586028575897 0.4883720874786377 0.8139535188674927
-0.09401141852140427 0.4883720874786377 0.8294574022293091
-0.09402715414762497 0.4883721172809601 0.8449612855911255
-0.09446802735328674 0.4883720874786377 0.8604651689529419
-0.09486112743616104 0.4883720874786377 0.8759689331054688
-0.09494902938604355 0.4883720874786377 0.8914728164672852
-0.09520273655653 0.4883720874786377 0.9069766998291016
-0.09582936763763428 0.4883720576763153 0.922480583190918
-0.09711460769176483 0.4883721172809601 0.9379845261573792
-0.09826923906803131 0.4883720874786377 0.9534883499145508
-0.0975412130355835 0.4883720874786377 0.9689922332763672
-0.0900554433465004 0.4883720874786377 0.9844961166381836
-0.08638883382081985 0.5038759708404541 0.7829457521438599
-0.09379186481237411 0.5038759708404541 0.7984496355056763
-0.09406302869319916 0.5038759708404541 0.8139535188674927
-0.09379249066114426 0.5038759708404541 0.8294574022293091
-0.09378305077552795 0.5038759708404541 0.8449612855911255
-0.09421731531620026 0.5038759708404541 0.8604651689529419
-0.09462049603462219 0.5038759708404541 0.8759689331054688
-0.09473603963851929 0.5038759708404541 0.8914728164672852
-0.09496095776557922 0.5038759708404541 0.9069766998291016
-0.09560203552246094 0.5038759708404541 0.922480583190918
-0.09692922979593277 0.5038759708404541 0.9379844665527344
-0.0981721356511116 0.5038759708404541 0.9534883499145508
-0.09759524464607239 0.5038759708404541 0.9689922332763672
-0.09018877148628235 0.5038759708404541 0.9844961166381836
-0.08810918033123016 0.5193798542022705 0.7829457521438599
-0.09400276094675064 0.5193798542022705 0.7984496355056763
-0.09384531527757645 0.5193798542022705 0.8139535188674927
-0.09342078864574432 0.5193798542022705 0.8294574022293091
-0.09336060285568237 0.5193798542022705 0.8449612855911255
-0.09399928152561188 0.5193798542022705 0.8604651689529419
-0.09458622336387634 0.5193798542022705 0.8759689331054688
-0.09476670622825623 0.5193798542022705 0.8914728164672852
-0.094895139336586 0.5193798542022705 0.9069766998291016
-0.09551778435707092 0.5193798542022705 0.922480583190918
-0.09698949009180069 0.5193798542022705 0.9379844665527344
-0.0984213575720787 0.5193798542022705 0.9534883499145508
-0.09777523577213287 0.5193798542022705 0.9689922332763672
-0.09065024554729462 0.5193798542022705 0.9844961166381836
-0.08964451402425766 0.5348837375640869 0.7829457521438599
-0.09398874640464783 0.5348837375640869 0.7984496355056763
-0.09377224743366241 0.5348837375640869 0.8139535188674927
-0.09329934418201447 0.5348837375640869 0.8294574022293091
-0.0930667370557785 0.5348837375640869 0.8449612855911255
-0.0936756432056427 0.5348837375640869 0.8604651689529419
-0.09447015821933746 0.5348837375640869 0.8759689331054688
-0.09485232830047607 0.5348837375640869 0.8914728164672852
-0.0950336903333664 0.5348837375640869 0.9069766998291016
-0.09567581862211227 0.5348837375640869 0.922480583190918
-0.09727208316326141 0.5348837375640869 0.9379844665527344
-0.09891238063573837 0.5348837375640869 0.9534883499145508
-0.09819862246513367 0.5348837375640869 0.9689922332763672
-0.09138044714927673 0.5348837375640869 0.9844961166381836
-0.0903896689414978 0.5503876209259033 0.7829457521438599
-0.09405209124088287 0.5503876209259033 0.7984496355056763
-0.09389488399028778 0.5503876209259033 0.8139535188674927
-0.0933801531791687 0.5503876209259033 0.8294574022293091
-0.0930665135383606 0.5503876209259033 0.8449612855911255
-0.09353461861610413 0.5503876209259033 0.8604651689529419
-0.0942654088139534 0.5503876209259033 0.8759689331054688
-0.09471413493156433 0.5503876209259033 0.8914728164672852
-0.09504479169845581 0.5503876209259033 0.9069766998291016
-0.09581027925014496 0.5503876209259033 0.922480583190918
-0.09750747680664062 0.5503876209259033 0.9379844665527344
-0.09925351291894913 0.5503876209259033 0.9534883499145508
-0.09872624278068542 0.5503876209259033 0.9689922332763672
-0.09182356297969818 0.5503876209259033 0.9844961166381836
-0.09037171304225922 0.5658915042877197 0.7829457521438599
-0.09435685724020004 0.5658915042877197 0.7984496355056763
-0.09431859850883484 0.5658915042877197 0.8139535188674927
-0.09384752810001373 0.5658915042877197 0.8294574022293091
-0.09357187896966934 0.5658915042877197 0.8449612855911255
-0.09389445185661316 0.5658915042877197 0.8604651689529419
-0.09447778016328812 0.5658915042877197 0.8759689331054688
-0.09489500522613525 0.5658915042877197 0.8914728164672852
-0.09533438831567764 0.5658915042877197 0.9069766998291016
-0.09617218375205994 0.5658915042877197 0.922480583190918
-0.09787730127573013 0.5658915042877197 0.9379844665527344
-0.09975425899028778 0.565891444683075 0.9534883499145508
-0.09954600036144257 0.5658915042877197 0.968992292881012
-0.09216578304767609 0.5658915042877197 0.9844961166381836
-0.09062682092189789 0.5813953876495361 0.7829457521438599
-0.0945289134979248 0.5813953876495361 0.7984496355056763
-0.09470033645629883 0.5813953876495361 0.8139535188674927
-0.09437204897403717 0.5813953876495361 0.8294574022293091
-0.0940854549407959 0.5813953876495361 0.8449612855911255
-0.09424318373203278 0.5813953876495361 0.8604651689529419
-0.0947379320859909 0.5813953876495361 0.8759689927101135
-0.0951768308877945 0.5813953876495361 0.8914728164672852
-0.09572364389896393 0.5813953876495361 0.9069766998291016
-0.09656016528606415 0.5813953876495361 0.922480583190918
-0.09822136908769608 0.5813953876495361 0.9379844665527344
-0.100196473300457 0.5813953876495361 0.9534883499145508
-0.10035334527492523 0.5813953876495361 0.9689922332763672
-0.09256963431835175 0.5813953876495361 0.9844961166381836
-0.09116163849830627 0.5968992710113525 0.7829457521438599
-0.0946820005774498 0.5968992710113525 0.7984496355056763
-0.0948224887251854 0.5968992710113525 0.8139535188674927
-0.09452424943447113 0.5968992710113525 0.8294574022293091
-0.09430000185966492 0.5968992710113525 0.8449612855911255
-0.09453316032886505 0.5968992710113525 0.8604651689529419
-0.09508220106363297 0.5968992710113525 0.8759689331054688
-0.0955924466252327 0.5968992710113525 0.8914728164672852
-0.09613256901502609 0.5968992710113525 0.9069766998291016
-0.09690456837415695 0.5968992710113525 0.922480583190918
-0.09853117913007736 0.5968992710113525 0.9379845261573792
-0.10053406655788422 0.5968992710113525 0.9534883499145508
-0.09307906031608582 0.5968992710113525 0.9844961166381836
-0.09159261733293533 0.612403154373169 0.7829457521438599
-0.09477110952138901 0.612403154373169 0.7984496355056763
-0.09486676007509232 0.612403154373169 0.8139535188674927
-0.09460875391960144 0.612403154373169 0.8294574022293091
-0.09446889162063599 0.612403154373169 0.8449612855911255
-0.09481674432754517 0.612403154373169 0.8604651689529419
-0.09542356431484222 0.612403154373169 0.8759689331054688
-0.09599289298057556 0.612403154373169 0.8914728164672852
-0.09649649262428284 0.612403154373169 0.9069766998291016
-0.09719623625278473 0.612403154373169 0.9224806427955627
-0.09875589609146118 0.612403154373169 0.9379844665527344
-0.10074558109045029 0.612403154373169 0.9534883499145508
-0.09344705939292908 0.612403154373169 0.9844960570335388
-0.09185810387134552 0.6279069185256958 0.7829457521438599
-0.09482509642839432 0.6279069185256958 0.7984496355056763
-0.09490209817886353 0.6279069185256958 0.8139535188674927
-0.09470169246196747 0.6279069185256958 0.8294574022293091
-0.09464604407548904 0.6279069185256958 0.8449612855911255
-0.09507596492767334 0.6279069185256958 0.8604651689529419
-0.09571023285388947 0.6279069185256958 0.8759689331054688
-0.09631568193435669 0.6279069185256958 0.8914728164672852
-0.09679536521434784 0.6279069185256958 0.9069767594337463
-0.09744755923748016 0.6279069185256958 0.922480583190918
-0.09896265715360641 0.6279069185256958 0.9379844665527344
-0.09350557625293732 0.6279069185256958 0.9844961166381836
-0.09205972403287888 0.6434108018875122 0.7829457521438599
-0.0947689414024353 0.6434108018875122 0.7984496355056763
-0.09481322765350342 0.6434108018875122 0.8139535188674927
-0.09464356303215027 0.6434108018875122 0.8294574022293091
-0.09464658796787262 0.6434108018875122 0.8449612855911255
-0.09513013809919357 0.6434108018875122 0.8604651689529419
-0.09581218659877777 0.6434108018875122 0.8759689331054688
-0.09644336998462677 0.6434108018875122 0.8914728164672852
-0.09689804166555405 0.6434108018875122 0.9069766998291016
-0.09749779105186462 0.6434108018875122 0.9224805235862732
-0.09896978735923767 0.6434108018875122 0.9379844665527344
-0.09311296045780182 0.6434108018875122 0.9844961166381836
-0.09197595715522766 0.6589146852493286 0.7829457521438599
-0.09464885294437408 0.6589146852493286 0.7984496355056763
-0.09465669095516205 0.6589146852493286 0.8139535188674927
-0.09452793002128601 0.6589146852493286 0.8294574022293091
-0.09457165002822876 0.6589146852493286 0.8449612855911255
-0.09509757161140442 0.6589146852493286 0.8604651689529419
-0.09583214670419693 0.6589146852493286 0.8759689927101135
-0.09643404185771942 0.6589146852493286 0.8914728164672852
-0.09678682684898376 0.6589146852493286 0.9069767594337463
-0.09730521589517593 0.6589146852493286 0.922480583190918
-0.09882783144712448 0.6589146852493286 0.9379844665527344
-0.09134522080421448 0.6589146852493286 0.9844961166381836
-0.09152326732873917 0.674418568611145 0.7829457521438599
-0.09460195899009705 0.674418568611145 0.7984496355056763
-0.09458383917808533 0.674418568611145 0.8139535188674927
-0.09448561817407608 0.674418568611145 0.8294574022293091
-0.09449617564678192 0.674418568611145 0.8449612855911255
-0.09501427412033081 0.674418568611145 0.8604651689529419
-0.09576152265071869 0.674418568611145 0.8759689927101135
-0.09626489877700806 0.674418568611145 0.8914728164672852
-0.09647025913000107 0.674418568611145 0.9069767594337463
-0.09693299233913422 0.674418568611145 0.922480583190918
-0.09866885095834732 0.674418568611145 0.9379844069480896
-0.09057487547397614 0.6899224519729614 0.7829457521438599
-0.09458693861961365 0.6899224519729614 0.7984496355056763
-0.09449968487024307 0.6899224519729614 0.8139535188674927
-0.09428146481513977 0.6899224519729614 0.8294574022293091
-0.09413466602563858 0.6899224519729614 0.8449612855911255
-0.09458325803279877 0.6899224519729614 0.8604652285575867
-0.09536025673151016 0.6899224519729614 0.8759689331054688
-0.09587614238262177 0.6899224519729614 0.8914728164672852
-0.09612862765789032 0.6899224519729614 0.9069766998291016
-0.09674182534217834 0.6899224519729614 0.922480583190918
-0.09901529550552368 0.6899225115776062 0.9379844665527344
-0.0882776752114296 0.7054263353347778 0.7829457521438599
-0.09457565099000931 0.7054263353347778 0.7984496355056763
-0.0946032926440239 0.7054263353347778 0.8139535188674927
-0.09412279725074768 0.7054263353347778 0.8294574022293091
-0.0937962681055069 0.7054263353347778 0.8449612855911255
-0.09417714923620224 0.7054263353347778 0.8604651689529419
-0.09499071538448334 0.7054263353347778 0.8759689331054688
-0.09568315744400024 0.7054263353347778 0.8914728164672852
-0.09621532261371613 0.7054263353347778 0.9069766998291016
-0.09729911386966705 0.7054263353347778 0.922480583190918
-0.10068871080875397 0.7054263353347778 0.9379844665527344
-0.09595394879579544 0.7054263353347778 0.968992292881012
-0.09393712133169174 0.7209302186965942 0.7984496355056763
-0.09477835893630981 0.7209302186965942 0.8139535188674927
-0.09411703795194626 0.7209302186965942 0.8294574022293091
-0.09374526143074036 0.7209302186965942 0.8449612855911255
-0.09409834444522858 0.7209302186965942 0.8604651689529419
-0.09489522129297256 0.7209302186965942 0.8759689331054688
-0.09586722403764725 0.7209302186965942 0.8914728164672852
-0.0969199538230896 0.7209302186965942 0.9069766402244568
-0.09890855103731155 0.7209302186965942 0.922480583190918
-0.09276164323091507 0.7364341020584106 0.7984496355056763
-0.09583936631679535 0.7364341020584106 0.8139535188674927
-0.09531520307064056 0.7364341020584106 0.8294574618339539
-0.09513982385396957 0.7364341020584106 0.8449612855911255
-0.09549253433942795 0.7364341020584106 0.8604651689529419
-0.09609177708625793 0.7364341020584106 0.8759689331054688
-0.09714047610759735 0.7364341020584106 0.8914728164672852
-0.09879528731107712 0.7364341020584106 0.9069766998291016
-0.0965244397521019 0.7364341020584106 0.9534883499145508
-0.0891069695353508 0.751937985420227 0.7984496355056763
-0.09996207058429718 0.751937985420227 0.8139535188674927
-0.1006130650639534 0.751937985420227 0.8294574022293091
-0.10013916343450546 0.751937985420227 0.8449612855911255
-0.10016004741191864 0.751937985420227 0.8604651689529419
-0.10043266415596008 0.751937985420227 0.875968873500824
-0.09037648886442184 0.7674418687820435 0.8294574022293091
-0.09285994619131088 0.7674418687820435 0.8449612855911255
-0.093431256711483 0.7674418687820435 0.8604651689529419
-0.09336366504430771 0.7674418687820435 0.8759689331054688
-0.09270057082176208 0.7674418687820435 0.8914728164672852
-0.09181085228919983 0.7674418687820435 0.9069766998291016
-0.09038697928190231 0.7674418687820435 0.922480583190918
-0.07178721576929092 -0.7054263353347778 0.9844961166381836
-0.07547708600759506 -0.674418568611145 0.7674418687820435
-0.0831182599067688 -0.6124030947685242 0.7674418687820435
-0.08133191615343094 -0.5968992114067078 0.7674418687820435
-0.07966908812522888 -0.5813953876495361 0.7674418687820435
-0.07527942955493927 -0.5658915042877197 0.7674418687820435
-0.07300202548503876 -0.3798449635505676 0.7829457521438599
-0.08510271459817886 -0.37984499335289 0.9844961166381836
-0.08004071563482285 -0.3643410801887512 0.9844961166381836
-0.08460333943367004 -0.3488371968269348 0.7984496355056763
-0.07730164378881454 -0.3488371968269348 0.9844961166381836
-0.07189026474952698 -0.3333333134651184 0.7984496355056763
-0.07516464591026306 -0.3333333134651184 0.9844961166381836
-0.07267770916223526 -0.317829430103302 0.9844961166381836
-0.07001833617687225 -0.30232560634613037 0.9844961166381836
-0.08335442841053009 -0.28682172298431396 0.8139535188674927
-0.08454278856515884 -0.28682172298431396 0.9689922332763672
-0.08389686048030853 -0.27131783962249756 0.8139535188674927
-0.08327287435531616 -0.27131783962249756 0.9689922332763672
-0.08240795880556107 -0.25581395626068115 0.9689922332763672
-0.07176582515239716 -0.24031007289886475 0.7984496355056763
-0.08157865703105927 -0.24031007289886475 0.9689922332763672
-0.0758458822965622 -0.22480618953704834 0.7984496355056763
-0.08104997873306274 -0.22480618953704834 0.9689922332763672
-0.08174008131027222 -0.20930230617523193 0.7984495759010315
-0.0806913822889328 -0.20930230617523193 0.9689922332763672
-0.08067569136619568 -0.19379842281341553 0.9689922332763672
-0.07151073217391968 -0.1782945990562439 0.7829457521438599
-0.08047448098659515 -0.1782945990562439 0.9689921736717224
-0.07446100562810898 -0.1627907156944275 0.7829457521438599
-0.08024261146783829 -0.1627907156944275 0.9689922332763672
-0.07624625414609909 -0.14728683233261108 0.7829457521438599
-0.07972683757543564 -0.14728683233261108 0.9689922332763672
-0.07756103575229645 -0.13178294897079468 0.7829457521438599
-0.07880324125289917 -0.13178294897079468 0.9689922332763672
-0.0797199010848999 -0.11627906560897827 0.7829457521438599
-0.07797938585281372 -0.11627906560897827 0.9689922332763672
-0.08353058248758316 -0.10077518224716187 0.7829457521438599
-0.07797469198703766 -0.10077518224716187 0.9689922332763672
-0.07050780206918716 -0.08527129888534546 0.7674418687820435
-0.07845954596996307 -0.08527129888534546 0.9689922332763672
-0.0706261619925499 -0.06976741552352905 0.674418568611145
-0.074824757874012 -0.06976741552352905 0.7674418687820435
-0.07877685129642487 -0.06976741552352905 0.968992292881012
-0.07015971839427948 -0.05426359176635742 -0.9534883499145508
-0.07068966329097748 -0.05426359176635742 -0.9379844665527344
-0.0710521936416626 -0.05426359176635742 0.6434108018875122
-0.07584069669246674 -0.05426359176635742 0.6589146852493286
-0.07689744979143143 -0.05426359176635742 0.674418568611145
-0.07493284344673157 -0.05426359176635742 0.6899224519729614
-0.07348443567752838 -0.05426359176635742 0.7054263353347778
-0.07206473499536514 -0.05426359176635742 0.7209302186965942
-0.07013925909996033 -0.05426359176635742 0.7364341020584106
-0.07850868254899979 -0.05426359176635742 0.7674418687820435
-0.07891032844781876 -0.05426359176635742 0.9689922332763672
-0.07888225466012955 -0.038759708404541016 -0.9534883499145508
-0.07822789996862411 -0.038759708404541016 -0.9379844665527344
-0.07467225939035416 -0.038759708404541016 -0.9224806427955627
-0.07384856045246124 -0.038759708404541016 -0.9069767594337463
-0.07382916659116745 -0.038759708404541016 -0.8914729356765747
-0.07405702024698257 -0.038759708404541016 -0.8759689927101135
-0.07402069866657257 -0.038759708404541016 -0.8604651093482971
-0.0739666298031807 -0.038759708404541016 -0.8449612259864807
-0.07387411594390869 -0.038759708404541016 -0.8294573426246643
-0.0736202746629715 -0.038759708404541016 -0.8139535188674927
-0.07324501127004623 -0.038759708404541016 -0.7984496355056763
-0.07285096496343613 -0.038759708404541016 -0.7829457521438599
-0.07248761504888535 -0.038759708404541016 -0.7674418687820435
-0.07211876660585403 -0.038759708404541016 -0.751937985420227
-0.07188291102647781 -0.038759708404541016 -0.7364341020584106
-0.07179334759712219 -0.038759708404541016 -0.7209302186965942
-0.07182967662811279 -0.038759708404541016 -0.7054263353347778
-0.07185135781764984 -0.038759708404541016 -0.6899224519729614
-0.07188741862773895 -0.038759708404541016 -0.674418568611145
-0.07184133678674698 -0.038759708404541016 -0.6589146852493286
-0.07171418517827988 -0.038759708404541016 -0.643410861492157
-0.07160516083240509 -0.038759708404541016 -0.6279069781303406
-0.07139315456151962 -0.038759708404541016 -0.6124030947685242
-0.07110577076673508 -0.038759708404541016 -0.5968992114067078
-0.07074307650327682 -0.038759708404541016 -0.5813953876495361
-0.07053180783987045 -0.038759708404541016 -0.5658915042877197
-0.07042577117681503 -0.038759708404541016 -0.5503876209259033
-0.07028055191040039 -0.038759708404541016 -0.5348837375640869
-0.0703258365392685 -0.038759708404541016 -0.5193798542022705
-0.07033609598875046 -0.038759708404541016 -0.5038759708404541
-0.07044558972120285 -0.038759708404541016 -0.4883720874786377
-0.07047471404075623 -0.038759708404541016 -0.4728682041168213
-0.07045164704322815 -0.038759708404541016 -0.4573643207550049
-0.07040268182754517 -0.038759708404541016 -0.4418604373931885
-0.07021211087703705 -0.038759708404541016 -0.42635661363601685
-0.07007124274969101 -0.038759708404541016 -0.41085273027420044
-0.06985198706388474 -0.038759708404541016 -0.39534884691238403
-0.06978201121091843 -0.038759708404541016 -0.3798449635505676
-0.0697932168841362 -0.038759708404541016 -0.3333333134651184
-0.06980042159557343 -0.038759708404541016 -0.317829430103302
-0.07000552117824554 -0.038759708404541016 -0.30232560634613037
-0.07013039290904999 -0.038759708404541016 -0.28682172298431396
-0.07030773907899857 -0.038759708404541016 -0.27131783962249756
-0.07041860371828079 -0.038759708404541016 -0.25581395626068115
-0.0704895630478859 -0.038759708404541016 -0.24031007289886475
-0.07043087482452393 -0.038759708404541016 -0.22480618953704834
-0.07035285979509354 -0.038759708404541016 -0.20930230617523193
-0.07035725563764572 -0.038759708404541016 -0.19379842281341553
-0.07043715566396713 -0.038759708404541016 -0.1782945990562439
-0.07046189904212952 -0.038759708404541016 -0.1627907156944275
-0.07037025690078735 -0.038759708404541016 -0.14728683233261108
-0.07058191299438477 -0.038759708404541016 -0.13178294897079468
-0.07082753628492355 -0.038759708404541016 -0.11627906560897827
-0.07099080830812454 -0.038759708404541016 -0.10077518224716187
-0.07113181054592133 -0.038759708404541016 -0.08527129888534546
-0.07112125307321548 -0.038759708404541016 -0.06976741552352905
-0.07121621817350388 -0.038759708404541016 -0.05426359176635742
-0.07103250920772552 -0.038759708404541016 -0.038759708404541016
-0.07084989547729492 -0.038759708404541016 -0.02325582504272461
-0.0705932006239891 -0.038759708404541016 -0.007751941680908203
-0.07028593122959137 -0.038759708404541016 0.007751941680908203
-0.07007981836795807 -0.038759708404541016 0.02325582504272461
-0.06990062445402145 -0.038759708404541016 0.038759708404541016
-0.06979673355817795 -0.038759708404541016 0.05426359176635742
-0.07023117691278458 -0.038759708404541016 0.612403154373169
-0.07207038998603821 -0.038759708404541016 0.6279069185256958
-0.07649070024490356 -0.038759708404541016 0.6434108018875122
-0.08061222732067108 -0.038759708404541016 0.6589146852493286
-0.08133719861507416 -0.038759708404541016 0.674418568611145
-0.07893890142440796 -0.038759708404541016 0.6899224519729614
-0.07777480781078339 -0.038759708404541016 0.7054263353347778
-0.07650226354598999 -0.038759708404541016 0.7209302186965942
-0.07398055493831635 -0.038759708404541016 0.7364341020584106
-0.0734756588935852 -0.038759708404541016 0.751937985420227
-0.08174695819616318 -0.038759708404541016 0.7674418687820435
-0.07876402139663696 -0.038759708404541016 0.9689922332763672
-0.08304868638515472 -0.02325582504272461 -0.9534883499145508
-0.08426538109779358 -0.02325582318007946 -0.9379844665527344
-0.07975079119205475 -0.02325582504272461 -0.9224806427955627
-0.07837510108947754 -0.02325582504272461 -0.9069768190383911
-0.07818245887756348 -0.02325582504272461 -0.8914728164672852
-0.07824212312698364 -0.02325582504272461 -0.8759689331054688
-0.07793983817100525 -0.02325582504272461 -0.8604651093482971
-0.07763571292161942 -0.02325582504272461 -0.8449612259864807
-0.07749955356121063 -0.02325582504272461 -0.8294573426246643
-0.07722464203834534 -0.02325582504272461 -0.8139535188674927
-0.07682280242443085 -0.02325582504272461 -0.7984496355056763
-0.07654805481433868 -0.02325582504272461 -0.7829457521438599
-0.07631386816501617 -0.02325582504272461 -0.7674418687820435
-0.07601670175790787 -0.02325582504272461 -0.751937985420227
-0.07565099000930786 -0.02325582504272461 -0.7364341020584106
-0.07551358640193939 -0.02325582504272461 -0.7209302186965942
-0.07546895742416382 -0.02325582504272461 -0.7054263353347778
-0.07541488856077194 -0.02325582504272461 -0.6899224519729614
-0.07537632435560226 -0.02325582504272461 -0.674418568611145
-0.07525458186864853 -0.02325582504272461 -0.6589146852493286
-0.0750865638256073 -0.02325582504272461 -0.643410861492157
-0.07488095760345459 -0.02325582504272461 -0.6279069781303406
-0.07465456426143646 -0.02325582504272461 -0.6124030947685242
-0.0743158757686615 -0.02325582504272461 -0.5968992114067078
-0.07399114966392517 -0.02325582504272461 -0.5813953876495361
-0.07380568981170654 -0.02325582504272461 -0.5658915042877197
-0.07367988675832748 -0.02325582504272461 -0.5503876209259033
-0.07352196425199509 -0.02325582504272461 -0.5348837375640869
-0.07355601340532303 -0.02325582504272461 -0.5193798542022705
-0.0736275166273117 -0.02325582504272461 -0.5038759708404541
-0.07374338060617447 -0.02325582504272461 -0.4883720874786377
-0.07379567623138428 -0.02325582504272461 -0.4728682041168213
-0.0738278329372406 -0.02325582504272461 -0.4573643207550049
-0.07381290197372437 -0.02325582504272461 -0.4418604373931885
-0.0736413225531578 -0.02325582504272461 -0.42635661363601685
-0.07347781211137772 -0.02325582504272461 -0.41085273027420044
-0.07326395064592361 -0.02325582504272461 -0.39534884691238403
-0.07317373901605606 -0.02325582504272461 -0.3798449635505676
-0.07310618460178375 -0.02325582504272461 -0.3643410801887512
-0.0731847733259201 -0.02325582504272461 -0.3488371968269348
-0.07329127937555313 -0.02325582504272461 -0.3333333134651184
-0.07337186485528946 -0.02325582504272461 -0.317829430103302
-0.07357211410999298 -0.02325582504272461 -0.30232560634613037
-0.07372373342514038 -0.02325582504272461 -0.28682172298431396
-0.07387135922908783 -0.02325582504272461 -0.27131783962249756
-0.07396559417247772 -0.02325582504272461 -0.25581395626068115
-0.07397288084030151 -0.02325582504272461 -0.24031007289886475
-0.07385995984077454 -0.02325582504272461 -0.22480618953704834
-0.07367362082004547 -0.02325582504272461 -0.20930230617523193
-0.07362336665391922 -0.02325582504272461 -0.19379842281341553
