-0.19379842281341553 -0.05426359176635742 -0.003476388519629836
-0.19379842281341553 -0.038759708404541016 -0.055458951741456985
-0.19379842281341553 -0.038759708404541016 0.03686652332544327
-0.19379842281341553 -0.02325582504272461 -0.06664726138114929
-0.19379842281341553 -0.02325582504272461 0.0475153923034668
-0.19379842281341553 -0.007751941680908203 -0.07088134437799454
-0.19379842281341553 -0.007751941680908203 0.051802780479192734
-0.19379842281341553 0.007751941680908203 -0.07004910707473755
-0.19379842281341553 0.007751941680908203 0.04988662153482437
-0.19379842281341553 0.02325582504272461 -0.0590616799890995
-0.19379842281341553 0.02325582504272461 0.04411347210407257
-0.19379842281341553 0.038759708404541016 -0.04148443043231964
-0.19379842281341553 0.038759708404541016 0.031372103840112686
-0.1782945990562439 -0.05426359176635742 -0.012982131913304329
-0.1782945990562439 -0.05426359176635742 -0.0012537240982055664
-0.1782945990562439 -0.038759708404541016 -0.055866789072752
-0.1782945990562439 -0.038759708404541016 0.03757645934820175
-0.1782945990562439 -0.02325582504272461 -0.06711730360984802
-0.1782945990562439 -0.02325582504272461 0.04776613041758537
-0.1782945990562439 -0.007751941680908203 -0.07103165984153748
-0.1782945990562439 -0.007751941680908203 0.05217719450592995
-0.1782945990562439 0.007751941680908203 -0.07022180408239365
-0.1782945990562439 0.007751941680908203 0.05038931220769882
-0.1782945990562439 0.02325582504272461 -0.059578344225883484
-0.1782945990562439 0.02325582504272461 0.044603899121284485
-0.1782945990562439 0.038759708404541016 -0.042023442685604095
-0.1782945990562439 0.038759708404541016 0.032340772449970245
-0.1627907156944275 -0.05426359176635742 -0.014729304239153862
-0.1627907156944275 -0.05426359176635742 0.0006418025586754084
-0.1627907156944275 -0.038759708404541016 -0.056311823427677155
-0.1627907156944275 -0.038759708404541016 0.03842388838529587
-0.1627907156944275 -0.02325582318007946 -0.0676315575838089
-0.1627907156944275 -0.02325582504272461 0.048194557428359985
-0.1627907156944275 -0.007751941680908203 -0.07118898630142212
-0.1627907156944275 -0.007751941680908203 0.05266958475112915
-0.1627907156944275 0.007751941680908203 -0.07045628130435944
-0.1627907156944275 0.007751941680908203 0.05100131407380104
-0.1627907156944275 0.02325582504272461 -0.06031588092446327
-0.1627907156944275 0.02325582504272461 0.045176874846220016
-0.1627907156944275 0.038759708404541016 -0.04272856190800667
-0.1627907156944275 0.038759708404541016 0.03364118933677673
-0.14728683233261108 -0.05426359176635742 -0.01715160347521305
-0.14728683233261108 -0.05426359176635742 0.0028008604422211647
-0.14728683233261108 -0.038759708404541016 -0.056658681482076645
-0.14728683233261108 -0.038759708404541016 0.03901331499218941
-0.14728683233261108 -0.02325582504272461 -0.06778534501791
-0.14728683233261108 -0.02325582504272461 0.04873942583799362
-0.14728683233261108 -0.007751941680908203 -0.07120336592197418
-0.14728683233261108 -0.007751941680908203 0.053235284984111786
-0.14728683233261108 0.007751941680908203 -0.07050003111362457
-0.14728683233261108 0.007751941680908203 0.05151869356632233
-0.14728683233261108 0.02325582504272461 -0.06067369878292084
-0.14728683233261108 0.02325582504272461 0.04552728310227394
-0.14728683233261108 0.038759708404541016 -0.043398138135671616
-0.14728683233261108 0.038759708404541016 0.03452440723776817
-0.13178294897079468 -0.05426359176635742 -0.01836077682673931
-0.13178294897079468 -0.05426359176635742 0.004425926133990288
-0.13178294897079468 -0.038759708404541016 -0.056831154972314835
-0.13178294897079468 -0.038759708404541016 0.03929769992828369
-0.13178294897079468 -0.02325582504272461 -0.06775239109992981
-0.13178294897079468 -0.02325582504272461 0.048975490033626556
-0.13178294897079468 -0.007751941680908203 -0.07111853361129761
-0.13178294897079468 -0.007751941680908203 0.053466103971004486
-0.13178294897079468 0.007751941680908203 -0.07047095149755478
-0.13178294897079468 0.007751941680908203 0.05180018022656441
-0.13178294897079468 0.02325582504272461 -0.060811497271060944
-0.13178294897079468 0.02325582504272461 0.04576586186885834
-0.13178294897079468 0.038759708404541016 -0.04375237971544266
-0.13178294897079468 0.038759708404541016 0.03505352884531021
-0.11627906560897827 -0.05426359176635742 -0.018964065238833427
-0.11627906560897827 -0.05426359176635742 0.006349099799990654
-0.11627906560897827 -0.038759708404541016 -0.05692572519183159
-0.11627906560897827 -0.03875970467925072 0.0395892970263958
-0.11627906560897827 -0.02325582504272461 -0.06753899157047272
-0.11627906560897827 -0.02325582504272461 0.04921640455722809
-0.11627906560897827 -0.007751941680908203 -0.07097464054822922
-0.11627906560897827 -0.007751941680908203 0.0537576824426651
-0.11627906560897827 0.007751941680908203 -0.07038794457912445
-0.11627906560897827 0.007751941680908203 0.052111174911260605
-0.11627906560897827 0.02325582504272461 -0.060785550624132156
-0.11627906560897827 0.02325582504272461 0.04593895748257637
-0.11627906560897827 0.038759708404541016 -0.04401998966932297
-0.11627906560897827 0.038759708404541016 0.03537089377641678
-0.10077518969774246 -0.05426359549164772 -0.021359698846936226
-0.10077518224716187 -0.05426358804106712 0.008038665167987347
-0.10077518224716187 -0.038759708404541016 -0.05710367485880852
-0.10077518224716187 -0.038759708404541016 0.03978031873703003
-0.10077518224716187 -0.02325582504272461 -0.06749100983142853
-0.10077518224716187 -0.02325582504272461 0.04921145737171173
-0.10077518224716187 -0.007751941680908203 -0.07093952596187592
-0.10077518224716187 -0.007751941680908203 0.05357499048113823
-0.10077518224716187 0.007751941680908203 -0.07035893946886063
-0.10077518224716187 0.007751941680908203 0.05194559693336487
-0.10077518224716187 0.02325582504272461 -0.06085294485092163
-0.10077518224716187 0.02325582504272461 0.04590766131877899
-0.10077518224716187 0.038759708404541016 -0.04439574107527733
-0.10077518224716187 0.038759708404541016 0.03551002964377403
-0.08527129888534546 -0.05426359176635742 -0.023410523310303688
-0.08527129888534546 -0.05426358804106712 0.008356980979442596
-0.08527129888534546 -0.038759708404541016 -0.05725715309381485
-0.08527129888534546 -0.03875970467925072 0.039749011397361755
-0.08527129888534546 -0.02325582504272461 -0.06765741854906082
-0.08527129888534546 -0.02325582504272461 0.04892721772193909
-0.08527129888534546 -0.007751941680908203 -0.07098584622144699
-0.08527129888534546 -0.007751941680908203 0.05306798219680786
-0.08527129888534546 0.007751941680908203 -0.07041921466588974
-0.08527129888534546 0.007751941680908203 0.051455870270729065
-0.08527129888534546 0.02325582504272461 -0.06103815138339996
-0.08527129888534546 0.02325582504272461 0.045746833086013794
-0.08527129888534546 0.038759708404541016 -0.044552385807037354
-0.08527129888534546 0.038759708404541016 0.03524821996688843
-0.06976741552352905 -0.05426359176635742 -0.02368302084505558
-0.06976741552352905 -0.05426359176635742 0.008343725465238094
-0.06976741552352905 -0.038759708404541016 -0.057279158383607864
-0.06976741552352905 -0.038759712129831314 0.03957058861851692
-0.06976741552352905 -0.02325582504272461 -0.06772223860025406
-0.06976741552352905 -0.02325582504272461 0.04862106218934059
-0.06976741552352905 -0.007751941680908203 -0.07100524753332138
-0.06976741552352905 -0.007751941680908203 0.05258757248520851
-0.06976741552352905 0.007751941680908203 -0.07045679539442062
-0.06976741552352905 0.007751941680908203 0.050970349460840225
-0.06976741552352905 0.02325582504272461 -0.06098873168230057
-0.06976741552352905 0.02325582504272461 0.04555833339691162
-0.06976741552352905 0.038759708404541016 -0.04420101270079613
-0.06976741552352905 0.038759708404541016 0.03487654775381088
-0.05426359176635742 -0.05426359176635742 -0.02354898490011692
-0.05426359176635742 -0.05426359176635742 0.008112266659736633
-0.05426359176635742 -0.038759708404541016 -0.05710698664188385
-0.05426358804106712 -0.038759708404541016 0.03932831063866615
-0.05426359176635742 -0.02325582504272461 -0.06737715005874634
-0.05426359176635742 -0.02325582504272461 0.0483221672475338
-0.05426359176635742 -0.007751941680908203 -0.07091300189495087
-0.05426359176635742 -0.007751941680908203 0.052151359617710114
-0.05426359176635742 0.007751941680908203 -0.07034219801425934
-0.05426359176635742 0.007751941680908203 0.050494484603405
-0.05426359176635742 0.02325582504272461 -0.06050988286733627
-0.05426359176635742 0.02325582504272461 0.04528861492872238
-0.05426359176635742 0.038759708404541016 -0.04354659840464592
-0.05426359176635742 0.038759708404541016 0.03433490917086601
-0.038759708404541016 -0.05426359176635742 -0.02354309894144535
-0.038759712129831314 -0.05426359176635742 0.008069741539657116
-0.038759708404541016 -0.038759708404541016 -0.05681738629937172
-0.038759708404541016 -0.038759708404541016 0.039047516882419586
-0.038759708404541016 -0.02325582504272461 -0.06650544703006744
-0.038759708404541016 -0.02325582504272461 0.04786871373653412
-0.038759708404541016 -0.007751941680908203 -0.07061581313610077
-0.038759708404541016 -0.007751941680908203 0.05152152106165886
-0.038759708404541016 0.007751941680908203 -0.07004408538341522
-0.038759708404541016 0.007751941680908203 0.04986603930592537
-0.038759708404541016 0.02325582504272461 -0.05972777307033539
-0.038759708404541016 0.02325582504272461 0.04491402953863144
-0.038759708404541016 0.038759708404541016 -0.042749322950839996
-0.038759708404541016 0.038759708404541016 0.033581413328647614
-0.02325582318007946 -0.05426359176635742 -0.022305766120553017
-0.02325582504272461 -0.05426359176635742 0.007570011541247368
-0.02325582504272461 -0.038759708404541016 -0.05637429654598236
-0.02325582504272461 -0.038759708404541016 0.038469117134809494
-0.02325582504272461 -0.02325582504272461 -0.06543780863285065
-0.02325582504272461 -0.02325582504272461 0.04715031385421753
-0.02325582504272461 -0.007751941680908203 -0.07025201618671417
-0.02325582504272461 -0.007751941680908203 0.05060296505689621
-0.02325582504272461 0.007751941680908203 -0.06939374655485153
-0.02325582504272461 0.007751941680908203 0.049042217433452606
-0.02325582504272461 0.02325582504272461 -0.058834806084632874
-0.02325582504272461 0.02325582504272461 0.04439441114664078
-0.02325582504272461 0.038759708404541016 -0.04177786037325859
-0.02325582504272461 0.038759708404541016 0.03256819769740105
-0.007751941680908203 -0.05426359176635742 -0.022962205111980438
-0.007751941215246916 -0.05426359176635742 0.0077647436410188675
-0.007751941680908203 -0.038759708404541016 -0.05614259093999863
-0.007751941680908203 -0.038759708404541016 0.037887558341026306
-0.007751941680908203 -0.02325582504272461 -0.06471754610538483
-0.007751941680908203 -0.02325582504272461 0.04681161046028137
-0.007751941680908203 -0.007751941680908203 -0.07003549486398697
-0.007751941680908203 -0.007751941680908203 0.050218019634485245
-0.007751941215246916 0.007751941215246916 -0.06844894587993622
-0.007751941680908203 0.007751941680908203 0.04863329231739044
-0.007751941680908203 0.02325582504272461 -0.0583629235625267
-0.007751941680908203 0.02325582504272461 0.04404325783252716
-0.007751941680908203 0.038759708404541016 -0.04140003025531769
-0.007751941680908203 0.038759708404541016 0.03200775384902954
0.007751941680908203 -0.05426359176635742 -0.02188025787472725
0.007751941680908203 -0.05426359176635742 0.007125105708837509
0.007751941680908203 -0.038759708404541016 -0.05585518106818199
0.007751941680908203 -0.038759708404541016 0.03719540312886238
0.007751941680908203 -0.02325582504272461 -0.06415203958749771
0.007751941680908203 -0.02325582504272461 0.046458594501018524
0.007751941680908203 -0.007751941680908203 -0.06989622861146927
0.007751941680908203 -0.007751941680908203 0.04989835247397423
0.007751941680908203 0.007751941680908203 -0.06793899089097977
0.007751941680908203 0.007751941680908203 0.04832698032259941
0.007751941680908203 0.02325582504272461 -0.05808782950043678
0.007751941680908203 0.02325582318007946 0.04377330094575882
0.007751941680908203 0.038759708404541016 -0.04104674234986305
0.007751941680908203 0.038759708404541016 0.03160720691084862
0.02325582504272461 -0.05426359176635742 -0.02306305058300495
0.02325582504272461 -0.05426359176635742 0.007932910695672035
0.02325582504272461 -0.038759708404541016 -0.05588129907846451
0.02325582504272461 -0.038759708404541016 0.03707478195428848
0.02325582504272461 -0.02325582504272461 -0.06408396363258362
0.02325582504272461 -0.02325582504272461 0.0462760329246521
0.02325582504272461 -0.007751941680908203 -0.06986625492572784
0.02325582504272461 -0.007751941680908203 0.049584466964006424
0.02325582504272461 0.007751941680908203 -0.06788476556539536
0.02325582504272461 0.007751941680908203 0.04804152995347977
0.02325582504272461 0.02325582504272461 -0.05801700800657272
0.02325582504272461 0.02325582504272461 0.0435759611427784
0.02325582504272461 0.038759708404541016 -0.040821414440870285
0.02325582504272461 0.038759708404541016 0.03125007450580597
0.038759708404541016 -0.05426359176635742 -0.023780662566423416
0.038759712129831314 -0.05426359176635742 0.008156737312674522
0.038759708404541016 -0.038759708404541016 -0.055970724672079086
0.038759708404541016 -0.038759708404541016 0.03720929101109505
0.038759708404541016 -0.02325582504272461 -0.0640517920255661
0.038759708404541016 -0.02325582504272461 0.04635661095380783
0.038759708404541016 -0.007751941680908203 -0.069849893450737
0.038759708404541016 -0.007751941680908203 0.049612268805503845
0.038759708404541016 0.007751941680908203 -0.06781558692455292
0.038759708404541016 0.007751941680908203 0.04798814654350281
0.038759708404541016 0.02325582504272461 -0.05797963961958885
0.038759708404541016 0.02325582504272461 0.04351456090807915
0.038759708404541016 0.038759708404541016 -0.04085369408130646
0.038759708404541016 0.038759708404541016 0.03127872943878174
0.05426359176635742 -0.05426359176635742 -0.024409661069512367
0.05426359176635742 -0.05426359176635742 0.00838611088693142
0.05426359176635742 -0.038759708404541016 -0.05612466111779213
0.05426359176635742 -0.038759708404541016 0.03728789836168289
0.05426359176635742 -0.02325582504272461 -0.06400267779827118
0.05426359176635742 -0.02325582504272461 0.046346575021743774
0.05426359176635742 -0.007751941680908203 -0.06977985054254532
0.05426359176635742 -0.007751941680908203 0.049614276736974716
0.05426359176635742 0.007751941680908203 -0.06746968626976013
0.05426359176635742 0.007751941680908203 0.04793116822838783
0.05426359176635742 0.02325582504272461 -0.05781951919198036
0.05426359176635742 0.02325582504272461 0.04340723156929016
0.05426359176635742 0.038759708404541016 -0.04067414253950119
0.05426359176635742 0.038759708404541016 0.031006593257188797
0.06976747512817383 -0.05426359176635742 -0.02470107190310955
0.06976747512817383 -0.05426359176635742 0.008560337126255035
0.06976747512817383 -0.038759708404541016 -0.05614206939935684
0.06976747512817383 -0.038759708404541016 0.037175264209508896
0.06976747512817383 -0.02325582504272461 -0.06362269818782806
0.06976747512817383 -0.02325582504272461 0.046138934791088104
0.06976746767759323 -0.007751941680908203 -0.06913667172193527
0.06976747512817383 -0.007751941680908203 0.049413278698921204
0.06976747512817383 0.007751941680908203 -0.06676964461803436
0.06976747512817383 0.007751941680908203 0.047760479152202606
0.06976747512817383 0.02325582504272461 -0.05761787295341492
0.06976747512817383 0.02325582504272461 0.043197836726903915
0.06976747512817383 0.038759708404541016 -0.04040555655956268
0.06976747512817383 0.038759708404541016 0.030400533229112625
0.08527135848999023 -0.05426359176635742 -0.02543995901942253
0.08527136594057083 -0.05426359176635742 0.008868644014000893
0.08527135848999023 -0.038759708404541016 -0.056187018752098083
0.08527135848999023 -0.038759708404541016 0.03760287165641785
0.08527135848999023 -0.02325582504272461 -0.06339074671268463
0.08527135848999023 -0.02325582504272461 0.0462522879242897
0.08527135848999023 -0.007751941680908203 -0.06877817213535309
0.08527135848999023 -0.007751941680908203 0.049616314470767975
0.08527135103940964 0.007751941215246916 -0.06637375056743622
0.08527135848999023 0.007751941680908203 0.04785924404859543
0.08527135848999023 0.02325582504272461 -0.05756986886262894
0.08527135848999023 0.02325582504272461 0.04308909922838211
0.08527135848999023 0.038759708404541016 -0.040516119450330734
0.08527135848999023 0.038759708404541016 0.02999330684542656
0.10077524185180664 -0.05426359176635742 -0.026044346392154694
0.10077524185180664 -0.05426359176635742 0.009003990329802036
0.10077524185180664 -0.038759708404541016 -0.056227318942546844
0.10077524185180664 -0.038759708404541016 0.03759615495800972
0.10077524185180664 -0.02325582504272461 -0.06341331452131271
0.10077524185180664 -0.02325582504272461 0.046169742941856384
0.10077524185180664 -0.007751941680908203 -0.06873013079166412
0.10077524185180664 -0.007751941680908203 0.04952611029148102
0.10077524185180664 0.007751941680908203 -0.06628688424825668
0.10077524185180664 0.007751941680908203 0.047691576182842255
0.10077524185180664 0.02325582504272461 -0.05752851814031601
0.10077524185180664 0.02325582504272461 0.042881570756435394
0.10077524185180664 0.038759708404541016 -0.04047733545303345
0.10077524185180664 0.038759708404541016 0.029420210048556328
0.11627912521362305 -0.05426359176635742 -0.025820404291152954
0.11627912521362305 -0.05426359176635742 0.008685885928571224
0.11627912521362305 -0.038759708404541016 -0.05607895180583
0.11627912521362305 -0.038759708404541016 0.03665054962038994
0.11627912521362305 -0.02325582504272461 -0.06317304074764252
0.11627912521362305 -0.02325582504272461 0.045778147876262665
0.11627912521362305 -0.007751941680908203 -0.06834450364112854
0.11627912521362305 -0.007751941680908203 0.049126289784908295
0.11627912521362305 0.007751941680908203 -0.06588147580623627
0.11627912521362305 0.007751941680908203 0.04725905507802963
0.11627912521362305 0.02325582504272461 -0.05728159099817276
0.11627912521362305 0.02325582504272461 0.042416103184223175
0.11627912521362305 0.038759708404541016 -0.04003286734223366
0.11627912521362305 0.038759708404541016 0.02837243303656578
0.1317828893661499 -0.05426359176635742 -0.026116376742720604
0.1317828893661499 -0.05426359176635742 0.008508894592523575
0.1317828893661499 -0.038759708404541016 -0.056113895028829575
0.1317828893661499 -0.038759708404541016 0.0359482541680336
0.1317828893661499 -0.02325582504272461 -0.06322374939918518
0.1317828893661499 -0.02325582504272461 0.045547954738140106
0.1317828893661499 -0.007751941680908203 -0.06835515797138214
0.1317828893661499 -0.007751941680908203 0.04898856207728386
0.1317828893661499 0.007751941680908203 -0.06580805778503418
0.1317828893661499 0.007751941680908203 0.04704706370830536
0.1317828893661499 0.02325582504272461 -0.05709589272737503
0.1317828893661499 0.02325582504272461 0.04210545867681503
0.1317828893661499 0.038759708404541016 -0.03979180008172989
0.1317828893661499 0.038759708404541016 0.027847040444612503
0.1472867727279663 -0.05426359176635742 -0.025961771607398987
0.1472867727279663 -0.05426359176635742 0.008133039809763432
0.1472867727279663 -0.038759708404541016 -0.05602703243494034
0.1472867727279663 -0.038759708404541016 0.03516705706715584
0.1472867727279663 -0.02325582504272461 -0.06300612539052963
0.1472867727279663 -0.02325582504272461 0.04529876261949539
0.1472867727279663 -0.007751941680908203 -0.06802968680858612
0.1472867727279663 -0.007751941680908203 0.04884158819913864
0.1472867727279663 0.007751941680908203 -0.06538829207420349
0.1472867727279663 0.007751941680908203 0.046854108572006226
0.1472867727279663 0.02325582504272461 -0.05680680274963379
0.1472867727279663 0.02325582504272461 0.04181737080216408
0.1472867727279663 0.038759708404541016 -0.039392225444316864
0.1472867727279663 0.038759708404541016 0.027282703667879105
0.16279065608978271 -0.05426359176635742 -0.025141486898064613
0.16279065608978271 -0.05426359176635742 0.006840873509645462
0.16279065608978271 -0.038759708404541016 -0.055754151195287704
0.16279065608978271 -0.038759708404541016 0.03394237905740738
0.16279065608978271 -0.02325582504272461 -0.06248059496283531
0.16279065608978271 -0.02325582504272461 0.04486742988228798
0.16279065608978271 -0.007751941680908203 -0.06725745648145676
0.16279065608978271 -0.007751941680908203 0.0484563447535038
0.16279065608978271 0.007751941680908203 -0.06460490077733994
0.16279065608978271 0.007751941680908203 0.04646575450897217
0.16279065608978271 0.02325582504272461 -0.056370534002780914
0.16279064118862152 0.02325582504272461 0.04135189950466156
0.16279065608978271 0.038759708404541016 -0.03874760493636131
0.16279065608978271 0.038759708404541016 0.026319697499275208
0.17829453945159912 -0.05426359176635742 -0.024745484814047813
0.17829453945159912 -0.05426359176635742 0.005152246914803982
0.17829453945159912 -0.038759708404541016 -0.05552937090396881
0.17829453945159912 -0.038759708404541016 0.033028826117515564
0.17829453945159912 -0.02325582504272461 -0.061999306082725525
0.17829453945159912 -0.02325582504272461 0.04453806206583977
0.17829453945159912 -0.007751941680908203 -0.06653743237257004
0.17829453945159912 -0.007751941680908203 0.04821183905005455
0.17829453945159912 0.007751941680908203 -0.06393079459667206
0.17829453945159912 0.007751941680908203 0.04621534422039986
0.17829453945159912 0.02325582504272461 -0.05606161803007126
0.17829452455043793 0.02325582318007946 0.041093699634075165
0.17829453945159912 0.038759708404541016 -0.03819700703024864
0.17829453945159912 0.038759708404541016 0.02590821497142315
0.19379842281341553 -0.05426359176635742 -0.025012023746967316
0.19379842281341553 -0.05426359176635742 0.005009784363210201
0.19379842281341553 -0.038759708404541016 -0.05560966581106186
0.19379842281341553 -0.038759708404541016 0.03281966969370842
0.19379842281341553 -0.02325582504272461 -0.0620461106300354
0.19379842281341553 -0.02325582504272461 0.044542767107486725
0.19379842281341553 -0.007751941680908203 -0.06656553596258163
0.19379842281341553 -0.007751941680908203 0.0483037605881691
0.19379842281341553 0.007751941680908203 -0.06397289782762527
0.19379842281341553 0.007751941680908203 0.04624082148075104
0.19379842281341553 0.02325582504272461 -0.056072406470775604
0.19379842281341553 0.02325582504272461 0.041083257645368576
0.19379842281341553 0.038759708404541016 -0.03835398703813553
0.19379842281341553 0.038759708404541016 0.025910131633281708
0.20930230617523193 -0.05426359176635742 -0.025086984038352966
0.20930230617523193 -0.05426359176635742 0.005011195316910744
0.20930230617523193 -0.038759708404541016 -0.055760789662599564
0.20930230617523193 -0.038759708404541016 0.03257783502340317
0.20930230617523193 -0.02325582504272461 -0.06233084574341774
0.20930230617523193 -0.02325582504272461 0.04446499049663544
0.20930230617523193 -0.007751941680908203 -0.06689999997615814
0.20930230617523193 -0.007751941680908203 0.04828815907239914
0.20930230617523193 0.007751941680908203 -0.0644184947013855
0.20930230617523193 0.007751941680908203 0.04623066261410713
0.20930230617523193 0.02325582504272461 -0.05623119696974754
0.20930232107639313 0.02325582504272461 0.04107479751110077
0.20930232107639313 0.038759712129831314 -0.03828480467200279
0.20930230617523193 0.038759708404541016 0.02591904066503048
0.22480618953704834 -0.05426359176635742 -0.025792347267270088
0.22480618953704834 -0.05426359176635742 0.005659317597746849
0.22480618953704834 -0.038759708404541016 -0.05600465089082718
0.22480618953704834 -0.038759708404541016 0.03255891799926758
0.22480618953704834 -0.02325582504272461 -0.06269599497318268
0.22480618953704834 -0.02325582504272461 0.04451818764209747
0.22480618953704834 -0.007751941680908203 -0.06728732585906982
0.22480618953704834 -0.007751941680908203 0.04826400429010391
0.22480618953704834 0.007751941680908203 -0.06498588621616364
0.22480618953704834 0.007751941680908203 0.04625368118286133
0.22480618953704834 0.02325582504272461 -0.05650186538696289
0.22480618953704834 0.02325582504272461 0.041201189160346985
0.22480620443820953 0.038759708404541016 -0.038619961589574814
0.22480618953704834 0.038759708404541016 0.02627919800579548
0.24031007289886475 -0.05426359176635742 -0.027043994516134262
0.24031007289886475 -0.05426359176635742 0.007334843277931213
0.24031007289886475 -0.038759708404541016 -0.05635393410921097
0.24031007289886475 -0.038759708404541016 0.03302896022796631
0.24031007289886475 -0.02325582504272461 -0.06316504627466202
0.24031007289886475 -0.02325582504272461 0.044789575040340424
0.24031007289886475 -0.007751941680908203 -0.0677880272269249
0.24031007289886475 -0.007751941680908203 0.048533711582422256
0.24031007289886475 0.007751941680908203 -0.06564457714557648
0.24031007289886475 0.007751941680908203 0.04648391529917717
0.24031007289886475 0.02325582504272461 -0.056853748857975006
0.24031007289886475 0.02325582504272461 0.04151239991188049
0.24031007289886475 0.038759708404541016 -0.03911503404378891
0.24031007289886475 0.038759708404541016 0.026941239833831787
0.25581395626068115 -0.05426359176635742 -0.027494490146636963
0.25581395626068115 -0.05426359176635742 0.007878572680056095
0.25581395626068115 -0.038759708404541016 -0.05652478337287903
0.25581395626068115 -0.038759708404541016 0.03326892852783203
0.25581395626068115 -0.02325582504272461 -0.06335323303937912
0.25581395626068115 -0.02325582504272461 0.04491756856441498
0.25581395626068115 -0.007751941680908203 -0.06787235289812088
0.25581395626068115 -0.007751941680908203 0.04865076765418053
0.25581395626068115 0.007751941680908203 -0.06585068255662918
0.25581395626068115 0.007751941680908203 0.046591274440288544
0.25581395626068115 0.02325582504272461 -0.056991372257471085
0.25581395626068115 0.02325582504272461 0.041602954268455505
0.25581395626068115 0.038759708404541016 -0.03919561952352524
0.25581395626068115 0.038759708404541016 0.027050189673900604
0.27131783962249756 -0.05426359176635742 -0.027302004396915436
0.27131783962249756 -0.05426359176635742 0.007815711200237274
0.27131783962249756 -0.038759708404541016 -0.05657871812582016
0.27131783962249756 -0.038759708404541016 0.03339666500687599
0.27131783962249756 -0.02325582504272461 -0.06339681148529053
0.27131783962249756 -0.02325582504272461 0.04508502781391144
0.27131783962249756 -0.007751941680908203 -0.0678911954164505
0.27131783962249756 -0.007751941680908203 0.048873525112867355
0.27131783962249756 0.007751941680908203 -0.06598012894392014
0.27131783962249756 0.007751941680908203 0.0467640645802021
0.27131783962249756 0.02325582504272461 -0.05711308866739273
0.27131783962249756 0.02325582504272461 0.041638292372226715
0.27131783962249756 0.038759708404541016 -0.03931494057178497
0.27131783962249756 0.038759708404541016 0.02698545902967453
0.28682172298431396 -0.05426359176635742 -0.028246693313121796
0.28682172298431396 -0.05426359176635742 0.00814867950975895
0.28682172298431396 -0.038759708404541016 -0.056791916489601135
0.28682172298431396 -0.038759708404541016 0.033784620463848114
0.28682172298431396 -0.02325582504272461 -0.06362394988536835
0.28682172298431396 -0.02325582504272461 0.04523313418030739
0.28682172298431396 -0.007751941215246916 -0.06810837984085083
0.28682172298431396 -0.007751941680908203 0.04891824722290039
0.28682172298431396 0.007751941680908203 -0.06630591303110123
0.28682172298431396 0.007751941680908203 0.046797655522823334
0.28682172298431396 0.02325582504272461 -0.05736912041902542
0.28682172298431396 0.02325582504272461 0.04168068245053291
0.28682172298431396 0.038759708404541016 -0.03973338007926941
0.28682172298431396 0.038759708404541016 0.027077559381723404
0.30232560634613037 -0.05426359176635742 -0.028904743492603302
0.30232560634613037 -0.05426359549164772 0.00831630639731884
0.30232560634613037 -0.038759708404541016 -0.05706808716058731
0.30232560634613037 -0.038759708404541016 0.033773358911275864
0.30232560634613037 -0.02325582504272461 -0.0641091838479042
0.30232560634613037 -0.02325582504272461 0.04512989893555641
0.30232560634613037 -0.007751941680908203 -0.0685109794139862
0.30232560634613037 -0.007751941680908203 0.04871661588549614
0.30232560634613037 0.007751941680908203 -0.06676557660102844
0.30232560634613037 0.007751941680908203 0.04663849622011185
0.30232560634613037 0.02325582504272461 -0.05764156952500343
0.30232560634613037 0.02325582504272461 0.04153654724359512
0.30232560634613037 0.038759708404541016 -0.04001183062791824
0.30232560634613037 0.038759708404541016 0.02690449357032776
0.3178294897079468 -0.05426359176635742 -0.029013987630605698
0.3178294897079468 -0.05426359549164772 0.008231792598962784
0.3178294897079468 -0.038759708404541016 -0.05722545087337494
0.3178294897079468 -0.038759708404541016 0.03357686102390289
0.3178294897079468 -0.02325582504272461 -0.06452628970146179
0.3178294897079468 -0.02325582504272461 0.0450267419219017
0.3178294897079468 -0.007751941680908203 -0.06889794021844864
0.3178294897079468 -0.007751941680908203 0.048583999276161194
0.3178294897079468 0.007751941680908203 -0.06717788428068161
0.3178294897079468 0.007751941680908203 0.04653855413198471
0.3178294897079468 0.02325582504272461 -0.057769548147916794
0.3178294897079468 0.02325582504272461 0.041397206485271454
0.3178294897079468 0.038759708404541016 -0.03994172438979149
0.3178294897079468 0.038759708404541016 0.0267350897192955
0.3333333730697632 -0.05426359176635742 -0.029286663979291916
0.3333333432674408 -0.05426359176635742 0.008227950893342495
0.3333333730697632 -0.038759708404541016 -0.0572734996676445
0.3333333730697632 -0.038759708404541016 0.0333416722714901
0.3333333730697632 -0.02325582504272461 -0.06469982862472534
0.3333333730697632 -0.02325582504272461 0.04489310458302498
0.3333333730697632 -0.007751941680908203 -0.06906905770301819
0.3333333730697632 -0.007751941680908203 0.048429422080516815
0.3333333730697632 0.00775194214656949 -0.06734130531549454
0.3333333730697632 0.007751941680908203 0.04641670733690262
0.3333333730697632 0.02325582504272461 -0.05781736224889755
0.3333333730697632 0.02325582690536976 0.04130781814455986
0.3333333730697632 0.038759708404541016 -0.039965271949768066
0.3333333730697632 0.038759708404541016 0.02673148550093174
0.3488372564315796 -0.05426359176635742 -0.028590630739927292
0.3488372564315796 -0.05426359176635742 0.007925975136458874
0.3488372564315796 -0.038759708404541016 -0.05703398585319519
0.3488372564315796 -0.038759708404541016 0.03269762918353081
0.3488372564315796 -0.02325582504272461 -0.06443794071674347
0.3488372564315796 -0.02325582504272461 0.04457395523786545
0.3488372564315796 -0.007751941680908203 -0.06882382929325104
0.3488372564315796 -0.007751941680908203 0.04815107583999634
0.3488372564315796 0.007751941680908203 -0.06695938855409622
0.3488372564315796 0.007751941680908203 0.0461454801261425
0.3488372564315796 0.02325582504272461 -0.05748550221323967
0.3488372564315796 0.02325582504272461 0.04098064452409744
0.3488372564315796 0.038759708404541016 -0.03942928835749626
0.3488372564315796 0.038759708404541016 0.026303833350539207
0.364341139793396 -0.05426359176635742 -0.02742454595863819
0.364341139793396 -0.05426359176635742 0.006913634017109871
0.364341139793396 -0.038759708404541016 -0.05664942413568497
0.364341139793396 -0.038759708404541016 0.032010242342948914
0.364341139793396 -0.02325582504272461 -0.06389894336462021
0.364341139793396 -0.02325582504272461 0.044167496263980865
0.364341139793396 -0.007751941680908203 -0.06821763515472412
0.364341139793396 -0.007751941680908203 0.04778233915567398
0.364341139793396 0.007751941680908203 -0.06616679579019547
0.364341139793396 0.007751941680908203 0.04582686722278595
0.364341139793396 0.02325582504272461 -0.05694643780589104
0.364341139793396 0.02325582504272461 0.040588073432445526
0.364341139793396 0.038759708404541016 -0.03866300359368324
0.364341139793396 0.038759708404541016 0.02581012435257435
0.37984490394592285 -0.05426359176635742 -0.02756187506020069
0.37984490394592285 -0.05426359176635742 0.007425406016409397
0.37984490394592285 -0.038759708404541016 -0.05653031915426254
0.37984490394592285 -0.038759708404541016 0.03215526044368744
0.37984490394592285 -0.02325582504272461 -0.06360293924808502
0.37984490394592285 -0.02325582504272461 0.04417134448885918
0.37984490394592285 -0.007751941680908203 -0.06786424666643143
0.37984490394592285 -0.007751941680908203 0.047729574143886566
0.37984490394592285 0.007751941680908203 -0.0657825917005539
0.37984490394592285 0.007751941680908203 0.04577026143670082
0.37984490394592285 0.02325582504272461 -0.05677937716245651
0.37984490394592285 0.02325582504272461 0.040560055524110794
0.37984490394592285 0.038759708404541016 -0.03869207575917244
0.37984490394592285 0.038759708404541016 0.02586955949664116
0.39534878730773926 -0.05426359176635742 -0.028086811304092407
0.39534881711006165 -0.05426359176635742 0.00791491661220789
0.39534878730773926 -0.038759708404541016 -0.05664076656103134
0.39534878730773926 -0.038759708404541016 0.032483287155628204
0.39534878730773926 -0.02325582504272461 -0.06378037482500076
0.39534878730773926 -0.02325582504272461 0.04429585859179497
0.39534878730773926 -0.007751941680908203 -0.06800277531147003
0.39534878730773926 -0.007751941680908203 0.04780186712741852
0.39534878730773926 0.007751941680908203 -0.06590989977121353
0.39534878730773926 0.007751941680908203 0.04583711177110672
0.39534878730773926 0.02325582504272461 -0.056838229298591614
0.39534878730773926 0.02325582504272461 0.04063603654503822
0.39534878730773926 0.038759708404541016 -0.03889534994959831
0.39534878730773926 0.038759708404541016 0.026083936914801598
0.41085267066955566 -0.05426359176635742 -0.029004376381635666
0.41085267066955566 -0.05426359176635742 0.008367816917598248
0.41085267066955566 -0.038759708404541016 -0.05692563205957413
0.41085267066955566 -0.038759708404541016 0.03324802964925766
0.41085267066955566 -0.02325582504272461 -0.06429421156644821
0.41085267066955566 -0.02325582504272461 0.04463786631822586
0.41085267066955566 -0.007751941680908203 -0.06848669797182083
0.41085267066955566 -0.007751941680908203 0.04790752753615379
0.41085270047187805 0.00775194214656949 -0.06639685481786728
0.41085267066955566 0.00775194214656949 0.04599683731794357
0.41085267066955566 0.02325582504272461 -0.05715246871113777
0.41085267066955566 0.02325582504272461 0.04088500142097473
0.41085267066955566 0.038759708404541016 -0.03942986950278282
0.41085267066955566 0.038759708404541016 0.026529520750045776
0.42635655403137207 -0.05426359176635742 -0.03053281456232071
0.42635655403137207 -0.05426358804106712 0.009193047881126404
0.42635655403137207 -0.038759708404541016 -0.057245299220085144
0.42635655403137207 -0.038759708404541016 0.03461999073624611
0.42635658383369446 -0.02325582504272461 -0.06475963443517685
0.42635655403137207 -0.02325582504272461 0.04538173973560333
0.42635655403137207 -0.00775194214656949 -0.0689796730875969
0.42635655403137207 -0.007751941680908203 0.04831112176179886
0.42635655403137207 0.007751941680908203 -0.06691044569015503
0.42635655403137207 0.007751941680908203 0.046397991478443146
0.42635655403137207 0.02325582504272461 -0.05760315805673599
0.42635655403137207 0.02325582504272461 0.0414910614490509
0.42635655403137207 0.038759708404541016 -0.04033604636788368
0.4263565242290497 0.038759708404541016 0.027455637231469154
0.4418604373931885 -0.05426359176635742 -0.031099583953619003
0.44186046719551086 -0.05426359176635742 0.009538021869957447
0.4418604373931885 -0.038759708404541016 -0.05739198625087738
0.4418604373931885 -0.038759708404541016 0.03548473119735718
0.4418604373931885 -0.02325582504272461 -0.0650222972035408
0.4418604373931885 -0.02325582504272461 0.04583094269037247
0.4418604373931885 -0.007751941680908203 -0.06921014189720154
0.4418604373931885 -0.007751941680908203 0.048471130430698395
0.4418604373931885 0.007751941680908203 -0.0670560672879219
0.4418604373931885 0.007751941680908203 0.0465792641043663
0.4418604373931885 0.02325582504272461 -0.05777791887521744
0.4418604373931885 0.02325582504272461 0.04178290814161301
0.4418604373931885 0.038759708404541016 -0.04073662683367729
0.4418604373931885 0.038759708404541016 0.02792295441031456
0.4573643207550049 -0.05426359176635742 -0.030502596870064735
0.4573643207550049 -0.05426359176635742 0.009340416640043259
0.4573643207550049 -0.038759708404541016 -0.05723445117473602
0.4573643207550049 -0.038759708404541016 0.03560894727706909
0.4573643207550049 -0.02325582504272461 -0.06487809121608734
0.4573643207550049 -0.02325582504272461 0.04584725946187973
0.4573643207550049 -0.007751941680908203 -0.06910107284784317
0.4573643207550049 -0.007751941680908203 0.04841309040784836
0.4573643207550049 0.007751941680908203 -0.06679938733577728
0.4573643207550049 0.007751941680908203 0.046527475118637085
0.4573643207550049 0.02325582504272461 -0.05749552324414253
0.4573643207550049 0.02325582504272461 0.04160900041460991
0.4573643207550049 0.038759708404541016 -0.04029929265379906
0.4573643207550049 0.038759708404541016 0.027553360909223557
0.4728682041168213 -0.05426359176635742 -0.030229661613702774
0.4728682041168213 -0.05426359176635742 0.00932096503674984
0.4728682041168213 -0.038759708404541016 -0.05714334920048714
0.4728682041168213 -0.038759708404541016 0.03615447133779526
0.4728682041168213 -0.02325582504272461 -0.06469590961933136
0.4728682041168213 -0.02325582504272461 0.046036019921302795
0.4728682041168213 -0.00775194214656949 -0.06894367933273315
0.4728682041168213 -0.007751941680908203 0.04849250614643097
0.4728682041168213 0.007751941680908203 -0.06653822958469391
0.4728682041168213 0.007751941680908203 0.04659811407327652
0.4728682041168213 0.02325582504272461 -0.05736662447452545
0.4728682041168213 0.02325582504272461 0.041641585528850555
0.4728682041168213 0.038759708404541016 -0.04030805081129074
0.4728682339191437 0.038759708404541016 0.027585092931985855
0.4883720874786377 -0.05426359176635742 -0.030500393360853195
0.4883720874786377 -0.05426359176635742 0.009412889368832111
0.4883720874786377 -0.038759708404541016 -0.05736096575856209
0.4883720874786377 -0.038759708404541016 0.03673641383647919
0.4883720874786377 -0.02325582504272461 -0.0651034340262413
0.4883720874786377 -0.02325582504272461 0.046178583055734634
0.4883721172809601 -0.007751941680908203 -0.06932902336120605
0.4883720874786377 -0.007751941680908203 0.04853827878832817
0.4883720874786377 0.007751941680908203 -0.06676133722066879
0.4883720874786377 0.007751941680908203 0.04660184681415558
0.4883720874786377 0.02325582504272461 -0.0575089156627655
0.4883720874786377 0.02325582504272461 0.041619110852479935
0.4883720874786377 0.038759708404541016 -0.040604304522275925
0.4883720874786377 0.038759708404541016 0.02767590805888176
0.5038759708404541 -0.05426359176635742 -0.03015780821442604
0.5038759708404541 -0.05426359176635742 0.009136442095041275
0.5038759708404541 -0.038759708404541016 -0.05752560496330261
0.5038759708404541 -0.038759708404541016 0.036688871681690216
0.5038759708404541 -0.02325582504272461 -0.06557823717594147
0.5038759708404541 -0.02325582504272461 0.046158045530319214
0.5038759708404541 -0.007751941680908203 -0.06979696452617645
0.5038759708404541 -0.007751941680908203 0.04853501915931702
0.5038759708404541 0.007751941215246916 -0.06710612028837204
0.5038759708404541 0.007751941680908203 0.046552516520023346
0.5038759708404541 0.02325582504272461 -0.057588592171669006
0.5038759708404541 0.02325582504272461 0.041502341628074646
0.5038759708404541 0.038759708404541016 -0.040670182555913925
0.5038759708404541 0.038759708404541016 0.02763037197291851
0.5193798542022705 -0.05426359176635742 -0.03000243753194809
0.5193798542022705 -0.05426359549164772 0.008900601416826248
0.5193798542022705 -0.038759708404541016 -0.05766570568084717
0.5193798542022705 -0.038759708404541016 0.03647772967815399
0.5193798542022705 -0.02325582504272461 -0.06609281152486801
0.5193798542022705 -0.02325582504272461 0.04626402258872986
0.5193798542022705 -0.007751941680908203 -0.07002408057451248
0.5193798542022705 -0.007751941680908203 0.048618897795677185
0.5193798542022705 0.007751941680908203 -0.06755559891462326
0.5193798542022705 0.007751941680908203 0.046614304184913635
0.5193798542022705 0.02325582504272461 -0.05774465575814247
0.5193798542022705 0.02325582504272461 0.041579894721508026
0.5193798542022705 0.038759708404541016 -0.0408785417675972
0.5193798542022705 0.038759708404541016 0.027897590771317482
0.5348837375640869 -0.05426359176635742 -0.02975526452064514
0.5348837375640869 -0.05426359549164772 0.00874115526676178
0.5348837375640869 -0.038759708404541016 -0.05773058906197548
0.5348837375640869 -0.038759708404541016 0.03657670319080353
0.5348837375640869 -0.02325582504272461 -0.06643016636371613
0.5348837375640869 -0.02325582504272461 0.04638900235295296
0.5348837375640869 -0.007751941680908203 -0.07019200176000595
0.5348837375640869 -0.007751941680908203 0.048830173909664154
0.5348837375640869 0.00775194214656949 -0.067824587225914
0.5348837375640869 0.007751941680908203 0.04680074006319046
0.5348837375640869 0.02325582504272461 -0.05783306062221527
0.5348837375640869 0.02325582504272461 0.04172229394316673
0.5348837375640869 0.038759708404541016 -0.04101645201444626
0.5348837375640869 0.038759708404541016 0.028192371129989624
0.5503876209259033 -0.05426359176635742 -0.029029227793216705
0.5503876209259033 -0.05426359549164772 0.008422649465501308
0.5503876209259033 -0.038759708404541016 -0.05754490941762924
0.5503876209259033 -0.038759708404541016 0.03614457696676254
0.5503876209259033 -0.02325582504272461 -0.06627596914768219
0.5503876209259033 -0.02325582504272461 0.04611070454120636
0.5503876209259033 -0.007751941680908203 -0.07011789828538895
0.5503876209259033 -0.007751941680908203 0.04871534928679466
0.5503876209259033 0.007751941680908203 -0.06753747165203094
0.5503876209259033 0.007751941680908203 0.0466996431350708
0.5503876209259033 0.02325582504272461 -0.057456810027360916
0.5503876209259033 0.02325582504272461 0.04145268350839615
0.5503876209259033 0.038759708404541016 -0.040533170104026794
0.5503876209259033 0.038759708404541016 0.027879098430275917
0.5658915042877197 -0.05426359176635742 -0.029766879975795746
0.565891444683075 -0.05426359176635742 0.008919772692024708
0.5658915042877197 -0.038759708404541016 -0.05764585733413696
0.5658915042877197 -0.038759708404541016 0.036374639719724655
0.5658915042877197 -0.02325582504272461 -0.06639519333839417
0.5658915042877197 -0.02325582504272461 0.04598323255777359
0.5658915042877197 -0.007751941680908203 -0.07014115899801254
0.5658915042877197 -0.007751941680908203 0.04867430031299591
0.5658915042877197 0.007751941680908203 -0.06747084856033325
0.5658915042877197 0.007751941680908203 0.04670549929141998
0.5658915042877197 0.02325582504272461 -0.05748704448342323
0.5658915042877197 0.02325582504272461 0.04149988293647766
0.5658915042877197 0.038759708404541016 -0.040924351662397385
0.5658915042877197 0.038759708404541016 0.02830563113093376
0.5813953876495361 -0.05426359176635742 -0.031179524958133698
0.5813953876495361 -0.05426359176635742 0.00993414781987667
0.5813953876495361 -0.038759708404541016 -0.05788765847682953
0.5813953876495361 -0.038759708404541016 0.03715900704264641
0.5813953876495361 -0.02325582504272461 -0.06684596836566925
0.5813953876495361 -0.02325582504272461 0.04627865552902222
0.5813953876495361 -0.007751941680908203 -0.07034634053707123
0.5813953876495361 -0.007751941680908203 0.048952002078294754
0.5813953876495361 0.007751941680908203 -0.06786761432886124
0.5813953876495361 0.007751941680908203 0.046942852437496185
0.5813953876495361 0.02325582504272461 -0.05783618986606598
0.5813953876495361 0.02325582504272461 0.04178928583860397
0.5813953876495361 0.038759708404541016 -0.041727982461452484
0.5813953876495361 0.038759708404541016 0.029101312160491943
0.5968992710113525 -0.05426358804106712 -0.03320227563381195
0.5968992710113525 -0.05426359176635742 0.011343851685523987
0.5968992710113525 -0.038759708404541016 -0.05836489424109459
0.5968992710113525 -0.038759708404541016 0.03792113438248634
0.5968992710113525 -0.02325582504272461 -0.06789277493953705
0.5968992710113525 -0.02325582504272461 0.04672233760356903
0.5968992710113525 -0.007751941680908203 -0.07088837772607803
0.5968992710113525 -0.007751941680908203 0.0493549108505249
0.5968992710113525 0.007751941680908203 -0.06888473033905029
0.5968992710113525 0.007751941680908203 0.047330599278211594
0.5968992710113525 0.02325582504272461 -0.05880598723888397
0.5968992710113525 0.02325582504272461 0.0422370471060276
0.5968992710113525 0.038759708404541016 -0.04318346828222275
0.5968992710113525 0.038759708404541016 0.030050352215766907
0.612403154373169 -0.05426359176635742 -0.03613670915365219
0.612403154373169 -0.05426359176635742 0.01308625377714634
0.612403154373169 -0.038759708404541016 -0.05911637842655182
0.612403154373169 -0.038759708404541016 0.03882436081767082
0.612403154373169 -0.02325582504272461 -0.06923159211874008
0.612403154373169 -0.02325582504272461 0.047460928559303284
0.612403154373169 -0.007751941680908203 -0.07160695642232895
0.612403154373169 -0.007751941680908203 0.0497920885682106
0.612403154373169 0.007751941680908203 -0.06988422572612762
0.612403154373169 0.007751941680908203 0.04780123755335808
0.612403154373169 0.02325582504272461 -0.0603615939617157
0.612403154373169 0.02325582504272461 0.04305769503116608
0.612403154373169 0.038759708404541016 -0.045326024293899536
0.612403154373169 0.038759708404541016 0.03166401386260986
0.612403154373169 0.05426359176635742 -0.01022510789334774
0.612403154373169 0.05426359176635742 -0.0015296440105885267
0.6279069185256958 -0.05426359176635742 -0.038825564086437225
0.6279069185256958 -0.05426359176635742 0.014699355699121952
0.6279069185256958 -0.038759708404541016 -0.059796057641506195
0.6279069185256958 -0.038759708404541016 0.03935570642352104
0.6279069185256958 -0.02325582504272461 -0.07010489702224731
0.6279069185256958 -0.02325582504272461 0.048220884054899216
0.6279069185256958 -0.007751941680908203 -0.0723549947142601
0.6279069185256958 -0.007751941680908203 0.05047797039151192
0.6279069185256958 0.007751941680908203 -0.0704883337020874
0.6279069185256958 0.007751941680908203 0.04837417975068092
0.6279069185256958 0.02325582504272461 -0.06177421659231186
0.6279069185256958 0.02325582504272461 0.04387541487812996
0.6279069185256958 0.038759708404541016 -0.047123320400714874
0.6279069185256958 0.038759708404541016 0.03310571610927582
0.6279069185256958 0.05426359176635742 -0.013148462399840355
0.6279069185256958 0.05426359176635742 0.005660723894834518
0.6434108018875122 -0.05426359176635742 -0.039347268640995026
0.6434108018875122 -0.05426359176635742 0.01545643713325262
0.6434108018875122 -0.038759708404541016 -0.06002424657344818
0.6434108018875122 -0.038759708404541016 0.039601944386959076
0.6434108018875122 -0.02325582504272461 -0.07028649747371674
0.6434108018875122 -0.02325582504272461 0.04844805225729942
0.6434108018875122 -0.007751941680908203 -0.07259878516197205
0.6434108018875122 -0.007751941680908203 0.05072036385536194
0.6434108018875122 0.007751941680908203 -0.07075344026088715
0.6434108018875122 0.007751941680908203 0.04856882616877556
0.6434108018875122 0.02325582504272461 -0.062254250049591064
0.6434108018875122 0.02325582504272461 0.044127948582172394
0.6434108018875122 0.038759708404541016 -0.047599732875823975
0.6434108018875122 0.038759708404541016 0.033563729375600815
0.6434108018875122 0.05426359176635742 -0.014263252727687359
0.6434108018875122 0.05426359176635742 0.007996484637260437
0.6589146852493286 -0.05426359176635742 -0.03957032412290573
0.6589146852493286 -0.05426359176635742 0.015763074159622192
