-0.06976741552352905 0.20181676745414734 0.3178294897079468
-0.06976741552352905 0.20833466947078705 0.5968992710113525
-0.06976741552352905 0.19470170140266418 0.612403154373169
-0.06976741552352905 0.21918269991874695 -0.9069766998291016
-0.06976741552352905 0.22168870270252228 -0.28682172298431396
-0.06976741552352905 0.21080902218818665 0.19379842281341553
-0.06976741552352905 0.211983785033226 0.3333333730697632
-0.06976741552352905 0.22139358520507812 0.3488372564315796
-0.06976741552352905 0.21909764409065247 0.5813953876495361
-0.06976741552352905 0.2392117977142334 -0.8914728760719299
-0.06976741552352905 0.22703005373477936 -0.30232560634613037
-0.06976741552352905 0.22595369815826416 -0.27131783962249756
-0.06976741552352905 0.23604735732078552 -0.25581395626068115
-0.06976741552352905 0.22903090715408325 0.17829453945159912
-0.06976741552352905 0.23038965463638306 0.364341139793396
-0.06976741552352905 0.2379070371389389 0.37984490394592285
-0.06976741552352905 0.23940414190292358 0.5503876209259033
-0.06976741552352905 0.22991789877414703 0.5658915042877197
-0.06976741552352905 0.23290374875068665 0.6899224519729614
-0.06976741552352905 0.24161279201507568 -0.317829430103302
-0.06976741552352905 0.24615049362182617 -0.24031007289886475
-0.06976741552352905 0.25481513142585754 -0.22480618953704834
-0.06976741552352905 0.24697169661521912 0.16279065608978271
-0.06976741552352905 0.24585726857185364 0.39534878730773926
-0.06976741552352905 0.2508217990398407 0.41085267066955566
-0.06976741552352905 0.2536212205886841 0.42635655403137207
-0.06976741552352905 0.25538110733032227 0.4418604373931885
-0.06976741552352905 0.25561821460723877 0.4883720874786377
-0.06976741552352905 0.2540028393268585 0.5038759708404541
-0.06976741552352905 0.2505875527858734 0.5193798542022705
-0.06976741552352905 0.2456454187631607 0.5348837375640869
-0.06976741552352905 0.2488621175289154 0.7054263353347778
-0.06976741552352905 0.26321572065353394 -0.8759689331054688
-0.06976741552352905 0.2595057189464569 -0.3333333134651184
-0.06976741552352905 0.264313280582428 -0.20930230617523193
-0.06976741552352905 0.271026611328125 -0.19379842281341553
-0.06976741552352905 0.26370298862457275 0.1472867727279663
-0.06976741552352905 0.25645843148231506 0.4573643207550049
-0.06976741552352905 0.25653427839279175 0.4728682041168213
-0.06976741552352905 0.28383979201316833 -0.8604650497436523
-0.06976741552352905 0.27614688873291016 -0.3488371968269348
-0.06976741552352905 0.27983641624450684 -0.1782945990562439
-0.06976741552352905 0.2774829864501953 0.1317828893661499
-0.06976741552352905 0.3006807565689087 -0.8449612259864807
-0.06976741552352905 0.29181891679763794 -0.3643410801887512
-0.06976741552352905 0.2870842218399048 -0.1627907156944275
-0.06976741552352905 0.29643189907073975 -0.14728683233261108
-0.06976741552352905 0.29688429832458496 0.10077524185180664
-0.06976741552352905 0.2885163724422455 0.11627913266420364
-0.06976741552352905 0.3167610168457031 -0.8294573426246643
-0.06976741552352905 0.3078261613845825 -0.3798449635505676
-0.06976741552352905 0.3036172091960907 -0.13178294897079468
-0.06976741552352905 0.3119463622570038 -0.11627906560897827
-0.06976741552352905 0.31700342893600464 -0.10077518224716187
-0.06976741552352905 0.31679198145866394 0.038759708404541016
-0.06976741552352905 0.3139682412147522 0.05426359176635742
-0.06976741552352905 0.309835284948349 0.06976747512817383
-0.06976741552352905 0.30428799986839294 0.08527135848999023
-0.06976741552352905 0.3321165442466736 -0.8139535188674927
-0.06976741552352905 0.32396024465560913 -0.39534884691238403
-0.06976741552352905 0.32025352120399475 -0.08527129888534546
-0.06976741552352905 0.3226734697818756 -0.06976741552352905
-0.06976741552352905 0.32293468713760376 -0.05426359176635742
-0.06976741552352905 0.322583943605423 -0.038759708404541016
-0.06976741552352905 0.3215464949607849 -0.02325582504272461
-0.06976741552352905 0.3205447494983673 -0.007751941680908203
-0.06976741552352905 0.31939706206321716 0.007751941680908203
-0.06976740807294846 0.3182278275489807 0.02325582504272461
-0.06976741552352905 0.34642359614372253 -0.7984496355056763
-0.06976741552352905 0.3382166624069214 -0.41085273027420044
-0.06976741552352905 0.3595164120197296 -0.7829457521438599
-0.06976741552352905 0.36284923553466797 -0.4418604373931885
-0.06976741552352905 0.35133427381515503 -0.42635661363601685
-0.06976741552352905 0.3687688410282135 -0.7674418687820435
-0.06976741552352905 0.37823542952537537 -0.751937985420227
-0.06976741552352905 0.37269484996795654 -0.4573643207550049
-0.06976741552352905 0.3882894217967987 -0.7364341020584106
-0.06976741552352905 0.39496082067489624 -0.7209302186965942
-0.06976741552352905 0.39076271653175354 -0.4883720874786377
-0.06976741552352905 0.3822396397590637 -0.4728682041168213
-0.06976741552352905 0.4034968614578247 -0.7054263353347778
-0.06976741552352905 0.40911707282066345 -0.6899224519729614
-0.06976741552352905 0.4061889946460724 -0.5193798542022705
-0.06976741552352905 0.3986406922340393 -0.5038759708404541
-0.06976741552352905 0.41462549567222595 -0.674418568611145
-0.06976741552352905 0.41923898458480835 -0.6589146852493286
-0.06976741552352905 0.42138004302978516 -0.643410861492157
-0.06976741552352905 0.4231296181678772 -0.6279069781303406
-0.06976741552352905 0.42426738142967224 -0.612403154373169
-0.06976741552352905 0.42428189516067505 -0.5968992114067078
-0.06976741552352905 0.423465758562088 -0.5813953876495361
-0.06976741552352905 0.4211851954460144 -0.5658915042877197
-0.06976741552352905 0.4178315997123718 -0.5503876209259033
-0.06976741552352905 0.412461519241333 -0.5348837375640869
-0.05426359176635742 -0.3810562789440155 -0.643410861492157
-0.05426359176635742 -0.38183704018592834 -0.6279069185256958
-0.05426359176635742 -0.38163235783576965 -0.6124030947685242
-0.05426359176635742 -0.380160927772522 -0.5968992114067078
-0.05426359176635742 -0.3652825355529785 -0.7054263353347778
-0.05426359176635742 -0.37133610248565674 -0.6899224519729614
-0.05426359176635742 -0.37538060545921326 -0.674418568611145
-0.05426359176635742 -0.378893107175827 -0.6589146852493286
-0.05426359176635742 -0.37740397453308105 -0.5813953876495361
-0.05426359176635742 -0.37279316782951355 -0.5658915042877197
-0.05426359176635742 -0.367567241191864 -0.5503876209259033
-0.05426359176635742 -0.3505462408065796 -0.7364341020584106
-0.05426358804106712 -0.3588975965976715 -0.7209302186965942
-0.05426359176635742 -0.3609556555747986 -0.5348837375640869
-0.05426359176635742 -0.35386306047439575 -0.5193798542022705
-0.05426359176635742 -0.34204238653182983 -0.751937985420227
-0.05426358804106712 -0.3452381491661072 -0.5038759708404541
-0.05426359176635742 -0.3379279673099518 -0.4883720874786377
-0.05426359176635742 -0.31936392188072205 -0.7829457521438599
-0.05426359176635742 -0.33057084679603577 -0.7674418687820435
-0.05426359176635742 -0.32914596796035767 -0.4728682041168213
-0.05426359176635742 -0.3217327892780304 -0.4573643207550049
-0.05426359176635742 -0.30729275941848755 -0.7984496355056763
-0.05426359176635742 -0.31272703409194946 -0.4418604373931885
-0.05426359176635742 -0.3050652742385864 -0.42635661363601685
-0.05426359176635742 -0.30481475591659546 -0.11627906560897827
-0.05426359176635742 -0.31065958738327026 -0.10077518224716187
-0.05426359176635742 -0.31336483359336853 -0.08527129888534546
-0.05426359176635742 -0.31530916690826416 -0.06976741552352905
-0.05426359176635742 -0.316112220287323 -0.05426359176635742
-0.05426359176635742 -0.31603485345840454 -0.038759712129831314
-0.05426359176635742 -0.3157193660736084 -0.02325582504272461
-0.05426359176635742 -0.31561413407325745 -0.007751941680908203
-0.05426359176635742 -0.3155006170272827 0.007751941680908203
-0.05426359176635742 -0.3149656653404236 0.02325582504272461
-0.05426359176635742 -0.31381627917289734 0.038759708404541016
-0.05426359176635742 -0.31159618496894836 0.05426359176635742
-0.05426359176635742 -0.3081549108028412 0.06976747512817383
-0.05426359176635742 -0.3029036521911621 0.08527135848999023
-0.05426359176635742 -0.2941223382949829 -0.8139535188674927
-0.05426359176635742 -0.29624998569488525 -0.41085273027420044
-0.05426359176635742 -0.2884582281112671 -0.39534884691238403
-0.05426359176635742 -0.2874967157840729 -0.1627907156944275
-0.05426359176635742 -0.29468560218811035 -0.14728683233261108
-0.05426359176635742 -0.29997649788856506 -0.13178294897079468
-0.05426359176635742 -0.2951725125312805 0.10077524185180664
-0.05426359176635742 -0.2802249789237976 -0.8294573426246643
-0.05426359549164772 -0.2804645299911499 -0.3798449635505676
-0.05426359176635742 -0.27312782406806946 -0.19379842281341553
-0.05426359176635742 -0.2805986702442169 -0.1782945990562439
-0.05426358804106712 -0.2862066924571991 0.11627912521362305
-0.05426359176635742 -0.2726934850215912 0.1317828893661499
-0.05426359176635742 -0.2653091549873352 -0.8449612855911255
-0.05426359176635742 -0.27110373973846436 -0.3643410801887512
-0.05426359176635742 -0.25990891456604004 -0.3488371968269348
-0.05426359176635742 -0.2570382058620453 -0.22480618953704834
-0.05426359176635742 -0.26503580808639526 -0.20930230617523193
-0.05426359176635742 -0.2588721811771393 0.1472867727279663
-0.05426359176635742 -0.24921858310699463 -0.8604651093482971
-0.05426359176635742 -0.24656876921653748 -0.3333333134651184
-0.05426359176635742 -0.2406940460205078 -0.25581395626068115
-0.05426359176635742 -0.24783116579055786 -0.24031007289886475
-0.05426359176635742 -0.24572451412677765 0.16279065608978271
-0.05426359176635742 -0.24856165051460266 0.37984490394592285
-0.05426359176635742 -0.2511902153491974 0.39534878730773926
-0.05426359176635742 -0.2489284873008728 0.41085267066955566
-0.05426359176635742 -0.24991944432258606 0.42635655403137207
-0.05426359176635742 -0.25280994176864624 0.44186046719551086
-0.05426359176635742 -0.2536140978336334 0.4573642909526825
-0.05426359549164772 -0.2518492341041565 0.4728682041168213
-0.05426359176635742 -0.24815645813941956 0.4883720874786377
-0.05426359176635742 -0.24238181114196777 0.5038759708404541
-0.05426359176635742 -0.23111051321029663 -0.8759689927101135
-0.05426359176635742 -0.2323288768529892 -0.317829430103302
-0.05426359176635742 -0.2250816971063614 -0.30232560634613037
-0.05426359176635742 -0.22632856667041779 -0.28682172298431396
-0.05426359176635742 -0.23193898797035217 -0.27131783962249756
-0.05426359176635742 -0.23248833417892456 0.17829453945159912
-0.05426359176635742 -0.2339354008436203 0.364341139793396
-0.05426359176635742 -0.23531758785247803 0.5193798542022705
-0.05426359176635742 -0.22714893519878387 0.5348837375640869
-0.05426359176635742 -0.21105621755123138 -0.8914728760719299
-0.05426359176635742 -0.2171308696269989 0.19379842281341553
-0.05426359176635742 -0.21323983371257782 0.3333333730697632
-0.05426359176635742 -0.22216758131980896 0.3488372564315796
-0.05426359549164772 -0.218633770942688 0.5503876209259033
-0.05426359176635742 -0.2093287706375122 0.5658915042877197
-0.05426359176635742 -0.19720084965229034 0.20930230617523193
-0.05426359176635742 -0.20450760424137115 0.3178294897079468
-0.05426359176635742 -0.19916999340057373 0.5813953876495361
-0.05426359176635742 -0.19533425569534302 0.6899224519729614
-0.05426359176635742 -0.2011713832616806 0.7054263353347778
-0.05426359176635742 -0.19066722691059113 -0.9069767594337463
-0.05426359176635742 -0.17995065450668335 0.28682172298431396
-0.05426359176635742 -0.19349855184555054 0.30232560634613037
-0.05426359176635742 -0.19080612063407898 0.5968992710113525
-0.05426359176635742 -0.18163590133190155 0.612403154373169
-0.05426359176635742 -0.18367595970630646 0.6899224519729614
-0.05426359176635742 -0.1640629768371582 -0.9224806427955627
-0.05426359176635742 -0.1729811429977417 0.22480618953704834
-0.05426359176635742 -0.1657625436782837 0.27131783962249756
-0.05426359176635742 -0.17076963186264038 0.6279069185256958
-0.05426358804106712 -0.17242951691150665 0.6899224519729614
-0.05426359176635742 -0.1544347107410431 0.24031007289886475
-0.05426359176635742 -0.1539955586194992 0.25581395626068115
-0.05426359176635742 -0.15525279939174652 0.6434108018875122
-0.05426359176635742 -0.13421687483787537 -0.9379844665527344
-0.05426359176635742 -0.1448034644126892 0.6589146852493286
-0.05426359176635742 -0.13792195916175842 0.674418568611145
-0.05426359176635742 -0.1461571902036667 0.7209302186965942
-0.05426359176635742 -0.13793988525867462 0.7364341020584106
-0.05426359176635742 -0.14581727981567383 0.751937985420227
-0.05426359176635742 -0.14394238591194153 0.7674418091773987
-0.05426359176635742 -0.141414612531662 0.7829457521438599
-0.05426359176635742 -0.14023181796073914 0.7984496355056763
-0.05426359176635742 -0.13994544744491577 0.8139535188674927
-0.05426359176635742 -0.13955824077129364 0.8294574022293091
-0.05426359176635742 -0.13926315307617188 0.8449612855911255
-0.05426359176635742 -0.13917654752731323 0.8604651689529419
-0.05426359176635742 -0.13859406113624573 0.8759689331054688
-0.05426359176635742 -0.13906817138195038 0.8914728164672852
-0.05426359176635742 -0.13801397383213043 0.9069766998291016
-0.05426359176635742 -0.1364821493625641 0.922480583190918
-0.05426359176635742 -0.1341564953327179 0.9379844665527344
-0.05426359176635742 -0.1325254738330841 0.9534883499145508
-0.05426359176635742 -0.1337466835975647 0.9689922332763672
-0.05426358804106712 -0.14141297340393066 0.9844961166381836
-0.05426359176635742 -0.09911120682954788 -0.9534883499145508
-0.05426359176635742 -0.056535445153713226 -0.9689922332763672
-0.05426359176635742 0.08109090477228165 -0.9689922332763672
-0.05426359176635742 0.1300935447216034 -0.9534883499145508
-0.05426359176635742 0.1569722592830658 0.6589146852493286
-0.05426359176635742 0.16027171909809113 0.674418568611145
-0.05426359176635742 0.17283740639686584 -0.9379844665527344
-0.05426359176635742 0.16432344913482666 0.24031007289886475
-0.05426359176635742 0.16369415819644928 0.25581395626068115
-0.05426359176635742 0.17379975318908691 0.27131783962249756
-0.05426359176635742 0.16607283055782318 0.6434108018875122
-0.05426359176635742 0.16433537006378174 0.7209301590919495
-0.05426359176635742 0.16772744059562683 0.7364340424537659
-0.05426359176635742 0.1792549192905426 0.22480618953704834
-0.05426359176635742 0.1861003339290619 0.28682172298431396
-0.05426359176635742 0.18489590287208557 0.6279069185256958
-0.05426359176635742 0.17986108362674713 0.751937985420227
-0.05426359176635742 0.18066519498825073 0.7674419283866882
-0.05426359176635742 0.181311696767807 0.7829457521438599
-0.05426359176635742 0.18268002569675446 0.7984496355056763
-0.05426359176635742 0.18363797664642334 0.8139535188674927
-0.05426359176635742 0.1834481954574585 0.8294574022293091
-0.05426359176635742 0.18313121795654297 0.8449612855911255
-0.05426359176635742 0.18329665064811707 0.8604651689529419
-0.05426359176635742 0.18287791311740875 0.8759689331054688
-0.05426359176635742 0.18397343158721924 0.8914728164672852
-0.05426359176635742 0.18387310206890106 0.9069766998291016
-0.05426359176635742 0.18336741626262665 0.922480583190918
-0.05426359176635742 0.1819613128900528 0.9379844665527344
-0.05426359176635742 0.18121939897537231 0.9534883499145508
-0.05426358804106712 0.1828354001045227 0.9689922332763672
-0.05426359176635742 0.1917024552822113 0.9844961166381836
-0.05426359176635742 0.20201797783374786 -0.9224806427955627
-0.05426359549164772 0.19865795969963074 0.20930230617523193
-0.05426359176635742 0.19751285016536713 0.30232560634613037
-0.05426359176635742 0.20785176753997803 0.3178294897079468
-0.05426359176635742 0.20209823548793793 0.612403154373169
-0.05426359176635742 0.22341495752334595 -0.9069768190383911
-0.05426359176635742 0.21707835793495178 0.19379842281341553
-0.05426359176635742 0.21867769956588745 0.3333333730697632
-0.05426359176635742 0.21532025933265686 0.5968992710113525
-0.05426359176635742 0.2336275279521942 -0.30232560634613037
-0.05426359176635742 0.2283436506986618 -0.28682172298431396
-0.05426359176635742 0.23288725316524506 -0.27131783962249756
-0.05426359176635742 0.23514685034751892 0.17829453945159912
-0.05426359176635742 0.22753311693668365 0.3488372564315796
-0.05426359176635742 0.2356070876121521 0.364341139793396
-0.05426359176635742 0.23625802993774414 0.5658915042877197
-0.05426359176635742 0.2266913652420044 0.5813953876495361
-0.05426359176635742 0.23961208760738373 0.6899224519729614
-0.05426359176635742 0.24820157885551453 -0.8914728760719299
-0.05426359176635742 0.24704191088676453 -0.317829430103302
-0.05426358804106712 0.24238848686218262 -0.25581395626068115
-0.05426359176635742 0.2521350383758545 -0.24031007289886475
-0.05426359176635742 0.25361448526382446 0.16279065608978271
-0.05426359176635742 0.24356171488761902 0.37984490394592285
-0.05426359176635742 0.25035059452056885 0.39534878730773926
-0.05426359176635742 0.2543985843658447 0.41085267066955566
-0.05426359176635742 0.2548203468322754 0.5193798542022705
-0.05426359176635742 0.2503955364227295 0.5348837375640869
-0.05426359176635742 0.24398910999298096 0.5503876209259033
-0.05426359176635742 0.26869821548461914 -0.8759689927101135
-0.05426359176635742 0.26494550704956055 -0.3333333134651184
-0.05426359176635742 0.26114416122436523 -0.22480618953704834
-0.05426359176635742 0.2686271071434021 -0.20930230617523193
-0.05426359176635742 0.2702869176864624 0.1472867727279663
-0.05426359176635742 0.25803065299987793 0.42635655403137207
-0.05426359176635742 0.2606654167175293 0.4418604373931885
-0.05426359176635742 0.26177453994750977 0.45736435055732727
-0.05426359176635742 0.2615393400192261 0.4728682041168213
-0.05426359176635742 0.25957220792770386 0.4883720874786377
-0.05426359176635742 0.2572559714317322 0.5038759708404541
-0.05426359176635742 0.2569669783115387 0.7054263353347778
-0.05426359176635742 0.28174570202827454 -0.3488371968269348
-0.05426359176635742 0.2764894366264343 -0.19379842281341553
-0.05426359176635742 0.28424757719039917 -0.1782945990562439
-0.05426359176635742 0.28218263387680054 0.1317828893661499
-0.05426358804106712 0.28829455375671387 -0.8604651093482971
-0.05426359176635742 0.2976817190647125 -0.3643410801887512
-0.05426359176635742 0.2918362617492676 -0.1627907156944275
-0.05426359176635742 0.3010641932487488 -0.14728683233261108
-0.05426359176635742 0.30191659927368164 0.10077524185180664
-0.05426359176635742 0.2929210662841797 0.11627912521362305
-0.05426359176635742 0.30737048387527466 -0.8449611663818359
-0.05426359176635742 0.31345129013061523 -0.3798449635505676
-0.05426359176635742 0.3087409734725952 -0.13178294897079468
-0.05426359176635742 0.3163290023803711 -0.11627906560897827
-0.05426359176635742 0.31403496861457825 0.06976747512817383
-0.05426359176635742 0.3087398409843445 0.08527135848999023
-0.05426359176635742 0.3239479660987854 -0.8294572830200195
-0.05426359176635742 0.32904016971588135 -0.39534884691238403
-0.05426359176635742 0.3213447630405426 -0.10077518224716187
-0.05426359176635742 0.3256135582923889 -0.08527129888534546
-0.05426359176635742 0.3273874819278717 -0.06976741552352905
-0.05426359176635742 0.3275967538356781 -0.05426359176635742
-0.05426359176635742 0.32733994722366333 -0.038759708404541016
-0.05426359176635742 0.32645419239997864 -0.02325582504272461
-0.05426359176635742 0.3255648910999298 -0.007751941680908203
-0.05426359176635742 0.32448387145996094 0.007751941680908203
-0.05426359176635742 0.3231087327003479 0.02325582504272461
-0.05426359176635742 0.32093751430511475 0.038759708404541016
-0.05426358804106712 0.31816408038139343 0.05426358804106712
-0.05426359549164772 0.338439404964447 -0.8139535784721375
-0.05426359176635742 0.3425612449645996 -0.41085273027420044
-0.05426359176635742 0.35058414936065674 -0.7984496355056763
-0.05426359176635742 0.36230209469795227 -0.7829457521438599
-0.05426359176635742 0.35470980405807495 -0.42635661363601685
-0.05426359176635742 0.3737454414367676 -0.7674418687820435
-0.05426359176635742 0.37599846720695496 -0.4573643207550049
-0.05426359176635742 0.36613166332244873 -0.4418604373931885
-0.05426358804106712 0.3817283809185028 -0.751937985420227
-0.05426359176635742 0.39113980531692505 -0.7364341020584106
-0.05426359176635742 0.3940836191177368 -0.4883720874786377
-0.05426359176635742 0.38540709018707275 -0.4728682041168213
-0.05426359176635742 0.39866960048675537 -0.7209302186965942
-0.05426359176635742 0.4064362645149231 -0.7054263353347778
-0.05426359176635742 0.4099899232387543 -0.5193798542022705
-0.05426359176635742 0.402412086725235 -0.5038759708404541
-0.05426359176635742 0.4127911627292633 -0.6899224519729614
-0.05426359176635742 0.4192200303077698 -0.674418568611145
-0.05426359176635742 0.4218458831310272 -0.6589146852493286
-0.05426359176635742 0.42469528317451477 -0.643410861492157
-0.05426359176635742 0.4263463020324707 -0.6279069781303406
-0.05426359176635742 0.42488449811935425 -0.5658915042877197
-0.05426359176635742 0.42157310247421265 -0.5503876209259033
-0.05426359176635742 0.41691339015960693 -0.5348837375640869
-0.05426358804106712 0.4272017776966095 -0.6124030351638794
-0.05426359176635742 0.42723986506462097 -0.5968992114067078
-0.05426359176635742 0.4266073405742645 -0.5813953876495361
-0.038759708404541016 -0.38152527809143066 -0.6589146852493286
-0.038759708404541016 -0.38388609886169434 -0.643410861492157
-0.038759708404541016 -0.38510823249816895 -0.6279069781303406
-0.038759708404541016 -0.3849625587463379 -0.6124030947685242
-0.038759708404541016 -0.3830143213272095 -0.5968992114067078
-0.038759708404541016 -0.380109578371048 -0.5813953876495361
-0.038759708404541016 -0.3678722083568573 -0.7054263353347778
-0.038759708404541016 -0.3741655945777893 -0.6899224519729614
-0.038759708404541016 -0.37820112705230713 -0.674418568611145
-0.038759708404541016 -0.37579959630966187 -0.5658915042877197
-0.038759708404541016 -0.3704012632369995 -0.5503876209259033
-0.038759708404541016 -0.35368216037750244 -0.7364341020584106
-0.038759708404541016 -0.3609623610973358 -0.7209302186965942
-0.038759708404541016 -0.3634340763092041 -0.5348837375640869
-0.038759708404541016 -0.3562932014465332 -0.5193798542022705
-0.038759708404541016 -0.3342757225036621 -0.7674418687820435
-0.038759708404541016 -0.34491315484046936 -0.751937985420227
-0.03875970467925072 -0.348233699798584 -0.5038759708404541
-0.038759708404541016 -0.3405107855796814 -0.4883720874786377
-0.038759708404541016 -0.32319167256355286 -0.7829457521438599
-0.038759708404541016 -0.3324156403541565 -0.4728682041168213
-0.038759708404541016 -0.32464367151260376 -0.4573643207550049
-0.038759708404541016 -0.3184511959552765 -0.06976741552352905
-0.038759708404541016 -0.31927815079689026 -0.05426359176635742
-0.038759708404541016 -0.3193923532962799 -0.038759708404541016
-0.038759708404541016 -0.3192283511161804 -0.02325582504272461
-0.038759708404541016 -0.31918254494667053 -0.007751941680908203
-0.038759708404541016 -0.3190927803516388 0.007751941680908203
-0.038759708404541016 -0.31880220770835876 0.02325582504272461
-0.038759708404541016 -0.31823843717575073 0.038759708404541016
-0.038759708404541016 -0.3111744821071625 -0.7984496355056763
-0.038759708404541016 -0.31554320454597473 -0.4418604373931885
-0.038759708404541016 -0.3082442879676819 -0.42635661363601685
-0.038759708404541016 -0.3029380142688751 -0.13178294897079468
-0.038759708404541016 -0.3090575933456421 -0.11627906560897827
-0.038759708404541016 -0.3133155107498169 -0.10077518224716187
-0.038759708404541016 -0.3167499601840973 -0.08527129888534546
-0.038759708404541016 -0.3164141774177551 0.05426359549164772
-0.038759708404541016 -0.3120580315589905 0.06976747512817383
-0.038759708404541016 -0.30661144852638245 0.08527135848999023
-0.038759708404541016 -0.2976142466068268 -0.8139535188674927
-0.038759708404541016 -0.2988044023513794 -0.41085273027420044
-0.038759708404541016 -0.2919177711009979 -0.39534884691238403
-0.038759708404541016 -0.2909811735153198 -0.1627907156944275
-0.038759708404541016 -0.2973070740699768 -0.14728683233261108
-0.038759708404541016 -0.3006516396999359 0.10077524185180664
-0.038759708404541016 -0.28978821635246277 0.11627912521362305
-0.038759708404541016 -0.28346946835517883 -0.8294574022293091
-0.038759708404541016 -0.28307586908340454 -0.3798449635505676
-0.038759708404541016 -0.2744971513748169 -0.3643410801887512
-0.038759708404541016 -0.2768334448337555 -0.19379842281341553
-0.038759708404541016 -0.2840777635574341 -0.1782945990562439
-0.038759708404541016 -0.2773658037185669 0.1317828893661499
-0.038759708404541016 -0.26855528354644775 -0.8449612259864807
-0.038759708404541016 -0.2631291151046753 -0.3488371968269348
-0.038759708404541016 -0.2606108784675598 -0.22480618953704834
-0.038759708404541016 -0.2694220542907715 -0.20930230617523193
-0.038759708404541016 -0.26418375968933105 0.1472867727279663
-0.038759708404541016 -0.2603948712348938 0.37984490394592285
-0.038759708404541016 -0.26205986738204956 0.39534878730773926
-0.038759708404541016 -0.25872746109962463 0.41085267066955566
-0.038759708404541016 -0.2562769949436188 0.4418604373931885
-0.038759708404541016 -0.25671157240867615 0.4573643207550049
-0.038759708404541016 -0.2558761537075043 0.4728682041168213
-0.038759708404541016 -0.25273019075393677 -0.8604651093482971
-0.038759708404541016 -0.24991875886917114 -0.3333333134651184
-0.038759708404541016 -0.24381256103515625 -0.25581395626068115
-0.038759708404541016 -0.2525029480457306 -0.24031007289886475
-0.038759708404541016 -0.25146302580833435 0.16279065608978271
-0.038759708404541016 -0.2500315308570862 0.364341139793396
-0.038759708404541016 -0.25510022044181824 0.42635658383369446
-0.038759708404541016 -0.2519194185733795 0.4883720874786377
-0.038759708404541016 -0.24678245186805725 0.5038759708404541
-0.038759708404541016 -0.23529085516929626 -0.8759690523147583
-0.038759708404541016 -0.23632824420928955 -0.317829430103302
-0.038759708404541016 -0.22843557596206665 -0.30232560634613037
-0.038759708404541016 -0.22992616891860962 -0.28682172298431396
-0.038759708404541016 -0.23774157464504242 -0.27131783962249756
-0.038759708404541016 -0.23904559016227722 0.17829453945159912
-0.038759708404541016 -0.22495904564857483 0.19379842281341553
-0.038759708404541016 -0.23001670837402344 0.3488372564315796
-0.038759708404541016 -0.2400178462266922 0.5193798542022705
-0.038759708404541016 -0.23209871351718903 0.5348837375640869
-0.038759708404541016 -0.21663987636566162 -0.8914728760719299
-0.038759708404541016 -0.21118836104869843 0.3178294897079468
-0.038759708404541016 -0.2198224812746048 0.3333333730697632
-0.038759708404541016 -0.2239522933959961 0.5503876209259033
-0.038759708404541016 -0.2145620882511139 0.5658915042877197
-0.038759708404541016 -0.20961639285087585 0.7054263353347778
-0.038759708404541016 -0.19414162635803223 -0.9069767594337463
-0.038759708404541016 -0.20554965734481812 0.20930230617523193
-0.038759708404541016 -0.19827190041542053 0.30232560634613037
-0.038759708404541016 -0.20427101850509644 0.5813953876495361
-0.038759708404541016 -0.19556298851966858 0.5968992710113525
-0.038759708404541016 -0.19985727965831757 0.6899224519729614
-0.038759708404541016 -0.18093529343605042 0.22480618953704834
-0.038759708404541016 -0.1849050521850586 0.28682172298431396
-0.038759708404541016 -0.18771019577980042 0.612403154373169
-0.038759708404541016 -0.1784103661775589 0.6279069185256958
-0.038759708404541016 -0.1714581549167633 -0.9224806427955627
-0.038759708404541016 -0.16357511281967163 0.24031007289886475
-0.038759708404541016 -0.16280817985534668 0.25581395626068115
-0.038759708404541016 -0.1715964376926422 0.27131783962249756
-0.038759708404541016 -0.1647801697254181 0.6434108018875122
-0.038759708404541016 -0.1552257537841797 0.6589146852493286
-0.038759708404541016 -0.14944487810134888 0.674418568611145
-0.038759708404541016 -0.15367648005485535 0.7209302186965942
-0.038759708404541016 -0.14778220653533936 0.7364341020584106
-0.038759708404541016 -0.1517321616411209 0.751937985420227
-0.038759708404541016 -0.15063709020614624 0.7674418687820435
-0.038759708404541016 -0.14879927039146423 0.7829457521438599
-0.038759708404541016 -0.147389754652977 0.7984496355056763
-0.038759708404541016 -0.1516689658164978 0.9844961166381836
-0.038759708404541016 -0.14262185990810394 -0.9379844665527344
-0.038759708404541016 -0.14685772359371185 0.8139535188674927
-0.038759712129831314 -0.1463312953710556 0.8294574022293091
-0.038759708404541016 -0.1457841396331787 0.8449612855911255
-0.038759708404541016 -0.14544352889060974 0.8604651689529419
-0.038759708404541016 -0.14481450617313385 0.8759689331054688
-0.038759708404541016 -0.14549897611141205 0.8914728760719299
-0.038759708404541016 -0.1446947455406189 0.9069766998291016
-0.038759708404541016 -0.1433826982975006 0.922480583190918
-0.038759708404541016 -0.1414628028869629 0.9379844665527344
-0.038759708404541016 -0.13996350765228271 0.9534883499145508
-0.038759708404541016 -0.1406548172235489 0.9689922332763672
-0.038759708404541016 -0.10855160653591156 -0.9534883499145508
-0.038759708404541016 -0.06813114881515503 -0.9689922332763672
-0.038759708404541016 -0.0028912185225635767 -0.9844960570335388
-0.038759708404541016 0.015953192487359047 -0.9844961166381836
-0.038759708404541016 0.09565092623233795 -0.9689922332763672
-0.038759708404541016 0.14256806671619415 -0.9534883499145508
-0.038759708404541016 0.17751573026180267 -0.9379844665527344
-0.038759708404541016 0.17120006680488586 0.24031007289886475
-0.038759708404541016 0.17064052820205688 0.25581395626068115
-0.038759708404541016 0.1760176420211792 0.6434108018875122
-0.038759708404541016 0.16810059547424316 0.6589146852493286
-0.038759708404541016 0.16968020796775818 0.674418568611145
-0.038759708404541016 0.17636460065841675 0.7209302186965942
-0.038759708404541016 0.1857500821352005 0.22480618953704834
-0.038759708404541016 0.17996998131275177 0.27131783962249756
-0.038759708404541016 0.1920313835144043 0.28682172298431396
-0.038759708404541016 0.19318018853664398 0.6279069185256958
-0.03875970467925072 0.17946699261665344 0.7364341020584106
-0.038759708404541016 0.18824616074562073 0.751937985420227
-0.038759708404541016 0.19076263904571533 0.7674418687820435
-0.038759708404541016 0.19191594421863556 0.7829457521438599
-0.038759708404541016 0.19312481582164764 0.7984496355056763
-0.038759708404541016 0.19327376782894135 0.8294574022293091
-0.038759708404541016 0.19265389442443848 0.8449612855911255
-0.038759708404541016 0.19280947744846344 0.8604651689529419
-0.038759708404541016 0.19229409098625183 0.8759689331054688
-0.038759708404541016 0.19359080493450165 0.9069766998291016
-0.038759708404541016 0.19258154928684235 0.922480583190918
-0.038759708404541016 0.19074484705924988 0.9379844665527344
-0.038759708404541016 0.18991219997406006 0.9534883499145508
-0.038759708404541016 0.19339196383953094 0.9689922332763672
-0.038759708404541016 0.20635779201984406 -0.9224806427955627
-0.038759708404541016 0.20511552691459656 0.20930230617523193
-0.038759708404541016 0.2034924477338791 0.30232560634613037
-0.038759708404541016 0.1938248723745346 0.8139535188674927
-0.038759708404541016 0.19384746253490448 0.8914728164672852
-0.038759708404541016 0.20146912336349487 0.9844961166381836
-0.038759708404541016 0.22354786098003387 0.19379842281341553
-0.038759708404541016 0.21424439549446106 0.3178294897079468
-0.038759708404541016 0.22344283759593964 0.3333333730697632
-0.038759708404541016 0.22129234671592712 0.5968992710113525
-0.038759708404541016 0.209518700838089 0.612403154373169
-0.038759708404541016 0.23111321032047272 -0.9069766998291016
-0.038759708404541016 0.23860985040664673 -0.30232560634613037
-0.038759708404541016 0.23352107405662537 -0.28682172298431396
-0.038759708404541016 0.2390259951353073 -0.27131783962249756
-0.038759708404541016 0.23249027132987976 0.3488372564315796
-0.038759708404541016 0.23948775231838226 0.364341139793396
-0.038759708404541016 0.2315017729997635 0.5813953876495361
-0.038759708404541016 0.2372797727584839 0.6899224519729614
-0.038759708404541016 0.2527278661727905 -0.8914728760719299
-0.038759708404541016 0.25108325481414795 -0.317829430103302
-0.038759708404541016 0.2475588023662567 -0.25581395626068115
-0.038759708404541016 0.241550475358963 0.17829453945159912
-0.038759708404541016 0.2477499395608902 0.37984490394592285
-0.038759708404541016 0.25339895486831665 0.39534878730773926
-0.038759708404541016 0.2531801164150238 0.5348837375640869
-0.038759708404541016 0.2479231357574463 0.5503876209259033
-0.038759712129831314 0.24096596240997314 0.5658915638923645
-0.038759708404541016 0.2688080966472626 -0.3333333134651184
-0.038759708404541016 0.25630295276641846 -0.24031007289886475
-0.038759708404541016 0.26528680324554443 -0.22480618953704834
-0.038759708404541016 0.2589939534664154 0.16279065608978271
-0.038759708404541016 0.2583712935447693 0.4108526408672333
-0.038759708404541016 0.2624444365501404 0.42635655403137207
-0.038759708404541016 0.26412805914878845 0.4418604373931885
-0.038759708404541016 0.2646763026714325 0.4573643207550049
-0.038759708404541016 0.2644788920879364 0.4728682041168213
-0.038759708404541016 0.26300275325775146 0.4883720874786377
-0.038759708404541016 0.2602348029613495 0.5038759708404541
-0.038759708404541016 0.25699782371520996 0.5193798542022705
-0.038759708404541016 0.2591592073440552 0.7054263353347778
-0.03875970467925072 0.2732669711112976 -0.8759689927101135
-0.038759708404541016 0.28589773178100586 -0.3488371968269348
-0.038759708404541016 0.2720958888530731 -0.20930230617523193
-0.038759708404541016 0.2801916003227234 -0.19379842281341553
-0.038759708404541016 0.2744138538837433 0.1472867727279663
-0.038759708404541016 0.2951783537864685 -0.8604651093482971
-0.038759708404541016 0.3020998537540436 -0.3643410801887512
-0.038759708404541016 0.2871018946170807 -0.1782945990562439
-0.038759708404541016 0.2952314019203186 -0.1627907156944275
-0.038759708404541016 0.29644063115119934 0.11627912521362305
-0.038759708404541016 0.2872096002101898 0.1317828893661499
-0.038759708404541016 0.31287628412246704 -0.8449612259864807
-0.038759708404541016 0.3178066909313202 -0.3798449635505676
-0.038759708404541016 0.30352583527565 -0.14728683233261108
-0.038759708404541016 0.31213927268981934 -0.13178294897079468
-0.038759708404541016 0.31191885471343994 0.08527135848999023
-0.038759708404541016 0.3053295910358429 0.10077524185180664
-0.038759708404541016 0.32884180545806885 -0.8294572830200195
-0.038759708404541016 0.33311960101127625 -0.39534884691238403
-0.038759712129831314 0.31883344054222107 -0.11627907305955887
-0.038759708404541016 0.32522961497306824 -0.10077518224716187
-0.038759708404541016 0.3289389908313751 -0.08527129888534546
-0.038759708404541016 0.3306257128715515 -0.06976741552352905
-0.038759708404541016 0.3309025168418884 -0.05426359176635742
-0.038759708404541016 0.33081555366516113 -0.038759708404541016
-0.038759708404541016 0.33019232749938965 -0.02325582504272461
-0.038759708404541016 0.32944536209106445 -0.007751941680908203
-0.038759708404541016 0.3282475471496582 0.007751941680908203
-0.038759708404541016 0.32674041390419006 0.02325582504272461
-0.038759708404541016 0.32488030195236206 0.038759708404541016
-0.038759708404541016 0.32195258140563965 0.05426359176635742
-0.038759708404541016 0.3178423345088959 0.06976747512817383
-0.038759708404541016 0.34346044063568115 -0.8139535188674927
-0.038759708404541016 0.3458068072795868 -0.41085273027420044
-0.038759708404541016 0.355629563331604 -0.7984496355056763
-0.038759708404541016 0.35761213302612305 -0.42635661363601685
-0.038759708404541016 0.36574697494506836 -0.7829457521438599
-0.038759708404541016 0.3763728439807892 -0.7674418687820435
-0.038759708404541016 0.3788803517818451 -0.4573643207550049
-0.038759708404541016 0.368463397026062 -0.4418604075908661
-0.038759708404541016 0.3860326409339905 -0.751937985420227
-0.038759708404541016 0.3933875560760498 -0.7364341020584106
-0.038759708404541016 0.38825511932373047 -0.4728682041168213
-0.038759708404541016 0.4030545651912689 -0.7209302186965942
-0.038759708404541016 0.4098617136478424 -0.7054263353347778
-0.038759708404541016 0.4059920012950897 -0.5038759708404541
-0.038759708404541016 0.39717715978622437 -0.4883720874786377
-0.038759708404541016 0.41727811098098755 -0.6899224519729614
-0.038759708404541016 0.4215312600135803 -0.674418568611145
-0.038759708404541016 0.4249116778373718 -0.6589146852493286
-0.038759708404541016 0.4247310757637024 -0.5503876209259033
-0.038759708404541016 0.4200279116630554 -0.5348837375640869
-0.038759708404541016 0.4136461615562439 -0.5193798542022705
-0.038759708404541016 0.42734265327453613 -0.643410861492157
-0.038759708404541016 0.4291338324546814 -0.6279069781303406
-0.038759708404541016 0.43076711893081665 -0.612403154373169
-0.038759708404541016 0.4310046434402466 -0.5968992114067078
-0.038759708404541016 0.4301617741584778 -0.5813953876495361
-0.038759708404541016 0.4278140962123871 -0.5658915042877197
-0.02325582504272461 -0.3802805542945862 -0.674418568611145
-0.02325582504272461 -0.38346242904663086 -0.6589146852493286
-0.02325582504272461 -0.3863316774368286 -0.643410861492157
-0.02325582504272461 -0.3874739408493042 -0.6279069781303406
-0.02325582504272461 -0.38728195428848267 -0.6124030947685242
-0.02325582504272461 -0.385517418384552 -0.5968992114067078
-0.02325582504272461 -0.38210421800613403 -0.5813953876495361
-0.02325582504272461 -0.3701648712158203 -0.7054263353347778
-0.02325582504272461 -0.37544870376586914 -0.6899224519729614
-0.02325582504272461 -0.3776783347129822 -0.5658915042877197
-0.02325582504272461 -0.3721312880516052 -0.5503876209259033
-0.02325582504272461 -0.36562320590019226 -0.5348837375640869
-0.02325582504272461 -0.3562914729118347 -0.7364341020584106
-0.02325582504272461 -0.3632311522960663 -0.7209302186965942
-0.02325582504272461 -0.35829970240592957 -0.5193798542022705
-0.02325582504272461 -0.3504948318004608 -0.5038759708404541
-0.02325582504272461 -0.3369467258453369 -0.7674418687820435
-0.02325582504272461 -0.3471088707447052 -0.751937985420227
-0.02325582504272461 -0.34236860275268555 -0.4883720874786377
-0.02325582504272461 -0.3349509835243225 -0.4728682041168213
-0.02325582504272461 -0.32631468772888184 -0.7829457521438599
-0.02325582504272461 -0.3266080319881439 -0.4573643207550049
-0.02325582504272461 -0.3186485171318054 -0.4418604373931885
-0.02325582504272461 -0.3185095489025116 -0.08527129888534546
-0.02325582504272461 -0.32077017426490784 -0.06976741552352905
-0.02325582504272461 -0.32215258479118347 -0.05426359176635742
-0.02325582504272461 -0.3223864734172821 -0.038759708404541016
-0.02325582504272461 -0.3221115171909332 -0.02325582504272461
-0.02325582504272461 -0.3218100368976593 -0.007751941680908203
-0.02325582504272461 -0.32145702838897705 0.007751941680908203
-0.02325582504272461 -0.3211233913898468 0.02325582504272461
-0.02325582504272461 -0.32024523615837097 0.038759708404541016
-0.02325582504272461 -0.31860560178756714 0.05426359176635742
-0.02325582504272461 -0.3138596713542938 -0.7984496355056763
-0.02325582504272461 -0.31032201647758484 -0.42635661363601685
-0.02325582504272461 -0.304652601480484 -0.13178294897079468
-0.02325582504272461 -0.3110067546367645 -0.11627906560897827
-0.02325582504272461 -0.31523916125297546 -0.10077518224716187
-0.02325582504272461 -0.3152289092540741 0.06976747512817383
-0.02325582504272461 -0.3089408278465271 0.08527135848999023
-0.02325582504272461 -0.3030626177787781 0.10077524185180664
-0.02325582504272461 -0.29986488819122314 -0.8139535188674927
-0.02325582318007946 -0.30156272649765015 -0.41085273027420044
-0.02325582504272461 -0.29409074783325195 -0.39534884691238403
-0.02325582504272461 -0.2935096025466919 -0.1627907156944275
-0.02325582504272461 -0.29923245310783386 -0.14728683233261108
-0.02325582504272461 -0.2922372817993164 0.11627912521362305
-0.02325582504272461 -0.28562596440315247 -0.8294573426246643
-0.02325582504272461 -0.28539732098579407 -0.3798449635505676
-0.02325582504272461 -0.27643030881881714 -0.3643410801887512
-0.02325582504272461 -0.2718003988265991 -0.20930230617523193
-0.02325582504272461 -0.2788202464580536 -0.19379842281341553
-0.02325582504272461 -0.2865927517414093 -0.1782946139574051
-0.02325582504272461 -0.2806510031223297 0.1317828893661499
-0.02325582504272461 -0.2707561254501343 -0.8449611663818359
-0.02325582504272461 -0.2649537920951843 -0.3488371968269348
-0.02325582504272461 -0.2627435326576233 -0.22480618953704834
-0.02325582504272461 -0.26834261417388916 0.1472867727279663
-0.02325582504272461 -0.2558601200580597 0.16279065608978271
-0.02325582504272461 -0.2582300305366516 0.364341139793396
-0.02325582504272461 -0.26507753133773804 0.37984490394592285
-0.02325582504272461 -0.2674438953399658 0.39534878730773926
-0.02325582504272461 -0.2637045979499817 0.41085267066955566
-0.02325582504272461 -0.2580641210079193 0.42635655403137207
-0.02325582504272461 -0.25780048966407776 0.4418604373931885
-0.02325582504272461 -0.25837594270706177 0.4573643207550049
-0.02325582504272461 -0.2573125660419464 0.4728682041168213
-0.02325582504272461 -0.25493481755256653 -0.8604651093482971
-0.02325582504272461 -0.2518487572669983 -0.3333333134651184
-0.02325582504272461 -0.24074995517730713 -0.27131783962249756
-0.02325582504272461 -0.24594955146312714 -0.25581395626068115
-0.02325582504272461 -0.2554527521133423 -0.24031007289886475
-0.02325582504272461 -0.24248477816581726 0.17829453945159912
-0.02325582504272461 -0.25461140275001526 0.4883720874786377
-0.02325582504272461 -0.24896973371505737 0.5038759708404541
-0.02325582504272461 -0.24189810454845428 0.5193798542022705
-0.02325582504272461 -0.23806320130825043 -0.8759690523147583
-0.02325582504272461 -0.23873178660869598 -0.317829430103302
-0.02325582504272461 -0.23089702427387238 -0.30232560634613037
-0.02325582504272461 -0.23270195722579956 -0.28682172298431396
-0.02325582504272461 -0.22919166088104248 0.19379842281341553
-0.02325582504272461 -0.22503849864006042 0.3333333730697632
-0.02325582504272461 -0.23891471326351166 0.3488372564315796
-0.02325582504272461 -0.2349071204662323 0.5348837375640869
-0.02325582504272461 -0.22754710912704468 0.5503876209259033
-0.02325582504272461 -0.22006192803382874 -0.8914729356765747
-0.02325582504272461 -0.21187299489974976 0.20930230617523193
-0.02325582504272461 -0.21418946981430054 0.3178294897079468
-0.02325582504272461 -0.21971814334392548 0.5658915042877197
-0.02325582504272461 -0.20996810495853424 0.6899224519729614
-0.02325582504272461 -0.21119719743728638 0.7054263353347778
-0.02325582504272461 -0.19914111495018005 -0.9069767594337463
-0.02325582504272461 -0.2021140158176422 0.30232560634613037
-0.02325582504272461 -0.20923009514808655 0.5813953876495361
-0.02325582504272461 -0.19993877410888672 0.5968992710113525
-0.02325582504272461 -0.18726947903633118 0.22480618953704834
-0.02325582504272461 -0.1887853741645813 0.28682172298431396
-0.02325582504272461 -0.19169208407402039 0.612403154373169
-0.02325582504272461 -0.18233226239681244 0.6279069185256958
-0.02325582504272461 -0.17519187927246094 -0.922480583190918
-0.02325582504272461 -0.1678767055273056 0.24031007289886475
-0.02325582504272461 -0.1654033213853836 0.25581395626068115
-0.02325582504272461 -0.1752912551164627 0.27131783962249756
-0.02325582504272461 -0.1705847978591919 0.6434108018875122
-0.02325582504272461 -0.16302905976772308 0.6589146852493286
-0.02325582504272461 -0.15708288550376892 0.674418568611145
-0.02325582318007946 -0.1590276062488556 0.7209302186965942
-0.02325582504272461 -0.15146519243717194 0.7364341020584106
-0.02325582504272461 -0.1568540781736374 0.751937985420227
-0.02325582504272461 -0.15584126114845276 0.7674418687820435
-0.02325582504272461 -0.15407782793045044 0.7829457521438599
-0.02325582504272461 -0.15299780666828156 0.7984496355056763
-0.02325582504272461 -0.15290407836437225 0.8139535188674927
-0.02325582504272461 -0.15264111757278442 0.8294574022293091
-0.02325582504272461 -0.15233099460601807 0.8449612855911255
-0.02325582504272461 -0.1521502584218979 0.8604651689529419
-0.02325582504272461 -0.1513267159461975 0.8759689331054688
-0.02325582504272461 -0.15185318887233734 0.8914728164672852
-0.02325582504272461 -0.15028607845306396 0.9069766998291016
-0.02325582504272461 -0.1483800858259201 0.922480583190918
-0.02325582504272461 -0.15547189116477966 0.9844961166381836
-0.02325582504272461 -0.14608100056648254 -0.9379844665527344
-0.02325582504272461 -0.14624077081680298 0.9379844665527344
-0.02325582504272461 -0.14468155801296234 0.953488290309906
-0.02325582504272461 -0.14686252176761627 0.9689922332763672
-0.02325582504272461 -0.11428865790367126 -0.953488290309906
-0.02325582504272461 -0.07717207819223404 -0.9689922332763672
-0.02325582504272461 -0.029026398435235023 -0.9844961166381836
-0.02325582504272461 0.046557918190956116 -0.9844961166381836
-0.02325582504272461 0.10580691695213318 -0.9689921736717224
-0.02325582504272461 0.14799277484416962 -0.9534883499145508
-0.02325582504272461 0.17661601305007935 0.24031007289886475
-0.02325582504272461 0.1750524342060089 0.25581395626068115
-0.02325582504272461 0.17653587460517883 0.6589146852493286
-0.02325582504272461 0.17633876204490662 0.674418568611145
-0.02325582504272461 0.18592818081378937 -0.9379844665527344
-0.02325582504272461 0.19125670194625854 0.22480618953704834
-0.02325582504272461 0.18381190299987793 0.27131783962249756
-0.02325582504272461 0.18200509250164032 0.6434108018875122
-0.02325582504272461 0.18525175750255585 0.7209302186965942
-0.02325582504272461 0.18766306340694427 0.7364341020584106
-0.02325582504272461 0.20901663601398468 -0.9224806427955627
-0.02325582318007946 0.1955122947692871 0.28682172298431396
-0.02325582504272461 0.20681102573871613 0.30232560634613037
-0.02325582504272461 0.1967141181230545 0.6279069185256958
-0.02325582504272461 0.19655370712280273 0.751937985420227
-0.02325582504272461 0.19722434878349304 0.7674418687820435
-0.02325582504272461 0.19772125780582428 0.7829457521438599
-0.02325582504272461 0.19862142205238342 0.7984496355056763
-0.02325582504272461 0.19920112192630768 0.8139535188674927
-0.02325582504272461 0.19878840446472168 0.8294574022293091
-0.02325582504272461 0.1984345018863678 0.8449612855911255
-0.02325582504272461 0.19868247210979462 0.8604651689529419
-0.02325582504272461 0.19843244552612305 0.8759689331054688
-0.02325582504272461 0.19925542175769806 0.8914728164672852
-0.02325582504272461 0.19912473857402802 0.9069766998291016
-0.02325582504272461 0.19861724972724915 0.922480583190918
-0.02325582504272461 0.1973491907119751 0.9379844665527344
-0.02325582504272461 0.1967131495475769 0.9534883499145508
-0.02325582504272461 0.1982833743095398 0.9689921736717224
-0.02325582504272461 0.2055237740278244 0.9844961166381836
-0.02325582504272461 0.20985877513885498 0.20930232107639313
-0.02325582504272461 0.2177821546792984 0.3178294897079468
-0.02325582504272461 0.21243685483932495 0.612403154373169
-0.02325582504272461 0.23518556356430054 -0.9069766998291016
-0.02325582504272461 0.23723328113555908 -0.28682172298431396
-0.02325582504272461 0.22745835781097412 0.19379842281341553
-0.02325582504272461 0.2272707223892212 0.3333333730697632
-0.02325582504272461 0.23557233810424805 0.3488372564315796
-0.02325582504272461 0.23430436849594116 0.5813953876495361
-0.02325582504272461 0.2253907471895218 0.5968992710113525
-0.02325582504272461 0.23483379185199738 0.6899224519729614
-0.02325582504272461 0.25505301356315613 -0.8914728760719299
-0.02325582504272461 0.253785640001297 -0.317829430103302
-0.02325582504272461 0.24136871099472046 -0.30232560634613037
-0.02325582690536976 0.24160903692245483 -0.27131783962249756
-0.02325582504272461 0.250633180141449 -0.25581395626068115
-0.02325582318007946 0.2452133595943451 0.17829453945159912
-0.02325582504272461 0.24293753504753113 0.364341139793396
