0.007751941680908203 -0.4050721526145935 -0.41085273027420044
0.007751941680908203 -0.39980295300483704 -0.39534884691238403
0.007751941680908203 -0.3818492293357849 -0.7054263353347778
0.007751941680908203 -0.3904074430465698 -0.6899224519729614
0.007751941680908203 -0.3928644061088562 -0.3798449635505676
0.007751941680908203 -0.3861434757709503 -0.3643410801887512
0.007751941680908203 -0.3732079267501831 -0.7209302186965942
0.007751941680908203 -0.3779527246952057 -0.3488371968269348
0.007751941680908203 -0.3706735670566559 -0.3333333134651184
0.007751941680908203 -0.35350602865219116 -0.751937985420227
0.007751941680908203 -0.363371878862381 -0.7364341616630554
0.00775194214656949 -0.36096206307411194 -0.317829430103302
0.007751941680908203 -0.3501569330692291 -0.30232560634613037
0.007751941215246916 -0.34257063269615173 -0.7674418687820435
0.007751941680908203 -0.33486443758010864 -0.28682172298431396
0.007751941215246916 -0.33051806688308716 -0.7829457521438599
0.007751941680908203 -0.3162665069103241 -0.7984496355056763
0.007751941680908203 -0.3164609968662262 -0.27131783962249756
0.007751941680908203 -0.2995947599411011 -0.8139535188674927
0.007751941680908203 -0.29730844497680664 -0.25581395626068115
0.007751941680908203 -0.2894302010536194 -0.08527129888534546
0.007751941680908203 -0.2936088442802429 -0.06976741552352905
0.007751941680908203 -0.29580235481262207 -0.05426359176635742
0.007751941680908203 -0.29660728573799133 -0.038759708404541016
0.007751941680908203 -0.29707151651382446 -0.02325582504272461
0.007751941680908203 -0.29732760787010193 -0.007751941680908203
0.007751941680908203 -0.29729127883911133 0.007751941680908203
0.007751941680908203 -0.2966271638870239 0.02325582504272461
0.007751941680908203 -0.29567334055900574 0.038759708404541016
0.007751941680908203 -0.29363101720809937 0.05426359176635742
0.007751941680908203 -0.28991997241973877 0.06976747512817383
0.007751941680908203 -0.28685882687568665 0.08527135848999023
0.007751941680908203 -0.2806987762451172 -0.8294573426246643
0.007751941680908203 -0.278033047914505 -0.24031007289886475
0.007751941680908203 -0.2759545147418976 -0.11627906560897827
0.007751941680908203 -0.2842135727405548 -0.10077518224716187
0.007751941680908203 -0.2814626395702362 0.10077524185180664
0.007751941680908203 -0.2751111388206482 0.11627912521362305
0.007751941680908203 -0.2603558897972107 -0.8449612259864807
0.007751941680908203 -0.25927892327308655 -0.22480618953704834
0.007751941215246916 -0.26467156410217285 -0.13178294897079468
0.007751941680908203 -0.26571398973464966 0.1317828893661499
0.007751941680908203 -0.25864389538764954 0.39534878730773926
0.007751941680908203 -0.2616468071937561 0.41085267066955566
0.007751941680908203 -0.2564222812652588 0.42635655403137207
0.007751941680908203 -0.2424807995557785 -0.20930230617523193
0.007751941680908203 -0.2518594264984131 -0.14728683233261108
0.007751941680908203 -0.25045958161354065 0.1472867727279663
0.007751941680908203 -0.244282066822052 0.37984490394592285
0.007751941680908203 -0.2495919167995453 0.4418604075908661
0.007751941680908203 -0.24252860248088837 0.4573643207550049
0.007751941680908203 -0.23909644782543182 -0.8604651093482971
0.007751941680908203 -0.22996366024017334 -0.19379842281341553
0.007751941680908203 -0.2280273288488388 -0.1782945990562439
0.007751941680908203 -0.2386028915643692 -0.1627907156944275
0.007751941680908203 -0.23035134375095367 0.16279065608978271
0.007751941680908203 -0.2274402230978012 0.364341139793396
0.007751941680908203 -0.23258191347122192 0.4728682041168213
0.007751941680908203 -0.22549952566623688 0.4883720874786377
0.007751941680908203 -0.21646612882614136 -0.8759689927101135
0.007751941680908203 -0.210336372256279 0.17829453945159912
0.007751941680908203 -0.21402889490127563 0.3488372564315796
0.007751941680908203 -0.21528023481369019 0.5038759708404541
0.007751941680908203 -0.2244153469800949 0.612403154373169
0.007751941680908203 -0.1955694556236267 0.3178294897079468
0.007751941680908203 -0.20550869405269623 0.3333333730697632
0.007751941680908203 -0.20810772478580475 0.5193798542022705
0.007751941680908203 -0.19916579127311707 0.5348837375640869
0.007751941680908203 -0.20876750349998474 0.6279069185256958
0.007751941680908203 -0.19160865247249603 -0.8914728760719299
0.007751941680908203 -0.19310130178928375 0.19379842281341553
0.007751941680908203 -0.18328434228897095 0.30232560634613037
0.007751941680908203 -0.1914975941181183 0.5503876209259033
0.007751941680908203 -0.18043778836727142 0.5658915042877197
0.007751941680908203 -0.189258873462677 0.5968992710113525
0.007751941680908203 -0.17274045944213867 0.20930230617523193
0.007751941680908203 -0.16385582089424133 0.27131783962249756
0.007751941680908203 -0.17296083271503448 0.28682172298431396
0.007751941680908203 -0.171939879655838 0.5813953876495361
0.007751941680908203 -0.157953143119812 -0.9069768190383911
0.007751941680908203 -0.15135353803634644 0.22480618953704834
0.007751941680908203 -0.15039752423763275 0.25581395626068115
0.007751941680908203 -0.1555832177400589 0.6434108018875122
0.007751941680908203 -0.15446507930755615 0.6589146852493286
0.007751941680908203 -0.16147862374782562 0.674418568611145
0.007751941680908203 -0.16137667000293732 0.6899224519729614
0.007751941680908203 -0.15826666355133057 0.7054263353347778
0.007751941680908203 -0.15516802668571472 0.7209302186965942
0.007751941680908203 -0.1517825424671173 0.7364341020584106
0.007751941680908203 -0.15017518401145935 0.751937985420227
0.007751941680908203 -0.14997415244579315 0.7674418687820435
0.007751941680908203 -0.15045461058616638 0.7829457521438599
0.007751941680908203 -0.1509346216917038 0.7984496355056763
0.007751941680908203 -0.15208874642848969 0.8139535188674927
0.007751941680908203 -0.1526663899421692 0.8294574022293091
0.007751941680908203 -0.15278260409832 0.8449612855911255
0.007751941680908203 -0.1523257941007614 0.8604651689529419
0.007751941680908203 -0.15047141909599304 0.8759689331054688
0.007751941680908203 -0.14930196106433868 0.8914728164672852
0.007751941680908203 -0.1477520912885666 0.9069766998291016
0.007751941680908203 -0.1521124392747879 0.9844961166381836
0.007751941680908203 -0.14219774305820465 0.24031007289886475
0.007751941215246916 -0.1461847573518753 0.922480583190918
0.007751941680908203 -0.14428818225860596 0.9379844665527344
0.007751941680908203 -0.1424519121646881 0.9534883499145508
0.007751941680908203 -0.14437556266784668 0.9689922332763672
0.007751941680908203 -0.11038476973772049 -0.9224806427955627
0.007751941680908203 -0.05172409117221832 -0.9379844665527344
0.007751941680908203 0.0814909115433693 -0.9379844665527344
0.007751941680908203 0.1359001100063324 -0.9224806427955627
0.007751941680908203 0.17484717071056366 -0.9069767594337463
0.007751941680908203 0.1697302907705307 0.22480618953704834
0.007751941680908203 0.16751617193222046 0.24031007289886475
0.007751941680908203 0.184432715177536 0.20930230617523193
0.007751941680908203 0.18053431808948517 0.25581395626068115
0.007751941680908203 0.202334463596344 -0.8914728760719299
0.007751941680908203 0.20242035388946533 0.19379842281341553
0.007751941680908203 0.19667965173721313 0.27131783962249756
0.007751941680908203 0.20609423518180847 0.5813953876495361
0.007751941680908203 0.20013010501861572 0.6434108018875122
0.007751941680908203 0.20294061303138733 0.6589146852493286
0.007751941680908203 0.20657917857170105 0.674418568611145
0.007751941680908203 0.20710301399230957 0.6899224519729614
0.007751941680908203 0.2051781564950943 0.7054263353347778
0.007751941680908203 0.20314745604991913 0.7209302186965942
0.00775194214656949 0.20117002725601196 0.7364341020584106
0.007751941680908203 0.20001879334449768 0.751937985420227
0.007751941680908203 0.20043712854385376 0.7674418687820435
0.007751941680908203 0.2020808756351471 0.7829457521438599
0.007751941680908203 0.20389880239963531 0.7984496355056763
0.007751941680908203 0.2060454785823822 0.8139535188674927
0.007751941680908203 0.20796549320220947 0.8294574022293091
0.007751941680908203 0.2089109718799591 0.8759689331054688
0.007751941680908203 0.20796331763267517 0.8914728164672852
0.007751941680908203 0.2058316469192505 0.9069766998291016
0.007751941680908203 0.20387376844882965 0.922480583190918
0.007751941680908203 0.20148542523384094 0.9379844665527344
0.00775194214656949 0.2002493143081665 0.9534883499145508
0.007751941680908203 0.20732776820659637 0.9689922332763672
0.007751941680908203 0.22226747870445251 -0.8759690523147583
0.007751941680908203 0.21990054845809937 0.17829453945159912
0.007751941680908203 0.21121437847614288 0.28682172298431396
0.007751941680908203 0.2207665741443634 0.30232560634613037
0.007751941680908203 0.21572579443454742 0.5658915042877197
0.007751941680908203 0.21957916021347046 0.6279069185256958
0.007751941680908203 0.2093813419342041 0.8449612855911255
0.007751941680908203 0.20981140434741974 0.8604651689529419
0.00775194214656949 0.21241262555122375 0.9844961166381836
0.007751941680908203 0.2361106127500534 -0.1782945990562439
0.007751941680908203 0.23650571703910828 0.16279065608978271
0.007751941680908203 0.2289329469203949 0.3178294897079468
0.007751941680908203 0.23403355479240417 0.3333333730697632
0.007751941680908203 0.23937508463859558 0.3488372564315796
0.007751941680908203 0.23499175906181335 0.5503876209259033
0.007751941680908203 0.23804597556591034 0.5968992710113525
0.007751941680908203 0.24272897839546204 -0.8604651093482971
0.007751941680908203 0.24401111900806427 -0.19379842281341553
0.007751941680908203 0.24617823958396912 -0.1627907156944275
0.007751941680908203 0.2556098401546478 0.1472867727279663
0.007751941680908203 0.24624189734458923 0.364341139793396
0.007751941680908203 0.2522684931755066 0.37984490394592285
0.007751941680908203 0.2513806223869324 0.5348837375640869
0.007751941680908203 0.26210910081863403 -0.8449612259864807
0.007751941680908203 0.26132404804229736 -0.20930230617523193
0.007751941680908203 0.2613668739795685 -0.14728683233261108
0.007751941215246916 0.25959864258766174 0.39534878730773926
0.007751941680908203 0.2671186327934265 0.41085267066955566
0.007751941680908203 0.2622712254524231 0.5193798542022705
0.007751941680908203 0.2795637249946594 -0.8294573426246643
0.007751941680908203 0.27918052673339844 -0.22480618953704834
0.007751941680908203 0.2741396725177765 -0.13178294897079468
0.007751941680908203 0.28541868925094604 -0.11627906560897827
0.007751941680908203 0.27271485328674316 0.42635655403137207
0.007751941680908203 0.2788098454475403 0.4418604373931885
0.007751941680908203 0.28257933259010315 0.4573643207550049
0.007751941680908203 0.28273269534111023 0.4728682041168213
0.007751941215246916 0.2787550985813141 0.4883720874786377
0.00775194214656949 0.27295202016830444 0.5038759708404541
0.007751941680908203 0.29617324471473694 -0.8139535188674927
0.007751941680908203 0.29637718200683594 -0.24031007289886475
0.007751941680908203 0.2927185297012329 -0.10077518224716187
0.007751941680908203 0.29924237728118896 -0.08527129888534546
0.007751941680908203 0.30047792196273804 0.11627912521362305
0.007751941680908203 0.2872902750968933 0.1317828893661499
0.007751941680908203 0.3119480311870575 -0.7984496355056763
0.007751941680908203 0.312921404838562 -0.25581395626068115
0.007751941680908203 0.3037222921848297 -0.06976741552352905
0.007751941680908203 0.3073164224624634 -0.05426359176635742
0.00775194214656949 0.3098950982093811 -0.038759708404541016
0.007751941680908203 0.3114258348941803 -0.02325582504272461
0.007751941680908203 0.314588338136673 -0.007751941680908203
0.007751941680908203 0.3104288578033447 0.05426359176635742
0.007751941680908203 0.30533379316329956 0.06976747512817383
0.007751941680908203 0.3042569160461426 0.08527135848999023
0.007751941680908203 0.305581271648407 0.10077524185180664
0.007751941680908203 0.30733728408813477 0.5968992710113525
0.007751941680908203 0.327298641204834 -0.7829457521438599
0.007751941680908203 0.32747578620910645 -0.27131783962249756
0.007751941680908203 0.3254711627960205 -0.007751941680908203
0.007751941680908203 0.31866034865379333 0.5968993306159973
0.007751941680908203 0.32046571373939514 0.612403154373169
0.007751941680908203 0.3409569561481476 -0.7674418687820435
0.007751941680908203 0.3417775630950928 -0.28682172298431396
0.00775194214656949 0.33841434121131897 0.05426359549164772
0.007751941680908203 0.35338082909584045 -0.751937985420227
0.007751941680908203 0.36205777525901794 -0.7364341020584106
0.007751941680908203 0.35368508100509644 -0.30232560634613037
0.007751941680908203 0.3629142642021179 -0.007751941680908203
0.007751941680908203 0.35243669152259827 0.05426359176635742
0.007751941680908203 0.3703725337982178 -0.7209302186965942
0.007751941680908203 0.37688034772872925 -0.7054263353347778
0.007751941680908203 0.37211328744888306 -0.3333333134651184
0.00775194214656949 0.36464154720306396 -0.317829430103302
0.007751941680908203 0.3683297634124756 0.007751941680908203
0.007751941680908203 0.3698353171348572 0.02325582504272461
0.007751941680908203 0.36663052439689636 0.038759708404541016
0.007751941680908203 0.3843505084514618 -0.6899224519729614
0.007751941680908203 0.3915197253227234 -0.674418568611145
0.007751941680908203 0.3933442533016205 -0.3798449635505676
0.007751941680908203 0.38701367378234863 -0.3643410801887512
0.00775194214656949 0.38035979866981506 -0.3488372266292572
0.007751941680908203 0.3974529206752777 -0.6589146852493286
0.007751941680908203 0.4049433469772339 -0.643410861492157
0.007751941680908203 0.4092292785644531 -0.6279069781303406
0.007751941680908203 0.40601155161857605 -0.41085273027420044
0.007751941680908203 0.40063077211380005 -0.39534884691238403
0.007751941680908203 0.4130192995071411 -0.6124030947685242
0.007751941215246916 0.4172963500022888 -0.5968992114067078
0.007751941680908203 0.420072466135025 -0.5813953876495361
0.007751941680908203 0.4214112162590027 -0.5658915042877197
0.007751941680908203 0.4231458604335785 -0.5503876209259033
0.007751941680908203 0.42485302686691284 -0.5348837375640869
0.007751941680908203 0.4262641370296478 -0.5193798542022705
0.007751941680908203 0.4262261986732483 -0.4883720874786377
0.007751941680908203 0.42438024282455444 -0.4728682041168213
0.007751941680908203 0.4214600920677185 -0.4573643207550049
0.007751941680908203 0.41829803586006165 -0.4418604373931885
0.007751941680908203 0.4122835099697113 -0.42635661363601685
0.00775194214656949 0.42676568031311035 -0.5038759708404541
0.02325582504272461 -0.4121595621109009 -0.6279069781303406
0.02325582504272461 -0.4153716266155243 -0.6124030947685242
0.02325582504272461 -0.4179520905017853 -0.5968992114067078
0.02325582504272461 -0.41945764422416687 -0.5813953876495361
0.02325582504272461 -0.4201214909553528 -0.5658915042877197
0.02325582504272461 -0.420634388923645 -0.5503876209259033
0.02325582504272461 -0.42122170329093933 -0.5348837375640869
0.02325582504272461 -0.4214530885219574 -0.5193798542022705
0.02325582504272461 -0.4210326373577118 -0.5038759708404541
0.02325582504272461 -0.42033082246780396 -0.4883720874786377
0.02325582504272461 -0.4191130995750427 -0.4728682041168213
0.02325582504272461 -0.416972279548645 -0.4573643207550049
0.02325582504272461 -0.41286659240722656 -0.4418604373931885
0.02325582504272461 -0.3973037302494049 -0.674418568611145
0.02325582504272461 -0.40363478660583496 -0.6589146852493286
0.02325582504272461 -0.40771788358688354 -0.6434109210968018
0.02325582504272461 -0.40874311327934265 -0.42635661363601685
0.02325582504272461 -0.4042624235153198 -0.41085273027420044
0.02325582504272461 -0.398983359336853 -0.39534884691238403
0.02325582504272461 -0.38199400901794434 -0.7054263353347778
0.02325582504272461 -0.39058783650398254 -0.6899224519729614
0.02325582504272461 -0.3924073576927185 -0.3798449635505676
0.02325582504272461 -0.3860226273536682 -0.3643410801887512
0.02325582504272461 -0.3732960820198059 -0.7209302186965942
0.02325582504272461 -0.377936989068985 -0.3488371968269348
0.02325582504272461 -0.37090349197387695 -0.3333333134651184
0.02325582504272461 -0.35345259308815 -0.751937985420227
0.02325582504272461 -0.363381952047348 -0.7364341020584106
0.02325582504272461 -0.3612365126609802 -0.317829430103302
0.02325582504272461 -0.35049059987068176 -0.30232560634613037
0.02325582504272461 -0.3423996567726135 -0.7674418687820435
0.02325582504272461 -0.33539044857025146 -0.28682172298431396
0.02325582504272461 -0.33028554916381836 -0.7829457521438599
0.02325582504272461 -0.31596803665161133 -0.7984496355056763
0.02325582504272461 -0.31734514236450195 -0.27131783962249756
0.02325582504272461 -0.2991648316383362 -0.8139535188674927
0.02325582504272461 -0.2982288599014282 -0.25581395626068115
0.02325582504272461 -0.29012802243232727 -0.08527129888534546
0.02325582504272461 -0.29427748918533325 -0.06976741552352905
0.02325582504272461 -0.29617685079574585 -0.05426359176635742
0.02325582504272461 -0.29705744981765747 -0.038759708404541016
0.02325582504272461 -0.2976248562335968 -0.02325582504272461
0.02325582504272461 -0.29788070917129517 -0.007751941680908203
0.02325582504272461 -0.2977680265903473 0.007751941680908203
0.02325582504272461 -0.29703301191329956 0.02325582504272461
0.02325582504272461 -0.29606395959854126 0.038759708404541016
0.02325582504272461 -0.2942238450050354 0.05426359176635742
0.02325582504272461 -0.2905218005180359 0.06976747512817383
0.02325582504272461 -0.28717800974845886 0.08527135848999023
0.02325582504272461 -0.2801523208618164 -0.8294573426246643
0.02325582504272461 -0.27913010120391846 -0.24031007289886475
0.02325582504272461 -0.2769022583961487 -0.11627906560897827
0.02325582690536976 -0.2850620746612549 -0.10077518224716187
0.02325582504272461 -0.2825852334499359 0.10077524185180664
0.02325582504272461 -0.2771655023097992 0.11627912521362305
0.02325582504272461 -0.2595767080783844 -0.8449612855911255
0.02325582504272461 -0.26052266359329224 -0.22480618953704834
0.02325582504272461 -0.2660886347293854 -0.13178294897079468
0.02325582504272461 -0.26817142963409424 0.1317828893661499
0.02325582504272461 -0.24396538734436035 -0.20930230617523193
0.02325582504272461 -0.24100711941719055 -0.1627907156944275
0.02325582504272461 -0.25431931018829346 -0.14728683233261108
0.02325582504272461 -0.2512349486351013 0.1472867727279663
0.02325582504272461 -0.24628117680549622 0.39534878730773926
0.02325582504272461 -0.25085437297821045 0.41085267066955566
0.02325582504272461 -0.25244030356407166 0.42635655403137207
0.02325582504272461 -0.2510434091091156 0.4418604373931885
0.02325582504272461 -0.24557292461395264 0.4573643207550049
0.02325582504272461 -0.2384234368801117 -0.8604651093482971
0.02325582504272461 -0.23179927468299866 -0.19379842281341553
0.02325582504272461 -0.22987881302833557 -0.1782945990562439
0.02325582504272461 -0.23101912438869476 0.16279065608978271
0.02325582504272461 -0.22683624923229218 0.364341139793396
0.02325582504272461 -0.23734433948993683 0.37984490394592285
0.02325582504272461 -0.23980019986629486 0.4728682041168213
0.02325582504272461 -0.22835567593574524 0.4883720874786377
0.02325582504272461 -0.22513753175735474 0.612403154373169
0.02325582504272461 -0.21544431149959564 -0.8759689331054688
0.02325582504272461 -0.21102681756019592 0.17829453945159912
0.02325582504272461 -0.2164517343044281 0.3488372564315796
0.02325582504272461 -0.22026193141937256 0.5038759708404541
0.02325582504272461 -0.2110472470521927 0.5193798542022705
0.02325582504272461 -0.21001486480236053 0.6279069185256958
0.02325582504272461 -0.19541653990745544 0.3178294897079468
0.02325582504272461 -0.20730872452259064 0.3333333730697632
0.02325582504272461 -0.20233844220638275 0.5348837375640869
0.02325582504272461 -0.1906852424144745 -0.8914728760719299
0.02325582504272461 -0.1937890350818634 0.19379842281341553
0.02325582504272461 -0.1833481639623642 0.30232560634613037
0.02325582504272461 -0.19348615407943726 0.5503876209259033
0.02325582504272461 -0.18134520947933197 0.5658915042877197
0.02325582504272461 -0.19150014221668243 0.5968992710113525
0.02325582504272461 -0.17405204474925995 0.20930230617523193
0.02325582504272461 -0.16484518349170685 0.27131783962249756
0.02325582504272461 -0.17409057915210724 0.28682172298431396
0.02325582504272461 -0.1730225682258606 0.5813953876495361
0.02325582504272461 -0.15653538703918457 -0.9069767594337463
0.02325582504272461 -0.1533428132534027 0.22480618953704834
0.02325582504272461 -0.15243841707706451 0.25581395626068115
0.02325582504272461 -0.15825317800045013 0.6434108018875122
0.02325582504272461 -0.15562178194522858 0.6589146852493286
0.02325582504272461 -0.16263243556022644 0.674418568611145
0.02325582504272461 -0.16230520606040955 0.6899224519729614
0.02325582504272461 -0.1591261327266693 0.7054263353347778
0.02325582504272461 -0.156077042222023 0.7209302186965942
0.02325582504272461 -0.15284977853298187 0.7364341020584106
0.02325582504272461 -0.1515403389930725 0.751937985420227
0.02325582504272461 -0.15150222182273865 0.7674418687820435
0.02325582504272461 -0.15210656821727753 0.7829457521438599
0.02325582504272461 -0.15264534950256348 0.7984496355056763
0.02325582504272461 -0.1536642462015152 0.8139535188674927
0.02325582504272461 -0.15407750010490417 0.8294574022293091
0.02325582504272461 -0.15408629179000854 0.8449612855911255
0.02325582504272461 -0.15356092154979706 0.8604651689529419
0.02325582504272461 -0.15167184174060822 0.8759689331054688
0.02325582504272461 -0.1503412127494812 0.8914728164672852
0.02325582504272461 -0.14861755073070526 0.9069766998291016
0.02325582504272461 -0.15274471044540405 0.9844961166381836
0.02325582504272461 -0.14570572972297668 0.24031007289886475
0.02325582504272461 -0.14710989594459534 0.9224805235862732
0.02325582504272461 -0.14493727684020996 0.9379844665527344
0.02325582504272461 -0.1428971141576767 0.9534883499145508
0.02325582504272461 -0.1449659913778305 0.9689921736717224
0.02325582504272461 -0.10882551968097687 -0.922480583190918
0.02325582504272461 -0.0508970245718956 -0.9379845261573792
0.02325582504272461 0.08032853156328201 -0.9379844665527344
0.02325582504272461 0.13357661664485931 -0.9224806427955627
0.02325582504272461 0.17438006401062012 -0.9069767594337463
0.02325582504272461 0.1698130965232849 0.22480618953704834
0.02325582504272461 0.167462557554245 0.24031007289886475
0.02325582504272461 0.18474724888801575 0.20930230617523193
0.02325582504272461 0.18056753277778625 0.25581395626068115
0.02325582504272461 0.20136094093322754 -0.8914728760719299
0.02325582504272461 0.2028895616531372 0.19379842281341553
0.02325582504272461 0.19673506915569305 0.27131783962249756
0.02325582504272461 0.20548108220100403 0.5813953876495361
0.02325582504272461 0.20019792020320892 0.6434108018875122
0.02325582504272461 0.2030622661113739 0.6589146852493286
0.02325582504272461 0.2066093534231186 0.674418568611145
0.02325582504272461 0.20694594085216522 0.6899224519729614
0.02325582504272461 0.20496228337287903 0.7054263353347778
0.02325582504272461 0.20292004942893982 0.7209302186965942
0.02325582504272461 0.20086239278316498 0.7364341020584106
0.02325582504272461 0.19963397085666656 0.751937985420227
0.02325582504272461 0.20004647970199585 0.7674418687820435
0.02325582504272461 0.20169055461883545 0.7829457521438599
0.02325582504272461 0.20352628827095032 0.7984496355056763
0.02325582504272461 0.20566044747829437 0.8139535188674927
0.02325582504272461 0.2074873000383377 0.8294574022293091
0.02325582504272461 0.20884457230567932 0.8449612855911255
0.02325582504272461 0.20831722021102905 0.8759689331054688
0.02325582504272461 0.20741945505142212 0.8914728164672852
0.02325582504272461 0.20532377064228058 0.9069766998291016
0.02325582504272461 0.20328289270401 0.922480583190918
0.02325582504272461 0.20078971982002258 0.9379844665527344
0.02325582504272461 0.19950297474861145 0.9534883499145508
0.02325582504272461 0.20562855899333954 0.9689922332763672
0.02325582504272461 0.22202812135219574 -0.8759689927101135
0.02325582504272461 0.22043250501155853 0.17829453945159912
0.02325582504272461 0.2112445831298828 0.28682172298431396
0.02325582504272461 0.22074156999588013 0.30232560634613037
0.02325582504272461 0.21599408984184265 0.5658915042877197
0.02325582504272461 0.22418434917926788 0.6279069185256958
0.02325582690536976 0.20939785242080688 0.8604652285575867
0.02325582504272461 0.21109211444854736 0.9844961166381836
0.02325582504272461 0.23673678934574127 -0.1782945990562439
0.02325582504272461 0.23713722825050354 0.16279065608978271
0.02325582504272461 0.2290341556072235 0.3178294897079468
0.02325582504272461 0.23410268127918243 0.3333333730697632
0.02325582504272461 0.2396082878112793 0.3488372564315796
0.02325582504272461 0.23568306863307953 0.5503876209259033
0.02325582504272461 0.23501303791999817 0.5968992710113525
0.02325582504272461 0.24187341332435608 -0.8604651689529419
0.02325582690536976 0.2443075031042099 -0.19379842281341553
0.02325582504272461 0.24634985625743866 -0.1627907156944275
0.02325582504272461 0.24641913175582886 0.364341139793396
0.02325582504272461 0.2523547410964966 0.37984490394592285
0.02325582504272461 0.25227510929107666 0.5348837375640869
0.02325582504272461 0.2616264522075653 -0.8449612259864807
0.02325582504272461 0.2614606022834778 -0.20930230617523193
0.02325582504272461 0.2614113688468933 -0.14728683233261108
0.02325582504272461 0.26243850588798523 0.1472867727279663
0.02325582504272461 0.25994446873664856 0.39534878730773926
0.02325582504272461 0.26742711663246155 0.41085267066955566
0.02325582504272461 0.2634962499141693 0.5193798542022705
0.02325582504272461 0.279276967048645 -0.8294573426246643
0.02325582504272461 0.2793900966644287 -0.22480618953704834
0.02325582504272461 0.2740645110607147 -0.13178294897079468
0.02325582504272461 0.2851461172103882 -0.11627906560897827
0.02325582504272461 0.2730913460254669 0.42635655403137207
0.02325582504272461 0.2791402339935303 0.4418604373931885
0.02325582504272461 0.28288885951042175 0.4573643207550049
0.02325582504272461 0.2832185626029968 0.4728682041168213
0.02325582504272461 0.27988201379776 0.4883720874786377
0.02325582504272461 0.2743867039680481 0.5038759708404541
0.02325582504272461 0.29600194096565247 -0.8139535188674927
0.02325582504272461 0.2975444197654724 -0.24031007289886475
0.02325582504272461 0.29238298535346985 -0.10077518224716187
0.02325582504272461 0.29891419410705566 -0.08527129888534546
0.02325582504272461 0.2924259901046753 0.1317828893661499
0.02325582504272461 0.3117952346801758 -0.7984496355056763
0.02325582504272461 0.31465545296669006 -0.25581395626068115
0.02325582504272461 0.30364304780960083 -0.06976741552352905
0.02325582690536976 0.3073747754096985 -0.05426359176635742
0.02325582504272461 0.30994078516960144 -0.038759708404541016
0.02325582504272461 0.31158602237701416 -0.02325582504272461
0.02325582504272461 0.3139554262161255 -0.007751941680908203
0.02325582504272461 0.31050166487693787 0.05426359176635742
0.02325582318007946 0.3063529431819916 0.06976747512817383
0.02325582504272461 0.30931270122528076 0.08527135848999023
0.02325582504272461 0.31055498123168945 0.10077524185180664
0.02325582504272461 0.3044069707393646 0.11627912521362305
0.02325582504272461 0.3073134422302246 0.5968992710113525
0.02325582504272461 0.32706886529922485 -0.7829457521438599
0.02325582504272461 0.3286181092262268 -0.27131783962249756
0.02325582504272461 0.31893762946128845 0.5968992710113525
0.02325582504272461 0.3208162784576416 0.612403154373169
0.02325582504272461 0.3396799564361572 -0.7674418687820435
0.02325582504272461 0.34241217374801636 -0.28682172298431396
0.02325582504272461 0.3363760709762573 -0.007751941215246916
0.02325582504272461 0.33520767092704773 0.05426359176635742
0.02325582318007946 0.3510543406009674 -0.751937985420227
0.02325582504272461 0.3613665699958801 -0.7364341020584106
0.02325582504272461 0.354026734828949 -0.30232560634613037
0.02325582504272461 0.3576887845993042 -0.007751941680908203
0.02325582318007946 0.3507564067840576 0.05426359176635742
0.02325582504272461 0.36949437856674194 -0.7209302186965942
0.02325582504272461 0.3768015503883362 -0.7054263353347778
0.02325582504272461 0.3721035122871399 -0.3333333134651184
0.02325582504272461 0.36471468210220337 -0.317829430103302
0.02325582504272461 0.3677521347999573 0.007751941680908203
0.02325582504272461 0.36928197741508484 0.02325582504272461
0.02325582504272461 0.3664172887802124 0.038759708404541016
0.02325582504272461 0.3843767046928406 -0.6899224519729614
0.02325582504272461 0.39149197936058044 -0.674418568611145
0.02325582504272461 0.39323949813842773 -0.3798449635505676
0.02325582504272461 0.3868566155433655 -0.3643410801887512
0.02325582504272461 0.38018494844436646 -0.3488371968269348
0.02325582504272461 0.39723101258277893 -0.6589146852493286
0.02325582504272461 0.4047169089317322 -0.643410861492157
0.02325582504272461 0.40876880288124084 -0.6279069781303406
0.02325582504272461 0.40591228008270264 -0.41085273027420044
0.02325582504272461 0.4006178081035614 -0.39534884691238403
0.02325582504272461 0.41249167919158936 -0.6124030947685242
0.02325582504272461 0.4166784882545471 -0.5968992114067078
0.02325582504272461 0.4197646379470825 -0.5813953876495361
0.02325582504272461 0.4210979640483856 -0.5658915042877197
0.02325582504272461 0.42264509201049805 -0.5503876209259033
0.02325582504272461 0.42426013946533203 -0.5348837375640869
0.02325582504272461 0.4255189001560211 -0.5193798542022705
0.02325582504272461 0.42604395747184753 -0.5038759708404541
0.02325582504272461 0.4254800081253052 -0.4883720874786377
0.02325582504272461 0.42379793524742126 -0.4728682041168213
0.02325582504272461 0.42105889320373535 -0.4573643207550049
0.02325582504272461 0.4180281162261963 -0.4418604373931885
0.02325582504272461 0.411930114030838 -0.42635661363601685
0.038759708404541016 -0.41183051466941833 -0.6279069781303406
0.038759708404541016 -0.4149923324584961 -0.6124030947685242
0.038759708404541016 -0.4175131916999817 -0.5968992114067078
0.038759708404541016 -0.4190654754638672 -0.5813953876495361
0.038759708404541016 -0.4198327660560608 -0.5658915042877197
0.038759708404541016 -0.42037278413772583 -0.5503876209259033
0.038759708404541016 -0.42088016867637634 -0.5348837375640869
0.038759708404541016 -0.42103901505470276 -0.5193798542022705
0.038759708404541016 -0.42060816287994385 -0.5038759708404541
0.038759708404541016 -0.4199555814266205 -0.4883720874786377
0.038759708404541016 -0.4187893271446228 -0.4728682041168213
0.038759708404541016 -0.4166312515735626 -0.4573643207550049
0.038759708404541016 -0.4126921594142914 -0.4418604373931885
0.038759708404541016 -0.39696797728538513 -0.674418568611145
0.038759708404541016 -0.4032253623008728 -0.6589146852493286
0.038759708404541016 -0.40741437673568726 -0.6434108018875122
0.038759708404541016 -0.40849918127059937 -0.42635661363601685
0.038759708404541016 -0.40383729338645935 -0.41085273027420044
0.038759708404541016 -0.3982784152030945 -0.39534884691238403
0.038759708404541016 -0.38154056668281555 -0.7054263353347778
0.038759708404541016 -0.39020007848739624 -0.6899224519729614
0.038759708404541016 -0.39192336797714233 -0.37984493374824524
0.038759708404541016 -0.3857302963733673 -0.3643410801887512
0.038759708404541016 -0.37271028757095337 -0.7209302186965942
0.038759708404541016 -0.3777572512626648 -0.3488372266292572
0.038759708404541016 -0.37067025899887085 -0.3333333134651184
0.038759708404541016 -0.35278573632240295 -0.751937985420227
0.038759708404541016 -0.36283618211746216 -0.7364340424537659
0.038759708404541016 -0.3608975112438202 -0.317829430103302
0.038759708404541016 -0.34985828399658203 -0.30232560634613037
0.038759708404541016 -0.3416332006454468 -0.7674418687820435
0.038759708404541016 -0.33489617705345154 -0.28682172298431396
0.038759708404541016 -0.3294408619403839 -0.7829457521438599
0.038759708404541016 -0.31503382325172424 -0.7984496355056763
0.038759708404541016 -0.31706294417381287 -0.27131783962249756
0.038759708404541016 -0.29799190163612366 -0.8139535188674927
0.038759708404541016 -0.2983282804489136 -0.25581395626068115
0.038759708404541016 -0.2901475131511688 -0.08527129888534546
0.038759708404541016 -0.29418373107910156 -0.06976741552352905
0.038759708404541016 -0.2960115969181061 -0.05426359176635742
0.038759708404541016 -0.2968508303165436 -0.038759708404541016
0.038759708404541016 -0.2974534332752228 -0.02325582504272461
0.038759708404541016 -0.29779690504074097 -0.007751941680908203
0.038759708404541016 -0.29777318239212036 0.007751941680908203
0.038759708404541016 -0.29708021879196167 0.02325582504272461
0.038759708404541016 -0.2960977554321289 0.038759708404541016
0.038759708404541016 -0.29424887895584106 0.05426359176635742
0.038759708404541016 -0.2904280722141266 0.06976747512817383
0.038759708404541016 -0.286984384059906 0.08527135848999023
0.038759708404541016 -0.2788161635398865 -0.8294573426246643
0.038759708404541016 -0.2794884741306305 -0.24031007289886475
0.038759708404541016 -0.27738916873931885 -0.11627906560897827
0.038759708404541016 -0.2851482033729553 -0.10077518224716187
0.038759708404541016 -0.2820553779602051 0.10077524185180664
0.038759708404541016 -0.2763235867023468 0.11627912521362305
0.038759708404541016 -0.257883757352829 -0.8449612259864807
0.038759708404541016 -0.26110079884529114 -0.22480618953704834
0.038759708404541016 -0.2560092508792877 -0.14728683233261108
0.038759708404541016 -0.2670362591743469 -0.13178294897079468
0.038759708404541016 -0.26673752069473267 0.1317828893661499
0.038759708404541016 -0.24479074776172638 -0.20930230617523193
0.038759708404541016 -0.2421352118253708 -0.1627907156944275
0.038759708404541016 -0.25042662024497986 0.1472867727279663
0.038759708404541016 -0.243877574801445 0.39534878730773926
0.038759708404541016 -0.24920988082885742 0.41085267066955566
0.03875970467925072 -0.25331416726112366 0.42635655403137207
0.038759708404541016 -0.25406697392463684 0.4418604075908661
0.038759708404541016 -0.24855853617191315 0.4573643207550049
0.038759708404541016 -0.24099139869213104 0.4728682041168213
0.038759708404541016 -0.23709489405155182 -0.8604651093482971
0.038759708404541016 -0.23302841186523438 -0.19379842281341553
0.038759708404541016 -0.23149926960468292 -0.1782945990562439
0.038759708404541016 -0.23047874867916107 0.16279065608978271
0.038759708404541016 -0.2267667055130005 0.364341139793396
0.038759708404541016 -0.2363784909248352 0.37984490394592285
0.038759708404541016 -0.2298946976661682 0.4883720874786377
0.038759708404541016 -0.22488464415073395 0.612403154373169
0.038759708404541016 -0.2135605663061142 -0.8759689331054688
0.038759708404541016 -0.21038714051246643 0.17829453945159912
0.038759708404541016 -0.21622803807258606 0.3488372564315796
0.03875970467925072 -0.22259150445461273 0.5038759708404541
0.038759708404541016 -0.2123640477657318 0.5193798542022705
0.038759708404541016 -0.21005797386169434 0.6279069185256958
0.038759708404541016 -0.19417861104011536 0.3178294897079468
0.038759708404541016 -0.20563873648643494 0.3333333730697632
0.038759708404541016 -0.20390167832374573 0.5348837375640869
0.038759708404541016 -0.19390547275543213 0.5503876209259033
0.038759708404541016 -0.1891004592180252 -0.8914728760719299
0.038759708404541016 -0.19316460192203522 0.19379842281341553
0.038759708404541016 -0.1829301416873932 0.30232560634613037
0.038759708404541016 -0.18120980262756348 0.5658915042877197
0.038759708404541016 -0.19066788256168365 0.5968992710113525
0.038759708404541016 -0.1739369034767151 0.20930230617523193
0.038759708404541016 -0.1653348207473755 0.27131783962249756
0.038759708404541016 -0.17430298030376434 0.28682172298431396
0.038759708404541016 -0.17254745960235596 0.5813953876495361
0.038759708404541016 -0.1539308875799179 -0.9069767594337463
0.038759708404541016 -0.15440058708190918 0.22480618953704834
0.038759708404541016 -0.14775274693965912 0.24031007289886475
0.038759708404541016 -0.15389159321784973 0.25581395626068115
0.038759708404541016 -0.1583731770515442 0.6434108018875122
0.038759708404541016 -0.15548491477966309 0.6589146852493286
0.038759708404541016 -0.16236037015914917 0.674418568611145
0.038759708404541016 -0.16178828477859497 0.6899224519729614
0.038759708404541016 -0.15838468074798584 0.7054263353347778
0.038759708404541016 -0.15524813532829285 0.7209302186965942
0.038759708404541016 -0.1520102322101593 0.7364341020584106
0.038759708404541016 -0.15063366293907166 0.751937985420227
0.038759708404541016 -0.15052860975265503 0.7674418687820435
0.038759708404541016 -0.15105634927749634 0.7829457521438599
0.038759708404541016 -0.15147539973258972 0.7984496355056763
0.038759708404541016 -0.1524500846862793 0.8139535188674927
0.038759708404541016 -0.15286822617053986 0.8294574022293091
0.038759708404541016 -0.1528531163930893 0.8449612855911255
0.038759708404541016 -0.15227314829826355 0.8604651689529419
0.038759708404541016 -0.15012678503990173 0.8759689331054688
0.038759708404541016 -0.1487397700548172 0.8914728164672852
0.038759708404541016 -0.1511220932006836 0.9844961166381836
0.038759708404541016 -0.14700764417648315 0.9069766998291016
0.038759708404541016 -0.14533376693725586 0.922480583190918
0.038759708404541016 -0.1434510052204132 0.9379844069480896
0.038759708404541016 -0.141533762216568 0.9534883499145508
0.038759708404541016 -0.142874613404274 0.9689921736717224
0.038759708404541016 -0.10497607290744781 -0.9224806427955627
0.038759708404541016 -0.04773731529712677 -0.9379844665527344
0.038759708404541016 0.07554664462804794 -0.9379844665527344
0.038759708404541016 0.13048353791236877 -0.9224806427955627
0.038759708404541016 0.17306901514530182 -0.9069767594337463
0.038759708404541016 0.16878214478492737 0.22480618953704834
0.038759708404541016 0.16583019495010376 0.24031007289886475
0.038759708404541016 0.18413352966308594 0.20930230617523193
0.038759708404541016 0.17922145128250122 0.25581395626068115
0.038759708404541016 0.1989235281944275 -0.8914728760719299
0.038759708404541016 0.20243385434150696 0.19379842281341553
0.038759708404541016 0.1953907310962677 0.27131783962249756
0.038759708404541016 0.20309938490390778 0.5813953876495361
0.038759708404541016 0.1988094002008438 0.6434108018875122
0.038759708404541016 0.20139357447624207 0.6589146852493286
0.038759708404541016 0.2046440988779068 0.674418568611145
0.038759708404541016 0.2047833502292633 0.6899224519729614
0.038759708404541016 0.20281356573104858 0.7054263353347778
0.038759708404541016 0.20083209872245789 0.7209302186965942
0.038759708404541016 0.1989125907421112 0.7364341020584106
0.038759708404541016 0.1977938711643219 0.751937985420227
0.038759708404541016 0.19819329679012299 0.7674418687820435
0.038759708404541016 0.19966785609722137 0.7829457521438599
0.038759708404541016 0.20138239860534668 0.7984496355056763
0.038759708404541016 0.20369358360767365 0.8139535188674927
0.038759708404541016 0.20566031336784363 0.8294574022293091
0.038759708404541016 0.20680631697177887 0.8449612855911255
0.038759708404541016 0.20716048777103424 0.8604651689529419
0.038759708404541016 0.20622126758098602 0.8759689331054688
0.038759708404541016 0.20531398057937622 0.8914728164672852
0.038759708404541016 0.20313259959220886 0.9069766998291016
0.038759708404541016 0.20090727508068085 0.922480583190918
0.038759708404541016 0.1984115093946457 0.9379844665527344
0.038759708404541016 0.1973108947277069 0.9534883499145508
0.038759708404541016 0.20144550502300262 0.9689922332763672
0.038759708404541016 0.2074720561504364 0.9844961166381836
0.038759708404541016 0.22138690948486328 -0.8759689927101135
0.038759708404541016 0.22012928128242493 0.17829453945159912
0.038759708404541016 0.20991455018520355 0.28682172298431396
0.038759708404541016 0.2193288654088974 0.30232560634613037
0.038759708404541016 0.21483677625656128 0.5658915042877197
0.038759708404541016 0.24018613994121552 -0.8604651093482971
0.038759708404541016 0.23560592532157898 -0.1782945990562439
0.038759708404541016 0.23697757720947266 0.16279065608978271
0.038759708404541016 0.22760435938835144 0.3178294897079468
0.038759708404541016 0.2331555038690567 0.3333333730697632
0.038759708404541016 0.2382940649986267 0.3488372564315796
0.038759708404541016 0.23491701483726501 0.5503876209259033
0.038759708404541016 0.22953340411186218 0.5968992710113525
0.038759708404541016 0.227247416973114 0.6279069185256958
0.038759708404541016 0.24347786605358124 -0.19379842281341553
0.038759708404541016 0.24565279483795166 -0.1627907156944275
0.038759708404541016 0.24554109573364258 0.364341139793396
0.038759708404541016 0.25160181522369385 0.37984490394592285
0.038759708404541016 0.25192683935165405 0.5348837375640869
0.038759708404541016 0.26043495535850525 -0.8449612259864807
0.038759708404541016 0.2605433464050293 -0.20930230617523193
0.038759708404541016 0.2608553469181061 -0.14728683233261108
0.038759708404541016 0.25948965549468994 0.1472867727279663
0.038759708404541016 0.2590748369693756 0.39534878730773926
0.038759708404541016 0.2667607069015503 0.41085267066955566
0.038759708404541016 0.26311248540878296 0.5193798542022705
0.038759708404541016 0.2783743143081665 -0.8294573426246643
0.038759708404541016 0.2783544063568115 -0.22480618953704834
0.038759708404541016 0.27351975440979004 -0.13178294897079468
0.038759708404541016 0.2843290865421295 -0.11627906560897827
0.038759708404541016 0.27242428064346313 0.42635655403137207
0.038759708404541016 0.27845317125320435 0.4418604373931885
0.038759708404541016 0.2820219397544861 0.4573643207550049
0.038759708404541016 0.28235381841659546 0.4728682041168213
0.038759708404541016 0.2791363000869751 0.4883720874786377
0.038759708404541016 0.2737530767917633 0.5038759708404541
0.038759708404541016 0.2953111231327057 -0.8139535188674927
0.038759708404541016 0.296294629573822 -0.24031007289886475
0.038759708404541016 0.29138052463531494 -0.10077518224716187
0.038759708404541016 0.2978591322898865 -0.08527129888534546
0.038759708404541016 0.30226218700408936 0.11627912521362305
0.038759708404541016 0.2898677587509155 0.1317828893661499
0.038759708404541016 0.3111342787742615 -0.7984496355056763
0.038759708404541016 0.31363406777381897 -0.25581395626068115
0.038759712129831314 0.30277612805366516 -0.06976742297410965
0.038759708404541016 0.3064418435096741 -0.05426359176635742
0.038759708404541016 0.3093363046646118 -0.038759708404541016
0.038759708404541016 0.3111058473587036 -0.02325582504272461
0.038759708404541016 0.31390994787216187 -0.007751941680908203
0.038759708404541016 0.31043675541877747 0.05426359176635742
0.038759708404541016 0.3056226074695587 0.06976747512817383
0.038759708404541016 0.30698421597480774 0.08527135848999023
0.038759708404541016 0.3079307973384857 0.10077524185180664
0.038759708404541016 0.3067864775657654 0.5968992710113525
0.038759708404541016 0.3264004588127136 -0.7829457521438599
0.038759708404541016 0.3281640112400055 -0.27131783962249756
0.038759708404541016 0.3188210427761078 0.5968992710113525
0.038759708404541016 0.32041019201278687 0.612403154373169
0.038759708404541016 0.3386618196964264 -0.7674418687820435
0.038759708404541016 0.342257559299469 -0.28682172298431396
0.03875970467925072 0.349658727645874 -0.751937985420227
0.038759708404541016 0.3609289526939392 -0.7364341020584106
0.038759708404541016 0.3539850413799286 -0.30232560634613037
0.038759708404541016 0.3616708219051361 0.038759708404541016
0.038759708404541016 0.3683929443359375 -0.7209302186965942
0.038759708404541016 0.37651994824409485 -0.7054263353347778
0.038759708404541016 0.37203294038772583 -0.3333333134651184
0.038759708404541016 0.36460837721824646 -0.317829430103302
0.038759708404541016 0.36469629406929016 0.007751941680908203
0.038759708404541016 0.3661397099494934 0.02325582504272461
0.038759708404541016 0.3835008442401886 -0.6899224519729614
0.038759708404541016 0.39112240076065063 -0.674418568611145
0.038759708404541016 0.3928944170475006 -0.3798449635505676
0.038759708404541016 0.38672935962677 -0.3643410801887512
0.038759712129831314 0.3799978196620941 -0.3488372266292572
0.038759708404541016 0.39635202288627625 -0.6589146852493286
0.038759708404541016 0.403919517993927 -0.643410861492157
0.038759708404541016 0.40765881538391113 -0.6279069781303406
0.038759708404541016 0.40532422065734863 -0.41085273027420044
0.038759708404541016 0.4001871347427368 -0.39534884691238403
0.038759708404541016 0.4114078879356384 -0.6124030947685242
0.038759708404541016 0.41504064202308655 -0.5968992114067078
0.038759708404541016 0.4188045263290405 -0.5813953876495361
0.038759708404541016 0.4205125570297241 -0.5658915042877197
0.038759708404541016 0.4216866195201874 -0.5503876209259033
0.038759708404541016 0.4232698976993561 -0.5348837375640869
0.038759708404541016 0.42439284920692444 -0.5193798542022705
0.038759708404541016 0.42482247948646545 -0.5038759708404541
0.038759708404541016 0.4243408143520355 -0.4883720874786377
0.038759708404541016 0.42281150817871094 -0.4728682041168213
0.038759708404541016 0.42035284638404846 -0.4573643207550049
0.038759708404541016 0.4171767830848694 -0.44186046719551086
0.038759712129831314 0.41087156534194946 -0.42635664343833923
0.05426359176635742 -0.413848340511322 -0.6124030947685242
0.05426359176635742 -0.4162592887878418 -0.5968992114067078
0.05426359176635742 -0.41806691884994507 -0.5813953876495361
0.05426359176635742 -0.4190126657485962 -0.5658915042877197
0.05426359176635742 -0.4195500612258911 -0.5503876209259033
0.05426359176635742 -0.4199851155281067 -0.5348837375640869
0.05426359176635742 -0.4201188087463379 -0.5193798542022705
0.05426359176635742 -0.4197390079498291 -0.5038759708404541
0.05426359176635742 -0.4191543161869049 -0.4883720874786377
0.05426359176635742 -0.4179251194000244 -0.4728682041168213
0.05426359176635742 -0.415436327457428 -0.4573643207550049
0.05426359176635742 -0.41175663471221924 -0.4418604373931885
0.05426359176635742 -0.39591455459594727 -0.674418568611145
0.05426359176635742 -0.4020196199417114 -0.6589146852493286
0.05426359176635742 -0.4067135155200958 -0.6434108018875122
0.05426359549164772 -0.4107508957386017 -0.6279069781303406
0.05426359176635742 -0.4077329635620117 -0.42635661363601685
0.05426359176635742 -0.40326982736587524 -0.41085273027420044
0.05426359176635742 -0.39730149507522583 -0.39534884691238403
0.05426359176635742 -0.38027456402778625 -0.7054263353347778
0.05426359176635742 -0.38902461528778076 -0.6899224519729614
0.05426359549164772 -0.3910672664642334 -0.3798449635505676
0.05426359176635742 -0.38483935594558716 -0.3643410801887512
0.05426359176635742 -0.37126457691192627 -0.7209302186965942
0.05426359176635742 -0.3768826127052307 -0.3488371968269348
0.05426359176635742 -0.3695804476737976 -0.3333333134651184
0.05426359176635742 -0.35135889053344727 -0.751937985420227
0.05426359176635742 -0.36172929406166077 -0.7364341020584106
0.05426359176635742 -0.35975873470306396 -0.317829430103302
0.05426359176635742 -0.34008243680000305 -0.7674418687820435
0.05426359176635742 -0.3477781116962433 -0.30232560634613037
0.05426359176635742 -0.3278226852416992 -0.7829457521438599
0.05426359176635742 -0.33279284834861755 -0.28682172298431396
0.05426359176635742 -0.3133091330528259 -0.7984496355056763
0.05426359176635742 -0.31523236632347107 -0.27131783962249756
0.05426359176635742 -0.2960147261619568 -0.8139535188674927
0.05426359549164772 -0.29715609550476074 -0.25581395626068115
0.05426359176635742 -0.28903061151504517 -0.08527129888534546
0.05426359176635742 -0.2928983271121979 -0.06976741552352905
0.05426359176635742 -0.29508644342422485 -0.05426359176635742
0.05426359176635742 -0.2958359718322754 -0.038759708404541016
0.05426359176635742 -0.296308696269989 -0.02325582504272461
0.05426359176635742 -0.2966262400150299 -0.007751941680908203
0.05426359176635742 -0.29665836691856384 0.007751941680908203
0.05426359176635742 -0.2961304783821106 0.02325582504272461
0.05426359176635742 -0.29520827531814575 0.038759708404541016
0.05426359176635742 -0.2929597496986389 0.05426359176635742
