0.11627912521362305 0.24031007289886475 0.12595638632774353
0.11627912521362305 0.25581395626068115 -0.8531697988510132
0.11627912521362305 0.25581395626068115 -0.2820781171321869
0.11627912521362305 0.25581395626068115 -0.19721803069114685
0.11627912521362305 0.25581395626068115 0.11222509294748306
0.11627912521362305 0.27131783962249756 -0.8427310585975647
0.11627912521362305 0.27131783962249756 -0.29723435640335083
0.11627912521362305 0.27131783962249756 -0.176061749458313
0.11627912521362305 0.27131783962249756 0.09380097687244415
0.11627912521362305 0.28682172298431396 -0.8307706117630005
0.11627912521362305 0.28682172298431396 -0.31249547004699707
0.11627912521362305 0.28682172298431396 -0.15127773582935333
0.11627912521362305 0.28682172298431396 0.06719586998224258
0.11627912521362305 0.30232560634613037 -0.822364866733551
0.11627912521362305 0.30232560634613037 -0.32760798931121826
0.11627912521362305 0.30232560634613037 -0.11717582494020462
0.11627912521362305 0.30232560634613037 0.01080445945262909
0.11627912521362305 0.3178294897079468 -0.8107424378395081
0.11627912521362305 0.3178294897079468 -0.34229862689971924
0.11627912521362305 0.3333333730697632 -0.7965311408042908
0.11627912521362305 0.3333333730697632 -0.35629788041114807
0.11627912521362305 0.3488372564315796 -0.7810120582580566
0.11627912521362305 0.3488372564315796 -0.37128913402557373
0.11627912521362305 0.364341139793396 -0.7630125284194946
0.11627912521362305 0.364341139793396 -0.38892731070518494
0.11627912521362305 0.37984490394592285 -0.7360618114471436
0.11627912521362305 0.37984490394592285 -0.41022735834121704
0.11627912521362305 0.39534878730773926 -0.7066625356674194
0.11627912521362305 0.39534878730773926 -0.43425852060317993
0.11627912521362305 0.41085267066955566 -0.6710589528083801
0.11627912521362305 0.41085267066955566 -0.4639871418476105
0.11627912521362305 0.42635655403137207 -0.6223070025444031
0.11627912521362305 0.42635655403137207 -0.5059330463409424
0.1317828893661499 -0.39534884691238403 -0.6202225685119629
0.1317828893661499 -0.39534884691238403 -0.5188759565353394
0.1317828893661499 -0.3798449635505676 -0.6755722165107727
0.1317828893661499 -0.3798449635505676 -0.47092869877815247
0.1317828893661499 -0.3643410801887512 -0.7063907384872437
0.1317828893661499 -0.3643410801887512 -0.4400090277194977
0.1317828893661499 -0.3488371968269348 -0.7312592267990112
0.1317828893661499 -0.3488371968269348 -0.4113047122955322
0.1317828893661499 -0.3333333134651184 -0.7548805475234985
0.1317828893661499 -0.3333333134651184 -0.3816051185131073
0.1317828893661499 -0.317829430103302 -0.774726152420044
0.1317828893661499 -0.317829430103302 -0.3544989824295044
0.1317828893661499 -0.30232560634613037 -0.7920057773590088
0.1317828893661499 -0.30232560634613037 -0.332012802362442
0.1317828893661499 -0.30232560634613037 -0.07027517259120941
0.1317828893661499 -0.30232560634613037 -0.03641539067029953
0.1317828893661499 -0.28682172298431396 -0.8062455058097839
0.1317828893661499 -0.28682172298431396 -0.3143707513809204
0.1317828893661499 -0.28682172298431396 -0.1313951313495636
0.1317828893661499 -0.28682172298431396 0.03472626209259033
0.1317828893661499 -0.27131783962249756 -0.8183815479278564
0.1317828893661499 -0.27131783962249756 -0.30010896921157837
0.1317828893661499 -0.27131783962249756 -0.16834500432014465
0.1317828893661499 -0.27131783962249756 0.07697591185569763
0.1317828893661499 -0.25581395626068115 -0.8302162289619446
0.1317828893661499 -0.25581395626068115 -0.28595900535583496
0.1317828893661499 -0.25581395626068115 -0.19589723646640778
0.1317828893661499 -0.25581395626068115 0.09877579659223557
0.1317828893661499 -0.24031007289886475 -0.8427687883377075
0.1317828893661499 -0.24031007289886475 -0.2651371359825134
0.1317828893661499 -0.24031007289886475 -0.2227531224489212
0.1317828893661499 -0.24031007289886475 0.11474609375
0.1317828893661499 -0.22480618953704834 -0.8535031080245972
0.1317828893661499 -0.22480618953704834 0.12855227291584015
0.1317828893661499 -0.20930230617523193 -0.8619537353515625
0.1317828893661499 -0.20930230617523193 0.14204621315002441
0.1317828893661499 -0.20930230617523193 0.3933572769165039
0.1317828893661499 -0.20930230617523193 0.4566739499568939
0.1317828893661499 -0.19379842281341553 -0.8723998069763184
0.1317828893661499 -0.19379842281341553 0.15317663550376892
0.1317828893661499 -0.19379842281341553 0.3511669337749481
0.1317828893661499 -0.19379842281341553 0.480874627828598
0.1317828893661499 -0.19379842281341553 0.5926742553710938
0.1317828893661499 -0.19379842281341553 0.6006864309310913
0.1317828893661499 -0.1782945990562439 -0.8786081671714783
0.1317828893661499 -0.1782945990562439 0.16212183237075806
0.1317828893661499 -0.1782946139574051 0.3044803738594055
0.1317828893661499 -0.1782945990562439 0.5026553869247437
0.1317828893661499 -0.1782945990562439 0.5944283604621887
0.1317828893661499 -0.1782945990562439 0.6008803844451904
0.1317828893661499 -0.1627907156944275 -0.8875427842140198
0.1317828893661499 -0.1627907156944275 0.17057383060455322
0.1317828893661499 -0.1627907156944275 0.2788289189338684
0.1317828893661499 -0.1627907156944275 0.5166197419166565
0.1317828893661499 -0.1627907156944275 0.5949873924255371
0.1317828893661499 -0.1627907156944275 0.6002976894378662
0.1317828893661499 -0.14728683233261108 -0.8914530873298645
0.1317828893661499 -0.14728683233261108 0.17692825198173523
0.1317828893661499 -0.14728683233261108 0.263408899307251
0.1317828893661499 -0.14728683233261108 0.5242176055908203
0.1317828893661499 -0.14728683233261108 0.5950900316238403
0.1317828893661499 -0.14728683233261108 0.5997525453567505
0.1317828893661499 -0.13178294897079468 -0.8976680636405945
0.1317828893661499 -0.13178294897079468 0.18529874086380005
0.1317828893661499 -0.13178294897079468 0.25020453333854675
0.1317828893661499 -0.13178294897079468 0.532393217086792
0.1317828893661499 -0.13178294897079468 0.5951116681098938
0.1317828893661499 -0.13178294897079468 0.5994910001754761
0.1317828893661499 -0.11627906560897827 -0.9040282964706421
0.1317828893661499 -0.11627906560897827 0.1963418424129486
0.1317828893661499 -0.11627906560897827 0.2348576784133911
0.1317828893661499 -0.11627906560897827 0.5368167757987976
0.1317828893661499 -0.11627906560897827 0.5950832366943359
0.1317828893661499 -0.11627906560897827 0.5995030403137207
0.1317828893661499 -0.10077518224716187 -0.9064264893531799
0.1317828893661499 -0.10077518224716187 0.5409569144248962
0.1317828893661499 -0.10077518224716187 0.595016598701477
0.1317828893661499 -0.10077518224716187 0.5997528433799744
0.1317828893661499 -0.08527129888534546 -0.9092519283294678
0.1317828893661499 -0.08527129888534546 0.5477828979492188
0.1317828893661499 -0.08527129888534546 0.594855010509491
0.1317828893661499 -0.08527129888534546 0.6004748940467834
0.1317828893661499 -0.06976741552352905 -0.9145530462265015
0.1317828893661499 -0.06976741552352905 0.5541795492172241
0.1317828893661499 -0.06976741552352905 0.5943131446838379
0.1317828893661499 -0.06976741552352905 0.6023463606834412
0.1317828893661499 -0.06976741552352905 0.6514084339141846
0.1317828893661499 -0.06976741552352905 0.74165940284729
0.1317828893661499 -0.05426359176635742 -0.9187957644462585
0.1317828893661499 -0.05426359176635742 0.5626217722892761
0.1317828893661499 -0.05426359176635742 0.5929929614067078
0.1317828893661499 -0.05426359176635742 0.6078689098358154
0.1317828893661499 -0.05426359176635742 0.6382379531860352
0.1317828893661499 -0.05426359176635742 0.9294871091842651
0.1317828893661499 -0.038759708404541016 -0.9207667708396912
0.1317828893661499 -0.038759708404541016 0.5743047595024109
0.1317828893661499 -0.038759708404541016 0.5899677276611328
0.1317828893661499 -0.038759708404541016 0.9314813017845154
0.1317828893661499 -0.02325582504272461 -0.9216889142990112
0.1317828893661499 -0.02325582504272461 0.5804430246353149
0.1317828893661499 -0.02325582504272461 0.5832069516181946
0.1317828893661499 -0.02325582504272461 0.9319608807563782
0.1317828893661499 -0.007751941680908203 -0.9219484925270081
0.1317828893661499 -0.007751941680908203 0.9320497512817383
0.1317828893661499 0.007751941680908203 -0.9219164848327637
0.1317828893661499 0.007751941680908203 0.9317327737808228
0.1317828893661499 0.02325582504272461 -0.9216387271881104
0.1317828893661499 0.02325582504272461 0.9314595460891724
0.1317828893661499 0.038759708404541016 -0.9209375977516174
0.1317828893661499 0.038759708404541016 0.5782977342605591
0.1317828893661499 0.038759708404541016 0.5854024887084961
0.1317828893661499 0.038759708404541016 0.9311582446098328
0.1317828893661499 0.05426359176635742 -0.9197372198104858
0.1317828893661499 0.05426358804106712 0.5690411329269409
0.1317828893661499 0.05426359176635742 0.590634286403656
0.1317828893661499 0.05426359176635742 0.930241048336029
0.1317828893661499 0.06976747512817383 -0.916935384273529
0.1317828893661499 0.06976747512817383 0.5588417053222656
0.1317828893661499 0.06976747512817383 0.5930166244506836
0.1317828893661499 0.06976747512817383 0.6112963557243347
0.1317828893661499 0.06976747512817383 0.6371585726737976
0.1317828893661499 0.06976747512817383 0.8804159164428711
0.1317828893661499 0.06976747512817383 0.914462149143219
0.1317828893661499 0.06976747512817383 0.9254581928253174
0.1317828893661499 0.08527135848999023 -0.9119952917098999
0.1317828893661499 0.08527135848999023 0.5532793402671814
0.1317828893661499 0.08527135848999023 0.5940391421318054
0.1317828893661499 0.08527135848999023 0.6045137643814087
0.1317828893661499 0.08527135848999023 0.6540064215660095
0.1317828893661499 0.08527135848999023 0.7263206243515015
0.1317828893661499 0.10077524185180664 -0.9077540636062622
0.1317828893661499 0.10077524185180664 0.19580823183059692
0.1317828893661499 0.10077524185180664 0.22288461029529572
0.1317828893661499 0.10077524185180664 0.5471471548080444
0.1317828893661499 0.10077524185180664 0.5943703055381775
0.1317828893661499 0.10077524930238724 0.6025903224945068
0.1317828893661499 0.11627912521362305 -0.9058986902236938
0.1317828893661499 0.11627912521362305 0.18732284009456635
0.1317828893661499 0.11627912521362305 0.23507022857666016
0.1317828893661499 0.11627912521362305 0.5403882265090942
0.1317828893661499 0.11627912521362305 0.5943616032600403
0.1317828893661499 0.11627912521362305 0.6024027466773987
0.1317828893661499 0.1317828893661499 -0.9041610956192017
0.1317828893661499 0.1317828893661499 0.17925095558166504
0.1317828893661499 0.1317828893661499 0.24756047129631042
0.1317828893661499 0.1317828893661499 0.535697877407074
0.1317828893661499 0.1317828893661499 0.5942557454109192
0.1317828893661499 0.1317828893661499 0.6029108166694641
0.1317828893661499 0.1472867727279663 -0.8981356024742126
0.1317828893661499 0.1472867727279663 0.1734388768672943
0.1317828893661499 0.1472867727279663 0.26070570945739746
0.1317828893661499 0.1472867727279663 0.5279229879379272
0.1317828893661499 0.1472867727279663 0.5941503643989563
0.1317828893661499 0.1472867727279663 0.6033068299293518
0.1317828893661499 0.16279065608978271 -0.8913467526435852
0.1317828893661499 0.16279065608978271 0.167231485247612
0.1317828893661499 0.16279065608978271 0.2751491069793701
0.1317828893661499 0.16279065608978271 0.5208174586296082
0.1317828893661499 0.16279065608978271 0.5940481424331665
0.1317828893661499 0.16279065608978271 0.6029008626937866
0.1317828893661499 0.17829453945159912 -0.8884482383728027
0.1317828893661499 0.17829453945159912 0.16016361117362976
0.1317828893661499 0.17829453945159912 0.2958128750324249
0.1317828893661499 0.17829453945159912 0.5098557472229004
0.1317828893661499 0.17829453945159912 0.5938199162483215
0.1317828893661499 0.17829453945159912 0.6023144125938416
0.1317828893661499 0.19379842281341553 -0.8782351613044739
0.1317828893661499 0.19379842281341553 0.15210288763046265
0.1317828893661499 0.19379842281341553 0.3284342885017395
0.1317828893661499 0.19379842281341553 0.49652615189552307
0.1317828893661499 0.19379842281341553 0.5928698182106018
0.1317828893661499 0.19379842281341553 0.6013835668563843
0.1317828893661499 0.20930230617523193 -0.8731880187988281
0.1317828893661499 0.20930230617523193 0.1426372528076172
0.1317828893661499 0.20930230617523193 0.3681923449039459
0.1317828893661499 0.20930230617523193 0.47806471586227417
0.1317828893661499 0.20930230617523193 0.5914232730865479
0.1317828893661499 0.20930230617523193 0.6003105640411377
0.1317828893661499 0.22480618953704834 -0.862699031829834
0.1317828893661499 0.22480618953704834 0.13203802704811096
0.1317828893661499 0.24031008780002594 -0.8570259809494019
0.1317828893661499 0.24031007289886475 -0.2740323841571808
0.1317828893661499 0.24031007289886475 -0.21093213558197021
0.1317828893661499 0.24031007289886475 0.11899028718471527
0.1317828893661499 0.25581395626068115 -0.8444808125495911
0.1317828893661499 0.25581395626068115 -0.289157897233963
0.1317828893661499 0.25581395626068115 -0.1882346123456955
0.1317828893661499 0.25581395626068115 0.10316522419452667
0.1317828893661499 0.27131783962249756 -0.8374456167221069
0.1317828893661499 0.27131783962249756 -0.3036504089832306
0.1317828893661499 0.27131783962249756 -0.16557924449443817
0.1317828893661499 0.27131783962249756 0.08302338421344757
0.1317828893661499 0.28682172298431396 -0.8265859484672546
0.1317828893661499 0.28682172298431396 -0.3189932405948639
0.1317828893661499 0.28682172298431396 -0.1393107920885086
0.1317828893661499 0.28682172298431396 0.04892555624246597
0.1317828893661499 0.30232560634613037 -0.8129762411117554
0.1317828893661499 0.30232560634613037 -0.3346375823020935
0.1317828893661499 0.30232560634613037 -0.09126457571983337
0.1317828893661499 0.30232560634613037 -0.024461062625050545
0.1317828893661499 0.3178294897079468 -0.8021211624145508
0.1317828893661499 0.3178294897079468 -0.34836000204086304
0.1317828893661499 0.3333333730697632 -0.7895793914794922
0.1317828893661499 0.3333333730697632 -0.36245572566986084
0.1317828893661499 0.3488372564315796 -0.7716835737228394
0.1317828893661499 0.3488372564315796 -0.37814295291900635
0.1317828893661499 0.364341139793396 -0.750115692615509
0.1317828893661499 0.364341139793396 -0.39660099148750305
0.1317828893661499 0.37984490394592285 -0.7238755226135254
0.1317828893661499 0.37984490394592285 -0.41873180866241455
0.1317828893661499 0.39534878730773926 -0.6925466060638428
0.1317828893661499 0.39534878730773926 -0.44496187567710876
0.1317828893661499 0.41085267066955566 -0.6525002717971802
0.1317828893661499 0.41085267066955566 -0.478432297706604
0.1317828893661499 0.42635655403137207 -0.5857152342796326
0.1317828893661499 0.42635655403137207 -0.54154372215271
0.1472867727279663 -0.3798449635505676 -0.6545981168746948
0.1472867727279663 -0.37984499335289 -0.48618781566619873
0.1472867727279663 -0.3643410801887512 -0.6927729845046997
0.1472867727279663 -0.3643410801887512 -0.45270130038261414
0.1472867727279663 -0.3488371968269348 -0.718328058719635
0.1472867727279663 -0.3488371968269348 -0.4244998097419739
0.1472867727279663 -0.3333333134651184 -0.7434943914413452
0.1472867727279663 -0.3333333134651184 -0.3959203362464905
0.1472867727279663 -0.317829430103302 -0.7639586925506592
0.1472867727279663 -0.317829430103302 -0.3673415184020996
0.1472867727279663 -0.30232560634613037 -0.7821916937828064
0.1472867727279663 -0.30232560634613037 -0.3418274521827698
0.1472867727279663 -0.2868216931819916 -0.7978626489639282
0.1472867727279663 -0.28682172298431396 -0.32274454832077026
0.1472867727279663 -0.28682172298431396 -0.10366550832986832
0.1472867727279663 -0.28682172298431396 0.004589707590639591
0.1472867727279663 -0.27131783962249756 -0.8119778037071228
0.1472867727279663 -0.27131783962249756 -0.3075608015060425
0.1472867727279663 -0.27131783962249756 -0.14897333085536957
0.1472867727279663 -0.27131783962249756 0.06049121171236038
0.1472867727279663 -0.25581395626068115 -0.8247947096824646
0.1472867727279663 -0.25581395626068115 -0.2942922115325928
0.1472867727279663 -0.25581395626068115 -0.18126264214515686
0.1472867727279663 -0.25581395626068115 0.08922595530748367
0.1472867727279663 -0.24031007289886475 -0.835622251033783
0.1472867727279663 -0.24031007289886475 -0.2792651057243347
0.1472867727279663 -0.24031007289886475 -0.20691271126270294
0.1472867727279663 -0.24031007289886475 0.10887429118156433
0.1472867727279663 -0.22480618953704834 -0.8458758592605591
0.1472867727279663 -0.22480618953704834 0.12338423728942871
0.1472867727279663 -0.20930230617523193 -0.8573079109191895
0.1472867727279663 -0.20930230617523193 0.1341310441493988
0.1472867727279663 -0.19379842281341553 -0.8652558326721191
0.1472867727279663 -0.19379842281341553 0.14549699425697327
0.1472867727279663 -0.19379842281341553 0.38445189595222473
0.1472867727279663 -0.19379842281341553 0.45900171995162964
0.1472867727279663 -0.19379842281341553 0.592784583568573
0.1472867727279663 -0.19379842281341553 0.5993591547012329
0.1472867727279663 -0.1782945990562439 -0.8738973140716553
0.1472867727279663 -0.1782945990562439 0.15683728456497192
0.1472867727279663 -0.1782945990562439 0.3428340256214142
0.1472867727279663 -0.1782945990562439 0.48047661781311035
0.1472867727279663 -0.1782945990562439 0.5940359830856323
0.1472867727279663 -0.1782945990562439 0.600896418094635
0.1472867727279663 -0.1627907156944275 -0.8800947666168213
0.1472867727279663 -0.1627907156944275 0.16346795856952667
0.1472867727279663 -0.1627907156944275 0.30472421646118164
0.1472867727279663 -0.1627907156944275 0.5009154677391052
0.1472867727279663 -0.1627907156944275 0.5949857831001282
0.1472867727279663 -0.1627907156944275 0.6005099415779114
0.1472867727279663 -0.14728683233261108 -0.8878995180130005
0.1472867727279663 -0.14728683233261108 0.17099377512931824
0.1472867727279663 -0.14728683233261108 0.28400716185569763
0.1472867727279663 -0.14728683233261108 0.5114046335220337
0.1472867727279663 -0.14728683233261108 0.595253050327301
0.1472867727279663 -0.14728683233261108 0.5998125672340393
0.1472867727279663 -0.13178294897079468 -0.8913076519966125
0.1472867727279663 -0.13178294897079468 0.17673154175281525
0.1472867727279663 -0.13178294897079468 0.26954635977745056
0.14728675782680511 -0.13178294897079468 0.5201026201248169
0.1472867727279663 -0.13178294897079468 0.5953227281570435
0.1472867727279663 -0.13178294897079468 0.5994219779968262
0.1472867727279663 -0.11627906560897827 -0.8972682952880859
0.1472867727279663 -0.11627906560897827 0.18530938029289246
0.1472867727279663 -0.11627906560897827 0.25535011291503906
0.1472867727279663 -0.11627906560897827 0.5250142216682434
0.1472867727279663 -0.11627906560897827 0.5953269600868225
0.1472867727279663 -0.11627906560897827 0.5993149280548096
0.1472867727279663 -0.10077518224716187 -0.9035347700119019
0.1472867727279663 -0.10077518224716187 0.1967221200466156
0.1472867727279663 -0.10077518224716187 0.23773732781410217
0.1472867727279663 -0.10077518224716187 0.5314825773239136
0.1472867727279663 -0.10077518224716187 0.5953247547149658
0.1472867727279663 -0.10077518224716187 0.5994188189506531
0.1472867727279663 -0.08527129888534546 -0.9061059951782227
0.1472867727279663 -0.08527129888534546 0.5365988612174988
0.1472867727279663 -0.08527129888534546 0.5952810049057007
0.1472867727279663 -0.08527129888534546 0.5999155640602112
0.1472867727279663 -0.06976741552352905 -0.9080683588981628
0.1472867727279663 -0.06976741552352905 0.5428099036216736
0.1472867727279663 -0.06976741552352905 0.5950157046318054
0.1472867727279663 -0.06976741552352905 0.6011573672294617
0.1472867727279663 -0.05426359176635742 -0.912102460861206
0.14728675782680511 -0.05426359176635742 0.5510063767433167
0.1472867727279663 -0.05426359176635742 0.5944579243659973
0.1472867727279663 -0.05426359176635742 0.604102611541748
0.1472867727279663 -0.038759708404541016 -0.9160935878753662
0.1472867727279663 -0.038759708404541016 0.5558620691299438
0.1472867727279663 -0.038759708404541016 0.5935280919075012
0.1472867727279663 -0.038759712129831314 0.6126258969306946
0.1472867727279663 -0.038759708404541016 0.655731201171875
0.1472867727279663 -0.038759708404541016 0.7078276872634888
0.1472867727279663 -0.02325582504272461 -0.9184532165527344
0.1472867727279663 -0.02325582504272461 0.5627802610397339
0.1472867727279663 -0.02325582504272461 0.5920979380607605
0.1472867727279663 -0.02325582504272461 0.6187905073165894
0.1472867727279663 -0.02325582504272461 0.6439357995986938
0.1472867727279663 -0.02325582504272461 0.7915118932723999
0.1472867727279663 -0.007751941215246916 -0.9193623065948486
0.1472867727279663 -0.007751941680908203 0.5676881670951843
0.1472867727279663 -0.007751941680908203 0.5907737016677856
0.1472867727279663 -0.007751941680908203 0.6235527992248535
0.1472867727279663 -0.007751941680908203 0.6345152258872986
0.1472867727279663 -0.007751941680908203 0.873577892780304
0.1472867727279663 -0.007751941680908203 0.9171422719955444
0.1472867727279663 -0.007751941215246916 0.9252493977546692
0.1472867727279663 0.007751941680908203 -0.9194057583808899
0.1472867727279663 0.007751941680908203 0.5680506825447083
0.1472867727279663 0.007751941680908203 0.5905637741088867
0.1472867727279663 0.007751941680908203 0.6258894205093384
0.1472867727279663 0.007751941680908203 0.6306543946266174
0.1472867727279663 0.007751941680908203 0.8808562755584717
0.1472867727279663 0.007751941680908203 0.9154090881347656
0.1472867727279663 0.007751941680908203 0.9258714318275452
0.1472867727279663 0.02325582504272461 -0.9187127947807312
0.1472867727279663 0.02325582504272461 0.5636820197105408
0.1472867727279663 0.02325582504272461 0.5912489891052246
0.1472867727279663 0.02325582504272461 0.624167799949646
0.1472867727279663 0.02325582504272461 0.6327532529830933
0.1472867727279663 0.02325582504272461 0.8663920164108276
0.1472867727279663 0.02325582504272461 0.9191972613334656
0.1472867727279663 0.02325582504272461 0.9240366816520691
0.1472867727279663 0.038759708404541016 -0.9166712760925293
0.1472867727279663 0.038759708404541016 0.5586568117141724
0.1472867727279663 0.038759708404541016 0.5925403833389282
0.1472867727279663 0.038759708404541016 0.6181616187095642
0.1472867727279663 0.038759708404541016 0.6417055130004883
0.1472867727279663 0.038759708404541016 0.7702991962432861
0.1472867727279663 0.05426359176635742 -0.9132006168365479
0.1472867727279663 0.05426359176635742 0.5543915033340454
0.1472867727279663 0.05426359176635742 0.5936293601989746
0.14728675782680511 0.05426359176635742 0.6130033135414124
0.1472867727279663 0.05426359176635742 0.6550992131233215
0.1472867727279663 0.05426359176635742 0.7067331075668335
0.1472867727279663 0.06976747512817383 -0.908839225769043
0.1472867727279663 0.06976747512817383 0.5505422353744507
0.1472867727279663 0.06976747512817383 0.5943132638931274
0.1472867727279663 0.06976747512817383 0.6065211296081543
0.1472867727279663 0.08527135848999023 -0.9063531160354614
0.1472867727279663 0.08527135848999023 0.19474604725837708
0.1472867727279663 0.08527136594057083 0.22605186700820923
0.1472867727279663 0.08527135848999023 0.5432722568511963
0.1472867727279663 0.08527135848999023 0.5947254300117493
0.1472867727279663 0.08527135848999023 0.6036136150360107
0.1472867727279663 0.10077524185180664 -0.9051458835601807
0.1472867727279663 0.10077524185180664 0.1872406005859375
0.1472867727279663 0.10077524185180664 0.23689307272434235
0.1472867727279663 0.10077524185180664 0.5377466082572937
0.1472867727279663 0.10077524185180664 0.5948598384857178
0.1472867727279663 0.10077524185180664 0.6025325655937195
0.1472867727279663 0.11627912521362305 -0.9021731615066528
0.14728675782680511 0.11627912521362305 0.17924414575099945
0.1472867727279663 0.11627912521362305 0.24830958247184753
0.1472867727279663 0.11627912521362305 0.5335486531257629
0.1472867727279663 0.11627912521362305 0.5948196649551392
0.1472867727279663 0.11627912521362305 0.6026232242584229
0.1472867727279663 0.1317828893661499 -0.895500898361206
0.1472867727279663 0.1317828893661499 0.1736663281917572
0.1472867727279663 0.1317828893661499 0.26142245531082153
0.1472867727279663 0.1317828893661499 0.5253696441650391
0.1472867727279663 0.1317828893661499 0.5947325825691223
0.1472867727279663 0.1317828893661499 0.6033908128738403
0.1472867727279663 0.1472867727279663 -0.8905871510505676
0.1472867727279663 0.1472867727279663 0.16771946847438812
0.1472867727279663 0.1472867727279663 0.27586087584495544
0.1472867727279663 0.1472867727279663 0.5198009014129639
0.1472867727279663 0.1472867727279663 0.5946332216262817
0.1472867727279663 0.1472867727279663 0.6039726138114929
0.1472867727279663 0.16279065608978271 -0.888224184513092
0.1472867727279663 0.16279065608978271 0.16200044751167297
0.1472867727279663 0.16279065608978271 0.29557371139526367
0.1472867727279663 0.16279065608978271 0.5093623399734497
0.1472867727279663 0.16279065608978271 0.594400942325592
0.1472867727279663 0.16279065608978271 0.6034356355667114
0.1472867727279663 0.17829453945159912 -0.8788979649543762
0.1472867727279663 0.17829453945159912 0.1552201807498932
0.1472867727279663 0.17829453945159912 0.3238111734390259
0.1472867727279663 0.17829453945159912 0.4972718060016632
0.1472867727279663 0.17829453945159912 0.5936661958694458
0.1472867727279663 0.17829453945159912 0.6024701595306396
0.1472867727279663 0.19379842281341553 -0.8735936880111694
0.1472867727279663 0.19379842281341553 0.14660315215587616
0.1472867727279663 0.19379842281341553 0.3583885133266449
0.1472867727279663 0.19379842281341553 0.48045262694358826
0.1472867727279663 0.19379842281341553 0.5921330451965332
0.1472867727279663 0.19379842281341553 0.6009120941162109
0.1472867727279663 0.20930230617523193 -0.8647775650024414
0.1472867727279663 0.20930230617523193 0.13668012619018555
0.1472867727279663 0.20930230617523193 0.40287911891937256
0.1472867727279663 0.20930230617523193 0.4526878297328949
0.1472867727279663 0.22480618953704834 -0.8579893112182617
0.1472867727279663 0.22480618953704834 -0.2660796046257019
0.1472867727279663 0.22480618953704834 -0.22400352358818054
0.1472867727279663 0.22480618953704834 0.1250794529914856
0.1472867727279663 0.24031007289886475 -0.8475073575973511
0.1472867727279663 0.24031007289886475 -0.2835957407951355
0.1472867727279663 0.24031007289886475 -0.19811536371707916
0.1472867727279663 0.24031007289886475 0.10976605117321014
0.1472867727279663 0.25581395626068115 -0.8409154415130615
0.1472867727279663 0.25581395626068115 -0.2975115180015564
0.1472867727279663 0.25581395626068115 -0.17749843001365662
0.1472867727279663 0.25581395626068115 0.09111645817756653
0.14728675782680511 0.27131783962249756 -0.8279853463172913
0.1472867727279663 0.27131783962249756 -0.3126666843891144
0.1472867727279663 0.27131783962249756 -0.1524624526500702
0.1472867727279663 0.27131783962249756 0.0671004056930542
0.1472867727279663 0.28682172298431396 -0.8178725242614746
0.1472867727279663 0.28682172298431396 -0.3293324112892151
0.1472867727279663 0.28682172298431396 -0.11803427338600159
0.1472867727279663 0.28682172298431396 0.019166380167007446
0.1472867727279663 0.30232560634613037 -0.8080133199691772
0.1472867727279663 0.30232560634613037 -0.3440028429031372
0.1472867727279663 0.3178294897079468 -0.7945884466171265
0.1472867727279663 0.3178294897079468 -0.35717636346817017
0.1472867727279663 0.3333333730697632 -0.7788844704627991
0.1472867727279663 0.3333333730697632 -0.37098178267478943
0.1472867727279663 0.3488372564315796 -0.7604540586471558
0.1472867727279663 0.3488372564315796 -0.38696014881134033
0.1472867727279663 0.364341139793396 -0.7354065179824829
0.1472867727279663 0.364341139793396 -0.4070459008216858
0.1472867727279663 0.37984490394592285 -0.7083016633987427
0.1472867727279663 0.37984490394592285 -0.43002980947494507
0.1472867727279663 0.39534878730773926 -0.6755041480064392
0.1472867727279663 0.39534878730773926 -0.45907527208328247
0.1472867727279663 0.41085267066955566 -0.6307536363601685
0.1472867727279663 0.41085267066955566 -0.4997325837612152
0.16279065608978271 -0.3798449635505676 -0.6246724128723145
0.16279065608978271 -0.3798449635505676 -0.5129936933517456
0.16279065608978271 -0.3643410801887512 -0.6735108494758606
0.16279065608978271 -0.36434105038642883 -0.46942245960235596
0.16279065608978271 -0.3488371968269348 -0.7033914923667908
0.16279065608978271 -0.3488371968269348 -0.4399286210536957
0.16279065608978271 -0.3333333134651184 -0.7290451526641846
0.16279065608978271 -0.3333333134651184 -0.4119292199611664
0.16279065608978271 -0.317829430103302 -0.7510174512863159
0.16279065608978271 -0.317829430103302 -0.3829748332500458
0.16279065608978271 -0.30232560634613037 -0.7720189690589905
0.16279065608978271 -0.30232560634613037 -0.35544541478157043
0.16279065608978271 -0.28682172298431396 -0.7890752553939819
0.16279065608978271 -0.28682172298431396 -0.33406174182891846
0.16279065608978271 -0.27131783962249756 -0.80308598279953
0.1627906709909439 -0.27131783962249756 -0.31645467877388
0.16279065608978271 -0.27131783962249756 -0.11973095685243607
0.16279065608978271 -0.27131783962249756 0.033076077699661255
0.16279065608978271 -0.25581395626068115 -0.8152896165847778
0.16279065608978271 -0.25581395626068115 -0.3023863434791565
0.16279065608978271 -0.25581395626068115 -0.16105227172374725
0.16279065608978271 -0.25581395626068115 0.07468245178461075
0.16279065608978271 -0.24031007289886475 -0.8279382586479187
0.16279065608978271 -0.24031007289886475 -0.2904589772224426
0.16279065608978271 -0.24031007289886475 -0.1912088841199875
0.16279065608978271 -0.24031007289886475 0.0979146882891655
0.16279065608978271 -0.22480618953704834 -0.8399717807769775
0.16279065608978271 -0.22480618953704834 -0.27478107810020447
0.16279065608978271 -0.22480618953704834 -0.21519717574119568
0.16279065608978271 -0.22480618953704834 0.11376011371612549
0.16279065608978271 -0.20930230617523193 -0.8488060235977173
0.16279065608978271 -0.20930230617523193 0.12741756439208984
0.16279065608978271 -0.19379842281341553 -0.8587508201599121
0.16279065608978271 -0.19379842281341553 0.14007294178009033
0.16279065608978271 -0.1782945990562439 -0.8667324781417847
0.16279065608978271 -0.1782945990562439 0.1480829417705536
0.16279065608978271 -0.1782945990562439 0.3846023678779602
0.16279065608978271 -0.1782945990562439 0.4532091021537781
0.16279065608978271 -0.1782945990562439 0.593485951423645
0.16279065608978271 -0.1782945990562439 0.5999675989151001
0.16279065608978271 -0.1627907156944275 -0.8739234209060669
0.16279065608978271 -0.1627907156944275 0.15780779719352722
0.16279065608978271 -0.1627907156944275 0.3447926938533783
0.16279065608978271 -0.1627907156944275 0.4763697683811188
0.16279065608978271 -0.1627907156944275 0.5944452881813049
0.16279065608978271 -0.1627907156944275 0.6008142828941345
0.16279065608978271 -0.14728683233261108 -0.8791888356208801
0.1627906709909439 -0.14728683233261108 0.1633090376853943
0.16279065608978271 -0.14728683233261108 0.3160591423511505
0.16279065608978271 -0.14728683233261108 0.4937800168991089
0.16279065608978271 -0.14728683233261108 0.5950465202331543
0.16279065608978271 -0.14728683233261108 0.6002582311630249
0.16279065608978271 -0.13178294897079468 -0.8868738412857056
0.16279065608978271 -0.13178294897079468 0.17004403471946716
0.16279065608978271 -0.13178294897079468 0.29821908473968506
0.16279065608978271 -0.13178294897079468 0.5051525831222534
0.16279065608978271 -0.13178294897079468 0.5952634811401367
0.16279065608978271 -0.13178294897079468 0.5997581481933594
0.16279065608978271 -0.11627906560897827 -0.89048171043396
0.16279065608978271 -0.11627906560897827 0.1758822649717331
0.16279065608978271 -0.11627906560897827 0.2808053493499756
0.16279065608978271 -0.11627906560897827 0.5119966864585876
0.16279065608978271 -0.11627906560897827 0.5953522324562073
0.16279065608978271 -0.11627906560897827 0.599489152431488
0.16279065608978271 -0.10077518224716187 -0.8949171304702759
0.16279065608978271 -0.10077518224716187 0.1839587390422821
0.16279065608978271 -0.10077518224716187 0.26343438029289246
0.1627906709909439 -0.10077518224716187 0.5195472240447998
0.16279065608978271 -0.10077518224716187 0.5954263210296631
0.1627906709909439 -0.10077518224716187 0.5994340181350708
0.16279065608978271 -0.08527129888534546 -0.9013809561729431
0.16279065608978271 -0.08527129888534546 0.1945515275001526
0.16279065608978271 -0.08527129888534546 0.24503013491630554
0.16279065608978271 -0.08527129888534546 0.524076521396637
0.16279065608978271 -0.08527129888534546 0.5954863429069519
0.16279065608978271 -0.08527129888534546 0.599755048751831
0.16279065608978271 -0.06976741552352905 -0.9051714539527893
0.16279065608978271 -0.06976741552352905 0.5325366854667664
0.16279065608978271 -0.06976741552352905 0.5953839421272278
0.16279065608978271 -0.06976741552352905 0.6006899476051331
0.16279065608978271 -0.05426359549164772 -0.9066867232322693
0.16279065608978271 -0.05426359176635742 0.5377049446105957
0.16279065608978271 -0.05426359176635742 0.5951229333877563
0.16279065608978271 -0.05426358804106712 0.6028745770454407
0.16279065608978271 -0.038759708404541016 -0.9082953333854675
0.16279065608978271 -0.038759708404541016 0.5435377359390259
0.16279065608978271 -0.038759708404541016 0.5947505831718445
0.16279065608978271 -0.038759708404541016 0.6086743474006653
0.16279065608978271 -0.02325582504272461 -0.9104104042053223
0.16279065608978271 -0.02325582504272461 0.5491900444030762
0.16279065608978271 -0.02325582504272461 0.5942597985267639
0.16279065608978271 -0.02325582504272461 0.6138951778411865
0.16279065608978271 -0.007751941680908203 -0.91190505027771
0.16279065608978271 -0.007751941680908203 0.5513278245925903
0.16279065608978271 -0.007751941680908203 0.5938383936882019
0.16279065608978271 -0.007751941680908203 0.615418016910553
0.16279065608978271 0.007751941680908203 -0.9119170904159546
0.1627906709909439 0.00775194214656949 0.5516420006752014
0.16279065608978271 0.007751941680908203 0.5937343239784241
0.16279065608978271 0.007751941680908203 0.6160132884979248
0.16279065608978271 0.02325582504272461 -0.9105286598205566
0.16279065608978271 0.02325582504272461 0.5507357120513916
0.16279065608978271 0.02325582504272461 0.5938943028450012
0.16279065608978271 0.02325582504272461 0.6152337789535522
0.16279065608978271 0.038759708404541016 -0.9081737995147705
0.16279065608978271 0.038759708404541016 0.5477529168128967
0.16279065608978271 0.038759708404541016 0.5942161083221436
0.16279065608978271 0.038759708404541016 0.6135401725769043
0.16279065608978271 0.05426359176635742 -0.9064979553222656
0.16279065608978271 0.05426359176635742 0.20841427147388458
0.16279065608978271 0.05426359176635742 0.21089988946914673
0.16279065608978271 0.05426359176635742 0.5433366298675537
0.16279065608978271 0.05426359176635742 0.5945813059806824
0.16279065608978271 0.05426359176635742 0.6106186509132385
0.16279064118862152 0.06976747512817383 -0.905310332775116
0.16279065608978271 0.06976747512817383 0.19263416528701782
0.16279065608978271 0.06976747512817383 0.23132365942001343
0.16279065608978271 0.06976747512817383 0.5385393500328064
0.16279065608978271 0.06976747512817383 0.594866156578064
0.16279065608978271 0.06976747512817383 0.6057395935058594
0.16279065608978271 0.08527135848999023 -0.9027102589607239
0.16279065608978271 0.08527135848999023 0.18557314574718475
0.16279065608978271 0.08527135848999023 0.24265451729297638
0.16279065608978271 0.08527136594057083 0.5351648926734924
0.16279065608978271 0.08527135848999023 0.5950803160667419
0.16279065608978271 0.08527135848999023 0.6034998893737793
0.16279065608978271 0.10077524185180664 -0.897019624710083
0.16279065608978271 0.10077524185180664 0.1777723729610443
0.16279065608978271 0.10077524185180664 0.2523849904537201
0.16279065608978271 0.10077524185180664 0.5282700657844543
0.16279065608978271 0.10077524185180664 0.5951321721076965
0.16279065608978271 0.10077524185180664 0.6027027368545532
0.16279065608978271 0.11627912521362305 -0.8919191360473633
0.16279065608978271 0.11627912521362305 0.17303860187530518
0.16279065608978271 0.11627912521362305 0.26449054479599
0.16279065608978271 0.11627912521362305 0.5222660303115845
0.16279065608978271 0.11627912521362305 0.5950825810432434
0.16279065608978271 0.11627912521362305 0.6029974818229675
0.1627906709909439 0.1317828893661499 -0.8896404504776001
0.16279065608978271 0.1317828893661499 0.16680900752544403
0.16279065608978271 0.1317828893661499 0.2797224819660187
0.16279065608978271 0.1317828893661499 0.5159902572631836
0.16279065608978271 0.1317828893661499 0.5949848294258118
0.16279065608978271 0.1317828893661499 0.6040686964988708
0.16279065608978271 0.1472867727279663 -0.8856630325317383
0.16279065608978271 0.1472867727279663 0.16136272251605988
0.16279065608978271 0.1472867727279663 0.30024853348731995
0.16279065608978271 0.1472867727279663 0.5070464611053467
0.16279065608978271 0.1472867727279663 0.5947907567024231
0.16279065608978271 0.1472867727279663 0.604529857635498
0.16279065608978271 0.16279065608978271 -0.877006471157074
0.16279065608978271 0.16279065608978271 0.15616193413734436
0.16279065608978271 0.16279065608978271 0.3267236351966858
0.16279065608978271 0.16279065608978271 0.49595075845718384
0.16279065608978271 0.16279065608978271 0.5942004919052124
0.16279065608978271 0.16279065608978271 0.6034160256385803
0.16279065608978271 0.17829453945159912 -0.8733367323875427
0.1627906709909439 0.17829453945159912 0.14829093217849731
0.16279065608978271 0.17829453945159912 0.35613101720809937
0.16279065608978271 0.17829453945159912 0.48007428646087646
0.16279065608978271 0.17829453945159912 0.5930669903755188
0.16279065608978271 0.17829453945159912 0.6016942858695984
0.16279065608978271 0.19379842281341553 -0.8648024201393127
0.16279065608978271 0.19379842281341553 0.1401059329509735
0.16279065608978271 0.19379842281341553 0.3957068622112274
0.16279065608978271 0.19379842281341553 0.45562976598739624
0.16279065608978271 0.19379842281341553 0.59669029712677
0.16279065608978271 0.19379842281341553 0.5970155000686646
0.16279064118862152 0.20930230617523193 -0.8580945730209351
0.16279065608978271 0.20930230617523193 -0.2609809339046478
0.16279065608978271 0.20930230617523193 -0.23357126116752625
0.16279065608978271 0.20930230617523193 0.12824396789073944
0.16279065608978271 0.22480618953704834 -0.8493382334709167
0.16279065608978271 0.22480617463588715 -0.2803160548210144
0.16279065608978271 0.22480618953704834 -0.20551660656929016
0.16279065608978271 0.22480618953704834 0.11439613997936249
0.16279065608978271 0.24031008780002594 -0.8417860269546509
0.16279065608978271 0.24031007289886475 -0.2937281131744385
0.16279065608978271 0.24031007289886475 -0.1838882565498352
0.16279065608978271 0.24031007289886475 0.09705735743045807
0.16279064118862152 0.25581392645835876 -0.8291240930557251
0.16279065608978271 0.25581395626068115 -0.3080744445323944
0.16279065608978271 0.25581395626068115 -0.16268451511859894
0.16279065608978271 0.25581395626068115 0.07468177378177643
0.16279065608978271 0.27131783962249756 -0.8214099407196045
0.16279065608978271 0.27131783962249756 -0.3246222734451294
0.16279065608978271 0.27131783962249756 -0.13185375928878784
0.16279065608978271 0.27131783962249756 0.04074782878160477
0.16279065608978271 0.28682172298431396 -0.8100579977035522
0.16279065608978271 0.28682172298431396 -0.34163838624954224
0.16279065608978271 0.28682172298431396 -0.05485149845480919
0.1627906709909439 0.28682172298431396 -0.053892239928245544
0.16279065608978271 0.30232560634613037 -0.7960256338119507
0.16279065608978271 0.30232560634613037 -0.3550841808319092
0.16279065608978271 0.3178294897079468 -0.7810333967208862
0.16279065608978271 0.3178294897079468 -0.3678012192249298
0.16279065608978271 0.3333333730697632 -0.7645578384399414
0.16279065608978271 0.3333333730697632 -0.3822632133960724
0.16279065608978271 0.3488372564315796 -0.7446755170822144
0.16279065608978271 0.3488372564315796 -0.3989381790161133
0.16279065608978271 0.364341139793396 -0.7184287309646606
0.16279065608978271 0.364341139793396 -0.4198985695838928
0.1627906709909439 0.37984490394592285 -0.6892514228820801
0.16279065608978271 0.37984490394592285 -0.4449230432510376
0.16279065608978271 0.39534878730773926 -0.6513494253158569
0.16279065608978271 0.39534878730773926 -0.4783473312854767
0.16279065608978271 0.41085267066955566 -0.5859715938568115
0.16279065608978271 0.41085267066955566 -0.5441117286682129
0.17829453945159912 -0.3643410801887512 -0.6478480100631714
0.17829453945159912 -0.3643410801887512 -0.49238497018814087
0.17829453945159912 -0.3488371968269348 -0.6842430233955383
0.17829453945159912 -0.3488371968269348 -0.45758068561553955
0.17829453945159912 -0.3333333134651184 -0.712833821773529
0.17829453945159912 -0.3333333134651184 -0.42933040857315063
0.17829453945159912 -0.317829430103302 -0.7357218861579895
0.17829453945159912 -0.317829430103302 -0.4014039635658264
0.17829453945159912 -0.30232560634613037 -0.7582618594169617
0.17829453945159912 -0.30232560634613037 -0.37314826250076294
0.17829453945159912 -0.28682172298431396 -0.7764801979064941
0.17829453945159912 -0.28682172298431396 -0.34932857751846313
0.17829453945159912 -0.27131783962249756 -0.7926820516586304
0.17829455435276031 -0.27131783962249756 -0.32937726378440857
0.17829453945159912 -0.27131783962249756 -0.07442958652973175
0.17829453945159912 -0.27131783962249756 -0.020793257281184196
0.17829453945159912 -0.25581395626068115 -0.8069587349891663
0.17829453945159912 -0.25581395626068115 -0.3137560486793518
0.17829453945159912 -0.25581395626068115 -0.12877246737480164
0.17829453945159912 -0.25581395626068115 0.0495234876871109
0.17829453945159912 -0.24031007289886475 -0.8186010122299194
0.17829453945159912 -0.24031008780002594 -0.3011597692966461
0.17829453945159912 -0.24031007289886475 -0.16749823093414307
0.17829453945159912 -0.24031007289886475 0.08295459300279617
0.17829455435276031 -0.22480618953704834 -0.8293470144271851
0.17829453945159912 -0.22480618953704834 -0.28972625732421875
0.17829453945159912 -0.22480618953704834 -0.19594423472881317
0.17829453945159912 -0.22480620443820953 0.1034669578075409
0.17829453945159912 -0.20930230617523193 -0.8412245512008667
0.17829453945159912 -0.20930230617523193 -0.2747544050216675
0.17829453945159912 -0.20930230617523193 -0.2167862355709076
0.17829452455043793 -0.20930229127407074 0.11758273839950562
0.17829453945159912 -0.19379842281341553 -0.8498547673225403
0.17829453945159912 -0.19379842281341553 0.12975028157234192
0.17829453945159912 -0.1782945990562439 -0.8585430979728699
0.17829453945159912 -0.1782945990562439 0.1416410654783249
0.17829453945159912 -0.1627907156944275 -0.8652596473693848
0.17829453945159912 -0.1627907156944275 0.14861388504505157
0.17829453945159912 -0.1627907156944275 0.3970552980899811
0.17829453945159912 -0.1627907156944275 0.4414077699184418
0.17829453945159912 -0.1627907156944275 0.5945569276809692
0.17829455435276031 -0.1627907156944275 0.5989798307418823
0.17829453945159912 -0.14728683233261108 -0.8726440072059631
0.17829453945159912 -0.14728683233261108 0.15672047436237335
0.17829453945159912 -0.14728683233261108 0.3641079366207123
0.17829453945159912 -0.14728683233261108 0.46513813734054565
0.17829453945159912 -0.14728683233261108 0.5942875146865845
0.17829453945159912 -0.14728683233261108 0.6004123687744141
0.17829453945159912 -0.13178294897079468 -0.8760126829147339
0.17829453945159912 -0.13178294897079468 0.16195687651634216
0.17829453945159912 -0.13178294897079468 0.33948323130607605
0.17829453945159912 -0.13178294897079468 0.4829081892967224
0.17829453945159912 -0.13178294897079468 0.5946781635284424
0.17829453945159912 -0.13178294897079468 0.6005334258079529
0.17829453945159912 -0.11627906560897827 -0.8832672834396362
0.17829453945159912 -0.11627906560897827 0.16766971349716187
0.17829453945159912 -0.11627906560897827 0.31963127851486206
0.17829453945159912 -0.11627907305955887 0.4940919876098633
0.17829453945159912 -0.11627906560897827 0.5949586033821106
0.17829453945159912 -0.11627906560897827 0.6002859473228455
0.17829453945159912 -0.10077518224716187 -0.8888720273971558
0.17829453945159912 -0.10077518224716187 0.17398791015148163
0.17829453945159912 -0.10077518224716187 0.30036526918411255
0.17829453945159912 -0.10077518224716187 0.504034698009491
0.17829453945159912 -0.10077518224716187 0.5951976180076599
0.17829453945159912 -0.10077518224716187 0.5999963879585266
0.17829455435276031 -0.08527129888534546 -0.8914254903793335
0.17829453945159912 -0.08527129888534546 0.1806262582540512
0.17829453945159912 -0.08527129888534546 0.27932214736938477
0.17829453945159912 -0.08527129888534546 0.5099568963050842
0.17829453945159912 -0.08527129888534546 0.595421552658081
0.17829453945159912 -0.08527129888534546 0.6000291109085083
0.17829453945159912 -0.06976741552352905 -0.896310567855835
0.17829453945159912 -0.06976741552352905 0.19040878117084503
0.17829453945159912 -0.06976741552352905 0.2604101002216339
0.17829453945159912 -0.06976741552352905 0.5194545984268188
0.17829453945159912 -0.06976741552352905 0.595509946346283
0.17829453945159912 -0.06976741552352905 0.6004696488380432
0.17829453945159912 -0.05426358804106712 -0.9019981026649475
0.17829453945159912 -0.05426359176635742 0.20168566703796387
0.17829453945159912 -0.05426359176635742 0.24348053336143494
0.17829453945159912 -0.05426359176635742 0.5242559909820557
0.17829453945159912 -0.05426359176635742 0.5954722166061401
0.17829453945159912 -0.05426359176635742 0.6016119718551636
0.17829453945159912 -0.038759708404541016 -0.9048122763633728
0.17829453945159912 -0.038759708404541016 0.5309715867042542
0.17829453945159912 -0.038759708404541016 0.5953729152679443
0.17829453945159912 -0.038759708404541016 0.6046016216278076
0.17829452455043793 -0.02325582318007946 -0.905877947807312
0.17829452455043793 -0.02325582504272461 0.535294234752655
0.17829453945159912 -0.02325582504272461 0.5952131152153015
0.17829453945159912 -0.02325582504272461 0.6110957264900208
0.17829453945159912 -0.007751941680908203 -0.9062886238098145
0.17829453945159912 -0.007751941680908203 0.5364593863487244
0.17829453945159912 -0.007751941680908203 0.5950682759284973
0.17829453945159912 -0.007751941680908203 0.6129040718078613
0.17829455435276031 0.007751941680908203 -0.9062244892120361
0.17829455435276031 0.007751941680908203 0.5368351340293884
0.17829453945159912 0.007751941680908203 0.5950044393539429
0.17829455435276031 0.007751941680908203 0.6132020950317383
0.17829453945159912 0.02325582504272461 -0.9057331085205078
0.17829453945159912 0.02325582504272461 0.20771639049053192
0.17829453945159912 0.02325582504272461 0.22580021619796753
0.17829453945159912 0.02325582504272461 0.5362138748168945
0.17829453945159912 0.02325582504272461 0.5950289368629456
0.17829453945159912 0.02325582504272461 0.6129277348518372
0.17829453945159912 0.038759708404541016 -0.9046164155006409
0.17829453945159912 0.038759708404541016 0.19556193053722382
0.17829453945159912 0.038759708404541016 0.23606520891189575
0.17829453945159912 0.038759708404541016 0.5352290868759155
0.17829453945159912 0.038759708404541016 0.595080554485321
0.17829453945159912 0.038759708404541016 0.6113099455833435
0.17829453945159912 0.05426359176635742 -0.901867151260376
0.17829453945159912 0.05426359176635742 0.18856161832809448
0.17829453945159912 0.05426359176635742 0.2448512315750122
0.17829453945159912 0.05426359176635742 0.5324106812477112
0.17829453945159912 0.05426359176635742 0.5951789617538452
0.17829453945159912 0.05426359176635742 0.6064721345901489
0.17829453945159912 0.06976747512817383 -0.8960360288619995
0.17829453945159912 0.06976747512817383 0.18154335021972656
0.17829453945159912 0.06976747512817383 0.2527303397655487
0.17829453945159912 0.06976747512817383 0.5270625352859497
0.17829453945159912 0.06976747512817383 0.5952562689781189
0.17829453945159912 0.06976747512817383 0.6038545966148376
0.17829453945159912 0.08527135848999023 -0.8916187286376953
