0.27131783962249756 0.23049870133399963 -0.7209302186965942
0.27131783962249756 0.23797304928302765 -0.7054263353347778
0.27131783962249756 0.23439432680606842 -0.42635661363601685
0.27131783962249756 0.2459227442741394 -0.6899224519729614
0.27131783962249756 0.2519146800041199 -0.674418568611145
0.27131783962249756 0.2548860013484955 -0.4728682041168213
0.27131783962249756 0.2498238980770111 -0.4573643207550049
0.27131783962249756 0.2409607619047165 -0.4418604075908661
0.27131783962249756 0.2584479749202728 -0.6589146852493286
0.27131783962249756 0.2628037631511688 -0.643410861492157
0.27131783962249756 0.26581260561943054 -0.6279069781303406
0.27131783962249756 0.2694891393184662 -0.6124030947685242
0.27131783962249756 0.27071279287338257 -0.5348837375640869
0.27131783962249756 0.2682613432407379 -0.5193798542022705
0.27131783962249756 0.2646990120410919 -0.5038759708404541
0.27131783962249756 0.25978583097457886 -0.4883720874786377
0.27131783962249756 0.27139079570770264 -0.596899151802063
0.27131783962249756 0.27269622683525085 -0.5813953876495361
0.27131783962249756 0.2730135917663574 -0.565891444683075
0.27131786942481995 0.2721605598926544 -0.5503876805305481
0.28682172298431396 -0.24070337414741516 -0.5968992114067078
0.28682172298431396 -0.24160131812095642 -0.5813953876495361
0.28682172298431396 -0.24202026426792145 -0.5658915042877197
0.28682172298431396 -0.24161691963672638 -0.5503876209259033
0.28682172298431396 -0.24089454114437103 -0.5348837375640869
0.28682172298431396 -0.2265724092721939 -0.6589146852493286
0.28682172298431396 -0.23097266256809235 -0.643410861492157
0.28682172298431396 -0.2342991679906845 -0.6279069781303406
0.28682175278663635 -0.23840047419071198 -0.6124030947685242
0.28682172298431396 -0.23810450732707977 -0.5193798542022705
0.28682172298431396 -0.23296961188316345 -0.5038759708404541
0.28682172298431396 -0.22769127786159515 -0.4883720874786377
0.28682172298431396 -0.21327745914459229 -0.6899224519729614
0.28682172298431396 -0.21915152668952942 -0.674418568611145
0.28682172298431396 -0.22200839221477509 -0.4728682041168213
0.28682172298431396 -0.2129288762807846 -0.4573643207550049
0.28682172298431396 -0.19693680107593536 -0.7209302186965942
0.28682172298431396 -0.2040792852640152 -0.7054263353347778
0.28682172298431396 -0.20619556307792664 -0.4418604373931885
0.28682172298431396 -0.19635920226573944 -0.42635661363601685
0.28682172298431396 -0.18610861897468567 -0.7364341020584106
0.28682172298431396 -0.18796901404857635 -0.41085273027420044
0.28682172298431396 -0.17466793954372406 -0.751937985420227
0.28682172298431396 -0.17772276699543 -0.39534884691238403
0.28682172298431396 -0.1669386327266693 -0.3798449635505676
0.28682172298431396 -0.16209039092063904 -0.7674418687820435
0.28682172298431396 -0.15494304895401 -0.3643410801887512
0.2868216931819916 -0.14596790075302124 -0.7829457521438599
0.28682172298431396 -0.13954368233680725 -0.3488371968269348
0.28682172298431396 -0.12725970149040222 -0.7984496355056763
0.28682172298431396 -0.11795996874570847 -0.3333333134651184
0.28682172298431396 -0.11885258555412292 -0.02325582504272461
0.28682172298431396 -0.12423549592494965 -0.007751941680908203
0.28682172298431396 -0.12635807693004608 0.007751941215246916
0.28682172298431396 -0.1245858296751976 0.02325582504272461
0.28682172298431396 -0.11994938552379608 0.038759708404541016
0.28682172298431396 -0.10470236837863922 -0.8139535188674927
0.28682172298431396 -0.10181485861539841 -0.05426359176635742
0.28682172298431396 -0.11278244107961655 -0.038759708404541016
0.28682172298431396 -0.11362724751234055 0.05426359176635742
0.28682172298431396 -0.102546326816082 0.06976747512817383
0.28682172298431396 -0.08542308956384659 -0.317829430103302
0.28682172298431396 -0.09119312465190887 -0.06976741552352905
0.28682172298431396 -0.08616063743829727 0.08527135848999023
0.28682172298431396 -0.07090674340724945 -0.8294573426246643
0.28682172298431396 -0.07935203611850739 -0.08527129888534546
0.28682172298431396 -0.06460925191640854 -0.10077518224716187
0.28682172298431396 -0.06361345201730728 0.10077524185180664
0.28682172298431396 -0.04155036062002182 -0.30232560634613037
0.28682172298431396 -0.04282836616039276 -0.11627906560897827
0.28682172298431396 0.023631233721971512 -0.11627906560897827
0.28682172298431396 0.05061601102352142 -0.30232560634613037
0.28682172298431396 0.047116659581661224 -0.10077518224716187
0.28682172298431396 0.044507917016744614 0.10077524185180664
0.28682172298431396 0.06648697704076767 -0.08527129888534546
0.28682172298431396 0.0751250684261322 -0.8294572830200195
0.28682172298431396 0.08137495815753937 -0.06976741552352905
0.28682172298431396 0.07178474217653275 0.08527135848999023
0.28682172298431396 0.0977618619799614 -0.317829430103302
0.28682172298431396 0.09254033863544464 -0.05426359176635742
0.28682172298431396 0.10073909163475037 -0.038759708404541016
0.28682172298431396 0.0911545604467392 0.06976747512817383
0.28682172298431396 0.1086304634809494 -0.8139535188674927
0.28682172298431396 0.107862189412117 -0.02325582504272461
0.28682172298431396 0.11354278028011322 -0.007751941680908203
0.28682172298431396 0.11293753981590271 0.038759708404541016
0.28682172298431396 0.10396714508533478 0.05426359176635742
0.28682172298431396 0.13147568702697754 -0.7984496355056763
0.28682172298431396 0.12770144641399384 -0.3333333134651184
0.28682172298431396 0.11629261821508408 0.007751941680908203
0.28682172298431396 0.11641281098127365 0.02325582504272461
0.28682172298431396 0.15437601506710052 -0.7829457521438599
0.28682172298431396 0.14886116981506348 -0.3488371968269348
0.28682172298431396 0.1715833842754364 -0.7674418687820435
0.28682172298431396 0.16712990403175354 -0.3643410801887512
0.28682172298431396 0.1866123080253601 -0.751937985420227
0.28682172298431396 0.19343654811382294 -0.39534884691238403
0.28682172298431396 0.1817639023065567 -0.3798449635505676
0.28682172298431396 0.19919534027576447 -0.7364341020584106
0.28682172298431396 0.20923836529254913 -0.7209302186965942
0.28682172298431396 0.2054252326488495 -0.41085273027420044
0.28682172298431396 0.21842306852340698 -0.7054263353347778
0.28682172298431396 0.22270558774471283 -0.4418604373931885
0.28682172298431396 0.2137935757637024 -0.42635661363601685
0.28682172298431396 0.2277010977268219 -0.6899224519729614
0.28682172298431396 0.23389068245887756 -0.674418568611145
0.28682172298431396 0.237125962972641 -0.4728682041168213
0.28682172298431396 0.2297656238079071 -0.4573643207550049
0.28682172298431396 0.24100421369075775 -0.6589146852493286
0.28682172298431396 0.24578002095222473 -0.6434108018875122
0.28682172298431396 0.24889636039733887 -0.6279069781303406
0.28682172298431396 0.25255581736564636 -0.6124030947685242
0.28682172298431396 0.25482267141342163 -0.5968992114067078
0.28682172298431396 0.2552405595779419 -0.5503876209259033
0.28682172298431396 0.253700852394104 -0.5348837375640869
0.28682172298431396 0.2503495514392853 -0.5193798542022705
0.28682172298431396 0.24598059058189392 -0.5038759708404541
0.28682172298431396 0.2407384216785431 -0.4883720874786377
0.28682172298431396 0.2559328079223633 -0.5813953876495361
0.28682172298431396 0.2560635209083557 -0.5658915042877197
0.30232560634613037 -0.21298962831497192 -0.643410861492157
0.30232560634613037 -0.21648046374320984 -0.6279069781303406
0.30232560634613037 -0.21943500638008118 -0.6124030947685242
0.30232560634613037 -0.22199183702468872 -0.5968992114067078
0.302325576543808 -0.223247691988945 -0.5813953876495361
0.30232560634613037 -0.22360116243362427 -0.5658915042877197
0.30232560634613037 -0.22259093821048737 -0.5503876209259033
0.30232560634613037 -0.22096875309944153 -0.5348837375640869
0.30232560634613037 -0.21647566556930542 -0.5193798542022705
0.30232560634613037 -0.2122432440519333 -0.5038759708404541
0.30232560634613037 -0.2001032829284668 -0.674418568611145
0.302325576543808 -0.20675599575042725 -0.6589146256446838
0.30232560634613037 -0.20716825127601624 -0.4883720874786377
0.30232560634613037 -0.198770672082901 -0.4728682041168213
0.30232560634613037 -0.1835208386182785 -0.7054263353347778
0.30232560634613037 -0.19256821274757385 -0.6899224519729614
0.30232560634613037 -0.19177354872226715 -0.4573643207550049
0.30232560634613037 -0.18248021602630615 -0.4418604373931885
0.30232560634613037 -0.1721695065498352 -0.7209302186965942
0.30232560634613037 -0.17415308952331543 -0.42635661363601685
0.30232560634613037 -0.1632121205329895 -0.41085273027420044
0.30232560634613037 -0.14897610247135162 -0.751937985420227
0.30232560634613037 -0.16170138120651245 -0.7364340424537659
0.30232560634613037 -0.15239757299423218 -0.39534884691238403
0.30232560634613037 -0.13340801000595093 -0.7674418687820435
0.30232560634613037 -0.1400185227394104 -0.3798449635505676
0.30232560634613037 -0.12431299686431885 -0.3643410801887512
0.30232560634613037 -0.1149437353014946 -0.7829457521438599
0.30232560634613037 -0.10439812391996384 -0.3488371968269348
0.30232560634613037 -0.09292269498109818 -0.7984496355056763
0.30232560634613037 -0.09045453369617462 -0.007751941680908203
0.30232560634613037 -0.09473156929016113 0.007751941680908203
0.30232560634613037 -0.09534984827041626 0.02325582504272461
0.30232560634613037 -0.09158077090978622 0.038759708404541016
0.30232560634613037 -0.07777386158704758 -0.3333333134651184
0.30232560634613037 -0.07481202483177185 -0.038759708404541016
0.30232560634613037 -0.08358824998140335 -0.02325582504272461
0.30232560634613037 -0.0846564769744873 0.05426359176635742
0.30232560634613037 -0.07216569036245346 0.06976747512817383
0.30232560634613037 -0.05930507928133011 -0.8139535188674927
0.30232560634613037 -0.06392250210046768 -0.05426359176635742
0.30232560634613037 -0.03936576098203659 -0.317829430103302
0.30232560634613037 -0.04963044822216034 -0.06976741552352905
0.30232560634613037 -0.04962306469678879 0.08527135848999023
0.30232560634613037 0.019725097343325615 -0.06976741552352905
0.30232560634613037 0.03668447211384773 -0.05426359176635742
0.30232560634613037 0.024309858679771423 0.08527136594057083
0.30232560634613037 0.04224744811654091 -0.317829430103302
0.30232560634613037 0.05135878548026085 -0.038759708404541016
0.30232560634613037 0.06427738070487976 -0.8139535188674927
0.30232560634613037 0.06292056292295456 -0.02325582504272461
0.30232560634613037 0.054652612656354904 0.06976747512817383
0.30232560634613037 0.07326686382293701 -0.007751941680908203
0.30232560634613037 0.08085823804140091 0.007751941680908203
0.30232560634613037 0.08353395760059357 0.02325582504272461
0.30232560634613037 0.08040161430835724 0.038759708404541016
0.30232560634613037 0.07112070918083191 0.05426359176635742
0.30232560634613037 0.09802009165287018 -0.7984496355056763
0.30232560634613037 0.08533341437578201 -0.3333333134651184
0.30232560634613037 0.11415722221136093 -0.3488371968269348
0.30232560634613037 0.12377497553825378 -0.7829457521438599
0.30232560634613037 0.14180298149585724 -0.7674418687820435
0.30232560634613037 0.13708823919296265 -0.3643410801887512
0.30232560634613037 0.1584213674068451 -0.751937985420227
0.30232560634613037 0.15597805380821228 -0.3798449635505676
0.30232560634613037 0.17259792983531952 -0.7364341020584106
0.30232560634613037 0.17048047482967377 -0.39534884691238403
0.30232560634613037 0.18545731902122498 -0.7209302186965942
0.30232560634613037 0.19167429208755493 -0.42635661363601685
0.30232560634613037 0.18133515119552612 -0.41085273027420044
0.30232560634613037 0.1967729777097702 -0.7054263353347778
0.30232560634613037 0.20485302805900574 -0.6899224519729614
0.30232560634613037 0.20807397365570068 -0.4573643207550049
0.30232560634613037 0.20153486728668213 -0.4418604373931885
0.30232560634613037 0.21424101293087006 -0.674418568611145
0.30232560634613037 0.22013135254383087 -0.6589146852493286
0.30232560634613037 0.2218499630689621 -0.4883720874786377
0.30232560634613037 0.21553537249565125 -0.4728681743144989
0.302325576543808 0.22711984813213348 -0.643410861492157
0.30232560634613037 0.23037590086460114 -0.6279069781303406
0.30232560634613037 0.23332412540912628 -0.6124030947685242
0.30232560634613037 0.2360280156135559 -0.5968992114067078
0.30232560634613037 0.23771913349628448 -0.5813953876495361
0.30232560634613037 0.23800820112228394 -0.5658915042877197
0.30232560634613037 0.23689240217208862 -0.5503876209259033
0.30232560634613037 0.23442715406417847 -0.5348837375640869
0.30232560634613037 0.23010577261447906 -0.5193798542022705
0.30232560634613037 0.22537605464458466 -0.5038759708404541
0.3178294897079468 -0.1977490484714508 -0.6279069781303406
0.3178294897079468 -0.20062412321567535 -0.6124030947685242
0.3178294897079468 -0.20219384133815765 -0.5968992114067078
0.3178294897079468 -0.2031758427619934 -0.5813953876495361
0.3178294897079468 -0.2032320350408554 -0.5658915042877197
0.3178294897079468 -0.2017635703086853 -0.5503876209259033
0.3178294897079468 -0.19991673529148102 -0.5348837375640869
0.3178294897079468 -0.19644097983837128 -0.5193798542022705
0.3178294897079468 -0.17885158956050873 -0.674418568611145
0.3178294897079468 -0.18552544713020325 -0.6589146852493286
0.3178294897079468 -0.19260574877262115 -0.643410861492157
0.3178294897079468 -0.19205771386623383 -0.5038759708404541
0.3178294897079468 -0.18436644971370697 -0.4883720874786377
0.3178294897079468 -0.16916902363300323 -0.6899224519729614
0.3178294897079468 -0.17763322591781616 -0.4728682339191437
0.3178294897079468 -0.16794583201408386 -0.4573643207550049
0.3178294897079468 -0.15726342797279358 -0.7054263353347778
0.3178294897079468 -0.15970991551876068 -0.4418604373931885
0.3178294897079468 -0.14779701828956604 -0.42635661363601685
0.3178294897079468 -0.13333572447299957 -0.7364341020584106
0.3178294897079468 -0.146188423037529 -0.7209302186965942
0.3178294897079468 -0.13561445474624634 -0.41085273027420044
0.3178294897079468 -0.11845633387565613 -0.751937985420227
0.3178294897079468 -0.12273581326007843 -0.39534884691238403
0.3178294897079468 -0.10682626813650131 -0.3798449635505676
0.3178294897079468 -0.09950196743011475 -0.7674419283866882
0.3178294897079468 -0.08741600811481476 -0.3643410801887512
0.3178294897079468 -0.07720242440700531 -0.7829457521438599
0.3178294897079468 -0.0710744708776474 0.02325582504272461
0.3178294897079468 -0.06382627040147781 -0.3488371968269348
0.3178294897079468 -0.06062565743923187 -0.007751941680908203
0.3178294897079468 -0.06921503692865372 0.007751941215246916
0.3178294897079468 -0.06693146377801895 0.03875970467925072
0.3178294897079468 -0.05683966726064682 0.05426359176635742
0.3178294897079468 -0.042811620980501175 -0.7984496355056763
0.3178294897079468 -0.027174487709999084 -0.3333333134651184
0.3178294897079468 -0.029605349525809288 0.06976747512817383
0.3178294897079468 0.0025889119133353233 -0.007751941680908203
0.3178294897079468 -0.002078572753816843 0.06976747512817383
0.3178294897079468 0.024539731442928314 -0.333333283662796
0.3178294897079468 0.032750487327575684 0.007751941680908203
0.3178294897079468 0.03203611820936203 0.05426359176635742
0.3178294897079468 0.04932495579123497 -0.7984496355056763
0.3178294897079468 0.04498394578695297 0.02325582504272461
0.3178294897079468 0.04384151101112366 0.038759708404541016
0.3178294897079468 0.06825588643550873 -0.3488371968269348
0.3178294897079468 0.08568321913480759 -0.7829457521438599
0.3178294897079468 0.09769658744335175 -0.3643410801887512
0.3178294897079468 0.11008596420288086 -0.7674418687820435
0.3178294897079468 0.12786853313446045 -0.751937985420227
0.3178294897079468 0.12077569961547852 -0.3798449635505676
0.3178294897079468 0.14351782202720642 -0.7364341020584106
0.3178294897079468 0.1388324499130249 -0.39534884691238403
0.3178294897079468 0.1575172245502472 -0.7209302186965942
0.3178294897079468 0.15305009484291077 -0.41085273027420044
0.3178294897079468 0.17042171955108643 -0.7054263353347778
0.3178294897079468 0.1753205955028534 -0.4418604373931885
0.3178294897079468 0.16355885565280914 -0.42635661363601685
0.3178294897079468 0.18245482444763184 -0.6899224519729614
0.3178294897079468 0.19018739461898804 -0.674418568611145
0.3178294897079468 0.1913973093032837 -0.4728682041168213
0.3178294897079468 0.18338435888290405 -0.4573643207550049
0.3178294897079468 0.19906333088874817 -0.6589146852493286
0.3178294897079468 0.2041742205619812 -0.643410861492157
0.3178294897079468 0.20812749862670898 -0.5193798542022705
0.3178294897079468 0.2040325403213501 -0.5038759708404541
0.3178294897079468 0.19722822308540344 -0.4883721172809601
0.3178294897079468 0.20981775224208832 -0.6279069781303406
0.3178294897079468 0.21284246444702148 -0.6124030947685242
0.3178294897079468 0.21464011073112488 -0.5968992114067078
0.3178294897079468 0.2159435898065567 -0.5813953876495361
0.3178294897079468 0.21618030965328217 -0.5658915042877197
0.3178294897079468 0.2147541642189026 -0.5503876209259033
0.3178294897079468 0.21197181940078735 -0.5348837375640869
0.3333333730697632 -0.18067336082458496 -0.5968992114067078
0.3333333730697632 -0.1816006600856781 -0.5813953876495361
0.3333333730697632 -0.1814524531364441 -0.5658915042877197
0.3333333730697632 -0.1799858659505844 -0.5503876209259033
0.3333333730697632 -0.16763436794281006 -0.643410861492157
0.3333333730697632 -0.17223134636878967 -0.6279069781303406
0.3333333730697632 -0.17793944478034973 -0.6124030947685242
0.3333333432674408 -0.17793913185596466 -0.5348837375640869
0.3333333730697632 -0.17247983813285828 -0.5193798542022705
0.3333333730697632 -0.1661260724067688 -0.5038759708404541
0.3333333730697632 -0.15133222937583923 -0.674418568611145
0.3333333730697632 -0.15886805951595306 -0.6589146852493286
0.3333333730697632 -0.1598348170518875 -0.4883720874786377
0.3333333730697632 -0.14934127032756805 -0.4728682041168213
0.3333333730697632 -0.13914275169372559 -0.6899224519729614
0.3333333730697632 -0.13891519606113434 -0.4573643207550049
0.3333333730697632 -0.12612131237983704 -0.7054263353347778
0.3333333730697632 -0.12785129249095917 -0.4418604373931885
0.3333333730697632 -0.11286507546901703 -0.7209302186965942
0.3333333730697632 -0.11406046897172928 -0.42635661363601685
0.3333333730697632 -0.09716306626796722 -0.7364341020584106
0.3333333730697632 -0.09927812218666077 -0.41085273027420044
0.3333333730697632 -0.07800845056772232 -0.751937985420227
0.3333333730697632 -0.08268991112709045 -0.39534884691238403
0.3333333730697632 -0.062067341059446335 -0.3798449635505676
0.33333340287208557 -0.05333705618977547 -0.7674418687820435
0.3333333730697632 -0.02982187084853649 -0.3643410801887512
0.3333333730697632 -0.0027351833414286375 -0.7829458117485046
0.3333333730697632 0.01179334707558155 -0.7829457521438599
0.3333333730697632 0.02960830181837082 -0.3643410801887512
0.3333333730697632 0.06395255774259567 -0.7674418687820435
0.3333333730697632 0.06921868771314621 -0.3798449635505676
0.3333333730697632 0.09193597733974457 -0.751937985420227
0.3333333730697632 0.09494252502918243 -0.39534884691238403
0.3333333730697632 0.11010685563087463 -0.7364341020584106
0.3333333730697632 0.11323259770870209 -0.41085273027420044
0.3333333730697632 0.12553036212921143 -0.7209302186965942
0.3333333730697632 0.12798109650611877 -0.42635661363601685
0.3333333730697632 0.13949835300445557 -0.7054263353347778
0.3333333730697632 0.14106452465057373 -0.4418604373931885
0.3333333730697632 0.15275007486343384 -0.6899224519729614
0.3333333730697632 0.15987558662891388 -0.4728682041168213
0.3333333730697632 0.14964884519577026 -0.4573643207550049
0.3333333730697632 0.16345135867595673 -0.674418568611145
0.3333333730697632 0.17096060514450073 -0.6589146852493286
0.3333333730697632 0.17506013810634613 -0.5038759708404541
0.3333333730697632 0.1674029380083084 -0.4883720874786377
0.3333333730697632 0.17938263714313507 -0.643410861492157
0.3333333730697632 0.1833052933216095 -0.6279069781303406
0.3333333730697632 0.18643733859062195 -0.6124030947685242
0.3333333730697632 0.18934258818626404 -0.5968992114067078
0.3333333730697632 0.19086572527885437 -0.5813953876495361
0.3333333730697632 0.19084016978740692 -0.5658915042877197
0.3333333730697632 0.18910573422908783 -0.5503876209259033
0.3333333730697632 0.1855306178331375 -0.5348837375640869
0.3333333730697632 0.17982208728790283 -0.5193798542022705
0.3488372564315796 -0.14982613921165466 -0.5968992114067078
0.3488372564315796 -0.1511516273021698 -0.5813953876495361
0.3488372564315796 -0.15108716487884521 -0.5658915042877197
0.3488372564315796 -0.14945127069950104 -0.5503876209259033
0.3488372564315796 -0.13399860262870789 -0.643410861492157
0.3488372564315796 -0.1395414173603058 -0.6279069781303406
0.3488372564315796 -0.14610037207603455 -0.6124030947685242
0.348837286233902 -0.1466062366962433 -0.5348837375640869
0.3488372564315796 -0.13962100446224213 -0.5193798542022705
0.3488372564315796 -0.13212552666664124 -0.5038759708404541
0.3488372564315796 -0.12385469675064087 -0.6589146852493286
0.3488372564315796 -0.12164632976055145 -0.4883720874786377
0.3488372564315796 -0.1036270409822464 -0.6899224519729614
0.3488372564315796 -0.1146981492638588 -0.674418568611145
0.3488372564315796 -0.11048872768878937 -0.4728682041168213
0.3488372564315796 -0.08841760456562042 -0.7054263353347778
0.3488372564315796 -0.096700020134449 -0.4573642909526825
0.3488372564315796 -0.06994181871414185 -0.7209302186965942
0.3488372564315796 -0.08249814063310623 -0.4418604373931885
0.3488372564315796 -0.06523016095161438 -0.42635661363601685
0.3488372564315796 -0.04645366966724396 -0.7364341020584106
0.3488372564315796 -0.04283761978149414 -0.41085273027420044
0.3488372564315796 0.0025259433314204216 -0.751937985420227
0.3488372564315796 0.009794244542717934 -0.751937985420227
0.3488372564315796 0.04809536784887314 -0.41085273027420044
0.3488372564315796 0.058116815984249115 -0.7364341616630554
0.3488372564315796 0.08143045753240585 -0.7209302186965942
0.3488372564315796 0.07404157519340515 -0.42635661363601685
0.3488372564315796 0.10041116178035736 -0.7054263353347778
0.3488372564315796 0.09340474754571915 -0.4418604373931885
0.3488372564315796 0.11503742635250092 -0.6899224519729614
0.3488372564315796 0.1065828800201416 -0.4573643207550049
0.3488372564315796 0.12574231624603271 -0.674418568611145
0.3488372564315796 0.1285422146320343 -0.4883720874786377
0.3488372564315796 0.11760464310646057 -0.4728682041168213
0.3488372564315796 0.137054443359375 -0.6589146852493286
0.3488372564315796 0.14468422532081604 -0.643410861492157
0.3488372564315796 0.14463725686073303 -0.5193798542022705
0.3488372564315796 0.1367044448852539 -0.5038759708404541
0.3488372564315796 0.15061041712760925 -0.6279069781303406
0.3488372564315796 0.1533767282962799 -0.6124030947685242
0.3488372564315796 0.155807226896286 -0.5968992114067078
0.3488372564315796 0.1571890115737915 -0.5813953876495361
0.3488372564315796 0.15674573183059692 -0.5658915042877197
0.3488372564315796 0.1541624665260315 -0.5503876209259033
0.3488372564315796 0.14975273609161377 -0.5348837375640869
0.364341139793396 -0.10336773842573166 -0.6124030947685242
0.364341139793396 -0.10642331838607788 -0.5968992114067078
0.364341139793396 -0.10848039388656616 -0.5813953876495361
0.364341139793396 -0.10818791389465332 -0.5658915042877197
0.364341139793396 -0.10527168214321136 -0.5503876209259033
0.364341139793396 -0.10119865834712982 -0.5348837375640869
0.364341139793396 -0.08919002115726471 -0.643410861492157
0.364341139793396 -0.09710775315761566 -0.6279069781303406
0.364341139793396 -0.09188897907733917 -0.5193798542022705
0.364341139793396 -0.07834506034851074 -0.6589146852493286
0.3643411695957184 -0.08087916672229767 -0.5038759708404541
0.3643411099910736 -0.06574544310569763 -0.674418568611145
0.364341139793396 -0.06702512502670288 -0.4883720576763153
0.364341139793396 -0.04794197529554367 -0.6899224519729614
0.364341139793396 -0.050001442432403564 -0.4728682041168213
0.364341139793396 -0.02331596426665783 -0.4573643207550049
0.364341139793396 -0.019636813551187515 -0.7054263353347778
0.364341139793396 0.0258202962577343 -0.7054263353347778
0.3643411099910736 0.025575678795576096 -0.4573643207550049
0.3643411099910736 0.05796752870082855 -0.6899224519729614
0.364341139793396 0.05480464547872543 -0.4728682041168213
0.364341139793396 0.07647767663002014 -0.674418568611145
0.364341139793396 0.0723579078912735 -0.4883720874786377
0.364341139793396 0.0905749499797821 -0.6589146852493286
0.364341139793396 0.09832758456468582 -0.5193798542022705
0.364341139793396 0.08668213337659836 -0.5038759708404541
0.364341139793396 0.10204847157001495 -0.643410861492157
0.364341139793396 0.10783936083316803 -0.6279069781303406
0.364341139793396 0.11375176906585693 -0.6124030947685242
0.364341139793396 0.11622938513755798 -0.5968992114067078
0.364341139793396 0.11557498574256897 -0.5658915042877197
0.364341139793396 0.11218453198671341 -0.5503876209259033
0.364341139793396 0.10638958215713501 -0.5348837375640869
0.364341139793396 0.11677668988704681 -0.5813954472541809
0.37984490394592285 -0.03929641470313072 -0.6124030947685242
0.37984490394592285 -0.043450478464365005 -0.5968992114067078
0.37984490394592285 -0.04496578127145767 -0.5813953876495361
0.37984490394592285 -0.042386494576931 -0.5658915042877197
0.37984490394592285 -0.02845260500907898 -0.6279069781303406
0.37984490394592285 -0.03364642336964607 -0.5503876209259033
0.37984490394592285 -0.01790131814777851 -0.5348837375640869
0.37984490394592285 -0.007288593798875809 -0.643410861492157
0.37984490394592285 0.010958842933177948 -0.643410861492157
0.37984490394592285 0.032664231956005096 -0.6279069781303406
0.37984490394592285 0.023388326168060303 -0.5348837375640869
0.37984490394592285 0.04401152580976486 -0.6124030947685242
0.37984490394592285 0.04907993972301483 -0.5968992114067078
0.37984490394592285 0.05112754553556442 -0.5813953876495361
0.37984490394592285 0.04784409701824188 -0.5658915042877197
0.37984490394592285 0.039108503609895706 -0.5503876209259033
0.39534878730773926 -0.054564252495765686 0.06976747512817383
0.39534878730773926 -0.05409017577767372 0.06976747512817383
0.41085267066955566 -0.07062730193138123 0.05426359176635742
0.41085267066955566 -0.07382059097290039 0.06976747512817383
0.41085267066955566 -0.061160869896411896 0.05426359176635742
0.41085267066955566 -0.04958309233188629 0.06976747512817383
0.42635655403137207 -0.08584649115800858 0.06976747512817383
0.42635655403137207 -0.07565036416053772 0.08527135848999023
0.42635655403137207 -0.05281520262360573 0.06976747512817383
0.42635655403137207 -0.05408398061990738 0.08527135848999023
0.4418604373931885 -0.08746263384819031 0.06976747512817383
0.4418604373931885 -0.0868150070309639 0.08527135848999023
0.4418604373931885 -0.06438741087913513 0.06976747512817383
0.4418604373931885 -0.06194675341248512 0.08527135848999023
0.4573643207550049 -0.08704102039337158 0.06976747512817383
0.4573643207550049 -0.08988705277442932 0.08527135848999023
0.4573642909526825 -0.07875114679336548 0.06976747512817383
0.4573643207550049 -0.06650098413228989 0.08527135848999023
0.4728681743144989 -0.09902157634496689 0.08527135848999023
0.4728682041168213 -0.09109453856945038 0.10077524185180664
0.4728682041168213 -0.07701322436332703 0.08527135848999023
0.4728682041168213 -0.07512839883565903 0.10077524185180664
0.4883720874786377 -0.10370025783777237 0.10077524185180664
0.4883720874786377 -0.0807642787694931 0.10077523440122604
0.5038759708404541 -0.11481714248657227 0.10077524185180664
0.5038759708404541 -0.1061093732714653 0.11627912521362305
0.5038759708404541 -0.09304297715425491 0.10077524185180664
0.5038759708404541 -0.08587202429771423 0.11627912521362305
0.5193798542022705 -0.11948920786380768 0.11627912521362305
0.5193798542022705 -0.11005520820617676 0.1317828893661499
0.5193798542022705 -0.09743046760559082 0.11627912521362305
0.5193798542022705 -0.09945148229598999 0.1317828893661499
0.5348837375640869 -0.12466517090797424 0.11627912521362305
0.5348837375640869 -0.1271866261959076 0.1317828893661499
0.5348837375640869 -0.11766480654478073 0.1472867727279663
0.5348837375640869 -0.11505880206823349 0.11627912521362305
0.5348837375640869 -0.10670363903045654 0.1317828893661499
0.5348837375640869 -0.11453182250261307 0.1472867727279663
0.5503876209259033 -0.13451027870178223 0.1317828893661499
0.5503876209259033 -0.1324930191040039 0.1472867727279663
0.5503876209259033 -0.11906176805496216 0.1317828893661499
0.5503876209259033 -0.11280696094036102 0.1472867727279663
0.5658915042877197 -0.1359354555606842 0.1472867727279663
0.5658915042877197 -0.12287740409374237 0.1472867727279663
0.5813953876495361 -0.14793908596038818 0.1472867727279663
0.5813953876495361 -0.13961374759674072 0.1472867727279663
0.5813953876495361 -0.13791325688362122 0.16279065608978271
0.5813953876495361 -0.1277303248643875 0.16279065608978271
0.5968992710113525 -0.150071382522583 0.16279065608978271
0.5968992710113525 -0.14760947227478027 0.17829453945159912
0.5968992710113525 -0.13846692442893982 0.16279065608978271
0.5968992710113525 -0.13983169198036194 0.17829453945159912
0.612403154373169 -0.16376513242721558 0.16279065608978271
0.612403154373169 -0.1627962589263916 0.17829453945159912
0.612403154373169 -0.14717470109462738 0.16279064118862152
0.612403154373169 -0.14265106618404388 0.17829453945159912
0.6279069185256958 -0.16336022317409515 0.16279065608978271
0.6279069185256958 -0.16645808517932892 0.17829453945159912
0.6279069185256958 -0.16452527046203613 0.19379842281341553
0.6279069185256958 -0.16192498803138733 0.16279065608978271
0.6279069185256958 -0.15368714928627014 0.17829453945159912
0.6279069185256958 -0.1535295695066452 0.19379842281341553
0.6434108018875122 -0.1791660338640213 0.17829453945159912
0.6434108018875122 -0.17352747917175293 0.19379842281341553
0.6434108018875122 -0.16044408082962036 0.17829452455043793
0.6434108018875122 -0.15901152789592743 0.19379842281341553
0.6589146852493286 -0.17958107590675354 0.17829453945159912
0.6589146852493286 -0.18038815259933472 0.19379842281341553
0.6589146852493286 -0.17518560588359833 0.17829453945159912
0.6589146852493286 -0.1682264804840088 0.19379842281341553
0.674418568611145 -0.18352311849594116 0.19379842281341553
0.674418568611145 -0.1805279701948166 0.20930230617523193
0.674418568611145 -0.17524605989456177 0.19379842281341553
0.674418568611145 -0.17627957463264465 0.20930230617523193
0.6899224519729614 -0.19559165835380554 0.20930230617523193
0.6899224519729614 -0.18783719837665558 0.20930230617523193
0.7054263353347778 -0.20955893397331238 0.20930230617523193
0.7054263353347778 -0.20052148401737213 0.22480618953704834
0.7054263353347778 -0.19121813774108887 0.20930230617523193
0.7054263353347778 -0.19230271875858307 0.22480618953704834
0.7209302186965942 -0.2137461155653 0.20930230617523193
0.7209302186965942 -0.2191179245710373 0.22480618953704834
0.7209302186965942 -0.21141406893730164 0.24031007289886475
0.7209302186965942 -0.2038961946964264 0.20930230617523193
0.7209302186965942 -0.19987446069717407 0.22480618953704834
0.7209302186965942 -0.20630836486816406 0.24031007289886475
0.7364341020584106 -0.22815726697444916 0.22480618953704834
0.7364341020584106 -0.22539536654949188 0.24031007289886475
0.7364341020584106 -0.2064574807882309 0.22480618953704834
0.7364341020584106 -0.20710846781730652 0.24031007289886475
0.751937985420227 -0.22553636133670807 0.22480618953704834
0.751937985420227 -0.2269834280014038 0.24031007289886475
0.751937985420227 -0.22317767143249512 0.22480618953704834
0.751937985420227 -0.21889297664165497 0.24031007289886475
0.7829457521438599 -0.24335885047912598 0.25581395626068115
0.7829457521438599 -0.24137894809246063 0.27131783962249756
0.7829457521438599 -0.22382298111915588 0.25581395626068115
0.7829457521438599 -0.22435934841632843 0.27131783962249756
0.7984496355056763 -0.2500379681587219 0.27131783962249756
0.7984496355056763 -0.2447923868894577 0.28682172298431396
0.7984496355056763 -0.23118992149829865 0.27131783962249756
0.7984496355056763 -0.23150962591171265 0.28682172298431396
-0.8449611663818359 -0.06976741552352905 0.26633787155151367
-0.8449612259864807 -0.06976741552352905 0.28293222188949585
-0.8449612855911255 -0.05426359176635742 0.2599744498729706
-0.8449612259864807 -0.05426359176635742 0.2863937318325043
-0.8294572830200195 -0.05426359176635742 0.2506759762763977
-0.8294573426246643 -0.05426359176635742 0.27882158756256104
-0.8139535188674927 -0.05426359176635742 0.253629207611084
-0.8139535188674927 -0.05426359176635742 0.2568782866001129
-0.7984496355056763 -0.038759708404541016 0.2348160594701767
-0.7984496355056763 -0.038759708404541016 0.24127337336540222
-0.7829457521438599 -0.038759708404541016 0.21728572249412537
-0.7829457521438599 -0.038759708404541016 0.22961831092834473
-0.7674418687820435 -0.038759708404541016 0.20615771412849426
-0.7674418687820435 -0.038759708404541016 0.22269219160079956
-0.7674418687820435 -0.02325582504272461 0.20234712958335876
-0.7674418687820435 -0.02325582504272461 0.22662389278411865
-0.751937985420227 -0.02325582504272461 0.18737837672233582
-0.751937985420227 -0.02325582504272461 0.2157767117023468
-0.7364341020584106 -0.02325582504272461 0.17606596648693085
-0.7364341020584106 -0.02325582504272461 0.20389360189437866
-0.7364341020584106 -0.007751941680908203 0.1755601018667221
-0.7364341020584106 -0.007751941680908203 0.20473620295524597
-0.7209302186965942 -0.02325582504272461 0.17469094693660736
-0.7209302186965942 -0.02325582504272461 0.18422836065292358
-0.7209302186965942 -0.007751941680908203 0.16651460528373718
-0.720930278301239 -0.00775194214656949 0.196114644408226
-0.7209302186965942 0.007751941680908203 0.17310307919979095
-0.7209302186965942 0.007751941680908203 0.18464472889900208
-0.7054263353347778 -0.007751941680908203 0.15946078300476074
-0.7054263353347778 -0.007751941680908203 0.18157438933849335
-0.7054263353347778 0.007751941680908203 0.15913362801074982
-0.7054262757301331 0.007751941215246916 0.18120907247066498
-0.6899224519729614 -0.007751941680908203 0.15794144570827484
-0.6899224519729614 -0.007751941680908203 0.16822384297847748
-0.6899224519729614 0.007751941680908203 0.15279142558574677
-0.6899224519729614 0.007751941680908203 0.17174731194972992
-0.6899224519729614 0.02325582504272461 0.15588301420211792
-0.6899224519729614 0.02325582504272461 0.17058873176574707
-0.674418568611145 0.007751941680908203 0.1444488912820816
-0.6744186282157898 0.007751941680908203 0.16493405401706696
-0.674418568611145 0.02325582504272461 0.14422686398029327
-0.674418568611145 0.02325582690536976 0.16605666279792786
-0.674418568611145 0.038759708404541016 0.15285292267799377
-0.674418568611145 0.038759708404541016 0.1643548309803009
-0.6589146852493286 0.007751941680908203 0.141572505235672
-0.6589146852493286 0.007751941680908203 0.15269887447357178
-0.6589146852493286 0.02325582504272461 0.13820351660251617
-0.6589146852493286 0.02325582504272461 0.16285376250743866
-0.6589146852493286 0.038759708404541016 0.14122773706912994
-0.6589146852493286 0.03875970467925072 0.1633959263563156
-0.643410861492157 0.007751941680908203 0.1304587572813034
-0.643410861492157 0.007751941680908203 0.14786051213741302
-0.643410861492157 0.02325582504272461 0.1284456104040146
-0.643410861492157 0.02325582504272461 0.1509469598531723
-0.643410861492157 0.038759708404541016 0.12882693111896515
-0.643410861492157 0.038759708404541016 0.15295885503292084
-0.6279069781303406 0.007751941680908203 0.12697023153305054
-0.6279069781303406 0.007751941680908203 0.13537520170211792
-0.6279069781303406 0.02325582504272461 0.12242619693279266
-0.6279069781303406 0.02325582504272461 0.14387981593608856
-0.6279069781303406 0.038759708404541016 0.12381517887115479
-0.6279070377349854 0.038759712129831314 0.14804258942604065
-0.6124030351638794 0.007751941215246916 0.12352104485034943
-0.6124030351638794 0.007751941215246916 0.1319950371980667
-0.6124030947685242 0.02325582504272461 0.11308702081441879
-0.6124030947685242 0.02325582504272461 0.13416753709316254
-0.6124030947685242 0.038759708404541016 0.11361777782440186
-0.6124030947685242 0.038759708404541016 0.13481318950653076
-0.5968992114067078 0.007751941680908203 0.11252696812152863
-0.5968992114067078 0.007751941680908203 0.11856656521558762
-0.596899151802063 0.02325582504272461 0.10722978413105011
-0.5968992114067078 0.02325582504272461 0.12157629430294037
-0.5968992114067078 0.038759708404541016 0.1091778576374054
-0.5968992114067078 0.038759708404541016 0.12149260938167572
-0.5813953876495361 0.007751941680908203 0.11599870026111603
-0.5813953876495361 0.007751941680908203 0.11629794538021088
-0.5813953876495361 0.02325582504272461 0.09867401421070099
-0.5813953876495361 0.02325582504272461 0.11799179017543793
-0.5813953876495361 0.038759708404541016 0.10400283336639404
-0.5813953876495361 0.038759708404541016 0.11716442555189133
-0.5658915042877197 0.007751941680908203 0.09895358234643936
-0.5658915042877197 0.007751941680908203 0.10201462358236313
-0.5658915042877197 0.02325582504272461 0.09227410703897476
-0.5658915042877197 0.02325582318007946 0.10571953654289246
-0.5658915042877197 0.038759708404541016 0.09757100045681
-0.5658915042877197 0.038759708404541016 0.10280176997184753
-0.5503876209259033 0.007751941680908203 0.09756457060575485
-0.5503876209259033 0.007751941680908203 0.10117226839065552
-0.5503876209259033 0.02325582504272461 0.08389624953269958
-0.5503876209259033 0.02325582504272461 0.10300962626934052
-0.5503876209259033 0.038759708404541016 0.09777147322893143
-0.5503876209259033 0.038759708404541016 0.10125329345464706
-0.5348837375640869 0.007751941680908203 0.08427950739860535
-0.5348837375640869 0.00775194214656949 0.08696205914020538
-0.5348837375640869 0.02325582504272461 0.07876807451248169
-0.5348837375640869 0.02325582504272461 0.09715431183576584
-0.5193798542022705 0.02325582504272461 0.07376310229301453
-0.5193798542022705 0.02325582504272461 0.08818791806697845
-0.5038759708404541 0.02325582504272461 0.06878571212291718
-0.5038759708404541 0.02325582504272461 0.08544985949993134
-0.4883720874786377 0.02325582504272461 0.066001296043396
-0.4883720874786377 0.02325582504272461 0.075923852622509
-0.4728682041168213 0.02325582504272461 0.06135803461074829
-0.4728682041168213 0.02325582504272461 0.07417941093444824
-0.4573643207550049 0.02325582504272461 0.051244646310806274
-0.4573643207550049 0.02325582504272461 0.0730375424027443
-0.4573643207550049 0.038759708404541016 0.06714901328086853
-0.4573643207550049 0.038759712129831314 0.07083449512720108
-0.4418604373931885 0.007751941680908203 0.052752453833818436
-0.4418604373931885 0.007751941680908203 0.059662558138370514
-0.4418604373931885 0.02325582504272461 0.04500141739845276
-0.4418604373931885 0.02325582504272461 0.0723101794719696
-0.4418604373931885 0.038759708404541016 0.053257446736097336
-0.44186046719551086 0.038759708404541016 0.07047475129365921
-0.42635661363601685 0.007751941680908203 0.05131965130567551
-0.42635661363601685 0.007751941680908203 0.05661623924970627
-0.42635661363601685 0.02325582504272461 0.035892438143491745
-0.42635661363601685 0.02325582504272461 0.0703589990735054
-0.42635661363601685 0.038759708404541016 0.047102831304073334
-0.42635661363601685 0.038759708404541016 0.06609176099300385
-0.41085273027420044 0.02325582504272461 0.03235718607902527
-0.41085273027420044 0.02325582504272461 0.06041284650564194
-0.41085273027420044 0.038759708404541016 0.03608997166156769
-0.41085273027420044 0.038759708404541016 0.05903187394142151
-0.39534884691238403 0.02325582504272461 0.02879081666469574
-0.39534881711006165 0.02325582318007946 0.05433811619877815
-0.39534884691238403 0.038759708404541016 0.032287802547216415
-0.39534884691238403 0.038759708404541016 0.05492009222507477
-0.3798449635505676 0.038759708404541016 0.023146092891693115
-0.3798449635505676 0.038759708404541016 0.04131145775318146
-0.3488371968269348 -0.06976741552352905 -0.6270805597305298
-0.3488371968269348 -0.06976741552352905 -0.5547080039978027
-0.3488371968269348 -0.05426359176635742 -0.6561846733093262
-0.3488371968269348 -0.05426359176635742 -0.5230485200881958
-0.3488371968269348 -0.038759712129831314 -0.6727146506309509
-0.3488371968269348 -0.038759708404541016 -0.5049103498458862
-0.3488371968269348 -0.02325582504272461 -0.6824839115142822
-0.3488371968269348 -0.02325582504272461 -0.49243706464767456
-0.3488371968269348 -0.007751941680908203 -0.6903342008590698
-0.3488371968269348 -0.007751941680908203 -0.4850432574748993
-0.3488371968269348 0.007751941680908203 -0.6924586296081543
-0.3488371968269348 0.00775194214656949 -0.4823581576347351
-0.3488371968269348 0.02325582504272461 -0.690182089805603
-0.3488371968269348 0.02325582504272461 -0.4861065745353699
-0.3488371968269348 0.038759708404541016 -0.6829866170883179
-0.3488371968269348 0.038759708404541016 -0.4946335554122925
-0.3488371968269348 0.05426359176635742 -0.6745778918266296
-0.3488371968269348 0.05426359176635742 -0.5065510869026184
-0.3488371968269348 0.06976747512817383 -0.6594765782356262
-0.3488371968269348 0.06976747512817383 -0.5228238105773926
-0.3488371968269348 0.08527135848999023 -0.6325628757476807
-0.3488371968269348 0.08527135848999023 -0.5455535054206848
-0.3333333134651184 -0.11627906560897827 -0.6376756429672241
-0.3333333432674408 -0.11627907305955887 -0.5498162508010864
-0.3333333134651184 -0.10077518224716187 -0.6713098883628845
-0.3333333134651184 -0.10077518224716187 -0.5088825821876526
-0.3333333134651184 -0.08527129888534546 -0.6913532018661499
-0.3333333134651184 -0.08527129888534546 -0.48217761516571045
-0.3333333134651184 -0.06976741552352905 -0.7051899433135986
-0.3333333134651184 -0.06976741552352905 -0.460594117641449
-0.3333333134651184 -0.05426359176635742 -0.7152279615402222
-0.3333333134651184 -0.05426358804106712 -0.4410829544067383
-0.3333333134651184 -0.038759708404541016 -0.7255517244338989
-0.3333333134651184 -0.038759708404541016 -0.42354369163513184
-0.3333333134651184 -0.02325582504272461 -0.7308098077774048
-0.3333333134651184 -0.02325582504272461 -0.41245436668395996
-0.3333333134651184 -0.007751941680908203 -0.7367044687271118
-0.3333333134651184 -0.007751941680908203 -0.4063514769077301
-0.3333333134651184 0.007751941680908203 -0.7392877340316772
-0.3333333134651184 0.00775194214656949 -0.404030978679657
-0.3333333134651184 0.02325582504272461 -0.7366726994514465
-0.3333333134651184 0.02325582504272461 -0.4061802327632904
-0.3333333134651184 0.038759708404541016 -0.7314172983169556
-0.3333333134651184 0.038759708404541016 -0.4126209616661072
-0.3333333134651184 0.05426359176635742 -0.7262824177742004
-0.3333333134651184 0.05426359176635742 -0.4216042757034302
-0.3333333134651184 0.06976747512817383 -0.7158386707305908
-0.3333333134651184 0.06976747512817383 -0.4359835982322693
-0.3333333134651184 0.08527135848999023 -0.7045074701309204
-0.3333333134651184 0.08527135848999023 -0.45430833101272583
-0.333333283662796 0.10077524185180664 -0.6886745691299438
-0.3333333134651184 0.10077524185180664 -0.4754539430141449
-0.3333333134651184 0.11627912521362305 -0.6651383638381958
-0.3333333134651184 0.11627912521362305 -0.49950850009918213
-0.3333333134651184 0.1317828893661499 -0.6322652101516724
-0.3333333134651184 0.1317828893661499 -0.5274457931518555
-0.317829430103302 -0.14728683233261108 -0.6484849452972412
-0.317829430103302 -0.14728683233261108 -0.5384372472763062
-0.317829430103302 -0.13178294897079468 -0.6802765130996704
-0.317829430103302 -0.13178294897079468 -0.49448925256729126
-0.317829430103302 -0.11627906560897827 -0.7024512887001038
-0.317829430103302 -0.11627906560897827 -0.46054184436798096
-0.317829430103302 -0.10077518224716187 -0.7199562191963196
-0.317829430103302 -0.10077518224716187 -0.4324718117713928
-0.317829430103302 -0.08527129888534546 -0.7328087091445923
-0.3178294003009796 -0.08527129143476486 -0.4104281961917877
-0.317829430103302 -0.06976741552352905 -0.7442395091056824
-0.317829430103302 -0.06976741552352905 -0.39456138014793396
-0.317829430103302 -0.05426359176635742 -0.7539258003234863
-0.317829430103302 -0.05426359176635742 -0.3824276626110077
-0.317829430103302 -0.038759708404541016 -0.7600479125976562
-0.317829430103302 -0.038759708404541016 -0.37265467643737793
-0.317829430103302 -0.02325582504272461 -0.7641149163246155
-0.317829430103302 -0.02325582504272461 -0.3669552803039551
-0.317829430103302 -0.007751941680908203 -0.7691965103149414
-0.317829430103302 -0.007751941215246916 -0.36363738775253296
-0.317829430103302 0.007751941680908203 -0.7713993787765503
-0.317829430103302 0.007751941680908203 -0.36153334379196167
-0.317829430103302 0.02325582504272461 -0.7690905332565308
-0.317829430103302 0.02325582504272461 -0.3620949685573578
-0.317829430103302 0.038759708404541016 -0.7644295692443848
-0.317829430103302 0.038759708404541016 -0.36490243673324585
-0.317829430103302 0.05426359176635742 -0.7606513500213623
-0.317829430103302 0.05426359176635742 -0.36852413415908813
-0.317829430103302 0.06976747512817383 -0.7545421123504639
-0.317829430103302 0.06976747512817383 -0.37576836347579956
-0.317829430103302 0.08527135848999023 -0.7440136671066284
-0.317829430103302 0.08527135848999023 -0.3851047158241272
-0.317829430103302 0.10077523440122604 -0.7305723428726196
-0.317829430103302 0.10077524185180664 -0.3990055322647095
-0.317829430103302 0.11627912521362305 -0.7145859003067017
-0.317829430103302 0.11627912521362305 -0.417705237865448
-0.317829430103302 0.1317828893661499 -0.696246862411499
-0.317829430103302 0.1317828893661499 -0.4417634904384613
-0.317829430103302 0.1472867727279663 -0.6761707067489624
-0.317829430103302 0.1472867727279663 -0.46715739369392395
-0.317829430103302 0.16279065608978271 -0.6472742557525635
-0.317829430103302 0.16279065608978271 -0.49661076068878174
-0.317829430103302 0.17829453945159912 -0.5866950154304504
-0.317829430103302 0.17829453945159912 -0.5422962307929993
-0.30232560634613037 -0.1782945841550827 -0.6428126096725464
-0.30232560634613037 -0.1782945990562439 -0.5476925373077393
-0.30232560634613037 -0.1627907156944275 -0.6790438890457153
-0.30232560634613037 -0.1627907156944275 -0.4984244108200073
-0.30232560634613037 -0.14728683233261108 -0.702578067779541
-0.30232560634613037 -0.14728683233261108 -0.4588037133216858
-0.30232560634613037 -0.13178294897079468 -0.7237887382507324
-0.30232560634613037 -0.13178294897079468 -0.4245373606681824
-0.30232560634613037 -0.11627906560897827 -0.7414267063140869
-0.30232560634613037 -0.11627906560897827 -0.3993985056877136
-0.30232560634613037 -0.10077518224716187 -0.7554030418395996
-0.30232560634613037 -0.10077518224716187 -0.3828166723251343
-0.30232560634613037 -0.08527129888534546 -0.7642175555229187
-0.30232560634613037 -0.08527129888534546 -0.3701285123825073
-0.30232560634613037 -0.06976741552352905 -0.7748652696609497
-0.30232560634613037 -0.06976741552352905 -0.3606823980808258
-0.30232560634613037 -0.05426359176635742 -0.7796392440795898
-0.30232560634613037 -0.05426359176635742 -0.35245615243911743
-0.30232560634613037 -0.038759708404541016 -0.7874010801315308
-0.30232560634613037 -0.038759708404541016 -0.3455091416835785
-0.30232560634613037 -0.038759708404541016 -0.016635896638035774
-0.30232560634613037 -0.038759708404541016 0.029764831066131592
-0.30232560634613037 -0.02325582504272461 -0.7911962270736694
-0.30232560634613037 -0.02325582504272461 -0.3401966691017151
-0.30232560634613037 -0.02325582504272461 -0.055711161345243454
-0.30232560634613037 -0.02325582504272461 0.05392547696828842
-0.30232560634613037 -0.007751941680908203 -0.7929373979568481
-0.30232560634613037 -0.007751941680908203 -0.33754217624664307
-0.30232560634613037 -0.007751941215246916 -0.06842498481273651
-0.30232560634613037 -0.007751941680908203 0.057160332798957825
-0.30232560634613037 0.007751941680908203 -0.7936187386512756
-0.30232560634613037 0.007751941680908203 -0.3361666202545166
