-0.06976741552352905 -0.3164404034614563 -0.007751941680908203
-0.06976741552352905 -0.31458571553230286 0.00775194214656949
-0.06976741552352905 -0.3101905584335327 0.02325582504272461
-0.06976741552352905 -0.30362623929977417 0.038759708404541016
-0.06976741552352905 -0.29117733240127563 0.05426359176635742
-0.06976741552352905 -0.2746230661869049 0.06976747512817383
-0.06976741552352905 -0.27053672075271606 -0.06976741552352905
-0.06976741552352905 -0.2520497143268585 0.08527135848999023
-0.06976741552352905 -0.2284100204706192 0.10077524185180664
-0.06976741552352905 -0.20594072341918945 -0.08527129888534546
-0.06976741552352905 -0.15055005252361298 -0.10077518224716187
-0.06976741552352905 0.19031794369220734 0.10077524185180664
-0.06976741552352905 0.3262617886066437 0.08527135848999023
-0.06976741552352905 0.46038952469825745 0.06976747512817383
-0.06976741552352905 0.5035710334777832 0.05426359176635742
-0.06976741552352905 0.5426435470581055 0.038759708404541016
-0.06976741552352905 0.5731316804885864 0.02325582504272461
-0.06976741552352905 0.598590075969696 -0.10077518224716187
-0.06976741552352905 0.5998160243034363 0.007751941680908203
-0.06976741552352905 0.6428048610687256 -0.08527129888534546
-0.06976741552352905 0.6291511654853821 -0.007751941680908203
-0.06976741552352905 0.663558304309845 -0.08527129888534546
-0.06976741552352905 0.6767773032188416 -0.10077518224716187
-0.06976741552352905 0.7045319080352783 -0.007751941680908203
-0.06976741552352905 0.7130038738250732 -0.10077518224716187
-0.06976741552352905 0.726494550704956 -0.08527129888534546
-0.06976741552352905 0.7341582179069519 0.007751941680908203
-0.06976741552352905 0.7587998509407043 -0.06976741552352905
-0.06976741552352905 0.7531970739364624 0.007751941680908203
-0.06976741552352905 0.7773953080177307 -0.007751941680908203
-0.06976741552352905 0.7836178541183472 -0.05426359549164772
-0.06976741552352905 0.7896822690963745 -0.038759708404541016
-0.06976741552352905 0.7867217659950256 -0.02325582504272461
-0.05426359176635742 -0.3396987318992615 -0.038759708404541016
-0.05426359176635742 -0.3374288082122803 -0.02325582504272461
-0.05426359176635742 -0.3354327082633972 -0.007751941680908203
-0.05426359176635742 -0.33544921875 0.007751941680908203
-0.05426359176635742 -0.3305298089981079 -0.05426359176635742
-0.05426359176635742 -0.3328309953212738 0.02325582504272461
-0.05426359176635742 -0.3229423761367798 0.038759708404541016
-0.05426359176635742 -0.3089684247970581 0.05426359176635742
-0.05426359176635742 -0.29513710737228394 -0.06976741552352905
-0.05426359176635742 -0.29009613394737244 0.06976747512817383
-0.05426359176635742 -0.2645469307899475 0.08527135848999023
-0.05426359176635742 -0.24127188324928284 0.10077524185180664
-0.05426359176635742 -0.22880281507968903 -0.08527129888534546
-0.05426359176635742 -0.2135147750377655 0.11627912521362305
-0.05426359176635742 -0.1657753437757492 -0.10077518224716187
-0.05426359176635742 -0.17321346700191498 0.11627911776304245
-0.05426359176635742 0.22004547715187073 0.10077524185180664
-0.05426359176635742 0.34249746799468994 0.08527135848999023
-0.05426359176635742 0.47077327966690063 0.06976747512817383
-0.05426359176635742 0.5121076107025146 0.05426359176635742
-0.05426359176635742 0.5535411238670349 0.038759708404541016
-0.05426359176635742 0.5843592882156372 0.02325582504272461
-0.05426359176635742 0.6177375316619873 0.007751941680908203
-0.05426359176635742 0.6306874752044678 -0.10077518224716187
-0.05426359176635742 0.6703946590423584 -0.007751941680908203
-0.05426359176635742 0.6821474432945251 -0.10077518224716187
-0.05426359176635742 0.6921470761299133 -0.007751941680908203
-0.05426359176635742 0.7108859419822693 -0.10077518224716187
-0.05426359176635742 0.7335458397865295 0.007751941680908203
-0.05426359176635742 0.7512584328651428 0.007751941680908203
-0.05426359176635742 0.7603254318237305 -0.08527129888534546
-0.05426359176635742 0.7890958786010742 -0.007751941680908203
-0.05426359176635742 0.7990122437477112 -0.06976742297410965
-0.05426359176635742 0.822397768497467 -0.05426359176635742
-0.05426359176635742 0.8253245949745178 -0.038759708404541016
-0.05426359176635742 0.814212441444397 -0.02325582504272461
-0.038759708404541016 -0.38784971833229065 -0.038759708404541016
-0.038759708404541016 -0.37066322565078735 -0.05426359176635742
-0.038759708404541016 -0.37049776315689087 -0.02325582504272461
-0.038759708404541016 -0.3599716126918793 -0.007751941215246916
-0.038759708404541016 -0.35945913195610046 0.007751941680908203
-0.038759708404541016 -0.35660696029663086 0.02325582504272461
-0.038759708404541016 -0.3478119373321533 0.038759708404541016
-0.038759708404541016 -0.33209267258644104 0.05426359176635742
-0.038759708404541016 -0.314186692237854 -0.06976741552352905
-0.038759708404541016 -0.30933231115341187 0.06976747512817383
-0.038759708404541016 -0.28216761350631714 0.08527135848999023
-0.038759708404541016 -0.25319769978523254 -0.08527129888534546
-0.038759708404541016 -0.25395289063453674 0.10077524185180664
-0.038759708404541016 -0.22785088419914246 0.11627912521362305
-0.038759708404541016 -0.17897111177444458 -0.10077518224716187
-0.038759708404541016 -0.16385753452777863 0.11627912521362305
-0.038759712129831314 0.27316156029701233 0.10077524185180664
-0.038759708404541016 0.3644886314868927 0.08527135848999023
-0.038759708404541016 0.4769434928894043 0.06976747512817383
-0.038759708404541016 0.5210022330284119 0.05426359176635742
-0.038759708404541016 0.5659946203231812 0.038759708404541016
-0.038759708404541016 0.6019477248191833 0.02325582504272461
-0.038759708404541016 0.667416512966156 -0.10077518224716187
-0.038759708404541016 0.6672787666320801 0.007751941680908203
-0.038759708404541016 0.6808350086212158 -0.10077518224716187
-0.038759708404541016 0.7132839560508728 -0.10077518224716187
-0.038759708404541016 0.7086395025253296 0.007751941215246916
-0.038759708404541016 0.7610622644424438 0.007751941680908203
-0.038759708404541016 0.7984760403633118 -0.08527129143476486
-0.038759708404541016 0.8411813974380493 -0.06976741552352905
-0.038759708404541016 0.8714359998703003 -0.05426359176635742
-0.038759708404541016 0.8810981512069702 0.007751941680908203
-0.038759708404541016 0.9144594669342041 -0.038759708404541016
-0.038759708404541016 0.9430344104766846 -0.02325582690536976
-0.038759708404541016 0.9429994225502014 0.007751941680908203
-0.038759708404541016 0.956343948841095 -0.007751941680908203
-0.02325582504272461 -0.640987753868103 -0.05426359176635742
-0.02325582504272461 -0.5748324990272522 -0.038759708404541016
-0.02325582504272461 -0.5106062293052673 -0.02325582504272461
-0.02325582504272461 -0.4864721894264221 -0.007751941680908203
-0.02325582504272461 -0.4698096215724945 0.007751941680908203
-0.02325582504272461 -0.44736456871032715 0.02325582504272461
-0.02325582504272461 -0.38381490111351013 0.038759708404541016
-0.02325582504272461 -0.36101680994033813 0.05426359176635742
-0.02325582504272461 -0.3350425660610199 0.06976747512817383
-0.02325582504272461 -0.33093616366386414 -0.06976741552352905
-0.02325582504272461 -0.303599089384079 0.08527135848999023
-0.02325582504272461 -0.2651166617870331 -0.08527129888534546
-0.02325582690536976 -0.2690117657184601 0.10077524930238724
-0.02325582690536976 -0.23940913379192352 0.11627912521362305
-0.02325582504272461 -0.18841561675071716 -0.10077518224716187
-0.02325582318007946 -0.16064919531345367 0.11627911776304245
-0.02325582504272461 0.298437237739563 0.10077524185180664
-0.02325582504272461 0.3952234089374542 0.08527135848999023
-0.02325582504272461 0.4817521572113037 0.06976747512817383
-0.02325582504272461 0.5279712677001953 0.05426359176635742
-0.02325582504272461 0.576337456703186 0.038759708404541016
-0.02325582504272461 0.6247456073760986 0.02325582504272461
-0.02325582504272461 0.7537131905555725 -0.10077518224716187
-0.02325582504272461 0.8222784996032715 -0.08527129888534546
-0.02325582504272461 0.8660017251968384 -0.06976741552352905
-0.02325582504272461 0.9030431509017944 -0.05426359176635742
-0.02325582504272461 0.9380617737770081 -0.038759708404541016
-0.02325582504272461 0.9628022313117981 -0.02325582504272461
-0.02325582504272461 0.9773808121681213 -0.007751941680908203
-0.02325582504272461 0.9719604253768921 0.007751941680908203
-0.007751941680908203 -0.9857206344604492 -0.06976741552352905
-0.007751941680908203 -0.8680686950683594 -0.05426359176635742
-0.007751941680908203 -0.6448743939399719 -0.038759708404541016
-0.007751941680908203 -0.5850470066070557 -0.02325582504272461
-0.007751941680908203 -0.5660671591758728 -0.06976741552352905
-0.007751941680908203 -0.5215829014778137 -0.007751941680908203
-0.007751941680908203 -0.49304938316345215 0.007751941680908203
-0.007751941680908203 -0.471530020236969 0.02325582504272461
-0.007751941680908203 -0.4435008764266968 0.038759708404541016
-0.007751941680908203 -0.40435588359832764 0.05426359176635742
-0.007751941680908203 -0.3730531334877014 0.06976747512817383
-0.007751941680908203 -0.339568167924881 -0.06976741552352905
-0.007751941680908203 -0.3276379704475403 0.08527135848999023
-0.007751941680908203 -0.2840743958950043 0.10077524185180664
-0.00775194214656949 -0.2692626118659973 -0.08527129888534546
-0.007751941680908203 -0.24500954151153564 0.11627912521362305
-0.007751941680908203 -0.19439750909805298 -0.10077518224716187
-0.007751941680908203 -0.16234000027179718 0.11627912521362305
-0.007751941680908203 0.3211791217327118 0.10077524185180664
-0.007751941215246916 0.4324958920478821 0.08527135848999023
-0.007751941680908203 0.48643893003463745 0.06976747512817383
-0.007751941680908203 0.5354799032211304 0.05426359176635742
-0.007751941680908203 0.5848415493965149 0.038759708404541016
-0.007751941680908203 0.6567856669425964 0.02325582504272461
-0.007751941215246916 0.7683888077735901 -0.10077518224716187
-0.007751941680908203 0.8385394811630249 -0.08527129888534546
-0.007751941680908203 0.879707932472229 -0.06976741552352905
-0.007751941680908203 0.9153841733932495 -0.05426359176635742
-0.007751941680908203 0.9490917921066284 -0.038759708404541016
-0.007751941215246916 0.9753144979476929 -0.02325582504272461
-0.007751941680908203 0.9863784313201904 -0.007751941680908203
-0.00775194214656949 0.9851943254470825 0.00775194214656949
0.007751941680908203 -0.9853561520576477 -0.06976741552352905
0.007751941680908203 -0.8689628839492798 -0.05426359176635742
0.007751941680908203 -0.6467224359512329 -0.038759708404541016
0.007751941680908203 -0.5836324095726013 -0.02325582504272461
0.007751941680908203 -0.5660009384155273 -0.06976741552352905
0.007751941680908203 -0.5168887972831726 -0.007751941680908203
0.007751941680908203 -0.49056029319763184 0.007751941680908203
0.007751941680908203 -0.47010159492492676 0.02325582504272461
0.007751941680908203 -0.4433309733867645 0.038759708404541016
0.007751941680908203 -0.4045427441596985 0.05426359176635742
0.007751941680908203 -0.374397873878479 0.06976747512817383
0.007751941680908203 -0.3356393575668335 -0.06976741552352905
0.007751941680908203 -0.3303269147872925 0.08527135848999023
0.007751941680908203 -0.2873588502407074 0.10077524185180664
0.007751941680908203 -0.2682470381259918 -0.08527129888534546
0.007751941680908203 -0.2470814287662506 0.11627912521362305
0.007751941680908203 -0.19477106630802155 -0.10077518224716187
0.007751941680908203 -0.1599055677652359 0.11627912521362305
0.007751941680908203 0.33214691281318665 0.10077524185180664
0.007751941680908203 0.44045859575271606 0.08527135848999023
0.007751941680908203 0.4887979328632355 0.06976747512817383
0.007751941680908203 0.5389154553413391 0.05426359549164772
0.007751941680908203 0.5892329216003418 0.038759708404541016
0.00775194214656949 0.6940172910690308 0.02325582504272461
0.007751941680908203 0.7741174697875977 -0.10077518224716187
0.007751941680908203 0.8465309739112854 -0.08527129888534546
0.007751941680908203 0.884354829788208 -0.06976741552352905
0.007751941680908203 0.9194509983062744 -0.05426359176635742
0.007751941680908203 0.9532642364501953 -0.038759708404541016
0.007751941680908203 0.9776445627212524 -0.02325582504272461
0.007751941680908203 0.9871530532836914 -0.007751941680908203
0.00775194214656949 0.9863350987434387 0.00775194214656949
0.02325582504272461 -0.49707308411598206 -0.038759708404541016
0.02325582504272461 -0.4863508343696594 -0.05426359176635742
0.02325582504272461 -0.4803401827812195 -0.02325582504272461
0.02325582504272461 -0.46655160188674927 -0.007751941680908203
0.02325582504272461 -0.45453882217407227 0.007751941215246916
0.02325582504272461 -0.43014857172966003 0.02325582504272461
0.02325582504272461 -0.3713923692703247 0.038759708404541016
0.02325582504272461 -0.3574775755405426 0.05426359176635742
0.02325582504272461 -0.3375401496887207 0.06976747512817383
0.02325582504272461 -0.3258957266807556 -0.06976741552352905
0.02325582504272461 -0.30909866094589233 0.08527135848999023
0.02325582504272461 -0.2753712832927704 0.10077524185180664
0.02325582504272461 -0.2643023431301117 -0.08527129888534546
0.02325582504272461 -0.2435983121395111 0.11627912521362305
0.02325582504272461 -0.1915232539176941 -0.10077518224716187
0.02325582504272461 -0.15692952275276184 0.11627912521362305
0.02325582504272461 0.3242381811141968 0.10077524185180664
0.02325582504272461 0.4385779798030853 0.08527135848999023
0.02325582504272461 0.4893878102302551 0.06976747512817383
0.02325582504272461 0.5382028818130493 0.05426359176635742
0.02325582504272461 0.5877242684364319 0.038759708404541016
0.02325582504272461 0.6836291551589966 0.02325582504272461
0.02325582504272461 0.7757680416107178 -0.10077518224716187
0.02325582690536976 0.8473168015480042 -0.08527129888534546
0.02325582504272461 0.8840245008468628 -0.06976741552352905
0.02325582504272461 0.915581464767456 -0.05426359176635742
0.02325582504272461 0.9463419914245605 -0.038759708404541016
0.02325582504272461 0.9708696007728577 -0.02325582504272461
0.02325582504272461 0.9781206846237183 0.007751941680908203
0.02325582318007946 0.98464435338974 -0.007751941215246916
0.038759708404541016 -0.36964207887649536 -0.038759708404541016
0.038759708404541016 -0.35741084814071655 -0.05426359176635742
0.038759708404541016 -0.36201509833335876 -0.02325582504272461
0.038759708404541016 -0.35544008016586304 -0.007751941680908203
0.038759708404541016 -0.3537321388721466 0.007751941680908203
0.038759708404541016 -0.350002259016037 0.02325582504272461
0.038759708404541016 -0.34185078740119934 0.038759708404541016
0.038759708404541016 -0.332216739654541 0.05426359176635742
0.038759708404541016 -0.3142894506454468 -0.06976741552352905
0.038759708404541016 -0.317266047000885 0.06976747512817383
0.038759708404541016 -0.2909403145313263 0.08527135848999023
0.038759708404541016 -0.26234525442123413 0.10077524185180664
0.038759708404541016 -0.25478240847587585 -0.08527129888534546
0.038759708404541016 -0.23771438002586365 0.11627912521362305
0.038759708404541016 -0.18324172496795654 -0.10077518224716187
0.038759708404541016 -0.16107892990112305 0.11627912521362305
0.038759708404541016 0.31442752480506897 0.10077524185180664
0.038759708404541016 0.43539512157440186 0.08527135848999023
0.038759712129831314 0.48952198028564453 0.06976748257875443
0.038759712129831314 0.5351952910423279 0.05426359176635742
0.038759708404541016 0.5808559060096741 0.038759708404541016
0.038759708404541016 0.6322852373123169 0.02325582504272461
0.038759708404541016 0.7715836763381958 -0.10077518969774246
0.038759708404541016 0.8001518249511719 0.007751941680908203
0.038759708404541016 0.8407442569732666 -0.08527129888534546
0.038759708404541016 0.8632193207740784 0.007751941680908203
0.038759708404541016 0.8776077032089233 -0.06976741552352905
0.038759708404541016 0.9059863090515137 -0.05426359176635742
0.038759708404541016 0.9320099353790283 -0.038759708404541016
0.038759708404541016 0.9519033432006836 -0.02325582504272461
0.038759708404541016 0.9616903066635132 -0.007751941680908203
0.038759708404541016 0.9537122249603271 0.007751941215246916
0.05426359176635742 -0.33935660123825073 -0.038759708404541016
0.05426359176635742 -0.33858242630958557 -0.02325582504272461
0.05426359176635742 -0.3362177908420563 -0.007751941680908203
0.05426359176635742 -0.3338983356952667 0.007751941680908203
0.05426359176635742 -0.3304758667945862 -0.05426359176635742
0.05426359176635742 -0.32834291458129883 0.02325582504272461
0.05426359176635742 -0.320855051279068 0.038759708404541016
0.05426359176635742 -0.3105626702308655 0.05426359176635742
0.05426359176635742 -0.2991481423377991 -0.06976741552352905
0.05426359176635742 -0.2970643639564514 0.06976747512817383
0.05426359176635742 -0.2750903069972992 0.08527135848999023
0.05426359176635742 -0.25035709142684937 0.10077524185180664
0.05426359176635742 -0.23455925285816193 -0.08527129888534546
0.05426359176635742 -0.22616370022296906 0.11627912521362305
0.05426359176635742 -0.16971421241760254 -0.10077518224716187
0.05426359176635742 -0.16930532455444336 0.11627912521362305
0.05426359176635742 0.3055412471294403 0.10077524930238724
0.05426359176635742 0.4323080778121948 0.08527135848999023
0.05426358804106712 0.489188015460968 0.06976747512817383
0.05426359176635742 0.5294749736785889 0.05426359176635742
0.05426359176635742 0.5710897445678711 0.038759708404541016
0.05426359176635742 0.6092445850372314 0.02325582504272461
0.05426359176635742 0.759488582611084 -0.10077518224716187
0.05426359176635742 0.7719451785087585 0.007751941680908203
0.05426359176635742 0.8247049450874329 -0.08527129888534546
0.05426359176635742 0.8186379075050354 -0.007751941680908203
0.05426359176635742 0.8553534746170044 -0.06976741552352905
0.05426359176635742 0.8488476276397705 -0.02325582504272461
0.05426359176635742 0.8714786171913147 -0.05426359176635742
0.05426359176635742 0.8738730549812317 -0.038759708404541016
0.06976747512817383 -0.318801611661911 -0.038759708404541016
0.06976747512817383 -0.3198598325252533 -0.02325582504272461
0.06976747512817383 -0.31791606545448303 -0.007751941680908203
0.06976747512817383 -0.30863070487976074 -0.05426359176635742
0.06976747512817383 -0.31412357091903687 0.007751941680908203
0.06976747512817383 -0.30746451020240784 0.02325582504272461
0.06976747512817383 -0.30199408531188965 0.038759708404541016
0.06976747512817383 -0.29139357805252075 0.05426359176635742
0.06976747512817383 -0.277077317237854 -0.06976741552352905
0.06976747512817383 -0.2790372669696808 0.06976747512817383
0.06976747512817383 -0.25966939330101013 0.08527135848999023
0.06976747512817383 -0.2372925877571106 0.10077524185180664
0.06976747512817383 -0.20913119614124298 -0.08527129888534546
0.06976747512817383 -0.19885759055614471 0.11627912521362305
0.06976747512817383 -0.18917816877365112 0.11627912521362305
0.06976747512817383 -0.15329039096832275 -0.10077518224716187
0.06976747512817383 0.293742835521698 0.10077524185180664
0.06976747512817383 0.4242537319660187 0.08527135848999023
0.06976747512817383 0.4866185784339905 0.06976747512817383
0.06976747512817383 0.5210751295089722 0.05426359176635742
0.06976747512817383 0.5598494410514832 0.038759708404541016
0.06976747512817383 0.5927648544311523 0.02325582504272461
0.06976747512817383 0.64431232213974 0.007751941215246916
0.06976747512817383 0.7110732793807983 0.007751941680908203
0.06976747512817383 0.7374479174613953 -0.10077517479658127
0.06976747512817383 0.7617877721786499 0.007751941680908203
0.06976747512817383 0.7970021963119507 -0.08527129888534546
0.06976747512817383 0.7885004281997681 -0.007751941215246916
0.06976747512817383 0.8031178712844849 -0.02325582504272461
0.06976747512817383 0.8173671364784241 -0.06976741552352905
0.06976747512817383 0.8207942247390747 -0.05426359176635742
0.06976747512817383 0.8146079778671265 -0.038759708404541016
0.08527135848999023 -0.2951154112815857 -0.038759708404541016
0.08527135848999023 -0.29682955145835876 -0.02325582504272461
0.08527135848999023 -0.29548579454421997 -0.007751941680908203
0.08527135848999023 -0.29169318079948425 0.007751941680908203
0.08527135848999023 -0.28701692819595337 0.02325582504272461
0.08527136594057083 -0.283041775226593 -0.05426359176635742
0.08527135848999023 -0.28047165274620056 0.038759708404541016
0.08527135848999023 -0.272896409034729 0.05426359176635742
0.08527135848999023 -0.26057061553001404 0.06976747512817383
0.08527135848999023 -0.2421172857284546 -0.06976741552352905
0.08527135848999023 -0.2430913895368576 0.08527135848999023
0.08527135848999023 -0.219201922416687 0.10077524185180664
0.08527135848999023 -0.18288621306419373 -0.08527129888534546
0.08527135848999023 -0.13133428990840912 -0.10077518224716187
0.08527135848999023 0.24023887515068054 0.10077524185180664
0.08527135848999023 0.3815114498138428 0.08527135848999023
0.08527135848999023 0.4764426350593567 0.06976747512817383
0.08527135848999023 0.5058188438415527 0.05426359176635742
0.08527135848999023 0.5421092510223389 0.038759708404541016
0.08527135848999023 0.5753716230392456 0.02325582504272461
0.08527135848999023 0.6112193465232849 0.007751941680908203
0.08527135848999023 0.7179133296012878 -0.10077518224716187
0.08527135848999023 0.7632670998573303 -0.08527129888534546
0.08527135848999023 0.7827823162078857 -0.06976741552352905
0.08527135848999023 0.7807303667068481 -0.02325582504272461
0.08527135848999023 0.7718851566314697 -0.007751941680908203
0.08527135848999023 0.7882766127586365 -0.05426359176635742
0.08527135848999023 0.7865026593208313 -0.038759708404541016
0.10077524185180664 -0.2654370069503784 -0.038759708404541016
0.10077524185180664 -0.26772797107696533 -0.02325582504272461
0.10077523440122604 -0.2667992115020752 -0.007751941680908203
0.10077524185180664 -0.26499441266059875 0.007751941215246916
0.10077524185180664 -0.26119065284729004 0.02325582504272461
0.10077524185180664 -0.25703245401382446 0.038759708404541016
0.10077524185180664 -0.24720697104930878 -0.05426359176635742
0.10077524185180664 -0.2492561638355255 0.05426359176635742
0.10077524185180664 -0.23899555206298828 0.06976747512817383
0.10077524185180664 -0.22107823193073273 0.08527135848999023
0.10077524185180664 -0.1979513168334961 -0.06976741552352905
0.10077524185180664 -0.1871235966682434 0.10077524185180664
0.10077524185180664 -0.14927013218402863 -0.08527129888534546
0.10077524185180664 -0.08933214843273163 -0.10077518224716187
0.10077524185180664 0.03918065130710602 0.10077524185180664
0.10077524185180664 0.2456302046775818 -0.10077517479658127
0.10077524185180664 0.34494125843048096 0.08527135848999023
0.10077524185180664 0.41232287883758545 -0.08527130633592606
0.10077524185180664 0.45576000213623047 0.06976747512817383
0.10077524185180664 0.4812816083431244 0.05426359176635742
0.10077524185180664 0.4887312650680542 -0.08527129888534546
0.10077524185180664 0.5093538165092468 0.038759708404541016
0.10077524185180664 0.5515871644020081 0.02325582504272461
0.10077524185180664 0.586983323097229 0.007751941680908203
0.10077524185180664 0.628885805606842 -0.007751941680908203
0.10077524185180664 0.7147146463394165 -0.007751941680908203
0.10077524185180664 0.7224854230880737 -0.08527129143476486
0.10077524185180664 0.7477293610572815 -0.06976741552352905
0.10077524185180664 0.7477434873580933 -0.007751941680908203
0.10077524185180664 0.75937819480896 -0.05426359176635742
0.10077524185180664 0.7621371746063232 -0.038759708404541016
0.10077524185180664 0.7593557834625244 -0.02325582504272461
0.11627912521362305 -0.22873395681381226 -0.02325582504272461
0.11627912521362305 -0.23120751976966858 -0.007751941680908203
0.11627912521362305 -0.23263615369796753 0.007751941680908203
0.11627912521362305 -0.23051083087921143 0.02325582504272461
0.11627912521362305 -0.22681500017642975 0.038759708404541016
0.11627911776304245 -0.22239261865615845 -0.038759708404541016
0.11627913266420364 -0.22007760405540466 0.05426359176635742
0.11627912521362305 -0.20962831377983093 0.06976747512817383
0.11627912521362305 -0.19059951603412628 -0.05426359176635742
0.11627912521362305 -0.18783874809741974 0.08527135848999023
0.11627912521362305 -0.14132043719291687 -0.06976741552352905
0.11627912521362305 -0.1355770230293274 0.10077524185180664
0.11627912521362305 -0.0994187593460083 -0.08527129888534546
0.11627912521362305 -0.012042589485645294 0.10077524185180664
0.11627912521362305 0.07561284303665161 -0.10077518224716187
0.11627912521362305 0.1897398680448532 -0.10077518224716187
0.11627912521362305 0.2710878551006317 0.08527135848999023
0.11627912521362305 0.2953835725784302 -0.08527129888534546
0.11627912521362305 0.3664671778678894 -0.06976741552352905
0.11627912521362305 0.3733149766921997 0.06976747512817383
0.11627912521362305 0.39968645572662354 -0.05426359176635742
0.11627912521362305 0.4328439235687256 -0.038759708404541016
0.11627912521362305 0.43240886926651 0.05426359549164772
0.11627912521362305 0.44880396127700806 0.038759708404541016
0.11627911776304245 0.4620184898376465 0.02325582504272461
0.11627912521362305 0.4881342947483063 0.007751941680908203
0.11627912521362305 0.5339770913124084 -0.007751941680908203
0.11627912521362305 0.5403051376342773 -0.038759708404541016
0.11627912521362305 0.5585356950759888 -0.05426359176635742
0.11627912521362305 0.5925347208976746 -0.02325582504272461
0.11627912521362305 0.6832352876663208 -0.05426359176635742
0.11627912521362305 0.6828277111053467 -0.038759708404541016
0.1317828893661499 -0.17994080483913422 0.007751941680908203
0.1317828893661499 -0.18186691403388977 0.02325582504272461
0.1317828893661499 -0.17966525256633759 0.038759708404541016
0.1317828893661499 -0.17165780067443848 -0.007751941680908203
0.1317828893661499 -0.17158448696136475 0.05426359176635742
0.1317828893661499 -0.1602981835603714 -0.02325582318007946
0.1317828893661499 -0.15831631422042847 0.06976747512817383
0.1317828893661499 -0.1427115947008133 -0.038759708404541016
0.1317828893661499 -0.13769839704036713 0.08527135848999023
0.1317828893661499 -0.12067119777202606 -0.05426359176635742
0.1317828893661499 -0.08809047192335129 -0.06976741552352905
0.1317828893661499 -0.03294655308127403 -0.08527129888534546
0.1317828893661499 0.10003241896629333 0.08527135848999023
0.1317828893661499 0.2263900488615036 -0.08527129888534546
0.1317828893661499 0.2949705421924591 -0.06976741552352905
0.1317828893661499 0.2906336188316345 0.06976747512817383
0.1317828893661499 0.33893728256225586 -0.05426359176635742
0.1317828893661499 0.34674954414367676 0.05426359176635742
0.1317828893661499 0.36292457580566406 -0.038759708404541016
0.1317828893661499 0.36290478706359863 0.038759708404541016
0.1317828893661499 0.3785494267940521 -0.02325582504272461
0.1317828893661499 0.3796393871307373 0.007751941680908203
0.1317828893661499 0.3718577027320862 0.02325582504272461
0.1317828893661499 0.38437575101852417 -0.007751941680908203
0.1472867727279663 -0.118559330701828 -0.007751941680908203
0.1472867727279663 -0.12177307903766632 0.007751941680908203
0.1472867727279663 -0.12261776626110077 0.02325582504272461
0.1472867727279663 -0.1217896118760109 0.038759708404541016
0.1472867727279663 -0.11878063529729843 0.05426359176635742
0.1472867727279663 -0.10343526303768158 -0.038759708404541016
0.1472867727279663 -0.11310487985610962 -0.02325582504272461
0.1472867727279663 -0.11346982419490814 0.06976747512817383
0.1472867727279663 -0.10244408994913101 0.08527135848999023
0.1472867727279663 -0.07821223884820938 -0.05426359176635742
0.1472867727279663 -0.027344323694705963 -0.06976741552352905
0.1472867727279663 0.0028403049800544977 0.08527135848999023
0.1472867727279663 0.12730374932289124 -0.08527129888534546
0.1472867727279663 0.1338033676147461 0.06976747512817383
0.1472867727279663 0.1754622906446457 -0.08527129888534546
0.1472867727279663 0.2391061633825302 -0.06976741552352905
0.1472867727279663 0.24491587281227112 0.05426359176635742
0.1472867727279663 0.2836710512638092 -0.05426359176635742
0.1472867727279663 0.31288808584213257 -0.038759708404541016
0.1472867727279663 0.30672305822372437 0.038759708404541016
0.1472867727279663 0.3262656331062317 -0.02325582504272461
0.1472867727279663 0.3305215835571289 -0.007751941680908203
0.1472867727279663 0.32771432399749756 0.007751941680908203
0.1472867727279663 0.3205275535583496 0.02325582504272461
0.16279065608978271 -0.08815910667181015 -0.007751941680908203
0.16279065608978271 -0.09022796154022217 0.007751941680908203
0.16279065608978271 -0.09046792984008789 0.02325582504272461
0.16279065608978271 -0.08993083238601685 0.038759708404541016
0.16279065608978271 -0.08794785290956497 0.05426359176635742
0.16279065608978271 -0.08354882895946503 -0.02325582504272461
0.16279065608978271 -0.08215087652206421 0.06976747512817383
0.16279065608978271 -0.06954357773065567 -0.038759708404541016
0.16279065608978271 -0.04626411572098732 -0.05426359176635742
0.16279065608978271 0.020734841004014015 -0.05426359176635742
0.16279065608978271 0.014509358443319798 0.06976747512817383
0.16279065608978271 0.04293413460254669 -0.05426359176635742
0.16279065608978271 0.0994054302573204 -0.06976741552352905
0.16279065608978271 0.13289786875247955 0.05426359176635742
0.16279065608978271 0.17403313517570496 -0.06976741552352905
0.16279065608978271 0.17131617665290833 0.038759708404541016
0.16279065608978271 0.22449079155921936 -0.05426359176635742
0.16279065608978271 0.22984008491039276 0.02325582690536976
0.16279065608978271 0.24525275826454163 -0.038759708404541016
0.16279065608978271 0.2547772526741028 0.007751941680908203
0.16279065608978271 0.2599598169326782 -0.02325582504272461
0.16279065608978271 0.2664502263069153 -0.007751941680908203
0.17829453945159912 -0.057320304214954376 -0.038759708404541016
0.17829453945159912 -0.06073353439569473 -0.02325582504272461
0.17829453945159912 -0.059720635414123535 -0.007751941680908203
0.17829453945159912 -0.058625005185604095 0.007751941680908203
0.17829453945159912 -0.058636799454689026 0.02325582504272461
0.17829453945159912 -0.05764184892177582 0.038759708404541016
0.17829453945159912 -0.04623428359627724 -0.05426359176635742
0.17829453945159912 -0.0457734689116478 0.05426359176635742
0.17829453945159912 -0.016285451129078865 -0.05426359176635742
0.17829453945159912 -0.018553636968135834 0.05426359176635742
0.17829453945159912 0.010879946872591972 -0.038759708404541016
0.17829453945159912 0.016014613211154938 -0.02325582504272461
0.17829453945159912 0.016848497092723846 -0.007751941680908203
0.17829453945159912 0.017505763098597527 0.007751941680908203
0.17829453945159912 0.01782011240720749 0.02325582504272461
0.17829453945159912 0.013941800221800804 0.038759708404541016
0.17829453945159912 0.06816935539245605 -0.007751941680908203
0.17829453945159912 0.06512068957090378 0.007751941680908203
0.17829453945159912 0.06349208205938339 0.02325582504272461
0.17829453945159912 0.06885833293199539 0.038759708404541016
0.17829453945159912 0.08399957418441772 -0.05426359176635742
0.17829453945159912 0.07430526614189148 -0.038759708404541016
0.17829453945159912 0.06988435983657837 -0.02325582504272461
0.17829453945159912 0.10245177894830704 -0.06976741552352905
0.17829453945159912 0.1301519274711609 -0.08527129888534546
0.17829455435276031 0.13470931351184845 -0.08527129888534546
0.17829453945159912 0.13304346799850464 0.038759708404541016
0.17829453945159912 0.15475842356681824 -0.06976741552352905
0.17829453945159912 0.15691572427749634 0.02325582504272461
0.17829453945159912 0.16948166489601135 -0.05426359176635742
0.17829453945159912 0.1745191216468811 0.007751941680908203
0.17829453945159912 0.18605872988700867 -0.038759708404541016
0.17829453945159912 0.19373850524425507 -0.02325582504272461
0.17829453945159912 0.1890486180782318 -0.007751941680908203
0.19379842281341553 -0.05568261072039604 -0.038759708404541016
0.19379842281341553 -0.05539737641811371 -0.02325582504272461
0.19379842281341553 -0.04789241403341293 -0.05426359176635742
0.19379842281341553 -0.04587604105472565 -0.007751941680908203
0.19379842281341553 -0.0181550495326519 -0.05426359176635742
0.19379842281341553 -0.004076100420206785 -0.038759708404541016
0.19379840791225433 -0.0028948320541530848 -0.02325582318007946
0.19379842281341553 -0.007308081723749638 -0.007751941680908203
0.19379842281341553 0.050892774015665054 -0.10077518224716187
0.19379842281341553 0.07059555500745773 -0.10077518224716187
0.19379842281341553 0.08520813286304474 -0.038759708404541016
0.19379842281341553 0.08506733179092407 -0.007751941680908203
0.19379842281341553 0.09582334756851196 -0.06976741552352905
0.19379842281341553 0.08756902813911438 -0.05426359176635742
0.19379842281341553 0.08595073223114014 -0.02325582504272461
0.19379842281341553 0.08592236042022705 0.007751941680908203
0.19379842281341553 0.09571320563554764 0.02325582504272461
0.19379842281341553 0.11436280608177185 -0.08527129888534546
0.19379842281341553 0.1399146020412445 0.02325582504272461
0.19379842281341553 0.1485355794429779 -0.08527129888534546
0.19379842281341553 0.1565956175327301 -0.06976741552352905
0.19379842281341553 0.15679103136062622 0.007751941680908203
0.19379842281341553 0.164391428232193 -0.05426359176635742
0.19379842281341553 0.16744926571846008 -0.038759708404541016
0.19379842281341553 0.16802360117435455 -0.02325582504272461
0.19379842281341553 0.16552352905273438 -0.007751941680908203
0.20930230617523193 -0.04404634237289429 -0.05426359176635742
0.20930229127407074 -0.05074194818735123 -0.038759708404541016
0.20930230617523193 -0.04473802447319031 -0.02325582504272461
0.20930230617523193 -0.020795995369553566 -0.05426359176635742
0.20930230617523193 -0.015281139872968197 -0.038759708404541016
0.20930230617523193 -0.019320758059620857 -0.02325582504272461
0.20930230617523193 0.09740576893091202 -0.06976741552352905
0.20930230617523193 0.09380335360765457 -0.05426359176635742
0.20930230617523193 0.09472623467445374 -0.038759708404541016
0.20930230617523193 0.09617505967617035 -0.02325582504272461
0.20930230617523193 0.09712999314069748 -0.007751941680908203
0.20930230617523193 0.10994312912225723 -0.08527129888534546
0.20930230617523193 0.10118286311626434 0.007751941680908203
0.20930230617523193 0.15015889704227448 -0.08527129888534546
0.20930230617523193 0.15643703937530518 -0.06976741552352905
0.20930230617523193 0.15757139027118683 -0.007751941680908203
0.20930230617523193 0.14740760624408722 0.00775194214656949
0.20930230617523193 0.16344797611236572 -0.05426359176635742
0.20930230617523193 0.16478362679481506 -0.038759708404541016
0.20930230617523193 0.16430485248565674 -0.02325582504272461
0.22480618953704834 0.09998885542154312 -0.06976741552352905
0.22480618953704834 0.09877802431583405 -0.05426359176635742
0.22480618953704834 0.09918693453073502 -0.038759708404541016
0.22480618953704834 0.100418820977211 -0.02325582504272461
0.22480618953704834 0.10853108763694763 -0.08527129888534546
0.22480618953704834 0.10951389372348785 -0.007751941680908203
0.22480618953704834 0.11803847551345825 -0.10077518224716187
0.22480617463588715 0.1475338637828827 -0.10077517479658127
0.22480618953704834 0.15156400203704834 -0.08527129888534546
0.22480618953704834 0.15559452772140503 -0.06976741552352905
0.22480618953704834 0.16055282950401306 -0.05426359176635742
0.22480618953704834 0.15698006749153137 -0.02325582504272461
0.22480617463588715 0.14837698638439178 -0.007751941680908203
0.22480618953704834 0.1630147397518158 -0.038759708404541016
0.24031007289886475 0.11441970616579056 -0.10077518224716187
0.24031007289886475 0.11008672416210175 -0.08527129888534546
0.24031007289886475 0.10628031194210052 -0.06976741552352905
0.24031007289886475 0.10512957721948624 -0.05426359549164772
0.24031007289886475 0.1073826476931572 -0.038759708404541016
0.24031007289886475 0.11280202865600586 -0.02325582504272461
0.24031007289886475 0.15046221017837524 -0.10077518224716187
0.24031007289886475 0.15378975868225098 -0.08527129888534546
0.24031007289886475 0.15547508001327515 -0.06976741552352905
0.24031007289886475 0.15758289396762848 -0.05426359176635742
0.24031007289886475 0.15652070939540863 -0.038759708404541016
0.24031007289886475 0.14939750730991364 -0.02325582504272461
0.25581395626068115 0.11345720291137695 -0.10077518224716187
0.25581395626068115 0.11215883493423462 -0.08527129888534546
0.25581395626068115 0.1115354672074318 -0.06976741552352905
0.25581395626068115 0.11168651282787323 -0.05426359176635742
0.25581395626068115 0.11440937221050262 -0.038759708404541016
0.25581395626068115 0.15667776763439178 -0.10077518224716187
0.25581395626068115 0.15865486860275269 -0.08527129888534546
0.25581395626068115 0.156473308801651 -0.06976741552352905
0.25581395626068115 0.15570040047168732 -0.05426359176635742
0.25581395626068115 0.15183724462985992 -0.038759708404541016
0.27131783962249756 0.11306991428136826 -0.10077518224716187
0.27131783962249756 0.11357790231704712 -0.08527129888534546
0.27131783962249756 0.11473903805017471 -0.06976741552352905
0.27131783962249756 0.13101333379745483 -0.11627906560897827
0.27131783962249756 0.11630816012620926 -0.05426359176635742
0.27131783962249756 0.12652932107448578 -0.038759708404541016
0.27131780982017517 0.14823199808597565 -0.11627906560897827
0.27131783962249756 0.15998750925064087 -0.06976741552352905
0.27131783962249756 0.1542605310678482 -0.05426359176635742
0.27131783962249756 0.1477518528699875 -0.038759708404541016
0.27131783962249756 0.1642483025789261 -0.10077518224716187
0.27131783962249756 0.16418495774269104 -0.08527129888534546
0.28682172298431396 0.11332421004772186 -0.10077518224716187
0.28682172298431396 0.1149587631225586 -0.08527129888534546
0.28682172298431396 0.11974775791168213 -0.06976741552352905
0.28682172298431396 0.1259840875864029 -0.05426359176635742
0.28682172298431396 0.14313295483589172 -0.11627906560897827
0.28682172298431396 0.14947381615638733 -0.11627906560897827
0.28682172298431396 0.15428319573402405 -0.05426359176635742
0.28682172298431396 0.16845032572746277 -0.10077518224716187
0.28682172298431396 0.1675843596458435 -0.08527129888534546
0.28682172298431396 0.1638610064983368 -0.06976741552352905
0.30232560634613037 0.11577548831701279 -0.10077518224716187
0.30232560634613037 0.12146937102079391 -0.08527129888534546
0.30232560634613037 0.12720705568790436 -0.06976741552352905
0.30232560634613037 0.1414949595928192 -0.05426359176635742
0.30232560634613037 0.1585521548986435 -0.11627906560897827
0.30232560634613037 0.15101434290409088 -0.05426359176635742
0.30232560634613037 0.16319513320922852 -0.11627905815839767
0.30232560634613037 0.16615578532218933 -0.06976741552352905
0.30232563614845276 0.17969545722007751 -0.10077518224716187
0.30232560634613037 0.1786240190267563 -0.08527129888534546
0.3178294897079468 0.12649507820606232 -0.10077518224716187
0.3178294897079468 0.1312471628189087 -0.08527129888534546
0.3178294897079468 0.14418715238571167 -0.11627906560897827
0.3178294897079468 0.14250171184539795 -0.06976741552352905
0.3178294897079468 0.15149091184139252 -0.11627906560897827
0.3178294897079468 0.18136343359947205 -0.06976741552352905
0.3178294897079468 0.1960083395242691 -0.10077518224716187
0.3178294897079468 0.19805774092674255 -0.08527129888534546
0.3333333730697632 0.14379940927028656 -0.10077518224716187
0.3333333730697632 0.15946932137012482 -0.11627906560897827
0.3333333730697632 0.1531459242105484 -0.08527129888534546
0.3333333730697632 0.17663805186748505 -0.11627906560897827
0.3333333730697632 0.17559130489826202 -0.06976741552352905
0.3333333730697632 0.1973215937614441 -0.06976741552352905
0.3333333730697632 0.22629880905151367 -0.10077518224716187
0.3333333730697632 0.23437826335430145 -0.08527129888534546
0.3488372564315796 0.18276295065879822 -0.10077518969774246
0.3488372564315796 0.19258223474025726 -0.08527129888534546
0.3488372564315796 0.21756261587142944 -0.08527129888534546
0.3488372564315796 0.22651302814483643 -0.10077518224716187
-0.3488371968269348 0.19379842281341553 -0.10342331230640411
-0.3488371968269348 0.19379842281341553 -0.09753937274217606
-0.3488371968269348 0.20930230617523193 -0.10565639287233353
-0.3488371968269348 0.20930230617523193 -0.09467281401157379
-0.3333333134651184 0.1627906709909439 -0.11426781862974167
-0.333333283662796 0.16279064118862152 -0.08267898857593536
-0.3333333134651184 0.17829453945159912 -0.11607833206653595
-0.3333333134651184 0.17829453945159912 -0.07922963798046112
-0.3333333134651184 0.19379842281341553 -0.11405196040868759
-0.3333333134651184 0.19379840791225433 -0.08168617635965347
-0.3333333134651184 0.20930230617523193 -0.10784976184368134
-0.3333333134651184 0.20930230617523193 -0.08865461498498917
-0.317829430103302 0.1317828893661499 -0.1062784194946289
-0.317829430103302 0.1317828893661499 -0.09594331681728363
-0.317829430103302 0.1472867727279663 -0.11663989722728729
-0.317829430103302 0.1472867727279663 -0.07266519218683243
-0.317829430103302 0.16279065608978271 -0.11650009453296661
-0.317829430103302 0.16279065608978271 -0.0694655030965805
-0.317829430103302 0.17829453945159912 -0.11288157850503922
-0.317829430103302 0.17829453945159912 -0.07557360827922821
-0.317829430103302 0.19379842281341553 -0.10413117706775665
-0.317829430103302 0.19379842281341553 -0.08536221086978912
-0.30232560634613037 0.1317828893661499 -0.11601846665143967
-0.30232560634613037 0.1317828893661499 -0.06806530803442001
-0.30232560634613037 0.1472867727279663 -0.11643839627504349
-0.30232560634613037 0.1472867727279663 -0.06193787604570389
-0.30232560634613037 0.16279065608978271 -0.11628416180610657
-0.30232560634613037 0.16279065608978271 -0.06781131029129028
-0.30232560634613037 0.17829453945159912 -0.10233727097511292
-0.30232560634613037 0.17829453945159912 -0.09472497552633286
-0.28682172298431396 0.11627912521362305 -0.10378621518611908
-0.28682172298431396 0.11627912521362305 -0.08873333036899567
-0.28682172298431396 0.1317828893661499 -0.11622273921966553
-0.28682172298431396 0.1317828893661499 -0.053420744836330414
-0.28682172298431396 0.1472867727279663 -0.11652573943138123
-0.28682172298431396 0.1472867727279663 -0.05170213803648949
-0.28682172298431396 0.16279065608978271 -0.1133495569229126
-0.28682172298431396 0.16279065608978271 -0.06822726130485535
-0.27131783962249756 0.11627912521362305 -0.10689765214920044
-0.27131783962249756 0.11627912521362305 -0.06022972613573074
-0.27131783962249756 0.1317828893661499 -0.11633361130952835
-0.27131783962249756 0.1317828893661499 -0.044902924448251724
-0.27131783962249756 0.1472867727279663 -0.11650213599205017
-0.27131783962249756 0.1472867727279663 -0.04510083422064781
-0.27131783962249756 0.16279065608978271 -0.10803978145122528
-0.27131783962249756 0.16279065608978271 -0.07041768729686737
-0.25581395626068115 0.11627912521362305 -0.10711410641670227
-0.25581395626068115 0.11627912521362305 -0.04334834963083267
-0.25581395626068115 0.1317828893661499 -0.11546014994382858
-0.25581395626068115 0.1317828893661499 -0.034663550555706024
-0.25581395626068115 0.1472867727279663 -0.114484041929245
-0.25581395626068115 0.1472867727279663 -0.03580087050795555
-0.25581395626068115 0.16279065608978271 -0.09356915950775146
-0.25581395626068115 0.16279065608978271 -0.07530916482210159
-0.24031007289886475 0.11627912521362305 -0.10754315555095673
-0.24031007289886475 0.11627912521362305 -0.030383892357349396
-0.24031007289886475 0.1317828893661499 -0.11337368935346603
-0.24031007289886475 0.1317828893661499 -0.02307150699198246
-0.24031007289886475 0.1472867727279663 -0.11059202253818512
-0.24031007289886475 0.1472867727279663 -0.0272492878139019
-0.22480618953704834 0.10077524185180664 -0.07736557722091675
-0.22480618953704834 0.10077524185180664 -0.035874657332897186
-0.22480618953704834 0.11627912521362305 -0.10492323338985443
-0.22480618953704834 0.11627912521362305 -0.017596065998077393
-0.22480618953704834 0.1317828893661499 -0.10968741774559021
-0.22480618953704834 0.1317828893661499 -0.015181059017777443
-0.22480618953704834 0.1472867727279663 -0.1064160019159317
-0.22480618953704834 0.1472867727279663 -0.0185580775141716
-0.20930230617523193 -0.02325582504272461 -0.04083199426531792
-0.20930230617523193 -0.02325582504272461 -0.036085162311792374
-0.20930230617523193 0.10077524185180664 -0.07645348459482193
-0.20930230617523193 0.10077524185180664 -0.013887125067412853
-0.20930230617523193 0.11627913266420364 -0.09692414849996567
-0.20930230617523193 0.11627913266420364 -0.003993571270257235
-0.20930230617523193 0.1317828893661499 -0.10369277000427246
-0.20930230617523193 0.1317828893661499 -0.0035336699802428484
-0.20930230617523193 0.1472867727279663 -0.09839589893817902
-0.20930230617523193 0.1472867727279663 -0.007806850131601095
-0.19379842281341553 -0.038759708404541016 -0.05453529953956604
-0.19379842281341553 -0.038759708404541016 -0.017572401091456413
-0.19379842281341553 -0.02325582504272461 -0.050442907959222794
-0.19379842281341553 -0.02325582504272461 -0.017546841874718666
-0.19379842281341553 0.10077524185180664 -0.07131612300872803
-0.19379842281341553 0.10077524185180664 0.006674420088529587
-0.19379842281341553 0.11627912521362305 -0.08718344569206238
-0.19379842281341553 0.11627912521362305 0.010330689139664173
-0.19379842281341553 0.1317828893661499 -0.09198369085788727
-0.19379842281341553 0.1317828893661499 0.009523113258183002
-0.19379842281341553 0.1472867727279663 -0.08696592599153519
-0.19379842281341553 0.1472867727279663 0.0021682570222765207
-0.19379842281341553 0.16279065608978271 -0.04544925317168236
-0.19379842281341553 0.16279065608978271 -0.030713113024830818
-0.1782945990562439 -0.038759708404541016 -0.054903794080019
-0.1782945990562439 -0.038759708404541016 0.005495375953614712
-0.1782945990562439 -0.02325582504272461 -0.04797951877117157
-0.1782946139574051 -0.02325582690536976 0.024150876328349113
-0.1782945990562439 -0.007751941680908203 -0.02739865332841873
-0.1782945990562439 -0.007751941680908203 0.026314031332731247
-0.1782945990562439 0.08527135848999023 -0.018228761851787567
-0.1782945990562439 0.08527135848999023 0.020402224734425545
-0.1782945990562439 0.10077524185180664 -0.06434417515993118
-0.1782945990562439 0.10077524185180664 0.024818090721964836
-0.1782945990562439 0.11627912521362305 -0.07659883797168732
-0.1782945841550827 0.11627912521362305 0.024621030315756798
-0.1782945990562439 0.1317828893661499 -0.08531379699707031
-0.1782945990562439 0.1317828893661499 0.021556086838245392
-0.1782945990562439 0.1472867727279663 -0.07592350244522095
-0.1782945990562439 0.1472867727279663 0.01320698019117117
-0.1782945990562439 0.16279065608978271 -0.04490690678358078
-0.1782945990562439 0.16279065608978271 -0.014239717274904251
-0.1627907156944275 -0.06976741552352905 -0.01961369439959526
-0.1627907156944275 -0.06976741552352905 0.047529324889183044
-0.1627907156944275 -0.05426359176635742 -0.0393228717148304
-0.16279073059558868 -0.05426359176635742 0.05504392087459564
-0.1627907156944275 -0.038759712129831314 -0.05292176082730293
-0.1627907156944275 -0.038759708404541016 0.057096850126981735
-0.1627907156944275 -0.02325582504272461 -0.046819210052490234
-0.1627907156944275 -0.02325582504272461 0.058364130556583405
-0.1627907156944275 -0.007751941680908203 -0.04101970046758652
-0.1627907156944275 -0.007751941680908203 0.058096759021282196
-0.1627907156944275 0.007751941680908203 -0.039110973477363586
-0.1627907156944275 0.007751941680908203 0.05629038065671921
-0.1627907156944275 0.02325582504272461 -0.026782628148794174
-0.1627907156944275 0.02325582504272461 0.05132598802447319
-0.1627907156944275 0.038759708404541016 -0.014883758500218391
-0.1627907156944275 0.038759708404541016 0.043219540268182755
-0.1627907156944275 0.05426359176635742 -0.029731158167123795
-0.1627907156944275 0.05426359176635742 0.04363999515771866
-0.1627907156944275 0.06976747512817383 -0.04409322887659073
-0.1627907156944275 0.06976747512817383 0.04679062217473984
-0.1627907156944275 0.08527135848999023 -0.05245007202029228
-0.1627907156944275 0.08527135848999023 0.04678082466125488
