0.11660902947187424 0.25581395626068115 -0.007751941680908203
0.144608736038208 -0.28682172298431396 -0.10077518224716187
0.14226531982421875 -0.27131783962249756 -0.02325582504272461
0.1369895339012146 -0.27131783962249756 -0.007751941680908203
0.1334983855485916 -0.27131783962249756 0.007751941680908203
0.14163964986801147 -0.25581395626068115 0.007751941680908203
0.1354142725467682 -0.25581395626068115 0.02325582504272461
0.14160852134227753 -0.24031007289886475 0.02325582504272461
0.13555975258350372 -0.24031007289886475 0.038759708404541016
0.13184726238250732 -0.24031007289886475 0.05426359176635742
0.13945311307907104 -0.22480618953704834 -0.10077518224716187
0.13981443643569946 -0.22480618953704834 0.038759708404541016
0.13471369445323944 -0.22480618953704834 0.05426359176635742
0.14521054923534393 -0.20930230617523193 0.038759708404541016
0.13761621713638306 -0.20930230617523193 0.05426359176635742
0.13302266597747803 -0.20930230617523193 0.06976747512817383
0.1456899791955948 -0.19379842281341553 -0.06976741552352905
0.1425796002149582 -0.19379842281341553 0.05426359176635742
0.13566303253173828 -0.19379842281341553 0.06976747512817383
0.14173629879951477 -0.1782945990562439 -0.06976741552352905
0.1395491063594818 -0.1782945990562439 0.06976747512817383
0.13362175226211548 -0.1782945841550827 0.08527135848999023
0.1382494866847992 -0.1627907156944275 -0.06976741552352905
0.146322101354599 -0.1627907156944275 0.06976747512817383
0.13575251400470734 -0.1627907156944275 0.08527135848999023
0.13452571630477905 -0.14728683233261108 -0.06976741552352905
0.1380234807729721 -0.14728683233261108 0.08527135848999023
0.13202354311943054 -0.13178294897079468 -0.06976741552352905
0.14123724400997162 -0.13178294897079468 0.08527135848999023
0.14163094758987427 -0.11627906560897827 -0.05426359176635742
0.14201952517032623 -0.11627906560897827 0.08527135848999023
0.13767947256565094 -0.10077518224716187 -0.05426359176635742
0.13815125823020935 -0.10077518224716187 0.08527135848999023
0.1374993622303009 -0.08527129888534546 -0.05426359176635742
0.14173725247383118 -0.08527129888534546 0.06976747512817383
0.13677124679088593 -0.08527129888534546 0.08527135848999023
0.13346251845359802 -0.06976741552352905 -0.06976741552352905
0.14004623889923096 -0.06976741552352905 -0.05426359176635742
0.14359284937381744 -0.06976741552352905 0.05426359176635742
0.1391957700252533 -0.06976741552352905 0.06976747512817383
0.14381985366344452 -0.06976741552352905 0.08527135848999023
0.1333387792110443 -0.06976741552352905 0.10077524185180664
0.1379958987236023 -0.05426359176635742 -0.06976741552352905
0.145513117313385 -0.05426359176635742 -0.05426359176635742
0.14179082214832306 -0.05426359176635742 0.05426359176635742
0.1397615671157837 -0.05426359176635742 0.06976747512817383
0.14710846543312073 -0.05426359176635742 0.08527135848999023
0.1329321712255478 -0.05426359176635742 0.10077524185180664
0.13460256159305573 -0.038759708404541016 -0.08527129888534546
0.14362075924873352 -0.038759708404541016 -0.06976741552352905
0.142980694770813 -0.038759708404541016 0.05426359176635742
0.13825559616088867 -0.038759708404541016 0.06976747512817383
0.1380404531955719 -0.038759708404541016 0.08527135848999023
0.13957175612449646 -0.02325582504272461 -0.08527129888534546
0.14366894960403442 -0.02325582504272461 0.05426359176635742
0.13745856285095215 -0.02325582504272461 0.06976747512817383
0.13356560468673706 -0.02325582504272461 0.08527135848999023
0.13372448086738586 -0.007751941680908203 -0.10077518224716187
0.14381936192512512 -0.007751941680908203 0.05426359176635742
0.1370801031589508 -0.007751941680908203 0.06976747512817383
0.13251440227031708 -0.007751941215246916 0.08527135103940964
0.1464434415102005 0.007751941680908203 0.05426359176635742
0.13919980823993683 0.007751941680908203 0.06976747512817383
0.13261941075325012 0.007751941680908203 0.08527135848999023
0.13507050275802612 0.02325582504272461 0.08527135848999023
0.14252421259880066 0.038759708404541016 0.08527135848999023
0.13669970631599426 0.05426359176635742 -0.06976741552352905
0.13602951169013977 0.06976747512817383 -0.06976741552352905
0.13850048184394836 0.08527135848999023 -0.06976741552352905
0.13674166798591614 0.08527135848999023 0.08527135848999023
0.1360274851322174 0.10077524185180664 -0.06976741552352905
0.1388743817806244 0.10077524185180664 0.06976747512817383
0.1439887136220932 0.11627912521362305 0.05426359176635742
0.13290271162986755 0.1317828893661499 -0.05426359176635742
0.14055149257183075 0.1317828893661499 -0.038759708404541016
0.14395034313201904 0.1317828893661499 0.038759708404541016
0.13407737016677856 0.1317828893661499 0.05426359176635742
0.13341504335403442 0.1472867727279663 -0.038759708404541016
0.13676311075687408 0.1472867727279663 -0.02325582504272461
0.13931304216384888 0.1472867727279663 -0.00775194214656949
0.14007468521595 0.1472867727279663 0.007751941680908203
0.13888780772686005 0.1472867727279663 0.02325582504272461
0.13588431477546692 0.1472867727279663 0.038759708404541016
0.1318407654762268 0.1472867727279663 0.05426359176635742
0.13270889222621918 0.16279065608978271 -0.038759708404541016
0.1350167691707611 0.16279065608978271 -0.02325582690536976
0.1367080956697464 0.16279065608978271 -0.007751941680908203
0.1372661590576172 0.16279065608978271 0.007751941680908203
0.13650324940681458 0.16279065608978271 0.02325582504272461
0.1341266930103302 0.16279065608978271 0.038759708404541016
0.13202162086963654 0.17829453945159912 -0.038759708404541016
0.13410766422748566 0.17829453945159912 -0.02325582504272461
0.1355428695678711 0.17829453945159912 -0.007751941680908203
0.1357261687517166 0.17829453945159912 0.007751941680908203
0.13455843925476074 0.17829455435276031 0.02325582504272461
0.13212665915489197 0.17829453945159912 0.038759708404541016
0.13251309096813202 0.19379842281341553 -0.02325582504272461
0.13360512256622314 0.19379842281341553 -0.007751941680908203
0.13347351551055908 0.19379842281341553 0.007751941680908203
0.13203898072242737 0.19379842281341553 0.02325582504272461
0.16062535345554352 -0.30232560634613037 -0.10077518224716187
0.16151611506938934 -0.28682172298431396 -0.06976741552352905
0.15076495707035065 -0.27131783962249756 -0.038759708404541016
0.15955300629138947 -0.25581395626068115 -0.038759708404541016
0.1519954353570938 -0.25581395626068115 -0.02325582504272461
0.1482246220111847 -0.25581395626068115 -0.007751941680908203
0.15692999958992004 -0.24031007289886475 -0.02325582504272461
0.1524558663368225 -0.24031007289886475 -0.007751941680908203
0.1487472504377365 -0.24031007289886475 0.007751941680908203
0.15984897315502167 -0.22480618953704834 -0.02325582504272461
0.1563163697719574 -0.22480618953704834 -0.007751941680908203
0.15217825770378113 -0.22480618953704834 0.007751941680908203
0.1476961374282837 -0.22480618953704834 0.02325582690536976
0.15852919220924377 -0.20930230617523193 -0.06976741552352905
0.1561732292175293 -0.20930230617523193 -0.05426359176635742
0.16110046207904816 -0.20930230617523193 -0.038759708404541016
0.16022995114326477 -0.20930230617523193 -0.007751941680908203
0.15568049252033234 -0.20930230617523193 0.007751941680908203
0.15061305463314056 -0.20930230617523193 0.02325582504272461
0.15230396389961243 -0.19379842281341553 -0.05426359549164772
0.15945474803447723 -0.19379842281341553 0.007751941680908203
0.1535155177116394 -0.19379842281341553 0.02325582504272461
0.14872422814369202 -0.19379840791225433 0.038759708404541016
0.15271346271038055 -0.1782945990562439 -0.05426359176635742
0.15674751996994019 -0.1782945990562439 0.02325582504272461
0.15147988498210907 -0.1782945990562439 0.038759708404541016
0.1477833241224289 -0.1782945990562439 0.05426359176635742
0.15211573243141174 -0.1627907156944275 -0.05426359176635742
0.15983688831329346 -0.1627907156944275 0.02325582504272461
0.15387827157974243 -0.1627907156944275 0.038759708404541016
0.14984677731990814 -0.1627907156944275 0.05426359176635742
0.1498490273952484 -0.14728683233261108 -0.05426359176635742
0.16132836043834686 -0.14728683233261108 -0.038759708404541016
0.1621030867099762 -0.14728683233261108 0.02325582504272461
0.15600332617759705 -0.14728683233261108 0.038759708404541016
0.1514170914888382 -0.14728683233261108 0.05426359176635742
0.14832252264022827 -0.14728683233261108 0.06976747512817383
0.14763641357421875 -0.13178294897079468 -0.05426359176635742
0.1572265326976776 -0.13178294897079468 -0.038759708404541016
0.1627504527568817 -0.13178294897079468 0.02325582504272461
0.15659742057323456 -0.13178294897079468 0.038759708404541016
0.15199586749076843 -0.13178294897079468 0.05426359549164772
0.14908410608768463 -0.13178294897079468 0.06976747512817383
0.15317176282405853 -0.11627906560897827 -0.038759708404541016
0.16101093590259552 -0.11627906560897827 -0.02325582504272461
0.16082219779491425 -0.11627906560897827 0.02325582504272461
0.15489906072616577 -0.11627906560897827 0.038759708404541016
0.15121202170848846 -0.11627906560897827 0.05426359176635742
0.14900295436382294 -0.11627906560897827 0.06976747512817383
0.14968478679656982 -0.10077518224716187 -0.038759708404541016
0.15606212615966797 -0.10077518224716187 -0.02325582504272461
0.16067379713058472 -0.10077518224716187 -0.007751941680908203
0.16051457822322845 -0.10077518224716187 0.007751941680908203
0.15616966784000397 -0.10077518224716187 0.02325582504272461
0.15176361799240112 -0.10077518224716187 0.038759708404541016
0.14932207763195038 -0.10077518969774246 0.05426359549164772
0.14796964824199677 -0.10077517479658127 0.06976747512817383
0.1476162075996399 -0.08527130633592606 -0.038759712129831314
0.15240079164505005 -0.08527129888534546 -0.02325582504272461
0.15519876778125763 -0.08527129888534546 -0.007751941680908203
0.15455448627471924 -0.08527129888534546 0.007751941680908203
0.15167236328125 -0.08527129888534546 0.02325582504272461
0.14925187826156616 -0.08527129888534546 0.038759708404541016
0.1479831486940384 -0.08527129143476486 0.05426358804106712
0.14760559797286987 -0.06976740807294846 -0.03875970467925072
0.15051734447479248 -0.06976741552352905 -0.02325582504272461
0.15187640488147736 -0.06976741552352905 -0.007751941680908203
0.15094047784805298 -0.06976741552352905 0.007751941680908203
0.14904874563217163 -0.06976741552352905 0.02325582504272461
0.1478225141763687 -0.06976741552352905 0.038759708404541016
0.14934571087360382 -0.05426359176635742 -0.038759708404541016
0.15110059082508087 -0.05426359176635742 -0.02325582504272461
0.15117689967155457 -0.05426359176635742 -0.007751941680908203
0.14994411170482635 -0.05426359176635742 0.007751941680908203
0.14837639033794403 -0.05426359176635742 0.02325582504272461
0.14735256135463715 -0.05426359176635742 0.038759708404541016
0.14902323484420776 -0.038759708404541016 -0.05426359176635742
0.15158182382583618 -0.038759708404541016 -0.038759708404541016
0.1524595320224762 -0.038759708404541016 -0.02325582504272461
0.1518901139497757 -0.038759708404541016 -0.007751941680908203
0.15038488805294037 -0.038759708404541016 0.007751941680908203
0.14865204691886902 -0.038759712129831314 0.02325582504272461
0.14753907918930054 -0.038759708404541016 0.038759708404541016
0.1477377712726593 -0.02325582504272461 -0.06976741552352905
0.15031468868255615 -0.02325582504272461 -0.05426359176635742
0.15239006280899048 -0.02325582504272461 -0.038759708404541016
0.15288136899471283 -0.02325582504272461 -0.02325582504272461
0.1520070880651474 -0.02325582504272461 -0.007751941680908203
0.15044233202934265 -0.02325582690536976 0.007751941680908203
0.14876121282577515 -0.02325582504272461 0.02325582504272461
0.1476602852344513 -0.02325582504272461 0.038759708404541016
0.15008039772510529 -0.007751941680908203 -0.08527129888534546
0.1516701877117157 -0.007751941680908203 -0.06976741552352905
0.15163859724998474 -0.007751941680908203 -0.05426359176635742
0.15195903182029724 -0.007751941680908203 -0.038759708404541016
0.15195761620998383 -0.007751941680908203 -0.02325582504272461
0.1510675549507141 -0.00775194214656949 -0.00775194214656949
0.14985357224941254 -0.007751941680908203 0.007751941680908203
0.14863339066505432 -0.007751941680908203 0.02325582504272461
0.14772631227970123 -0.007751941680908203 0.038759708404541016
0.1574452519416809 0.007751941680908203 -0.05426359176635742
0.15268906950950623 0.007751941680908203 -0.038759708404541016
0.15107417106628418 0.007751941680908203 -0.02325582504272461
0.15039396286010742 0.007751941215246916 -0.007751941215246916
0.14981229603290558 0.007751941680908203 0.007751941680908203
0.14905859529972076 0.007751941680908203 0.02325582504272461
0.14825676381587982 0.007751941680908203 0.038759708404541016
0.16021345555782318 0.02325582504272461 -0.05426359176635742
0.15270385146141052 0.02325582504272461 -0.038759708404541016
0.15083935856819153 0.02325582504272461 -0.02325582504272461
0.15070006251335144 0.02325582504272461 -0.007751941680908203
0.15063925087451935 0.02325582318007946 0.007751941680908203
0.15011489391326904 0.02325582504272461 0.02325582504272461
0.14942574501037598 0.02325582504272461 0.038759708404541016
0.14859166741371155 0.02325582318007946 0.05426358804106712
0.1475960910320282 0.02325582504272461 0.06976747512817383
0.15479734539985657 0.038759708404541016 -0.08527129888534546
0.15297605097293854 0.038759708404541016 -0.06976741552352905
0.1515413522720337 0.038759708404541016 -0.05426359176635742
0.15187561511993408 0.038759708404541016 -0.038759708404541016
0.15216496586799622 0.038759708404541016 -0.02325582504272461
0.15147995948791504 0.038759708404541016 -0.007751941680908203
0.15145839750766754 0.038759708404541016 0.007751941680908203
0.15288108587265015 0.038759708404541016 0.02325582504272461
0.15416952967643738 0.038759708404541016 0.038759708404541016
0.15493270754814148 0.038759708404541016 0.05426359176635742
0.15494631230831146 0.038759708404541016 0.06976747512817383
0.15648752450942993 0.05426359176635742 0.007751941680908203
0.150006964802742 0.05426359176635742 0.08527135848999023
0.15788066387176514 0.06976747512817383 -0.06976741552352905
0.14983172714710236 0.06976747512817383 0.08527135848999023
0.15174543857574463 0.08527135848999023 -0.06976741552352905
0.15208661556243896 0.10077524930238724 -0.06976741552352905
0.1548439860343933 0.10077524185180664 0.05426359176635742
0.16086457669734955 0.11627912521362305 -0.06976741552352905
0.16181477904319763 0.11627912521362305 0.038759708404541016
0.16012996435165405 0.1317828893661499 -0.02325582504272461
0.16040123999118805 0.1317828893661499 -0.007751941680908203
0.15776118636131287 0.1317828893661499 0.007751941680908203
0.15097486972808838 0.1317828893661499 0.02325582504272461
0.1733589768409729 -0.27131783962249756 -0.06976741552352905
0.16290564835071564 -0.27131783962249756 -0.05426359176635742
0.1678471565246582 -0.25581395626068115 -0.05426359176635742
0.168879896402359 -0.24031005799770355 -0.05426359176635742
0.16368468105793 -0.24031007289886475 -0.03875970467925072
0.17151609063148499 -0.22480618953704834 -0.06976741552352905
0.16515490412712097 -0.22480618953704834 -0.05426359176635742
0.16313518583774567 -0.22480618953704834 -0.038759708404541016
0.16349326074123383 -0.20930230617523193 -0.08527129888534546
0.16283108294010162 -0.20930230617523193 -0.02325582318007946
0.1628032773733139 -0.19379842281341553 -0.038759708404541016
0.16376559436321259 -0.19379842281341553 -0.02325582504272461
0.16341671347618103 -0.19379842281341553 -0.007751941680908203
0.1631772518157959 -0.1782945990562439 -0.038759708404541016
0.1646668016910553 -0.1782945841550827 -0.02325582504272461
0.16468191146850586 -0.1782945990562439 -0.007751941215246916
0.162928506731987 -0.1782945990562439 0.007751941680908203
0.163142591714859 -0.1627907156944275 -0.038759708404541016
0.16512806713581085 -0.1627907156944275 -0.02325582504272461
0.1655590683221817 -0.1627907156944275 -0.007751941680908203
0.16402460634708405 -0.1627907156944275 0.007751941680908203
0.1647137701511383 -0.14728683233261108 -0.02325582504272461
0.16556498408317566 -0.14728683233261108 -0.007751941680908203
0.1645454615354538 -0.14728683233261108 0.007751941680908203
0.16372264921665192 -0.13178294897079468 -0.02325582504272461
0.16495496034622192 -0.13178294897079468 -0.007751941680908203
0.16437286138534546 -0.13178294897079468 0.00775194214656949
0.16380538046360016 -0.11627906560897827 -0.00775194214656949
0.1635778397321701 -0.11627907305955887 0.007751941680908203
0.16647987067699432 0.007751941680908203 -0.10077518224716187
0.17069187760353088 0.007751941680908203 -0.08527129888534546
0.1653670221567154 0.007751941680908203 -0.06976741552352905
0.17412078380584717 0.02325582504272461 -0.10077518224716187
0.1692592203617096 0.02325582504272461 -0.06976741552352905
0.17783670127391815 0.038759708404541016 0.038759708404541016
0.16965210437774658 0.05426359176635742 -0.06976741552352905
0.17027239501476288 0.05426359176635742 0.007751941680908203
0.1711457073688507 0.05426359176635742 0.06976747512817383
0.17286530137062073 0.06976747512817383 -0.08527129888534546
0.17712216079235077 0.06976747512817383 0.06976747512817383
0.16818289458751678 0.08527135848999023 -0.08527129888534546
0.16282600164413452 0.08527135848999023 0.06976747512817383
0.16721749305725098 0.10077524185180664 -0.08527129888534546
0.17487733066082 0.11627912521362305 -0.08527129888534546
0.17625652253627777 0.1317828893661499 -0.038759708404541016
0.17595157027244568 0.1317828893661499 -0.02325582504272461
0.18082790076732635 -0.28682172298431396 -0.08527129888534546
0.18483279645442963 -0.27131783962249756 -0.08527129888534546
0.18699616193771362 -0.25581395626068115 -0.08527129888534546
0.17957209050655365 -0.25581395626068115 -0.06976741552352905
0.1868118792772293 -0.24031007289886475 -0.08527129888534546
0.1797417849302292 -0.24031008780002594 -0.06976741552352905
0.17906975746154785 -0.22480618953704834 -0.10077518224716187
0.18065324425697327 -0.22480618953704834 -0.08527129888534546
0.17900477349758148 0.02325582504272461 -0.08527130633592606
0.1824968457221985 0.038759708404541016 0.02325582504272461
0.18187439441680908 0.05426359176635742 -0.08527129888534546
0.19150570034980774 0.05426359176635742 0.05426359176635742
0.18484437465667725 0.06976747512817383 -0.10077518224716187
0.19171735644340515 0.06976747512817383 0.05426359176635742
0.17961283028125763 0.08527135848999023 -0.10077518969774246
0.17882324755191803 0.08527136594057083 0.05426359176635742
0.18440580368041992 0.10077524185180664 -0.10077518224716187
0.17894072830677032 0.10077524185180664 0.03875970467925072
0.18025387823581696 0.11627911776304245 0.02325582504272461
0.17888061702251434 0.1317828744649887 -0.02325582504272461
0.19526585936546326 -0.30232560634613037 -0.10077518224716187
0.19649603962898254 -0.28682172298431396 -0.10077517479658127
0.1964673399925232 -0.27131783962249756 -0.10077518224716187
0.19645892083644867 -0.25581395626068115 -0.10077518224716187
0.1950506865978241 -0.24031007289886475 -0.10077518224716187
0.19501587748527527 0.038759708404541016 0.02325582504272461
0.1944122612476349 0.038759712129831314 0.038759712129831314
0.20185784995555878 0.05426359176635742 -0.02325582504272461
0.1960660219192505 0.05426358804106712 -0.007751941680908203
0.19872230291366577 0.05426359176635742 0.007751941680908203
0.2006123960018158 0.05426359176635742 0.02325582504272461
0.19886669516563416 0.05426359176635742 0.038759708404541016
0.2072772979736328 0.06976747512817383 -0.007751941680908203
0.20346719026565552 0.06976747512817383 0.007751941680908203
0.2020360827445984 0.06976747512817383 0.02325582504272461
0.1990656852722168 0.06976747512817383 0.038759708404541016
0.20660485327243805 0.08527135848999023 0.007751941680908203
0.20075255632400513 0.08527135848999023 0.02325582504272461
0.1959184855222702 0.08527135848999023 0.038759708404541016
0.20549774169921875 0.10077524185180664 0.007751941680908203
0.19631683826446533 0.10077524185180664 0.02325582504272461
0.19836656749248505 0.11627912521362305 -0.10077518224716187
0.19588278234004974 0.11627912521362305 0.007751941680908203
0.20568163692951202 0.1317828893661499 -0.05426359176635742
0.19984176754951477 0.1317828893661499 -0.038759708404541016
0.21136066317558289 0.05426359176635742 -0.08527129888534546
0.21307305991649628 0.05426359176635742 -0.06976741552352905
0.2131596803665161 0.05426359549164772 -0.05426359549164772
0.21031229197978973 0.05426359176635742 -0.038759708404541016
0.21997793018817902 0.06976747512817383 -0.10077518224716187
0.22162741422653198 0.06976747512817383 -0.038759708404541016
0.21343795955181122 0.06976747512817383 -0.02325582504272461
0.22090761363506317 0.08527135848999023 -0.02325582504272461
0.21237003803253174 0.08527135848999023 -0.007751941680908203
0.2150193452835083 0.10077524185180664 -0.007751941680908203
0.21042412519454956 0.11627912521362305 -0.007751941680908203
0.22332978248596191 0.1317828893661499 -0.08527129888534546
0.21386072039604187 0.1317828893661499 -0.06976741552352905
0.2265055775642395 0.06976747512817383 -0.08527129888534546
0.22772201895713806 0.06976747512817383 -0.06976741552352905
0.2266162633895874 0.06976747512817383 -0.05426359176635742
0.23369178175926208 0.08527135848999023 -0.10077518224716187
0.2359417974948883 0.08527135848999023 -0.05426359176635742
0.22922295331954956 0.08527135848999023 -0.038759708404541016
0.2347148060798645 0.10077524185180664 -0.038759708404541016
0.22589901089668274 0.10077524185180664 -0.02325582504272461
0.23526769876480103 0.11627912521362305 -0.038759708404541016
0.2248172163963318 0.11627912521362305 -0.02325582504272461
0.22679951786994934 0.1317828893661499 -0.05426359176635742
0.24094036221504211 0.08527136594057083 -0.08527129888534546
0.24089613556861877 0.08527135848999023 -0.06976741552352905
0.25104668736457825 0.10077524185180664 -0.10077518224716187
0.2527746260166168 0.10077524185180664 -0.06976741552352905
0.24435552954673767 0.10077524185180664 -0.05426359176635742
0.24648073315620422 0.11627912521362305 -0.05426359176635742
0.25103560090065 0.1317828893661499 -0.10077518224716187
0.25444504618644714 0.1317828893661499 -0.06976741552352905
0.2573907971382141 0.10077524185180664 -0.08527129888534546
0.259591281414032 0.11627913266420364 -0.06976741552352905
0.2758338451385498 0.11627912521362305 -0.10077518224716187
0.2741885781288147 0.11627912521362305 -0.08527129143476486
0.27407386898994446 0.1317828893661499 -0.10077518224716187
0.2731691002845764 0.1317828893661499 -0.08527129888534546
-0.25581395626068115 0.1120564192533493 -0.10077518224716187
-0.25581395626068115 0.10077968239784241 -0.08527129888534546
-0.25581395626068115 0.11368118226528168 -0.06976741552352905
-0.25581395626068115 0.12613314390182495 -0.10077518224716187
-0.25581395626068115 0.1223049908876419 -0.06976741552352905
-0.25581395626068115 0.13396036624908447 -0.08527129888534546
-0.24031007289886475 0.09700031578540802 -0.10077518224716187
-0.24031007289886475 0.0887080729007721 -0.08527129888534546
-0.24031007289886475 0.08940517902374268 -0.06976741552352905
-0.24031007289886475 0.0989622250199318 -0.05426359176635742
-0.24031005799770355 0.12186366319656372 -0.10077518224716187
-0.24031007289886475 0.12555818259716034 -0.05426359176635742
-0.24031007289886475 0.13222919404506683 -0.08527129888534546
-0.24031007289886475 0.13243509829044342 -0.06976741552352905
-0.22480618953704834 0.08337132632732391 -0.10077518224716187
-0.22480617463588715 0.07513788342475891 -0.08527129888534546
-0.22480618953704834 0.07143216580152512 -0.06976741552352905
-0.22480618953704834 0.0747673511505127 -0.05426359176635742
-0.22480618953704834 0.08540486544370651 -0.038759708404541016
-0.22480618953704834 0.12074283510446548 -0.10077518969774246
-0.22480618953704834 0.12921510636806488 -0.08527129888534546
-0.22480618953704834 0.13176146149635315 -0.05426359176635742
-0.22480618953704834 0.1255740374326706 -0.038759708404541016
-0.22480620443820953 0.13205772638320923 -0.06976741552352905
-0.20930230617523193 0.053605854511260986 -0.06976741552352905
-0.20930230617523193 0.053478918969631195 -0.05426359176635742
-0.20930230617523193 0.06754737347364426 -0.10077518224716187
-0.20930230617523193 0.058553263545036316 -0.08527129888534546
-0.20930230617523193 0.05922240763902664 -0.038759708404541016
-0.20930230617523193 0.07203526794910431 -0.02325582504272461
-0.20930230617523193 0.09692409634590149 -0.007751941680908203
-0.20930230617523193 0.10345987975597382 -0.007751941680908203
-0.20930230617523193 0.1185179129242897 -0.10077518969774246
-0.20930230617523193 0.12506359815597534 -0.08527129888534546
-0.20930230617523193 0.12888702750205994 -0.06976741552352905
-0.20930230617523193 0.13030660152435303 -0.05426359176635742
-0.20930230617523193 0.1288093477487564 -0.038759708404541016
-0.20930230617523193 0.12203463912010193 -0.02325582504272461
-0.19379842281341553 -0.2905547022819519 -0.10077518224716187
-0.19379842281341553 -0.2676949203014374 -0.10077518224716187
-0.19379842281341553 0.052122484892606735 -0.08527129888534546
-0.19379842281341553 0.04867393150925636 -0.06976741552352905
-0.19379842281341553 0.04514385759830475 -0.05426359176635742
-0.19379842281341553 0.04672018811106682 -0.038759708404541016
-0.19379842281341553 0.05243232473731041 -0.02325582504272461
-0.19379842281341553 0.05404156446456909 0.007751941680908203
-0.19379842281341553 0.05008922517299652 0.02325582504272461
-0.19379842281341553 0.06384904682636261 -0.10077518224716187
-0.19379842281341553 0.05940139293670654 -0.007751941680908203
-0.19379842281341553 0.07978316396474838 0.02325582504272461
-0.19379842281341553 0.11043114960193634 -0.10077518224716187
-0.19379842281341553 0.10525502264499664 0.007751941680908203
-0.19379842281341553 0.1208285242319107 -0.08527129888534546
-0.19379842281341553 0.125041663646698 -0.06976741552352905
-0.19379842281341553 0.12805189192295074 -0.05426359176635742
-0.19379842281341553 0.1293206512928009 -0.038759708404541016
-0.19379842281341553 0.12629514932632446 -0.02325582504272461
-0.19379842281341553 0.11900341510772705 -0.007751941680908203
-0.1782945990562439 -0.30417802929878235 -0.10077518224716187
-0.1782945990562439 -0.2789257764816284 -0.08527129888534546
-0.1782945990562439 -0.22489720582962036 -0.10077518224716187
-0.1782945990562439 -0.22497184574604034 -0.08527129888534546
-0.1782945990562439 0.05117350071668625 -0.06976741552352905
-0.1782945990562439 0.0465482622385025 -0.05426359176635742
-0.1782945990562439 0.04619763791561127 -0.038759708404541016
-0.1782945990562439 0.050501637160778046 -0.02325582504272461
-0.1782945990562439 0.05395389348268509 0.007751941680908203
-0.1782945990562439 0.04479442536830902 0.02325582504272461
-0.1782945990562439 0.04416970908641815 0.038759708404541016
-0.1782945990562439 0.06362704932689667 -0.08527129888534546
-0.1782945990562439 0.05475003272294998 -0.007751941680908203
-0.1782945990562439 0.08497784286737442 0.038759708404541016
-0.1782945990562439 0.10354343056678772 0.02325582504272461
-0.1782945990562439 0.11709366738796234 -0.08527129888534546
-0.1782945990562439 0.12136319279670715 -0.06976741552352905
-0.1782945990562439 0.12520593404769897 -0.05426359176635742
-0.1782945990562439 0.12852966785430908 -0.038759708404541016
-0.1782945990562439 0.1275750696659088 -0.02325582504272461
-0.1782945990562439 0.12302593886852264 -0.007751941215246916
-0.1782945841550827 0.11799272894859314 0.007751941680908203
-0.16279073059558868 -0.30172666907310486 -0.10077518224716187
-0.1627907156944275 -0.2936113476753235 -0.08527129888534546
-0.1627907156944275 -0.28005534410476685 -0.06976741552352905
-0.1627907156944275 -0.2588691711425781 -0.05426359176635742
-0.1627907156944275 -0.2204466462135315 -0.10077518224716187
-0.1627907156944275 -0.21291980147361755 -0.06976741552352905
-0.1627907156944275 -0.2199937105178833 -0.05426359176635742
-0.1627907156944275 -0.20876552164554596 -0.08527129888534546
-0.1627907156944275 -0.1835770308971405 -0.02325582504272461
-0.1627907156944275 -0.17892134189605713 -0.007751941680908203
-0.1627907156944275 -0.14928483963012695 -0.02325582504272461
-0.1627907156944275 -0.1347029060125351 -0.007751941680908203
-0.1627907156944275 0.0065695745870471 -0.08527129888534546
-0.1627907156944275 0.015613154508173466 -0.06976741552352905
-0.1627907156944275 0.027788858860731125 -0.08527129888534546
-0.1627907156944275 0.025120124220848083 -0.06976741552352905
-0.1627907156944275 0.05119995027780533 -0.038759708404541016
-0.1627907156944275 0.05181725695729256 -0.02325582504272461
-0.1627907156944275 0.052972566336393356 0.038759708404541016
-0.1627907156944275 0.05038091540336609 0.05426359176635742
-0.1627907156944275 0.052113309502601624 0.06976747512817383
-0.1627907156944275 0.05513540655374527 -0.05426359176635742
-0.1627907156944275 0.05925079435110092 -0.007751941680908203
-0.1627907156944275 0.0673578530550003 0.007751941680908203
-0.1627907156944275 0.06735933572053909 0.02325582504272461
-0.1627907156944275 0.07360751926898956 -0.06976741552352905
-0.1627907156944275 0.08245702087879181 0.05426359176635742
-0.1627907156944275 0.07280177623033524 0.06976747512817383
-0.1627907156944275 0.09953025728464127 0.038759708404541016
-0.1627907156944275 0.1119266077876091 -0.06976741552352905
-0.1627907156944275 0.11930541694164276 -0.05426359176635742
-0.1627907156944275 0.12379671633243561 -0.038759708404541016
-0.1627907156944275 0.12606430053710938 -0.02325582504272461
-0.1627907156944275 0.12518858909606934 -0.007751941680908203
-0.1627907156944275 0.12249539792537689 0.007751941680908203
-0.1627907156944275 0.11747915297746658 0.02325582504272461
-0.14728683233261108 -0.28821638226509094 -0.10077518224716187
-0.14728683233261108 -0.2917453944683075 -0.08527129888534546
-0.14728683233261108 -0.28842246532440186 -0.06976741552352905
-0.14728683233261108 -0.27999091148376465 -0.05426359176635742
-0.14728683233261108 -0.2713257670402527 -0.038759708404541016
-0.14728683233261108 -0.25808626413345337 -0.02325582504272461
-0.14728683233261108 -0.2453410029411316 -0.007751941680908203
-0.14728683233261108 -0.23142856359481812 0.007751941680908203
-0.14728683233261108 -0.2198948860168457 -0.10077517479658127
-0.14728683233261108 -0.21262136101722717 0.02325582504272461
-0.14728683233261108 -0.2058895081281662 -0.08527129888534546
-0.14728683233261108 -0.195359006524086 -0.06976741552352905
-0.14728683233261108 -0.1898922324180603 0.038759708404541016
-0.14728683233261108 -0.16356639564037323 0.05426359176635742
-0.14728683233261108 -0.1319350004196167 -0.05426359176635742
-0.14728683233261108 -0.09354463219642639 -0.038759708404541016
-0.14728683233261108 -0.09057830274105072 0.05426359176635742
-0.14728683233261108 -0.07729935646057129 0.038759708404541016
-0.14728683233261108 -0.06123315542936325 -0.038759708404541016
-0.14728683233261108 -0.05959964916110039 0.02325582504272461
-0.14728683233261108 -0.04401013255119324 -0.05426359176635742
-0.14728683233261108 -0.04168452322483063 0.02325582504272461
-0.14728683233261108 -0.016386793926358223 -0.06976741552352905
-0.14728683233261108 0.0064129941165447235 -0.10077518224716187
-0.14728683233261108 -0.0033157202415168285 -0.08527129888534546
-0.14728683233261108 0.009527330286800861 0.038759708404541016
-0.14728683233261108 0.022529033944010735 0.05426359176635742
-0.14728683233261108 0.025595862418413162 -0.10077518224716187
-0.14728683233261108 0.03140208125114441 -0.08527129888534546
-0.14728683233261108 0.031989336013793945 -0.06976741552352905
-0.14728683233261108 0.03130742907524109 -0.05426359176635742
-0.14728683233261108 0.03366069868206978 -0.038759708404541016
-0.14728683233261108 0.02891828492283821 0.06976747512817383
-0.14728683233261108 0.04950983077287674 -0.038759708404541016
-0.14728683233261108 0.07634244859218597 -0.05426359176635742
-0.14728683233261108 0.10055992007255554 0.05426359176635742
-0.14728683233261108 0.0878627747297287 0.06976747512817383
-0.14728683233261108 0.10237408429384232 -0.05426359176635742
-0.14728684723377228 0.11828183382749557 -0.038759708404541016
-0.14728683233261108 0.12426315993070602 -0.02325582504272461
-0.14728683233261108 0.12825556099414825 -0.007751941680908203
-0.14728683233261108 0.1289496123790741 0.007751941680908203
-0.14728683233261108 0.1248159259557724 0.02325582504272461
-0.14728683233261108 0.11794638633728027 0.038759708404541016
-0.13178294897079468 -0.28755420446395874 -0.08527129888534546
-0.13178294897079468 -0.2874833643436432 -0.06976741552352905
-0.13178294897079468 -0.27235710620880127 -0.10077518224716187
-0.13178294897079468 -0.28311383724212646 -0.05426359176635742
-0.13178294897079468 -0.27694207429885864 -0.038759708404541016
-0.13178294897079468 -0.2744704484939575 -0.02325582504272461
-0.13178294897079468 -0.2724747657775879 -0.007751941680908203
-0.13178294897079468 -0.26516014337539673 0.007751941680908203
-0.13178294897079468 -0.25550520420074463 0.02325582504272461
-0.13178294897079468 -0.24131286144256592 0.038759708404541016
-0.13178294897079468 -0.22748853266239166 -0.10077518224716187
-0.13178294897079468 -0.22451554238796234 0.05426359176635742
-0.13178294897079468 -0.2015371322631836 -0.08527129888534546
-0.13178294897079468 -0.1982252299785614 0.06976747512817383
-0.13178294897079468 -0.1641019582748413 0.08527135848999023
-0.13178294897079468 -0.12563584744930267 -0.06976741552352905
-0.13178294897079468 -0.0778149962425232 -0.06976741552352905
-0.13178294897079468 -0.04463627189397812 -0.08527129888534546
-0.13178294897079468 -0.024211904034018517 0.08527135848999023
-0.13178294897079468 -0.0028523558285087347 -0.10077518969774246
-0.13178294897079468 0.0197472982108593 0.08527135848999023
-0.13178294897079468 0.02733682468533516 -0.10077518224716187
-0.13178294897079468 0.04268742725253105 -0.08527129888534546
-0.13178294897079468 0.05928746610879898 -0.06976741552352905
-0.13178294897079468 0.08559215068817139 0.08527135848999023
-0.13178294897079468 0.10384073108434677 0.06976747512817383
-0.13178294897079468 0.1243010014295578 -0.05426359176635742
-0.13178294897079468 0.12622901797294617 0.05426359176635742
-0.13178294897079468 0.17150169610977173 -0.038759708404541016
-0.13178294897079468 0.16459102928638458 0.038759708404541016
-0.13178294897079468 0.18774005770683289 -0.02325582504272461
-0.13178294897079468 0.19318214058876038 -0.007751941680908203
-0.13178294897079468 0.19164754450321198 0.007751941680908203
-0.13178294897079468 0.1823047399520874 0.02325582504272461
-0.11627906560897827 -0.2895461320877075 -0.007751941680908203
-0.11627906560897827 -0.28853923082351685 0.007751941680908203
-0.11627906560897827 -0.27352631092071533 -0.08527129888534546
-0.11627906560897827 -0.27775007486343384 -0.06976741552352905
-0.11627906560897827 -0.27943435311317444 -0.05426359176635742
-0.11627906560897827 -0.2802412211894989 -0.038759708404541016
-0.11627906560897827 -0.2859219014644623 -0.02325582504272461
-0.11627906560897827 -0.2808031439781189 0.02325582504272461
-0.11627906560897827 -0.27254557609558105 0.038759708404541016
-0.11627906560897827 -0.25932300090789795 0.05426359176635742
-0.11627906560897827 -0.24267873167991638 0.06976747512817383
-0.11627906560897827 -0.21541932225227356 0.08527135848999023
-0.11627906560897827 -0.11220936477184296 0.10077523440122604
-0.11627906560897827 -0.060397908091545105 -0.10077518224716187
-0.11627906560897827 -0.040113773196935654 0.10077524185180664
-0.11627906560897827 0.05234513059258461 -0.10077518224716187
-0.11627906560897827 0.10281761735677719 0.08527135848999023
-0.11627906560897827 0.168830007314682 0.06976747512817383
-0.11627906560897827 0.20225173234939575 -0.08527129888534546
-0.11627905815839767 0.1989862471818924 0.05426359176635742
-0.11627906560897827 0.21806660294532776 0.038759708404541016
-0.11627906560897827 0.23219865560531616 -0.06976741552352905
-0.11627906560897827 0.2335827350616455 0.02325582504272461
-0.11627906560897827 0.24990350008010864 -0.05426359176635742
-0.11627906560897827 0.25428852438926697 -0.007751941680908203
-0.11627906560897827 0.24645809829235077 0.007751941215246916
-0.11627906560897827 0.25713518261909485 -0.038759708404541016
-0.11627906560897827 0.2578527331352234 -0.02325582504272461
-0.10077518224716187 -0.31951332092285156 -0.007751941680908203
-0.10077518224716187 -0.3194252848625183 0.007751941680908203
-0.10077518224716187 -0.31072789430618286 -0.02325582504272461
-0.10077518224716187 -0.31235072016716003 0.02325582504272461
-0.10077518224716187 -0.30367401242256165 0.038759708404541016
-0.10077518224716187 -0.2912066876888275 -0.05426359176635742
-0.10077518224716187 -0.29969191551208496 -0.038759708404541016
-0.10077518224716187 -0.2924915850162506 0.05426359176635742
-0.10077518224716187 -0.28060105443000793 -0.06976741552352905
-0.10077518224716187 -0.2823054790496826 0.06976747512817383
-0.10077518224716187 -0.26374387741088867 -0.08527129888534546
-0.10077518224716187 -0.24519605934619904 0.08527135848999023
-0.10077518224716187 -0.1430206149816513 0.10077524185180664
-0.10077518224716187 -0.12113774567842484 -0.10077518224716187
-0.10077518224716187 -0.0039426772855222225 0.10077524185180664
-0.10077518224716187 0.16891685128211975 0.08527135848999023
-0.10077518224716187 0.20682664215564728 -0.10077518224716187
-0.10077518224716187 0.20820298790931702 0.06976747512817383
-0.10077518224716187 0.23227469623088837 0.05426359176635742
-0.10077518224716187 0.2531662881374359 0.038759708404541016
-0.10077518224716187 0.2853766977787018 -0.08527129888534546
-0.10077518224716187 0.27280333638191223 0.02325582504272461
-0.10077518224716187 0.29208043217658997 0.007751941680908203
-0.10077518224716187 0.31001999974250793 -0.007751941680908203
-0.10077518224716187 0.31896668672561646 -0.06976741552352905
-0.10077518224716187 0.3303901255130768 -0.05426359176635742
-0.10077518224716187 0.3322291672229767 -0.038759708404541016
-0.10077518224716187 0.3241114914417267 -0.02325582504272461
-0.08527129888534546 -0.35187670588493347 -0.02325582504272461
-0.08527129888534546 -0.3627605438232422 -0.007751941680908203
-0.08527129888534546 -0.3630078434944153 0.00775194214656949
-0.08527129888534546 -0.3561207056045532 0.02325582504272461
-0.08527129888534546 -0.3339749276638031 -0.038759708404541016
-0.08527129888534546 -0.34397077560424805 0.038759708404541016
-0.08527129888534546 -0.32357552647590637 0.05426359176635742
-0.08527129888534546 -0.3146064281463623 -0.05426359549164772
-0.08527129888534546 -0.30730289220809937 0.06976747512817383
-0.08527129888534546 -0.2934983968734741 -0.06976741552352905
-0.08527129888534546 -0.2919034957885742 0.08527135848999023
-0.08527129888534546 -0.2698659896850586 -0.08527129888534546
-0.08527129888534546 -0.16119155287742615 0.10077524185180664
-0.08527129888534546 -0.13845385611057281 -0.10077518224716187
-0.08527129888534546 0.02111402153968811 0.10077524185180664
-0.08527129888534546 0.1932733654975891 0.08527135848999023
-0.08527129143476486 0.22799713909626007 0.06976747512817383
-0.08527129888534546 0.2435435652732849 -0.10077518224716187
-0.08527129143476486 0.25675472617149353 0.05426359176635742
-0.08527129888534546 0.28500816226005554 0.038759708404541016
-0.08527129888534546 0.3180522620677948 0.02325582504272461
-0.08527129888534546 0.350167840719223 0.007751941215246916
-0.08527129888534546 0.3713783025741577 -0.08527129888534546
-0.08527129888534546 0.3744525611400604 -0.007751941680908203
-0.08527129888534546 0.39486798644065857 -0.02325582504272461
-0.08527129888534546 0.4077271819114685 -0.06976741552352905
-0.08527129888534546 0.4200901389122009 -0.05426359176635742
-0.08527129888534546 0.41341692209243774 -0.038759708404541016
-0.06976741552352905 -0.4607490301132202 -0.007751941680908203
-0.06976741552352905 -0.4616777300834656 0.007751941680908203
-0.06976741552352905 -0.44761812686920166 0.02325582504272461
-0.06976741552352905 -0.4405735731124878 -0.02325582504272461
-0.06976740807294846 -0.425630658864975 0.038759708404541016
-0.06976741552352905 -0.3977241516113281 -0.038759708404541016
-0.06976741552352905 -0.39249172806739807 0.05426359176635742
-0.06976741552352905 -0.35093027353286743 -0.05426359176635742
-0.06976741552352905 -0.32965540885925293 0.06976747512817383
-0.06976741552352905 -0.30828577280044556 -0.06976741552352905
-0.06976741552352905 -0.30646541714668274 0.08527135848999023
-0.06976741552352905 -0.2748144865036011 -0.08527129888534546
-0.06976741552352905 -0.17284122109413147 0.10077524185180664
-0.06976741552352905 -0.14610916376113892 -0.10077518224716187
-0.06976741552352905 0.01950608193874359 0.10077524185180664
-0.06976741552352905 0.1991625726222992 0.08527135848999023
-0.06976741552352905 0.24020451307296753 0.06976747512817383
-0.06976741552352905 0.27466386556625366 0.05426359176635742
-0.06976741552352905 0.2913215756416321 -0.10077518224716187
-0.06976741552352905 0.31631261110305786 0.038759708404541016
-0.06976741552352905 0.35883232951164246 0.02325582504272461
-0.06976741552352905 0.3909415006637573 0.007751941680908203
-0.06976741552352905 0.42234665155410767 -0.007751941680908203
-0.06976740807294846 0.4421578645706177 -0.08527129888534546
-0.06976741552352905 0.47276896238327026 -0.02325582504272461
-0.06976741552352905 0.4990651607513428 -0.038759708404541016
-0.06976741552352905 0.5140981674194336 -0.06976741552352905
-0.06976741552352905 0.5130387544631958 -0.05426359176635742
-0.05426359176635742 -0.5402049422264099 -0.007751941680908203
-0.05426359176635742 -0.5368760228157043 0.007751941680908203
-0.05426359176635742 -0.5078988671302795 -0.02325582504272461
-0.05426359176635742 -0.4964401423931122 0.02325582504272461
-0.05426359176635742 -0.48201900720596313 -0.038759708404541016
-0.05426359176635742 -0.4653812050819397 0.038759708404541016
-0.05426359176635742 -0.43798238039016724 -0.05426359176635742
-0.05426359176635742 -0.4383724331855774 0.05426359176635742
-0.05426359176635742 -0.39370062947273254 0.06976747512817383
-0.05426359176635742 -0.3262766897678375 -0.06976741552352905
-0.05426359176635742 -0.3181188106536865 0.08527135848999023
-0.05426359176635742 -0.2793317139148712 -0.08527129888534546
-0.05426359176635742 -0.24204322695732117 0.10077524185180664
-0.05426359176635742 -0.21724814176559448 0.10077524185180664
-0.05426359176635742 -0.1930265724658966 0.10077524185180664
-0.05426359176635742 -0.14943812787532806 -0.10077518224716187
-0.05426359176635742 0.02720022201538086 0.10077524185180664
-0.05426359176635742 0.20045164227485657 0.08527135848999023
-0.05426359176635742 0.24517831206321716 0.06976747512817383
-0.05426359176635742 0.29963549971580505 -0.10077518224716187
-0.05426358804106712 0.2919696867465973 0.05426358804106712
-0.05426359176635742 0.3433535099029541 0.038759708404541016
-0.05426358804106712 0.38422727584838867 0.02325582504272461
-0.05426359176635742 0.4189068078994751 0.007751941680908203
-0.05426359176635742 0.46706700325012207 -0.007751941680908203
-0.05426359176635742 0.5126239657402039 -0.02325582504272461
-0.05426359176635742 0.5523503422737122 -0.038759708404541016
-0.05426359176635742 0.5771818161010742 -0.08527129888534546
-0.05426359176635742 0.5852679014205933 -0.05426359176635742
-0.05426359176635742 0.598682165145874 -0.06976741552352905
-0.038759708404541016 -0.5997024178504944 -0.038759708404541016
-0.038759708404541016 -0.6065459251403809 -0.02325582504272461
-0.038759708404541016 -0.6121281981468201 -0.007751941680908203
-0.038759708404541016 -0.6080729365348816 0.007751941680908203
-0.038759708404541016 -0.5971936583518982 0.02325582504272461
-0.038759708404541016 -0.5863140821456909 -0.05426359176635742
-0.038759708404541016 -0.5250884294509888 0.038759708404541016
-0.038759708404541016 -0.4622712731361389 -0.06976741552352905
-0.038759708404541016 -0.4622240662574768 0.05426359176635742
-0.038759708404541016 -0.422118604183197 0.06976747512817383
-0.038759708404541016 -0.32863566279411316 0.08527135848999023
-0.038759708404541016 -0.290306031703949 0.10077524185180664
-0.03875970467925072 -0.28436923027038574 -0.08527129888534546
-0.038759708404541016 -0.1543739140033722 -0.10077518224716187
-0.038759708404541016 0.07302241027355194 0.10077524185180664
-0.038759708404541016 0.20240071415901184 0.08527135848999023
-0.038759708404541016 0.25523751974105835 -0.10077518224716187
-0.038759708404541016 0.25493282079696655 0.06976747512817383
-0.038759708404541016 0.31083768606185913 0.05426359176635742
-0.038759708404541016 0.3669699430465698 0.038759708404541016
-0.038759708404541016 0.4075000286102295 0.02325582504272461
-0.038759708404541016 0.44669538736343384 0.007751941680908203
-0.038759708404541016 0.5000694990158081 -0.007751941680908203
-0.038759708404541016 0.5522940754890442 -0.02325582504272461
-0.038759708404541016 0.5994113683700562 -0.038759708404541016
-0.038759708404541016 0.6534519791603088 -0.05426359176635742
-0.038759708404541016 0.6843741536140442 -0.08527129888534546
-0.038759708404541016 0.7068756818771362 -0.06976741552352905
-0.02325582504272461 -0.6989685893058777 -0.038759708404541016
-0.02325582504272461 -0.6631863117218018 -0.08527129888534546
-0.02325582504272461 -0.6663557887077332 -0.06976741552352905
-0.02325582504272461 -0.6669101715087891 -0.05426359176635742
-0.02325582504272461 -0.6645938158035278 -0.02325582504272461
-0.02325582504272461 -0.6444104909896851 -0.10077518224716187
-0.02325582504272461 -0.6451538801193237 -0.007751941680908203
-0.02325582504272461 -0.63469398021698 0.007751941680908203
-0.02325582504272461 -0.6236137747764587 -0.10077518224716187
-0.02325582504272461 -0.620812177658081 0.02325582504272461
-0.02325582504272461 -0.6043115854263306 0.038759708404541016
-0.02325582504272461 -0.5522505640983582 -0.08527129888534546
-0.02325582504272461 -0.48129263520240784 0.05426359176635742
-0.02325582504272461 -0.43461596965789795 0.06976747512817383
-0.02325582504272461 -0.35372599959373474 0.08527135848999023
-0.02325582504272461 -0.30533668398857117 0.10077524185180664
-0.02325582504272461 -0.28939154744148254 -0.08527129888534546
-0.02325582504272461 -0.1562725454568863 -0.10077518224716187
-0.02325582504272461 0.12240634113550186 0.10077524185180664
-0.02325582504272461 0.20317718386650085 0.08527135848999023
-0.02325582504272461 0.23955507576465607 -0.10077518224716187
-0.02325582504272461 0.2594788372516632 0.06976747512817383
-0.02325582504272461 0.30311119556427 -0.10077518224716187
-0.02325582504272461 0.32723268866539 -0.10077518224716187
-0.02325582504272461 0.32719385623931885 0.05426359176635742
-0.02325582504272461 0.38499629497528076 0.038759708404541016
-0.02325582504272461 0.42698606848716736 0.02325582504272461
-0.02325582504272461 0.47787046432495117 0.007751941680908203
-0.02325582504272461 0.5384815335273743 -0.007751941680908203
-0.02325582504272461 0.5910658836364746 -0.02325582504272461
-0.02325582504272461 0.6503943204879761 -0.038759708404541016
-0.02325582504272461 0.7700915336608887 -0.05426359176635742
-0.02325582504272461 0.785959780216217 -0.08527129888534546
-0.02325582504272461 0.7961151599884033 -0.06976741552352905
-0.007751941680908203 -0.9876163005828857 -0.02325582504272461
-0.007751941680908203 -0.982262372970581 -0.038759708404541016
-0.007751941680908203 -0.9775146842002869 -0.007751941680908203
-0.007751941680908203 -0.949924647808075 -0.007751941680908203
-0.007751941680908203 -0.928327202796936 -0.05426359176635742
-0.007751941680908203 -0.880964457988739 -0.06976741552352905
-0.007751941680908203 -0.7274900674819946 -0.08527129888534546
-0.007751941680908203 -0.7032392621040344 -0.007751941680908203
-0.007751941680908203 -0.6673765778541565 -0.10077518224716187
-0.007751941680908203 -0.6560472249984741 0.007751941680908203
-0.007751941680908203 -0.6352540254592896 0.02325582504272461
-0.007751941680908203 -0.616541862487793 0.038759708404541016
-0.007751941680908203 -0.5975515246391296 -0.10077518224716187
