-0.02325582504272461 -0.09250985085964203 -0.02325582504272461
-0.02325582504272461 -0.09324117004871368 -0.007751941680908203
-0.02325582504272461 -0.0931747630238533 0.007751941680908203
-0.02325582504272461 -0.09175089001655579 0.02325582504272461
-0.02325582504272461 -0.09042785316705704 0.038759708404541016
-0.02325582504272461 -0.08891411125659943 0.05426359176635742
-0.02325582504272461 -0.08673074841499329 0.06976747512817383
-0.02325582504272461 -0.07748020440340042 -0.06976741552352905
-0.02325582504272461 -0.08052201569080353 0.08527135848999023
-0.02325582504272461 -0.07219178974628448 0.10077524185180664
-0.02325582504272461 -0.06656719744205475 -0.08527129888534546
-0.02325582504272461 -0.04181547835469246 -0.10077518224716187
-0.02325582504272461 -0.05180560052394867 0.11627912521362305
-0.02325582504272461 0.08641241490840912 -0.10077518969774246
-0.02325582504272461 0.08665914833545685 0.11627912521362305
-0.02325582504272461 0.10420145839452744 -0.08527129888534546
-0.02325582504272461 0.10806479305028915 0.10077524185180664
-0.02325582504272461 0.11804908514022827 -0.06976741552352905
-0.02325582504272461 0.12509210407733917 -0.05426359176635742
-0.02325582504272461 0.12891563773155212 -0.038759708404541016
-0.02325582504272461 0.13045303523540497 -0.02325582504272461
-0.02325582504272461 0.1311311572790146 -0.007751941680908203
-0.02325582504272461 0.13040907680988312 0.007751941680908203
-0.02325582504272461 0.12864528596401215 0.02325582504272461
-0.02325582504272461 0.12614566087722778 0.038759708404541016
-0.02325582504272461 0.12333809584379196 0.05426359176635742
-0.02325582504272461 0.12069455534219742 0.06976747512817383
-0.02325582504272461 0.1176009476184845 0.08527135848999023
-0.02325582504272461 0.1433073878288269 -0.11627906560897827
-0.02325582504272461 0.18716415762901306 -0.11627906560897827
-0.007751941680908203 -0.09052371978759766 -0.05426359176635742
-0.007751941680908203 -0.09335225820541382 -0.038759708404541016
-0.007751941680908203 -0.0938822478055954 -0.02325582504272461
-0.007751941680908203 -0.09415707737207413 -0.007751941680908203
-0.007751941680908203 -0.09348422288894653 0.007751941680908203
-0.007751941680908203 -0.09164291620254517 0.02325582504272461
-0.007751941680908203 -0.09041039645671844 0.038759708404541016
-0.007751941680908203 -0.08909326791763306 0.05426359176635742
-0.007751941680908203 -0.08692580461502075 0.06976747512817383
-0.007751941680908203 -0.07015658169984818 -0.08527129888534546
-0.007751941680908203 -0.08295351266860962 -0.06976741552352905
-0.007751941680908203 -0.08072417229413986 0.08527135848999023
-0.007751941680908203 -0.07210908085107803 0.10077524185180664
-0.007751941680908203 -0.044252388179302216 -0.10077518224716187
-0.007751941680908203 -0.05247613787651062 0.11627912521362305
-0.007751941215246916 0.08611546456813812 -0.10077518224716187
-0.007751941680908203 0.09307725727558136 0.11627912521362305
-0.007751941680908203 0.10748589038848877 -0.08527129888534546
-0.007751941680908203 0.11312630027532578 0.10077524185180664
-0.007751941680908203 0.1219613254070282 -0.06976741552352905
-0.007751941680908203 0.1305622160434723 -0.05426359176635742
-0.007751941680908203 0.12998750805854797 0.038759708404541016
-0.007751941680908203 0.12671367824077606 0.05426359176635742
-0.00775194214656949 0.12333151698112488 0.06976747512817383
-0.007751941215246916 0.11981736123561859 0.08527135848999023
-0.007751941680908203 0.142454594373703 -0.11627906560897827
-0.007751941680908203 0.13266929984092712 -0.038759708404541016
-0.007751941680908203 0.13342104852199554 -0.02325582504272461
-0.007751941680908203 0.13337624073028564 -0.007751941680908203
-0.007751941680908203 0.13281123340129852 0.007751941680908203
-0.007751941680908203 0.13209596276283264 0.02325582504272461
-0.007751941680908203 0.1886003166437149 -0.11627906560897827
0.007751941680908203 -0.22635234892368317 -0.13178294897079468
0.007751941680908203 -0.22755050659179688 -0.11627906560897827
0.007751941680908203 -0.19023603200912476 -0.13178294897079468
0.007751941680908203 -0.17737159132957458 -0.11627906560897827
0.007751941680908203 -0.08722832798957825 -0.06976741552352905
0.007751941680908203 -0.09584102779626846 -0.05426359549164772
0.007751941680908203 -0.09672676771879196 -0.038759708404541016
0.007751941680908203 -0.09620987623929977 -0.02325582690536976
0.007751941680908203 -0.09596430510282516 -0.007751941680908203
0.007751941680908203 -0.09467862546443939 0.007751941680908203
0.007751941680908203 -0.09218357503414154 0.02325582504272461
0.007751941680908203 -0.09065555781126022 0.038759708404541016
0.007751941680908203 -0.0892328992486 0.05426359176635742
0.007751941680908203 -0.0869550034403801 0.06976747512817383
0.007751941680908203 -0.07215110212564468 -0.08527129888534546
0.007751941680908203 -0.08036307990550995 0.08527135848999023
0.007751941680908203 -0.07170157134532928 0.10077524185180664
0.007751941680908203 -0.04236196354031563 -0.10077518224716187
0.007751941680908203 -0.051761284470558167 0.11627912521362305
0.007751941680908203 -0.033875226974487305 -0.10077518224716187
0.007751941680908203 0.007679454050958157 -0.10077518224716187
0.007751941680908203 0.08418112993240356 -0.10077518224716187
0.007751941680908203 0.09964745491743088 0.11627912521362305
0.007751941680908203 0.1099315881729126 -0.08527129888534546
0.007751941680908203 0.1277054250240326 -0.06976741552352905
0.007751941680908203 0.12994572520256042 0.05426359176635742
0.007751941680908203 0.12598571181297302 0.06976747512817383
0.007751941680908203 0.12171274423599243 0.08527135848999023
0.007751941680908203 0.11674017459154129 0.10077524185180664
0.007751941680908203 0.13713791966438293 -0.11627907305955887
0.007751941680908203 0.14226004481315613 -0.10077518224716187
0.007751941680908203 0.13316045701503754 -0.05426359176635742
0.007751941680908203 0.13573668897151947 -0.038759708404541016
0.007751941680908203 0.13674256205558777 -0.02325582504272461
0.007751941680908203 0.1361275166273117 -0.007751941680908203
0.007751941680908203 0.134921595454216 0.007751941680908203
0.00775194214656949 0.13385482132434845 0.02325582504272461
0.007751941680908203 0.13252657651901245 0.038759708404541016
0.007751941680908203 0.1664189100265503 -0.10077518224716187
0.007751941680908203 0.1916521042585373 -0.13178294897079468
0.007751941680908203 0.19437691569328308 -0.13178294897079468
0.007751941680908203 0.19441284239292145 -0.11627906560897827
0.02325582504272461 -0.22608456015586853 -0.13178294897079468
0.02325582504272461 -0.22708894312381744 -0.11627906560897827
0.02325582504272461 -0.17132344841957092 -0.13178294897079468
0.02325582504272461 -0.15531006455421448 -0.10077518224716187
0.02325582504272461 -0.11923516541719437 -0.11627906560897827
0.02325582504272461 -0.13056522607803345 -0.10077518224716187
0.02325582504272461 -0.10109329968690872 -0.05426359176635742
0.02325582504272461 -0.10105796158313751 -0.038759708404541016
0.02325582504272461 -0.09385287761688232 -0.06976741552352905
0.02325582504272461 -0.09897525608539581 -0.02325582504272461
0.02325582504272461 -0.09775837510824203 -0.007751941680908203
0.02325582504272461 -0.09581080079078674 0.00775194214656949
0.02325582504272461 -0.09273500740528107 0.02325582504272461
0.02325582504272461 -0.09081993997097015 0.038759708404541016
0.02325582504272461 -0.08925426006317139 0.05426359176635742
0.02325582504272461 -0.08691192418336868 0.06976747512817383
0.02325582504272461 -0.07721126824617386 -0.08527129888534546
0.02325582504272461 -0.08005763590335846 0.08527135848999023
0.02325582504272461 -0.07148361951112747 0.10077524185180664
0.02325582504272461 -0.051703643053770065 0.11627912521362305
0.02325582504272461 0.02889629453420639 -0.10077518224716187
0.02325582504272461 0.07644744217395782 -0.10077518224716187
0.02325582504272461 0.11049187928438187 -0.08527129888534546
0.02325582318007946 0.1015375405550003 0.11627912521362305
0.02325582504272461 0.13137422502040863 -0.11627906560897827
0.02325582504272461 0.13164253532886505 -0.06976741552352905
0.02325582504272461 0.12833651900291443 0.06976747512817383
0.02325582504272461 0.12333473563194275 0.08527135848999023
0.02325582318007946 0.11792045831680298 0.10077523440122604
0.02325582504272461 0.1362026333808899 -0.10077518224716187
0.02325582504272461 0.1360020786523819 -0.05426359176635742
0.02325582504272461 0.13985881209373474 -0.038759708404541016
0.02325582504272461 0.1408645063638687 -0.02325582504272461
0.02325582504272461 0.13964617252349854 -0.007751941680908203
0.02325582504272461 0.13755010068416595 0.007751941680908203
0.02325582504272461 0.13583418726921082 0.02325582504272461
0.02325582504272461 0.13408201932907104 0.038759708404541016
0.02325582504272461 0.13216467201709747 0.05426359549164772
0.02325582504272461 0.16963109374046326 -0.10077518224716187
0.02325582504272461 0.1908297836780548 -0.13178294897079468
0.02325582504272461 0.19453789293766022 -0.13178294897079468
0.02325582504272461 0.1941716969013214 -0.11627906560897827
0.038759708404541016 -0.2155427634716034 -0.13178294897079468
0.038759708404541016 -0.21830637753009796 -0.11627906560897827
0.038759708404541016 -0.18147602677345276 -0.13178294897079468
0.038759708404541016 -0.17323848605155945 -0.10077518224716187
0.038759708404541016 -0.1320197582244873 -0.08527129888534546
0.038759708404541016 -0.10441873967647552 -0.11627906560897827
0.038759708404541016 -0.1027141660451889 -0.10077518224716187
0.038759708404541016 -0.11568170040845871 -0.08527130633592606
0.038759708404541016 -0.10181184858083725 -0.06976741552352905
0.038759708404541016 -0.10349393635988235 -0.05426359176635742
0.038759708404541016 -0.10297907888889313 -0.038759708404541016
0.038759708404541016 -0.10122475773096085 -0.02325582504272461
0.038759708404541016 -0.0865904688835144 -0.08527129888534546
0.038759708404541016 -0.09880764782428741 -0.007751941680908203
0.038759708404541016 -0.0960991308093071 0.007751941680908203
0.038759708404541016 -0.09272980690002441 0.02325582504272461
0.038759708404541016 -0.09064317494630814 0.038759708404541016
0.038759708404541016 -0.08907569199800491 0.05426359176635742
0.038759708404541016 -0.08683940023183823 0.06976747512817383
0.038759708404541016 -0.07998141646385193 0.08527135848999023
0.038759708404541016 -0.07145147770643234 0.10077524185180664
0.038759708404541016 -0.052173495292663574 0.11627912521362305
0.038759708404541016 0.03743051737546921 -0.10077518224716187
0.038759708404541016 0.07154567539691925 -0.10077518224716187
0.038759708404541016 0.11111971735954285 -0.08527129888534546
0.038759708404541016 0.10239216685295105 0.11627912521362305
0.038759708404541016 0.13063406944274902 -0.11627906560897827
0.038759708404541016 0.1314389854669571 -0.10077518224716187
0.038759708404541016 0.13083820044994354 0.06976747512817383
0.038759708404541016 0.12500375509262085 0.08527135848999023
0.038759708404541016 0.1189643070101738 0.10077524185180664
0.038759708404541016 0.14320875704288483 -0.08527129888534546
0.038759708404541016 0.13413983583450317 -0.06976741552352905
0.038759708404541016 0.14024588465690613 -0.05426359176635742
0.038759708404541016 0.14418748021125793 -0.038759708404541016
0.038759708404541016 0.14488454163074493 -0.02325582504272461
0.038759708404541016 0.14369545876979828 -0.007751941680908203
0.038759708404541016 0.14113223552703857 0.007751941680908203
0.038759708404541016 0.13849949836730957 0.02325582504272461
0.038759708404541016 0.135849267244339 0.038759708404541016
0.038759708404541016 0.13347190618515015 0.05426359176635742
0.038759708404541016 0.1506386548280716 -0.08527129888534546
0.038759708404541016 0.1706496775150299 -0.10077518224716187
0.038759708404541016 0.18757858872413635 -0.11627906560897827
0.05426359176635742 -0.18661817908287048 -0.11627906560897827
0.05426359176635742 -0.1703866422176361 -0.10077518224716187
0.05426359176635742 -0.14964324235916138 -0.08527129888534546
0.05426358804106712 -0.11250253766775131 -0.06976741552352905
0.05426359176635742 -0.10758918523788452 -0.05426359176635742
0.05426359176635742 -0.10498308390378952 -0.038759708404541016
0.05426359176635742 -0.10230224579572678 -0.02325582504272461
0.05426359176635742 -0.09964527934789658 -0.11627906560897827
0.05426359176635742 -0.09638451039791107 -0.10077518224716187
0.05426359549164772 -0.0997089296579361 -0.007751941680908203
0.05426359176635742 -0.09615350514650345 0.007751941680908203
0.05426359176635742 -0.09261083602905273 0.02325582504272461
0.05426359176635742 -0.0904395654797554 0.038759708404541016
0.05426359176635742 -0.08893854916095734 0.05426359176635742
0.05426359176635742 -0.08690716326236725 0.06976747512817383
0.05426359176635742 -0.08045783638954163 0.08527135848999023
0.05426359176635742 -0.0717490017414093 0.10077524185180664
0.05426359549164772 -0.053693611174821854 0.11627912521362305
0.05426359176635742 0.03922069072723389 -0.10077518224716187
0.05426359176635742 0.07088632136583328 -0.10077518224716187
0.05426359176635742 0.11346284300088882 -0.08527129888534546
0.05426359176635742 0.10347855091094971 0.11627912521362305
0.05426359176635742 0.1304733157157898 -0.11627906560897827
0.05426359176635742 0.1306876540184021 -0.10077518224716187
0.05426359176635742 0.12755310535430908 0.08527135848999023
0.05426359176635742 0.12015502154827118 0.10077524185180664
0.05426359176635742 0.13864398002624512 -0.08527129888534546
0.05426359176635742 0.14007359743118286 -0.06976741552352905
0.05426359176635742 0.14549210667610168 -0.05426359176635742
0.05426359176635742 0.14550966024398804 0.007751941680908203
0.05426359176635742 0.14238393306732178 0.02325582504272461
0.05426359176635742 0.13856247067451477 0.038759708404541016
0.05426359176635742 0.13522741198539734 0.05426359176635742
0.05426359176635742 0.13271765410900116 0.06976747512817383
0.05426359176635742 0.15308672189712524 -0.08527129888534546
0.05426359176635742 0.14763541519641876 -0.038759708404541016
0.05426359176635742 0.14788274466991425 -0.02325582504272461
0.05426359176635742 0.1474827080965042 -0.007751941680908203
0.05426359176635742 0.17119327187538147 -0.10077518224716187
0.05426359176635742 0.18472504615783691 -0.11627906560897827
0.06976747512817383 -0.1708465814590454 -0.11627906560897827
0.06976747512817383 -0.1645027995109558 -0.10077518224716187
0.06976747512817383 -0.147800013422966 -0.08527129888534546
0.06976747512817383 -0.11812283098697662 -0.06976741552352905
0.06976747512817383 -0.11020848155021667 -0.05426359176635742
0.06976747512817383 -0.10631172358989716 -0.038759708404541016
0.06976747512817383 -0.10315709561109543 -0.02325582504272461
0.06976747512817383 -0.09962164610624313 -0.11627907305955887
0.06976747512817383 -0.09545592218637466 -0.10077517479658127
0.06976747512817383 -0.100743867456913 -0.00775194214656949
0.06976747512817383 -0.09631629288196564 0.00775194214656949
0.06976747512817383 -0.09265748411417007 0.02325582504272461
0.06976747512817383 -0.09044237434864044 0.038759708404541016
0.06976747512817383 -0.08905097842216492 0.05426359176635742
0.06976747512817383 -0.08721339702606201 0.06976747512817383
0.06976747512817383 -0.08163508027791977 0.08527135848999023
0.06976747512817383 -0.07240858674049377 0.10077524185180664
0.06976747512817383 -0.05479772761464119 0.11627912521362305
0.06976747512817383 0.03534559905529022 -0.10077518224716187
0.06976747512817383 0.07210167497396469 -0.10077518224716187
0.06976747512817383 0.10517631471157074 0.11627912521362305
0.06976747512817383 0.13122986257076263 -0.11627906560897827
0.06976747512817383 0.13100960850715637 -0.10077518224716187
0.06976747512817383 0.12287649512290955 -0.08527129888534546
0.06976747512817383 0.13160111010074615 0.08527135848999023
0.06976747512817383 0.1216619610786438 0.10077524930238724
0.06976747512817383 0.13465191423892975 -0.08527129888534546
0.06976747512817383 0.1471981257200241 0.02325582504272461
0.06976747512817383 0.1425776183605194 0.038759708404541016
0.06976747512817383 0.1378161609172821 0.05426359549164772
0.06976747512817383 0.13465778529644012 0.06976747512817383
0.06976747512817383 0.15325239300727844 -0.08527129888534546
0.06976747512817383 0.14739783108234406 -0.06976741552352905
0.06976747512817383 0.14835067093372345 -0.05426359176635742
0.06976747512817383 0.1494579017162323 -0.038759708404541016
0.06976747512817383 0.1499689519405365 -0.02325582504272461
0.06976747512817383 0.14954526722431183 -0.007751941680908203
0.06976747512817383 0.14857400953769684 0.007751941680908203
0.06976747512817383 0.17043691873550415 -0.10077518224716187
0.06976747512817383 0.18255743384361267 -0.11627905815839767
0.08527135848999023 -0.15499858558177948 -0.11627906560897827
0.08527135848999023 -0.15119197964668274 -0.10077518224716187
0.08527135848999023 -0.1342509388923645 -0.08527129888534546
0.08527135848999023 -0.1165500283241272 -0.06976741552352905
0.08527135848999023 -0.11013391613960266 -0.05426359176635742
0.08527135848999023 -0.10636236518621445 -0.038759708404541016
0.08527135848999023 -0.10319924354553223 -0.02325582504272461
0.08527135848999023 -0.10072441399097443 -0.11627906560897827
0.08527135848999023 -0.09826809167861938 -0.10077518224716187
0.08527135848999023 -0.1002306193113327 -0.007751941680908203
0.08527135848999023 -0.09565448015928268 0.007751941680908203
0.08527135848999023 -0.09205061197280884 0.02325582504272461
0.08527135848999023 -0.08998225629329681 0.038759708404541016
0.08527135848999023 -0.088637575507164 0.05426359176635742
0.08527135848999023 -0.08706361055374146 0.06976747512817383
0.08527135848999023 -0.08195110410451889 0.08527135848999023
0.08527135848999023 -0.07278111577033997 0.10077524185180664
0.08527135848999023 -0.05520997568964958 0.11627912521362305
0.08527135848999023 0.023949220776557922 -0.10077518969774246
0.08527135848999023 0.0754280686378479 -0.10077518224716187
0.08527135848999023 0.10679028928279877 0.11627912521362305
0.08527135848999023 0.12305527925491333 0.10077524185180664
0.08527135848999023 0.135629341006279 -0.11627906560897827
0.08527135103940964 0.1342887133359909 -0.10077518224716187
0.08527135848999023 0.14635062217712402 0.038759708404541016
0.08527135848999023 0.1405874788761139 0.05426359176635742
0.08527135848999023 0.13636209070682526 0.06976747512817383
0.08527135848999023 0.13283753395080566 0.08527135848999023
0.08527135848999023 0.15124239027500153 -0.08527129888534546
0.08527135848999023 0.14883102476596832 -0.06976741552352905
0.08527135103940964 0.1502760946750641 -0.05426359176635742
0.08527135848999023 0.15179045498371124 -0.038759708404541016
0.08527135848999023 0.15255972743034363 -0.02325582504272461
0.08527135848999023 0.15204927325248718 -0.007751941215246916
0.08527135848999023 0.15076440572738647 0.007751941680908203
0.08527136594057083 0.14912304282188416 0.02325582690536976
0.08527135848999023 0.1678895354270935 -0.10077518224716187
0.08527135848999023 0.1792217493057251 -0.11627906560897827
0.10077524185180664 -0.13330242037773132 -0.11627906560897827
0.10077524185180664 -0.13276037573814392 -0.10077518224716187
0.10077524185180664 -0.11832469701766968 -0.08527129888534546
0.10077524930238724 -0.11256104707717896 -0.11627906560897827
0.10077524185180664 -0.10731452703475952 -0.10077518224716187
0.10077524930238724 -0.11214534938335419 -0.06976741552352905
0.10077524185180664 -0.10869824886322021 -0.05426359176635742
0.10077524185180664 -0.10562172532081604 -0.038759708404541016
0.10077524185180664 -0.10271050035953522 -0.02325582504272461
0.10077524930238724 -0.09870792925357819 -0.007751941680908203
0.10077524185180664 -0.09453188627958298 0.007751941680908203
0.10077524185180664 -0.09109456837177277 0.02325582504272461
0.10077524185180664 -0.08909731358289719 0.038759708404541016
0.10077524185180664 -0.08771707117557526 0.05426359176635742
0.10077524185180664 -0.08645744621753693 0.06976747512817383
0.10077524185180664 -0.08105839788913727 0.08527135848999023
0.10077524185180664 -0.07268386334180832 0.10077524185180664
0.10077524185180664 -0.05501116067171097 0.11627912521362305
0.10077524185180664 0.012687848880887032 -0.10077518969774246
0.10077524185180664 0.08067528903484344 -0.10077518224716187
0.10077524185180664 0.10688266158103943 0.11627912521362305
0.10077524185180664 0.12397146224975586 0.10077524185180664
0.10077524185180664 0.1428835391998291 -0.11627906560897827
0.10077524185180664 0.14187514781951904 -0.10077518224716187
0.10077524185180664 0.14297538995742798 0.05426359176635742
0.10077524185180664 0.13771574199199677 0.06976747512817383
0.10077524185180664 0.13369956612586975 0.08527135848999023
0.10077524185180664 0.14766409993171692 -0.08527129888534546
0.10077524185180664 0.14968858659267426 -0.06976741552352905
0.10077524185180664 0.1522604078054428 -0.05426359176635742
0.10077524185180664 0.15438610315322876 -0.038759708404541016
0.10077524185180664 0.1553851068019867 -0.02325582504272461
0.10077524185180664 0.15490485727787018 -0.007751941680908203
0.10077524930238724 0.15314051508903503 0.007751941680908203
0.10077524185180664 0.15087389945983887 0.02325582504272461
0.10077524185180664 0.14824871718883514 0.038759708404541016
0.10077524185180664 0.16718237102031708 -0.11627906560897827
0.10077524185180664 0.16339392960071564 -0.10077518224716187
0.11627912521362305 -0.10277868807315826 -0.08527129888534546
0.11627912521362305 -0.10771007090806961 -0.06976741552352905
0.11627912521362305 -0.10676491260528564 -0.05426359176635742
0.11627912521362305 -0.10444490611553192 -0.038759708404541016
0.11627912521362305 -0.10178812593221664 -0.02325582504272461
0.11627912521362305 -0.0966513454914093 -0.007751941680908203
0.11627912521362305 -0.0930962786078453 0.007751941215246916
0.11627912521362305 -0.08997159451246262 0.02325582504272461
0.11627912521362305 -0.08777837455272675 0.038759708404541016
0.11627912521362305 -0.08648663014173508 0.05426359176635742
0.11627912521362305 -0.08548633754253387 0.06976747512817383
0.11627912521362305 -0.0789954885840416 0.08527135848999023
0.11627912521362305 -0.07210434228181839 0.10077524185180664
0.11627912521362305 -0.05442684516310692 0.11627912521362305
0.11627912521362305 0.005311775021255016 -0.10077518224716187
0.11627912521362305 0.08451930433511734 -0.10077518224716187
0.11627912521362305 0.10563845932483673 0.11627912521362305
0.11627912521362305 0.12407892942428589 0.10077524185180664
0.11627912521362305 0.13764169812202454 -0.08527129888534546
0.11627912521362305 0.14456889033317566 0.05426359176635742
0.11627912521362305 0.13856011629104614 0.06976747512817383
0.11627912521362305 0.1340678334236145 0.08527135848999023
0.11627912521362305 0.1497800350189209 -0.06976741552352905
0.11627912521362305 0.1537322998046875 -0.05426359176635742
0.11627912521362305 0.15630638599395752 -0.038759708404541016
0.11627912521362305 0.15745259821414948 -0.02325582504272461
0.11627912521362305 0.15723076462745667 -0.007751941680908203
0.11627912521362305 0.15540893375873566 0.007751941680908203
0.11627912521362305 0.15254488587379456 0.02325582504272461
0.11627912521362305 0.1493310183286667 0.038759708404541016
0.1317828893661499 -0.10424574464559555 -0.06976741552352905
0.1317828893661499 -0.10505165159702301 -0.05426359176635742
0.1317828893661499 -0.10322054475545883 -0.038759708404541016
0.1317828893661499 -0.09504567086696625 -0.08527129888534546
0.1317828893661499 -0.100181944668293 -0.02325582504272461
0.1317828893661499 -0.0948878675699234 -0.007751941215246916
0.1317828893661499 -0.09165598452091217 0.007751941680908203
0.1317828893661499 -0.0885552167892456 0.02325582504272461
0.1317828893661499 -0.0865432471036911 0.038759708404541016
0.1317828893661499 -0.08535412698984146 0.05426359176635742
0.1317828893661499 -0.0818643718957901 0.06976747512817383
0.1317828893661499 -0.076767697930336 0.08527135848999023
0.1317828893661499 -0.07116474211215973 0.10077524185180664
0.1317828893661499 -0.05006399005651474 0.11627912521362305
0.1317828893661499 0.0033088400959968567 -0.10077518224716187
0.1317828893661499 0.08213189989328384 -0.10077518224716187
0.1317828893661499 0.10409227013587952 0.11627912521362305
0.1317828893661499 0.12363823503255844 0.10077524185180664
0.1317828893661499 0.13250066339969635 -0.08527129888534546
0.1317828893661499 0.1454821676015854 0.05426359176635742
0.1317828893661499 0.13889634609222412 0.06976747512817383
0.1317828893661499 0.1340324729681015 0.08527135848999023
0.1317828893661499 0.14866386353969574 -0.06976741552352905
0.1317828893661499 0.15374623239040375 -0.05426359176635742
0.1317828893661499 0.15727052092552185 -0.038759708404541016
0.1317828893661499 0.15887480974197388 -0.02325582504272461
0.1317828893661499 0.15893840789794922 -0.007751941680908203
0.1317828893661499 0.1571352183818817 0.007751941680908203
0.1317828893661499 0.1539907306432724 0.02325582504272461
0.1317828893661499 0.15009260177612305 0.038759708404541016
0.1472867727279663 -0.1025676429271698 -0.06976741552352905
0.1472867727279663 -0.10360628366470337 -0.05426359176635742
0.1472867727279663 -0.10217279940843582 -0.038759708404541016
0.1472867727279663 -0.09074617922306061 -0.08527129888534546
0.1472867727279663 -0.09769421070814133 -0.02325582504272461
0.1472867727279663 -0.09360265731811523 -0.007751941680908203
0.1472867727279663 -0.09041568636894226 0.007751941680908203
0.1472867727279663 -0.08729708194732666 0.02325582504272461
0.1472867727279663 -0.0856005996465683 0.038759708404541016
0.1472867727279663 -0.08183683454990387 0.05426359176635742
0.1472867727279663 -0.07875204086303711 0.06976747512817383
0.1472867727279663 -0.07511378824710846 0.08527135848999023
0.1472867727279663 -0.07039133459329605 0.10077524185180664
0.1472867727279663 -0.0451483279466629 0.11627912521362305
0.1472867727279663 -0.012030050158500671 0.11627912521362305
0.1472867727279663 0.01124630682170391 -0.10077518224716187
0.1472867727279663 0.03484061360359192 0.11627912521362305
0.1472867727279663 0.06943677365779877 -0.10077518224716187
0.1472867727279663 0.10342589020729065 0.11627912521362305
0.1472867727279663 0.12791666388511658 -0.08527129888534546
0.1472867727279663 0.1233915388584137 0.10077524185180664
0.1472867727279663 0.1468026041984558 0.05426359176635742
0.1472867727279663 0.13957396149635315 0.06976747512817383
0.1472867727279663 0.13417720794677734 0.08527136594057083
0.1472867876291275 0.1476585865020752 -0.06976741552352905
0.1472867727279663 0.15395523607730865 -0.05426359176635742
0.1472867727279663 0.15852287411689758 -0.038759708404541016
0.1472867727279663 0.16064399480819702 -0.02325582504272461
0.1472867727279663 0.16083578765392303 -0.007751941680908203
0.1472867727279663 0.15885764360427856 0.007751941680908203
0.1472867727279663 0.1555047333240509 0.02325582504272461
0.1472867727279663 0.15111014246940613 0.038759708404541016
0.16279065608978271 -0.10190728306770325 -0.06976741552352905
0.16279065608978271 -0.10287636518478394 -0.05426359176635742
0.16279065608978271 -0.10170262306928635 -0.038759708404541016
0.16279065608978271 -0.08922377228736877 -0.08527129888534546
0.16279065608978271 -0.09719545394182205 -0.02325582504272461
0.16279065608978271 -0.09319224208593369 -0.007751941215246916
0.16279065608978271 -0.08978652954101562 0.007751941680908203
0.16279065608978271 -0.08672019094228745 0.02325582504272461
0.16279065608978271 -0.0846947431564331 0.038759708404541016
0.16279065608978271 -0.08008429408073425 0.05426359176635742
0.16279065608978271 -0.07736606895923615 0.06976747512817383
0.16279065608978271 -0.07428668439388275 0.08527135848999023
0.16279065608978271 -0.07002297788858414 0.10077524185180664
0.16279065608978271 -0.04289877787232399 0.11627912521362305
0.16279065608978271 -0.019572008401155472 0.11627912521362305
0.16279065608978271 0.02251240238547325 -0.10077518224716187
0.16279065608978271 0.05316053330898285 -0.10077518224716187
0.16279065608978271 0.03998428210616112 0.11627912521362305
0.16279065608978271 0.10389207303524017 0.11627912521362305
0.16279065608978271 0.12475915253162384 -0.08527129888534546
0.16279065608978271 0.1240013986825943 0.10077524185180664
0.16279065608978271 0.14161694049835205 0.06976747512817383
0.16279065608978271 0.13501347601413727 0.08527135848999023
0.16279064118862152 0.14758922159671783 -0.06976741552352905
0.16279065608978271 0.1555439829826355 -0.05426359176635742
0.16279065608978271 0.16131140291690826 -0.038759708404541016
0.16279065608978271 0.16197724640369415 0.007751941680908203
0.16279065608978271 0.15806204080581665 0.02325582504272461
0.16279065608978271 0.15328331291675568 0.038759708404541016
0.16279065608978271 0.14853374660015106 0.05426359549164772
0.16279065608978271 0.16354046761989594 -0.02325582504272461
0.16279065608978271 0.16364887356758118 -0.007751941680908203
0.17829453945159912 -0.1021442636847496 -0.06976741552352905
0.17829453945159912 -0.10321086645126343 -0.05426359176635742
0.17829453945159912 -0.10210112482309341 -0.038759708404541016
0.17829453945159912 -0.08982384204864502 -0.08527129888534546
0.17829453945159912 -0.09881746023893356 -0.02325582318007946
0.17829453945159912 -0.09405583143234253 -0.00775194214656949
0.17829453945159912 -0.09018412977457047 0.007751941680908203
0.17829453945159912 -0.08681130409240723 0.02325582504272461
0.17829453945159912 -0.08450087159872055 0.038759708404541016
0.17829453945159912 -0.07965192198753357 0.05426359176635742
0.17829453945159912 -0.0769510492682457 0.06976747512817383
0.17829453945159912 -0.07396441698074341 0.08527135848999023
0.17829453945159912 -0.06991118937730789 0.10077524185180664
0.17829453945159912 -0.042878467589616776 0.11627912521362305
0.17829453945159912 -0.02096024714410305 0.11627912521362305
0.17829453945159912 0.0370517335832119 0.11627912521362305
0.17829453945159912 0.10594415664672852 0.11627912521362305
0.17829453945159912 0.12687644362449646 -0.08527129888534546
0.17829453945159912 0.12549281120300293 0.10077524185180664
0.17829453945159912 0.14494885504245758 0.06976747512817383
0.17829453945159912 0.1363009661436081 0.08527135848999023
0.17829452455043793 0.14941000938415527 -0.06976741552352905
0.17829453945159912 0.1596871167421341 -0.05426359176635742
0.17829453945159912 0.16255153715610504 0.02325582504272461
0.17829453945159912 0.15689803659915924 0.038759708404541016
0.17829453945159912 0.15093353390693665 0.05426359176635742
0.17829453945159912 0.16511155664920807 -0.038759708404541016
0.17829453945159912 0.16705481708049774 -0.02325582504272461
0.17829453945159912 0.16707748174667358 -0.007751941215246916
0.17829453945159912 0.16548891365528107 0.007751941680908203
0.19379842281341553 -0.10309048742055893 -0.06976741552352905
0.19379842281341553 -0.10438885539770126 -0.05426359176635742
0.19379842281341553 -0.10286780446767807 -0.038759708404541016
0.19379842281341553 -0.10099831223487854 -0.02325582504272461
0.19379842281341553 -0.0919380635023117 -0.08527129888534546
0.19379842281341553 -0.09556348621845245 -0.007751941680908203
0.19379842281341553 -0.09078170359134674 0.007751941680908203
0.19379842281341553 -0.08706305921077728 0.02325582504272461
0.19379842281341553 -0.08448386937379837 0.038759708404541016
0.19379842281341553 -0.07924922555685043 0.05426359176635742
0.19379842281341553 -0.07656125724315643 0.06976747512817383
0.19379842281341553 -0.07369649410247803 0.08527135848999023
0.19379842281341553 -0.06986172497272491 0.10077524185180664
0.19379842281341553 -0.045401766896247864 0.11627912521362305
0.19379842281341553 -0.017155464738607407 0.11627912521362305
0.19379842281341553 0.03057073801755905 0.11627912521362305
0.19379842281341553 0.10827868431806564 0.11627912521362305
0.19379842281341553 0.1269015371799469 0.10077524185180664
0.19379843771457672 0.13508844375610352 -0.08527129888534546
0.19379842281341553 0.13754944503307343 0.08527135848999023
0.19379842281341553 0.154636412858963 -0.06976741552352905
0.19379842281341553 0.16171115636825562 0.038759708404541016
0.19379842281341553 0.15384504199028015 0.05426359176635742
0.19379840791225433 0.1478310227394104 0.06976747512817383
0.19379842281341553 0.1653342992067337 -0.05426359176635742
0.19379842281341553 0.1694488376379013 -0.038759708404541016
0.19379842281341553 0.17121227085590363 -0.02325582504272461
0.19379842281341553 0.17099173367023468 -0.007751941680908203
0.19379842281341553 0.16912665963172913 0.007751941680908203
0.19379842281341553 0.16628944873809814 0.02325582504272461
0.20930230617523193 -0.10479490458965302 -0.06976741552352905
0.20930230617523193 -0.10608898103237152 -0.05426359176635742
0.20930230617523193 -0.10347505658864975 -0.038759708404541016
0.20930230617523193 -0.10145048052072525 -0.02325582504272461
0.20930230617523193 -0.09470059722661972 -0.08527129888534546
0.20930229127407074 -0.09692271798849106 -0.007751941680908203
0.20930230617523193 -0.09117695689201355 0.007751941680908203
0.20930230617523193 -0.08726121485233307 0.02325582504272461
0.20930230617523193 -0.08479496091604233 0.038759708404541016
0.20930230617523193 -0.0792272537946701 0.05426359176635742
0.20930230617523193 -0.07647089660167694 0.06976747512817383
0.20930230617523193 -0.07370774447917938 0.08527135848999023
0.20930230617523193 -0.07004483789205551 0.10077524185180664
0.20930230617523193 -0.05049194395542145 0.11627912521362305
0.20930230617523193 -0.010017367079854012 0.11627912521362305
0.20930230617523193 0.023177359253168106 0.11627912521362305
0.20930230617523193 0.1098773330450058 0.11627912521362305
0.20930230617523193 0.12820689380168915 0.10077524185180664
0.20930230617523193 0.138901486992836 0.08527135848999023
0.20930232107639313 0.14770030975341797 -0.08527130633592606
0.20930230617523193 0.1575402319431305 0.05426359176635742
0.20930230617523193 0.14959105849266052 0.06976747512817383
0.20930230617523193 0.1635267734527588 -0.06976741552352905
0.20930230617523193 0.17029118537902832 -0.05426359176635742
0.20930230617523193 0.17490249872207642 -0.038759708404541016
0.20930230617523193 0.17676891386508942 -0.02325582504272461
0.20930230617523193 0.17598512768745422 -0.007751941680908203
0.20930230617523193 0.17329004406929016 0.007751941680908203
0.20930230617523193 0.16963563859462738 0.02325582504272461
0.20930230617523193 0.16537700593471527 0.038759708404541016
0.22480618953704834 -0.10753217339515686 -0.06976741552352905
0.22480618953704834 -0.10793695598840714 -0.05426359176635742
0.22480618953704834 -0.10423990339040756 -0.038759708404541016
0.22480618953704834 -0.10191582888364792 -0.02325582504272461
0.22480618953704834 -0.09438721835613251 -0.08527129888534546
0.22480620443820953 -0.09881743788719177 -0.00775194214656949
0.22480618953704834 -0.0922209769487381 0.007751941680908203
0.22480618953704834 -0.08798644691705704 0.02325582504272461
0.22480618953704834 -0.08576936274766922 0.038759708404541016
0.22480618953704834 -0.08135740458965302 0.05426359176635742
0.22480618953704834 -0.07791393995285034 0.06976747512817383
0.22480618953704834 -0.0746220126748085 0.08527135848999023
0.22480618953704834 -0.07072002440690994 0.10077524185180664
0.22480618953704834 -0.054772697389125824 0.11627912521362305
0.22480618953704834 0.11133049428462982 0.11627912521362305
0.22480618953704834 0.1299668550491333 0.10077524185180664
0.22480618953704834 0.1408262848854065 0.08527135848999023
0.22480618953704834 0.1584339737892151 -0.08527129888534546
0.22480618953704834 0.16153530776500702 0.05426359176635742
0.22480618953704834 0.15135641396045685 0.06976747512817383
0.22480618953704834 0.1683344841003418 -0.06976741552352905
0.22480618953704834 0.17659150063991547 -0.05426359176635742
0.22480618953704834 0.17794986069202423 0.007751941680908203
0.22480618953704834 0.17291143536567688 0.02325582504272461
0.22480618953704834 0.16792036592960358 0.038759708404541016
0.22480618953704834 0.18007218837738037 -0.038759708404541016
0.22480617463588715 0.18110200762748718 -0.02325582504272461
0.22480618953704834 0.1803409606218338 -0.007751941680908203
0.24031007289886475 -0.1215689480304718 -0.06976741552352905
0.24031007289886475 -0.11457925289869308 -0.05426359176635742
0.24031007289886475 -0.10776068270206451 -0.038759708404541016
0.24031007289886475 -0.10359026491641998 -0.02325582504272461
0.24031007289886475 -0.1013973131775856 -0.007751941680908203
0.24031007289886475 -0.09344971179962158 -0.08527129888534546
0.24031005799770355 -0.09592823684215546 0.007751941680908203
0.24031007289886475 -0.09011970460414886 0.02325582504272461
0.24031007289886475 -0.08735718578100204 0.038759708404541016
0.24031007289886475 -0.08578790724277496 0.05426359176635742
0.24031007289886475 -0.08311273157596588 0.06976747512817383
0.24031007289886475 -0.07767229527235031 0.08527135848999023
0.24031007289886475 -0.07218819856643677 0.10077524185180664
0.24031007289886475 -0.0564897283911705 0.11627912521362305
0.24031007289886475 0.11400963366031647 0.11627912521362305
0.24031007289886475 0.13081227242946625 -0.10077518224716187
0.24031007289886475 0.14424729347229004 0.08527135848999023
0.24031007289886475 0.13229204714298248 0.10077523440122604
0.24031007289886475 0.15395379066467285 0.06976747512817383
0.24031008780002594 0.1671944409608841 -0.10077518969774246
0.24031007289886475 0.1732815057039261 -0.08527129888534546
0.24031007289886475 0.17612990736961365 0.02325582504272461
0.24031007289886475 0.17046576738357544 0.038759708404541016
0.24031007289886475 0.16444699466228485 0.05426359176635742
0.24031007289886475 0.1785634458065033 -0.06976741552352905
0.24031005799770355 0.1808680295944214 -0.05426358804106712
0.24031007289886475 0.18323591351509094 -0.038759708404541016
0.24031007289886475 0.18380221724510193 -0.02325582504272461
0.24031007289886475 0.18281963467597961 -0.007751941680908203
0.24031005799770355 0.1804681122303009 0.007751941680908203
0.25581395626068115 -0.14742045104503632 -0.10077518224716187
0.25581395626068115 -0.1525375247001648 -0.08527129888534546
0.25581395626068115 -0.1537310630083084 -0.06976741552352905
0.25581395626068115 -0.15040884912014008 -0.05426359176635742
0.25581395626068115 -0.13065065443515778 -0.038759708404541016
0.25581395626068115 -0.11405914276838303 -0.10077518224716187
0.25581395626068115 -0.11162877827882767 -0.02325582504272461
0.25581395626068115 -0.10470615327358246 -0.007751941680908203
0.25581395626068115 -0.10172734409570694 0.007751941680908203
0.25581395626068115 -0.09728522598743439 0.02325582504272461
0.25581395626068115 -0.09172110259532928 0.038759708404541016
0.25581395626068115 -0.08884429931640625 0.05426359176635742
0.25581395626068115 -0.0871032103896141 0.06976747512817383
0.25581395626068115 -0.08552701771259308 0.08527135848999023
0.25581395626068115 -0.07481469959020615 0.10077524185180664
0.25581395626068115 -0.06069279834628105 0.11627912521362305
0.25581395626068115 0.12598814070224762 -0.10077518224716187
0.25581395626068115 0.1167234480381012 0.11627912521362305
0.25581395626068115 0.13382132351398468 0.10077524185180664
0.25581395626068115 0.1579221487045288 0.06976747512817383
0.25581395626068115 0.14803487062454224 0.08527135848999023
0.25581395626068115 0.17335084080696106 0.038759708404541016
0.25581395626068115 0.16666650772094727 0.05426359176635742
0.25581395626068115 0.18281707167625427 -0.10077518224716187
0.25581395626068115 0.18582889437675476 -0.08527129888534546
0.25581395626068115 0.18543606996536255 -0.06976741552352905
0.25581395626068115 0.18473032116889954 -0.05426359176635742
0.25581395626068115 0.18553757667541504 -0.038759708404541016
0.25581395626068115 0.18569204211235046 -0.02325582504272461
0.25581395626068115 0.18442648649215698 -0.007751941680908203
0.25581395626068115 0.18228088319301605 0.007751941680908203
0.25581395626068115 0.17911578714847565 0.02325582504272461
0.27131783962249756 -0.1639394313097 -0.08527129888534546
0.27131783962249756 -0.1655465066432953 -0.06976741552352905
0.27131783962249756 -0.16407129168510437 -0.05426359176635742
0.27131783962249756 -0.15512987971305847 -0.10077518224716187
0.27131783962249756 -0.15679872035980225 -0.038759708404541016
0.27131783962249756 -0.14338085055351257 -0.02325582504272461
0.27131783962249756 -0.11811112612485886 -0.007751941680908203
0.27131783962249756 -0.10966411232948303 -0.10077518224716187
0.27131783962249756 -0.11012588441371918 0.007751941215246916
0.27131783962249756 -0.10479418933391571 0.02325582504272461
0.27131783962249756 -0.10232825577259064 0.038759708404541016
0.27131783962249756 -0.0991789698600769 0.05426359176635742
0.27131783962249756 -0.09306028485298157 0.06976747512817383
0.27131783962249756 -0.08833661675453186 0.08527135848999023
0.27131783962249756 -0.07801920175552368 -0.08527129888534546
0.27131783962249756 -0.0827566534280777 0.10077524185180664
0.27131783962249756 -0.06982724368572235 0.11627912521362305
0.27131783962249756 0.004222973249852657 -0.08527129888534546
0.27131783962249756 0.12363207340240479 -0.10077518224716187
0.27131783962249756 0.11784347891807556 0.11627912521362305
0.27131783962249756 0.13553045690059662 0.10077524185180664
0.27131783962249756 0.1514015644788742 -0.11627906560897827
0.27131783962249756 0.15017829835414886 0.08527135848999023
0.27131783962249756 0.1648378074169159 -0.11627906560897827
0.27131783962249756 0.1763753443956375 0.038759708404541016
0.27131783962249756 0.16886964440345764 0.05426359176635742
0.27131783962249756 0.16282159090042114 0.06976747512817383
0.27131783962249756 0.19248390197753906 -0.10077518224716187
0.27131783962249756 0.19240093231201172 -0.06976741552352905
0.27131783962249756 0.18876200914382935 -0.05426359176635742
0.27131783962249756 0.1868317425251007 -0.038759708404541016
0.27131783962249756 0.18632182478904724 -0.02325582504272461
0.27131783962249756 0.1854802370071411 -0.007751941680908203
0.27131783962249756 0.18344128131866455 0.007751941215246916
0.27131783962249756 0.18076178431510925 0.02325582504272461
0.27131783962249756 0.19461917877197266 -0.08527129888534546
0.28682172298431396 -0.1635647863149643 -0.10077518224716187
0.28682172298431396 -0.1699162721633911 -0.08527129888534546
0.28682172298431396 -0.1712213158607483 -0.06976741552352905
0.28682172298431396 -0.1704564094543457 -0.05426359176635742
0.28682172298431396 -0.167843297123909 -0.038759708404541016
0.28682172298431396 -0.1634911596775055 -0.02325582504272461
0.28682172298431396 -0.15469294786453247 -0.007751941680908203
0.28682172298431396 -0.14184024930000305 0.007751941680908203
0.28682172298431396 -0.12479768693447113 0.02325582504272461
0.28682172298431396 -0.1071176677942276 -0.10077518224716187
0.28682172298431396 -0.11543136090040207 0.03875970467925072
0.28682172298431396 -0.10693782567977905 0.05426359176635742
0.28682172298431396 -0.10324449092149734 0.06976747512817383
0.28682172298431396 -0.09775843471288681 0.08527135848999023
0.28682172298431396 -0.08731766045093536 0.10077524185180664
0.28682172298431396 -0.08342383056879044 -0.08527129888534546
0.28682172298431396 -0.07149111479520798 0.11627912521362305
0.28682172298431396 0.08894149959087372 -0.08527129888534546
0.28682172298431396 0.12165987491607666 -0.10077518224716187
0.28682172298431396 0.11855335533618927 0.11627912521362305
0.28682172298431396 0.1432431936264038 -0.11627906560897827
0.28682172298431396 0.13737058639526367 0.10077523440122604
0.28682172298431396 0.15224605798721313 0.08527135848999023
0.28682172298431396 0.1773676574230194 -0.11627906560897827
0.28682172298431396 0.1708972156047821 0.05426359176635742
0.28682172298431396 0.16450366377830505 0.06976747512817383
0.28682172298431396 0.19005998969078064 -0.05426359176635742
0.28682172298431396 0.18639230728149414 -0.038759708404541016
0.28682172298431396 0.1855253279209137 -0.02325582504272461
0.28682172298431396 0.18560361862182617 -0.007751941680908203
0.28682172298431396 0.1840866357088089 0.007751941680908203
0.28682172298431396 0.18170608580112457 0.02325582318007946
0.28682172298431396 0.17846500873565674 0.038759708404541016
0.28682172298431396 0.19699950516223907 -0.10077518224716187
0.28682172298431396 0.19685165584087372 -0.08527129888534546
0.28682172298431396 0.19463606178760529 -0.06976741552352905
0.30232560634613037 -0.16871890425682068 -0.10077518224716187
0.30232560634613037 -0.17531904578208923 -0.08527129888534546
0.30232560634613037 -0.1764974594116211 -0.06976741552352905
0.30232560634613037 -0.17470893263816833 -0.05426359176635742
0.30232560634613037 -0.17215055227279663 -0.038759708404541016
0.30232560634613037 -0.1693979799747467 -0.02325582504272461
0.30232560634613037 -0.16613313555717468 -0.007751941680908203
0.30232560634613037 -0.15842512249946594 0.007751941680908203
0.30232560634613037 -0.14732250571250916 0.02325582504272461
0.30232560634613037 -0.1441720426082611 -0.11627906560897827
0.30232560634613037 -0.13227415084838867 0.038759708404541016
0.30232560634613037 -0.12839388847351074 -0.11627906560897827
0.30232560634613037 -0.11949895322322845 0.05426359176635742
0.30232560634613037 -0.10736110061407089 -0.10077518224716187
0.30232560634613037 -0.1128091961145401 0.06976747512817383
0.30232560634613037 -0.104392409324646 0.08527135848999023
0.30232560634613037 -0.08653834462165833 -0.08527129888534546
0.30232560634613037 -0.09179830551147461 0.10077524185180664
0.30232560634613037 -0.07328921556472778 0.11627912521362305
0.30232560634613037 0.10002720355987549 -0.08527129888534546
0.30232560634613037 0.12217967212200165 -0.10077518224716187
0.30232563614845276 0.11817070096731186 0.11627912521362305
0.30232560634613037 0.14079943299293518 -0.11627906560897827
0.30232560634613037 0.13862162828445435 0.10077524185180664
0.30232560634613037 0.154350146651268 0.08527135848999023
0.30232560634613037 0.17279338836669922 0.05426359176635742
0.30232560634613037 0.16590142250061035 0.06976747512817383
0.30232560634613037 0.18224595487117767 -0.11627906560897827
0.30232560634613037 0.18894906342029572 -0.05426359176635742
0.30232560634613037 0.18453440070152283 -0.038759708404541016
0.30232560634613037 0.18438053131103516 -0.02325582504272461
0.30232560634613037 0.18537968397140503 -0.007751941680908203
0.30232560634613037 0.1844603568315506 0.007751941215246916
0.30232560634613037 0.18234476447105408 0.02325582504272461
0.30232560634613037 0.17946571111679077 0.038759712129831314
0.30232560634613037 0.19853538274765015 -0.10077518224716187
0.30232560634613037 0.1970198154449463 -0.08527129888534546
0.30232560634613037 0.1943979561328888 -0.06976741552352905
0.3178294897079468 -0.18087230622768402 -0.08527129888534546
0.3178294897079468 -0.18097463250160217 -0.06976741552352905
0.3178294897079468 -0.17902734875679016 -0.05426359176635742
0.3178294897079468 -0.17457976937294006 -0.10077518224716187
0.3178294897079468 -0.17470130324363708 -0.038759708404541016
0.3178294897079468 -0.17196758091449738 -0.02325582504272461
0.3178294897079468 -0.16902101039886475 -0.007751941680908203
0.3178294897079468 -0.1646093726158142 0.007751941680908203
0.3178294897079468 -0.15181736648082733 -0.11627906560897827
0.3178294897079468 -0.1529795378446579 0.02325582504272461
0.3178294897079468 -0.13918927311897278 0.038759708404541016
0.3178294897079468 -0.12877428531646729 -0.11627906560897827
0.3178294897079468 -0.12671726942062378 0.05426359176635742
0.3178294897079468 -0.11905510723590851 0.06976747512817383
0.3178294897079468 -0.10984811186790466 -0.10077518224716187
0.3178294897079468 -0.10833563655614853 0.08527135848999023
0.3178294897079468 -0.09096915274858475 -0.08527129888534546
0.3178294897079468 -0.09808553755283356 0.10077524185180664
0.3178294897079468 -0.07399730384349823 0.11627912521362305
0.3178294897079468 0.10551194846630096 -0.08527129888534546
0.3178294897079468 0.12392228841781616 -0.10077518224716187
0.3178294897079468 0.11669780313968658 0.11627911776304245
0.3178294897079468 0.1396603286266327 -0.11627906560897827
0.3178294897079468 0.139308363199234 0.10077524185180664
0.3178294897079468 0.15619301795959473 0.08527135848999023
