0.1308404505252838 -0.06976741552352905 0.02325582504272461
0.13027618825435638 -0.06976741552352905 0.038759708404541016
0.12570282816886902 -0.06976741552352905 0.05426359176635742
0.11944510042667389 -0.06976741552352905 0.06976747512817383
0.11765197664499283 -0.05426359176635742 -0.06976742297410965
0.12268142402172089 -0.05426359176635742 -0.05426359176635742
0.13003037869930267 -0.05426359176635742 -0.038759708404541016
0.13050653040409088 -0.05426359176635742 0.05426359176635742
0.12112532556056976 -0.05426359176635742 0.06976747512817383
0.12812823057174683 -0.038759708404541016 -0.06976741552352905
0.12249349802732468 -0.038759708404541016 0.06976747512817383
0.1193464994430542 -0.02325582504272461 -0.08527129888534546
0.1232597753405571 -0.02325582504272461 0.06976747512817383
0.12258785218000412 -0.00775194214656949 0.06976747512817383
0.12094055116176605 0.00775194214656949 0.06976747512817383
0.13066881895065308 0.02325582504272461 0.05426359176635742
0.11931294202804565 0.02325582504272461 0.06976747512817383
0.1283017098903656 0.038759708404541016 0.05426359176635742
0.11805960536003113 0.03875970467925072 0.06976747512817383
0.12605518102645874 0.05426359176635742 0.05426359176635742
0.1170952096581459 0.05426359176635742 0.06976747512817383
0.12342891097068787 0.06976747512817383 0.05426359176635742
0.12167073041200638 0.08527135848999023 0.05426359176635742
0.13062798976898193 0.10077524185180664 0.038759708404541016
0.12090539932250977 0.10077524185180664 0.05426359176635742
0.12948887050151825 0.11627912521362305 0.038759708404541016
0.12052364647388458 0.11627913266420364 0.05426359549164772
0.13056771457195282 0.1317828893661499 0.038759708404541016
0.12085190415382385 0.1317828893661499 0.05426359176635742
0.1315271258354187 0.1472867727279663 -0.11627906560897827
0.12216974794864655 0.1472867727279663 0.05426359176635742
0.1220259964466095 0.16279065608978271 -0.11627906560897827
0.12503115832805634 0.16279065608978271 0.05426359176635742
0.12742632627487183 0.17829453945159912 0.05426359176635742
0.11659889668226242 0.17829453945159912 0.06976747512817383
0.12702712416648865 0.19379842281341553 0.05426359176635742
0.12968827784061432 0.20930230617523193 -0.10077518224716187
0.12400205433368683 0.20930230617523193 0.05426359176635742
0.12062489986419678 0.22480620443820953 0.05426359176635742
0.11902743577957153 0.24031007289886475 -0.08527129888534546
0.1223461851477623 0.24031007289886475 -0.06976741552352905
0.12450612336397171 0.24031007289886475 -0.05426359176635742
0.13055771589279175 0.24031007289886475 -0.038759708404541016
0.1317402869462967 0.24031007289886475 0.02325582504272461
0.1235746294260025 0.24031008780002594 0.038759708404541016
0.11695677042007446 0.24031007289886475 0.05426359176635742
0.117446668446064 0.25581395626068115 -0.08527129888534546
0.1184157058596611 0.25581395626068115 -0.06976741552352905
0.11842428892850876 0.25581395626068115 -0.05426358804106712
0.11896722763776779 0.25581395626068115 -0.038759708404541016
0.1206081435084343 0.25581395626068115 -0.02325582504272461
0.12279948592185974 0.25581395626068115 -0.007751941680908203
0.1235039085149765 0.25581395626068115 0.007751941680908203
0.12209829688072205 0.25581395626068115 0.02325582504272461
0.11830886453390121 0.25581395626068115 0.038759708404541016
0.11728699505329132 0.27131783962249756 -0.06976741552352905
0.11758624762296677 0.27131783962249756 -0.05426359176635742
0.11805490404367447 0.27131783962249756 -0.038759708404541016
0.11869242787361145 0.27131783962249756 -0.02325582504272461
0.1193356066942215 0.27131783962249756 -0.007751941680908203
0.11926209181547165 0.27131783962249756 0.007751941680908203
0.1177501529455185 0.27131783962249756 0.02325582318007946
0.11631766706705093 0.28682172298431396 -0.06976740807294846
0.11702094972133636 0.2868216931819916 -0.05426359176635742
0.11764266341924667 0.28682175278663635 -0.038759708404541016
0.11805879324674606 0.28682172298431396 -0.02325582504272461
0.11798490583896637 0.28682172298431396 -0.007751941680908203
0.11725558340549469 0.28682172298431396 0.007751941680908203
0.11661317944526672 0.30232560634613037 -0.05426359176635742
0.11736980080604553 0.30232560634613037 -0.038759708404541016
0.11767743527889252 0.302325576543808 -0.02325582318007946
0.117308609187603 0.302325576543808 -0.007751941680908203
0.11638837307691574 0.30232560634613037 0.007751941680908203
0.11714287847280502 0.3178294897079468 -0.05426359176635742
0.11808964610099792 0.3178294897079468 -0.038759708404541016
0.11821497976779938 0.3178294897079468 -0.02325582504272461
0.11757426708936691 0.3178294897079468 -0.007751941680908203
0.11641037464141846 0.3178294897079468 0.007751941680908203
0.11726430058479309 0.3333333730697632 -0.06976741552352905
0.11970360577106476 0.3333333730697632 -0.05426359176635742
0.12050250172615051 0.3333333730697632 -0.038759708404541016
0.11985066533088684 0.3333333730697632 -0.02325582504272461
0.11855993419885635 0.3333333730697632 -0.00775194214656949
0.11693639308214188 0.3333333730697632 0.007751941680908203
0.11869340389966965 0.3488372564315796 -0.06976741552352905
0.12312489748001099 0.3488372564315796 -0.05426359176635742
0.12307125329971313 0.3488372564315796 -0.038759708404541016
0.12161523103713989 0.3488372564315796 -0.02325582504272461
0.11979840695858002 0.3488372564315796 -0.007751941680908203
0.11766534298658371 0.3488372564315796 0.007751941680908203
0.1163313239812851 0.364341139793396 -0.06976740807294846
0.12114325910806656 0.364341139793396 -0.05426359176635742
0.1228589117527008 0.364341139793396 -0.038759708404541016
0.12198662012815475 0.364341139793396 -0.02325582504272461
0.12008234858512878 0.364341139793396 -0.007751941680908203
0.11797814071178436 0.364341139793396 0.007751941680908203
0.11721035838127136 0.37984490394592285 -0.05426359176635742
0.1201365739107132 0.37984490394592285 -0.038759708404541016
0.12065118551254272 0.37984490394592285 -0.02325582504272461
0.11942417174577713 0.37984490394592285 -0.007751941680908203
0.11758903414011002 0.37984490394592285 0.007751941680908203
0.1177724301815033 0.39534878730773926 -0.038759708404541016
0.11833257973194122 0.39534878730773926 -0.02325582504272461
0.11770959198474884 0.39534878730773926 -0.007751941680908203
0.11655059456825256 0.39534881711006165 0.007751941680908203
0.11634566634893417 0.41085267066955566 -0.02325582504272461
0.11679002642631531 0.4728682041168213 -0.038759708404541016
0.11687218397855759 0.4728682041168213 -0.02325582318007946
0.11679189652204514 0.4728681743144989 -0.007751941215246916
0.11715704202651978 0.4883720874786377 -0.05426359176635742
0.11800689250230789 0.4883720874786377 -0.038759712129831314
0.1179773211479187 0.4883720874786377 -0.02325582318007946
0.11807341873645782 0.4883720576763153 -0.007751941680908203
0.1172899529337883 0.4883720874786377 0.007751941680908203
0.11837197840213776 0.5038759708404541 -0.05426359176635742
0.11770214140415192 0.5038759708404541 -0.038759712129831314
0.11751760542392731 0.5038759708404541 -0.02325582504272461
0.11779096722602844 0.5038759708404541 -0.007751941680908203
0.11723336577415466 0.5038759708404541 0.007751941680908203
0.11636385321617126 0.5193798542022705 -0.06976740807294846
0.11798954755067825 0.5193798542022705 -0.05426359176635742
0.11651162058115005 0.5193798542022705 -0.038759708404541016
0.11634103208780289 0.5193798542022705 -0.02325582318007946
0.11645685136318207 0.5193798542022705 -0.007751941680908203
0.11642800271511078 0.6279069185256958 -0.08527129888534546
0.11702718585729599 0.627906858921051 -0.06976741552352905
0.12251832336187363 0.6434108018875122 -0.08527129888534546
0.11730945110321045 0.6434108018875122 -0.06976741552352905
0.13256432116031647 -0.05426359176635742 -0.02325582504272461
0.13370400667190552 -0.05426359549164772 -0.007751941680908203
0.13460366427898407 -0.05426359549164772 0.007751941680908203
0.1348484307527542 -0.05426359176635742 0.02325582504272461
0.1340872347354889 -0.05426359176635742 0.038759708404541016
0.13312076032161713 -0.038759712129831314 -0.05426359549164772
0.13878387212753296 -0.038759708404541016 -0.038759708404541016
0.13967837393283844 -0.038759708404541016 -0.02325582504272461
0.13989070057868958 -0.038759708404541016 -0.007751941680908203
0.1399228274822235 -0.038759708404541016 0.007751941680908203
0.13919256627559662 -0.038759708404541016 0.02325582504272461
0.13692456483840942 -0.038759708404541016 0.038759708404541016
0.1328699290752411 -0.038759708404541016 0.05426359176635742
0.13423670828342438 -0.02325582504272461 -0.06976741552352905
0.14110583066940308 -0.02325582504272461 -0.05426359176635742
0.14699484407901764 -0.02325582504272461 -0.007751941680908203
0.1460302472114563 -0.02325582504272461 0.007751941680908203
0.14362606406211853 -0.02325582504272461 0.02325582504272461
0.13956454396247864 -0.02325582504272461 0.038759708404541016
0.13380566239356995 -0.02325582504272461 0.05426359176635742
0.13589535653591156 -0.007751941680908203 -0.08527129888534546
0.1460047960281372 -0.007751941680908203 0.02325582504272461
0.1402589976787567 -0.007751941680908203 0.038759708404541016
0.13357971608638763 -0.007751941680908203 0.05426359176635742
0.14556105434894562 0.007751941680908203 0.02325582504272461
0.13871151208877563 0.007751941680908203 0.038759708404541016
0.1324557065963745 0.00775194214656949 0.05426359176635742
0.14488445222377777 0.02325582504272461 0.02325582504272461
0.1372583508491516 0.02325582504272461 0.038759708404541016
0.1427815854549408 0.038759708404541016 -0.11627906560897827
0.14450526237487793 0.038759708404541016 0.02325582504272461
0.13650909066200256 0.038759708404541016 0.038759708404541016
0.14334756135940552 0.05426359176635742 0.02325582504272461
0.13562636077404022 0.05426359176635742 0.038759708404541016
0.14065539836883545 0.06976747512817383 0.02325582504272461
0.13409852981567383 0.06976747512817383 0.038759708404541016
0.1452089250087738 0.08527135848999023 0.007751941680908203
0.13765163719654083 0.08527135848999023 0.02325582504272461
0.13233496248722076 0.08527135848999023 0.038759708404541016
0.14284010231494904 0.10077524185180664 0.007751941680908203
0.13622348010540009 0.10077524185180664 0.02325582504272461
0.14110144972801208 0.11627912521362305 -0.11627906560897827
0.14163365960121155 0.11627912521362305 0.007751941680908203
0.1356159746646881 0.11627912521362305 0.02325582504272461
0.13662850856781006 0.1317828893661499 -0.11627906560897827
0.14246529340744019 0.1317828893661499 0.007751941680908203
0.1361384391784668 0.1317828893661499 0.02325582504272461
0.1461247056722641 0.1472867727279663 0.007751941680908203
0.13825252652168274 0.1472867727279663 0.02325582504272461
0.13279497623443604 0.1472867727279663 0.038759708404541016
0.14322568476200104 0.16279065608978271 0.02325582504272461
0.13542968034744263 0.16279065608978271 0.038759708404541016
0.13784712553024292 0.17829453945159912 0.038759708404541016
0.13830193877220154 0.19379842281341553 0.038759708404541016
0.13615211844444275 0.20930230617523193 0.038759708404541016
0.13902390003204346 0.22480618953704834 0.02325582504272461
0.13192343711853027 0.22480618953704834 0.038759712129831314
0.13404202461242676 0.24031008780002594 -0.02325582504272461
0.13418273627758026 0.24031007289886475 -0.007751941680908203
0.13350079953670502 0.24031007289886475 0.007751941680908203
0.14743393659591675 -0.02325582504272461 -0.038759708404541016
0.14738821983337402 -0.02325582504272461 -0.02325582504272461
0.1477915346622467 -0.007751941680908203 -0.06976741552352905
0.14797033369541168 -0.007751941680908203 -0.05426359176635742
0.14896933734416962 -0.007751941680908203 -0.03875970467925072
0.14896495640277863 -0.007751941680908203 -0.02325582504272461
0.148670956492424 -0.007751941680908203 -0.007751941680908203
0.14806470274925232 -0.007751941680908203 0.007751941680908203
0.15149229764938354 0.007751941680908203 -0.10077518224716187
0.1504898965358734 0.007751941680908203 -0.05426359176635742
0.15066510438919067 0.007751941680908203 -0.038759708404541016
0.15017591416835785 0.007751941215246916 -0.02325582504272461
0.14932173490524292 0.007751941215246916 -0.007751941215246916
0.1482686996459961 0.007751941680908203 0.007751941680908203
0.15942253172397614 0.02325582504272461 -0.05426359176635742
0.15459074079990387 0.02325582504272461 -0.038759708404541016
0.15240448713302612 0.02325582504272461 -0.02325582504272461
0.150164395570755 0.02325582318007946 -0.007751941680908203
0.14846976101398468 0.02325582318007946 0.007751941680908203
0.16118066012859344 0.038759708404541016 -0.038759708404541016
0.1543387472629547 0.038759708404541016 -0.02325582504272461
0.15121805667877197 0.038759708404541016 -0.007751941680908203
0.14886672794818878 0.038759708404541016 0.007751941680908203
0.15496277809143066 0.05426359176635742 -0.02325582504272461
0.15150797367095947 0.05426359176635742 -0.007751941680908203
0.1487409770488739 0.05426359176635742 0.007751941680908203
0.15804411470890045 0.06976747512817383 -0.038759708404541016
0.15330848097801208 0.06976747512817383 -0.02325582504272461
0.15041890740394592 0.06976747512817383 -0.007751941680908203
0.14774343371391296 0.06976747512817383 0.007751941680908203
0.15716025233268738 0.08527135848999023 -0.11627906560897827
0.16118791699409485 0.08527135848999023 -0.05426359176635742
0.15449506044387817 0.08527135848999023 -0.038759708404541016
0.1515726000070572 0.08527135848999023 -0.02325582504272461
0.14897608757019043 0.08527135848999023 -0.007751941680908203
0.14786982536315918 0.10077524930238724 -0.11627906560897827
0.1562858372926712 0.10077524185180664 -0.038759708404541016
0.15182478725910187 0.10077524185180664 -0.02325582504272461
0.1484924554824829 0.10077524185180664 -0.007751941680908203
0.16080564260482788 0.11627912521362305 -0.038759708404541016
0.15288907289505005 0.11627911776304245 -0.02325582504272461
0.14860793948173523 0.11627912521362305 -0.007751941680908203
0.16098302602767944 0.1317828893661499 -0.10077518224716187
0.16182702779769897 0.1317828893661499 -0.038759708404541016
0.1535911113023758 0.1317828893661499 -0.02325582504272461
0.14931000769138336 0.1317828893661499 -0.007751941215246916
0.15777762234210968 0.1472867727279663 -0.10077518224716187
0.15508651733398438 0.1472867727279663 -0.02325582504272461
0.15067064762115479 0.1472867727279663 -0.007751941680908203
0.15490786731243134 0.16279065608978271 -0.10077518224716187
0.16143357753753662 0.16279065608978271 -0.02325582504272461
0.15447872877120972 0.16279065608978271 -0.007751941680908203
0.15004172921180725 0.16279065608978271 0.007751941680908203
0.15776091814041138 0.17829453945159912 -0.10077518224716187
0.15424975752830505 0.17829453945159912 0.007751941680908203
0.14849744737148285 0.17829453945159912 0.02325582504272461
0.15803644061088562 0.19379842281341553 0.007751941680908203
0.14965865015983582 0.19379842281341553 0.02325582504272461
0.15592822432518005 0.20930230617523193 0.007751941680908203
0.1475396752357483 0.20930232107639313 0.02325582504272461
0.16134114563465118 0.22480618953704834 -0.02325582504272461
0.1533251404762268 0.22480618953704834 -0.007751941680908203
0.14767873287200928 0.22480618953704834 0.007751941680908203
0.1634715348482132 0.007751941680908203 -0.06976741552352905
0.17218557000160217 0.038759708404541016 -0.05426359176635742
0.17593355476856232 0.05426359176635742 -0.11627906560897827
0.17284227907657623 0.05426359176635742 -0.05426359176635742
0.16306012868881226 0.05426359176635742 -0.03875970467925072
0.1761694997549057 0.06976747512817383 -0.11627906560897827
0.1657642126083374 0.06976747512817383 -0.05426359549164772
0.17326998710632324 0.08527135848999023 -0.06976741552352905
0.16692817211151123 0.10077524185180664 -0.10077518224716187
0.16704505681991577 0.10077524185180664 -0.08527129888534546
0.16468580067157745 0.10077524185180664 -0.06976741552352905
0.16289624571800232 0.10077524185180664 -0.05426359176635742
0.16303038597106934 0.11627912521362305 -0.10077518969774246
0.16488862037658691 0.11627912521362305 -0.08527129888534546
0.1653701663017273 0.11627912521362305 -0.06976741552352905
0.16433247923851013 0.11627912521362305 -0.05426359176635742
0.1650014966726303 0.1317828893661499 -0.08527129888534546
0.1662265956401825 0.1317828893661499 -0.06976741552352905
0.16519278287887573 0.1317828893661499 -0.05426359176635742
0.1647198647260666 0.1472867727279663 -0.08527129888534546
0.16651597619056702 0.1472867727279663 -0.06976741552352905
0.16556893289089203 0.1472867727279663 -0.05426359176635742
0.16288746893405914 0.1472867727279663 -0.038759708404541016
0.16575714945793152 0.16279064118862152 -0.08527129888534546
0.16988137364387512 0.16279065608978271 -0.06976741552352905
0.16873601078987122 0.16279065608978271 -0.05426359176635742
0.16567637026309967 0.1627906709909439 -0.038759708404541016
0.17378123104572296 0.17829453945159912 -0.038759708404541016
0.167896568775177 0.17829453945159912 -0.02325582504272461
0.16295316815376282 0.17829453945159912 -0.007751941680908203
0.16453392803668976 0.19379843771457672 -0.10077518224716187
0.17417284846305847 0.19379842281341553 -0.02325582504272461
0.16620376706123352 0.19379842281341553 -0.007751941680908203
0.1744578778743744 0.20930230617523193 -0.02325582504272461
0.16492535173892975 0.20930230617523193 -0.007751941680908203
0.17775565385818481 0.22480618953704834 -0.038759708404541016
0.16907617449760437 0.24031007289886475 -0.08527129888534546
0.1639980673789978 0.24031007289886475 -0.06976741552352905
0.18828925490379333 0.08527135848999023 -0.10077518224716187
0.18637768924236298 0.08527135848999023 -0.08527129888534546
0.1789349764585495 0.17829453945159912 -0.08527129888534546
0.18147580325603485 0.17829453945159912 -0.06976741552352905
0.17940418422222137 0.17829453945159912 -0.05426359176635742
0.19290129840373993 0.19379842281341553 -0.08527129888534546
0.18827275931835175 0.19379842281341553 -0.05426359176635742
0.181753009557724 0.19379842281341553 -0.038759708404541016
0.18475772440433502 0.20930230617523193 -0.038759708404541016
0.18900632858276367 0.5193798542022705 -0.06976741552352905
0.18854555487632751 0.5348837375640869 -0.06976741552352905
0.20095528662204742 0.007751941680908203 -0.10077518224716187
0.19794392585754395 0.06976747512817383 -0.06976741552352905
0.19415876269340515 0.19379843771457672 -0.06976742297410965
0.19925500452518463 0.20930230617523193 -0.08527129888534546
0.20015108585357666 0.20930230617523193 -0.06976741552352905
0.1954990178346634 0.20930230617523193 -0.05426359176635742
0.2024419903755188 0.22480618953704834 -0.08527129888534546
0.20298759639263153 0.22480618953704834 -0.06976741552352905
0.19568125903606415 0.22480620443820953 -0.05426359176635742
0.20474085211753845 0.24031007289886475 -0.08527129888534546
0.2015085518360138 0.24031007289886475 -0.06976741552352905
0.19608455896377563 0.5193798542022705 -0.06976741552352905
0.1967725306749344 0.5348837375640869 -0.06976741552352905
0.2234075367450714 -0.007751941680908203 -0.08527129888534546
0.21023909747600555 0.02325582504272461 -0.06976741552352905
0.21299304068088531 0.038759708404541016 -0.06976741552352905
0.2222498208284378 0.05426359176635742 -0.10077518224716187
0.2236638069152832 0.05426359176635742 -0.08527129888534546
0.21028855443000793 0.05426359176635742 -0.06976741552352905
0.210548534989357 0.06976747512817383 -0.10077518224716187
0.2108912467956543 0.06976747512817383 -0.08527129888534546
0.2269097864627838 -0.007751941680908203 -0.08527129888534546
0.23570367693901062 0.007751941680908203 -0.10077518224716187
0.23438838124275208 0.02325582504272461 -0.10077518224716187
0.23674152791500092 0.02325582504272461 -0.08527129888534546
0.22984346747398376 0.038759708404541016 -0.10077518224716187
0.2308613359928131 0.038759708404541016 -0.08527129888534546
0.25578102469444275 -0.06976741552352905 -0.10077518224716187
0.24162068963050842 0.007751941680908203 -0.08527129888534546
0.27063724398612976 -0.06976741552352905 -0.08527129888534546
0.25952330231666565 -0.05426358804106712 -0.10077517479658127
0.2670256495475769 -0.05426359176635742 -0.08527129888534546
0.25834816694259644 -0.038759708404541016 -0.10077518224716187
0.2633960545063019 -0.038759708404541016 -0.08527129888534546
0.26632818579673767 -0.02325582504272461 -0.10077518224716187
0.2664170563220978 -0.02325582504272461 -0.08527129888534546
0.27448004484176636 -0.06976741552352905 -0.10077518224716187
0.27195778489112854 -0.06976741552352905 -0.08527130633592606
0.28637418150901794 -0.05426359176635742 -0.10077518224716187
0.28593671321868896 -0.05426359176635742 -0.08527129888534546
0.2802242338657379 -0.02325582504272461 -0.10077518224716187
0.2792333662509918 -0.02325582504272461 -0.08527129888534546
0.28721415996551514 -0.038759708404541016 -0.10077518969774246
0.2868300974369049 -0.038759712129831314 -0.08527129888534546
-0.27131783962249756 -0.06592559814453125 -0.10077518224716187
-0.27131783962249756 -0.051510922610759735 -0.08527129888534546
-0.27131783962249756 -0.02215423248708248 -0.10077518224716187
-0.27131783962249756 -0.021366609260439873 -0.08527129888534546
-0.24031007289886475 -0.02595353312790394 -0.08527129888534546
-0.24031007289886475 0.0039568329229950905 -0.08527129888534546
-0.22480618953704834 -0.018302571028470993 -0.08527129888534546
-0.22480618953704834 0.005907682701945305 -0.10077518224716187
-0.22480618953704834 0.039533328264951706 -0.10077518224716187
-0.22480620443820953 0.04122000187635422 -0.08527130633592606
-0.20930230617523193 0.0043536024168133736 -0.08527129888534546
-0.20930230617523193 0.01660020835697651 -0.10077518224716187
-0.20930230617523193 0.06059005856513977 -0.10077518224716187
-0.20930230617523193 0.061379868537187576 -0.08527129888534546
-0.19379842281341553 0.0196287352591753 -0.10077518224716187
-0.19379842281341553 0.013294262811541557 -0.08527129888534546
-0.19379842281341553 0.023303192108869553 -0.06976742297410965
-0.19379842281341553 0.0590185672044754 -0.06976741552352905
-0.19379842281341553 0.07391000539064407 -0.10077518224716187
-0.19379842281341553 0.07326586544513702 -0.08527129888534546
-0.19379842281341553 0.1932564526796341 -0.06976741552352905
-0.19379842281341553 0.20059320330619812 -0.08527129888534546
-0.19379842281341553 0.23758910596370697 -0.06976741552352905
-0.19379842281341553 0.24294701218605042 -0.08527129888534546
-0.19379842281341553 0.5264666080474854 -0.06976741552352905
-0.19379843771457672 0.5355070233345032 -0.06976741552352905
-0.1782945990562439 0.019225792959332466 -0.10077518224716187
-0.1782945990562439 0.01401868462562561 -0.08527129888534546
-0.1782945990562439 0.022989684715867043 -0.06976741552352905
-0.1782945990562439 0.084136962890625 -0.08527129888534546
-0.1782945990562439 0.07125599682331085 -0.06976741552352905
-0.1782945990562439 0.08631221204996109 -0.10077518969774246
-0.1782945990562439 0.17812331020832062 -0.06976741552352905
-0.1782945990562439 0.18743565678596497 -0.08527129888534546
-0.1782945990562439 0.18444643914699554 -0.05426359176635742
-0.1782945990562439 0.20835468173027039 -0.038759708404541016
-0.1782945990562439 0.20950154960155487 -0.038759708404541016
-0.1782945990562439 0.234333336353302 -0.08527129888534546
-0.1782945990562439 0.23285171389579773 -0.06976741552352905
-0.1782945990562439 0.2261274755001068 -0.05426359176635742
-0.1627907156944275 0.007116443477571011 -0.08527129888534546
-0.1627907156944275 0.01609807275235653 -0.10077518224716187
-0.1627907156944275 0.014872238039970398 -0.06976741552352905
-0.1627907156944275 0.03767266124486923 -0.05426359176635742
-0.1627907156944275 0.06578368693590164 -0.05426359176635742
-0.1627907156944275 0.09504789859056473 -0.06976741552352905
-0.1627907156944275 0.10275202244520187 -0.10077518224716187
-0.1627907156944275 0.10742896795272827 -0.06976741552352905
-0.1627907156944275 0.14002393186092377 -0.08527129888534546
-0.1627907156944275 0.17238739132881165 -0.08527129888534546
-0.1627907156944275 0.16279442608356476 -0.05426358804106712
-0.1627907156944275 0.17139096558094025 -0.038759708404541016
-0.1627907156944275 0.18179115653038025 -0.02325582504272461
-0.1627907156944275 0.2181376814842224 -0.08527129888534546
-0.1627907156944275 0.22465912997722626 -0.038759708404541016
-0.1627907156944275 0.21376344561576843 -0.02325582504272461
-0.1627907156944275 0.22812139987945557 -0.06976741552352905
-0.1627907156944275 0.2263830155134201 -0.05426359176635742
-0.14728683233261108 -0.007890243083238602 -0.038759708404541016
-0.14728683233261108 0.0022729821503162384 -0.08527129888534546
-0.14728683233261108 -0.0004443496000021696 -0.06976741552352905
-0.14728683233261108 0.0024229642003774643 -0.05426359176635742
-0.14728683233261108 0.0013704521115869284 -0.02325582504272461
-0.14728683233261108 0.009456178173422813 -0.10077518224716187
-0.14728683233261108 0.013569585978984833 -0.007751941680908203
-0.14728683233261108 0.05423370748758316 -0.11627906560897827
-0.14728683233261108 0.07036255300045013 -0.11627906560897827
-0.14728683233261108 0.0784628838300705 -0.007751941680908203
-0.14728683233261108 0.15711452066898346 -0.10077518224716187
-0.14728683233261108 0.15295445919036865 -0.007751941680908203
-0.14728683233261108 0.17054158449172974 0.007751941680908203
-0.14728683233261108 0.21119378507137299 -0.08527129888534546
-0.14728683233261108 0.21338507533073425 0.007751941680908203
-0.1472868174314499 0.22546124458312988 -0.06976741552352905
-0.14728683233261108 0.22626399993896484 -0.05426359176635742
-0.14728683233261108 0.22633858025074005 -0.038759708404541016
-0.14728683233261108 0.22621116042137146 -0.02325582504272461
-0.14728683233261108 0.22507940232753754 -0.00775194214656949
-0.13178294897079468 -0.042221345007419586 -0.038759708404541016
-0.13178294897079468 -0.04470747336745262 -0.02325582504272461
-0.13178294897079468 -0.047445595264434814 -0.007751941680908203
-0.13178294897079468 -0.05033361539244652 0.007751941680908203
-0.13178294897079468 -0.05090843886137009 0.02325582504272461
-0.13178294897079468 -0.04427649825811386 0.038759708404541016
-0.13178294897079468 -0.023667192086577415 -0.06976741552352905
-0.13178294897079468 -0.033914778381586075 -0.05426359176635742
-0.13178294897079468 0.007213362492620945 -0.10077518224716187
-0.13178294897079468 -0.007401463109999895 -0.08527129888534546
-0.13178294897079468 0.04660340026021004 -0.11627906560897827
-0.13178294897079468 0.05893072485923767 0.038759708404541016
-0.13178294897079468 0.12973831593990326 -0.11627906560897827
-0.13178294897079468 0.17380432784557343 0.038759708404541016
-0.13178294897079468 0.1862872689962387 -0.10077518224716187
-0.13178294897079468 0.19769106805324554 0.038759708404541016
-0.13178294897079468 0.21121647953987122 -0.08527129888534546
-0.13178294897079468 0.22273066639900208 -0.06976741552352905
-0.13178294897079468 0.22646746039390564 -0.05426359176635742
-0.13178294897079468 0.22870029509067535 -0.038759708404541016
-0.13178294897079468 0.23325982689857483 -0.02325582504272461
-0.13178294897079468 0.23780648410320282 -0.007751941680908203
-0.13178294897079468 0.23770394921302795 0.007751941680908203
-0.13178294897079468 0.22891688346862793 0.02325582690536976
-0.11627906560897827 -0.10740485787391663 0.007751941680908203
-0.11627906560897827 -0.11068945378065109 0.02325582504272461
-0.11627906560897827 -0.1076817512512207 0.038759708404541016
-0.11627906560897827 -0.08904382586479187 -0.02325582504272461
-0.11627906560897827 -0.09968087822198868 -0.007751941680908203
-0.11627906560897827 -0.0950140580534935 0.05426359176635742
-0.11627906560897827 -0.07158815115690231 -0.038759708404541016
-0.11627906560897827 -0.05723333731293678 -0.05426359176635742
-0.11627907305955887 -0.0653868168592453 0.06976747512817383
-0.11627906560897827 -0.0496373288333416 -0.06976741552352905
-0.11627907305955887 -0.020548520609736443 -0.08527129888534546
-0.11627906560897827 0.010322533547878265 -0.10077518224716187
-0.11627906560897827 0.022777089849114418 0.06976747512817383
-0.11627906560897827 0.04764685034751892 -0.11627906560897827
-0.11627906560897827 0.16105031967163086 -0.11627906560897827
-0.11627906560897827 0.21046704053878784 -0.10077518224716187
-0.11627906560897827 0.22318409383296967 0.05426359176635742
-0.11627907305955887 0.2444227933883667 -0.08527129888534546
-0.11627906560897827 0.2546023726463318 0.038759708404541016
-0.11627906560897827 0.2609689235687256 -0.06976741552352905
-0.11627906560897827 0.2671961486339569 -0.05426359176635742
-0.11627906560897827 0.2700589895248413 0.02325582504272461
-0.11627906560897827 0.2813321650028229 -0.038759708404541016
-0.11627906560897827 0.28107762336730957 0.007751941680908203
-0.11627906560897827 0.2905762791633606 -0.02325582504272461
-0.11627906560897827 0.2874303162097931 -0.007751941680908203
-0.11627906560897827 0.3314772844314575 -0.05426359176635742
-0.11627906560897827 0.3201044201850891 -0.038759708404541016
-0.11627906560897827 0.31856173276901245 -0.02325582504272461
-0.11627906560897827 0.3325241804122925 -0.007751941680908203
-0.11627906560897827 0.36213329434394836 -0.05426359176635742
-0.11627906560897827 0.3811611235141754 -0.038759708404541016
-0.11627906560897827 0.38724082708358765 -0.02325582504272461
-0.11627906560897827 0.3830608129501343 -0.007751941680908203
-0.11627906560897827 0.48793843388557434 -0.038759708404541016
-0.11627906560897827 0.48761874437332153 -0.02325582504272461
-0.11627906560897827 0.49715864658355713 -0.007751941680908203
-0.11627906560897827 0.5046663284301758 -0.038759708404541016
-0.11627906560897827 0.5054820775985718 -0.02325582504272461
-0.11627906560897827 0.5055137276649475 -0.00775194214656949
-0.10077518224716187 -0.18059198558330536 -0.007751941680908203
-0.10077518224716187 -0.18258212506771088 0.007751941680908203
-0.10077518224716187 -0.179529070854187 0.02325582504272461
-0.10077518224716187 -0.1673770248889923 -0.02325582504272461
-0.10077518224716187 -0.17051216959953308 0.038759708404541016
-0.10077518224716187 -0.1536944955587387 0.05426359176635742
-0.10077518224716187 -0.13787297904491425 -0.038759708404541016
-0.10077518224716187 -0.12781304121017456 0.06976747512817383
-0.10077518224716187 -0.08851484209299088 -0.05426359176635742
-0.10077518224716187 -0.09343919157981873 0.08527135848999023
-0.10077518224716187 -0.07091406732797623 -0.06976741552352905
-0.10077518224716187 -0.055007919669151306 -0.08527129888534546
-0.10077518224716187 0.008601894602179527 -0.10077518224716187
-0.10077518224716187 0.04880663380026817 -0.11627906560897827
-0.10077518224716187 0.09828801453113556 0.08527135848999023
-0.10077518224716187 0.18808726966381073 -0.11627906560897827
-0.10077518224716187 0.24907846748828888 -0.10077518224716187
-0.10077518969774246 0.2456919252872467 0.06976747512817383
-0.10077518224716187 0.2898519039154053 0.05426359176635742
-0.10077518224716187 0.33619624376296997 -0.08527129888534546
-0.10077518224716187 0.38138139247894287 -0.06976740807294846
-0.10077518224716187 0.4196336269378662 0.038759708404541016
-0.10077518224716187 0.4478395879268646 0.038759708404541016
-0.10077518224716187 0.5112872123718262 -0.06976741552352905
-0.10077517479658127 0.5206841230392456 -0.06976741552352905
-0.10077518224716187 0.5323764085769653 -0.05426359176635742
-0.10077518224716187 0.5374031066894531 -0.038759708404541016
-0.10077518224716187 0.5425674915313721 -0.02325582504272461
-0.10077518224716187 0.5349044799804688 0.038759708404541016
-0.10077517479658127 0.5512346625328064 -0.007751941680908203
-0.10077518224716187 0.5563652515411377 0.007751941680908203
-0.10077518224716187 0.5533854961395264 0.02325582504272461
-0.10077518224716187 0.6121325492858887 -0.06976741552352905
-0.10077518224716187 0.6252037882804871 -0.08527129888534546
-0.10077518969774246 0.6435237526893616 -0.08527129888534546
-0.10077518224716187 0.6477886438369751 -0.06976741552352905
-0.10077518224716187 0.7188687324523926 -0.06976741552352905
-0.10077518224716187 0.716992199420929 -0.05426359176635742
-0.10077518224716187 0.737541139125824 -0.06976741552352905
-0.10077518224716187 0.7372369170188904 -0.05426359176635742
-0.08527129888534546 -0.2445281744003296 -0.007751941680908203
-0.08527129888534546 -0.24090078473091125 0.007751941680908203
-0.08527129888534546 -0.2400495707988739 -0.02325582504272461
-0.08527129888534546 -0.2324802130460739 0.02325582504272461
-0.08527129888534546 -0.22025026381015778 -0.038759708404541016
-0.08527129888534546 -0.2219466269016266 0.038759708404541016
-0.08527129888534546 -0.205702006816864 0.05426359176635742
-0.08527129888534546 -0.1827164590358734 0.06976747512817383
-0.08527129888534546 -0.15810148417949677 -0.05426358804106712
-0.08527129888534546 -0.1482534557580948 0.08527135848999023
-0.08527129888534546 -0.10505516082048416 0.10077524185180664
-0.08527129888534546 -0.08839115500450134 -0.06976741552352905
-0.08527129888534546 -0.06590588390827179 -0.08527129888534546
-0.08527129888534546 -0.011046286672353745 -0.10077518224716187
-0.08527129143476486 0.04211917892098427 -0.11627906560897827
-0.08527129888534546 0.1431567668914795 0.10077524185180664
-0.08527129888534546 0.2052597999572754 -0.11627906560897827
-0.08527129888534546 0.2535870671272278 0.08527135848999023
-0.08527129888534546 0.31510403752326965 -0.10077518224716187
-0.08527129888534546 0.3425319790840149 0.06976747512817383
-0.08527129888534546 0.3761562705039978 -0.08527129888534546
-0.08527129888534546 0.5324770212173462 -0.06976741552352905
-0.08527129888534546 0.5476673245429993 -0.05426359176635742
-0.08527129888534546 0.5644818544387817 -0.038759708404541016
-0.08527129888534546 0.5585196614265442 0.05426359176635742
-0.08527129888534546 0.6156271696090698 -0.06976741552352905
-0.08527129888534546 0.6211269497871399 -0.05426359176635742
-0.08527129888534546 0.6159106492996216 -0.038759708404541016
-0.08527129888534546 0.6135385632514954 0.038759708404541016
-0.08527129888534546 0.644970178604126 -0.06976741552352905
-0.08527129888534546 0.6515929698944092 -0.05426359176635742
-0.08527129888534546 0.6833655834197998 -0.05426359176635742
-0.08527129888534546 0.7040636539459229 -0.06976741552352905
-0.08527129888534546 0.707600474357605 0.02325582504272461
-0.08527129888534546 0.755588173866272 -0.06976741552352905
-0.08527129888534546 0.7618984580039978 0.007751941680908203
-0.08527129888534546 0.767449676990509 -0.05426359176635742
-0.08527129888534546 0.7871979475021362 -0.038759708404541016
-0.08527129888534546 0.7915006279945374 -0.02325582504272461
-0.08527129888534546 0.7840681076049805 -0.007751941680908203
-0.06976742297410965 -0.2853046953678131 -0.02325582504272461
-0.06976742297410965 -0.28661873936653137 -0.00775194214656949
-0.06976741552352905 -0.2789042592048645 0.007751941680908203
-0.06976741552352905 -0.2693144977092743 -0.038759708404541016
-0.06976741552352905 -0.2675544321537018 0.02325582318007946
-0.06976742297410965 -0.25478416681289673 0.038759708404541016
-0.06976741552352905 -0.23830032348632812 0.05426359549164772
-0.06976741552352905 -0.2134055644273758 -0.05426359176635742
-0.06976741552352905 -0.21694016456604004 0.06976747512817383
-0.06976741552352905 -0.1890612095594406 0.08527135848999023
-0.06976741552352905 -0.14695730805397034 0.10077524185180664
-0.06976741552352905 -0.10454464703798294 -0.06976741552352905
-0.06976741552352905 -0.10085374116897583 0.11627912521362305
-0.06976741552352905 -0.07246178388595581 -0.08527129888534546
-0.06976741552352905 -0.03705631196498871 -0.10077518224716187
-0.06976741552352905 0.037776656448841095 -0.11627906560897827
-0.06976741552352905 0.03408893570303917 0.11627912521362305
-0.06976741552352905 0.2148672342300415 -0.11627906560897827
-0.06976741552352905 0.21427041292190552 0.10077524185180664
-0.06976741552352905 0.3095318078994751 0.08527135848999023
-0.06976741552352905 0.36024361848831177 -0.10077518224716187
-0.06976741552352905 0.4097774028778076 -0.08527129888534546
-0.06976741552352905 0.46795153617858887 -0.08527129888534546
-0.06976741552352905 0.508522093296051 -0.08527129888534546
-0.06976741552352905 0.5245610475540161 0.06976747512817383
-0.06976741552352905 0.5442115068435669 -0.06976741552352905
-0.06976741552352905 0.5646225214004517 -0.05426359176635742
-0.06976741552352905 0.6109287738800049 0.05426359176635742
-0.06976740807294846 0.6599077582359314 -0.05426359176635742
-0.06976741552352905 0.6869170665740967 0.038759708404541016
-0.06976741552352905 0.7046096324920654 -0.06976741552352905
-0.06976741552352905 0.7511007785797119 -0.06976741552352905
-0.06976741552352905 0.7627320289611816 0.02325582504272461
-0.06976741552352905 0.781128466129303 -0.05426359176635742
-0.06976741552352905 0.8138766884803772 0.007751941680908203
-0.06976741552352905 0.8183201551437378 -0.038759708404541016
-0.06976741552352905 0.8330894112586975 -0.02325582504272461
-0.06976741552352905 0.83140629529953 -0.007751941680908203
-0.05426359176635742 -0.32771363854408264 -0.02325582504272461
-0.05426359176635742 -0.3260420858860016 -0.007751941680908203
-0.05426359176635742 -0.31162509322166443 -0.038759708404541016
-0.05426359549164772 -0.31421974301338196 0.00775194214656949
-0.05426359176635742 -0.2965826988220215 0.02325582504272461
-0.05426359176635742 -0.2791150212287903 0.038759708404541016
-0.05426359176635742 -0.2619746923446655 0.05426359176635742
-0.05426359176635742 -0.2504422664642334 -0.05426359176635742
-0.05426359176635742 -0.243290513753891 0.06976747512817383
-0.05426359176635742 -0.21622762084007263 0.08527135848999023
-0.05426359176635742 -0.1766417771577835 0.10077524185180664
-0.05426359176635742 -0.12096361070871353 -0.06976741552352905
-0.05426359176635742 -0.12870928645133972 0.11627912521362305
-0.05426359176635742 -0.07548484206199646 -0.08527129888534546
-0.05426359176635742 -0.040787145495414734 -0.10077518224716187
-0.05426359176635742 0.03830914944410324 -0.11627906560897827
-0.05426359176635742 0.07409688830375671 0.11627912521362305
-0.05426359176635742 0.21954815089702606 -0.11627906560897827
-0.05426359176635742 0.24686414003372192 0.10077524185180664
-0.05426359176635742 0.36187729239463806 0.08527135848999023
-0.05426359176635742 0.382358193397522 -0.10077518224716187
-0.05426359176635742 0.5272294282913208 -0.08527129888534546
-0.05426359176635742 0.5555628538131714 -0.06976741552352905
-0.05426359176635742 0.5626555681228638 0.06976747512817383
-0.05426359176635742 0.5790578722953796 -0.05426359176635742
-0.05426359176635742 0.636074423789978 0.05426359176635742
-0.05426359176635742 0.6753469705581665 -0.05426359176635742
-0.05426359176635742 0.704038143157959 0.038759708404541016
-0.05426359176635742 0.7779333591461182 0.02325582504272461
-0.05426359549164772 0.7891290783882141 -0.05426359549164772
-0.05426359176635742 0.8449211120605469 -0.038759708404541016
-0.05426359176635742 0.8546243906021118 0.007751941680908203
-0.05426359176635742 0.8698669672012329 -0.02325582504272461
-0.05426359176635742 0.8719950914382935 -0.007751941680908203
-0.038759708404541016 -0.38456785678863525 -0.02325582504272461
-0.038759708404541016 -0.3693368136882782 -0.038759708404541016
-0.038759708404541016 -0.3733363151550293 -0.007751941680908203
-0.038759708404541016 -0.35196200013160706 0.007751941680908203
-0.038759708404541016 -0.3261237144470215 0.02325582504272461
-0.038759708404541016 -0.3046473264694214 0.038759708404541016
-0.038759708404541016 -0.28988730907440186 -0.05426359176635742
-0.038759708404541016 -0.2878877818584442 0.05426359176635742
-0.038759708404541016 -0.26868247985839844 0.06976747512817383
-0.038759708404541016 -0.24160106480121613 0.08527135848999023
-0.038759708404541016 -0.19980455935001373 0.10077524185180664
-0.038759708404541016 -0.14812922477722168 0.11627912521362305
-0.038759708404541016 -0.1423448622226715 -0.06976741552352905
-0.038759708404541016 -0.07884438335895538 -0.08527129888534546
-0.038759708404541016 -0.04187270998954773 -0.10077518224716187
-0.038759708404541016 0.03679557889699936 -0.11627906560897827
-0.038759708404541016 0.110399529337883 0.11627912521362305
-0.038759708404541016 0.22581642866134644 -0.11627906560897827
-0.038759708404541016 0.2759115695953369 0.10077524185180664
-0.038759708404541016 0.4027407169342041 0.08527135848999023
-0.03875970467925072 0.4121295213699341 -0.10077518224716187
-0.038759708404541016 0.5389291644096375 -0.08527129888534546
-0.038759708404541016 0.5721014738082886 -0.06976741552352905
-0.038759708404541016 0.5858577489852905 0.06976747512817383
-0.038759708404541016 0.6031540036201477 -0.05426359176635742
-0.038759708404541016 0.6511819362640381 0.05426359176635742
-0.038759708404541016 0.6693918704986572 -0.05426359176635742
-0.038759708404541016 0.7156348824501038 0.038759708404541016
-0.038759708404541016 0.7979528903961182 0.02325582504272461
-0.038759708404541016 0.8120498657226562 -0.05426359176635742
-0.038759708404541016 0.9091858863830566 0.007751941680908203
-0.038759708404541016 0.9292536973953247 -0.038759708404541016
-0.038759708404541016 0.9368030428886414 -0.02325582504272461
-0.038759708404541016 0.9303775429725647 -0.007751941680908203
-0.02325582504272461 -0.5214524269104004 -0.05426359176635742
-0.02325582504272461 -0.5211437940597534 -0.038759708404541016
-0.02325582504272461 -0.47865164279937744 -0.02325582504272461
-0.02325582504272461 -0.43822675943374634 -0.007751941680908203
-0.02325582504272461 -0.39670616388320923 0.007751941680908203
-0.02325582504272461 -0.35444891452789307 0.02325582504272461
-0.02325582504272461 -0.32492968440055847 0.038759708404541016
-0.02325582504272461 -0.3061782121658325 0.05426359176635742
-0.02325582504272461 -0.288169801235199 0.06976747512817383
-0.02325582504272461 -0.2603066861629486 0.08527135848999023
-0.02325582504272461 -0.21949297189712524 0.10077523440122604
-0.02325582504272461 -0.17261739075183868 -0.06976741552352905
-0.02325582504272461 -0.160943865776062 0.11627912521362305
-0.02325582504272461 -0.08082331717014313 -0.08527129888534546
-0.02325582504272461 -0.0403263159096241 -0.10077518224716187
-0.02325582504272461 0.034734033048152924 -0.11627906560897827
-0.02325582504272461 0.142669677734375 0.11627912521362305
-0.02325582504272461 0.23224279284477234 -0.11627906560897827
-0.02325582504272461 0.2980571985244751 0.10077524185180664
-0.02325582504272461 0.43633538484573364 -0.10077518224716187
-0.02325582504272461 0.46045660972595215 0.08527135848999023
-0.02325582504272461 0.5495709180831909 -0.08527129888534546
-0.02325582504272461 0.5876220464706421 -0.06976741552352905
-0.02325582504272461 0.5988085269927979 0.06976747512817383
-0.02325582504272461 0.6413640975952148 -0.05426359176635742
-0.02325582504272461 0.6447954177856445 -0.05426359176635742
-0.02325582504272461 0.6594625115394592 0.05426358804106712
-0.02325582504272461 0.723471999168396 0.038759708404541016
-0.02325582504272461 0.8245651721954346 0.02325582504272461
-0.02325582504272461 0.9510910511016846 -0.05426359176635742
-0.02325582504272461 0.940043032169342 0.007751941215246916
-0.02325582504272461 0.9655479192733765 -0.038759708404541016
-0.02325582504272461 0.9636766910552979 -0.02325582504272461
-0.02325582504272461 0.9558374881744385 -0.007751941680908203
-0.007751941680908203 -0.9867126941680908 -0.06976741552352905
-0.007751941680908203 -0.8600329756736755 -0.05426359176635742
-0.007751941680908203 -0.6625658273696899 -0.038759708404541016
-0.007751941680908203 -0.542812705039978 -0.06976741552352905
-0.007751941680908203 -0.5408933162689209 -0.02325582504272461
-0.007751941680908203 -0.47180619835853577 -0.007751941680908203
-0.007751941680908203 -0.424157977104187 0.007751941680908203
-0.007751941680908203 -0.3770872950553894 0.02325582504272461
-0.007751941680908203 -0.33900418877601624 0.038759708404541016
-0.007751941680908203 -0.3183731436729431 0.05426359176635742
-0.007751941680908203 -0.296960711479187 0.06976747512817383
-0.007751941680908203 -0.27204322814941406 0.08527135848999023
-0.007751941680908203 -0.23147514462471008 0.10077524185180664
-0.007751941680908203 -0.2019219696521759 -0.06976741552352905
-0.007751941680908203 -0.16788063943386078 0.11627912521362305
-0.007751941680908203 -0.08265870064496994 -0.08527129888534546
-0.007751941680908203 -0.041226260364055634 -0.10077518224716187
-0.007751941680908203 0.030651677399873734 -0.11627906560897827
-0.007751941680908203 0.16342613101005554 0.11627912521362305
-0.007751941680908203 0.23943878710269928 -0.11627906560897827
-0.007751941680908203 0.31197232007980347 0.10077524185180664
-0.007751941680908203 0.45269614458084106 -0.10077518224716187
-0.007751941680908203 0.4945593476295471 0.08527135848999023
-0.007751941680908203 0.5609338879585266 -0.08527129888534546
-0.007751941680908203 0.600997805595398 -0.06976741552352905
-0.007751941680908203 0.6058473587036133 0.06976747512817383
-0.007751941215246916 0.6641910076141357 0.05426359176635742
-0.007751941680908203 0.7285961508750916 0.038759708404541016
-0.007751941680908203 0.8378289937973022 0.02325582504272461
-0.007751941680908203 0.9496912360191345 0.007751941680908203
-0.007751941680908203 0.967709481716156 -0.007751941680908203
-0.007751941680908203 0.9823886752128601 -0.05426359176635742
-0.007751941680908203 0.9796769618988037 -0.02325582504272461
-0.007751941680908203 0.985588014125824 -0.038759708404541016
0.007751941680908203 -0.9870307445526123 -0.06976741552352905
0.007751941680908203 -0.8653141260147095 -0.05426359176635742
0.007751941680908203 -0.6741505265235901 -0.038759708404541016
0.007751941680908203 -0.547179102897644 -0.02325582504272461
0.007751941680908203 -0.5258054733276367 -0.06976741552352905
0.007751941680908203 -0.4733397960662842 -0.007751941680908203
0.007751941680908203 -0.4246893525123596 0.007751941680908203
0.007751941215246916 -0.3776398003101349 0.02325582318007946
0.007751941680908203 -0.33923211693763733 0.038759708404541016
0.007751941680908203 -0.31840968132019043 0.05426359176635742
0.007751941680908203 -0.29685965180397034 0.06976747512817383
0.007751941680908203 -0.2720412611961365 0.08527135848999023
0.007751941680908203 -0.2319585680961609 0.10077524185180664
0.007751941680908203 -0.19711530208587646 -0.06976741552352905
0.007751941680908203 -0.16896378993988037 0.11627912521362305
0.007751941680908203 -0.08237630873918533 -0.08527129888534546
0.007751941680908203 -0.041047610342502594 -0.10077518224716187
0.007751941680908203 0.032832834869623184 -0.11627906560897827
0.007751941680908203 0.16127485036849976 0.11627912521362305
0.007751941680908203 0.23776626586914062 -0.11627906560897827
0.007751941680908203 0.31295695900917053 0.10077524185180664
0.007751941680908203 0.4511634409427643 -0.10077518224716187
0.007751941680908203 0.4965341091156006 0.08527135848999023
0.007751941680908203 0.5606690645217896 -0.08527129888534546
0.00775194214656949 0.601067066192627 -0.06976741552352905
0.007751941680908203 0.6063423752784729 0.06976747512817383
0.007751941680908203 0.6646130681037903 0.05426359176635742
0.007751941680908203 0.7291741371154785 0.038759708404541016
0.007751941680908203 0.8399028182029724 0.02325582504272461
0.007751941680908203 0.9514257907867432 0.007751941680908203
0.007751941680908203 0.9686006903648376 -0.007751941680908203
0.007751941680908203 0.984226405620575 -0.05426359176635742
0.007751941680908203 0.9803396463394165 -0.02325582504272461
0.007751941680908203 0.9858078360557556 -0.038759708404541016
0.02325582504272461 -0.5258385539054871 -0.05426359176635742
0.02325582504272461 -0.5306335687637329 -0.038759708404541016
0.02325582504272461 -0.48248380422592163 -0.02325582504272461
0.02325582504272461 -0.4403257369995117 -0.00775194214656949
0.02325582504272461 -0.3979205787181854 0.007751941680908203
0.02325582504272461 -0.35526084899902344 0.02325582504272461
0.02325582504272461 -0.3256123960018158 0.038759708404541016
