0.1643560230731964 0.007751941680908203 -0.36434105038642883
0.16433089971542358 0.007751941680908203 -0.3488371968269348
0.16431359946727753 0.007751941680908203 -0.3333333134651184
0.1642286479473114 0.007751941680908203 -0.317829430103302
0.16378767788410187 0.007751941680908203 -0.30232560634613037
0.16294509172439575 0.007751941215246916 -0.28682172298431396
0.16548776626586914 0.007751941680908203 0.5658915042877197
0.16355155408382416 0.02325582690536976 -0.9224806427955627
0.16287361085414886 0.02325582504272461 -0.4883720874786377
0.16361495852470398 0.02325582504272461 -0.4728681743144989
0.16438661515712738 0.02325582504272461 -0.45736435055732727
0.165034681558609 0.02325582690536976 -0.44186046719551086
0.1651419699192047 0.02325582504272461 -0.42635661363601685
0.16488417983055115 0.02325582504272461 -0.41085273027420044
0.16442599892616272 0.02325582504272461 -0.39534884691238403
0.1642785370349884 0.02325582504272461 -0.3798449635505676
0.1643049567937851 0.02325582504272461 -0.3643410801887512
0.16460591554641724 0.02325582504272461 -0.3488371670246124
0.1648559868335724 0.02325582690536976 -0.3333333134651184
0.16490182280540466 0.02325582504272461 -0.317829430103302
0.1645408719778061 0.02325582504272461 -0.30232560634613037
0.1638936698436737 0.02325582504272461 -0.28682172298431396
0.16311877965927124 0.02325582504272461 -0.27131783962249756
0.16818022727966309 0.02325582504272461 0.5968992710113525
0.16799211502075195 0.038759708404541016 -0.922480583190918
0.1633840650320053 0.038759708404541016 -0.3488371968269348
0.16404584050178528 0.038759708404541016 -0.3333333134651184
0.16435828804969788 0.038759708404541016 -0.317829430103302
0.16414563357830048 0.038759708404541016 -0.30232560634613037
0.16359034180641174 0.038759708404541016 -0.28682172298431396
0.16298127174377441 0.038759708404541016 -0.27131783962249756
0.17488233745098114 0.038759708404541016 0.41085267066955566
0.17581480741500854 0.038759708404541016 0.612403154373169
0.16828495264053345 0.05426359176635742 -0.9224807024002075
0.17472541332244873 0.05426359176635742 0.6279069185256958
0.16649490594863892 0.06976747512817383 -0.9224806427955627
0.16932454705238342 0.06976747512817383 0.6434108018875122
0.1731143444776535 0.08527135848999023 -0.9379844665527344
0.16365811228752136 0.08527135848999023 -0.9224807024002075
0.17592059075832367 0.08527135848999023 0.6434108018875122
0.172785684466362 0.10077524185180664 -0.9689922332763672
0.16749580204486847 0.10077524185180664 -0.9379845261573792
0.16320155560970306 0.11627911776304245 -0.9689921736717224
0.16837921738624573 0.11627912521362305 -0.9534883499145508
0.17729990184307098 0.1317828893661499 0.6434108018875122
0.16497802734375 0.1472867727279663 0.39534875750541687
0.17354141175746918 0.1472867727279663 0.6434108018875122
0.17734894156455994 0.16279065608978271 0.41085267066955566
0.17746372520923615 0.16279065608978271 0.6279069185256958
0.1652357131242752 0.16279065608978271 0.6434108018875122
0.16534541547298431 0.17829455435276031 0.41085267066955566
0.17659367620944977 0.17829453945159912 0.5968992710113525
0.17062130570411682 0.17829453945159912 0.612403154373169
0.16322091221809387 0.17829453945159912 0.6279069185256958
0.17124846577644348 0.19379842281341553 0.42635655403137207
0.17506466805934906 0.19379842281341553 0.5348837375640869
0.16803579032421112 0.19379842281341553 0.5503876209259033
0.17859292030334473 -0.08527129888534546 -0.9689921736717224
0.18152791261672974 -0.007751941680908203 -0.9379844665527344
0.18717655539512634 -0.007751941680908203 0.4573643207550049
0.18856105208396912 -0.007751941680908203 0.4728682041168213
0.18527454137802124 -0.007751941680908203 0.4883720874786377
0.18133535981178284 -0.007751941680908203 0.5038759708404541
0.18728017807006836 0.007751941680908203 -0.9379844665527344
0.18157511949539185 0.00775194214656949 0.42635658383369446
0.18565082550048828 0.007751941680908203 0.5503876209259033
0.18953923881053925 0.02325582504272461 -0.9379844665527344
0.18385398387908936 0.02325582504272461 0.5813953876495361
0.1876876801252365 0.038759708404541016 -0.9379844665527344
0.19363512098789215 0.038759708404541016 0.5968992710113525
0.18398217856884003 0.05426359176635742 -0.9379844665527344
0.1903119534254074 0.06976747512817383 -0.9689922332763672
0.1905680000782013 0.06976747512817383 -0.9534883499145508
0.1798425316810608 0.06976747512817383 -0.9379844665527344
0.1872662901878357 0.06976747512817383 0.6279069185256958
0.1813313513994217 0.08527135848999023 -0.9689922332763672
0.18313631415367126 0.08527135848999023 -0.9534883499145508
0.19363676011562347 0.08527135848999023 0.6279069185256958
0.17873282730579376 0.10077524185180664 -0.953488290309906
0.19246985018253326 0.10077524185180664 0.3333333730697632
0.1912093460559845 0.10077524185180664 0.3488372564315796
0.19051094353199005 0.10077524185180664 0.364341139793396
0.18461205065250397 0.10077524185180664 0.37984490394592285
0.17875635623931885 0.10077524185180664 0.6434108018875122
0.19139263033866882 0.11627912521362305 0.3333333730697632
0.18983064591884613 0.11627912521362305 0.3488372564315796
0.1892506182193756 0.11627912521362305 0.364341139793396
0.18520613014698029 0.11627913266420364 0.37984490394592285
0.1792648732662201 0.11627912521362305 0.6434108018875122
0.19320005178451538 0.1317828893661499 0.37984490394592285
0.19369275867938995 0.1317828893661499 0.6279069185256958
0.18849343061447144 0.1472867727279663 0.6279069185256958
0.18822285532951355 0.16279065608978271 0.612403154373169
0.18976882100105286 0.17829453945159912 0.5658915042877197
0.18252204358577728 0.17829453945159912 0.5813953876495361
0.19089242815971375 0.19379842281341553 0.4418604373931885
0.19286540150642395 0.19379842281341553 0.4883720874786377
0.18762463331222534 0.19379842281341553 0.5038759708404541
0.18103377521038055 0.19379843771457672 0.5193798542022705
0.2007349580526352 -0.06976741552352905 -0.9689922332763672
0.1940593719482422 -0.06976741552352905 -0.9534883499145508
0.20396079123020172 -0.05426359176635742 -0.9534883499145508
0.19950126111507416 0.007751941680908203 0.5348837375640869
0.20713041722774506 0.02325582504272461 -0.9534883499145508
0.2070802003145218 0.02325582504272461 0.42635655403137207
0.20195350050926208 0.02325582504272461 0.5658915042877197
0.20415852963924408 0.038759708404541016 -0.9689922332763672
0.20141494274139404 0.038759708404541016 -0.9534883499145508
0.19714325666427612 0.05426359176635742 -0.9689922332763672
0.1963171362876892 0.05426359176635742 -0.9534883499145508
0.1942109912633896 0.05426359176635742 0.612403154373169
0.2056620717048645 0.06976747512817383 0.612403154373169
0.20611730217933655 0.08527135848999023 0.3178294897079468
0.20139235258102417 0.08527135848999023 0.3333333730697632
0.1994975507259369 0.08527135848999023 0.3488372564315796
0.19869747757911682 0.08527135848999023 0.364341139793396
0.1940268576145172 0.08527135848999023 0.37984490394592285
0.20370984077453613 0.10077524185180664 0.30232560634613037
0.1966177523136139 0.10077524185180664 0.3178294897079468
0.19828364253044128 0.10077524185180664 0.6279069185256958
0.20855014026165009 0.11627912521362305 0.28682172298431396
0.20179280638694763 0.11627912521362305 0.30232560634613037
0.1954910308122635 0.11627912521362305 0.3178294897079468
0.19811256229877472 0.11627911776304245 0.6279069185256958
0.20516422390937805 0.1317828893661499 0.30232560634613037
0.19993869960308075 0.1317828893661499 0.3178294897079468
0.1958606094121933 0.1317828893661499 0.3333333432674408
0.19412513077259064 0.1317828893661499 0.3488372564315796
0.19426403939723969 0.1317828893661499 0.364341139793396
0.20871859788894653 0.1317828893661499 0.612403154373169
0.2066008299589157 0.1472867727279663 0.3178294897079468
0.2030993103981018 0.1472867727279663 0.3333333730697632
0.2018827497959137 0.1472867727279663 0.3488372564315796
0.20195728540420532 0.1472867727279663 0.364341139793396
0.20191028714179993 0.1472867727279663 0.37984490394592285
0.1975197196006775 0.1472867727279663 0.39534878730773926
0.2015276700258255 0.1472867727279663 0.612403154373169
0.19612963497638702 0.16279065608978271 0.41085267066955566
0.2050226628780365 0.16279065608978271 0.5813953876495361
0.19681857526302338 0.16279065608978271 0.5968992710113525
0.20336204767227173 0.17829453945159912 0.5348837375640869
0.19644582271575928 0.17829453945159912 0.5503876209259033
0.19637560844421387 0.19379842281341553 0.4573643207550049
0.19594259560108185 0.19379842281341553 0.4728682041168213
0.20947778224945068 -0.05426359549164772 -0.968992292881012
0.21256937086582184 -0.038759708404541016 -0.9689922332763672
0.21043837070465088 -0.038759708404541016 -0.9534883499145508
0.21518699824810028 -0.02325582504272461 -0.9689922332763672
0.21212983131408691 -0.02325582504272461 -0.9534883499145508
0.21553951501846313 -0.007751941680908203 -0.9689922332763672
0.21266384422779083 -0.007751941680908203 -0.9534883499145508
0.21314792335033417 0.007751941680908203 -0.9689922332763672
0.2113260179758072 0.007751941680908203 -0.9534883499145508
0.210568368434906 0.007751941680908203 0.4418604373931885
0.21804210543632507 0.007751941680908203 0.4573643207550049
0.21893037855625153 0.007751941680908203 0.4728682041168213
0.2170756459236145 0.007751941680908203 0.4883720874786377
0.21475651860237122 0.007751941680908203 0.5038759708404541
0.20974913239479065 0.007751941680908203 0.5193798542022705
0.20984692871570587 0.02325582504272461 -0.9689921736717224
0.21471592783927917 0.02325582504272461 0.5503876209259033
0.22232745587825775 0.038759708404541016 0.5658915042877197
0.21076609194278717 0.038759708404541016 0.5813953876495361
0.21265582740306854 0.05426358804106712 0.5968992710113525
0.22364820539951324 0.06976747512817383 0.3178294897079468
0.21819348633289337 0.06976747512817383 0.3333333730697632
0.21546432375907898 0.06976747512817383 0.3488372564315796
0.21536561846733093 0.06976747512817383 0.364341139793396
0.2146759033203125 0.06976747512817383 0.37984490394592285
0.22048494219779968 0.06976747512817383 0.5968992710113525
0.2146735042333603 0.08527135848999023 0.30232560634613037
0.21238452196121216 0.08527135848999023 0.612403154373169
0.21273930370807648 0.10077524185180664 0.28682172298431396
0.21520563960075378 0.10077524185180664 0.612403154373169
0.22114773094654083 0.11627912521362305 0.27131783962249756
0.21415087580680847 0.11627912521362305 0.612403154373169
0.22300371527671814 0.1317828893661499 0.27131783962249756
0.2124406397342682 0.1317828893661499 0.28682172298431396
0.22170127928256989 0.1317828893661499 0.5968992710113525
0.22020669281482697 0.1472867727279663 0.28682172298431396
0.2117532640695572 0.1472867727279663 0.30232560634613037
0.22150802612304688 0.1472867727279663 0.5813953876495361
0.21215350925922394 0.1472867727279663 0.5968992710113525
0.22219711542129517 0.16279065608978271 0.30232560634613037
0.21676042675971985 0.16279065608978271 0.3178294897079468
0.21223454177379608 0.16279065608978271 0.3333333730697632
0.21054600179195404 0.16279065608978271 0.3488372564315796
0.21139971911907196 0.16279065608978271 0.364341139793396
0.213063046336174 0.16279065608978271 0.37984490394592285
0.21217572689056396 0.16279065608978271 0.39534878730773926
0.2205449938774109 0.16279065608978271 0.5503876209259033
0.21330729126930237 0.16279065608978271 0.5658915042877197
0.21955320239067078 0.17829453945159912 0.42635655403137207
0.22267821431159973 0.17829453945159912 0.4883720874786377
0.2169378101825714 0.17829453945159912 0.5038759708404541
0.2109900861978531 0.17829452455043793 0.5193798542022705
0.23387639224529266 0.02325582504272461 0.4418604373931885
0.24000583589076996 0.02325582504272461 0.4883720874786377
0.23556682467460632 0.02325582504272461 0.5038759708404541
0.2310713827610016 0.02325582504272461 0.5193798542022705
0.22531914710998535 0.02325582504272461 0.5348837375640869
0.23252224922180176 0.038759708404541016 0.42635655403137207
0.2390705794095993 0.038759708404541016 0.5348837375640869
0.23073437809944153 0.038759708404541016 0.5503876209259033
0.23851042985916138 0.05426359176635742 0.3488372564315796
0.23973964154720306 0.05426359176635742 0.364341139793396
0.22655054926872253 0.05426359176635742 0.41085267066955566
0.23370668292045593 0.05426359176635742 0.5658915042877197
0.22497864067554474 0.05426359176635742 0.5813953876495361
0.23628222942352295 0.06976747512817383 0.30232560634613037
0.23241755366325378 0.06976747512817383 0.5813953876495361
0.22594967484474182 0.08527135848999023 0.28682172298431396
0.23603662848472595 0.08527135848999023 0.5813953876495361
0.2250901460647583 0.08527135848999023 0.5968992710113525
0.22489182651042938 0.10077524185180664 0.27131783962249756
0.2373296171426773 0.10077524185180664 0.5813953876495361
0.2270287424325943 0.10077524185180664 0.5968992710113525
0.23501256108283997 0.11627912521362305 0.25581395626068115
0.2367202341556549 0.11627912521362305 0.5813953876495361
0.2254231721162796 0.11627912521362305 0.5968993306159973
0.23601026833057404 0.1317828893661499 0.25581395626068115
0.2398180365562439 0.1317828893661499 0.5658915042877197
0.23228499293327332 0.1317828893661499 0.5813953876495361
0.23008207976818085 0.1472867727279663 0.27131783962249756
0.2372131496667862 0.1472867727279663 0.5503876209259033
0.2303934544324875 0.1472867727279663 0.5658915042877197
0.23102371394634247 0.16279065608978271 0.28682172298431396
0.23955491185188293 0.16279065608978271 0.5038759708404541
0.23409278690814972 0.16279065608978271 0.5193798542022705
0.22780820727348328 0.16279065608978271 0.5348837375640869
0.2378729283809662 0.17829453945159912 0.3178294897079468
0.2310856133699417 0.17829453945159912 0.3333333730697632
0.22919929027557373 0.17829453945159912 0.3488372564315796
0.23701250553131104 0.17829453945159912 0.364341139793396
0.22761312127113342 0.17829453945159912 0.44186046719551086
0.22800251841545105 0.17829453945159912 0.4573643207550049
0.22611162066459656 0.17829453945159912 0.4728682041168213
0.24083122611045837 0.02325582504272461 0.4573643207550049
0.2415885627269745 0.02325582504272461 0.4728682041168213
0.2482539713382721 0.038759708404541016 0.4418604373931885
0.25467756390571594 0.038759708404541016 0.4573643207550049
0.25413233041763306 0.038759708404541016 0.4883720874786377
0.2498284876346588 0.038759708404541016 0.5038759708404541
0.24520094692707062 0.038759708404541016 0.5193798542022705
0.2415943443775177 0.05426359176635742 0.33333340287208557
0.24906615912914276 0.05426359176635742 0.42635655403137207
0.24886012077331543 0.05426359176635742 0.5348837375640869
0.24222269654273987 0.05426359176635742 0.5503876209259033
0.24925720691680908 0.06976747512817383 0.5503876209259033
0.241220161318779 0.06976747512817383 0.5658915042877197
0.244544118642807 0.08527135848999023 0.27131783962249756
0.2523973286151886 0.08527135848999023 0.5503876209259033
0.24523448944091797 0.08527135848999023 0.5658915042877197
0.24240875244140625 0.10077524185180664 0.25581395626068115
0.2535604238510132 0.10077524185180664 0.5503876209259033
0.24689339101314545 0.10077524185180664 0.5658915042877197
0.25065454840660095 0.11627912521362305 0.24031007289886475
0.2525876462459564 0.11627912521362305 0.5503876209259033
0.2450544387102127 0.11627912521362305 0.5658915042877197
0.2508065104484558 0.1317828893661499 0.24031007289886475
0.2535700798034668 0.1317828893661499 0.5348837375640869
0.24798958003520966 0.1317828893661499 0.5503876209259033
0.2427041083574295 0.1472867727279663 0.25581395626068115
0.2538755536079407 0.1472867727279663 0.5038759708404541
0.25010251998901367 0.1472867727279663 0.5193798542022705
0.2436952292919159 0.1472867727279663 0.5348837375640869
0.2444576770067215 0.16279065608978271 0.27131783962249756
0.25348711013793945 0.16279065608978271 0.42635655403137207
0.2511254549026489 0.16279065608978271 0.4418604373931885
0.24987122416496277 0.16279065608978271 0.4573643207550049
0.24741148948669434 0.16279065608978271 0.4728682041168213
0.243620827794075 0.16279065608978271 0.4883720874786377
0.24896006286144257 0.17829453945159912 0.3488372564315796
0.2413780391216278 0.17829453945159912 0.364341139793396
0.25594279170036316 0.038759708404541016 0.4728682339191437
0.27129659056663513 0.05426359176635742 0.3333333730697632
0.2694666385650635 0.05426359176635742 0.3488372564315796
0.2626875638961792 0.05426359176635742 0.364341139793396
0.25787338614463806 0.05426359176635742 0.4418604373931885
0.26315319538116455 0.05426359176635742 0.4573643207550049
0.26471036672592163 0.05426359176635742 0.4728682041168213
0.2636866271495819 0.05426359176635742 0.4883720874786377
0.26061660051345825 0.05426359176635742 0.5038759708404541
0.2558920085430145 0.05426359176635742 0.5193798542022705
0.26506632566452026 0.06976747512817383 0.28682172298431396
0.2678387463092804 0.06976747512817383 0.39534878730773926
0.2617887258529663 0.06976747512817383 0.41085267066955566
0.261762797832489 0.06976747512817383 0.42635655403137207
0.2656005322933197 0.06976747512817383 0.4418604373931885
0.27026981115341187 0.06976747512817383 0.4573643207550049
0.2671473026275635 0.06976747512817383 0.5038759708404541
0.2628265619277954 0.06976747512817383 0.5193798542022705
0.256479412317276 0.06976748257875443 0.5348837375640869
0.2664162814617157 0.08527135848999023 0.5193798542022705
0.2602241039276123 0.08527135848999023 0.5348837375640869
0.2712441086769104 0.10077524185180664 0.22480618953704834
0.26182228326797485 0.10077524185180664 0.24031008780002594
0.26729053258895874 0.10077524185180664 0.5193798542022705
0.26134705543518066 0.10077524185180664 0.5348837375640869
0.270943284034729 0.11627912521362305 0.20930230617523193
0.2642515003681183 0.11627912521362305 0.22480618953704834
0.26911836862564087 0.11627912521362305 0.5038759708404541
0.2658606171607971 0.11627912521362305 0.5193798542022705
0.25875526666641235 0.11627912521362305 0.5348837375640869
0.26519182324409485 0.1317828893661499 0.22480618953704834
0.27087709307670593 0.1317828893661499 0.4573643207550049
0.2692541182041168 0.1317828893661499 0.4728682041168213
0.26775452494621277 0.1317828893661499 0.4883720874786377
0.26478058099746704 0.1317828893661499 0.5038759708404541
0.25885069370269775 0.1317828893661499 0.5193798542022705
0.26101136207580566 0.1472867727279663 0.24031007289886475
0.270304799079895 0.1472867727279663 0.41085267066955566
0.26715242862701416 0.1472867727279663 0.42635655403137207
0.2653907537460327 0.1472867727279663 0.4418604373931885
0.2635013163089752 0.1472867727279663 0.4573643207550049
0.2606806755065918 0.1472867727279663 0.4728682041168213
0.2575700879096985 0.1472867727279663 0.4883720576763153
0.2649853527545929 0.16279065608978271 0.37984490394592285
0.2608737349510193 0.16279065608978271 0.39534878730773926
0.2569259703159332 0.16279065608978271 0.4108526408672333
0.25653186440467834 0.17829453945159912 0.3178294897079468
0.25687310099601746 0.17829453945159912 0.3333333730697632
0.2725764811038971 0.06976748257875443 0.28682172298431396
0.284128338098526 0.06976747512817383 0.3488372564315796
0.2792608439922333 0.06976747512817383 0.364341139793396
0.27384400367736816 0.06976747512817383 0.37984490394592285
0.2720041573047638 0.06976747512817383 0.4728682041168213
0.2714216113090515 0.06976747512817383 0.4883720874786377
0.2864488661289215 0.08527135848999023 0.11627912521362305
0.28370630741119385 0.08527135848999023 0.1317828893661499
0.28242653608322144 0.08527135848999023 0.1472867727279663
0.28269585967063904 0.08527135848999023 0.16279065608978271
0.2836734652519226 0.08527135848999023 0.17829453945159912
0.2844308614730835 0.08527135848999023 0.19379842281341553
0.2847798764705658 0.08527135848999023 0.20930230617523193
0.2846502363681793 0.08527135848999023 0.22480618953704834
0.2827448546886444 0.08527135848999023 0.24031007289886475
0.2722964882850647 0.08527135848999023 0.25581395626068115
0.28242915868759155 0.08527135848999023 0.37984490394592285
0.2775898575782776 0.08527135848999023 0.39534878730773926
0.27356135845184326 0.08527135848999023 0.4108526408672333
0.2720508277416229 0.08527135848999023 0.42635655403137207
0.2725798487663269 0.08527135848999023 0.4418604373931885
0.2744672894477844 0.08527135848999023 0.4573643207550049
0.2755206823348999 0.08527135848999023 0.4728682041168213
0.27439311146736145 0.08527135848999023 0.4883720874786377
0.27155768871307373 0.08527135103940964 0.5038759708404541
0.2845570147037506 0.10077524185180664 0.1317828893661499
0.28151267766952515 0.10077524185180664 0.1472867727279663
0.2800779938697815 0.10077524185180664 0.16279065608978271
0.27938202023506165 0.10077524185180664 0.17829453945159912
0.2784426808357239 0.10077524185180664 0.19379842281341553
0.27630913257598877 0.10077524185180664 0.20930230617523193
0.28229689598083496 0.10077524185180664 0.39534878730773926
0.2791132926940918 0.10077524185180664 0.41085267066955566
0.27659544348716736 0.10077524185180664 0.42635655403137207
0.27599602937698364 0.10077524930238724 0.4418604373931885
0.27681565284729004 0.10077524930238724 0.4573643207550049
0.27679890394210815 0.10077524185180664 0.4728682041168213
0.274931937456131 0.10077524185180664 0.4883720874786377
0.271842360496521 0.10077523440122604 0.5038759708404541
0.2853420078754425 0.11627912521362305 0.1472867727279663
0.2825150191783905 0.11627912521362305 0.16279065608978271
0.27996188402175903 0.11627912521362305 0.17829453945159912
0.2766686677932739 0.11627912521362305 0.19379842281341553
0.28311437368392944 0.11627912521362305 0.39534878730773926
0.28032198548316956 0.11627912521362305 0.41085267066955566
0.27775120735168457 0.11627912521362305 0.42635655403137207
0.27606257796287537 0.11627912521362305 0.4418604373931885
0.2754064202308655 0.11627912521362305 0.4573642909526825
0.27424776554107666 0.11627912521362305 0.4728682041168213
0.2724263668060303 0.11627912521362305 0.4883720874786377
0.28605958819389343 0.1317828893661499 0.17829453945159912
0.28188762068748474 0.1317828893661499 0.19379842281341553
0.2747299373149872 0.1317828893661499 0.20930230617523193
0.28504273295402527 0.1317828893661499 0.37984490394592285
0.2813529670238495 0.1317828893661499 0.39534878730773926
0.27776992321014404 0.1317828893661499 0.41085267066955566
0.27418068051338196 0.1317828893661499 0.4263565242290497
0.27213114500045776 0.1317828893661499 0.4418604373931885
0.2811520993709564 0.1472867727279663 0.22480618953704834
0.28361520171165466 0.1472867727279663 0.364341139793396
0.2795048952102661 0.1472867727279663 0.37984490394592285
0.2740402817726135 0.1472867727279663 0.39534878730773926
0.28269946575164795 0.16279065608978271 0.27131783962249756
0.2852969467639923 0.16279065608978271 0.3178294897079468
0.28077811002731323 0.16279065608978271 0.3333333730697632
0.27759799361228943 0.16279065608978271 0.3488372564315796
0.27248191833496094 0.16279064118862152 0.364341139793396
0.3009662926197052 0.007751941680908203 0.007751941680908203
0.29775291681289673 0.007751941680908203 0.02325582504272461
0.29806721210479736 0.007751941680908203 0.038759708404541016
0.3015281856060028 0.007751941680908203 0.05426359176635742
0.29652389883995056 0.02325582504272461 0.007751941680908203
0.29148465394973755 0.02325582318007946 0.02325582318007946
0.2907125949859619 0.02325582318007946 0.038759708404541016
0.29368776082992554 0.02325582504272461 0.05426359176635742
0.2987031936645508 0.02325582504272461 0.06976747512817383
0.30112552642822266 0.038759708404541016 0.007751941680908203
0.29390692710876465 0.038759708404541016 0.02325582504272461
0.29079297184944153 0.038759708404541016 0.038759708404541016
0.2921435832977295 0.038759708404541016 0.05426359176635742
0.29574501514434814 0.038759708404541016 0.06976747512817383
0.29973068833351135 0.038759708404541016 0.08527135848999023
0.30110204219818115 0.05426359176635742 0.038759708404541016
0.29822224378585815 0.05426359176635742 0.05426359176635742
0.29724419116973877 0.05426359176635742 0.06976747512817383
0.2975991368293762 0.05426359176635742 0.08527135848999023
0.29784128069877625 0.05426359176635742 0.10077524185180664
0.2977917194366455 0.05426359176635742 0.11627912521362305
0.29858455061912537 0.05426359176635742 0.1317828893661499
0.30054813623428345 0.05426359176635742 0.1472867727279663
0.29888758063316345 0.06976747512817383 0.08527135848999023
0.2944643795490265 0.06976747512817383 0.10077524185180664
0.2900529205799103 0.06976747512817383 0.11627912521362305
0.2873525321483612 0.06976747512817383 0.1317828893661499
0.2882853150367737 0.06976747512817383 0.1472867727279663
0.29171743988990784 0.06976747512817383 0.16279065608978271
0.2952713966369629 0.06976747512817383 0.17829453945159912
0.29819589853286743 0.06976747512817383 0.19379842281341553
0.3008652329444885 0.06976747512817383 0.20930230617523193
0.2883059084415436 0.06976747512817383 0.30232560634613037
0.289369136095047 0.06976747512817383 0.3178294897079468
0.2876940965652466 0.06976747512817383 0.3333333730697632
0.29546618461608887 0.08527135848999023 0.10077524185180664
0.3011249005794525 0.08527135848999023 0.3178294897079468
0.29634401202201843 0.08527135848999023 0.3333333730697632
0.29268723726272583 0.08527135848999023 0.3488372564315796
0.2880755662918091 0.08527135848999023 0.3643411695957184
0.3007936179637909 0.10077524185180664 0.10077524185180664
0.29170796275138855 0.10077524185180664 0.11627912521362305
0.3018293082714081 0.10077524185180664 0.3333333730697632
0.2964977025985718 0.10077524185180664 0.3488372564315796
0.2925114035606384 0.10077524185180664 0.364341139793396
0.2877689599990845 0.10077524185180664 0.37984490394592285
0.3008456230163574 0.11627912521362305 0.11627912521362305
0.29225125908851624 0.11627912521362305 0.1317828893661499
0.29722756147384644 0.11627912521362305 0.3488372564315796
0.29332542419433594 0.11627912521362305 0.364341139793396
0.28809690475463867 0.11627912521362305 0.37984490394592285
0.300719290971756 0.1317828893661499 0.1472867727279663
0.2934160828590393 0.1317828893661499 0.16279065608978271
0.299161821603775 0.1317828893661499 0.3333333730697632
0.29585957527160645 0.1317828893661499 0.3488372564315796
0.29015085101127625 0.1317828893661499 0.364341139793396
0.30089840292930603 0.1472867727279663 0.30232560634613037
0.2977787256240845 0.1472867727279663 0.3178294897079468
0.294331431388855 0.1472867727279663 0.3333333730697632
0.28925833106040955 0.1472867727279663 0.3488372564315796
0.28709080815315247 0.16279065608978271 0.28682172298431396
0.2874259650707245 0.1627906709909439 0.30232560634613037
0.31478920578956604 -0.007751941680908203 0.007751941680908203
0.3134508728981018 -0.007751941680908203 0.02325582504272461
0.31255680322647095 0.007751941680908203 -0.007751941680908203
0.3144892454147339 0.007751941680908203 0.06976747512817383
0.30847740173339844 0.02325582504272461 -0.00775194214656949
0.30655205249786377 0.02325582504272461 0.08527135848999023
0.3177588880062103 0.02325582504272461 0.10077524185180664
0.30359065532684326 0.038759708404541016 0.10077524930238724
0.31030645966529846 0.038759708404541016 0.11627912521362305
0.3170313537120819 0.038759708404541016 0.1317828893661499
0.3122197985649109 0.05426359176635742 0.02325582504272461
0.3074907660484314 0.05426359176635742 0.16279065608978271
0.3170652687549591 0.06976747512817383 0.05426359176635742
0.3056986927986145 0.06976747512817383 0.06976747512817383
0.3050176799297333 0.08527135848999023 0.08527135848999023
0.31169775128364563 0.08527135848999023 0.27131783962249756
0.30803337693214417 0.08527135848999023 0.28682172298431396
0.30436357855796814 0.08527135848999023 0.30232560634613037
0.3128397762775421 0.10077524185180664 0.28682172298431396
0.310064435005188 0.10077524185180664 0.30232560634613037
0.30587607622146606 0.10077524185180664 0.3178294897079468
0.3173792362213135 0.11627912521362305 0.27131783962249756
0.3134360611438751 0.11627912521362305 0.28682172298431396
0.31096750497817993 0.11627912521362305 0.30232560634613037
0.30669480562210083 0.11627912521362305 0.3178294897079468
0.3024064898490906 0.11627912521362305 0.3333333730697632
0.31199124455451965 0.1317828893661499 0.1472867727279663
0.3169156014919281 0.1317828893661499 0.25581395626068115
0.3137581944465637 0.1317828893661499 0.27131783962249756
0.3115871250629425 0.1317828893661499 0.28682172298431396
0.30795222520828247 0.1317828893661499 0.30232560634613037
0.3037070631980896 0.1317828893661499 0.31782951951026917
0.3039751350879669 0.1472867727279663 0.22480618953704834
0.30675891041755676 0.1472867727279663 0.24031007289886475
0.30729207396507263 0.1472867727279663 0.25581395626068115
0.30591222643852234 0.1472867727279663 0.27131783962249756
0.30356279015541077 0.1472867727279663 0.28682172298431396
0.32626959681510925 -0.007751941680908203 -0.007751941680908203
0.31929829716682434 -0.007751941680908203 0.038759708404541016
0.3301834166049957 0.038759708404541016 0.1317828893661499
0.32297855615615845 0.06976747512817383 0.20930230617523193
0.3276011049747467 0.08527135848999023 0.22480618953704834
0.32279402017593384 0.08527135848999023 0.24031008780002594
0.3180220425128937 0.08527135848999023 0.25581395626068115
0.3305070102214813 0.10077524185180664 0.22480618953704834
0.3263556957244873 0.10077524185180664 0.24031007289886475
0.3219050467014313 0.10077524185180664 0.25581395626068115
0.3178351819515228 0.10077524185180664 0.27131780982017517
0.33305689692497253 0.11627912521362305 0.20930230617523193
0.3285689949989319 0.11627912521362305 0.22480618953704834
0.32559114694595337 0.11627912521362305 0.24031007289886475
0.3211294710636139 0.11627911776304245 0.25581395626068115
0.3206592798233032 0.1317828893661499 0.16279065608978271
0.32284656167030334 0.1317828893661499 0.17829453945159912
0.32394760847091675 0.1317828893661499 0.19379842281341553
0.3239419460296631 0.1317828893661499 0.20930230617523193
0.32243049144744873 0.1317828893661499 0.22480618953704834
0.3198454678058624 0.1317828893661499 0.24031007289886475
0.3486872911453247 -0.05426359176635742 -0.06976741552352905
0.34522902965545654 -0.038759708404541016 -0.06976741552352905
0.34346169233322144 -0.038759708404541016 -0.05426359176635742
0.3452451825141907 -0.038759708404541016 -0.038759708404541016
0.34619730710983276 -0.02325582504272461 -0.05426359176635742
0.34650519490242004 -0.02325582504272461 -0.038759708404541016
0.3479500710964203 -0.02325582504272461 -0.02325582504272461
0.34794265031814575 -0.02325582504272461 -0.007751941680908203
0.34548288583755493 0.007751941680908203 0.06976747512817383
0.33491432666778564 0.02325582504272461 0.10077524185180664
0.34637725353240967 0.038759708404541016 0.11627912521362305
0.3426973223686218 0.05426359176635742 0.1472867727279663
0.3337644934654236 0.05426359176635742 0.16279065608978271
0.34775838255882263 0.06976747512817383 0.16279065608978271
0.3399328887462616 0.06976747512817383 0.17829453945159912
0.3334919214248657 0.06976748257875443 0.19379843771457672
0.3455709218978882 0.08527135848999023 0.17829453945159912
0.34074124693870544 0.08527135848999023 0.19379842281341553
0.3347051739692688 0.08527135848999023 0.20930230617523193
0.34510108828544617 0.10077524185180664 0.17829453945159912
0.34154200553894043 0.10077524185180664 0.19379842281341553
0.3361620604991913 0.10077524930238724 0.20930232107639313
0.3351718485355377 0.11627912521362305 0.11627912521362305
0.3400760293006897 0.11627912521362305 0.1317828893661499
0.34185636043548584 0.11627912521362305 0.1472867727279663
0.34162837266921997 0.11627912521362305 0.16279065608978271
0.3399302065372467 0.11627912521362305 0.17829453945159912
0.33665552735328674 0.11627912521362305 0.19379842281341553
0.3586723208427429 -0.05426359176635742 -0.08527129888534546
0.35597464442253113 -0.038759708404541016 -0.08527129888534546
0.3527225852012634 -0.038759708404541016 -0.02325582504272461
0.3517739176750183 -0.02325582504272461 -0.06976741552352905
0.36092615127563477 -0.007751941680908203 -0.02325582504272461
0.3489649295806885 -0.007751941680908203 0.038759708404541016
0.3521568179130554 0.02325582504272461 -0.007751941680908203
0.35819751024246216 0.02325582504272461 0.08527135848999023
0.35749438405036926 0.038759708404541016 0.10077524185180664
0.35936033725738525 0.05426359176635742 0.11627912521362305
0.3515367805957794 0.05426359176635742 0.1317828893661499
0.35157033801078796 0.06976747512817383 0.05426359549164772
0.3607739508152008 0.06976747512817383 0.1317828893661499
0.35457849502563477 0.06976747512817383 0.1472867727279663
0.3550146222114563 0.08527135848999023 0.08527135848999023
0.3630300760269165 0.08527135848999023 0.10077524185180664
0.36380282044410706 0.08527135848999023 0.11627912521362305
0.3614421486854553 0.08527135848999023 0.1317828893661499
0.35775792598724365 0.08527135848999023 0.1472867727279663
0.3518162965774536 0.08527135848999023 0.16279065608978271
0.34886714816093445 0.10077524930238724 0.10077524930238724
0.3532004952430725 0.10077524185180664 0.11627913266420364
0.354724645614624 0.10077524185180664 0.1317828893661499
0.35315945744514465 0.10077524185180664 0.1472867727279663
0.34948796033859253 0.10077523440122604 0.16279065608978271
0.3787401020526886 -0.05426359176635742 -0.10077518224716187
0.3767445981502533 -0.038759708404541016 -0.10077518224716187
0.37082719802856445 -0.038759708404541016 -0.02325582504272461
0.37166017293930054 -0.02325582504272461 -0.08527129888534546
0.37321653962135315 -0.007751941680908203 -0.05426359176635742
0.3681921362876892 -0.007751941680908203 -0.038759708404541016
0.3689950704574585 -0.007751941680908203 0.02325582504272461
0.3673262596130371 0.007751941680908203 0.05426359176635742
0.3755345344543457 0.02325582504272461 0.06976747512817383
0.3743310570716858 0.038759708404541016 0.08527135848999023
0.3699406385421753 0.05426359176635742 0.02325582504272461
0.3783557713031769 0.05426359176635742 0.08527135848999023
0.36722174286842346 0.05426359176635742 0.10077524185180664
0.36660170555114746 0.06976747512817383 0.06976747512817383
0.36869749426841736 0.06976747512817383 0.08527135848999023
0.36820459365844727 0.06976747512817383 0.10077524185180664
0.3659873306751251 0.06976747512817383 0.11627912521362305
0.39512747526168823 -0.05426359176635742 -0.11627906560897827
0.3939131796360016 -0.05426359176635742 -0.08527129888534546
0.38030216097831726 -0.05426359176635742 -0.06976741552352905
0.39177072048187256 -0.038759708404541016 -0.11627906560897827
0.38916653394699097 -0.038759708404541016 -0.038759708404541016
0.3882204294204712 -0.02325582504272461 -0.10077518224716187
0.3951245844364166 -0.02325582504272461 -0.02325582504272461
0.3803583085536957 -0.02325582504272461 -0.007751941215246916
0.39155447483062744 -0.007751941680908203 -0.08527129888534546
0.38175898790359497 -0.00775194214656949 -0.06976741552352905
0.3835163712501526 -0.007751941680908203 0.007751941680908203
0.3922522962093353 0.007751941680908203 -0.038759708404541016
0.3868309259414673 0.007751941680908203 -0.02325582504272461
0.3893570303916931 0.007751941680908203 0.02325582504272461
0.3806781470775604 0.007751941215246916 0.03875970467925072
0.38254642486572266 0.02325582504272461 -0.007751941680908203
0.3866981267929077 0.02325582504272461 0.05426359176635742
0.39510324597358704 0.038759708404541016 0.05426359176635742
0.38677650690078735 0.038759708404541016 0.06976747512817383
0.38905781507492065 0.05426359176635742 0.038759708404541016
0.3888853192329407 0.05426359176635742 0.05426359176635742
0.3854592442512512 0.05426359176635742 0.06976747512817383
0.4100288450717926 -0.05426359176635742 -0.1627907156944275
0.40744107961654663 -0.05426359176635742 -0.14728683233261108
0.4039137363433838 -0.05426359176635742 -0.13178294897079468
0.4032553732395172 -0.05426359176635742 -0.10077518224716187
0.40921351313591003 -0.038759708404541016 -0.1627907156944275
0.4064416289329529 -0.038759708404541016 -0.14728683233261108
0.40024012327194214 -0.038759708404541016 -0.13178294897079468
0.40208736062049866 -0.038759708404541016 -0.05426359176635742
0.40901854634284973 -0.02325582504272461 -0.14728683233261108
0.40604454278945923 -0.02325582504272461 -0.13178294897079468
0.39693599939346313 -0.02325582504272461 -0.11627906560897827
0.4043639004230499 -0.02325582504272461 -0.038759708404541016
0.40759479999542236 -0.007751941680908203 -0.11627906560897827
0.4013770818710327 -0.007751941680908203 -0.10077518224716187
0.403622031211853 -0.007751941680908203 -0.02325582504272461
0.3954543471336365 -0.007751941680908203 -0.007751941680908203
0.4081321358680725 0.007751941680908203 -0.08527129888534546
0.40363723039627075 0.007751941680908203 -0.06976741552352905
0.3961544334888458 0.007751941680908203 -0.05426359176635742
0.40382063388824463 0.007751941680908203 -0.007751941680908203
0.3986586928367615 0.00775194214656949 0.00775194214656949
0.410301148891449 0.02325582504272461 -0.038759708404541016
0.40564966201782227 0.02325582504272461 -0.02325582504272461
0.4056406617164612 0.02325582504272461 0.007751941680908203
0.4013543725013733 0.02325582504272461 0.02325582504272461
0.3955981433391571 0.02325582690536976 0.038759708404541016
0.4023967385292053 0.038759708404541016 0.007751941680908203
0.40222734212875366 0.038759708404541016 0.02325582504272461
0.39978882670402527 0.038759708404541016 0.038759708404541016
0.42574581503868103 -0.05426359176635742 -0.20930230617523193
0.4239720106124878 -0.05426359176635742 -0.19379842281341553
0.41864848136901855 -0.05426359176635742 -0.1782945990562439
0.4210014343261719 -0.05426359176635742 -0.11627906560897827
0.4248088002204895 -0.038759708404541016 -0.20930230617523193
0.4235081970691681 -0.038759708404541016 -0.19379842281341553
0.4175073504447937 -0.038759708404541016 -0.1782945990562439
0.42495667934417725 -0.038759708404541016 -0.08527129888534546
0.4142215847969055 -0.038759708404541016 -0.06976741552352905
0.42559748888015747 -0.02325582504272461 -0.19379842281341553
0.4235789179801941 -0.02325582504272461 -0.1782945990562439
0.41656526923179626 -0.02325582504272461 -0.1627907156944275
0.42601290345191956 -0.02325582504272461 -0.06976741552352905
0.4161134362220764 -0.02325582504272461 -0.05426359176635742
0.4256237745285034 -0.007751941680908203 -0.1627907156944275
0.4210180342197418 -0.007751941680908203 -0.14728683233261108
0.4117375612258911 -0.00775194214656949 -0.13178294897079468
0.4221475422382355 -0.007751941680908203 -0.05426359176635742
0.4147576093673706 -0.007751941680908203 -0.038759708404541016
0.42517924308776855 0.007751941680908203 -0.13178294897079468
0.4199081063270569 0.007751941680908203 -0.11627906560897827
0.41284316778182983 0.007751941680908203 -0.10077518224716187
0.41871631145477295 0.007751941680908203 -0.038759708404541016
0.41308754682540894 0.007751941680908203 -0.02325582504272461
0.41248536109924316 0.02325582504272461 -0.038759708404541016
0.4133389890193939 0.02325582690536976 -0.02325582690536976
0.4114086627960205 0.02325582690536976 -0.007751941680908203
0.4326475262641907 -0.038759708404541016 -0.22480618953704834
0.43377748131752014 -0.038759708404541016 -0.10077518224716187
0.43581193685531616 -0.02325582504272461 -0.20930230617523193
0.4338293671607971 -0.02325582504272461 -0.08527129888534546
0.43829184770584106 -0.007751941680908203 -0.1782945990562439
0.4383770525455475 -0.007751941680908203 -0.08527129888534546
0.43180155754089355 -0.007751941680908203 -0.06976741552352905
0.437028169631958 0.007751941680908203 -0.14728683233261108
0.44036558270454407 0.007751941680908203 -0.08527129888534546
0.4335012435913086 0.007751941680908203 -0.06976741552352905
0.4277211129665375 0.007751941215246916 -0.05426359176635742
0.4489986300468445 -0.05426359176635742 -0.20930230617523193
0.4428609311580658 -0.05426359176635742 -0.13178294897079468
0.44850385189056396 -0.038759708404541016 -0.22480618953704834
0.44660770893096924 -0.038759708404541016 -0.11627906560897827
0.4566922187805176 -0.02325582504272461 -0.20930230617523193
0.45213210582733154 -0.02325582504272461 -0.11627906560897827
0.44457364082336426 -0.02325582504272461 -0.10077518224716187
0.4564197063446045 -0.007751941680908203 -0.11627906560897827
0.4477492570877075 -0.007751941680908203 -0.10077518224716187
0.45464298129081726 0.007751941680908203 -0.1627907156944275
0.45432591438293457 0.007751941680908203 -0.11627906560897827
0.4480511546134949 0.007751941215246916 -0.10077518224716187
0.46209365129470825 -0.05426359176635742 -0.19379842281341553
0.46686482429504395 -0.05426359176635742 -0.1627907156944275
0.4574317932128906 -0.05426359549164772 -0.14728683233261108
0.46560201048851013 -0.038759708404541016 -0.20930230617523193
0.4673885107040405 -0.038759708404541016 -0.14728683233261108
0.4586860239505768 -0.038759708404541016 -0.13178294897079468
0.46321552991867065 -0.02325582504272461 -0.13178294897079468
0.46061551570892334 -0.007751941680908203 -0.19379842281341553
0.46475183963775635 -0.007751941680908203 -0.13178294897079468
0.46639955043792725 0.007751941680908203 -0.14728683233261108
0.46263378858566284 0.007751941680908203 -0.13178294897079468
0.47582560777664185 -0.05426359176635742 -0.1782945990562439
0.47804445028305054 -0.038759708404541016 -0.20930230617523193
0.48649081587791443 -0.038759708404541016 -0.1782945990562439
0.47860288619995117 -0.038759708404541016 -0.1627907156944275
0.4737391471862793 -0.02325582504272461 -0.20930232107639313
0.48057782649993896 -0.02325582504272461 -0.1627907156944275
0.4733782708644867 -0.02325582504272461 -0.14728683233261108
0.4820176362991333 -0.007751941680908203 -0.20930230617523193
0.481469988822937 -0.007751941680908203 -0.1627907156944275
0.47439849376678467 -0.007751941680908203 -0.14728683233261108
0.4731956124305725 0.007751941680908203 -0.16279073059558868
0.5029863119125366 -0.038759708404541016 -0.25581395626068115
0.5005272626876831 -0.038759708404541016 -0.24031007289886475
0.49282440543174744 -0.038759708404541016 -0.22480618953704834
0.49973273277282715 -0.038759708404541016 -0.20930230617523193
0.49399077892303467 -0.038759708404541016 -0.19379842281341553
0.5006412267684937 -0.02325582504272461 -0.24031007289886475
0.48994651436805725 -0.02325582504272461 -0.22480618953704834
0.4963989853858948 -0.02325582504272461 -0.19379842281341553
0.49050089716911316 -0.02325582504272461 -0.1782945990562439
0.5035965442657471 -0.007751941680908203 -0.22480618953704834
0.49936437606811523 -0.007751941680908203 -0.20930230617523193
0.4956977963447571 -0.00775194214656949 -0.19379842281341553
0.49053558707237244 -0.00775194214656949 -0.1782946139574051
0.5180802345275879 -0.038759708404541016 -0.30232560634613037
0.5165515542030334 -0.038759708404541016 -0.28682172298431396
0.5137459635734558 -0.038759708404541016 -0.27131783962249756
0.5142567157745361 -0.038759708404541016 -0.24031007289886475
0.5087099671363831 -0.038759708404541016 -0.22480618953704834
0.5174226760864258 -0.02325582504272461 -0.28682172298431396
0.5155938267707825 -0.02325582504272461 -0.27131783962249756
0.5061470866203308 -0.02325582504272461 -0.25581395626068115
0.5171900391578674 -0.02325582504272461 -0.24031007289886475
0.5110946893692017 -0.02325582504272461 -0.22480618953704834
0.5051805973052979 -0.02325582504272461 -0.20930230617523193
0.5193048119544983 -0.007751941680908203 -0.25581395626068115
0.504094123840332 -0.007751941215246916 -0.22480617463588715
0.5241826176643372 -0.038759708404541016 -0.30232560634613037
0.5272114276885986 -0.038759708404541016 -0.28682172298431396
0.5245477557182312 -0.038759708404541016 -0.27131783962249756
0.5208121538162231 -0.03875970467925072 -0.25581395626068115
0.5289376974105835 -0.02325582504272461 -0.28682172298431396
0.5264689326286316 -0.02325582504272461 -0.27131783962249756
0.5224471688270569 -0.02325582504272461 -0.25581395626068115
0.5194991827011108 -0.007751941680908203 -0.25581395626068115
-0.5193798542022705 -0.04009086638689041 -0.9689922332763672
-0.5193798542022705 0.004435732029378414 -0.9844961166381836
-0.5193798542022705 0.005832306109368801 -0.9534883499145508
-0.5193798542022705 0.016852818429470062 -0.9844961166381836
-0.5193798542022705 0.01614689640700817 -0.9534883499145508
-0.5193798542022705 0.05487176403403282 -0.9689922332763672
-0.5038759708404541 -0.1785610020160675 -0.9689922332763672
-0.5038759708404541 -0.17809119820594788 -0.9689922332763672
-0.5038759708404541 -0.10747653990983963 0.39534878730773926
-0.5038759708404541 -0.11111343652009964 0.41085267066955566
-0.5038759708404541 -0.11088225245475769 0.42635655403137207
-0.5038759708404541 -0.1052229180932045 0.4418604373931885
-0.5038759708404541 -0.09406094998121262 0.37984490394592285
-0.5038759708404541 -0.08779530227184296 0.4573643207550049
-0.5038759708404541 -0.07059872150421143 -0.9689922332763672
-0.5038759708404541 -0.07104051858186722 0.37984490394592285
-0.5038759708404541 -0.044599588960409164 -0.9844961166381836
-0.5038759708404541 -0.04060773923993111 -0.9534883499145508
-0.5038759708404541 -0.04813050851225853 0.39534878730773926
-0.5038759708404541 -0.039400093257427216 0.4573643207550049
-0.5038759708404541 -0.03724893555045128 0.41085267066955566
-0.5038759708404541 -0.03425851836800575 0.4263565242290497
-0.5038759708404541 -0.034548692405223846 0.4418604373931885
-0.5038759708404541 -0.011498989537358284 -0.9379844665527344
-0.5038759708404541 0.02050187438726425 -0.9224806427955627
-0.5038759708404541 0.08394570648670197 -0.9844961166381836
-0.5038759708404541 0.0772431269288063 -0.9224806427955627
-0.5038759708404541 0.10070193558931351 -0.9689922332763672
-0.5038759708404541 0.09440495073795319 -0.9534883499145508
-0.5038759708404541 0.08970847725868225 -0.9379844665527344
-0.4883720874786377 -0.2271241843700409 -0.9379844665527344
-0.4883720874786377 -0.2289734035730362 -0.9224806427955627
-0.4883720874786377 -0.22923102974891663 -0.9069768190383911
-0.4883720874786377 -0.22751472890377045 -0.8914728760719299
-0.4883720874786377 -0.22019337117671967 -0.9534883499145508
-0.4883720874786377 -0.21778319776058197 -0.8914728760719299
-0.4883720874786377 -0.195578470826149 -0.9689922332763672
-0.4883720874786377 -0.20201081037521362 -0.9224807024002075
-0.4883721172809601 -0.20850318670272827 -0.9069767594337463
-0.4883720874786377 -0.18748074769973755 -0.9379844665527344
-0.4883720874786377 -0.17032748460769653 -0.9534883499145508
-0.4883720874786377 -0.15506631135940552 -0.9689922332763672
-0.4883720874786377 -0.1337461620569229 0.39534878730773926
-0.4883720874786377 -0.13457274436950684 0.41085267066955566
-0.4883720874786377 -0.11932481825351715 0.364341139793396
-0.4883720874786377 -0.1279040426015854 0.37984490394592285
-0.4883720874786377 -0.13065043091773987 0.42635655403137207
-0.4883720874786377 -0.12350468337535858 0.4418604373931885
-0.4883720874786377 -0.10925953090190887 0.4573643207550049
-0.4883720874786377 -0.08675450086593628 0.4728682041168213
-0.4883720874786377 -0.08442381024360657 -0.9689922332763672
-0.4883720874786377 -0.07669737935066223 0.364341139793396
-0.4883720874786377 -0.05441842973232269 -0.9844961166381836
-0.4883720874786377 -0.056023743003606796 -0.9534883499145508
-0.4883720874786377 -0.055660463869571686 0.4883720874786377
-0.4883720874786377 -0.04947134107351303 0.37984490394592285
-0.4883720874786377 -0.028223112225532532 -0.9379844665527344
-0.4883720576763153 -0.023218495771288872 0.39534878730773926
-0.4883720874786377 -0.013260768726468086 0.41085267066955566
-0.4883720874786377 -0.008790982887148857 0.42635655403137207
-0.4883720874786377 -0.00904347188770771 0.4573643207550049
-0.4883720874786377 -0.012205783277750015 0.4728682041168213
-0.4883721172809601 -0.019937481731176376 0.4883721172809601
-0.4883720874786377 -0.0033606430515646935 -0.9224806427955627
-0.4883720874786377 -0.0075760697945952415 0.44186046719551086
-0.4883720874786377 0.0099861528724432 -0.9069768190383911
