-0.4811845123767853 -0.038759708404541016 -0.4883720874786377
-0.47984129190444946 -0.038759708404541016 -0.4728682041168213
-0.4777790904045105 -0.038759708404541016 -0.4573643207550049
-0.47539272904396057 -0.038759708404541016 -0.4418604373931885
-0.4729584753513336 -0.038759708404541016 -0.42635661363601685
-0.48611849546432495 -0.02325582504272461 -0.9534884095191956
-0.47675395011901855 -0.02325582504272461 -0.5813953876495361
-0.48523762822151184 -0.02325582690536976 -0.4418604373931885
-0.48253071308135986 -0.02325582504272461 -0.42635661363601685
-0.4796092212200165 -0.02325582504272461 -0.41085273027420044
-0.47548288106918335 -0.02325582504272461 -0.39534884691238403
-0.4824413061141968 -0.007751941680908203 -0.9379844665527344
-0.4855479598045349 -0.007751941680908203 -0.6279069781303406
-0.4881146252155304 -0.007751941680908203 -0.4418604373931885
-0.4841539263725281 -0.007751941680908203 -0.42635661363601685
-0.48124271631240845 -0.00775194214656949 -0.41085273027420044
-0.47673553228378296 -0.007751941680908203 -0.39534884691238403
-0.4731323719024658 0.007751941680908203 -0.6589146852493286
-0.48805516958236694 0.007751941215246916 -0.4728682041168213
-0.48439058661460876 0.007751941680908203 -0.4573643207550049
-0.4815465807914734 0.007751941680908203 -0.4418604373931885
-0.47742658853530884 0.007751941680908203 -0.42635661363601685
-0.4730025827884674 0.007751941680908203 -0.41085273027420044
-0.4872705340385437 0.02325582504272461 -0.9689921736717224
-0.4876624643802643 0.02325582504272461 -0.5038759708404541
-0.47980833053588867 0.02325582504272461 -0.4883720874786377
-0.47537317872047424 0.02325582504272461 -0.4728682041168213
-0.4816596508026123 0.038759708404541016 -0.9689922332763672
-0.4789690375328064 0.038759708404541016 -0.7054263353347778
-0.4875853955745697 0.038759708404541016 -0.5348837375640869
-0.4829785227775574 0.038759708404541016 -0.5193798542022705
-0.4772488474845886 0.038759708404541016 -0.5038759708404541
-0.4736371636390686 0.05426359176635742 -0.9689922332763672
-0.48808544874191284 0.05426359176635742 -0.9224806427955627
-0.4758726954460144 0.05426359176635742 -0.751937985420227
-0.4793369770050049 0.05426359176635742 -0.7364341020584106
-0.4831981658935547 0.05426359176635742 -0.7209302186965942
-0.4879089891910553 0.05426358804106712 -0.7054263353347778
-0.48694100975990295 0.05426359176635742 -0.5658915042877197
-0.48286986351013184 0.05426359176635742 -0.5503876209259033
-0.4791257083415985 0.05426359176635742 -0.5348837375640869
-0.4744250476360321 0.05426359176635742 -0.5193798542022705
-0.4818412661552429 0.06976747512817383 -0.7829457521438599
-0.4875805974006653 0.06976747512817383 -0.7674418687820435
-0.4852897524833679 0.06976747512817383 -0.5813953876495361
-0.48108971118927 0.06976747512817383 -0.5658915042877197
-0.4756630063056946 0.06976747512817383 -0.5503876209259033
-0.4779675304889679 0.08527135848999023 -0.9069766998291016
-0.47887474298477173 0.08527135848999023 -0.8139535188674927
-0.4846411943435669 0.08527135848999023 -0.5968992114067078
-0.47982239723205566 0.08527135848999023 -0.5813953876495361
-0.48135071992874146 0.10077524185180664 -0.8914728760719299
-0.4748050272464752 0.10077524185180664 -0.8449612259864807
-0.48347151279449463 0.10077524185180664 -0.6124030947685242
-0.4777112305164337 0.10077524185180664 -0.5968992114067078
-0.48224368691444397 0.11627912521362305 -0.6279069781303406
-0.4743115305900574 0.11627912521362305 -0.6124030947685242
-0.4863484501838684 0.1317828893661499 -0.6589146852493286
-0.48096439242362976 0.1317828893661499 -0.643410861492157
-0.4838140308856964 0.1472867727279663 -0.674418568611145
-0.4780440926551819 0.1472867727279663 -0.6589146852493286
-0.4869891107082367 0.16279064118862152 -0.7209302186965942
-0.4839221239089966 0.16279065608978271 -0.7054263353347778
-0.4797254502773285 0.16279065608978271 -0.6899224519729614
-0.48758530616760254 0.17829453945159912 -0.8604650497436523
-0.4856712520122528 0.17829453945159912 -0.8449612259864807
-0.48499637842178345 0.17829453945159912 -0.8294573426246643
-0.48495984077453613 0.17829453945159912 -0.8139535188674927
-0.4849573075771332 0.17829453945159912 -0.7984496355056763
-0.4848977029323578 0.17829453945159912 -0.7829457521438599
-0.4843822717666626 0.17829453945159912 -0.7674418687820435
-0.48279526829719543 0.17829453945159912 -0.751937985420227
-0.4802025258541107 0.17829453945159912 -0.7364341020584106
-0.47579479217529297 0.17829453945159912 -0.7209302186965942
-0.4787105321884155 0.19379842281341553 -0.9534883499145508
-0.4883490800857544 0.19379842281341553 -0.9379844665527344
-0.48703309893608093 0.19379842281341553 -0.9224806427955627
-0.4845249354839325 0.19379840791225433 -0.9069766998291016
-0.4823039174079895 0.19379842281341553 -0.8914728760719299
-0.47881221771240234 0.19379842281341553 -0.8759690523147583
-0.4753988981246948 0.19379842281341553 -0.8604651689529419
-0.47349849343299866 0.19379842281341553 -0.8449612259864807
-0.46249154210090637 -0.05426359176635742 -0.5348837375640869
-0.4657420516014099 -0.05426359176635742 -0.5193798542022705
-0.46613994240760803 -0.05426359176635742 -0.5038759708404541
-0.46511557698249817 -0.05426359176635742 -0.4883720874786377
-0.46366214752197266 -0.05426359176635742 -0.4728682041168213
-0.46195918321609497 -0.05426359176635742 -0.4573643207550049
-0.459835022687912 -0.05426359176635742 -0.4418604373931885
-0.4573840796947479 -0.05426359176635742 -0.42635661363601685
-0.4660802483558655 -0.038759708404541016 -0.5658915042877197
-0.4692614674568176 -0.038759708404541016 -0.41085273027420044
-0.46645092964172363 -0.038759708404541016 -0.39534884691238403
-0.46351397037506104 -0.038759708404541016 -0.3798449635505676
-0.4596565365791321 -0.038759708404541016 -0.3643410801887512
-0.4594002068042755 -0.02325582504272461 -0.5968992114067078
-0.47184622287750244 -0.02325582504272461 -0.37984499335289
-0.46851152181625366 -0.02325582504272461 -0.3643410801887512
-0.46619343757629395 -0.02325582504272461 -0.3488371968269348
-0.4624279737472534 -0.02325582504272461 -0.3333333134651184
-0.4581313729286194 -0.02325582504272461 -0.317829430103302
-0.46964478492736816 -0.007751941680908203 -0.9689922332763672
-0.46827858686447144 -0.007751941680908203 -0.9534883499145508
-0.47284793853759766 -0.007751941680908203 -0.3798449635505676
-0.4689849019050598 -0.007751941680908203 -0.3643410801887512
-0.4662647247314453 -0.007751941680908203 -0.3488371968269348
-0.46249455213546753 -0.007751941680908203 -0.3333333134651184
-0.45866116881370544 -0.007751941680908203 -0.317829430103302
-0.4615759253501892 0.007751941680908203 -0.9689922332763672
-0.45871883630752563 0.007751941680908203 -0.9534883499145508
-0.4663863778114319 0.007751941680908203 -0.9379844665527344
-0.46766018867492676 0.007751941680908203 -0.39534884691238403
-0.46294668316841125 0.007751941680908203 -0.3798449635505676
-0.45876047015190125 0.007751941680908203 -0.3643410801887512
-0.4653857350349426 0.02325582504272461 -0.6899224519729614
-0.4723237454891205 0.02325582504272461 -0.4573643207550049
-0.4646792411804199 0.02325582504272461 -0.4418604373931885
-0.45850807428359985 0.02325582504272461 -0.42635661363601685
-0.4577544331550598 0.038759708404541016 -0.7364341020584106
-0.467663049697876 0.038759708404541016 -0.7209302186965942
-0.47148793935775757 0.038759708404541016 -0.4883720874786377
-0.46049049496650696 0.038759708404541016 -0.4728682041168213
-0.46388381719589233 0.05426359176635742 -0.9224807024002075
-0.4575507640838623 0.05426359176635742 -0.7829457521438599
-0.4698682725429535 0.05426359176635742 -0.7674418091773987
-0.4671977162361145 0.05426359176635742 -0.5038759708404541
-0.45741841197013855 0.05426359176635742 -0.4883720874786377
-0.4670858383178711 0.06976747512817383 -0.9689922332763672
-0.47144684195518494 0.06976747512817383 -0.7984495759010315
-0.46881335973739624 0.06976747512817383 -0.5348837375640869
-0.46232736110687256 0.06976747512817383 -0.5193798542022705
-0.4600793421268463 0.08527135848999023 -0.9689922332763672
-0.46146026253700256 0.08527135848999023 -0.8294574022293091
-0.47149184346199036 0.08527135848999023 -0.5658915042877197
-0.46457239985466003 0.08527135848999023 -0.5503876209259033
-0.4613775312900543 0.10077524185180664 -0.8759689927101135
-0.4627726376056671 0.10077524185180664 -0.8604651093482971
-0.46774956583976746 0.10077524185180664 -0.5813953876495361
-0.46049144864082336 0.10077524185180664 -0.5658915042877197
-0.4655870497226715 0.11627912521362305 -0.5968992114067078
-0.47127723693847656 0.1317828893661499 -0.6279070377349854
-0.4637152850627899 0.1317828893661499 -0.6124030947685242
-0.468923956155777 0.1472867727279663 -0.643410861492157
-0.46091750264167786 0.1472867727279663 -0.6279069781303406
-0.47195738554000854 0.16279065608978271 -0.674418568611145
-0.4662685990333557 0.16279065608978271 -0.6589146852493286
-0.47097423672676086 0.17829453945159912 -0.7054263353347778
-0.4666873812675476 0.17829453945159912 -0.6899224519729614
-0.4589974284172058 0.17829453945159912 -0.674418568611145
-0.47252511978149414 0.19379842281341553 -0.8294573426246643
-0.47203320264816284 0.19379842281341553 -0.8139534592628479
-0.47158384323120117 0.19379842281341553 -0.7984496355056763
-0.4710709750652313 0.19379842281341553 -0.7829457521438599
-0.46994394063949585 0.19379842281341553 -0.7674418687820435
-0.46781784296035767 0.19379842281341553 -0.751937985420227
-0.46539512276649475 0.19379842281341553 -0.7364341020584106
-0.46120142936706543 0.19379842281341553 -0.7209302186965942
-0.46950453519821167 0.20930230617523193 -0.9379844069480896
-0.4705922305583954 0.20930232107639313 -0.9224807024002075
-0.4698621928691864 0.20930230617523193 -0.9069767594337463
-0.46865350008010864 0.20930230617523193 -0.8914728760719299
-0.4660058617591858 0.20930230617523193 -0.8759689927101135
-0.46255001425743103 0.20930230617523193 -0.8604651689529419
-0.4599798917770386 0.20930230617523193 -0.8449612259864807
-0.4584033787250519 0.20930230617523193 -0.8294573426246643
-0.44325923919677734 -0.06976741552352905 -0.5193798542022705
-0.4458490312099457 -0.06976741552352905 -0.5038759708404541
-0.44599902629852295 -0.06976741552352905 -0.4883720874786377
-0.44512107968330383 -0.06976741552352905 -0.4728682041168213
-0.4436543881893158 -0.06976741552352905 -0.4573643207550049
-0.44188588857650757 -0.06976741552352905 -0.4418604373931885
-0.4493156373500824 -0.05426359176635742 -0.5503876209259033
-0.45393723249435425 -0.05426359176635742 -0.41085273027420044
-0.45089519023895264 -0.05426359176635742 -0.39534884691238403
-0.4478055238723755 -0.05426359176635742 -0.3798449635505676
-0.4437105357646942 -0.05426359176635742 -0.3643410801887512
-0.45653244853019714 -0.038759708404541016 -0.3488371968269348
-0.45228898525238037 -0.038759708404541016 -0.3333333134651184
-0.447174072265625 -0.038759708404541016 -0.317829430103302
-0.4520052671432495 -0.02325582504272461 -0.30232560634613037
-0.44457516074180603 -0.02325582504272461 -0.28682172298431396
-0.4541749656200409 -0.00775194214656949 -0.30232560634613037
-0.4495179355144501 -0.007751941680908203 -0.28682172298431396
-0.443645179271698 -0.007751941680908203 -0.27131783962249756
-0.4545605778694153 0.007751941680908203 -0.3488371968269348
-0.4504995346069336 0.007751941680908203 -0.3333333134651184
-0.4477843940258026 0.007751941680908203 -0.317829430103302
-0.4447809159755707 0.007751941680908203 -0.30232560634613037
-0.4426300525665283 0.007751941680908203 -0.28682172298431396
-0.45542147755622864 0.02325582504272461 -0.968992292881012
-0.452790766954422 0.02325582504272461 -0.9534883499145508
-0.45545268058776855 0.02325582504272461 -0.9379844665527344
-0.44800883531570435 0.02325582504272461 -0.41085273027420044
-0.45144322514533997 0.038759708404541016 -0.9689922332763672
-0.44697821140289307 0.038759708404541016 -0.9534883499145508
-0.4478776156902313 0.038759708404541016 -0.9379844665527344
-0.44314998388290405 0.038759708404541016 -0.751937985420227
-0.4478946924209595 0.038759708404541016 -0.4573643207550049
-0.44899600744247437 0.06976747512817383 -0.8139535188674927
-0.451457679271698 0.06976747512817383 -0.5038759708404541
-0.4426833987236023 0.08527135848999023 -0.8449612259864807
-0.45583096146583557 0.08527135103940964 -0.5348837375640869
-0.44596534967422485 0.08527135848999023 -0.5193798542022705
-0.4548124670982361 0.10077524185180664 -0.9689922332763672
-0.45013493299484253 0.10077524185180664 -0.5503876209259033
-0.451657235622406 0.11627912521362305 -0.9689922332763672
-0.45519179105758667 0.11627912521362305 -0.5813953876495361
-0.4460761547088623 0.11627912521362305 -0.5658915042877197
-0.4474141597747803 0.1317828893661499 -0.9689922332763672
-0.4522513151168823 0.1317828893661499 -0.596899151802063
-0.4502263069152832 0.1472867727279663 -0.6124030947685242
-0.455625057220459 0.16279065608978271 -0.643410861492157
-0.44642555713653564 0.16279065608978271 -0.6279069781303406
-0.4508820176124573 0.17829453945159912 -0.6589146852493286
-0.45524027943611145 0.19379842281341553 -0.7054263353347778
-0.4491342306137085 0.19379842281341553 -0.6899224519729614
-0.445305734872818 0.20930230617523193 -0.9534883499145508
-0.456963449716568 0.20930229127407074 -0.8139534592628479
-0.45468080043792725 0.20930230617523193 -0.7984496355056763
-0.4525740146636963 0.20930230617523193 -0.7829457521438599
-0.4496929943561554 0.20930230617523193 -0.7674418687820435
-0.4464659094810486 0.20930230617523193 -0.751937985420227
-0.4425273835659027 0.20930230617523193 -0.7364341020584106
-0.43908756971359253 -0.06976741552352905 -0.42635661363601685
-0.4363187551498413 -0.06976741552352905 -0.41085273027420044
-0.43304872512817383 -0.06976741552352905 -0.39534884691238403
-0.42908239364624023 -0.06976741552352905 -0.3798449635505676
-0.43947866559028625 -0.05426359176635742 -0.3488371968269348
-0.43368005752563477 -0.05426359176635742 -0.3333333134651184
-0.4268031120300293 -0.05426359176635742 -0.317829430103302
-0.43847376108169556 -0.038759708404541016 -0.30232560634613037
-0.42692989110946655 -0.038759708404541016 -0.28682172298431396
-0.4303814470767975 -0.02325582504272461 -0.5968992114067078
-0.4333321452140808 -0.02325582504272461 -0.27131783962249756
-0.4368385076522827 -0.007751941680908203 -0.25581395626068115
-0.42861828207969666 -0.007751941680908203 -0.24031007289886475
-0.4280177354812622 0.007751941680908203 -0.6589146852493286
-0.44019681215286255 0.007751941680908203 -0.27131783962249756
-0.4378160536289215 0.007751941680908203 -0.25581395626068115
-0.4342781901359558 0.007751941680908203 -0.24031007289886475
-0.42962461709976196 0.007751941680908203 -0.22480618953704834
-0.43866226077079773 0.02325582504272461 -0.39534884691238403
-0.4356038570404053 0.038759708404541016 -0.751937985420227
-0.4415263235569 0.05426358804106712 -0.9689921736717224
-0.4389965832233429 0.05426359176635742 -0.9534883499145508
-0.4386638402938843 0.05426359176635742 -0.9379844665527344
-0.4347133934497833 0.05426359176635742 -0.4728682041168213
-0.4363664984703064 0.06976747512817383 -0.968992292881012
-0.43170154094696045 0.06976747512817383 -0.9534883499145508
-0.4306381642818451 0.06976747512817383 -0.9379844665527344
-0.43708133697509766 0.06976747512817383 -0.9224807024002075
-0.4265884757041931 0.06976747512817383 -0.4883720874786377
-0.4380776882171631 0.08527135848999023 -0.9069767594337463
-0.43879085779190063 0.10077524185180664 -0.5348837375640869
-0.4320417046546936 0.11627912521362305 -0.5503876209259033
-0.4410942792892456 0.1317828893661499 -0.5813953876495361
-0.4380863308906555 0.1472867727279663 -0.9689922332763672
-0.4361664354801178 0.1472867727279663 -0.5968992710113525
-0.42964592576026917 0.16279065608978271 -0.6124030947685242
-0.4373646080493927 0.17829453945159912 -0.643410861492157
-0.43744245171546936 0.19379842281341553 -0.674418568611145
-0.4416549801826477 0.20930230617523193 -0.9534883499145508
-0.4292908012866974 0.20930230617523193 -0.9379844665527344
-0.4292902946472168 0.20930230617523193 -0.7209302186965942
-0.4166041612625122 -0.08527129888534546 -0.4883720874786377
-0.42241141200065613 -0.08527129143476486 -0.4728682041168213
-0.42303797602653503 -0.08527129888534546 -0.4573643207550049
-0.4220767617225647 -0.08527129888534546 -0.4418604373931885
-0.4203048050403595 -0.08527129888534546 -0.42635661363601685
-0.41754311323165894 -0.08527129888534546 -0.41085273027420044
-0.4138849973678589 -0.08527129888534546 -0.39534884691238403
-0.4241483807563782 -0.06976741552352905 -0.3643410801887512
-0.4187438488006592 -0.06976741552352905 -0.3488371968269348
-0.41164907813072205 -0.06976741552352905 -0.3333333134651184
-0.42217516899108887 -0.05426359176635742 -0.5503876209259033
-0.4148334562778473 -0.05426359176635742 -0.30232560634613037
-0.41457822918891907 -0.038759708404541016 -0.5658915042877197
-0.4110660254955292 -0.038759708404541016 -0.27131783962249756
-0.4200384020805359 -0.02325582504272461 -0.25581395626068115
-0.4237052798271179 -0.007751941680908203 -0.6279069781303406
-0.4168825149536133 -0.007751941680908203 -0.22480618953704834
-0.42234915494918823 0.007751941680908203 -0.20930230617523193
-0.41285499930381775 0.007751941680908203 -0.19379842281341553
-0.42303240299224854 0.02325582504272461 -0.6899224519729614
-0.41232338547706604 0.02325582504272461 -0.317829430103302
-0.41532081365585327 0.02325582504272461 -0.30232560634613037
-0.4177062511444092 0.02325582504272461 -0.28682172298431396
-0.41937747597694397 0.02325582504272461 -0.27131783962249756
-0.4216018319129944 0.02325582504272461 -0.25581395626068115
-0.4220018684864044 0.02325582318007946 -0.24031007289886475
-0.4213424026966095 0.02325582504272461 -0.22480618953704834
-0.41920411586761475 0.02325582504272461 -0.20930230617523193
-0.4148581624031067 0.02325582504272461 -0.19379842281341553
-0.41788315773010254 0.038759708404541016 -0.7364341020584106
-0.413443386554718 0.05426359176635742 -0.7829457521438599
-0.4185498356819153 0.05426359176635742 -0.4728682041168213
-0.4173453450202942 0.06976747512817383 -0.8139535188674927
-0.4261280298233032 0.06976747512817383 -0.4883720576763153
-0.42520469427108765 0.08527135848999023 -0.9689921736717224
-0.4225615859031677 0.08527135848999023 -0.9534883499145508
-0.421527624130249 0.08527135848999023 -0.9379844665527344
-0.4247661232948303 0.08527135103940964 -0.922480583190918
-0.42514950037002563 0.08527135848999023 -0.8449611663818359
-0.42072033882141113 0.10077524185180664 -0.9689921736717224
-0.4145389795303345 0.10077524185180664 -0.9534883499145508
-0.41315945982933044 0.10077524185180664 -0.9379844665527344
-0.4155757427215576 0.10077524185180664 -0.9224806427955627
-0.42190778255462646 0.10077524185180664 -0.9069767594337463
-0.4238342344760895 0.10077524185180664 -0.8914728760719299
-0.4149763882160187 0.10077524185180664 -0.8759689331054688
-0.42327210307121277 0.1317828893661499 -0.5658915042877197
-0.414012610912323 0.1472867727279663 -0.9689922332763672
-0.41801315546035767 0.17829453945159912 -0.9534883499145508
-0.42534130811691284 0.19379842281341553 -0.9534883499145508
-0.42008888721466064 0.19379842281341553 -0.9379844665527344
-0.4146076440811157 0.19379842281341553 -0.9224806427955627
-0.42420774698257446 0.20930230617523193 -0.9224806427955627
-0.42135822772979736 0.20930230617523193 -0.9069767594337463
-0.41757190227508545 0.20930230617523193 -0.8914729356765747
-0.4138718843460083 0.20930230617523193 -0.8759689927101135
-0.4144468307495117 0.20930230617523193 -0.7364341020584106
-0.42355984449386597 0.20930230617523193 -0.7209302186965942
-0.40202999114990234 -0.08527129888534546 -0.4883720874786377
-0.40890586376190186 -0.08527129888534546 -0.3798449635505676
-0.4032639265060425 -0.08527129888534546 -0.3643410801887512
-0.3965620994567871 -0.08527129888534546 -0.3488371968269348
-0.4043290913105011 -0.06976741552352905 -0.5193798542022705
-0.4020344913005829 -0.06976741552352905 -0.317829430103302
-0.39592304825782776 -0.05426359176635742 -0.5348837375640869
-0.40017205476760864 -0.05426359176635742 -0.28682172298431396
-0.4071703851222992 -0.02325582504272461 -0.5813953876495361
-0.40320396423339844 -0.02325582504272461 -0.24031007289886475
-0.40831080079078674 -0.007751941680908203 -0.6124030947685242
-0.39535364508628845 -0.007751941680908203 -0.5968992114067078
-0.40215548872947693 -0.007751941680908203 -0.20930230617523193
-0.4051360487937927 0.007751941680908203 -0.643410861492157
-0.39866775274276733 0.007751941680908203 -0.1782945990562439
-0.4054306745529175 0.02325582504272461 -0.674418568611145
-0.40431681275367737 0.02325582504272461 -0.39534884691238403
-0.4073488116264343 0.02325582504272461 -0.1782945990562439
-0.3978525400161743 0.02325582504272461 -0.1627907156944275
-0.4094703495502472 0.038759708404541016 -0.7209301590919495
-0.4033031463623047 0.038759708404541016 -0.7054263353347778
-0.39793843030929565 0.038759708404541016 -0.4573643207550049
-0.39698532223701477 0.038759708404541016 -0.20930230617523193
-0.396121084690094 0.038759708404541016 -0.19379842281341553
-0.40617892146110535 0.05426359176635742 -0.7674418687820435
-0.39893704652786255 0.05426359176635742 -0.751937985420227
-0.4033590257167816 0.06976747512817383 -0.7984496355056763
-0.39992180466651917 0.06976747512817383 -0.5038759708404541
-0.40521949529647827 0.08527135848999023 -0.8294574022293091
-0.404567152261734 0.08527135848999023 -0.5193798542022705
-0.4032526910305023 0.10077524185180664 -0.8604651093482971
-0.3995653986930847 0.10077524185180664 -0.5503876209259033
-0.4077109098434448 0.10077524185180664 -0.5348837375640869
-0.41076672077178955 0.11627912521362305 -0.9689922332763672
-0.40798187255859375 0.11627912521362305 -0.9534883499145508
-0.40664127469062805 0.11627912521362305 -0.9379844665527344
-0.4069986045360565 0.11627912521362305 -0.922480583190918
-0.4072960913181305 0.11627912521362305 -0.9069767594337463
-0.39946454763412476 0.11627912521362305 -0.8914728760719299
-0.40045100450515747 0.11627912521362305 -0.5658915042877197
-0.40932735800743103 0.11627912521362305 -0.5503876209259033
-0.4098374843597412 0.1317828893661499 -0.9689921736717224
-0.40468835830688477 0.1317828893661499 -0.9534883499145508
-0.4011298418045044 0.1317828893661499 -0.9379844665527344
-0.3970956802368164 0.1317828893661499 -0.9224806427955627
-0.39782190322875977 0.1317828893661499 -0.5813953876495361
-0.4101918935775757 0.1317828893661499 -0.5658915042877197
-0.40453189611434937 0.1472867727279663 -0.9534883499145508
-0.39924150705337524 0.1472867727279663 -0.9379844665527344
-0.3961487412452698 0.1472867727279663 -0.5968992114067078
-0.4085468649864197 0.16279065608978271 -0.953488290309906
-0.4043584167957306 0.16279065608978271 -0.9379844665527344
-0.39816418290138245 0.16279065608978271 -0.9224806427955627
-0.4021534323692322 0.16279065608978271 -0.6124030947685242
-0.4097141623497009 0.17829453945159912 -0.9379844665527344
-0.40629297494888306 0.17829453945159912 -0.9224806427955627
-0.4006420373916626 0.17829453945159912 -0.9069767594337463
-0.3972509205341339 0.17829453945159912 -0.643410861492157
-0.4089163839817047 0.19379842281341553 -0.9069767594337463
-0.40522879362106323 0.19379842281341553 -0.8914728760719299
-0.4003363847732544 0.19379842281341553 -0.8759689927101135
-0.3970559537410736 0.19379842281341553 -0.6899224519729614
-0.4049795866012573 0.19379842281341553 -0.674418568611145
-0.4102005064487457 0.20930230617523193 -0.8604651689529419
-0.40819084644317627 0.20930230617523193 -0.8449612855911255
-0.40642407536506653 0.20930230617523193 -0.8294572830200195
-0.4059797525405884 0.20930230617523193 -0.8139535188674927
-0.40616852045059204 0.20930230617523193 -0.7984496355056763
-0.40710213780403137 0.20930230617523193 -0.7829458117485046
-0.4088371992111206 0.20930232107639313 -0.7674418687820435
-0.41009074449539185 0.20930230617523193 -0.751937985420227
-0.38477134704589844 -0.10077518224716187 -0.4418604373931885
-0.39143848419189453 -0.10077518224716187 -0.42635661363601685
-0.39012277126312256 -0.10077518224716187 -0.41085273027420044
-0.3862708508968353 -0.10077518224716187 -0.39534884691238403
-0.3814888596534729 -0.10077518224716187 -0.3798449635505676
-0.3872939646244049 -0.08527129888534546 -0.3333333134651184
-0.3862299919128418 -0.06976741552352905 -0.5038759708404541
-0.3902518153190613 -0.06976741552352905 -0.30232560634613037
-0.38434338569641113 -0.05426359176635742 -0.27131783962249756
-0.39237117767333984 -0.038759708404541016 -0.5503876209259033
-0.39250677824020386 -0.038759708404541016 -0.25581395626068115
-0.3875772953033447 -0.02325582504272461 -0.5658915042877197
-0.38540321588516235 -0.02325582504272461 -0.22480618953704834
-0.38036808371543884 -0.007751941680908203 -0.5813953876495361
-0.38516008853912354 -0.007751941680908203 -0.19379842281341553
-0.39326927065849304 0.007751941680908203 -0.6279069185256958
-0.38445207476615906 0.007751941680908203 -0.6124030947685242
-0.3833844065666199 0.007751941680908203 -0.1627907156944275
-0.3936346769332886 0.02325582504272461 -0.6589146256446838
-0.3842177093029022 0.02325582504272461 -0.643410861492157
-0.39173784852027893 0.02325582504272461 -0.41085273027420044
-0.3868167996406555 0.02325582504272461 -0.14728683233261108
-0.3945564329624176 0.038759708404541016 -0.6899224519729614
-0.3874768018722534 0.038759708404541016 -0.674418568611145
-0.38952749967575073 0.038759708404541016 -0.24031007289886475
-0.39531072974205017 0.038759708404541016 -0.22480618953704834
-0.39354386925697327 0.038759708404541016 -0.1782945990562439
-0.3897727131843567 0.038759708404541016 -0.1627907156944275
-0.3860829174518585 0.038759708404541016 -0.14728683233261108
-0.38016611337661743 0.038759708404541016 -0.13178294897079468
-0.3939746916294098 0.05426359176635742 -0.7364341020584106
-0.39111262559890747 0.05426359176635742 -0.7209302186965942
-0.38703757524490356 0.05426359176635742 -0.7054263353347778
-0.38180455565452576 0.05426359176635742 -0.6899224519729614
-0.39312195777893066 0.05426359176635742 -0.4883720874786377
-0.3936552107334137 0.06976747512817383 -0.7829457521438599
-0.3879369795322418 0.06976747512817383 -0.7674418687820435
-0.3818523585796356 0.06976747512817383 -0.751937985420227
-0.3878151774406433 0.06976747512817383 -0.5193798542022705
-0.39307719469070435 0.08527135848999023 -0.8139535188674927
-0.38493019342422485 0.08527135848999023 -0.7984496355056763
-0.3819279968738556 0.08527135848999023 -0.5658915042877197
-0.38931262493133545 0.08527135848999023 -0.5503876209259033
-0.39491868019104004 0.08527135848999023 -0.5348837375640869
-0.39112865924835205 0.10077524185180664 -0.8449612259864807
-0.3812936842441559 0.10077524185180664 -0.8294573426246643
-0.38388901948928833 0.10077524185180664 -0.5813953876495361
-0.3922383785247803 0.10077524185180664 -0.5658915042877197
-0.3874518871307373 0.11627912521362305 -0.8759689927101135
-0.38203781843185425 0.11627912521362305 -0.5968992114067078
-0.39166951179504395 0.11627912521362305 -0.5813953876495361
-0.39037907123565674 0.1317828893661499 -0.9069767594337463
-0.38869762420654297 0.1317828893661499 -0.5968992114067078
-0.39293256402015686 0.1472867727279663 -0.922480583190918
-0.3811407685279846 0.1472867727279663 -0.9069767594337463
-0.3851645588874817 0.1472867727279663 -0.6124030947685242
-0.38777798414230347 0.16279065608978271 -0.9069768190383911
-0.38806116580963135 0.16279065608978271 -0.6279069185256958
-0.39078643918037415 0.17829453945159912 -0.8914729356765747
-0.38030123710632324 0.17829453945159912 -0.674418568611145
-0.38793566823005676 0.17829453945159912 -0.6589146852493286
-0.3930334746837616 0.19379842281341553 -0.8604651093482971
-0.3876713514328003 0.19379842281341553 -0.8449612855911255
-0.3840349018573761 0.19379842281341553 -0.8294573426246643
-0.382468581199646 0.19379842281341553 -0.8139535188674927
-0.3817597031593323 0.19379842281341553 -0.7984496355056763
-0.38222742080688477 0.19379842281341553 -0.7829457521438599
-0.38317954540252686 0.19379842281341553 -0.7674418687820435
-0.38393038511276245 0.19379842281341553 -0.751937985420227
-0.38564544916152954 0.19379842281341553 -0.7364341020584106
-0.38826823234558105 0.19379842281341553 -0.7209302186965942
-0.39153963327407837 0.19379842281341553 -0.7054263353347778
-0.37436771392822266 -0.10077518224716187 -0.3643410801887512
-0.3664054870605469 -0.10077518224716187 -0.3488371968269348
-0.3766251504421234 -0.08527129888534546 -0.4728682041168213
-0.3780909776687622 -0.08527129888534546 -0.317829430103302
-0.36743706464767456 -0.08527129888534546 -0.30232560634613037
-0.3713528513908386 -0.06976741552352905 -0.4883720874786377
-0.37776434421539307 -0.06976741552352905 -0.28682172298431396
-0.36518004536628723 -0.06976741552352905 -0.27131783962249756
-0.37870553135871887 -0.05426359176635742 -0.5193798542022705
-0.36473578214645386 -0.05426359176635742 -0.5038759708404541
-0.36943960189819336 -0.05426359176635742 -0.25581395626068115
-0.37396568059921265 -0.038759708404541016 -0.5348837375640869
-0.375039279460907 -0.038759708404541016 -0.24031007289886475
-0.370155394077301 -0.02325582504272461 -0.5503876209259033
-0.3695591688156128 -0.02325582504272461 -0.20930230617523193
-0.3660106956958771 -0.007751941680908203 -0.5658915042877197
-0.3699588179588318 -0.007751941680908203 -0.1782945990562439
-0.3749697208404541 0.007751941680908203 -0.596899151802063
-0.3701261878013611 0.007751941680908203 -0.14728683233261108
-0.376382976770401 0.02325582504272461 -0.6279069781303406
-0.3702014684677124 0.02325582504272461 -0.6124030947685242
-0.37633949518203735 0.02325582504272461 -0.13178294897079468
-0.3653624951839447 0.02325582504272461 -0.11627906560897827
-0.37965214252471924 0.038759708404541016 -0.6589147448539734
-0.3735426366329193 0.038759708404541016 -0.643410861492157
-0.3682640492916107 0.038759708404541016 -0.6279069781303406
-0.3793356120586395 0.03875970467925072 -0.25581395626068115
-0.3719995617866516 0.038759708404541016 -0.11627906560897827
-0.3769136071205139 0.05426359176635742 -0.674418568611145
-0.37202996015548706 0.05426359176635742 -0.6589146852493286
-0.3679311275482178 0.05426359176635742 -0.643410861492157
-0.3643842935562134 0.05426359176635742 -0.6279069781303406
-0.3707353472709656 0.05426359176635742 -0.5038759708404541
-0.3683159351348877 0.05426359176635742 -0.20930230617523193
-0.373479962348938 0.05426359176635742 -0.19379842281341553
-0.37587690353393555 0.05426359176635742 -0.1782945990562439
-0.37623149156570435 0.05426359176635742 -0.1627907156944275
-0.3753824532032013 0.05426359176635742 -0.14728683233261108
-0.3735237717628479 0.05426359176635742 -0.13178294897079468
-0.36934348940849304 0.05426359176635742 -0.11627906560897827
-0.37758734822273254 0.06976747512817383 -0.7364341020584106
-0.3750590682029724 0.06976747512817383 -0.7209302186965942
-0.37267184257507324 0.06976747512817383 -0.7054263353347778
-0.3706577718257904 0.06976747512817383 -0.6899224519729614
-0.36800795793533325 0.06976747512817383 -0.674418568611145
-0.36552247405052185 0.06976747512817383 -0.6589146852493286
-0.3643842935562134 0.06976747512817383 -0.5968992114067078
-0.36667078733444214 0.06976747512817383 -0.5813953876495361
-0.3702056407928467 0.06976747512817383 -0.5658915042877197
-0.37472617626190186 0.06976747512817383 -0.5503876209259033
-0.37962988018989563 0.06976747512817383 -0.5348837375640869
-0.36436787247657776 0.06976747512817383 -0.1627907156944275
-0.3652295172214508 0.06976747512817383 -0.14728683233261108
-0.3645825684070587 0.06976747512817383 -0.13178294897079468
-0.3774763345718384 0.08527135848999023 -0.7829457521438599
-0.3719939887523651 0.08527135848999023 -0.7674418687820435
-0.36657217144966125 0.08527135848999023 -0.751937985420227
-0.3663023114204407 0.08527135848999023 -0.6124030947685242
-0.37044453620910645 0.08527135848999023 -0.5968992114067078
-0.3758339285850525 0.08527135848999023 -0.5813953876495361
-0.375205397605896 0.10077524185180664 -0.8139534592628479
-0.36851251125335693 0.10077524185180664 -0.7984496355056763
-0.36999645829200745 0.10077524185180664 -0.6124030947685242
-0.3769841492176056 0.10077524185180664 -0.5968992114067078
-0.3758084177970886 0.11627912521362305 -0.8604651093482971
-0.3672518730163574 0.11627912521362305 -0.8449612855911255
-0.36457309126853943 0.11627912521362305 -0.6279069781303406
-0.3738715648651123 0.11627912521362305 -0.612403154373169
-0.37640082836151123 0.1317828893661499 -0.8914728760719299
-0.36701279878616333 0.1317828893661499 -0.6279069781303406
-0.3777018189430237 0.1317828893661499 -0.6124030351638794
-0.37423795461654663 0.1472867727279663 -0.6279069781303406
-0.37023037672042847 0.16279065608978271 -0.8914729356765747
-0.3677932024002075 0.16279065608978271 -0.6589146852493286
-0.377270370721817 0.16279065608978271 -0.643410861492157
-0.37935230135917664 0.17829452455043793 -0.8759689927101135
-0.36819714307785034 0.17829453945159912 -0.8604650497436523
-0.3686835765838623 0.17829453945159912 -0.7054263353347778
-0.3738427758216858 0.17829453945159912 -0.6899224519729614
-0.36380988359451294 -0.10077518224716187 -0.44186046719551086
-0.3574712872505188 -0.10077518224716187 -0.3333333134651184
-0.3491142988204956 -0.10077518224716187 -0.317829430103302
-0.3573262095451355 -0.08527129888534546 -0.4573643207550049
-0.3565441966056824 -0.08527129888534546 -0.28682172298431396
-0.35740578174591064 -0.06976741552352905 -0.4728682041168213
-0.3519248366355896 -0.06976741552352905 -0.25581395626068115
-0.35524341464042664 -0.05426359176635742 -0.4883720874786377
-0.35492533445358276 -0.05426359176635742 -0.24031007289886475
-0.3604489862918854 -0.038759708404541016 -0.5193798542022705
-0.35080716013908386 -0.038759708404541016 -0.5038759708404541
-0.36037591099739075 -0.038759708404541016 -0.22480618953704834
-0.35763078927993774 -0.02325582504272461 -0.5348837375640869
-0.3552376925945282 -0.02325582504272461 -0.19379842281341553
-0.3526725471019745 -0.02325582504272461 0.37984490394592285
-0.35522839426994324 -0.02325582504272461 0.39534878730773926
-0.3556782007217407 -0.02325582504272461 0.41085267066955566
-0.3550283908843994 -0.02325582504272461 0.42635655403137207
-0.3530546724796295 -0.02325582504272461 0.4418604373931885
-0.3499942123889923 -0.02325582504272461 0.4573643207550049
-0.35554999113082886 -0.007751941680908203 -0.5503876209259033
-0.35646510124206543 -0.007751941680908203 -0.1627907156944275
-0.3537265658378601 -0.007751941680908203 0.37984490394592285
-0.35792964696884155 -0.007751941680908203 0.39534878730773926
-0.35971757769584656 -0.00775194214656949 0.41085270047187805
-0.36030519008636475 -0.007751941680908203 0.42635655403137207
-0.35960736870765686 -0.007751941680908203 0.4418604373931885
-0.35803914070129395 -0.007751941680908203 0.4573643207550049
-0.35382509231567383 -0.007751941680908203 0.4728682041168213
-0.3642161786556244 0.007751941680908203 -0.5813953876495361
-0.3555506467819214 0.007751941680908203 -0.5658915042877197
-0.35861480236053467 0.00775194214656949 -0.13178294897079468
-0.3536202907562256 0.007751941680908203 0.39534878730773926
-0.3575285077095032 0.007751941680908203 0.41085267066955566
-0.360773503780365 0.007751941680908203 0.42635655403137207
-0.3619357943534851 0.007751941680908203 0.4418604373931885
-0.36025726795196533 0.007751941680908203 0.4573643207550049
-0.35787808895111084 0.007751941680908203 0.4728682041168213
-0.35339221358299255 0.007751941680908203 0.4883720874786377
-0.36358264088630676 0.02325582504272461 -0.5968992114067078
-0.35709071159362793 0.02325582504272461 -0.5813953876495361
-0.34953445196151733 0.02325582504272461 -0.5658915042877197
-0.3531319200992584 0.02325582504272461 -0.3333333134651184
-0.35081201791763306 0.02325582504272461 -0.10077518224716187
-0.35017064213752747 0.02325582504272461 0.41085267066955566
-0.35453978180885315 0.02325582504272461 0.42635655403137207
-0.35754114389419556 0.02325582504272461 0.4418604373931885
-0.35829758644104004 0.02325582504272461 0.4573643207550049
-0.35742902755737305 0.02325582504272461 0.4728682041168213
-0.3552352786064148 0.02325582504272461 0.4883720874786377
-0.3513413369655609 0.02325582504272461 0.5038759708404541
-0.3641360104084015 0.038759708404541016 -0.6124030351638794
-0.36031773686408997 0.038759708404541016 -0.5968992114067078
-0.35574060678482056 0.038759708404541016 -0.5813953876495361
-0.3505571782588959 0.038759708404541016 -0.5658915042877197
-0.3563483953475952 0.038759708404541016 -0.4728682041168213
-0.34899836778640747 0.038759708404541016 -0.28682172298431396
-0.36369267106056213 0.038759708404541016 -0.27131783962249756
-0.362003892660141 0.038759708404541016 -0.10077518224716187
-0.35064831376075745 0.038759708404541016 0.4418604373931885
-0.3530346155166626 0.038759708404541016 0.4573643207550049
-0.35375115275382996 0.038759708404541016 0.4728682041168213
-0.3525545001029968 0.038759708404541016 0.4883720874786377
-0.35038670897483826 0.038759708404541016 0.5038759708404541
-0.36263641715049744 0.05426359176635742 -0.612403154373169
-0.36114245653152466 0.05426359176635742 -0.5968992114067078
-0.3597421646118164 0.05426359176635742 -0.5813953876495361
-0.3584910035133362 0.05426359176635742 -0.5658915042877197
-0.3577079176902771 0.05426359176635742 -0.5503876209259033
-0.3574596047401428 0.05426359176635742 -0.5348837375640869
-0.36021092534065247 0.05426359176635742 -0.5193798542022705
-0.34999167919158936 0.05426359176635742 -0.24031007289886475
-0.3602900505065918 0.05426359176635742 -0.22480618953704834
-0.3630804419517517 0.05426359176635742 -0.10077518224716187
-0.35430988669395447 0.05426359176635742 -0.08527129888534546
-0.36385828256607056 0.06976747512817383 -0.6434108018875122
-0.3630947470664978 0.06976747512817383 -0.6279069781303406
-0.363425076007843 0.06976746767759323 -0.6124030947685242
-0.35472869873046875 0.06976747512817383 -0.19379842281341553
-0.3610374331474304 0.06976747512817383 -0.1782945841550827
-0.3621661067008972 0.06976747512817383 -0.11627906560897827
-0.3589148223400116 0.06976747512817383 -0.10077518224716187
-0.35320767760276794 0.06976747512817383 -0.08527129888534546
-0.362079918384552 0.08527136594057083 -0.7364341020584106
-0.3597433567047119 0.08527135848999023 -0.7209302186965942
-0.35846781730651855 0.08527135848999023 -0.7054263353347778
-0.35888606309890747 0.08527135848999023 -0.6899224519729614
-0.35946112871170044 0.08527135848999023 -0.674418568611145
-0.3601941168308258 0.08527135848999023 -0.6589146852493286
-0.3614516258239746 0.08527135848999023 -0.643410861492157
-0.3632459342479706 0.08527135848999023 -0.6279070377349854
-0.3533358871936798 0.08527135848999023 -0.1627907156944275
-0.3566505014896393 0.08527135848999023 -0.14728683233261108
-0.3571101129055023 0.08527135848999023 -0.13178294897079468
-0.3559260964393616 0.08527135848999023 -0.11627906560897827
-0.35261088609695435 0.08527135848999023 -0.10077518224716187
-0.36195939779281616 0.10077524185180664 -0.7829457521438599
-0.3568943440914154 0.10077524185180664 -0.7674418687820435
-0.3519609868526459 0.10077524185180664 -0.751937985420227
-0.3502792418003082 0.10077524185180664 -0.674418568611145
-0.3542942404747009 0.10077524185180664 -0.6589146852493286
-0.3591304421424866 0.10077524185180664 -0.643410861492157
-0.3638640344142914 0.10077523440122604 -0.6279069185256958
-0.360963374376297 0.11627912521362305 -0.8294573426246643
-0.3563889265060425 0.11627912521362305 -0.8139535188674927
-0.35045307874679565 0.11627912521362305 -0.7984496355056763
-0.34951791167259216 0.11627912521362305 -0.6589146852493286
-0.35724765062332153 0.11627912521362305 -0.643410861492157
-0.3627874255180359 0.1317828893661499 -0.8759689927101135
-0.35351163148880005 0.1317828893661499 -0.8604651093482971
-0.35755622386932373 0.1317828893661499 -0.643410861492157
-0.3626116216182709 0.1472867727279663 -0.8914729356765747
-0.35195496678352356 0.1472867727279663 -0.6589146852493286
-0.3627227544784546 0.1472867727279663 -0.6434109210968018
-0.3524533808231354 0.16279065608978271 -0.8759689927101135
-0.35126006603240967 0.16279065608978271 -0.6899224519729614
-0.35886135697364807 0.16279065608978271 -0.674418568611145
-0.35987356305122375 0.17829453945159912 -0.8449612855911255
-0.3556246757507324 0.17829453945159912 -0.8294573426246643
-0.3543735444545746 0.17829453945159912 -0.8139535188674927
-0.35424453020095825 0.17829453945159912 -0.7984496355056763
-0.3552917540073395 0.17829453945159912 -0.7829457521438599
-0.35652875900268555 0.17829453945159912 -0.7674418687820435
-0.35775989294052124 0.17829453945159912 -0.751937985420227
-0.3602050542831421 0.17829453945159912 -0.7364341020584106
-0.36424896121025085 0.17829453945159912 -0.7209302186965942
-0.34202784299850464 -0.10077518224716187 -0.42635661363601685
-0.33882829546928406 -0.10077518224716187 -0.30232560634613037
-0.3422176241874695 -0.08527129888534546 -0.4418604373931885
-0.3461287319660187 -0.08527130633592606 -0.27131783962249756
-0.3347296118736267 -0.08527129888534546 -0.25581395626068115
-0.34490546584129333 -0.06976741552352905 -0.4573643207550049
-0.33868902921676636 -0.06976741552352905 -0.24031007289886475
-0.3459482491016388 -0.05426359176635742 -0.4728682041168213
-0.33812183141708374 -0.05426359176635742 -0.4573643207550049
-0.3416057825088501 -0.05426359176635742 -0.22480618953704834
-0.3445589542388916 -0.038759708404541016 -0.4883720874786377
-0.3388364315032959 -0.038759708404541016 -0.4728682041168213
-0.3475762903690338 -0.038759708404541016 -0.20930230617523193
-0.334928035736084 -0.038759708404541016 -0.19379842281341553
-0.3377760052680969 -0.038759708404541016 0.364341139793396
-0.34419429302215576 -0.038759708404541016 0.37984490394592285
-0.3460671901702881 -0.038759708404541016 0.39534878730773926
-0.34489119052886963 -0.038759708404541016 0.41085267066955566
-0.3427841067314148 -0.038759708404541016 0.42635655403137207
-0.3398827910423279 -0.038759708404541016 0.4418604373931885
-0.3356744945049286 -0.038759708404541016 0.4573643207550049
-0.34794938564300537 -0.02325582504272461 -0.5193798542022705
-0.3422953188419342 -0.02325582504272461 -0.5038759708404541
-0.33745115995407104 -0.02325582504272461 -0.4883720874786377
-0.34311628341674805 -0.02325582504272461 -0.1782945990562439
-0.343601256608963 -0.02325582504272461 0.364341139793396
-0.34515097737312317 -0.02325582504272461 0.4728682041168213
-0.33943644165992737 -0.02325582504272461 0.4883720874786377
-0.3470483124256134 -0.007751941680908203 -0.5348837375640869
-0.3411634862422943 -0.007751941680908203 -0.5193798542022705
-0.33595865964889526 -0.007751941680908203 -0.5038759708404541
-0.3451978862285614 -0.007751941680908203 -0.14728683233261108
-0.33843323588371277 -0.007751941680908203 0.364341139793396
-0.34810909628868103 -0.007751941680908203 0.4883721172809601
-0.34208542108535767 -0.007751941680908203 0.5038759708404541
-0.33532699942588806 -0.007751941680908203 0.5193798542022705
-0.3476983606815338 0.007751941680908203 -0.5503876209259033
-0.34241876006126404 0.007751941215246916 -0.5348837375640869
-0.3371949791908264 0.007751941680908203 -0.5193798542022705
-0.3448561728000641 0.007751941680908203 -0.11627906560897827
-0.3467925190925598 0.007751941680908203 0.37984490394592285
-0.3484041094779968 0.007751941680908203 0.5038759708404541
-0.3429615795612335 0.007751941680908203 0.5193798542022705
-0.33797913789749146 0.007751941680908203 0.5348837375640869
-0.3340269923210144 0.007751941680908203 0.5503876209259033
-0.34540802240371704 0.02325582504272461 -0.5503876209259033
-0.3410976529121399 0.02325582504272461 -0.5348837375640869
-0.33734387159347534 0.02325582504272461 -0.5193798542022705
-0.3347702920436859 0.02325582504272461 -0.5038759708404541
-0.334121972322464 0.02325582504272461 -0.4883720874786377
-0.3344295620918274 0.02325582504272461 -0.4728682041168213
-0.33611470460891724 0.02325582504272461 -0.4573643207550049
-0.3405214846134186 0.02325582504272461 -0.4418604373931885
-0.3482329249382019 0.02325582504272461 -0.42635661363601685
-0.3357452154159546 0.02325582504272461 0.39534878730773926
-0.3472195565700531 0.02325582504272461 0.5193798542022705
-0.3436077833175659 0.02325582504272461 0.5348837375640869
-0.34108656644821167 0.02325582504272461 0.5503876209259033
-0.3383784294128418 0.02325582504272461 0.5658915042877197
-0.33612060546875 0.02325582504272461 0.5813953876495361
-0.3474615812301636 0.038759708404541016 -0.5503876209259033
-0.34514835476875305 0.038759708404541016 -0.5348837375640869
-0.3436829745769501 0.038759708404541016 -0.5193798542022705
-0.3436359763145447 0.038759708404541016 -0.5038759708404541
-0.34623852372169495 0.038759708404541016 -0.4883720874786377
-0.336475670337677 0.038759708404541016 -0.30232560634613037
-0.3484433591365814 0.038759708404541016 -0.08527129888534546
-0.33609816431999207 0.038759708404541016 0.42635655403137207
-0.3477552533149719 0.038759708404541016 0.5193798542022705
-0.34543997049331665 0.038759708404541016 0.5348837375640869
-0.3437489867210388 0.038759708404541016 0.5503876209259033
-0.3431721031665802 0.038759708404541016 0.5658915042877197
-0.34240683913230896 0.038759708404541016 0.5813953876495361
-0.34042835235595703 0.038759708404541016 0.5968992710113525
-0.3363199234008789 0.038759708404541016 0.612403154373169
-0.3403220474720001 0.05426359176635742 -0.25581395626068115
-0.3412473499774933 0.05426359176635742 -0.06976741552352905
-0.33348309993743896 0.05426359176635742 0.4418604373931885
-0.34461522102355957 0.05426358804106712 0.4573642909526825
-0.34843677282333374 0.05426359176635742 0.4728682041168213
-0.34745481610298157 0.05426358804106712 0.4883720874786377
-0.3455740213394165 0.05426359176635742 0.5038759708404541
-0.343967467546463 0.05426359176635742 0.5193798542022705
-0.3430166244506836 0.05426359176635742 0.5348837375640869
-0.34275954961776733 0.05426359176635742 0.5503876209259033
-0.3430468440055847 0.05426358804106712 0.5658915042877197
-0.3433571457862854 0.05426359176635742 0.5813953876495361
-0.34305381774902344 0.05426359176635742 0.5968992710113525
-0.34078162908554077 0.05426359176635742 0.612403154373169
-0.335126131772995 0.05426359176635742 0.6279069185256958
-0.3381084203720093 0.06976747512817383 -0.22480618953704834
-0.34715819358825684 0.06976747512817383 -0.20930230617523193
-0.34463244676589966 0.06976747512817383 -0.06976741552352905
-0.33568114042282104 0.06976747512817383 0.4573643207550049
-0.339679479598999 0.06976747512817383 0.4728682041168213
-0.3403474986553192 0.06976747512817383 0.4883720874786377
-0.3397689461708069 0.06976747512817383 0.5038759708404541
-0.3389677405357361 0.06976747512817383 0.5193798542022705
-0.338565468788147 0.06976747512817383 0.5348837375640869
-0.33886611461639404 0.06976747512817383 0.5503876209259033
-0.3398315906524658 0.06976747512817383 0.5658915042877197
-0.34076082706451416 0.06976747512817383 0.5813953876495361
-0.3409271240234375 0.06976747512817383 0.5968992710113525
-0.33957982063293457 0.06976747512817383 0.612403154373169
-0.33575817942619324 0.06976747512817383 0.6279069185256958
-0.33857470750808716 0.08527135848999023 -0.19379842281341553
-0.3473191261291504 0.08527136594057083 -0.1782945990562439
-0.34843710064888 0.08527135848999023 -0.08527129888534546
-0.34257572889328003 0.08527135848999023 -0.06976741552352905
-0.3334965109825134 0.08527135848999023 -0.05426359176635742
-0.33414357900619507 0.08527135848999023 0.4728682041168213
-0.3343079388141632 0.08527135848999023 0.4883720874786377
-0.3336454927921295 0.08527135848999023 0.5038759708404541
-0.3334745168685913 0.08527135848999023 0.5348837375640869
-0.33403098583221436 0.08527135848999023 0.5503876209259033
-0.33499303460121155 0.08527135848999023 0.5658915042877197
-0.33611392974853516 0.08527135848999023 0.5813953876495361
-0.3365926146507263 0.08527135848999023 0.5968992710113525
-0.3359377384185791 0.08527135848999023 0.612403154373169
