-0.1782945990562439 0.046275023370981216 0.4883720874786377
-0.1782945990562439 0.04663510620594025 0.5038759708404541
-0.1782945990562439 0.046302422881126404 0.5193798542022705
-0.1782945990562439 0.04508949816226959 0.5348837375640869
-0.1782945990562439 0.04354424029588699 0.5503876209259033
-0.1782945990562439 0.042483218014240265 0.5658915042877197
-0.1782945990562439 0.04261021688580513 0.5813953876495361
-0.1782945990562439 0.04488210380077362 0.5968992710113525
-0.1782945990562439 0.049946416169404984 0.612403154373169
-0.1782945990562439 0.06821373850107193 -0.8294574022293091
-0.1782945990562439 0.06454303115606308 -0.8139535188674927
-0.1782945990562439 0.06022965908050537 -0.7984496355056763
-0.1782945990562439 0.05496798828244209 -0.7829457521438599
-0.1782945990562439 0.0597294382750988 0.6279069185256958
-0.1782945990562439 0.08127550780773163 -0.8604651093482971
-0.1782945990562439 0.07418641448020935 -0.8449611663818359
-0.1782945990562439 0.07403696328401566 0.6434108018875122
-0.1782945990562439 0.09632142633199692 0.6589146852493286
-0.1782945990562439 0.1062464565038681 -0.8604650497436523
-0.1782945990562439 0.11217441409826279 -0.8449612259864807
-0.1782945990562439 0.11730161309242249 -0.8294573426246643
-0.1782945990562439 0.12013398855924606 -0.8139535188674927
-0.1782945990562439 0.1232554018497467 -0.7984496355056763
-0.1782945990562439 0.12678205966949463 -0.7829457521438599
-0.1782945990562439 0.1306397020816803 -0.7674418687820435
-0.1782945990562439 0.13169172406196594 -0.39534884691238403
-0.1782945990562439 0.13059553503990173 -0.3798449635505676
-0.1782945990562439 0.13012872636318207 -0.3643410801887512
-0.1782945990562439 0.1300363391637802 -0.3488371968269348
-0.1782945990562439 0.131165012717247 -0.3333333134651184
-0.1782945990562439 0.13413479924201965 -0.751937985420227
-0.1782945990562439 0.13720832765102386 -0.7364341020584106
-0.1782945990562439 0.14118856191635132 -0.7209302186965942
-0.1782945990562439 0.14562667906284332 -0.7054263353347778
-0.1782945990562439 0.14443860948085785 -0.4728682041168213
-0.1782945990562439 0.14092260599136353 -0.4573643207550049
-0.1782945990562439 0.1373412013053894 -0.4418604373931885
-0.1782945990562439 0.13446225225925446 -0.42635661363601685
-0.1782945841550827 0.13261684775352478 -0.41085273027420044
-0.1782945990562439 0.1324150115251541 -0.3178294599056244
-0.1782945990562439 0.13460034132003784 -0.30232560634613037
-0.1782945990562439 0.1379610300064087 -0.28682172298431396
-0.1782945990562439 0.14311128854751587 -0.27131783962249756
-0.1782945990562439 0.1493336409330368 -0.6899224519729614
-0.1782945990562439 0.15249426662921906 -0.674418568611145
-0.1782945990562439 0.15452004969120026 -0.6589146852493286
-0.1782945990562439 0.1556624174118042 -0.643410861492157
-0.1782945990562439 0.156183123588562 -0.6279069781303406
-0.1782945990562439 0.15608471632003784 -0.6124030947685242
-0.1782945990562439 0.15571892261505127 -0.5968992114067078
-0.1782945990562439 0.15539976954460144 -0.5813953876495361
-0.1782945990562439 0.1548456996679306 -0.5658915042877197
-0.1782945990562439 0.15404817461967468 -0.5503876209259033
-0.1782945990562439 0.15341316163539886 -0.5348837375640869
-0.1782945990562439 0.1524094045162201 -0.5193798542022705
-0.1782945990562439 0.1503395289182663 -0.5038759708404541
-0.1782945990562439 0.1479165405035019 -0.4883721172809601
-0.1782945990562439 0.1478542983531952 -0.25581395626068115
-0.1782945990562439 0.15182489156723022 -0.24031007289886475
-0.1782945990562439 0.157297283411026 -0.22480618953704834
-0.1782945990562439 0.1623241901397705 -0.20930230617523193
-0.1782946139574051 0.16532465815544128 -0.19379843771457672
-0.1782945990562439 0.16922229528427124 -0.1782945990562439
-0.1782945990562439 0.17279163002967834 -0.1627907156944275
-0.1782945990562439 0.17564380168914795 -0.14728683233261108
-0.1782945990562439 0.17730417847633362 -0.13178294897079468
-0.1782945990562439 0.17825239896774292 0.17829453945159912
-0.1782945990562439 0.17758537828922272 0.19379842281341553
-0.1782945990562439 0.1774159073829651 0.20930230617523193
-0.1782945990562439 0.17405067384243011 0.6589146852493286
-0.1782945990562439 0.17840982973575592 -0.11627906560897827
-0.1782946139574051 0.17871196568012238 -0.10077518224716187
-0.1782945990562439 0.18059635162353516 -0.08527129888534546
-0.1782945990562439 0.18373394012451172 -0.06976741552352905
-0.1782945990562439 0.184090256690979 -0.05426359176635742
-0.1782945990562439 0.1838582456111908 -0.038759708404541016
-0.1782945990562439 0.18373094499111176 -0.02325582504272461
-0.1782945990562439 0.1838030219078064 -0.00775194214656949
-0.1782945990562439 0.1839163601398468 0.007751941680908203
-0.1782945990562439 0.18440388143062592 0.02325582504272461
-0.1782945990562439 0.1851198822259903 0.038759708404541016
-0.1782945990562439 0.18587374687194824 0.05426359176635742
-0.1782945990562439 0.186505526304245 0.06976747512817383
-0.1782945990562439 0.18658769130706787 0.08527135848999023
-0.1782945990562439 0.1865396797657013 0.10077524185180664
-0.1782945990562439 0.1862885057926178 0.11627912521362305
-0.1782945990562439 0.18521761894226074 0.1317828893661499
-0.1782945990562439 0.18305525183677673 0.1472867727279663
-0.1782945990562439 0.1804688721895218 0.16279065608978271
-0.1782945990562439 0.17845338582992554 0.22480618953704834
-0.1782945990562439 0.18029014766216278 0.24031007289886475
-0.1782945990562439 0.1830425262451172 0.25581395626068115
-0.1782945990562439 0.18531745672225952 0.27131783962249756
-0.1782945990562439 0.18619738519191742 0.28682172298431396
-0.1782945990562439 0.186423659324646 0.30232560634613037
-0.1782945990562439 0.18597333133220673 0.3178294897079468
-0.1782945990562439 0.18508343398571014 0.3333333730697632
-0.1782945990562439 0.1844474822282791 0.3488372564315796
-0.1782945990562439 0.18438713252544403 0.364341139793396
-0.1782945990562439 0.18546581268310547 0.37984490394592285
-0.1782945990562439 0.18782049417495728 0.39534878730773926
-0.1782945990562439 0.19145633280277252 0.41085267066955566
-0.1782945990562439 0.1958722621202469 0.42635655403137207
-0.1782945990562439 0.20070716738700867 0.4418604373931885
-0.1782945990562439 0.20587629079818726 0.4573643207550049
-0.1782945990562439 0.19830268621444702 0.6434108018875122
-0.1782946139574051 0.20949696004390717 0.4728682041168213
-0.1782945990562439 0.21143373847007751 0.4883720874786377
-0.1782945990562439 0.2128087282180786 0.5038759708404541
-0.1782945990562439 0.21369045972824097 0.5193798542022705
-0.1782945990562439 0.21478500962257385 0.5348837375640869
-0.1782945990562439 0.21616515517234802 0.5503876209259033
-0.1782945990562439 0.21765801310539246 0.5658915042877197
-0.1782945990562439 0.21893349289894104 0.5813953876495361
-0.1782945990562439 0.2190500795841217 0.5968992710113525
-0.1782945990562439 0.21644026041030884 0.612403154373169
-0.1782945990562439 0.2097398191690445 0.627906858921051
-0.1627907156944275 -0.05444035306572914 -0.30232560634613037
-0.1627907156944275 -0.05447203293442726 -0.28682172298431396
-0.1627907156944275 -0.03974447399377823 -0.42635661363601685
-0.1627907156944275 -0.04125962778925896 -0.41085273027420044
-0.1627907156944275 -0.04303334653377533 -0.39534884691238403
-0.1627907156944275 -0.04497978091239929 -0.3798449635505676
-0.1627907156944275 -0.04736917465925217 -0.3643410801887512
-0.1627907156944275 -0.04963240772485733 -0.3488371968269348
-0.1627907156944275 -0.05147175490856171 -0.3333333134651184
-0.1627907156944275 -0.05348208546638489 -0.317829430103302
-0.1627907156944275 -0.05417272821068764 -0.27131783962249756
-0.1627907156944275 -0.052543241530656815 -0.25581395626068115
-0.1627907156944275 -0.050823554396629333 -0.24031007289886475
-0.1627907156944275 -0.0495869442820549 -0.22480618953704834
-0.1627907156944275 -0.04886065423488617 -0.20930230617523193
-0.1627907156944275 -0.04830925911664963 -0.19379842281341553
-0.1627907156944275 -0.04796242713928223 -0.1782945990562439
-0.1627907156944275 -0.04744614660739899 -0.1627907156944275
-0.1627907156944275 -0.04684054106473923 -0.14728683233261108
-0.1627907156944275 -0.046477511525154114 -0.13178294897079468
-0.1627907156944275 -0.04593653976917267 -0.11627906560897827
-0.1627907156944275 -0.044488705694675446 -0.10077518224716187
-0.1627907156944275 -0.04183661937713623 -0.08527129888534546
-0.1627907156944275 -0.03982151299715042 -0.06976741552352905
-0.1627907156944275 -0.03992917388677597 0.038759708404541016
-0.1627907156944275 -0.040508098900318146 0.05426359176635742
-0.1627907156944275 -0.03977750241756439 0.06976747512817383
-0.1627907156944275 -0.024240976199507713 -0.4728682041168213
-0.1627907156944275 -0.030180279165506363 -0.4573643207550049
-0.1627907156944275 -0.036515362560749054 -0.4418604373931885
-0.1627907156944275 -0.037620216608047485 -0.05426359176635742
-0.1627907156944275 -0.036123666912317276 -0.038759708404541016
-0.1627907156944275 -0.035393692553043365 -0.02325582504272461
-0.16279073059558868 -0.03540639206767082 -0.007751941680908203
-0.1627907156944275 -0.03624098747968674 0.007751941680908203
-0.1627907007932663 -0.03810824081301689 0.02325582318007946
-0.1627907156944275 -0.037209611386060715 0.08527135848999023
-0.1627907156944275 -0.03361662104725838 0.10077524185180664
-0.1627907156944275 -0.029270093888044357 0.11627912521362305
-0.1627907156944275 -0.024964164942502975 0.1317828893661499
-0.1627907156944275 -0.01024152897298336 -0.5038759708404541
-0.1627907156944275 -0.016811512410640717 -0.4883720874786377
-0.16279073059558868 -0.021655578166246414 0.1472867727279663
-0.1627907156944275 -0.01896229386329651 0.16279065608978271
-0.1627907156944275 -0.016609283164143562 0.17829453945159912
-0.1627907156944275 -0.01480158232152462 0.19379842281341553
-0.1627907156944275 -0.013429595157504082 0.20930230617523193
-0.1627907156944275 -0.01219593733549118 0.22480618953704834
-0.1627907156944275 -0.01083383522927761 0.24031007289886475
-0.1627907156944275 -0.009357263334095478 0.25581395626068115
-0.1627907156944275 0.004069157876074314 -0.5348837375640869
-0.1627907156944275 -0.0028211527969688177 -0.5193798542022705
-0.1627907156944275 -0.007535317912697792 0.27131783962249756
-0.1627907156944275 -0.00513811782002449 0.28682172298431396
-0.1627907156944275 -0.0026988142635673285 0.30232560634613037
-0.1627907156944275 0.0001409479882568121 0.3178294897079468
-0.1627907156944275 0.0036288099363446236 0.3333333730697632
-0.1627907156944275 0.006557687185704708 0.3488372564315796
-0.1627907156944275 0.022629322484135628 -0.5968992114067078
-0.1627907156944275 0.01982906647026539 -0.5813953876495361
-0.1627907156944275 0.01567060314118862 -0.5658915042877197
-0.1627907156944275 0.009330334141850471 -0.5503876209259033
-0.1627907156944275 0.008886510506272316 0.364341139793396
-0.1627907156944275 0.010555298067629337 0.37984490394592285
-0.1627907156944275 0.011448726058006287 0.39534878730773926
-0.1627907156944275 0.01200856827199459 0.41085267066955566
-0.1627907156944275 0.012363473884761333 0.42635655403137207
-0.1627907156944275 0.013447035104036331 0.4418604373931885
-0.1627907156944275 0.015088777989149094 0.4573643207550049
-0.1627907156944275 0.017919056117534637 0.4728682041168213
-0.1627907156944275 0.02026214450597763 0.4883720874786377
-0.1627907156944275 0.02214055508375168 0.5038759708404541
-0.1627907156944275 0.036278728395700455 -0.6434109210968018
-0.1627907156944275 0.03244974836707115 -0.6279069781303406
-0.1627907156944275 0.027430366724729538 -0.6124030947685242
-0.1627907156944275 0.02401258982717991 0.5193798542022705
-0.1627907156944275 0.02539486438035965 0.5348837375640869
-0.1627907156944275 0.02568868361413479 0.5503876209259033
-0.1627907156944275 0.026089316233992577 0.5658915042877197
-0.1627907156944275 0.028135720640420914 0.5813953876495361
-0.1627907156944275 0.03220244124531746 0.5968992710113525
-0.1627907156944275 0.05369003862142563 -0.7209302186965942
-0.1627907156944275 0.05050670728087425 -0.7054263353347778
-0.1627907156944275 0.04781676083803177 -0.6899224519729614
-0.1627907156944275 0.04427371174097061 -0.674418568611145
-0.16279073059558868 0.0398511178791523 -0.6589146852493286
-0.1627907007932663 0.03912246972322464 0.612403154373169
-0.1627907156944275 0.051101572811603546 0.6279069185256958
-0.1627907156944275 0.06726555526256561 -0.7674418687820435
-0.1627907156944275 0.06323989480733871 -0.751937985420227
-0.1627907156944275 0.05847384035587311 -0.7364341020584106
-0.1627907156944275 0.06775160878896713 0.6434108018875122
-0.1627907156944275 0.08149449527263641 -0.7984496355056763
-0.1627907156944275 0.07321523874998093 -0.7829457521438599
-0.1627907156944275 0.08956914395093918 0.6589146852493286
-0.1627907156944275 0.1035296693444252 -0.7984496355056763
-0.1627907156944275 0.11072501540184021 -0.7829457521438599
-0.1627907156944275 0.11725534498691559 -0.7674418687820435
-0.1627907156944275 0.12115181237459183 -0.751937985420227
-0.1627907156944275 0.12529972195625305 -0.7364341020584106
-0.1627907156944275 0.1301788091659546 -0.7209302186965942
-0.1627907156944275 0.13002094626426697 -0.41085273027420044
-0.1627907156944275 0.12830853462219238 -0.39534884691238403
-0.1627907156944275 0.1272381842136383 -0.3798449635505676
-0.1627907156944275 0.12688657641410828 -0.3643410801887512
-0.1627907156944275 0.12708336114883423 -0.3488371968269348
-0.1627907156944275 0.12866944074630737 -0.3333333134651184
-0.1627907156944275 0.13144072890281677 -0.317829430103302
-0.1627907156944275 0.13499142229557037 -0.7054262757301331
-0.1627907156944275 0.139844611287117 -0.6899224519729614
-0.1627907156944275 0.14501798152923584 -0.674418568611145
-0.1627907156944275 0.14464576542377472 -0.4883720874786377
-0.1627907156944275 0.14149555563926697 -0.4728682041168213
-0.1627907156944275 0.13799026608467102 -0.4573643207550049
-0.1627907156944275 0.13499236106872559 -0.4418604373931885
-0.1627907156944275 0.1324024349451065 -0.42635661363601685
-0.16279073059558868 0.13405488431453705 -0.30232560634613037
-0.1627907156944275 0.13794027268886566 -0.28682172298431396
-0.1627907156944275 0.1436721682548523 -0.27131783962249756
-0.1627907156944275 0.14921246469020844 -0.6589146852493286
-0.1627907156944275 0.15148934721946716 -0.6434108018875122
-0.1627907156944275 0.15263032913208008 -0.6279069781303406
-0.1627907156944275 0.15292905271053314 -0.6124030947685242
-0.1627907156944275 0.15270492434501648 -0.5968992710113525
-0.1627907156944275 0.15236824750900269 -0.5813953876495361
-0.1627907156944275 0.15185779333114624 -0.5658915042877197
-0.1627907156944275 0.15115824341773987 -0.5503876209259033
-0.1627907156944275 0.1505541056394577 -0.5348837375640869
-0.1627907156944275 0.14951319992542267 -0.5193798542022705
-0.1627907156944275 0.1477964073419571 -0.5038759708404541
-0.1627907156944275 0.14889071881771088 -0.25581395626068115
-0.1627907156944275 0.15390917658805847 -0.24031007289886475
-0.1627907156944275 0.1602780967950821 -0.22480618953704834
-0.1627907156944275 0.16491729021072388 -0.20930230617523193
-0.1627907156944275 0.17001765966415405 -0.19379842281341553
-0.1627907156944275 0.17556694149971008 -0.1782945990562439
-0.1627907156944275 0.1787799745798111 -0.1627907156944275
-0.1627907156944275 0.18104341626167297 -0.14728683233261108
-0.1627907156944275 0.18344129621982574 -0.13178294897079468
-0.1627907156944275 0.18553584814071655 -0.11627906560897827
-0.1627907156944275 0.1868048906326294 -0.10077518224716187
-0.1627907156944275 0.1890021562576294 -0.08527129888534546
-0.1627907156944275 0.19348539412021637 -0.06976741552352905
-0.1627907156944275 0.19268140196800232 -0.05426359176635742
-0.1627907156944275 0.1925600916147232 -0.038759708404541016
-0.1627907156944275 0.19270171225070953 -0.02325582504272461
-0.1627907156944275 0.19288337230682373 -0.007751941680908203
-0.1627907156944275 0.19292527437210083 0.007751941680908203
-0.1627907156944275 0.19323301315307617 0.02325582504272461
-0.1627907156944275 0.1935516893863678 0.1472867727279663
-0.1627907156944275 0.19230660796165466 0.16279065608978271
-0.1627907156944275 0.19140690565109253 0.17829453945159912
-0.1627907156944275 0.1909935176372528 0.19379842281341553
-0.1627907156944275 0.19091357290744781 0.20930230617523193
-0.1627907156944275 0.19156214594841003 0.22480618953704834
-0.1627907156944275 0.1925671249628067 0.24031007289886475
-0.1627907156944275 0.1862836480140686 0.6589146852493286
-0.1627907156944275 0.1939074844121933 0.038759708404541016
-0.1627907156944275 0.194540873169899 0.05426359176635742
-0.16279073059558868 0.1951204389333725 0.06976747512817383
-0.1627907156944275 0.19519494473934174 0.08527135848999023
-0.1627907156944275 0.19548086822032928 0.10077524930238724
-0.1627907156944275 0.19562460482120514 0.11627912521362305
-0.1627907156944275 0.19491702318191528 0.1317828893661499
-0.1627907156944275 0.1945817917585373 0.25581395626068115
-0.1627907156944275 0.19747406244277954 0.27131783962249756
-0.1627907156944275 0.19903209805488586 0.28682172298431396
-0.1627907156944275 0.19964608550071716 0.30232560634613037
-0.1627907156944275 0.1995113492012024 0.3178294897079468
-0.1627907156944275 0.19893860816955566 0.3333333730697632
-0.1627907156944275 0.1985662877559662 0.3488372564315796
-0.1627907156944275 0.1987905651330948 0.364341139793396
-0.1627907156944275 0.2000378519296646 0.37984490394592285
-0.1627907156944275 0.20241066813468933 0.39534878730773926
-0.1627907156944275 0.20578956604003906 0.41085267066955566
-0.1627907156944275 0.20570281147956848 0.6434108018875122
-0.1627907156944275 0.2096381038427353 0.4263565242290497
-0.1627907156944275 0.21407082676887512 0.44186046719551086
-0.1627907156944275 0.2182462215423584 0.4573643207550049
-0.1627907156944275 0.22098900377750397 0.4728682041168213
-0.1627907156944275 0.22257649898529053 0.4883720874786377
-0.1627907156944275 0.22344814240932465 0.5038759708404541
-0.1627907156944275 0.22370779514312744 0.5193798542022705
-0.1627907156944275 0.22412586212158203 0.5348837375640869
-0.1627907156944275 0.2234024554491043 0.612403154373169
-0.1627907156944275 0.2175072580575943 0.6279069185256958
-0.1627907007932663 0.22482119500637054 0.5503876209259033
-0.1627907156944275 0.22548964619636536 0.5658915042877197
-0.1627907156944275 0.22610029578208923 0.5813953876495361
-0.1627907156944275 0.22587116062641144 0.5968992710113525
-0.14728683233261108 -0.05427003651857376 -0.3333333134651184
-0.14728683233261108 -0.05533476918935776 -0.317829430103302
-0.14728683233261108 -0.05600786954164505 -0.30232560634613037
-0.14728683233261108 -0.056153714656829834 -0.28682172298431396
-0.14728683233261108 -0.05598984658718109 -0.27131783962249756
-0.14728683233261108 -0.05547603964805603 -0.25581395626068115
-0.14728683233261108 -0.054727207869291306 -0.24031007289886475
-0.14728683233261108 -0.038779936730861664 -0.42635661363601685
-0.14728683233261108 -0.04105334356427193 -0.41085273027420044
-0.14728683233261108 -0.04363631457090378 -0.39534884691238403
-0.14728683233261108 -0.04603670537471771 -0.3798449635505676
-0.14728683233261108 -0.04868267476558685 -0.3643410801887512
-0.14728683233261108 -0.05114096403121948 -0.3488371968269348
-0.14728683233261108 -0.05313175916671753 -0.22480618953704834
-0.14728683233261108 -0.051554325968027115 -0.20930230617523193
-0.14728683233261108 -0.05060362070798874 -0.19379842281341553
-0.14728683233261108 -0.050159603357315063 -0.1782945990562439
-0.14728683233261108 -0.04968657344579697 -0.1627907156944275
-0.14728683233261108 -0.04935119301080704 -0.14728683233261108
-0.14728683233261108 -0.04947881028056145 -0.13178294897079468
-0.14728683233261108 -0.04947589710354805 -0.11627906560897827
-0.14728683233261108 -0.04860338568687439 -0.10077518224716187
-0.14728683233261108 -0.04655933007597923 -0.08527129888534546
-0.14728683233261108 -0.04454735666513443 -0.06976741552352905
-0.14728683233261108 -0.04287393391132355 -0.05426359176635742
-0.14728683233261108 -0.042392194271087646 -0.038759708404541016
-0.14728683233261108 -0.042200393974781036 -0.02325582504272461
-0.14728683233261108 -0.04263436421751976 -0.007751941680908203
-0.14728683233261108 -0.04376479983329773 0.007751941680908203
-0.14728683233261108 -0.04542744904756546 0.02325582504272461
-0.14728683233261108 -0.04689650237560272 0.038759708404541016
-0.14728683233261108 -0.04734989255666733 0.05426359176635742
-0.14728683233261108 -0.04699929058551788 0.06976747512817383
-0.14728683233261108 -0.04530780017375946 0.08527135848999023
-0.14728683233261108 -0.04266435652971268 0.10077524185180664
-0.14728683233261108 -0.03971235826611519 0.11627912521362305
-0.14728683233261108 -0.024043982848525047 -0.4573643207550049
-0.14728683233261108 -0.031269371509552 -0.4418604373931885
-0.14728683233261108 -0.03705494850873947 0.1317828893661499
-0.14728683233261108 -0.03421500325202942 0.1472867727279663
-0.14728683233261108 -0.03125792369246483 0.16279065608978271
-0.14728683233261108 -0.028906740248203278 0.17829453945159912
-0.14728683233261108 -0.027209719642996788 0.19379842281341553
-0.14728683233261108 -0.02576543763279915 0.20930230617523193
-0.14728683233261108 -0.024439556524157524 0.22480618953704834
-0.14728683233261108 -0.023363791406154633 0.24031007289886475
-0.14728683233261108 -0.01444375328719616 -0.4728682041168213
-0.14728683233261108 -0.022049596533179283 0.25581395626068115
-0.14728683233261108 -0.02044758014380932 0.27131783962249756
-0.14728683233261108 -0.01837495155632496 0.28682172298431396
-0.14728683233261108 -0.0155419260263443 0.30232560634613037
-0.14728683233261108 -0.01302671805024147 0.3178294897079468
-0.14728683233261108 -0.010722991079092026 0.3333333730697632
-0.14728683233261108 -0.008935809135437012 0.3488372564315796
-0.14728683233261108 -0.007894383743405342 0.364341139793396
-0.14728683233261108 -0.007926924154162407 0.42635655403137207
-0.14728683233261108 0.0014552196953445673 -0.5038759708404541
-0.14728683233261108 -0.006881291978061199 -0.4883721172809601
-0.14728683233261108 -0.007322084158658981 0.37984487414360046
-0.14728683233261108 -0.007356144487857819 0.39534878730773926
-0.14728683233261108 -0.007703492883592844 0.41085267066955566
-0.14728683233261108 -0.007716064341366291 0.4418604075908661
-0.1472868174314499 -0.006923462729901075 0.4573643207550049
-0.14728683233261108 -0.005133185535669327 0.4728682041168213
-0.14728683233261108 -0.002418205374851823 0.4883720874786377
-0.14728683233261108 0.0011071478947997093 0.5038759708404541
-0.14728683233261108 0.0038953430484980345 0.5193798542022705
-0.14728683233261108 0.0055415816605091095 0.5348837375640869
-0.14728683233261108 0.0067922938615083694 0.5503876209259033
-0.14728683233261108 0.02235250547528267 -0.5503876209259033
-0.14728683233261108 0.016691572964191437 -0.5348837375640869
-0.14728683233261108 0.008266827091574669 -0.5193798542022705
-0.14728683233261108 0.008418535813689232 0.5658915042877197
-0.14728683233261108 0.011701727285981178 0.5813953876495361
-0.14728683233261108 0.01732231117784977 0.5968992710113525
-0.14728683233261108 0.037247203290462494 -0.5968992114067078
-0.14728683233261108 0.034270286560058594 -0.5813953876495361
-0.14728683233261108 0.029342452064156532 -0.5658915042877197
-0.14728683233261108 0.026539389044046402 0.612403154373169
-0.14728683233261108 0.0538586787879467 -0.6589146852493286
-0.14728683233261108 0.051010917872190475 -0.643410861492157
-0.14728683233261108 0.04732183367013931 -0.6279069781303406
-0.14728683233261108 0.04193839803338051 -0.6124030947685242
-0.14728683233261108 0.03985186293721199 0.6279069185256958
-0.14728683233261108 0.06670989096164703 -0.7054263353347778
-0.14728683233261108 0.06308986246585846 -0.6899224519729614
-0.14728683233261108 0.058725737035274506 -0.674418568611145
-0.14728683233261108 0.05931926891207695 0.6434108018875122
-0.14728683233261108 0.08160340785980225 -0.7364341020584106
-0.14728683233261108 0.07255224138498306 -0.7209302186965942
-0.14728683233261108 0.08059659600257874 0.6589146852493286
-0.14728683233261108 0.0988764688372612 -0.7364341020584106
-0.14728683233261108 0.10616795718669891 -0.7209302186965942
-0.14728683233261108 0.11244586855173111 -0.7054263353347778
-0.14728683233261108 0.11818331480026245 -0.6899224519729614
-0.14728683233261108 0.12347817420959473 -0.674418568611145
-0.14728683233261108 0.1299242228269577 -0.6589146852493286
-0.14728683233261108 0.12985500693321228 -0.4573643207550049
-0.14728683233261108 0.1264561116695404 -0.4418604373931885
-0.14728683233261108 0.12359872460365295 -0.42635661363601685
-0.14728683233261108 0.12193731963634491 -0.41085273027420044
-0.14728683233261108 0.12115521728992462 -0.39534881711006165
-0.14728683233261108 0.12085654586553574 -0.3798449635505676
-0.14728683233261108 0.12122878432273865 -0.3643410801887512
-0.14728683233261108 0.12202928960323334 -0.3488371968269348
-0.14728683233261108 0.12401255965232849 -0.3333333134651184
-0.14728683233261108 0.1270786076784134 -0.317829430103302
-0.14728683233261108 0.11980229616165161 0.674418568611145
-0.14728683233261108 0.13443945348262787 -0.643410861492157
-0.14728683233261108 0.1371709406375885 -0.6279069781303406
-0.14728683233261108 0.1389767825603485 -0.6124030947685242
-0.14728683233261108 0.13955381512641907 -0.5968992114067078
-0.14728683233261108 0.13959535956382751 -0.5813953876495361
-0.14728683233261108 0.13946235179901123 -0.5658915042877197
-0.14728683233261108 0.1391073763370514 -0.5503876209259033
-0.14728683233261108 0.13894526660442352 -0.5348837375640869
-0.14728683233261108 0.13852468132972717 -0.5193798542022705
-0.14728683233261108 0.13712283968925476 -0.5038759708404541
-0.14728683233261108 0.13484090566635132 -0.4883720874786377
-0.14728683233261108 0.13282153010368347 -0.4728682041168213
-0.14728683233261108 0.1320466250181198 -0.30232560634613037
-0.14728683233261108 0.13577017188072205 -0.28682172298431396
-0.14728683233261108 0.14141185581684113 -0.27131783962249756
-0.14728683233261108 0.14801941812038422 -0.25581395626068115
-0.14728683233261108 0.15312299132347107 -0.24031007289886475
-0.14728683233261108 0.16003690659999847 -0.22480618953704834
-0.14728683233261108 0.1539178192615509 0.674418568611145
-0.14728683233261108 0.16578739881515503 -0.20930230617523193
-0.14728683233261108 0.17283637821674347 -0.19379842281341553
-0.14728683233261108 0.17876854538917542 -0.1782945841550827
-0.14728683233261108 0.18229177594184875 -0.1627907156944275
-0.14728683233261108 0.18686719238758087 -0.14728683233261108
-0.14728683233261108 0.19110938906669617 -0.13178294897079468
-0.14728683233261108 0.19388563930988312 -0.11627906560897827
-0.14728683233261108 0.1945365071296692 -0.10077518224716187
-0.14728683233261108 0.1968173384666443 -0.08527129888534546
-0.14728683233261108 0.20011715590953827 -0.06976741552352905
-0.14728683233261108 0.20089195668697357 -0.05426359176635742
-0.14728683233261108 0.2015015184879303 -0.038759708404541016
-0.14728683233261108 0.2018582820892334 -0.02325582504272461
-0.14728683233261108 0.20219682157039642 -0.007751941680908203
-0.14728683233261108 0.2024262696504593 0.007751941680908203
-0.14728683233261108 0.20280097424983978 0.02325582504272461
-0.14728683233261108 0.20334231853485107 0.038759708404541016
-0.14728683233261108 0.20394879579544067 0.05426359176635742
-0.14728683233261108 0.2044316977262497 0.06976747512817383
-0.14728683233261108 0.2047731876373291 0.08527135848999023
-0.14728683233261108 0.2052953690290451 0.10077524185180664
-0.14728683233261108 0.20575742423534393 0.11627912521362305
-0.14728683233261108 0.20563143491744995 0.1317828893661499
-0.14728683233261108 0.20492348074913025 0.1472867727279663
-0.14728683233261108 0.20402687788009644 0.16279065608978271
-0.14728683233261108 0.20304423570632935 0.17829453945159912
-0.14728683233261108 0.2025788128376007 0.19379842281341553
-0.14728683233261108 0.20265555381774902 0.20930230617523193
-0.14728683233261108 0.20362858474254608 0.22480618953704834
-0.14728683233261108 0.20476683974266052 0.24031007289886475
-0.14728683233261108 0.2063523381948471 0.25581395626068115
-0.14728683233261108 0.20790080726146698 0.27131783962249756
-0.14728683233261108 0.2090265154838562 0.28682172298431396
-0.14728683233261108 0.19711387157440186 0.6589146852493286
-0.14728683233261108 0.20981581509113312 0.30232560634613037
-0.14728683233261108 0.21014942228794098 0.3178294897079468
-0.14728683233261108 0.21008558571338654 0.33333340287208557
-0.14728683233261108 0.21003341674804688 0.3488372564315796
-0.14728683233261108 0.2103857845067978 0.3643411695957184
-0.14728683233261108 0.2117171585559845 0.37984490394592285
-0.14728683233261108 0.21418970823287964 0.39534878730773926
-0.14728683233261108 0.21780554950237274 0.41085267066955566
-0.14728683233261108 0.22158870100975037 0.42635655403137207
-0.14728683233261108 0.22366777062416077 0.6279069185256958
-0.14728683233261108 0.2144451141357422 0.6434108018875122
-0.14728683233261108 0.2248666137456894 0.4418604373931885
-0.14728683233261108 0.22829176485538483 0.4573643207550049
-0.14728683233261108 0.23054815828800201 0.4728682041168213
-0.14728683233261108 0.2316827028989792 0.4883720874786377
-0.14728683233261108 0.23225358128547668 0.5038759708404541
-0.14728683233261108 0.23225848376750946 0.5193798542022705
-0.14728683233261108 0.23238351941108704 0.5348837375640869
-0.14728683233261108 0.23271456360816956 0.5503876209259033
-0.14728683233261108 0.23318913578987122 0.5658915042877197
-0.14728683233261108 0.23358964920043945 0.5813953876495361
-0.14728683233261108 0.2332911193370819 0.5968992710113525
-0.14728683233261108 0.2301332652568817 0.612403154373169
-0.13178294897079468 -0.05488648638129234 -0.317829430103302
-0.13178294897079468 -0.05577179417014122 -0.30232560634613037
-0.13178294897079468 -0.056109167635440826 -0.28682172298431396
-0.13178294897079468 -0.05612741410732269 -0.27131783962249756
-0.13178294897079468 -0.05578989163041115 -0.25581395626068115
-0.13178294897079468 -0.05521285533905029 -0.24031007289886475
-0.13178294897079468 -0.05453023314476013 -0.22480618953704834
-0.13178294897079468 -0.03998132795095444 -0.39534884691238403
-0.13178294897079468 -0.043218690901994705 -0.3798449635505676
-0.13178294897079468 -0.04637163132429123 -0.3643410801887512
-0.13178294897079468 -0.04912221059203148 -0.3488371968269348
-0.13178294897079468 -0.05207505449652672 -0.3333333134651184
-0.13178294897079468 -0.053561676293611526 -0.20930230617523193
-0.13178294897079468 -0.052570637315511703 -0.19379842281341553
-0.13178294897079468 -0.052228424698114395 -0.1782945990562439
-0.13178294897079468 -0.05195939913392067 -0.1627907156944275
-0.13178294897079468 -0.052048008888959885 -0.14728683233261108
-0.13178294897079468 -0.05307191610336304 -0.13178294897079468
-0.13178294897079468 -0.053611066192388535 -0.11627906560897827
-0.13178294897079468 -0.052010539919137955 -0.10077518224716187
-0.13178294897079468 -0.050044119358062744 -0.08527129888534546
-0.13178294897079468 -0.04841933026909828 -0.06976741552352905
-0.13178294897079468 -0.04723857343196869 -0.05426359176635742
-0.13178294897079468 -0.047197841107845306 -0.038759708404541016
-0.13178294897079468 -0.047375671565532684 -0.02325582504272461
-0.13178294897079468 -0.04818397015333176 -0.007751941680908203
-0.13178294897079468 -0.04922186955809593 0.007751941680908203
-0.13178294897079468 -0.05038681626319885 0.02325582504272461
-0.13178294897079468 -0.05217356234788895 0.038759708404541016
-0.13178294897079468 -0.0534403994679451 0.05426359176635742
-0.13178294897079468 -0.05372238904237747 0.06976747512817383
-0.13178294897079468 -0.052357908338308334 0.08527135848999023
-0.13178294897079468 -0.050554871559143066 0.10077524185180664
-0.13178294897079468 -0.048474814742803574 0.11627912521362305
-0.13178294897079468 -0.046372391283512115 0.1317828893661499
-0.13178294897079468 -0.044595666229724884 0.1472867727279663
-0.13178294897079468 -0.04289812967181206 0.16279065608978271
-0.13178294897079468 -0.04132475703954697 0.17829453945159912
-0.13178294897079468 -0.04013463482260704 0.19379842281341553
-0.13178294897079468 -0.03924478590488434 0.20930230617523193
-0.13178294897079468 -0.026852615177631378 -0.42635661363601685
-0.13178294897079468 -0.03417466580867767 -0.41085273027420044
-0.13178294897079468 -0.038226738572120667 0.22480618953704834
-0.13178294897079468 -0.036824747920036316 0.24031007289886475
-0.13178294897079468 -0.035307131707668304 0.25581395626068115
-0.13178294897079468 -0.032932113856077194 0.27131783962249756
-0.13178294897079468 -0.030289752408862114 0.28682172298431396
-0.13178294897079468 -0.028147272765636444 0.30232560634613037
-0.13178294897079468 -0.026202857494354248 0.3178294897079468
-0.13178294897079468 -0.02456015534698963 0.3333333730697632
-0.13178294897079468 -0.023452574387192726 0.3488372564315796
-0.13178294897079468 -0.016964849084615707 -0.4418604373931885
-0.13178293406963348 -0.02252730168402195 0.3643411099910736
-0.13178294897079468 -0.02213667705655098 0.37984490394592285
-0.13178294897079468 -0.02223210223019123 0.39534881711006165
-0.13178294897079468 -0.02263081818819046 0.41085267066955566
-0.13178296387195587 -0.02304314449429512 0.42635658383369446
-0.13178294897079468 -0.02289467491209507 0.4418604373931885
-0.13178294897079468 -0.02232593670487404 0.4573643207550049
-0.13178294897079468 -0.020916001871228218 0.4728682041168213
-0.13178294897079468 -0.018524732440710068 0.4883720874786377
-0.13178294897079468 -0.015302128158509731 0.5038759708404541
-0.13178294897079468 -0.012406391091644764 0.5193798542022705
-0.13178294897079468 -0.010149713605642319 0.5348837375640869
-0.13178294897079468 -0.00819896999746561 0.5503876209259033
-0.13178294897079468 0.0009822146967053413 -0.4728682041168213
-0.13178294897079468 -0.00774842593818903 -0.4573643207550049
-0.13178294897079468 -0.005708285607397556 0.5658915042877197
-0.13178294897079468 -0.0016992331948131323 0.5813953876495361
-0.13178294897079468 0.004695766605436802 0.5968992710113525
-0.13178294897079468 0.02185961790382862 -0.5193798542022705
-0.13178294897079468 0.015377916395664215 -0.5038759708404541
-0.13178294897079468 0.007921629585325718 -0.4883720874786377
-0.13178294897079468 0.014132448472082615 0.612403154373169
-0.13178294897079468 0.03589605540037155 -0.5503876209259033
-0.13178294897079468 0.029797669500112534 -0.5348837375640869
-0.13178294897079468 0.028051279485225677 0.6279069185256958
-0.13178294897079468 0.05299314111471176 -0.5968992114067078
-0.13178294897079468 0.04930504783987999 -0.5813953876495361
-0.13178294897079468 0.042773470282554626 -0.5658915042877197
-0.13178294897079468 0.046939730644226074 0.6434108018875122
-0.13178294897079468 0.06660580635070801 -0.6279069781303406
-0.13178294897079468 0.059703342616558075 -0.6124030947685242
-0.13178294897079468 0.06876275688409805 0.6589146852493286
-0.13178294897079468 0.07511109858751297 -0.643410861492157
-0.13178294897079468 0.09391302615404129 -0.643410861492157
-0.13178294897079468 0.0963979959487915 0.674418568611145
-0.13178294897079468 0.10289573669433594 -0.6279069781303406
-0.13178294897079468 0.10786310583353043 -0.6124030947685242
-0.13178294897079468 0.11069892346858978 -0.5968992114067078
-0.13178294897079468 0.11216525733470917 -0.5813953876495361
-0.13178294897079468 0.11340267956256866 -0.5658915042877197
-0.13178294897079468 0.11417721956968307 -0.5503876209259033
-0.13178294897079468 0.11469653248786926 -0.5348837375640869
-0.13178294897079468 0.11522312462329865 -0.5193798542022705
-0.13178294897079468 0.11494894325733185 -0.5038759708404541
-0.13178294897079468 0.11325319111347198 -0.4883720874786377
-0.13178294897079468 0.1117929071187973 -0.4728682041168213
-0.13178294897079468 0.11079449951648712 -0.4573643207550049
-0.13178294897079468 0.11012394726276398 -0.4418604373931885
-0.13178294897079468 0.10943309217691422 -0.42635661363601685
-0.13178294897079468 0.10965526103973389 -0.41085273027420044
-0.13178294897079468 0.11078567802906036 -0.39534884691238403
-0.13178294897079468 0.11237041652202606 -0.3798449635505676
-0.13178294897079468 0.11507654190063477 -0.3643410801887512
-0.13178294897079468 0.11709924042224884 -0.3488371670246124
-0.13178294897079468 0.11903616786003113 -0.3333333134651184
-0.13178294897079468 0.12175591289997101 -0.317829430103302
-0.13178294897079468 0.1261754184961319 -0.30232560634613037
-0.13178293406963348 0.13214300572872162 -0.28682172298431396
-0.13178294897079468 0.13684745132923126 -0.27131783962249756
-0.13178294897079468 0.1428215652704239 -0.25581395626068115
-0.13178294897079468 0.1490785777568817 -0.24031007289886475
-0.13178294897079468 0.15480473637580872 -0.22480618953704834
-0.13178294897079468 0.1633085459470749 -0.20930230617523193
-0.13178294897079468 0.16996002197265625 -0.19379842281341553
-0.13178294897079468 0.17803813517093658 0.674418568611145
-0.13178294897079468 0.17886729538440704 -0.1782945990562439
-0.13178294897079468 0.18444961309432983 -0.1627907156944275
-0.13178294897079468 0.1927177757024765 -0.14728683233261108
-0.13178294897079468 0.19631153345108032 -0.13178294897079468
-0.13178294897079468 0.1990285962820053 -0.11627906560897827
-0.13178294897079468 0.2010839730501175 -0.10077518224716187
-0.13178294897079468 0.20412799715995789 -0.08527129888534546
-0.13178294897079468 0.20906193554401398 -0.06976741552352905
-0.13178294897079468 0.2092100828886032 -0.05426359176635742
-0.13178294897079468 0.20474554598331451 0.6589146852493286
-0.13178294897079468 0.20976780354976654 -0.038759708404541016
-0.13178294897079468 0.21020196378231049 -0.02325582318007946
-0.13178294897079468 0.21053749322891235 -0.007751941680908203
-0.13178294897079468 0.21057192981243134 0.007751941680908203
-0.13178294897079468 0.21054908633232117 0.02325582504272461
-0.13178294897079468 0.21061189472675323 0.038759708404541016
-0.13178294897079468 0.21084880828857422 0.05426359176635742
-0.13178294897079468 0.21127676963806152 0.06976747512817383
-0.13178294897079468 0.21200841665267944 0.08527135848999023
-0.13178294897079468 0.21293866634368896 0.10077524185180664
-0.13178294897079468 0.2136957347393036 0.11627912521362305
-0.13178294897079468 0.21362407505512238 0.1317828893661499
-0.13178294897079468 0.21278758347034454 0.1472867727279663
-0.13178294897079468 0.211618572473526 0.1627906709909439
-0.13178294897079468 0.21055996417999268 0.17829452455043793
-0.13178294897079468 0.2101656049489975 0.19379842281341553
-0.13178294897079468 0.21057869493961334 0.20930230617523193
-0.13178294897079468 0.2121754288673401 0.22480618953704834
-0.13178294897079468 0.21416829526424408 0.24031007289886475
-0.13178294897079468 0.2165689766407013 0.25581395626068115
-0.13178294897079468 0.2188839614391327 0.27131783962249756
-0.13178294897079468 0.22020068764686584 0.28682172298431396
-0.13178294897079468 0.22101429104804993 0.30232560634613037
-0.13178294897079468 0.22145912051200867 0.3178294897079468
-0.13178294897079468 0.2214943766593933 0.3333333730697632
-0.13178294897079468 0.22161084413528442 0.3488372564315796
-0.13178294897079468 0.2220963090658188 0.364341139793396
-0.13178294897079468 0.22307781875133514 0.37984490394592285
-0.13178294897079468 0.22475259006023407 0.39534878730773926
-0.13178294897079468 0.21960711479187012 0.6434108018875122
-0.13178294897079468 0.2276592254638672 0.41085267066955566
-0.13178294897079468 0.23121225833892822 0.42635655403137207
-0.13178294897079468 0.2345012128353119 0.4418604373931885
-0.13178294897079468 0.2367548644542694 0.4573643207550049
-0.13178294897079468 0.2382296323776245 0.4728682041168213
-0.13178294897079468 0.23894795775413513 0.4883720874786377
-0.13178294897079468 0.23919153213500977 0.5038759708404541
-0.13178294897079468 0.23887908458709717 0.5193798542022705
-0.13178294897079468 0.2385602593421936 0.5348837375640869
-0.13178294897079468 0.2383262813091278 0.5503876209259033
-0.13178294897079468 0.23821651935577393 0.5658915042877197
-0.13178294897079468 0.2379683405160904 0.5813953876495361
-0.13178294897079468 0.2369769960641861 0.5968992710113525
-0.13178294897079468 0.23469921946525574 0.612403154373169
-0.13178294897079468 0.22907765209674835 0.6279069185256958
-0.11627906560897827 -0.05445188656449318 -0.28682172298431396
-0.11627906560897827 -0.05473257601261139 -0.27131783962249756
-0.11627906560897827 -0.05463882163167 -0.25581395626068115
-0.11627906560897827 -0.05430983006954193 -0.24031007289886475
-0.11627906560897827 -0.055253323167562485 -0.13178294897079468
-0.11627906560897827 -0.05593840405344963 -0.11627906560897827
-0.11627906560897827 -0.055216655135154724 -0.10077518224716187
-0.11627906560897827 -0.05432385578751564 0.007751941680908203
-0.11627906560897827 -0.055953506380319595 0.02325582504272461
-0.11627906560897827 -0.057944606989622116 0.038759708404541016
-0.11627906560897827 -0.05890990048646927 0.05426359176635742
-0.11627906560897827 -0.0591251403093338 0.06976747512817383
-0.11627906560897827 -0.05845974385738373 0.08527135848999023
-0.11627906560897827 -0.057139452546834946 0.10077524185180664
-0.11627906560897827 -0.0556834451854229 0.11627912521362305
-0.11627906560897827 -0.05467930808663368 0.1317828893661499
-0.11627906560897827 -0.03986857458949089 -0.3643410801887512
-0.11627906560897827 -0.04420177638530731 -0.3488371968269348
-0.11627906560897827 -0.04762702435255051 -0.3333333134651184
-0.11627906560897827 -0.050515081733465195 -0.317829430103302
-0.11627906560897827 -0.053002700209617615 -0.30232560634613037
-0.11627906560897827 -0.053093262016773224 -0.22480618953704834
-0.11627906560897827 -0.05238191783428192 -0.20930229127407074
-0.11627906560897827 -0.05212167277932167 -0.19379843771457672
-0.11627905815839767 -0.052382439374923706 -0.1782945990562439
-0.11627906560897827 -0.05292088910937309 -0.1627907007932663
-0.11627906560897827 -0.05413901433348656 -0.14728683233261108
-0.11627905815839767 -0.05278213322162628 -0.08527129143476486
-0.11627906560897827 -0.05083907023072243 -0.06976741552352905
-0.11627906560897827 -0.05013096332550049 -0.05426359176635742
-0.11627906560897827 -0.0504317432641983 -0.038759708404541016
-0.11627906560897827 -0.05086221918463707 -0.02325582690536976
-0.11627906560897827 -0.05215276777744293 -0.007751941680908203
-0.11627905815839767 -0.05403940752148628 0.1472867727279663
-0.11627906560897827 -0.05318713188171387 0.16279065608978271
-0.11627905815839767 -0.0522787943482399 0.17829453945159912
-0.11627906560897827 -0.05139433965086937 0.19379842281341553
-0.11627906560897827 -0.05033311992883682 0.20930230617523193
-0.11627905815839767 -0.04875468462705612 0.22480618953704834
-0.11627906560897827 -0.04699571430683136 0.24031007289886475
-0.11627906560897827 -0.04540463536977768 0.25581395626068115
-0.11627906560897827 -0.04347888380289078 0.27131783962249756
-0.11627906560897827 -0.0414566770195961 0.28682172298431396
-0.11627906560897827 -0.03982226550579071 0.30232560634613037
-0.11627906560897827 -0.02432958409190178 -0.39534884691238403
-0.11627905815839767 -0.03201643005013466 -0.3798449635505676
-0.11627906560897827 -0.038704801350831985 0.3178294897079468
-0.11627906560897827 -0.03691292554140091 0.3333333730697632
-0.11627906560897827 -0.03521828353404999 0.3488372564315796
-0.11627906560897827 -0.033936452120542526 0.364341139793396
-0.11627906560897827 -0.033412523567676544 0.37984490394592285
-0.11627906560897827 -0.03344907611608505 0.39534878730773926
-0.11627906560897827 -0.033843331038951874 0.41085267066955566
-0.11627906560897827 -0.03430406376719475 0.42635655403137207
-0.11627906560897827 -0.03415922448039055 0.4418604373931885
-0.11627906560897827 -0.03352740406990051 0.4573643207550049
-0.11627906560897827 -0.03178044408559799 0.4728682041168213
-0.11627906560897827 -0.029354024678468704 0.4883720874786377
-0.11627906560897827 -0.0266974326223135 0.5038759708404541
-0.11627906560897827 -0.023780126124620438 0.5193798542022705
-0.11627906560897827 -0.014460327103734016 -0.41085273027420044
-0.11627907305955887 -0.02106301486492157 0.5348837375640869
-0.11627906560897827 -0.01815316453576088 0.5503876209259033
-0.11627906560897827 -0.015666544437408447 0.5658915042877197
-0.11627906560897827 -0.011084437370300293 0.5813953876495361
-0.11627906560897827 0.001958294538781047 -0.4418604373931885
-0.11627906560897827 -0.005547476001083851 -0.42635661363601685
-0.11627906560897827 -0.004391973838210106 0.5968992710113525
-0.11627906560897827 0.004893120378255844 0.612403154373169
-0.11627906560897827 0.020246198400855064 -0.4883720874786377
-0.11627906560897827 0.01501113548874855 -0.4728682041168213
-0.11627906560897827 0.009107191115617752 -0.4573643207550049
-0.11627906560897827 0.018593275919556618 0.6279069185256958
-0.11627906560897827 0.033138126134872437 -0.5193798542022705
-0.11627906560897827 0.027460919693112373 -0.5038759708404541
-0.11627906560897827 0.036401525139808655 0.6434108018875122
-0.11627906560897827 0.04847365617752075 -0.5503876209259033
-0.11627906560897827 0.03966036066412926 -0.5348837375640869
-0.11627906560897827 0.0613672211766243 -0.5658915042877197
-0.11627906560897827 0.05734127759933472 0.6589146852493286
-0.11627907305955887 0.07423411309719086 -0.5658915042877197
-0.11627906560897827 0.08312208205461502 -0.5503876209259033
-0.11627906560897827 0.08064279705286026 0.674418568611145
-0.11627905815839767 0.08732527494430542 -0.5348837375640869
-0.11627906560897827 0.08971443772315979 -0.5193798542022705
-0.11627906560897827 0.09134469926357269 -0.5038759708404541
-0.11627906560897827 0.09220506995916367 -0.4883720874786377
-0.11627905815839767 0.09231291711330414 -0.4728682041168213
-0.11627906560897827 0.09237112104892731 -0.4573643207550049
-0.11627906560897827 0.09262248873710632 -0.4418604373931885
-0.11627906560897827 0.093113474547863 -0.42635661363601685
-0.11627906560897827 0.09460946917533875 -0.41085273027420044
-0.11627906560897827 0.09749384224414825 -0.39534884691238403
-0.11627906560897827 0.101112499833107 -0.3798449635505676
-0.11627906560897827 0.10343163460493088 -0.3643410801887512
-0.11627906560897827 0.10651496052742004 -0.3488371968269348
-0.11627906560897827 0.11139898002147675 -0.3333333134651184
-0.11627906560897827 0.11684247851371765 -0.317829430103302
-0.11627906560897827 0.12058548629283905 -0.30232560634613037
-0.11627906560897827 0.12516085803508759 -0.28682172298431396
-0.11627906560897827 0.13167425990104675 -0.27131783962249756
-0.11627906560897827 0.13601604104042053 -0.25581395626068115
-0.11627906560897827 0.14048373699188232 -0.24031007289886475
-0.11627906560897827 0.14736315608024597 -0.22480618953704834
-0.11627906560897827 0.15211793780326843 -0.20930230617523193
-0.11627905815839767 0.1634335219860077 -0.19379842281341553
-0.11627906560897827 0.17307783663272858 -0.1782945990562439
-0.11627905815839767 0.18352602422237396 -0.1627907156944275
-0.11627906560897827 0.1901257485151291 0.674418568611145
-0.11627906560897827 0.1950676143169403 -0.14728683233261108
-0.11627907305955887 0.20044752955436707 -0.13178294897079468
-0.11627906560897827 0.20521053671836853 -0.11627906560897827
-0.11627906560897827 0.2076192945241928 -0.10077518224716187
-0.11627906560897827 0.210784912109375 -0.08527129888534546
-0.11627906560897827 0.21406146883964539 -0.06976741552352905
-0.11627906560897827 0.21548429131507874 -0.05426359176635742
-0.11627906560897827 0.21650397777557373 -0.038759708404541016
-0.11627906560897827 0.21716977655887604 -0.02325582504272461
-0.11627906560897827 0.2178562432527542 -0.007751941680908203
-0.11627906560897827 0.21825839579105377 0.007751941680908203
-0.11627906560897827 0.21844972670078278 0.02325582504272461
-0.11627906560897827 0.21854251623153687 0.038759708404541016
-0.11627906560897827 0.21859398484230042 0.05426359176635742
-0.11627906560897827 0.2190103977918625 0.06976747512817383
