0.4728682041168213 0.16736450791358948 0.42635655403137207
0.4728682041168213 0.18214666843414307 0.4418604373931885
0.4728682041168213 0.18857133388519287 0.4573643207550049
0.4728682041168213 0.1897924840450287 0.4728682041168213
0.4728682041168213 0.18507444858551025 0.4883720874786377
0.4883720874786377 -0.01112823374569416 0.27131783962249756
0.4883720874786377 0.0001849103718996048 0.28682172298431396
0.4883720874786377 0.034426525235176086 0.27131783962249756
0.4883720874786377 0.03253726661205292 0.28682172298431396
0.4883720874786377 0.12302133440971375 0.41085267066955566
0.4883720874786377 0.1413038671016693 0.41085267066955566
0.4883720874786377 0.13337254524230957 0.4263565242290497
0.4883720874786377 0.1438407599925995 0.4418604373931885
0.4883720874786377 0.15961621701717377 0.4573643207550049
0.4883720576763153 0.16338936984539032 0.4263565242290497
0.4883720874786377 0.1751960664987564 0.4418604373931885
0.4883720576763153 0.1783190667629242 0.4573643207550049
0.5038759708404541 -0.00014219339936971664 0.27131783962249756
0.5038759708404541 0.016612300649285316 0.28682172298431396
0.5038759708404541 0.031690239906311035 0.27131783962249756
0.5038759708404541 0.025485005229711533 0.28682172298431396
-0.5193798542022705 0.11627912521362305 0.4099672734737396
-0.5193798542022705 0.11627912521362305 0.4121110141277313
-0.5038759708404541 0.08527135848999023 0.3909910321235657
-0.5038759708404541 0.08527135848999023 0.42519620060920715
-0.5038759708404541 0.10077524185180664 0.3923168182373047
-0.5038759708404541 0.10077524185180664 0.44907206296920776
-0.5038759708404541 0.11627912521362305 0.39445656538009644
-0.5038759708404541 0.11627912521362305 0.4897998869419098
-0.5038759708404541 0.1317828893661499 0.4048691391944885
-0.5038759708404541 0.1317828893661499 0.5009586811065674
-0.5038759708404541 0.1472867727279663 0.4387352764606476
-0.5038759708404541 0.1472867727279663 0.4972550570964813
-0.4883720874786377 0.038759708404541016 0.3776662349700928
-0.4883721172809601 0.038759712129831314 0.38168472051620483
-0.4883720874786377 0.05426359176635742 0.37671464681625366
-0.4883720874786377 0.05426359176635742 0.4080953598022461
-0.4883720874786377 0.06976747512817383 0.37898463010787964
-0.4883720874786377 0.06976747512817383 0.44175344705581665
-0.4883720874786377 0.08527135848999023 0.38675522804260254
-0.4883720874786377 0.08527135848999023 0.4941864013671875
-0.4883720874786377 0.10077524185180664 0.3906278908252716
-0.4883720874786377 0.10077524185180664 0.5119187831878662
-0.4883720874786377 0.11627912521362305 0.39267203211784363
-0.4883720576763153 0.11627911776304245 0.5201511979103088
-0.4883720874786377 0.1317828893661499 0.40066683292388916
-0.4883720874786377 0.1317828893661499 0.5229647159576416
-0.4883720874786377 0.1472867727279663 0.4227299392223358
-0.4883720874786377 0.1472867727279663 0.518054723739624
-0.4883720874786377 0.16279065608978271 0.48336392641067505
-0.4883720874786377 0.16279065608978271 0.49023112654685974
-0.4728682041168213 -0.02325582504272461 0.31357109546661377
-0.4728682041168213 -0.02325582504272461 0.33421194553375244
-0.4728682041168213 -0.007751941680908203 0.3289797902107239
-0.4728682041168213 -0.007751941215246916 0.34917858242988586
-0.4728682041168213 0.007751941680908203 0.34601879119873047
-0.4728682041168213 0.007751941680908203 0.3683147430419922
-0.4728682041168213 0.02325582504272461 0.3551478683948517
-0.4728682041168213 0.02325582504272461 0.3885313868522644
-0.4728682041168213 0.038759708404541016 0.36220481991767883
-0.4728682339191437 0.038759708404541016 0.4111495316028595
-0.4728681743144989 0.05426359176635742 0.37081778049468994
-0.4728682041168213 0.05426359176635742 0.44275498390197754
-0.4728682041168213 0.06976747512817383 0.3764638900756836
-0.4728682041168213 0.06976747512817383 0.4950007200241089
-0.4728682041168213 0.08527135848999023 0.3794092535972595
-0.4728682041168213 0.08527135848999023 0.5133373737335205
-0.4728682041168213 0.10077524185180664 0.38779550790786743
-0.4728682041168213 0.10077524185180664 0.5244944095611572
-0.4728682041168213 0.11627912521362305 0.390979528427124
-0.4728682041168213 0.11627912521362305 0.5312063097953796
-0.4728682041168213 0.1317828893661499 0.39512065052986145
-0.4728682041168213 0.1317828893661499 0.5331376791000366
-0.4728682041168213 0.1472867727279663 0.41501930356025696
-0.4728682041168213 0.1472867727279663 0.5282601714134216
-0.4728682041168213 0.16279065608978271 0.4655390679836273
-0.4728682041168213 0.16279065608978271 0.5105518102645874
-0.4573643207550049 -0.06976741552352905 0.2752520740032196
-0.4573643207550049 -0.06976741552352905 0.29770132899284363
-0.4573643207550049 -0.05426359176635742 0.27773091197013855
-0.4573643207550049 -0.05426359176635742 0.32569724321365356
-0.4573643207550049 -0.038759708404541016 0.28496477007865906
-0.4573643207550049 -0.038759708404541016 0.34151750802993774
-0.4573643207550049 -0.02325582504272461 0.2973814606666565
-0.45736435055732727 -0.02325582504272461 0.35396403074264526
-0.4573643207550049 -0.007751941680908203 0.3141619861125946
-0.45736435055732727 -0.007751941680908203 0.36901283264160156
-0.4573643207550049 0.00775194214656949 0.3342909812927246
-0.4573643207550049 0.007751941680908203 0.38598212599754333
-0.4573643207550049 0.02325582504272461 0.3465786278247833
-0.4573643207550049 0.02325582504272461 0.4055804908275604
-0.4573643207550049 0.038759708404541016 0.3572794795036316
-0.4573643207550049 0.038759708404541016 0.429826557636261
-0.4573643207550049 0.05426359176635742 0.3634662926197052
-0.4573643207550049 0.05426359176635742 0.4766026735305786
-0.4573643207550049 0.06976747512817383 0.3735908269882202
-0.4573643207550049 0.06976747512817383 0.5059791207313538
-0.4573643207550049 0.08527135848999023 0.3773583769798279
-0.4573643207550049 0.08527135848999023 0.5206806063652039
-0.45736435055732727 0.10077524185180664 0.38373756408691406
-0.4573643207550049 0.10077524185180664 0.5307514667510986
-0.4573643207550049 0.11627912521362305 0.3896111249923706
-0.4573643207550049 0.11627912521362305 0.5368183851242065
-0.4573643207550049 0.1317828893661499 0.39391395449638367
-0.45736435055732727 0.1317828893661499 0.5379276871681213
-0.4573643207550049 0.1472867727279663 0.41054651141166687
-0.4573643207550049 0.1472867727279663 0.5341445207595825
-0.4573642909526825 0.16279065608978271 0.4605221152305603
-0.4573643207550049 0.16279065608978271 0.5183261036872864
-0.4418604373931885 -0.08527129888534546 0.2560248076915741
-0.4418604373931885 -0.08527129888534546 0.2964996099472046
-0.4418604373931885 -0.06976741552352905 0.26352643966674805
-0.4418604373931885 -0.06976741552352905 0.3231428563594818
-0.4418604373931885 -0.05426359176635742 0.2700146734714508
-0.4418604373931885 -0.05426359176635742 0.3401643633842468
-0.4418604373931885 -0.038759708404541016 0.28149956464767456
-0.4418604373931885 -0.038759708404541016 0.351911723613739
-0.4418604373931885 -0.02325582504272461 0.2940971255302429
-0.4418604373931885 -0.02325582504272461 0.36480212211608887
-0.4418604373931885 -0.007751941680908203 0.311440646648407
-0.44186046719551086 -0.007751941680908203 0.3799741864204407
-0.4418604373931885 0.007751941680908203 0.3304222524166107
-0.4418604373931885 0.007751941680908203 0.39677894115448
-0.4418604373931885 0.02325582504272461 0.34305524826049805
-0.4418604373931885 0.02325582504272461 0.4166969954967499
-0.4418604373931885 0.038759708404541016 0.3524400591850281
-0.4418604373931885 0.038759708404541016 0.44474661350250244
-0.4418604373931885 0.05426359176635742 0.3613627851009369
-0.4418604373931885 0.05426359176635742 0.48882856965065
-0.4418604373931885 0.06976747512817383 0.3708590865135193
-0.4418604373931885 0.06976747512817383 0.5099171996116638
-0.4418604373931885 0.08527135848999023 0.3763235807418823
-0.4418604373931885 0.08527135848999023 0.5231046080589294
-0.4418604373931885 0.10077524185180664 0.3816397190093994
-0.4418604373931885 0.10077524185180664 0.5339643359184265
-0.4418604373931885 0.11627912521362305 0.389078289270401
-0.4418604373931885 0.11627912521362305 0.5394787788391113
-0.4418604373931885 0.1317828893661499 0.394074022769928
-0.4418604373931885 0.1317828893661499 0.5411458611488342
-0.4418604373931885 0.1472867727279663 0.41039425134658813
-0.4418604373931885 0.1472867727279663 0.5369580984115601
-0.4418604373931885 0.16279065608978271 0.4567529857158661
-0.4418604373931885 0.16279065608978271 0.5231487154960632
-0.42635661363601685 -0.19379842281341553 0.1438559591770172
-0.42635661363601685 -0.19379842281341553 0.14917771518230438
-0.42635661363601685 -0.1782945990562439 0.1399507075548172
-0.42635661363601685 -0.1782945990562439 0.18326015770435333
-0.42635661363601685 -0.1627907156944275 0.15320131182670593
-0.42635661363601685 -0.1627907156944275 0.2044125497341156
-0.42635661363601685 -0.14728683233261108 0.16391140222549438
-0.42635661363601685 -0.14728683233261108 0.22464585304260254
-0.42635661363601685 -0.13178294897079468 0.1777072697877884
-0.42635661363601685 -0.13178294897079468 0.24054990708827972
-0.42635661363601685 -0.10077518224716187 0.25566381216049194
-0.42635661363601685 -0.10077518224716187 0.28213533759117126
-0.42635661363601685 -0.08527129888534546 0.25912052392959595
-0.42635661363601685 -0.08527129888534546 0.31006163358688354
-0.42635661363601685 -0.06976741552352905 0.26559075713157654
-0.42635661363601685 -0.06976741552352905 0.33028942346572876
-0.42635661363601685 -0.05426359176635742 0.27097660303115845
-0.42635661363601685 -0.05426359176635742 0.34274089336395264
-0.42635661363601685 -0.038759708404541016 0.28336405754089355
-0.42635661363601685 -0.038759708404541016 0.3529169261455536
-0.42635661363601685 -0.02325582504272461 0.29831212759017944
-0.42635661363601685 -0.02325582504272461 0.36639976501464844
-0.42635661363601685 -0.007751941680908203 0.318959504365921
-0.42635661363601685 -0.007751941680908203 0.3822323977947235
-0.42635661363601685 0.007751941680908203 0.3356352746486664
-0.42635661363601685 0.007751941680908203 0.39839673042297363
-0.42635661363601685 0.02325582504272461 0.3453940153121948
-0.42635661363601685 0.02325582504272461 0.41966888308525085
-0.42635661363601685 0.038759708404541016 0.3544652462005615
-0.42635661363601685 0.038759708404541016 0.4478778541088104
-0.42635661363601685 0.05426359176635742 0.3622812032699585
-0.42635661363601685 0.05426359176635742 0.4864516854286194
-0.42635661363601685 0.06976747512817383 0.37182849645614624
-0.42635661363601685 0.06976747512817383 0.508139967918396
-0.42635661363601685 0.08527135848999023 0.3771069347858429
-0.42635661363601685 0.08527136594057083 0.521987795829773
-0.42635661363601685 0.10077524185180664 0.3846946060657501
-0.42635661363601685 0.10077524185180664 0.5333332419395447
-0.42635661363601685 0.11627912521362305 0.3902069330215454
-0.42635661363601685 0.11627912521362305 0.5402661561965942
-0.42635661363601685 0.1317828893661499 0.3974478244781494
-0.42635661363601685 0.1317828893661499 0.543703556060791
-0.42635661363601685 0.1472867727279663 0.4138631224632263
-0.42635661363601685 0.1472867727279663 0.5401570200920105
-0.42635661363601685 0.16279065608978271 0.4574489891529083
-0.42635661363601685 0.16279065608978271 0.5272829532623291
-0.41085273027420044 -0.20930230617523193 0.11198043823242188
-0.41085273027420044 -0.20930230617523193 0.1350526064634323
-0.41085273027420044 -0.19379842281341553 0.10772257298231125
-0.41085273027420044 -0.19379842281341553 0.17291265726089478
-0.41085273027420044 -0.1782945990562439 0.12140440195798874
-0.41085273027420044 -0.1782945990562439 0.19668695330619812
-0.41085273027420044 -0.1627907156944275 0.1447639763355255
-0.41085273027420044 -0.1627907156944275 0.2155088186264038
-0.41085273027420044 -0.14728683233261108 0.16059347987174988
-0.41085273027420044 -0.14728683233261108 0.2336048036813736
-0.41085273027420044 -0.13178294897079468 0.17552098631858826
-0.41085273027420044 -0.13178294897079468 0.24870827794075012
-0.41085273027420044 -0.10077518224716187 0.27124905586242676
-0.41085273027420044 -0.10077518224716187 0.2880089282989502
-0.41085273027420044 -0.08527129888534546 0.26994574069976807
-0.41085273027420044 -0.08527129888534546 0.3134818375110626
-0.41085273027420044 -0.06976741552352905 0.2739955484867096
-0.41085273027420044 -0.06976741552352905 0.32943710684776306
-0.41085273027420044 -0.05426359176635742 0.2832152843475342
-0.41085273027420044 -0.05426359176635742 0.3378109037876129
-0.41085273027420044 -0.038759708404541016 0.29805344343185425
-0.41085273027420044 -0.038759708404541016 0.3419497311115265
-0.41085273027420044 -0.02325582504272461 0.33969950675964355
-0.41085273027420044 -0.02325582504272461 0.34926527738571167
-0.41085273027420044 -0.007751941680908203 0.3469274044036865
-0.41085273027420044 -0.007751941680908203 0.3749721944332123
-0.41085273027420044 0.007751941680908203 0.350656121969223
-0.41085273027420044 0.007751941680908203 0.39227136969566345
-0.41085273027420044 0.02325582504272461 0.3559340834617615
-0.41085273027420044 0.02325582504272461 0.41202831268310547
-0.41085273027420044 0.038759708404541016 0.3618183135986328
-0.41085273027420044 0.038759708404541016 0.43870145082473755
-0.41085273027420044 0.05426359176635742 0.36967697739601135
-0.41085273027420044 0.05426359176635742 0.4736693203449249
-0.41085273027420044 0.06976747512817383 0.3763534128665924
-0.41085273027420044 0.06976747512817383 0.49802613258361816
-0.41085270047187805 0.08527135848999023 0.3821297883987427
-0.41085273027420044 0.08527135848999023 0.5145512819290161
-0.41085273027420044 0.10077524185180664 0.38921576738357544
-0.41085273027420044 0.10077524185180664 0.5276756286621094
-0.41085273027420044 0.11627912521362305 0.3938988149166107
-0.41085273027420044 0.11627912521362305 0.538323700428009
-0.41085273027420044 0.1317828893661499 0.40445923805236816
-0.41085273027420044 0.1317828893661499 0.5450739860534668
-0.41085273027420044 0.1472867727279663 0.42118072509765625
-0.41085273027420044 0.1472867727279663 0.5433393716812134
-0.41085273027420044 0.16279065608978271 0.464802086353302
-0.41085273027420044 0.16279065608978271 0.5293817520141602
-0.39534884691238403 -0.20930230617523193 0.09037724882364273
-0.39534884691238403 -0.20930230617523193 0.14840182662010193
-0.39534884691238403 -0.19379842281341553 0.09397408366203308
-0.39534884691238403 -0.19379842281341553 0.18283435702323914
-0.39534884691238403 -0.1782945990562439 0.11361035704612732
-0.39534884691238403 -0.1782945990562439 0.20415686070919037
-0.39534884691238403 -0.1627907156944275 0.14428237080574036
-0.39534884691238403 -0.1627907156944275 0.22506126761436462
-0.39534884691238403 -0.14728683233261108 0.1618373990058899
-0.3953488767147064 -0.14728683233261108 0.24414467811584473
-0.39534884691238403 -0.13178294897079468 0.18084585666656494
-0.39534884691238403 -0.13178294897079468 0.2574414610862732
-0.39534884691238403 -0.08527129888534546 0.297066867351532
-0.39534884691238403 -0.08527129888534546 0.3050660490989685
-0.39534884691238403 -0.06976741552352905 0.2975386679172516
-0.3953488767147064 -0.06976741552352905 0.3194744288921356
-0.39534884691238403 0.02325582504272461 0.37386175990104675
-0.39534884691238403 0.02325582504272461 0.3892335295677185
-0.39534884691238403 0.038759708404541016 0.3761179447174072
-0.39534884691238403 0.038759708404541016 0.4080532193183899
-0.39534884691238403 0.05426359176635742 0.37917962670326233
-0.39534884691238403 0.05426359176635742 0.43967127799987793
-0.39534884691238403 0.06976747512817383 0.38672566413879395
-0.39534884691238403 0.06976747512817383 0.47500646114349365
-0.39534884691238403 0.08527135848999023 0.3916209638118744
-0.39534884691238403 0.08527135848999023 0.4974285066127777
-0.39534884691238403 0.10077524185180664 0.39513495564460754
-0.39534884691238403 0.10077524185180664 0.5153003334999084
-0.39534884691238403 0.11627912521362305 0.40352189540863037
-0.39534884691238403 0.11627912521362305 0.5328157544136047
-0.3953488767147064 0.1317829042673111 0.4112100899219513
-0.39534884691238403 0.1317828893661499 0.5453715324401855
-0.39534884691238403 0.1472867727279663 0.4318650960922241
-0.39534884691238403 0.1472867727279663 0.5471658706665039
-0.39534884691238403 0.16279065608978271 0.4727841019630432
-0.39534884691238403 0.16279065608978271 0.5337725877761841
-0.3798449635505676 -0.22480618953704834 0.08912503719329834
-0.3798449635505676 -0.22480620443820953 0.1019485592842102
-0.37984499335289 -0.20930230617523193 0.07482169568538666
-0.3798449635505676 -0.20930230617523193 0.15236738324165344
-0.3798449635505676 -0.19379842281341553 0.08412010967731476
-0.3798449635505676 -0.19379842281341553 0.18933169543743134
-0.3798449635505676 -0.1782945990562439 0.11395268142223358
-0.3798449635505676 -0.1782945990562439 0.21385633945465088
-0.3798449635505676 -0.1627907156944275 0.1497991979122162
-0.3798449635505676 -0.1627907156944275 0.23394274711608887
-0.3798449635505676 -0.14728683233261108 0.16988560557365417
-0.3798449635505676 -0.14728683233261108 0.2529746890068054
-0.3798449635505676 -0.13178294897079468 0.20020660758018494
-0.3798449635505676 -0.13178294897079468 0.2602623999118805
-0.3798449635505676 0.06976747512817383 0.4064815640449524
-0.3798449635505676 0.06976747512817383 0.4301261007785797
-0.3798449635505676 0.08527135848999023 0.4007301330566406
-0.3798449635505676 0.08527135848999023 0.47181692719459534
-0.3798449635505676 0.10077524185180664 0.4027538299560547
-0.3798449635505676 0.10077524185180664 0.4966646134853363
-0.3798449635505676 0.11627912521362305 0.4069315493106842
-0.3798449635505676 0.11627912521362305 0.5206605195999146
-0.3798449635505676 0.1317828893661499 0.416653573513031
-0.3798449635505676 0.1317828893661499 0.5469697117805481
-0.3798449635505676 0.1472867727279663 0.43732044100761414
-0.3798449635505676 0.1472867727279663 0.5525262355804443
-0.3798449635505676 0.16279065608978271 0.4791484773159027
-0.3798449635505676 0.16279065608978271 0.5404396653175354
-0.3643410801887512 -0.22480618953704834 0.0620303750038147
-0.3643410801887512 -0.22480617463588715 0.10754291713237762
-0.3643410801887512 -0.20930230617523193 0.059822484850883484
-0.3643410801887512 -0.20930230617523193 0.15108485519886017
-0.3643410801887512 -0.19379842281341553 0.08386345207691193
-0.3643411099910736 -0.19379843771457672 0.19623912870883942
-0.3643410801887512 -0.1782945990562439 0.12925641238689423
-0.3643410801887512 -0.1782945990562439 0.22214066982269287
-0.3643410801887512 -0.1627907156944275 0.16065068542957306
-0.3643410801887512 -0.1627907156944275 0.24583502113819122
-0.3643410801887512 -0.14728683233261108 0.18150214850902557
-0.3643410801887512 -0.14728683233261108 0.2639429569244385
-0.3643410801887512 -0.13178294897079468 0.24928592145442963
-0.3643410801887512 -0.13178294897079468 0.27575311064720154
-0.3643410801887512 0.08527135848999023 0.4005807936191559
-0.3643410801887512 0.08527135848999023 0.449005663394928
-0.3643410801887512 0.10077524185180664 0.39946287870407104
-0.3643410801887512 0.10077524185180664 0.4803508520126343
-0.3643410801887512 0.11627912521362305 0.40401923656463623
-0.3643410801887512 0.11627912521362305 0.5125389099121094
-0.3643410801887512 0.1317828893661499 0.4121997058391571
-0.3643410801887512 0.1317828893661499 0.5481473803520203
-0.3643410801887512 0.1472867727279663 0.43582409620285034
-0.3643410801887512 0.1472867727279663 0.5564908385276794
-0.3643410801887512 0.16279065608978271 0.47876012325286865
-0.3643410801887512 0.16279065608978271 0.5487834215164185
-0.3488371968269348 -0.22480618953704834 0.03720000013709068
-0.3488371968269348 -0.22480618953704834 0.10307034105062485
-0.3488371968269348 -0.20930230617523193 0.038107238709926605
-0.3488371968269348 -0.20930230617523193 0.13281463086605072
-0.3488371968269348 -0.19379842281341553 0.10240749269723892
-0.3488371968269348 -0.19379842281341553 0.19986873865127563
-0.3488371968269348 -0.1782945990562439 0.15783192217350006
-0.3488371968269348 -0.1782945990562439 0.23296967148780823
-0.3488371968269348 -0.1627907156944275 0.17530785501003265
-0.3488371968269348 -0.1627907156944275 0.25827962160110474
-0.3488371968269348 -0.14728683233261108 0.20042939484119415
-0.3488371968269348 -0.14728683233261108 0.27654314041137695
-0.3488371968269348 -0.13178294897079468 0.24482092261314392
-0.3488371968269348 -0.13178294897079468 0.2914409935474396
-0.3488371968269348 -0.11627906560897827 0.27055972814559937
-0.3488371968269348 -0.11627906560897827 0.307640939950943
-0.3488371968269348 -0.10077518224716187 0.2879473865032196
-0.3488371968269348 -0.10077518224716187 0.32212886214256287
-0.3488371968269348 -0.08527129888534546 0.3084999918937683
-0.3488371968269348 -0.08527129888534546 0.32584303617477417
-0.3488371968269348 0.06976747512817383 0.4103349447250366
-0.3488371968269348 0.06976747512817383 0.41160595417022705
-0.3488371968269348 0.08527135848999023 0.3935847580432892
-0.3488371968269348 0.08527135848999023 0.4468797445297241
-0.3488371968269348 0.10077524185180664 0.3928029537200928
-0.3488371968269348 0.10077524185180664 0.4746817946434021
-0.3488371968269348 0.11627912521362305 0.3964104950428009
-0.3488371968269348 0.11627912521362305 0.5132818818092346
-0.3488371968269348 0.1317828893661499 0.4082273542881012
-0.3488371968269348 0.1317828893661499 0.5503236055374146
-0.3488371968269348 0.1472867727279663 0.43217194080352783
-0.3488371968269348 0.1472867727279663 0.5605992078781128
-0.3488371968269348 0.16279065608978271 0.4742289185523987
-0.3488371968269348 0.16279065608978271 0.5565736293792725
-0.3333333134651184 -0.24031007289886475 0.033240146934986115
-0.3333333134651184 -0.24031007289886475 0.06388092041015625
-0.3333333134651184 -0.22480618953704834 0.014426207169890404
-0.3333333134651184 -0.22480618953704834 0.09058037400245667
-0.3333333134651184 -0.20930230617523193 0.017145421355962753
-0.3333333134651184 -0.20930230617523193 0.09315113723278046
-0.3333333134651184 -0.19379842281341553 0.19067205488681793
-0.3333333134651184 -0.19379842281341553 0.19828319549560547
-0.3333333134651184 -0.1782945990562439 0.17752641439437866
-0.3333333134651184 -0.1782945990562439 0.24601387977600098
-0.3333333134651184 -0.1627907156944275 0.18936428427696228
-0.3333333134651184 -0.1627907156944275 0.27018171548843384
-0.3333333134651184 -0.14728683233261108 0.21005629003047943
-0.333333283662796 -0.14728683233261108 0.2892827093601227
-0.3333333134651184 -0.13178294897079468 0.23684245347976685
-0.3333333134651184 -0.13178294897079468 0.30668964982032776
-0.3333333134651184 -0.11627906560897827 0.25819164514541626
-0.3333333134651184 -0.11627907305955887 0.32292455434799194
-0.3333333134651184 -0.10077518224716187 0.2787221074104309
-0.3333333134651184 -0.10077518224716187 0.33553576469421387
-0.3333333134651184 -0.08527129888534546 0.2957444489002228
-0.3333333134651184 -0.08527129888534546 0.3415561318397522
-0.3333333134651184 -0.06976741552352905 0.3198166787624359
-0.3333333134651184 -0.06976741552352905 0.3356189727783203
-0.3333333134651184 0.06976747512817383 0.39589229226112366
-0.3333333134651184 0.06976747512817383 0.42348161339759827
-0.3333333134651184 0.08527135848999023 0.38935452699661255
-0.3333333134651184 0.08527135848999023 0.4485962986946106
-0.3333333134651184 0.10077524185180664 0.3892563581466675
-0.3333333134651184 0.10077524185180664 0.4766901135444641
-0.3333333134651184 0.11627912521362305 0.39207160472869873
-0.3333333134651184 0.11627912521362305 0.5193126201629639
-0.3333333134651184 0.1317828893661499 0.4048011302947998
-0.3333333134651184 0.1317828893661499 0.5527656674385071
-0.3333333134651184 0.1472867727279663 0.4282214045524597
-0.3333333134651184 0.1472867727279663 0.5657769441604614
-0.3333333134651184 0.16279065608978271 0.47047072649002075
-0.3333333134651184 0.16279065608978271 0.5645853877067566
-0.3333333134651184 0.17829453945159912 0.5332661271095276
-0.3333333134651184 0.17829453945159912 0.5360369682312012
-0.317829430103302 -0.24031007289886475 0.0038584889844059944
-0.317829430103302 -0.24031007289886475 0.06114579737186432
-0.317829430103302 -0.22480618953704834 -0.011222954839468002
-0.317829430103302 -0.22480618953704834 0.0780397355556488
-0.317829430103302 -0.20930230617523193 -0.00500148069113493
-0.317829430103302 -0.20930230617523193 0.07250049710273743
-0.317829430103302 -0.1782945990562439 0.18857018649578094
-0.317829430103302 -0.1782945990562439 0.2564506232738495
-0.317829430103302 -0.1627907156944275 0.19528362154960632
-0.317829430103302 -0.1627907156944275 0.2806576192378998
-0.317829430103302 -0.14728683233261108 0.21032340824604034
-0.317829430103302 -0.14728683233261108 0.3002724349498749
-0.317829430103302 -0.13178294897079468 0.2298809289932251
-0.317829430103302 -0.13178294897079468 0.3178539276123047
-0.317829430103302 -0.11627906560897827 0.24928240478038788
-0.317829430103302 -0.11627906560897827 0.3313142955303192
-0.317829430103302 -0.10077518224716187 0.269800066947937
-0.317829430103302 -0.10077518224716187 0.3421519696712494
-0.317829430103302 -0.08527129888534546 0.28948166966438293
-0.317829430103302 -0.08527129888534546 0.34951847791671753
-0.317829430103302 -0.06976741552352905 0.3134520947933197
-0.3178294003009796 -0.06976741552352905 0.3496040999889374
-0.317829430103302 0.06976747512817383 0.394458532333374
-0.317829430103302 0.06976747512817383 0.4241095185279846
-0.317829430103302 0.08527135848999023 0.38691121339797974
-0.317829430103302 0.08527135848999023 0.44868385791778564
-0.317829430103302 0.10077524185180664 0.3871532380580902
-0.317829430103302 0.10077524185180664 0.4819331765174866
-0.317829430103302 0.11627912521362305 0.39075297117233276
-0.317829430103302 0.11627912521362305 0.526064932346344
-0.317829430103302 0.1317828893661499 0.4028749465942383
-0.317829430103302 0.1317828893661499 0.5564914345741272
-0.317829430103302 0.1472867727279663 0.42739084362983704
-0.317829430103302 0.1472867727279663 0.5718517303466797
-0.317829430103302 0.16279065608978271 0.4673381447792053
-0.317829430103302 0.16279065608978271 0.5723996162414551
-0.317829430103302 0.17829453945159912 0.5267292261123657
-0.317829430103302 0.17829453945159912 0.5527337193489075
-0.30232560634613037 -0.24031007289886475 -0.01854514330625534
-0.30232560634613037 -0.24031007289886475 0.0544927604496479
-0.30232560634613037 -0.22480618953704834 -0.03219921141862869
-0.30232560634613037 -0.22480618953704834 0.06722985953092575
-0.30232560634613037 -0.20930230617523193 -0.02614135853946209
-0.30232560634613037 -0.20930230617523193 0.057892095297575
-0.30232560634613037 -0.1782945990562439 0.1962103694677353
-0.30232560634613037 -0.1782945990562439 0.26542991399765015
-0.30232560634613037 -0.1627907156944275 0.2009279429912567
-0.30232560634613037 -0.1627907156944275 0.28891056776046753
-0.30232560634613037 -0.14728683233261108 0.2116556167602539
-0.30232560634613037 -0.14728683233261108 0.30676570534706116
-0.30232560634613037 -0.13178294897079468 0.22645267844200134
-0.30232560634613037 -0.13178294897079468 0.3222259283065796
-0.30232560634613037 -0.11627906560897827 0.24509456753730774
-0.30232560634613037 -0.11627905815839767 0.3345387578010559
-0.30232560634613037 -0.10077518224716187 0.2675171494483948
-0.30232560634613037 -0.10077518224716187 0.3430785536766052
-0.30232560634613037 -0.08527129888534546 0.2913236618041992
-0.30232560634613037 -0.08527129888534546 0.3490992784500122
-0.30232560634613037 -0.06976741552352905 0.3263580799102783
-0.30232560634613037 -0.06976741552352905 0.33869418501853943
-0.30232560634613037 0.06976747512817383 0.40450549125671387
-0.30232560634613037 0.06976747512817383 0.4148847460746765
-0.30232560634613037 0.08527135848999023 0.3880576491355896
-0.30232560634613037 0.08527135848999023 0.44667327404022217
-0.30232560634613037 0.10077524185180664 0.3876759707927704
-0.30232560634613037 0.10077523440122604 0.49168041348457336
-0.30232560634613037 0.11627912521362305 0.391136109828949
-0.30232560634613037 0.11627912521362305 0.5343821048736572
-0.30232560634613037 0.1317828893661499 0.4036990702152252
-0.30232560634613037 0.1317828893661499 0.5622448325157166
-0.302325576543808 0.1472867727279663 0.42901086807250977
-0.30232560634613037 0.1472867727279663 0.5779999494552612
-0.30232560634613037 0.16279065608978271 0.464224249124527
-0.30232560634613037 0.16279065608978271 0.5802059769630432
-0.30232560634613037 0.17829453945159912 0.5198926329612732
-0.30232560634613037 0.17829453945159912 0.5618999004364014
-0.28682172298431396 -0.24031007289886475 -0.04013674333691597
-0.28682172298431396 -0.24031007289886475 0.040561407804489136
-0.28682172298431396 -0.22480618953704834 -0.052294980734586716
-0.28682172298431396 -0.22480620443820953 0.05440786853432655
-0.28682172298431396 -0.20930230617523193 -0.046368375420570374
-0.2868216931819916 -0.20930230617523193 0.039645057171583176
-0.28682172298431396 -0.1782945990562439 0.2063659131526947
-0.28682172298431396 -0.1782945990562439 0.2728799879550934
-0.28682172298431396 -0.1627907156944275 0.20742183923721313
-0.28682172298431396 -0.1627907156944275 0.29463306069374084
-0.28682172298431396 -0.14728683233261108 0.21651721000671387
-0.28682172298431396 -0.14728683233261108 0.3104221522808075
-0.28682172298431396 -0.13178294897079468 0.2290734052658081
-0.28682172298431396 -0.13178294897079468 0.32299357652664185
-0.28682172298431396 -0.11627906560897827 0.24689292907714844
-0.28682172298431396 -0.11627906560897827 0.33256155252456665
-0.28682172298431396 -0.10077518224716187 0.27098193764686584
-0.28682172298431396 -0.10077518224716187 0.3370228707790375
-0.28682172298431396 -0.08527129888534546 0.3127032518386841
-0.28682172298431396 -0.08527129888534546 0.3284960985183716
-0.28682172298431396 0.08527135848999023 0.3926624059677124
-0.28682172298431396 0.08527135848999023 0.44082126021385193
-0.28682172298431396 0.10077524185180664 0.3907405138015747
-0.28682172298431396 0.10077524185180664 0.49869078397750854
-0.28682172298431396 0.11627912521362305 0.39329203963279724
-0.28682172298431396 0.11627912521362305 0.5408505201339722
-0.28682172298431396 0.1317828893661499 0.4068957567214966
-0.28682172298431396 0.1317828893661499 0.5699433088302612
-0.28682172298431396 0.1472867727279663 0.4323751628398895
-0.28682172298431396 0.1472867727279663 0.5861362814903259
-0.28682172298431396 0.16279065608978271 0.4629395008087158
-0.28682172298431396 0.16279065608978271 0.5890297889709473
-0.28682172298431396 0.17829453945159912 0.5167166590690613
-0.28682172298431396 0.17829453945159912 0.5723987221717834
-0.27131783962249756 -0.24031007289886475 -0.057996489107608795
-0.27131783962249756 -0.24031007289886475 0.020786907523870468
-0.27131783962249756 -0.22480618953704834 -0.07237838953733444
-0.27131783962249756 -0.22480618953704834 0.032489385455846786
-0.27131783962249756 -0.20930230617523193 -0.07112465053796768
-0.27131783962249756 -0.20930230617523193 -0.0244480911642313
-0.27131783962249756 -0.1782945990562439 0.21748974919319153
-0.27131783962249756 -0.1782945990562439 0.2788591980934143
-0.27131783962249756 -0.1627907156944275 0.21643227338790894
-0.27131783962249756 -0.1627907156944275 0.2980661392211914
-0.27131783962249756 -0.14728683233261108 0.2222503125667572
-0.27131783962249756 -0.14728683233261108 0.31067681312561035
-0.27131783962249756 -0.13178294897079468 0.23439987003803253
-0.27131783962249756 -0.13178294897079468 0.3201963007450104
-0.27131783962249756 -0.11627906560897827 0.251975953578949
-0.27131783962249756 -0.11627906560897827 0.3226022720336914
-0.27131783962249756 0.08527135848999023 0.4015042781829834
-0.27131783962249756 0.08527135848999023 0.4309331774711609
-0.27131783962249756 0.10077524185180664 0.39419853687286377
-0.27131783962249756 0.10077524185180664 0.5028045177459717
-0.27131783962249756 0.11627912521362305 0.3985106348991394
-0.27131783962249756 0.11627912521362305 0.5470935106277466
-0.27131783962249756 0.1317828893661499 0.4103671610355377
-0.27131783962249756 0.1317828893661499 0.5763100385665894
-0.27131783962249756 0.1472867727279663 0.4352058172225952
-0.27131783962249756 0.1472867727279663 0.5940885543823242
-0.27131783962249756 0.16279065608978271 0.46313944458961487
-0.27131783962249756 0.1627906709909439 0.5970357656478882
-0.27131783962249756 0.17829453945159912 0.5158599019050598
-0.27131783962249756 0.17829453945159912 0.5828471779823303
-0.25581395626068115 -0.24031007289886475 -0.07599952816963196
-0.25581395626068115 -0.24031007289886475 -0.006644025444984436
-0.25581395626068115 -0.22480618953704834 -0.09234942495822906
-0.25581395626068115 -0.22480618953704834 -0.0023122644051909447
-0.25581395626068115 -0.20930230617523193 -0.09339442849159241
-0.25581395626068115 -0.20930230617523193 -0.04360061138868332
-0.25581395626068115 -0.1782945990562439 0.2269842028617859
-0.25581395626068115 -0.1782945990562439 0.28257137537002563
-0.25581395626068115 -0.1627907156944275 0.22382904589176178
-0.25581395626068115 -0.1627907156944275 0.2990923225879669
-0.25581395626068115 -0.14728683233261108 0.2295246124267578
-0.25581395626068115 -0.14728683233261108 0.3083586096763611
-0.25581395626068115 -0.13178294897079468 0.2393338829278946
-0.25581395626068115 -0.13178294897079468 0.3109278678894043
-0.25581395626068115 -0.11627906560897827 0.26149922609329224
-0.25581395626068115 -0.11627906560897827 0.29493844509124756
-0.25581395626068115 0.10077524185180664 0.4034169912338257
-0.25581395626068115 0.10077524185180664 0.5056562423706055
-0.25581395626068115 0.11627912521362305 0.40562528371810913
-0.25581395626068115 0.11627912521362305 0.5531052947044373
-0.25581395626068115 0.1317828893661499 0.41794243454933167
-0.25581395626068115 0.1317828893661499 0.5858016014099121
-0.25581395626068115 0.1472867727279663 0.4374799430370331
-0.25581395626068115 0.1472867727279663 0.6030736565589905
-0.25581395626068115 0.16279065608978271 0.46387794613838196
-0.25581395626068115 0.16279065608978271 0.6062259674072266
-0.25581395626068115 0.17829453945159912 0.5158576369285583
-0.25581395626068115 0.17829453945159912 0.5919095277786255
-0.24031007289886475 -0.24031007289886475 -0.09746268391609192
-0.24031005799770355 -0.24031005799770355 -0.03336776793003082
-0.24031007289886475 -0.22480618953704834 -0.11342444270849228
-0.24031007289886475 -0.22480618953704834 -0.033211953938007355
-0.24031005799770355 -0.20930230617523193 -0.1136709451675415
-0.24031007289886475 -0.20930230617523193 -0.05406512692570686
-0.24031007289886475 -0.1782945990562439 0.23940399289131165
-0.24031007289886475 -0.1782945990562439 0.2818775475025177
-0.24031007289886475 -0.1627907156944275 0.2360127568244934
-0.24031007289886475 -0.1627907156944275 0.2968961298465729
-0.24031007289886475 -0.14728683233261108 0.23837557435035706
-0.24031005799770355 -0.14728683233261108 0.3041003346443176
-0.24031007289886475 -0.13178294897079468 0.2503831088542938
-0.24031007289886475 -0.13178294897079468 0.2992783784866333
-0.24031007289886475 0.10077524185180664 0.4232555627822876
-0.24031007289886475 0.10077523440122604 0.5076907873153687
-0.24031007289886475 0.11627912521362305 0.41640806198120117
-0.24031007289886475 0.11627912521362305 0.5591931939125061
-0.24031007289886475 0.1317828893661499 0.4251929223537445
-0.24031007289886475 0.1317828893661499 0.5933496952056885
-0.24031007289886475 0.1472867727279663 0.44079360365867615
-0.24031007289886475 0.1472867727279663 0.6109582185745239
-0.24031007289886475 0.16279065608978271 0.4659312963485718
-0.24031007289886475 0.16279065608978271 0.6142356991767883
-0.24031007289886475 0.17829453945159912 0.5171156525611877
-0.24031007289886475 0.17829453945159912 0.6008937954902649
-0.22480618953704834 -0.24031007289886475 -0.11978559195995331
-0.22480618953704834 -0.24031008780002594 -0.05157581716775894
-0.22480618953704834 -0.22480618953704834 -0.13254815340042114
-0.22480618953704834 -0.22480618953704834 -0.051142480224370956
-0.22480618953704834 -0.20930230617523193 -0.12654170393943787
-0.22480618953704834 -0.20930230617523193 -0.06732151657342911
-0.22480618953704834 -0.1782945990562439 0.27031081914901733
-0.22480620443820953 -0.1782945990562439 0.2713933289051056
-0.22480618953704834 -0.1627907156944275 0.24849215149879456
-0.22480618953704834 -0.1627907156944275 0.289855033159256
-0.22480618953704834 -0.14728683233261108 0.25134944915771484
-0.22480618953704834 -0.14728683233261108 0.2919917404651642
-0.22480618953704834 -0.13178294897079468 0.2699187099933624
-0.22480617463588715 -0.13178294897079468 0.2738777995109558
-0.22480618953704834 0.10077524185180664 0.4713526964187622
-0.22480618953704834 0.10077524185180664 0.4963763952255249
-0.22480618953704834 0.11627912521362305 0.4320932626724243
-0.22480617463588715 0.11627912521362305 0.5667297840118408
-0.22480618953704834 0.1317828893661499 0.4353477954864502
-0.22480618953704834 0.1317828893661499 0.6041654348373413
-0.22480620443820953 0.1472867727279663 0.44747984409332275
-0.22480618953704834 0.1472867727279663 0.6214110851287842
-0.22480618953704834 0.16279065608978271 0.4694010317325592
-0.22480618953704834 0.16279065608978271 0.6240653395652771
-0.22480618953704834 0.17829453945159912 0.5198270678520203
-0.22480618953704834 0.17829453945159912 0.61001056432724
-0.20930230617523193 -0.24031007289886475 -0.13765181601047516
-0.20930230617523193 -0.24031007289886475 -0.06846267729997635
-0.20930230617523193 -0.22480618953704834 -0.14739039540290833
-0.20930229127407074 -0.22480617463588715 -0.06820791959762573
-0.20930230617523193 -0.20930230617523193 -0.13314476609230042
-0.20930230617523193 -0.20930230617523193 -0.08405493944883347
-0.20930230617523193 0.11627912521362305 0.4424425959587097
-0.20930230617523193 0.11627912521362305 0.5768723487854004
-0.20930230617523193 0.1317828893661499 0.44184184074401855
-0.20930230617523193 0.1317828893661499 0.6138341426849365
-0.20930230617523193 0.1472867727279663 0.4538224935531616
-0.20930230617523193 0.1472867727279663 0.6290501356124878
-0.20930230617523193 0.16279065608978271 0.4757698178291321
-0.20930232107639313 0.16279065608978271 0.6313410401344299
-0.20930230617523193 0.17829453945159912 0.5249489545822144
-0.20930230617523193 0.17829453945159912 0.6195625066757202
-0.19379842281341553 -0.24031007289886475 -0.15244156122207642
-0.19379842281341553 -0.24031007289886475 -0.08998532593250275
-0.19379842281341553 -0.22480618953704834 -0.15626443922519684
-0.19379842281341553 -0.22480618953704834 -0.09133391082286835
-0.19379842281341553 0.11627912521362305 0.4482414126396179
-0.19379842281341553 0.11627912521362305 0.5911258459091187
-0.19379842281341553 0.1317828893661499 0.4485620856285095
-0.19379842281341553 0.1317828893661499 0.6226369142532349
-0.19379840791225433 0.1472867727279663 0.45901769399642944
-0.19379842281341553 0.1472867727279663 0.6365141868591309
-0.19379842281341553 0.16279065608978271 0.4838208258152008
-0.19379842281341553 0.16279065608978271 0.6373946070671082
-0.19379842281341553 0.17829453945159912 0.5300833582878113
-0.19379842281341553 0.17829453945159912 0.627387523651123
-0.1782945990562439 -0.24031007289886475 -0.16661004722118378
-0.1782945990562439 -0.24031007289886475 -0.11475884169340134
-0.1782945990562439 -0.22480618953704834 -0.16562485694885254
-0.1782945990562439 -0.22480618953704834 -0.12906649708747864
-0.1782945990562439 -0.08527129888534546 -0.10138534009456635
-0.1782945990562439 -0.08527129888534546 -0.033254653215408325
-0.1782945990562439 -0.06976741552352905 -0.19837088882923126
-0.1782945990562439 -0.06976741552352905 -0.16213253140449524
-0.1782945990562439 -0.06976741552352905 -0.10675360262393951
-0.1782945841550827 -0.06976741552352905 -0.020373160019516945
-0.1782945990562439 -0.007751941680908203 -0.9856645464897156
-0.1782945990562439 -0.007751941680908203 -0.9767616391181946
-0.1782945990562439 0.007751941680908203 -0.9868108630180359
-0.1782945990562439 0.007751941680908203 -0.9735339283943176
-0.1782945990562439 0.10077524185180664 0.4969611167907715
-0.1782945990562439 0.10077524185180664 0.5450043678283691
-0.1782945990562439 0.11627912521362305 0.4479787349700928
-0.1782945990562439 0.11627912521362305 0.6055209636688232
-0.1782945990562439 0.1317828893661499 0.45148301124572754
-0.1782945990562439 0.1317828893661499 0.6319072246551514
-0.1782945990562439 0.1472867727279663 0.4649102985858917
-0.1782945990562439 0.1472867727279663 0.6408094763755798
-0.1782945990562439 0.16279065608978271 0.48936042189598083
-0.1782945990562439 0.16279065608978271 0.6419956088066101
-0.1782945990562439 0.17829453945159912 0.5334601998329163
-0.1782945990562439 0.17829453945159912 0.6331847310066223
-0.1627907156944275 -0.24031007289886475 -0.18471679091453552
-0.1627907156944275 -0.24031007289886475 -0.13958008587360382
-0.1627907156944275 -0.22480618953704834 -0.18747344613075256
-0.1627907156944275 -0.22480618953704834 -0.15448039770126343
-0.1627907156944275 -0.10077518224716187 -0.1535128802061081
-0.1627907156944275 -0.10077518224716187 -0.004089995287358761
-0.1627907156944275 -0.08527129888534546 -0.2119237184524536
-0.1627907156944275 -0.08527129888534546 0.013547221198678017
-0.1627907156944275 -0.06976741552352905 -0.22699294984340668
-0.1627907007932663 -0.06976741552352905 0.024226432666182518
-0.1627907156944275 -0.05426359176635742 -0.22948741912841797
-0.1627907156944275 -0.05426359176635742 0.028466545045375824
-0.1627907156944275 -0.038759708404541016 -0.9854535460472107
-0.1627907156944275 -0.038759708404541016 -0.9668076038360596
-0.1627907156944275 -0.038759708404541016 -0.21520426869392395
-0.1627907156944275 -0.038759708404541016 0.03949029743671417
-0.1627907156944275 -0.02325582504272461 -0.990161657333374
-0.1627907156944275 -0.02325582504272461 -0.9410948157310486
-0.1627907156944275 -0.02325582504272461 -0.05837290361523628
-0.16279073059558868 -0.02325582690536976 0.05527317523956299
-0.1627907156944275 -0.007751941680908203 -0.9911637902259827
-0.1627907156944275 -0.007751941680908203 -0.9353071451187134
-0.1627907156944275 -0.007751941680908203 -0.011087944731116295
-0.1627907156944275 -0.007751941680908203 0.06539534777402878
-0.1627907156944275 0.007751941680908203 -0.9913275241851807
-0.1627907156944275 0.00775194214656949 -0.9334481358528137
-0.1627907156944275 0.007751941680908203 0.02272525243461132
-0.1627907156944275 0.007751941680908203 0.059137843549251556
-0.1627907156944275 0.02325582504272461 -0.9912713170051575
-0.1627907156944275 0.02325582504272461 -0.9332264065742493
-0.1627907156944275 0.038759708404541016 -0.990577757358551
-0.1627907156944275 0.038759708404541016 -0.937093198299408
-0.1627907156944275 0.05426359176635742 -0.9862654805183411
-0.1627907156944275 0.05426359176635742 -0.9751123785972595
-0.1627907156944275 0.10077524185180664 0.47718366980552673
-0.16279073059558868 0.10077524185180664 0.5687656402587891
-0.1627907156944275 0.11627912521362305 0.4445219039916992
-0.1627907156944275 0.11627912521362305 0.6171516180038452
-0.1627907156944275 0.1317828893661499 0.45288294553756714
-0.1627907156944275 0.1317828893661499 0.6368799805641174
-0.1627907156944275 0.1472867727279663 0.4682934284210205
-0.1627907156944275 0.1472867727279663 0.6428329348564148
-0.1627907156944275 0.16279065608978271 0.49472975730895996
-0.1627907156944275 0.16279065608978271 0.6438053250312805
-0.1627907156944275 0.17829453945159912 0.5368371605873108
-0.1627907156944275 0.17829453945159912 0.6368374824523926
-0.14728683233261108 -0.24031007289886475 -0.20488910377025604
-0.14728683233261108 -0.24031007289886475 -0.14622226357460022
-0.14728683233261108 -0.22480618953704834 -0.21090805530548096
-0.14728683233261108 -0.22480618953704834 -0.15563756227493286
-0.14728683233261108 -0.11627906560897827 -0.06979198753833771
-0.14728683233261108 -0.11627905815839767 -0.03516882658004761
-0.14728683233261108 -0.10077518224716187 -0.19701766967773438
-0.14728683233261108 -0.10077518224716187 0.014837890863418579
-0.14728683233261108 -0.08527129888534546 -0.2250407338142395
-0.14728683233261108 -0.08527129888534546 0.035380586981773376
-0.14728683233261108 -0.06976741552352905 -0.24241375923156738
-0.14728683233261108 -0.06976741552352905 0.045508258044719696
-0.14728683233261108 -0.05426359176635742 -0.9867911338806152
-0.14728683233261108 -0.05426359176635742 -0.9499105215072632
-0.14728683233261108 -0.05426359176635742 -0.2595933973789215
-0.14728683233261108 -0.05426359176635742 0.0561944842338562
-0.14728683233261108 -0.038759708404541016 -0.9896588325500488
-0.14728683233261108 -0.038759708404541016 -0.9393184185028076
-0.14728683233261108 -0.038759708404541016 -0.2626495957374573
-0.14728683233261108 -0.038759708404541016 0.0698392391204834
-0.14728683233261108 -0.02325582504272461 -0.9907130599021912
-0.14728683233261108 -0.02325582504272461 -0.9361419081687927
-0.14728683233261108 -0.02325582504272461 -0.22953152656555176
-0.14728683233261108 -0.02325582504272461 0.08241907507181168
-0.14728683233261108 -0.007751941680908203 -0.9910402297973633
-0.14728683233261108 -0.007751941680908203 -0.9335771799087524
-0.14728683233261108 -0.007751941680908203 -0.126015767455101
-0.14728683233261108 -0.007751941680908203 0.0946173220872879
-0.14728683233261108 0.007751941680908203 -0.9911807179450989
-0.14728683233261108 0.007751941680908203 -0.931334376335144
-0.14728683233261108 0.007751941680908203 -0.0768422782421112
-0.14728683233261108 0.007751941680908203 0.09983387589454651
-0.14728683233261108 0.02325582504272461 -0.9912633895874023
-0.14728683233261108 0.02325582504272461 -0.9291363954544067
-0.14728683233261108 0.02325582504272461 -0.01423875242471695
-0.14728683233261108 0.02325582504272461 0.09564532339572906
-0.14728683233261108 0.038759708404541016 -0.9912947416305542
-0.14728683233261108 0.038759708404541016 -0.9260544776916504
-0.14728683233261108 0.038759708404541016 0.043565984815359116
-0.14728683233261108 0.038759708404541016 0.07228903472423553
-0.14728683233261108 0.05426359176635742 -0.9911520481109619
-0.14728683233261108 0.05426359176635742 -0.9271792769432068
-0.14728683233261108 0.06976747512817383 -0.9896674752235413
-0.14728684723377228 0.06976747512817383 -0.9526212811470032
-0.14728683233261108 0.10077524185180664 0.42513594031333923
-0.14728683233261108 0.10077524185180664 0.5879470109939575
-0.14728683233261108 0.11627912521362305 0.4346715211868286
-0.14728683233261108 0.11627912521362305 0.6237173080444336
-0.14728683233261108 0.1317828893661499 0.4505966305732727
-0.14728683233261108 0.1317828893661499 0.6389506459236145
-0.14728683233261108 0.1472867727279663 0.46838700771331787
-0.14728683233261108 0.1472867727279663 0.643830418586731
-0.14728683233261108 0.16279065608978271 0.4961822032928467
-0.14728683233261108 0.16279065608978271 0.6444346308708191
-0.14728683233261108 0.17829452455043793 0.5391168594360352
-0.14728683233261108 0.17829453945159912 0.6401314735412598
-0.13178294897079468 -0.24031007289886475 -0.22621022164821625
-0.13178294897079468 -0.24031007289886475 -0.15059757232666016
-0.13178294897079468 -0.22480618953704834 -0.22990088164806366
-0.13178294897079468 -0.22480618953704834 -0.15652498602867126
-0.13178294897079468 -0.20930230617523193 -0.21447409689426422
-0.13178294897079468 -0.20930229127407074 -0.17591698467731476
-0.13178294897079468 -0.11627906560897827 -0.09314190596342087
-0.13178294897079468 -0.11627906560897827 -0.02063789963722229
-0.13178294897079468 -0.10077518224716187 -0.199182391166687
-0.13178294897079468 -0.10077518224716187 0.02897610515356064
-0.13178294897079468 -0.08527129888534546 -0.9730669260025024
-0.13178294897079468 -0.08527130633592606 -0.9520143270492554
-0.13178294897079468 -0.08527129888534546 -0.23285196721553802
-0.13178294897079468 -0.08527129888534546 0.05199450999498367
-0.13178294897079468 -0.06976741552352905 -0.9869098663330078
