0.41085267066955566 0.7795045971870422 -0.11627906560897827
0.41085267066955566 0.7840089797973633 -0.1627907156944275
0.41085267066955566 0.7880200743675232 -0.06976741552352905
0.4108526408672333 0.8009194135665894 -0.10077518224716187
0.41085267066955566 0.803829550743103 -0.08527129888534546
0.42635655403137207 0.1381324678659439 -0.11627906560897827
0.42635655403137207 0.1470242589712143 -0.10077518224716187
0.42635655403137207 0.16429053246974945 -0.08527129888534546
0.42635655403137207 0.1991041898727417 -0.06976741552352905
0.42635655403137207 0.2217649221420288 -0.05426359176635742
0.42635655403137207 0.22234152257442474 -0.038759708404541016
0.42635655403137207 0.22111211717128754 -0.02325582504272461
0.42635655403137207 0.2580375671386719 -0.007751941680908203
0.42635655403137207 0.4468856155872345 -0.13178294897079468
0.42635655403137207 0.47273093461990356 -0.1627907156944275
0.42635655403137207 0.4918045997619629 -0.1627907156944275
0.42635655403137207 0.5120894908905029 -0.13178294897079468
0.42635655403137207 0.6122512221336365 -0.1782945990562439
0.42635655403137207 0.6105759143829346 -0.1627907156944275
0.42635655403137207 0.626420259475708 -0.13178294897079468
0.42635655403137207 0.6410571932792664 -0.14728683233261108
0.42635655403137207 0.630778968334198 -0.007751941680908203
0.42635655403137207 0.7340395450592041 -0.02325582504272461
0.42635655403137207 0.7478657364845276 -0.038759708404541016
0.42635655403137207 0.7593978047370911 -0.14728683233261108
0.42635655403137207 0.7529784440994263 -0.13178294897079468
0.42635655403137207 0.7572343349456787 -0.05426359176635742
0.42635655403137207 0.7712064981460571 -0.1782945990562439
0.42635655403137207 0.7708717584609985 -0.1627907156944275
0.42635655403137207 0.7768008708953857 -0.11627906560897827
0.4263565242290497 0.7845609784126282 -0.06976741552352905
0.42635655403137207 0.8001731038093567 -0.10077518224716187
0.42635655403137207 0.8023460507392883 -0.08527129888534546
0.4418604373931885 0.17788657546043396 -0.11627906560897827
0.4418604373931885 0.17723004519939423 -0.10077518224716187
0.4418604373931885 0.19015049934387207 -0.08527129888534546
0.4418604075908661 0.21007847785949707 -0.06976740807294846
0.4418604373931885 0.22807812690734863 -0.05426359176635742
0.4418604373931885 0.2295839488506317 -0.038759708404541016
0.4418604373931885 0.23009832203388214 -0.02325582504272461
0.4418604075908661 0.2871074080467224 -0.007751941215246916
0.4418604373931885 0.6115459203720093 -0.007751941680908203
0.4418604373931885 0.6892563104629517 -0.13178294897079468
0.4418604373931885 0.7155813574790955 -0.1782945990562439
0.4418604373931885 0.7117794752120972 -0.1627907156944275
0.4418604373931885 0.726098895072937 -0.14728683233261108
0.44186046719551086 0.7257815599441528 -0.02325582504272461
0.4418604373931885 0.7428147792816162 -0.14728683233261108
0.4418604373931885 0.7374934554100037 -0.13178294897079468
0.4418604075908661 0.7408642172813416 -0.038759708404541016
0.4418604373931885 0.7605040073394775 -0.1782945990562439
0.4418604373931885 0.7568241953849792 -0.1627907156944275
0.4418604373931885 0.7526007890701294 -0.05426359176635742
0.4418604373931885 0.776667594909668 -0.11627906560897827
0.4418604373931885 0.783762514591217 -0.06976741552352905
0.4418604373931885 0.800003707408905 -0.10077518224716187
0.4418604373931885 0.8020428419113159 -0.08527129888534546
0.4573643207550049 0.1785789430141449 -0.11627907305955887
0.4573643207550049 0.1805465668439865 -0.10077518224716187
0.4573643207550049 0.19231025874614716 -0.08527129888534546
0.4573643207550049 0.21371640264987946 -0.06976741552352905
0.4573643207550049 0.23410800099372864 -0.05426359176635742
0.4573643207550049 0.23540256917476654 -0.038759708404541016
0.4573643207550049 0.23832905292510986 -0.02325582504272461
0.4573643207550049 0.34315523505210876 -0.007751941680908203
0.4573643207550049 0.38947200775146484 -0.007751941680908203
0.4573643207550049 0.49351662397384644 -0.007751941680908203
0.4573643207550049 0.595550537109375 -0.007751941680908203
0.4573643207550049 0.7200373411178589 -0.02325582504272461
0.4573643207550049 0.7488077282905579 -0.05426359176635742
0.4573643207550049 0.7368411421775818 -0.038759708404541016
0.4573643207550049 0.7822197079658508 -0.11627906560897827
0.4573643207550049 0.7857628464698792 -0.06976741552352905
0.4573643207550049 0.8026037812232971 -0.10077518224716187
0.4573643207550049 0.8061774373054504 -0.08527129888534546
0.4728682041168213 0.18216390907764435 -0.11627906560897827
0.4728682041168213 0.18476808071136475 -0.10077518224716187
0.4728682041168213 0.1927899271249771 -0.08527129888534546
0.4728682041168213 0.21299614012241364 -0.06976741552352905
0.4728682041168213 0.23562051355838776 -0.05426359176635742
0.4728682041168213 0.23826256394386292 -0.038759708404541016
0.4728682041168213 0.25105273723602295 -0.02325582504272461
0.4728682041168213 0.5318516492843628 -0.007751941680908203
0.4728681743144989 0.5675478577613831 -0.007751941680908203
0.4728682041168213 0.6688809394836426 -0.13178294897079468
0.4728682041168213 0.710034191608429 -0.02325582504272461
0.4728682041168213 0.7298527359962463 -0.038759708404541016
0.4728681743144989 0.7377164959907532 -0.13178294897079468
0.4728682041168213 0.7483828067779541 -0.05426359176635742
0.4728682041168213 0.7872257232666016 -0.11627906560897827
0.4728682041168213 0.7903989553451538 -0.06976741552352905
0.4728682041168213 0.8119074702262878 -0.10077518224716187
0.4728682041168213 0.814707338809967 -0.08527129888534546
0.4883720874786377 0.18720942735671997 -0.11627906560897827
0.4883720874786377 0.18866539001464844 -0.10077518224716187
0.4883720874786377 0.1940378099679947 -0.08527130633592606
0.4883720874786377 0.2162405401468277 -0.06976741552352905
0.4883720874786377 0.23827672004699707 -0.05426359176635742
0.4883720874786377 0.24150678515434265 -0.038759708404541016
0.4883720874786377 0.26852351427078247 -0.02325582504272461
0.4883720874786377 0.6510553956031799 -0.13178294897079468
0.4883720874786377 0.7009892463684082 -0.02325582504272461
0.4883720874786377 0.7241494059562683 -0.038759708404541016
0.4883720874786377 0.7448905110359192 -0.13178294897079468
0.4883720874786377 0.7461171746253967 -0.05426359176635742
0.4883720874786377 0.7934057116508484 -0.11627906560897827
0.4883720874786377 0.7916350364685059 -0.06976741552352905
0.4883720874786377 0.8153694868087769 -0.10077517479658127
0.4883720874786377 0.8157427906990051 -0.08527129888534546
0.5038759708404541 0.1912274807691574 -0.11627906560897827
0.5038759708404541 0.19131453335285187 -0.10077518224716187
0.5038759708404541 0.20107321441173553 -0.08527129888534546
0.5038759708404541 0.22135570645332336 -0.06976741552352905
0.5038759708404541 0.24207207560539246 -0.05426358804106712
0.5038759708404541 0.24709972739219666 -0.038759708404541016
0.5038759708404541 0.28542235493659973 -0.02325582504272461
0.5038759708404541 0.6438624262809753 -0.13178294897079468
0.5038759708404541 0.6892251968383789 -0.02325582504272461
0.5038759708404541 0.7144377827644348 -0.038759708404541016
0.5038759708404541 0.7324068546295166 -0.05426359176635742
0.5038759708404541 0.7553804516792297 -0.13178294897079468
0.5038759708404541 0.7931047677993774 -0.11627906560897827
0.5038759708404541 0.7851181626319885 -0.06976741552352905
0.5038759708404541 0.8129225969314575 -0.10077518224716187
0.5038759708404541 0.8128763437271118 -0.08527129888534546
0.5193798542022705 0.19316653907299042 -0.10077518224716187
0.5193798542022705 0.1944117546081543 -0.11627905815839767
0.5193798542022705 0.20447973906993866 -0.08527129888534546
0.5193798542022705 0.2229624092578888 -0.06976741552352905
0.5193798542022705 0.24263474345207214 -0.05426359176635742
0.5193798542022705 0.249564528465271 -0.038759708404541016
0.5193798542022705 0.31334084272384644 -0.02325582504272461
0.5193798542022705 0.6299375295639038 -0.13178294897079468
0.5193798542022705 0.6651383638381958 -0.1627907156944275
0.5193798542022705 0.6676858067512512 -0.14728683233261108
0.5193798542022705 0.6697148084640503 -0.02325582504272461
0.5193798542022705 0.7134565114974976 -0.05426359176635742
0.5193798542022705 0.7060182094573975 -0.038759708404541016
0.5193798542022705 0.7255504131317139 -0.1782945990562439
0.5193798542022705 0.7805970907211304 -0.13178294897079468
0.5193798542022705 0.7686503529548645 -0.06976741552352905
0.5193798542022705 0.7926524877548218 -0.11627906560897827
0.5193798542022705 0.8016434907913208 -0.10077518224716187
0.5193798542022705 0.8005719184875488 -0.08527129888534546
0.5193798542022705 0.9015426635742188 -0.1782945990562439
0.5193798542022705 0.8939524292945862 -0.14728683233261108
0.5193798542022705 0.9151690006256104 -0.1627907156944275
0.5348837375640869 0.20449869334697723 -0.11627906560897827
0.5348837375640869 0.19921579957008362 -0.10077518224716187
0.5348837375640869 0.20642979443073273 -0.08527129888534546
0.5348837375640869 0.22360360622406006 -0.06976741552352905
0.5348837375640869 0.24271318316459656 -0.05426358804106712
0.5348837375640869 0.25355958938598633 -0.038759708404541016
0.5348837375640869 0.3516385555267334 -0.02325582504272461
0.5348837375640869 0.623633623123169 -0.1627907156944275
0.5348837375640869 0.6182714104652405 -0.13178294897079468
0.5348837375640869 0.6446487307548523 -0.14728683233261108
0.5348837375640869 0.645934522151947 -0.02325582504272461
0.5348837375640869 0.6610623598098755 -0.1782945990562439
0.5348837375640869 0.6997581720352173 -0.05426359176635742
0.5348837375640869 0.6935358047485352 -0.038759708404541016
0.5348837375640869 0.7497416734695435 -0.06976741552352905
0.5348837375640869 0.7960220575332642 -0.10077518224716187
0.5348837375640869 0.7888040542602539 -0.08527129888534546
0.5348837375640869 0.7991392016410828 -0.11627906560897827
0.5348837375640869 0.837185263633728 -0.13178294897079468
0.5348837375640869 0.9141387343406677 -0.14728683233261108
0.5348837375640869 0.9352647066116333 -0.1782945990562439
0.5348837375640869 0.938037097454071 -0.1627907156944275
0.5503876209259033 0.20442986488342285 -0.10077518224716187
0.5503876209259033 0.2078223079442978 -0.08527129888534546
0.5503876209259033 0.21725216507911682 -0.11627906560897827
0.5503876209259033 0.22479118406772614 -0.06976741552352905
0.5503876209259033 0.24510705471038818 -0.05426359176635742
0.5503876209259033 0.2662513852119446 -0.038759708404541016
0.5503876209259033 0.4422164857387543 -0.13178294897079468
0.5503876209259033 0.514298141002655 -0.02325582504272461
0.5503876209259033 0.5350000262260437 -0.13178294897079468
0.5503876209259033 0.6035720109939575 -0.1627907156944275
0.5503876209259033 0.5998139977455139 -0.13178294897079468
0.5503876209259033 0.6201188564300537 -0.1782945990562439
0.5503876209259033 0.6234965920448303 -0.14728683233261108
0.5503876209259033 0.6130125522613525 -0.02325582504272461
0.5503876209259033 0.6824038028717041 -0.038759708404541016
0.5503876209259033 0.6953600645065308 -0.05426359176635742
0.5503876209259033 0.7405946850776672 -0.06976741552352905
0.5503876209259033 0.785741925239563 -0.08527130633592606
0.5503876209259033 0.8108577132225037 -0.11627906560897827
0.5503876209259033 0.7993608713150024 -0.10077518224716187
0.5503876209259033 0.8490267992019653 -0.13178294897079468
0.5503876209259033 0.9103586077690125 -0.14728683233261108
0.5503876209259033 0.9417163133621216 -0.1782945990562439
0.5503876209259033 0.9390774965286255 -0.1627907156944275
0.5658915042877197 0.20707574486732483 -0.10077518224716187
0.5658915042877197 0.20854376256465912 -0.08527129888534546
0.5658915042877197 0.23058569431304932 -0.06976741552352905
0.5658915042877197 0.24483779072761536 -0.11627906560897827
0.5658915042877197 0.24992573261260986 -0.05426359176635742
0.5658915042877197 0.29413482546806335 -0.038759708404541016
0.5658915042877197 0.4259091019630432 -0.13178294897079468
0.565891444683075 0.5671892762184143 -0.1627907156944275
0.5658915042877197 0.5902954936027527 -0.1782945990562439
0.5658915042877197 0.5874871015548706 -0.14728683233261108
0.5658915042877197 0.6681545972824097 -0.038759708404541016
0.5658915042877197 0.6976917386054993 -0.05426359176635742
0.5658915042877197 0.7436800003051758 -0.13178294897079468
0.5658915042877197 0.7397732138633728 -0.06976741552352905
0.5658915042877197 0.7686405777931213 -0.13178294897079468
0.5658915042877197 0.784648060798645 -0.08527129888534546
0.5658915042877197 0.8041887283325195 -0.11627906560897827
0.5658915042877197 0.7990572452545166 -0.10077518224716187
0.5658915042877197 0.8341774940490723 -0.13178294897079468
0.5658915042877197 0.905915379524231 -0.14728683233261108
0.5658915042877197 0.9355683326721191 -0.1627907156944275
0.5658915042877197 0.9421103000640869 -0.1782945990562439
0.5813953876495361 0.2088722288608551 -0.10077518224716187
0.5813953876495361 0.21022555232048035 -0.08527129143476486
0.5813953876495361 0.23689137399196625 -0.06976741552352905
0.5813953876495361 0.25609466433525085 -0.11627906560897827
0.5813953280448914 0.25785040855407715 -0.05426358804106712
0.5813953876495361 0.34116023778915405 -0.038759708404541016
0.5813953876495361 0.42427340149879456 -0.13178294897079468
0.5813953876495361 0.5378845930099487 -0.1627907156944275
0.5813953876495361 0.5708346962928772 -0.14728683233261108
0.5813953876495361 0.601895809173584 -0.1782945990562439
0.5813953876495361 0.6525307893753052 -0.038759708404541016
0.5813953876495361 0.7051656246185303 -0.05426359176635742
0.5813953876495361 0.7444444894790649 -0.06976741552352905
0.5813953876495361 0.7885705828666687 -0.08527129888534546
0.5813953876495361 0.8058547377586365 -0.10077518224716187
0.5813953876495361 0.8157517910003662 -0.11627906560897827
0.5813953876495361 0.8481924533843994 -0.13178294897079468
0.5813953876495361 0.9168268442153931 -0.14728683233261108
0.5813953876495361 0.9490984678268433 -0.1782945990562439
0.5813953876495361 0.947887659072876 -0.1627907156944275
0.5968992710113525 0.21400296688079834 -0.10077518224716187
0.5968992710113525 0.21559874713420868 -0.08527129888534546
0.5968992710113525 0.24418044090270996 -0.06976741552352905
0.5968992710113525 0.2605838179588318 -0.11627906560897827
0.5968992710113525 0.26995429396629333 -0.05426359176635742
0.5968992710113525 0.43183350563049316 -0.13178294897079468
0.5968992710113525 0.47071313858032227 -0.038759708404541016
0.5968992710113525 0.5722149610519409 -0.1627907156944275
0.5968992710113525 0.5803729891777039 -0.14728683233261108
0.5968992710113525 0.625252366065979 -0.038759708404541016
0.5968992710113525 0.7195039987564087 -0.1782945990562439
0.5968992710113525 0.7166742086410522 -0.05426359176635742
0.5968992710113525 0.7548898458480835 -0.06976741552352905
0.5968992710113525 0.8017972111701965 -0.08527129888534546
0.5968992710113525 0.8232548236846924 -0.10077518224716187
0.5968992710113525 0.8367143869400024 -0.11627906560897827
0.5968992710113525 0.873683512210846 -0.13178294897079468
0.5968992710113525 0.9236987829208374 -0.1782946139574051
0.5968992710113525 0.9415807723999023 -0.14728683233261108
0.5968992710113525 0.9784914255142212 -0.1627907156944275
0.612403154373169 0.21675583720207214 -0.10077518224716187
0.612403154373169 0.21801939606666565 -0.08527129888534546
0.612403154373169 0.24879784882068634 -0.06976741552352905
0.612403154373169 0.26330316066741943 -0.11627906560897827
0.612403154373169 0.2793620228767395 -0.05426359176635742
0.612403154373169 0.4437536299228668 -0.13178294897079468
0.612403154373169 0.6160445213317871 -0.14728683233261108
0.612403154373169 0.6540838479995728 -0.1627907156944275
0.612403154373169 0.7436875700950623 -0.05426359176635742
0.612403154373169 0.777649998664856 -0.06976741552352905
0.612403154373169 0.8307173848152161 -0.08527129888534546
0.612403154373169 0.8592994809150696 -0.10077518224716187
0.612403154373169 0.8905985355377197 -0.11627906560897827
0.612403154373169 0.9299179315567017 -0.13178294897079468
0.612403154373169 0.9888782501220703 -0.1627907156944275
0.612403154373169 0.9853459596633911 -0.14728683233261108
0.6279069185256958 0.21611517667770386 -0.10077518224716187
0.6279069185256958 0.217681884765625 -0.08527129888534546
0.6279069185256958 0.24939247965812683 -0.06976741552352905
0.6279069185256958 0.2641080617904663 -0.11627906560897827
0.6279069185256958 0.2918596863746643 -0.05426359176635742
0.6279069185256958 0.4685978293418884 -0.13178294897079468
0.6279069185256958 0.6710789203643799 -0.14728683233261108
0.6279069185256958 0.7682827711105347 -0.05426359176635742
0.6279069185256958 0.7916644215583801 -0.1627907156944275
0.6279069185256958 0.8066849708557129 -0.06976741552352905
0.6279069185256958 0.8580644130706787 -0.08527129888534546
0.6279069185256958 0.8999766111373901 -0.1627907156944275
0.6279069185256958 0.8963577747344971 -0.10077518224716187
0.6279069185256958 0.9405337572097778 -0.11627906560897827
0.6279069185256958 0.972246527671814 -0.1627907156944275
0.6279069185256958 0.9871098399162292 -0.1627907156944275
0.6279069185256958 0.9889288544654846 -0.14728683233261108
0.6279069185256958 0.9860484004020691 -0.13178294897079468
0.6434108018875122 0.21513937413692474 -0.10077518224716187
0.6434108018875122 0.21695443987846375 -0.08527129888534546
0.6434108018875122 0.24928531050682068 -0.06976741552352905
0.6434108018875122 0.264446496963501 -0.11627906560897827
0.6434108018875122 0.31916603446006775 -0.05426359176635742
0.6434108018875122 0.6062633991241455 -0.13178294897079468
0.6434108018875122 0.7706838846206665 -0.14728683233261108
0.6434108018875122 0.7835785150527954 -0.05426359176635742
0.6434108018875122 0.8272382020950317 -0.06976741552352905
0.6434108018875122 0.8786386251449585 -0.08527129888534546
0.6434108018875122 0.9216316342353821 -0.14728683233261108
0.6434108018875122 0.9314773678779602 -0.10077518224716187
0.6434108018875122 0.9706008434295654 -0.14728683233261108
0.6434108018875122 0.9777529835700989 -0.11627906560897827
0.6434108018875122 0.9867042899131775 -0.14728683233261108
0.6434108018875122 0.9892475605010986 -0.13178294897079468
0.6589146852493286 0.2127004712820053 -0.10077517479658127
0.6589146852493286 0.2145496904850006 -0.08527129888534546
0.6589146852493286 0.24737152457237244 -0.06976741552352905
0.6589146852493286 0.26419156789779663 -0.11627906560897827
0.6589146852493286 0.3565922677516937 -0.05426359176635742
0.6589146852493286 0.6864601373672485 -0.13178294897079468
0.6589146852493286 0.7900095582008362 -0.05426359176635742
0.6589146852493286 0.840397834777832 -0.06976741552352905
0.6589146852493286 0.904325008392334 -0.08527129888534546
0.6589146852493286 0.9571017622947693 -0.10077518224716187
0.6589146852493286 0.9888906478881836 -0.13178294897079468
0.6589146852493286 0.989888072013855 -0.11627906560897827
0.674418568611145 0.2091708481311798 -0.10077518224716187
0.674418568611145 0.20940792560577393 -0.08527129888534546
0.674418568611145 0.24598351120948792 -0.06976741552352905
0.674418568611145 0.2676587402820587 -0.11627906560897827
0.674418568611145 0.4201046824455261 -0.05426359176635742
0.674418568611145 0.7846752405166626 -0.13178294897079468
0.674418568611145 0.7869032621383667 -0.05426359176635742
0.674418568611145 0.8493456840515137 -0.06976741552352905
0.674418568611145 0.9115520119667053 -0.13178294897079468
0.674418568611145 0.9283007979393005 -0.08527129888534546
0.674418568611145 0.9742892980575562 -0.13178294897079468
0.674418568611145 0.9855242371559143 -0.13178294897079468
0.674418568611145 0.9906384944915771 -0.11627906560897827
0.674418568611145 0.986452043056488 -0.10077518224716187
0.6899224519729614 0.20906056463718414 -0.10077518224716187
0.6899224519729614 0.2091192603111267 -0.08527129888534546
0.6899224519729614 0.24924269318580627 -0.06976741552352905
0.6899224519729614 0.27498316764831543 -0.11627906560897827
0.6899224519729614 0.48444700241088867 -0.05426359176635742
0.6899223923683167 0.5506849884986877 -0.05426359176635742
0.6899225115776062 0.629136860370636 -0.05426359176635742
0.6899224519729614 0.7726373672485352 -0.05426359176635742
0.6899224519729614 0.8540651798248291 -0.06976741552352905
0.6899224519729614 0.942529559135437 -0.08527129888534546
0.6899224519729614 0.9906683564186096 -0.11627906560897827
0.6899224519729614 0.9895789623260498 -0.10077518224716187
0.7054263353347778 0.20924384891986847 -0.10077518224716187
0.7054263353347778 0.20919305086135864 -0.08527129888534546
0.7054263353347778 0.2568150460720062 -0.06976741552352905
0.7054263353347778 0.28957033157348633 -0.11627906560897827
0.7054263353347778 0.859595537185669 -0.06976741552352905
0.7054263353347778 0.9523405432701111 -0.08527129888534546
0.7054263353347778 0.990226149559021 -0.11627906560897827
0.7054263353347778 0.99022376537323 -0.10077518224716187
0.720930278301239 0.2107822299003601 -0.10077518224716187
0.7209302186965942 0.209308922290802 -0.08527129888534546
0.7209302186965942 0.2868093252182007 -0.06976741552352905
0.7209302186965942 0.3256962299346924 -0.11627906560897827
0.7209302186965942 0.8603516817092896 -0.06976741552352905
0.7209302186965942 0.9559166431427002 -0.08527130633592606
0.7209302186965942 0.9888601303100586 -0.11627906560897827
0.7209302186965942 0.9904294013977051 -0.10077518224716187
0.7364341020584106 0.2164434790611267 -0.10077518224716187
0.7364341020584106 0.2157275229692459 -0.08527129888534546
0.7364341020584106 0.35687702894210815 -0.06976741552352905
0.7364341020584106 0.6969559192657471 -0.11627906560897827
0.7364341020584106 0.8497011661529541 -0.06976741552352905
0.7364341020584106 0.9674668312072754 -0.11627906560897827
0.7364341020584106 0.9547402858734131 -0.08527129888534546
0.7364341020584106 0.9901025295257568 -0.10077518224716187
0.751937985420227 0.22024846076965332 -0.10077518224716187
0.751937985420227 0.22029969096183777 -0.08527129888534546
0.751937985420227 0.4422614872455597 -0.06976741552352905
0.751937985420227 0.7440786361694336 -0.11627906560897827
0.751937985420227 0.8187799453735352 -0.06976741552352905
0.751937985420227 0.926729679107666 -0.11627906560897827
0.751937985420227 0.9509352445602417 -0.08527129888534546
0.751937985420227 0.9890717267990112 -0.10077518224716187
0.7674418687820435 0.2224883735179901 -0.10077518224716187
0.7674418687820435 0.22258085012435913 -0.08527129888534546
0.7674418687820435 0.7129853963851929 -0.06976741552352905
0.7674418687820435 0.7474652528762817 -0.06976741552352905
0.7674418687820435 0.949029803276062 -0.08527129888534546
0.7674419283866882 0.988336443901062 -0.10077518224716187
0.7829457521438599 0.22407473623752594 -0.10077518224716187
0.7829457521438599 0.22450929880142212 -0.08527129888534546
0.7829457521438599 0.9521808624267578 -0.08527129888534546
0.7829457521438599 0.9879507422447205 -0.10077518224716187
0.7984496355056763 0.22453927993774414 -0.10077518224716187
0.7984496355056763 0.23022682964801788 -0.08527129888534546
0.7984496355056763 0.9559808969497681 -0.08527129888534546
0.7984496355056763 0.9882219433784485 -0.10077518224716187
0.8139535188674927 0.22429443895816803 -0.10077518224716187
0.8139535188674927 0.23206225037574768 -0.08527129888534546
0.8139535188674927 0.9569671750068665 -0.08527129888534546
0.8139535188674927 0.9894229173660278 -0.10077518224716187
0.8294574022293091 0.22428403794765472 -0.10077518224716187
0.8294574022293091 0.23541535437107086 -0.08527129888534546
0.8294574022293091 0.9549290537834167 -0.08527129888534546
0.8294574022293091 0.9899625778198242 -0.10077518224716187
0.8449613451957703 0.2260477989912033 -0.10077518224716187
0.8449612855911255 0.23956218361854553 -0.08527129888534546
0.8449612855911255 0.24449416995048523 -0.08527129888534546
0.8449612855911255 0.3357445299625397 -0.08527129888534546
0.8449612855911255 0.9456490874290466 -0.08527129888534546
0.8449612855911255 0.9901227951049805 -0.10077518224716187
0.8604651689529419 0.23026233911514282 -0.10077518224716187
0.8604651689529419 0.414122998714447 -0.08527129888534546
0.8604651689529419 0.9337561130523682 -0.08527129888534546
0.8604651689529419 0.9897684454917908 -0.10077518224716187
0.8759689331054688 0.23317821323871613 -0.10077518224716187
0.8759689331054688 0.45981264114379883 -0.08527130633592606
0.8759689331054688 0.9193223118782043 -0.08527129888534546
0.8759689331054688 0.9864049553871155 -0.10077518969774246
0.8914728164672852 0.23529212176799774 -0.10077518224716187
0.8914728760719299 0.47772645950317383 -0.08527129888534546
0.8914728760719299 0.9075482487678528 -0.08527129888534546
0.8914728760719299 0.9714140892028809 -0.10077518224716187
0.9069766998291016 0.23683470487594604 -0.10077518224716187
0.9069766998291016 0.49413827061653137 -0.08527129888534546
0.9069766998291016 0.7433456182479858 -0.11627906560897827
0.9069766998291016 0.8132410049438477 -0.11627906560897827
0.9069766998291016 0.869986891746521 -0.11627906560897827
0.9069766998291016 0.8931140303611755 -0.08527130633592606
0.9069766998291016 0.9300904870033264 -0.11627906560897827
0.9069766998291016 0.9540572166442871 -0.10077518224716187
0.922480583190918 0.2387222796678543 -0.10077518224716187
0.922480583190918 0.5166599750518799 -0.08527129888534546
0.922480583190918 0.6598921418190002 -0.11627906560897827
0.9224806427955627 0.8673161268234253 -0.08527129888534546
0.922480583190918 0.8956878185272217 -0.11627907305955887
0.922480583190918 0.9220835566520691 -0.10077518224716187
0.9379845261573792 0.24565662443637848 -0.10077518224716187
0.9379844665527344 0.6220914125442505 -0.11627906560897827
0.9379844665527344 0.6666070222854614 -0.08527129888534546
0.9379844665527344 0.8018630743026733 -0.08527129888534546
0.9379844665527344 0.8256951570510864 -0.11627906560897827
0.9379844665527344 0.8679656982421875 -0.10077518224716187
0.9534883499145508 0.25122958421707153 -0.10077518224716187
0.9534883499145508 0.5899634957313538 -0.11627906560897827
0.9534883499145508 0.725353479385376 -0.11627906560897827
0.9534883499145508 0.7625908851623535 -0.10077518224716187
0.9689922332763672 0.2540838122367859 -0.10077518224716187
0.9689922332763672 0.44077974557876587 -0.11627906560897827
0.9689922332763672 0.48051726818084717 -0.11627906560897827
0.9689922332763672 0.5471165180206299 -0.11627906560897827
0.9689922332763672 0.5902307033538818 -0.11627906560897827
0.9689922332763672 0.6391035318374634 -0.10077518224716187
0.9844961762428284 0.25898459553718567 -0.10077518969774246
0.9844961762428284 0.3841703534126282 -0.11627906560897827
0.9844961166381836 0.469134122133255 -0.11627906560897827
0.9844961166381836 0.5606047511100769 -0.10077518224716187
-0.9844961166381836 0.27131783962249756 -0.10508736968040466
-0.9844961166381836 0.27131783962249756 -0.0962819904088974
-0.9844961166381836 0.28682172298431396 -0.10754263401031494
-0.9844961166381836 0.28682172298431396 -0.09346096962690353
-0.9844961166381836 0.30232560634613037 -0.10869194567203522
-0.9844961166381836 0.30232560634613037 -0.09207046031951904
-0.9844961166381836 0.3178294897079468 -0.10958432406187057
-0.9844961166381836 0.3178294897079468 -0.09105874598026276
-0.9844961762428284 0.3333333730697632 -0.11033746600151062
-0.9844961166381836 0.3333333730697632 -0.09010042250156403
-0.9844961166381836 0.3488372564315796 -0.11119905114173889
-0.9844961166381836 0.3488372564315796 -0.08912941068410873
-0.9844961166381836 0.364341139793396 -0.11203938722610474
-0.9844961166381836 0.364341139793396 -0.08820787817239761
-0.9844960570335388 0.37984490394592285 -0.11280057579278946
-0.9844961166381836 0.37984490394592285 -0.08765702694654465
-0.9844961166381836 0.39534878730773926 -0.11300195753574371
-0.9844961166381836 0.39534878730773926 -0.08754265308380127
-0.9844961166381836 0.41085267066955566 -0.11298404633998871
-0.9844961166381836 0.41085267066955566 -0.08755062520503998
-0.9844961166381836 0.42635655403137207 -0.11291439831256866
-0.9844961166381836 0.42635655403137207 -0.08744937926530838
-0.9844961166381836 0.4418604373931885 -0.1127186119556427
-0.9844961166381836 0.4418604373931885 -0.08744051307439804
-0.9844961166381836 0.45736435055732727 -0.11243743449449539
-0.9844961166381836 0.4573643207550049 -0.08730205148458481
-0.9844961166381836 0.4728682041168213 -0.11184370517730713
-0.9844961166381836 0.4728682041168213 -0.08734938502311707
-0.9844961166381836 0.4883720874786377 -0.1111859679222107
-0.9844961166381836 0.4883720874786377 -0.0877724289894104
-0.9844961166381836 0.5038759708404541 -0.11044223606586456
-0.9844961166381836 0.5038759708404541 -0.08827199786901474
-0.9844961166381836 0.5193798542022705 -0.10938135534524918
-0.9844961166381836 0.5193798542022705 -0.08921448886394501
-0.9844961166381836 0.5348837375640869 -0.10726425796747208
-0.9844961166381836 0.5348837375640869 -0.09154157340526581
-0.9844961166381836 0.5503876209259033 -0.10406103730201721
-0.9844961166381836 0.5503876209259033 -0.09555257111787796
-0.9844961166381836 0.5658915042877197 -0.10111800581216812
-0.9844961166381836 0.5658915042877197 -0.10020139813423157
-0.9689922332763672 0.27131783962249756 -0.10456717759370804
-0.9689922332763672 0.27131783962249756 -0.09671597182750702
-0.9689922332763672 0.28682172298431396 -0.10539416968822479
-0.9689921736717224 0.28682172298431396 -0.09539349377155304
-0.9689922332763672 0.30232560634613037 -0.10595822334289551
-0.9689922332763672 0.30232560634613037 -0.09469529241323471
-0.9689922332763672 0.3178294897079468 -0.1066228598356247
-0.9689922332763672 0.3178294897079468 -0.09367676079273224
-0.9689922332763672 0.3333333730697632 -0.10709986835718155
-0.9689922332763672 0.3333333730697632 -0.09257055819034576
-0.9689922332763672 0.3488372564315796 -0.10761214792728424
-0.9689922332763672 0.3488372564315796 -0.09145448356866837
-0.9689922332763672 0.364341139793396 -0.10803644359111786
-0.9689922332763672 0.364341139793396 -0.09051652252674103
-0.9689922332763672 0.37984490394592285 -0.10834493488073349
-0.9689922332763672 0.37984490394592285 -0.09011897444725037
-0.9689922332763672 0.39534878730773926 -0.10830369591712952
-0.9689922332763672 0.39534878730773926 -0.0899747908115387
-0.9689922332763672 0.41085267066955566 -0.10825590044260025
-0.9689922332763672 0.41085267066955566 -0.08963581919670105
-0.9689922332763672 0.42635655403137207 -0.10831350088119507
-0.9689922332763672 0.42635655403137207 -0.08901123702526093
-0.9689922332763672 0.4418604373931885 -0.10843786597251892
-0.9689922332763672 0.4418604373931885 -0.08870871365070343
-0.9689922332763672 0.4573643207550049 -0.10858768224716187
-0.9689922332763672 0.4573643207550049 -0.0884217768907547
-0.9689922332763672 0.4728682041168213 -0.10869164764881134
-0.9689922332763672 0.4728682041168213 -0.0881185531616211
-0.9689922332763672 0.4883720874786377 -0.10898120701313019
-0.9689922332763672 0.4883720874786377 -0.0881303995847702
-0.9689922332763672 0.5038759708404541 -0.10931861400604248
-0.9689922332763672 0.5038759708404541 -0.08761674910783768
-0.9689922332763672 0.5193798542022705 -0.10970552265644073
-0.9689922332763672 0.5193798542022705 -0.08711299300193787
-0.9689922332763672 0.5348837375640869 -0.1106061339378357
-0.9689922332763672 0.5348837375640869 -0.08656942844390869
-0.9689922332763672 0.5503876209259033 -0.11156792938709259
-0.9689922332763672 0.5503876209259033 -0.08608295023441315
-0.968992292881012 0.5658915042877197 -0.11266593635082245
-0.9689922332763672 0.5658915042877197 -0.08545079827308655
-0.9689922332763672 0.5813953876495361 -0.1133168488740921
-0.9689922332763672 0.5813953876495361 -0.08547252416610718
-0.9689922332763672 0.5968992710113525 -0.11335515975952148
-0.9689922332763672 0.5968992710113525 -0.08664923906326294
-0.968992292881012 0.612403154373169 -0.11229030787944794
-0.9689922332763672 0.612403154373169 -0.08896149694919586
-0.9689922332763672 0.6279069185256958 -0.10991372168064117
-0.9689922332763672 0.6279069185256958 -0.0919334664940834
-0.9689922332763672 0.6434108018875122 -0.10349664837121964
-0.9689921736717224 0.6434108018875122 -0.09820087254047394
-0.9534883499145508 0.25581395626068115 -0.10216641426086426
-0.9534883499145508 0.25581395626068115 -0.09930673241615295
-0.9534883499145508 0.27131783962249756 -0.10389938205480576
-0.9534883499145508 0.27131783962249756 -0.09685166925191879
-0.9534883499145508 0.28682172298431396 -0.10424833744764328
-0.9534883499145508 0.28682172298431396 -0.09614112973213196
-0.9534883499145508 0.30232560634613037 -0.10491454601287842
-0.9534883499145508 0.30232560634613037 -0.09499429911375046
-0.9534883499145508 0.3178294897079468 -0.10565532743930817
-0.9534883499145508 0.3178294897079468 -0.09344782680273056
-0.9534883499145508 0.3333333730697632 -0.10619255900382996
-0.9534883499145508 0.3333333730697632 -0.09185279905796051
-0.9534883499145508 0.3488372564315796 -0.10673122107982635
-0.9534883499145508 0.3488372564315796 -0.09035606682300568
-0.9534883499145508 0.364341139793396 -0.10718616843223572
-0.9534883499145508 0.364341139793396 -0.08905606716871262
-0.9534883499145508 0.37984490394592285 -0.10756909847259521
-0.9534883499145508 0.37984490394592285 -0.08844240754842758
-0.9534883499145508 0.39534878730773926 -0.10765962302684784
-0.9534883499145508 0.39534878730773926 -0.08834467083215714
-0.9534883499145508 0.41085267066955566 -0.10772629082202911
-0.9534883499145508 0.41085267066955566 -0.08808289468288422
-0.9534883499145508 0.42635655403137207 -0.1077868640422821
-0.9534883499145508 0.42635655403137207 -0.08755272626876831
-0.9534883499145508 0.4418604373931885 -0.10780632495880127
-0.9534883499145508 0.4418604373931885 -0.08722236752510071
-0.9534883499145508 0.4573643207550049 -0.10778150707483292
-0.9534883499145508 0.4573643207550049 -0.08674177527427673
-0.9534883499145508 0.4728682041168213 -0.10757038742303848
-0.9534883499145508 0.4728682041168213 -0.08625216037034988
-0.9534883499145508 0.4883720874786377 -0.10744613409042358
-0.9534883499145508 0.4883720874786377 -0.08614245802164078
-0.9534883499145508 0.5038759708404541 -0.10732162743806839
-0.9534883499145508 0.5038759708404541 -0.08554677665233612
-0.9534883499145508 0.5193798542022705 -0.10711948573589325
-0.9534883499145508 0.5193798542022705 -0.08532818406820297
-0.9534883499145508 0.5348837375640869 -0.10721756517887115
-0.9534883499145508 0.5348837375640869 -0.08555688709020615
-0.9534883499145508 0.5503876209259033 -0.10744041949510574
-0.9534883499145508 0.5503876209259033 -0.08599559962749481
-0.9534883499145508 0.5658915042877197 -0.10789550095796585
-0.9534883499145508 0.5658915042877197 -0.0863921046257019
-0.9534883499145508 0.5813953876495361 -0.10879266262054443
-0.9534883499145508 0.5813953876495361 -0.08657523989677429
-0.9534884095191956 0.5968992710113525 -0.11041751503944397
-0.9534883499145508 0.5968992710113525 -0.08616112172603607
-0.9534883499145508 0.612403154373169 -0.11243634670972824
-0.9534883499145508 0.612403154373169 -0.08525795489549637
-0.9534883499145508 0.6279069185256958 -0.11445809155702591
-0.9534883499145508 0.6279069781303406 -0.08511396497488022
-0.9534883499145508 0.6434108018875122 -0.1163485124707222
-0.9534883499145508 0.6434108018875122 -0.08494134247303009
-0.9534883499145508 0.6589146852493286 -0.11663803458213806
-0.9534883499145508 0.6589146852493286 -0.08485154062509537
-0.9534883499145508 0.674418568611145 -0.11680357158184052
-0.953488290309906 0.674418568611145 -0.08478090167045593
-0.9534883499145508 0.6899224519729614 -0.11683300137519836
-0.9534883499145508 0.6899225115776062 -0.08473297953605652
-0.9534883499145508 0.7054263353347778 -0.11670082807540894
-0.9534883499145508 0.7054263353347778 -0.08477205038070679
-0.9534883499145508 0.7209302186965942 -0.11628023535013199
-0.9534883499145508 0.7209302186965942 -0.08490825444459915
-0.9534883499145508 0.7364341020584106 -0.11312410235404968
-0.9534883499145508 0.7364341020584106 -0.0851420983672142
-0.953488290309906 0.751937985420227 -0.1096842959523201
-0.9534883499145508 0.751937985420227 -0.0901770293712616
-0.9534883499145508 0.7674418687820435 -0.10317572951316833
-0.9534883499145508 0.7674418687820435 -0.09812247008085251
-0.9379844665527344 0.25581395626068115 -0.10371128469705582
-0.9379844665527344 0.25581395626068115 -0.0968550518155098
-0.9379844665527344 0.27131783962249756 -0.10382098704576492
-0.9379844665527344 0.27131783962249756 -0.09604598581790924
-0.9379844665527344 0.28682172298431396 -0.10415089130401611
-0.9379844665527344 0.28682172298431396 -0.09515327215194702
-0.9379844665527344 0.30232560634613037 -0.10484243929386139
-0.9379844665527344 0.30232560634613037 -0.09354996681213379
-0.9379844665527344 0.3178294897079468 -0.10557196289300919
-0.9379844665527344 0.3178294897079468 -0.09146730601787567
-0.9379844665527344 0.3333333730697632 -0.10612277686595917
-0.9379844665527344 0.3333333730697632 -0.08942000567913055
-0.9379844665527344 0.3488372564315796 -0.10673864930868149
-0.9379844665527344 0.3488372564315796 -0.08726610988378525
-0.9379844665527344 0.364341139793396 -0.10726213455200195
-0.9379844665527344 0.364341139793396 -0.08530668169260025
-0.9379844665527344 0.37984490394592285 -0.10773898661136627
-0.9379844069480896 0.37984490394592285 -0.08521667867898941
-0.9379844665527344 0.39534878730773926 -0.10794169455766678
-0.9379844665527344 0.39534875750541687 -0.08521784842014313
-0.9379844665527344 0.41085267066955566 -0.10812360048294067
-0.9379844665527344 0.41085267066955566 -0.08520811796188354
-0.9379844665527344 0.42635655403137207 -0.1082053929567337
-0.9379844069480896 0.42635655403137207 -0.08516573160886765
-0.9379844665527344 0.4418604373931885 -0.10813876986503601
-0.9379844665527344 0.4418604373931885 -0.08512882143259048
-0.9379844665527344 0.4573643207550049 -0.10799579322338104
-0.9379844665527344 0.4573642909526825 -0.08507473766803741
-0.9379844665527344 0.4728682041168213 -0.10762964189052582
-0.9379844069480896 0.4728681743144989 -0.08501679450273514
-0.9379844665527344 0.4883720874786377 -0.10735021531581879
-0.9379844665527344 0.4883720874786377 -0.08498360216617584
-0.9379844665527344 0.5038759708404541 -0.10709574073553085
-0.9379844665527344 0.5038759708404541 -0.08491964638233185
-0.9379844665527344 0.5193798542022705 -0.10673964023590088
-0.9379844665527344 0.5193798542022705 -0.08487334847450256
-0.9379844665527344 0.5348837375640869 -0.10660552978515625
-0.9379844665527344 0.5348837375640869 -0.08486032485961914
-0.9379844665527344 0.5503876209259033 -0.10658246278762817
-0.9379845261573792 0.5503876209259033 -0.08486958593130112
-0.9379844665527344 0.5658915042877197 -0.10667026042938232
-0.9379844665527344 0.5658915638923645 -0.08489811420440674
-0.9379844665527344 0.5813953876495361 -0.10689734667539597
-0.9379844665527344 0.5813953876495361 -0.08494240045547485
-0.9379844665527344 0.5968992710113525 -0.10748839378356934
-0.9379844665527344 0.5968992114067078 -0.08495445549488068
-0.9379844665527344 0.612403154373169 -0.10834741592407227
-0.9379845261573792 0.6124032139778137 -0.08494154363870621
-0.9379844665527344 0.6279069185256958 -0.10954850912094116
-0.9379844665527344 0.6279069185256958 -0.0849205031991005
-0.9379844665527344 0.6434108018875122 -0.11123088002204895
-0.9379844665527344 0.6434108018875122 -0.08486860990524292
-0.9379844665527344 0.6589146852493286 -0.11305920034646988
-0.9379844665527344 0.6589146852493286 -0.08480270206928253
-0.9379844069480896 0.6744185090065002 -0.11504773050546646
-0.9379844665527344 0.674418568611145 -0.08469167351722717
-0.9379844665527344 0.6899224519729614 -0.11636728048324585
-0.9379844665527344 0.6899224519729614 -0.0845230370759964
-0.9379844665527344 0.7054263353347778 -0.11661077290773392
-0.9379844665527344 0.7054263353347778 -0.08433807641267776
-0.9379844665527344 0.7209302186965942 -0.11674726754426956
-0.9379844665527344 0.7209302186965942 -0.0841495543718338
-0.9379844665527344 0.7364341020584106 -0.11686788499355316
-0.9379844665527344 0.7364341020584106 -0.08394304662942886
-0.9379844665527344 0.751937985420227 -0.11700103431940079
-0.9379844665527344 0.7519379258155823 -0.08375109732151031
-0.9379844665527344 0.7674418687820435 -0.11695006489753723
-0.9379845261573792 0.7674418687820435 -0.08364225178956985
-0.9379844665527344 0.7829457521438599 -0.11683300137519836
-0.9379844665527344 0.7829457521438599 -0.08375849574804306
-0.9379844665527344 0.7984496355056763 -0.11669483780860901
-0.9379844665527344 0.7984496355056763 -0.08418060839176178
-0.9379845261573792 0.8139535188674927 -0.11625074595212936
-0.9379844665527344 0.8139535188674927 -0.08493269979953766
-0.9379844069480896 0.8294574022293091 -0.11200954765081406
-0.9379844665527344 0.8294574022293091 -0.08918827027082443
-0.9379844665527344 0.8449612855911255 -0.10738319158554077
-0.9379844665527344 0.8449612855911255 -0.09514040499925613
-0.9224806427955627 0.24031007289886475 -0.10172337293624878
-0.9224806427955627 0.24031007289886475 -0.09952400624752045
-0.922480583190918 0.25581395626068115 -0.10409631580114365
-0.9224807024002075 0.25581395626068115 -0.09434191882610321
-0.9224806427955627 0.27131783962249756 -0.10378894209861755
-0.922480583190918 0.27131783962249756 -0.09423252940177917
-0.9224806427955627 0.28682172298431396 -0.10415476560592651
-0.922480583190918 0.28682172298431396 -0.09308363497257233
-0.9224806427955627 0.30232560634613037 -0.1047942042350769
-0.9224806427955627 0.30232560634613037 -0.09118534624576569
-0.9224806427955627 0.3178294897079468 -0.10547514259815216
-0.9224806427955627 0.3178294897079468 -0.08883620798587799
-0.9224807024002075 0.3333333730697632 -0.10598346590995789
-0.9224806427955627 0.3333333730697632 -0.08616319298744202
-0.9224806427955627 0.3488372564315796 -0.10654079169034958
-0.9224806427955627 0.3488372564315796 -0.08513213694095612
-0.9224807024002075 0.364341139793396 -0.10696586221456528
-0.922480583190918 0.3643411099910736 -0.0849996879696846
-0.9224807024002075 0.37984490394592285 -0.10734012722969055
-0.9224806427955627 0.37984490394592285 -0.08495301008224487
-0.9224806427955627 0.39534878730773926 -0.10749295353889465
-0.9224806427955627 0.39534878730773926 -0.08494862169027328
-0.9224806427955627 0.41085267066955566 -0.10769200325012207
-0.9224806427955627 0.41085267066955566 -0.08493488281965256
-0.9224806427955627 0.42635655403137207 -0.10775214433670044
-0.922480583190918 0.42635655403137207 -0.08487634360790253
-0.9224806427955627 0.4418604373931885 -0.10764896869659424
-0.9224806427955627 0.4418604373931885 -0.08481722325086594
-0.922480583190918 0.4573643207550049 -0.10748996585607529
-0.9224806427955627 0.4573643207550049 -0.08474694192409515
-0.9224806427955627 0.4728682041168213 -0.10717219114303589
-0.9224807024002075 0.4728682041168213 -0.08466656506061554
-0.9224806427955627 0.4883720874786377 -0.10697036981582642
-0.9224806427955627 0.4883721172809601 -0.08461339771747589
-0.9224806427955627 0.5038759708404541 -0.10678425431251526
-0.9224806427955627 0.5038759708404541 -0.08454293757677078
-0.9224807024002075 0.5193798542022705 -0.1064750924706459
-0.9224807024002075 0.5193798542022705 -0.08448901772499084
-0.9224806427955627 0.5348837375640869 -0.10631369799375534
-0.9224806427955627 0.5348837375640869 -0.08446475118398666
-0.9224806427955627 0.5503876209259033 -0.10624487698078156
-0.9224806427955627 0.5503876209259033 -0.08447591960430145
-0.922480583190918 0.5658915042877197 -0.10623913258314133
-0.9224807024002075 0.5658915042877197 -0.0845121219754219
-0.922480583190918 0.5813953876495361 -0.10627461224794388
-0.9224806427955627 0.5813953876495361 -0.08456069231033325
-0.9224807024002075 0.5968992710113525 -0.10645423084497452
-0.9224806427955627 0.5968992710113525 -0.08459267765283585
-0.922480583190918 0.612403154373169 -0.10674144327640533
-0.9224806427955627 0.612403154373169 -0.08460604399442673
-0.9224806427955627 0.6279069185256958 -0.10718072950839996
-0.922480583190918 0.6279069185256958 -0.08460976183414459
-0.9224806427955627 0.6434108018875122 -0.10774596035480499
-0.922480583190918 0.6434108018875122 -0.0845901146531105
-0.9224806427955627 0.6589146852493286 -0.1083899587392807
-0.9224806427955627 0.6589146852493286 -0.08456487953662872
-0.922480583190918 0.674418568611145 -0.10919363796710968
-0.9224806427955627 0.674418568611145 -0.08452387154102325
-0.922480583190918 0.6899224519729614 -0.10999725759029388
-0.9224806427955627 0.6899223923683167 -0.08445483446121216
-0.922480583190918 0.7054263353347778 -0.11062945425510406
-0.9224806427955627 0.7054263353347778 -0.08438361436128616
-0.9224806427955627 0.7209302186965942 -0.11073628067970276
-0.9224806427955627 0.7209302186965942 -0.08431907743215561
-0.9224806427955627 0.7364341020584106 -0.11096131801605225
-0.9224807024002075 0.7364341020584106 -0.08425512909889221
-0.922480583190918 0.751937985420227 -0.11173342168331146
-0.9224806427955627 0.751937985420227 -0.08420468121767044
-0.9224806427955627 0.7674418687820435 -0.11245863884687424
-0.9224806427955627 0.7674418687820435 -0.08419611304998398
-0.9224806427955627 0.7829457521438599 -0.11355891823768616
-0.922480583190918 0.7829456925392151 -0.08421439677476883
-0.9224806427955627 0.7984496355056763 -0.11478851735591888
-0.9224806427955627 0.7984496355056763 -0.08426909893751144
-0.9224806427955627 0.8139535188674927 -0.11608341336250305
-0.9224807024002075 0.8139535188674927 -0.0843433141708374
-0.9224806427955627 0.8294574022293091 -0.11645343154668808
-0.9224806427955627 0.8294574022293091 -0.08433464914560318
-0.9224806427955627 0.8449612855911255 -0.11663336306810379
-0.9224806427955627 0.8449612855911255 -0.0843002051115036
-0.9224806427955627 0.8604651689529419 -0.1165793240070343
-0.9224806427955627 0.8604651689529419 -0.08467702567577362
-0.9224806427955627 0.8759689331054688 -0.11638247221708298
-0.9224806427955627 0.8759689331054688 -0.08656436204910278
-0.9224806427955627 0.8914728164672852 -0.11286117136478424
-0.922480583190918 0.8914728164672852 -0.0919983834028244
-0.9224806427955627 0.9069766998291016 -0.10640054941177368
-0.9224807024002075 0.9069766998291016 -0.09848244488239288
-0.9069766998291016 0.24031007289886475 -0.10358195751905441
-0.9069767594337463 0.24031007289886475 -0.09524911642074585
-0.9069767594337463 0.25581395626068115 -0.10391612350940704
-0.9069767594337463 0.25581395626068115 -0.09205049276351929
-0.9069767594337463 0.27131783962249756 -0.1036781594157219
-0.9069767594337463 0.27131783962249756 -0.09204205870628357
-0.9069768190383911 0.28682172298431396 -0.10407914221286774
-0.9069767594337463 0.28682172298431396 -0.0910385474562645
-0.9069767594337463 0.30232560634613037 -0.1046498715877533
-0.9069767594337463 0.30232560634613037 -0.08918403089046478
-0.9069767594337463 0.3178294897079468 -0.10525038838386536
-0.9069767594337463 0.3178294897079468 -0.08649327605962753
-0.9069767594337463 0.3333333730697632 -0.10566676408052444
-0.9069767594337463 0.3333333730697632 -0.08514035493135452
-0.9069766998291016 0.3488372564315796 -0.10611720383167267
-0.9069766998291016 0.3488372564315796 -0.08496029675006866
-0.9069767594337463 0.364341139793396 -0.10641942918300629
-0.9069767594337463 0.364341139793396 -0.08484078198671341
-0.9069768190383911 0.37984490394592285 -0.10667663812637329
-0.9069768190383911 0.37984493374824524 -0.08479132503271103
-0.9069768190383911 0.39534878730773926 -0.10679586231708527
-0.9069767594337463 0.39534878730773926 -0.0847800076007843
-0.9069767594337463 0.41085267066955566 -0.1069878339767456
-0.9069767594337463 0.41085267066955566 -0.08475592732429504
-0.9069766998291016 0.42635655403137207 -0.1070428341627121
-0.9069767594337463 0.4263565242290497 -0.0846911072731018
-0.9069768190383911 0.4418604373931885 -0.1069270521402359
-0.9069768190383911 0.4418604373931885 -0.08462094515562057
-0.9069767594337463 0.4573643207550049 -0.10676123946905136
-0.9069767594337463 0.4573643207550049 -0.08453921228647232
-0.9069767594337463 0.4728682041168213 -0.1064881980419159
-0.9069766998291016 0.4728682041168213 -0.08444993197917938
-0.9069767594337463 0.4883720874786377 -0.10633893311023712
