-0.02325582504272461 -0.9379844665527344 -0.17774757742881775
-0.02325582504272461 -0.9379845261573792 -0.1609014868736267
-0.02325582690536976 -0.9224806427955627 -0.17631542682647705
-0.02325582504272461 -0.9224807024002075 -0.15666493773460388
-0.02325582318007946 -0.9069766998291016 -0.17745636403560638
-0.02325582504272461 -0.9069767594337463 -0.1471998244524002
-0.02325582504272461 -0.8914728760719299 -0.17851634323596954
-0.02325582504272461 -0.8914728760719299 -0.14198371767997742
-0.02325582504272461 -0.8759689927101135 -0.17890256643295288
-0.02325582504272461 -0.8759689927101135 -0.13310332596302032
-0.02325582504272461 -0.8604651093482971 -0.17938023805618286
-0.02325582504272461 -0.8604651093482971 -0.1267956793308258
-0.02325582504272461 -0.8449612259864807 -0.17990413308143616
-0.02325582504272461 -0.8449612259864807 -0.11872197687625885
-0.02325582504272461 -0.8294573426246643 -0.18046043813228607
-0.02325582504272461 -0.8294573426246643 -0.11167379468679428
-0.02325582504272461 -0.8139535188674927 -0.18127095699310303
-0.02325582504272461 -0.8139535188674927 -0.10455328226089478
-0.02325582504272461 -0.7984496355056763 -0.1823028326034546
-0.02325582318007946 -0.7984496355056763 -0.09722436219453812
-0.02325582504272461 -0.7829457521438599 -0.18359775841236115
-0.02325582504272461 -0.7829457521438599 -0.09220729768276215
-0.02325582504272461 -0.7674418687820435 -0.18533888459205627
-0.02325582504272461 -0.7674418687820435 -0.08405911177396774
-0.02325582504272461 -0.751937985420227 -0.18777057528495789
-0.02325582504272461 -0.751937985420227 -0.07943715900182724
-0.02325582504272461 -0.7364341020584106 -0.19126072525978088
-0.02325582504272461 -0.7364341020584106 -0.07302995771169662
-0.02325582504272461 -0.7209302186965942 -0.194190114736557
-0.02325582504272461 -0.7209302186965942 -0.06617367267608643
-0.02325582504272461 -0.7054263353347778 -0.19530795514583588
-0.02325582504272461 -0.7054263353347778 -0.06062612682580948
-0.02325582504272461 -0.6899224519729614 -0.19687899947166443
-0.02325582504272461 -0.6899224519729614 -0.05224604904651642
-0.02325582504272461 -0.674418568611145 -0.19880960881710052
-0.02325582504272461 -0.674418568611145 -0.046561770141124725
-0.02325582504272461 -0.6589146852493286 -0.20065325498580933
-0.02325582504272461 -0.6589146852493286 -0.03805054724216461
-0.02325582504272461 -0.643410861492157 -0.2021143138408661
-0.02325582504272461 -0.6434108018875122 -0.03260860592126846
-0.02325582504272461 -0.6279069781303406 -0.20337441563606262
-0.02325582504272461 -0.6279069781303406 -0.025834474712610245
-0.02325582504272461 -0.6124030947685242 -0.2041599601507187
-0.02325582504272461 -0.6124030947685242 -0.019143862649798393
-0.02325582504272461 -0.596899151802063 -0.20441941916942596
-0.02325582504272461 -0.5968992114067078 -0.013221193104982376
-0.02325582504272461 -0.5813953876495361 -0.20439627766609192
-0.02325582504272461 -0.5813953876495361 -0.005395323038101196
-0.02325582504272461 -0.5658915042877197 -0.20424148440361023
-0.02325582504272461 -0.5658915042877197 0.00041467580012977123
-0.02325582504272461 -0.5503876209259033 -0.2040606439113617
-0.02325582504272461 -0.5503876209259033 0.00873604603111744
-0.02325582504272461 -0.5348837375640869 -0.2039622813463211
-0.02325582504272461 -0.5348837375640869 0.013846749439835548
-0.02325582504272461 -0.5193798542022705 -0.20424942672252655
-0.02325582504272461 -0.5193798542022705 0.021928470581769943
-0.02325582318007946 -0.5038759708404541 -0.20526891946792603
-0.02325582504272461 -0.5038759708404541 0.026793774217367172
-0.02325582504272461 -0.4883720576763153 -0.20743685960769653
-0.02325582504272461 -0.4883720874786377 0.031833067536354065
-0.02325582504272461 -0.4728682041168213 -0.2096678465604782
-0.02325582504272461 -0.4728682041168213 0.03898897394537926
-0.02325582504272461 -0.4573643207550049 -0.21045567095279694
-0.02325582504272461 -0.4573643207550049 0.04211018979549408
-0.02325582504272461 -0.4418604373931885 -0.21126073598861694
-0.02325582504272461 -0.4418604373931885 0.0463903434574604
-0.02325582504272461 -0.42635661363601685 -0.21200570464134216
-0.02325582504272461 -0.42635661363601685 0.05340581014752388
-0.02325582504272461 -0.41085273027420044 -0.21267814934253693
-0.02325582504272461 -0.41085273027420044 0.0574442557990551
-0.02325582504272461 -0.39534884691238403 -0.2131107598543167
-0.02325582504272461 -0.39534884691238403 0.061110686510801315
-0.02325582504272461 -0.3798449635505676 -0.2132052183151245
-0.02325582504272461 -0.3798449635505676 0.06709577888250351
-0.02325582504272461 -0.3643410801887512 -0.21278417110443115
-0.02325582504272461 -0.3643411099910736 0.07265588641166687
-0.02325582504272461 -0.3488371968269348 -0.21217896044254303
-0.02325582504272461 -0.3488371968269348 0.077058807015419
-0.02325582504272461 -0.3333333134651184 -0.21169929206371307
-0.02325582504272461 -0.3333333134651184 0.08560564368963242
-0.02325582504272461 -0.317829430103302 -0.2114008516073227
-0.02325582318007946 -0.317829430103302 0.09028804302215576
-0.02325582504272461 -0.30232560634613037 -0.2114797979593277
-0.02325582504272461 -0.30232560634613037 0.09782320261001587
-0.02325582504272461 -0.28682172298431396 -0.2121727168560028
-0.02325582504272461 -0.28682172298431396 0.10417662560939789
-0.02325582504272461 -0.27131783962249756 -0.2132842093706131
-0.02325582504272461 -0.27131783962249756 0.10986297577619553
-0.02325582504272461 -0.25581395626068115 -0.2147977650165558
-0.02325582504272461 -0.25581395626068115 0.11819510161876678
-0.02325582504272461 -0.24031007289886475 -0.21670037508010864
-0.02325582504272461 -0.24031005799770355 0.12258148193359375
-0.02325582504272461 -0.22480618953704834 -0.21860894560813904
-0.02325582504272461 -0.22480618953704834 0.13153034448623657
-0.02325582504272461 -0.20930230617523193 -0.2199559211730957
-0.02325582504272461 -0.20930230617523193 0.13517363369464874
-0.02325582504272461 -0.19379842281341553 -0.22026748955249786
-0.02325582504272461 -0.19379842281341553 0.14032365381717682
-0.02325582504272461 -0.1782945990562439 -0.2190191149711609
-0.02325582504272461 -0.1782945990562439 0.14816753566265106
-0.02325582504272461 -0.1627907156944275 -0.21735253930091858
-0.02325582504272461 -0.1627907156944275 0.15137030184268951
-0.02325582504272461 -0.14728683233261108 -0.2161930650472641
-0.02325582504272461 -0.14728683233261108 0.15710651874542236
-0.02325582504272461 -0.13178294897079468 -0.21568679809570312
-0.02325582504272461 -0.13178294897079468 0.1641358584165573
-0.02325582504272461 -0.11627906560897827 -0.2164469063282013
-0.02325582504272461 -0.11627906560897827 0.16826775670051575
-0.02325582504272461 -0.10077518224716187 -0.21795371174812317
-0.02325582504272461 -0.10077518224716187 0.17703427374362946
-0.02325582504272461 -0.08527129888534546 -0.221747487783432
-0.02325582504272461 -0.08527129888534546 0.18197588622570038
-0.02325582504272461 -0.06976741552352905 -0.24153676629066467
-0.02325582504272461 -0.06976741552352905 0.1889188587665558
-0.02325582504272461 -0.05426359176635742 -0.25726771354675293
-0.02325582504272461 -0.05426359176635742 0.19639553129673004
-0.02325582504272461 -0.038759708404541016 -0.260771244764328
-0.02325582504272461 -0.038759708404541016 0.20246239006519318
-0.02325582504272461 -0.02325582504272461 -0.26121553778648376
-0.02325582504272461 -0.02325582504272461 0.21081656217575073
-0.02325582504272461 -0.007751941680908203 -0.25785520672798157
-0.02325582504272461 -0.007751941680908203 0.2157006710767746
-0.02325582504272461 0.007751941680908203 -0.24440471827983856
-0.02325582318007946 0.007751941680908203 0.2248682975769043
-0.02325582504272461 0.02325582504272461 -0.24039407074451447
-0.02325582504272461 0.02325582504272461 0.22895759344100952
-0.02325582504272461 0.038759708404541016 -0.2278454452753067
-0.02325582504272461 0.038759708404541016 0.2364378571510315
-0.02325582318007946 0.05426358804106712 -0.22313426434993744
-0.02325582504272461 0.05426359176635742 0.2431059330701828
-0.02325582504272461 0.06976747512817383 -0.221035897731781
-0.02325582504272461 0.06976747512817383 0.2490227222442627
-0.02325582504272461 0.08527135848999023 -0.2192392647266388
-0.02325582504272461 0.08527135848999023 0.25785210728645325
-0.02325582504272461 0.10077524185180664 -0.21886280179023743
-0.02325582504272461 0.10077524185180664 0.2633720934391022
-0.02325582504272461 0.11627912521362305 -0.21957145631313324
-0.02325582504272461 0.11627912521362305 0.2725595235824585
-0.02325582504272461 0.1317828893661499 -0.2197483330965042
-0.02325582504272461 0.1317828893661499 0.27543336153030396
-0.02325582504272461 0.1472867727279663 -0.220200315117836
-0.02325582504272461 0.1472867727279663 0.27704304456710815
-0.02325582504272461 0.1627906709909439 -0.2236464023590088
-0.02325582504272461 0.16279065608978271 0.27834904193878174
-0.02325582504272461 0.17829453945159912 -0.24711951613426208
-0.02325582504272461 0.17829453945159912 0.279557466506958
-0.02325582504272461 0.19379842281341553 -0.2717819809913635
-0.02325582504272461 0.19379842281341553 0.2804012894630432
-0.02325582504272461 0.20930230617523193 -0.27396976947784424
-0.02325582504272461 0.20930230617523193 0.2804299592971802
-0.02325582504272461 0.22480618953704834 -0.2752012610435486
-0.02325582504272461 0.22480618953704834 0.27995580434799194
-0.02325582504272461 0.24031007289886475 -0.2755623459815979
-0.02325582504272461 0.24031007289886475 0.2794282138347626
-0.02325582504272461 0.25581395626068115 -0.2757021486759186
-0.02325582504272461 0.25581395626068115 0.27915841341018677
-0.02325582504272461 0.27131783962249756 -0.27625977993011475
-0.02325582504272461 0.27131783962249756 0.27930304408073425
-0.02325582504272461 0.28682172298431396 -0.2771564722061157
-0.02325582504272461 0.28682172298431396 0.27967584133148193
-0.02325582504272461 0.30232560634613037 -0.27793988585472107
-0.02325582504272461 0.30232560634613037 0.2800489664077759
-0.02325582504272461 0.3178294897079468 -0.2785850167274475
-0.02325582504272461 0.3178294897079468 0.2801820635795593
-0.02325582504272461 0.3333333730697632 -0.2789403200149536
-0.02325582504272461 0.3333333730697632 0.28014567494392395
-0.02325582504272461 0.3488372564315796 -0.2789141535758972
-0.02325582504272461 0.3488372564315796 0.2800970673561096
-0.02325582504272461 0.364341139793396 -0.2787317633628845
-0.02325582504272461 0.364341139793396 0.28003478050231934
-0.02325582504272461 0.37984490394592285 -0.2785816490650177
-0.02325582504272461 0.37984490394592285 0.28048503398895264
-0.02325582504272461 0.39534878730773926 -0.27843907475471497
-0.02325582504272461 0.39534878730773926 0.2817615270614624
-0.02325582504272461 0.41085267066955566 -0.27836287021636963
-0.02325582504272461 0.41085267066955566 0.2834170162677765
-0.02325582504272461 0.42635655403137207 -0.2781919240951538
-0.02325582504272461 0.42635655403137207 0.2834607660770416
-0.02325582504272461 0.4418604373931885 -0.27815794944763184
-0.02325582504272461 0.4418604373931885 0.2822774052619934
-0.02325582504272461 0.4573643207550049 -0.2782139182090759
-0.02325582504272461 0.4573643207550049 0.2819358706474304
-0.02325582504272461 0.4728682041168213 -0.2782626450061798
-0.02325582504272461 0.4728682041168213 0.28199172019958496
-0.02325582504272461 0.4883720874786377 -0.2783896327018738
-0.02325582504272461 0.4883720874786377 0.28271761536598206
-0.02325582504272461 0.5038759708404541 -0.2784666419029236
-0.02325582504272461 0.5038759708404541 0.2836315631866455
-0.02325582504272461 0.5193798542022705 -0.2786298394203186
-0.02325582504272461 0.5193798542022705 0.28294649720191956
-0.02325582504272461 0.5348837375640869 -0.2788611054420471
-0.02325582504272461 0.5348837375640869 0.2418929487466812
-0.02325582504272461 0.5503876209259033 -0.2789784073829651
-0.02325582504272461 0.5503876209259033 0.17014102637767792
-0.02325582504272461 0.5658915042877197 -0.2789894938468933
-0.02325582504272461 0.5658915042877197 0.15342311561107635
-0.02325582504272461 0.5813953876495361 -0.2789866626262665
-0.02325582504272461 0.5813953876495361 0.1449728161096573
-0.02325582504272461 0.5968992710113525 -0.27895060181617737
-0.02325582504272461 0.5968992710113525 0.13488496840000153
-0.02325582504272461 0.612403154373169 -0.27871471643447876
-0.02325582504272461 0.612403154373169 0.13205206394195557
-0.02325582504272461 0.6279069185256958 -0.2785581052303314
-0.02325582504272461 0.6279069185256958 0.12769830226898193
-0.02325582504272461 0.6434108018875122 -0.27833282947540283
-0.02325582504272461 0.6434108018875122 0.1258288025856018
-0.02325582504272461 0.6589146852493286 -0.27811354398727417
-0.02325582504272461 0.6589146852493286 0.12473753094673157
-0.02325582504272461 0.674418568611145 -0.2778695523738861
-0.02325582504272461 0.674418568611145 0.12354090809822083
-0.02325582504272461 0.6899224519729614 -0.2776247560977936
-0.02325582504272461 0.6899224519729614 0.12195713073015213
-0.02325582504272461 0.7054263353347778 -0.2774882912635803
-0.02325582504272461 0.7054263353347778 0.1203138679265976
-0.02325582504272461 0.7209302186965942 -0.2774490714073181
-0.02325582504272461 0.7209302186965942 0.11875466257333755
-0.02325582504272461 0.7364341020584106 -0.2775488495826721
-0.02325582318007946 0.7364340424537659 0.11710603535175323
-0.02325582504272461 0.751937985420227 -0.2776256203651428
-0.02325582504272461 0.751937985420227 0.11390780657529831
-0.02325582504272461 0.7674418687820435 -0.27773234248161316
-0.02325582504272461 0.7674418687820435 0.11026796698570251
-0.02325582504272461 0.7829457521438599 -0.27776962518692017
-0.02325582504272461 0.7829457521438599 0.1077851951122284
-0.02325582504272461 0.7984496355056763 -0.2777853012084961
-0.02325582504272461 0.7984496355056763 0.10651172697544098
-0.02325582504272461 0.8139535188674927 -0.27770230174064636
-0.02325582504272461 0.8139535188674927 0.10601384937763214
-0.02325582504272461 0.8294574022293091 -0.27762484550476074
-0.02325582504272461 0.8294574022293091 0.10607564449310303
-0.02325582504272461 0.8449612855911255 -0.27758026123046875
-0.02325582504272461 0.8449612855911255 0.10636594891548157
-0.02325582504272461 0.8604651689529419 -0.27749037742614746
-0.02325582504272461 0.8604651689529419 0.10675317794084549
-0.02325582504272461 0.8759689331054688 -0.27746519446372986
-0.02325582504272461 0.8759689331054688 0.10698769241571426
-0.02325582504272461 0.8914728164672852 -0.2775030732154846
-0.02325582504272461 0.8914728164672852 0.10700182616710663
-0.02325582504272461 0.9069766998291016 -0.277648389339447
-0.02325582504272461 0.9069766998291016 0.10665315389633179
-0.02325582504272461 0.922480583190918 -0.27798470854759216
-0.02325582504272461 0.922480583190918 0.10598810017108917
-0.02325582504272461 0.9379844665527344 -0.27863186597824097
-0.02325582504272461 0.9379844665527344 0.10492169111967087
-0.02325582504272461 0.9534883499145508 -0.27983009815216064
-0.02325582504272461 0.9534883499145508 0.10383042693138123
-0.02325582504272461 0.9689922332763672 -0.2830667793750763
-0.02325582504272461 0.9689922332763672 0.10381943732500076
-0.02325582504272461 0.9844961166381836 -0.2873370349407196
-0.02325582504272461 0.9844961166381836 0.10742278397083282
-0.007751941680908203 -0.9534883499145508 -0.17887437343597412
-0.007751941680908203 -0.953488290309906 -0.1755419224500656
-0.007751941680908203 -0.9379844665527344 -0.1787639558315277
-0.007751941680908203 -0.9379844069480896 -0.16214017570018768
-0.007751941680908203 -0.9224806427955627 -0.17842335999011993
-0.007751941680908203 -0.9224806427955627 -0.15745145082473755
-0.007751941680908203 -0.9069767594337463 -0.1785159409046173
-0.007751941680908203 -0.9069767594337463 -0.14962562918663025
-0.007751941680908203 -0.8914728760719299 -0.17883087694644928
-0.007751941680908203 -0.8914728760719299 -0.14246487617492676
-0.007751941680908203 -0.8759690523147583 -0.1792202591896057
-0.007751941680908203 -0.8759689927101135 -0.13463084399700165
-0.007751941680908203 -0.8604651093482971 -0.17974109947681427
-0.007751941680908203 -0.8604651689529419 -0.126953125
-0.007751941680908203 -0.8449612259864807 -0.18035387992858887
-0.007751941680908203 -0.8449612259864807 -0.11929024755954742
-0.007751941680908203 -0.8294573426246643 -0.1810419261455536
-0.007751941215246916 -0.8294573426246643 -0.11168763786554337
-0.007751941680908203 -0.8139535188674927 -0.182046040892601
-0.007751941680908203 -0.8139535188674927 -0.10477706044912338
-0.007751941680908203 -0.7984496355056763 -0.18329307436943054
-0.007751941680908203 -0.7984496355056763 -0.09721170365810394
-0.007751941680908203 -0.7829457521438599 -0.18481135368347168
-0.007751941680908203 -0.7829457521438599 -0.0920441746711731
-0.007751941680908203 -0.7674418687820435 -0.18679273128509521
-0.007751941680908203 -0.7674418687820435 -0.08406376838684082
-0.007751941680908203 -0.751937985420227 -0.18963898718357086
-0.007751941680908203 -0.751937985420227 -0.07931654155254364
-0.007751941680908203 -0.7364341020584106 -0.19371531903743744
-0.007751941680908203 -0.7364341020584106 -0.07287359237670898
-0.007751941680908203 -0.7209302186965942 -0.19514082372188568
-0.007751941680908203 -0.7209302186965942 -0.06603557616472244
-0.007751941680908203 -0.7054263353347778 -0.19700688123703003
-0.007751941680908203 -0.7054263353347778 -0.0602211095392704
-0.007751941680908203 -0.6899224519729614 -0.1991834044456482
-0.007751941680908203 -0.6899224519729614 -0.05180132016539574
-0.007751941680908203 -0.674418568611145 -0.20147867500782013
-0.007751941680908203 -0.674418568611145 -0.045452818274497986
-0.007751941680908203 -0.6589146852493286 -0.20356163382530212
-0.007751941680908203 -0.6589146852493286 -0.03717924281954765
-0.007751941680908203 -0.643410861492157 -0.20562011003494263
-0.007751941680908203 -0.643410861492157 -0.0308898463845253
-0.007751941680908203 -0.6279069185256958 -0.20796220004558563
-0.007751941680908203 -0.6279069781303406 -0.023920265957713127
-0.007751941680908203 -0.6124030947685242 -0.20948702096939087
-0.007751941680908203 -0.6124030947685242 -0.017908116802573204
-0.007751941680908203 -0.5968992114067078 -0.20969316363334656
-0.007751941680908203 -0.5968992114067078 -0.012087415903806686
-0.007751941680908203 -0.5813953876495361 -0.20955915749073029
-0.007751941680908203 -0.5813953876495361 -0.004970423877239227
-0.007751941680908203 -0.5658915042877197 -0.20934663712978363
-0.007751941680908203 -0.5658915042877197 0.0015250749420374632
-0.007751941680908203 -0.5503876805305481 -0.208771750330925
-0.007751941215246916 -0.5503876209259033 0.009259970858693123
-0.007751941680908203 -0.5348837375640869 -0.20812012255191803
-0.007751941680908203 -0.5348837375640869 0.014822246506810188
-0.007751941680908203 -0.5193798542022705 -0.20796383917331696
-0.007751941680908203 -0.5193798542022705 0.02297886088490486
-0.007751941680908203 -0.5038759708404541 -0.20865534245967865
-0.007751941680908203 -0.5038759708404541 0.02728685364127159
-0.007751941680908203 -0.4883720874786377 -0.20957717299461365
-0.007751941680908203 -0.4883720874786377 0.03274700790643692
-0.007751941680908203 -0.4728682041168213 -0.21022813022136688
-0.007751941680908203 -0.4728682041168213 0.03941420093178749
-0.007751941680908203 -0.4573643207550049 -0.21098846197128296
-0.007751941680908203 -0.4573643207550049 0.042753420770168304
-0.007751941680908203 -0.4418604373931885 -0.21182265877723694
-0.007751941680908203 -0.4418604373931885 0.04739578068256378
-0.007751941680908203 -0.42635661363601685 -0.21262364089488983
-0.007751941680908203 -0.42635658383369446 0.05443694069981575
-0.007751941680908203 -0.41085273027420044 -0.21334773302078247
-0.007751941680908203 -0.41085273027420044 0.058015547692775726
-0.007751941680908203 -0.39534884691238403 -0.2138195037841797
-0.007751941680908203 -0.39534884691238403 0.06197237968444824
-0.007751941680908203 -0.3798449635505676 -0.21390566229820251
-0.007751941680908203 -0.3798449635505676 0.06844255328178406
-0.007751941680908203 -0.3643410801887512 -0.21342845261096954
-0.007751941680908203 -0.3643411099910736 0.07342343032360077
-0.007751941680908203 -0.3488371968269348 -0.21277910470962524
-0.007751941680908203 -0.3488371968269348 0.0784154161810875
-0.007751941680908203 -0.3333333134651184 -0.21233662962913513
-0.007751941680908203 -0.3333333134651184 0.08649156987667084
-0.007751941680908203 -0.317829430103302 -0.21216845512390137
-0.007751941680908203 -0.317829430103302 0.09168948233127594
-0.007751941680908203 -0.30232560634613037 -0.2125004231929779
-0.007751941680908203 -0.30232560634613037 0.10043551027774811
-0.007751941680908203 -0.28682172298431396 -0.21365590393543243
-0.007751941680908203 -0.28682172298431396 0.1053871437907219
-0.007751941680908203 -0.27131783962249756 -0.215254545211792
-0.007751941680908203 -0.27131783962249756 0.11211662739515305
-0.007751941680908203 -0.25581395626068115 -0.21725475788116455
-0.007751941215246916 -0.25581395626068115 0.11915775388479233
-0.00775194214656949 -0.24031008780002594 -0.21942326426506042
-0.007751941680908203 -0.24031007289886475 0.12438643723726273
-0.007751941680908203 -0.22480617463588715 -0.22111772000789642
-0.00775194214656949 -0.22480618953704834 0.13261321187019348
-0.007751941680908203 -0.20930230617523193 -0.22191618382930756
-0.007751941680908203 -0.20930229127407074 0.13634324073791504
-0.007751941680908203 -0.19379842281341553 -0.22161197662353516
-0.007751941680908203 -0.19379842281341553 0.14275483787059784
-0.007751941680908203 -0.1782945990562439 -0.21991191804409027
-0.007751941680908203 -0.1782945990562439 0.14908021688461304
-0.007751941680908203 -0.1627907156944275 -0.21787670254707336
-0.007751941680908203 -0.1627907156944275 0.15270203351974487
-0.007751941680908203 -0.14728683233261108 -0.2164781391620636
-0.007751941680908203 -0.14728683233261108 0.1597771793603897
-0.007751941680908203 -0.13178294897079468 -0.21576544642448425
-0.007751941680908203 -0.13178294897079468 0.1652417778968811
-0.007751941680908203 -0.11627906560897827 -0.21633188426494598
-0.007751941680908203 -0.11627906560897827 0.17008613049983978
-0.007751941680908203 -0.10077518224716187 -0.21765857934951782
-0.007751941680908203 -0.10077518224716187 0.1789592206478119
-0.007751941680908203 -0.08527129888534546 -0.2210990935564041
-0.007751941680908203 -0.08527129888534546 0.1834506392478943
-0.007751941680908203 -0.06976741552352905 -0.24135009944438934
-0.007751941680908203 -0.06976741552352905 0.19157469272613525
-0.007751941680908203 -0.05426359176635742 -0.25708216428756714
-0.007751941680908203 -0.05426359176635742 0.19769100844860077
-0.007751941680908203 -0.038759708404541016 -0.2605915069580078
-0.007751941680908203 -0.038759708404541016 0.20501935482025146
-0.007751941680908203 -0.02325582504272461 -0.2609548270702362
-0.007751941680908203 -0.02325582504272461 0.21202711760997772
-0.007751941680908203 -0.007751941680908203 -0.2576819956302643
-0.007751941680908203 -0.007751941680908203 0.21785402297973633
-0.007751941680908203 0.007751941680908203 -0.24574580788612366
-0.007751941680908203 0.007751941680908203 0.22615423798561096
-0.007751941680908203 0.02325582504272461 -0.24183140695095062
-0.007751941680908203 0.02325582504272461 0.23048433661460876
-0.007751941680908203 0.038759708404541016 -0.2403397113084793
-0.007751941680908203 0.038759708404541016 0.23925566673278809
-0.00775194214656949 0.05426359176635742 -0.23326537013053894
-0.007751941680908203 0.05426359176635742 0.24400679767131805
-0.007751941680908203 0.06976747512817383 -0.23039443790912628
-0.007751941680908203 0.06976747512817383 0.25103238224983215
-0.007751941680908203 0.08527135848999023 -0.2299630343914032
-0.007751941680908203 0.08527135848999023 0.25857242941856384
-0.007751941680908203 0.10077524185180664 -0.23335164785385132
-0.007751941680908203 0.10077524185180664 0.2649703621864319
-0.007751941680908203 0.11627912521362305 -0.23854538798332214
-0.007751941680908203 0.11627912521362305 0.2732486426830292
-0.007751941680908203 0.1317828893661499 -0.23816293478012085
-0.007751941680908203 0.1317828893661499 0.2757645547389984
-0.007751941680908203 0.1472867727279663 -0.23518837988376617
-0.007751941680908203 0.1472867727279663 0.27731940150260925
-0.007751941680908203 0.16279065608978271 -0.2411910593509674
-0.007751941680908203 0.16279065608978271 0.27865514159202576
-0.007751941680908203 0.17829453945159912 -0.25661253929138184
-0.007751941680908203 0.17829453945159912 0.2797638177871704
-0.007751941680908203 0.19379842281341553 -0.2729603350162506
-0.007751941680908203 0.19379842281341553 0.2799558639526367
-0.007751941680908203 0.20930230617523193 -0.2754385471343994
-0.007751941215246916 0.20930230617523193 0.2785799503326416
-0.007751941680908203 0.22480618953704834 -0.2766851782798767
-0.007751941680908203 0.22480618953704834 0.2773932218551636
-0.007751941680908203 0.24031007289886475 -0.2769344747066498
-0.007751941680908203 0.24031007289886475 0.27769309282302856
-0.007751941680908203 0.25581395626068115 -0.27688437700271606
-0.00775194214656949 0.25581395626068115 0.27877897024154663
-0.007751941680908203 0.27131783962249756 -0.27713173627853394
-0.007751941680908203 0.27131783962249756 0.27971071004867554
-0.007751941680908203 0.28682172298431396 -0.2777117192745209
-0.007751941680908203 0.28682172298431396 0.28039243817329407
-0.007751941680908203 0.30232560634613037 -0.2783166766166687
-0.007751941680908203 0.30232560634613037 0.28077179193496704
-0.007751941680908203 0.3178294897079468 -0.27883240580558777
-0.007751941680908203 0.3178294897079468 0.28093889355659485
-0.007751941680908203 0.3333333730697632 -0.27909260988235474
-0.007751941680908203 0.3333333730697632 0.28099772334098816
-0.007751941680908203 0.3488372564315796 -0.2790115177631378
-0.007751941680908203 0.3488372564315796 0.28099286556243896
-0.007751941680908203 0.364341139793396 -0.27879413962364197
-0.007751941680908203 0.364341139793396 0.28079479932785034
-0.007751941680908203 0.37984490394592285 -0.27859634160995483
-0.007751941680908203 0.37984490394592285 0.2806062698364258
-0.007751941680908203 0.39534878730773926 -0.2784084677696228
-0.007751941680908203 0.39534878730773926 0.28054702281951904
-0.007751941680908203 0.41085267066955566 -0.27831512689590454
-0.007751941680908203 0.41085267066955566 0.2813120484352112
-0.007751941680908203 0.42635655403137207 -0.278144896030426
-0.007751941680908203 0.42635655403137207 0.28237777948379517
-0.007751941680908203 0.4418604373931885 -0.2781047224998474
-0.007751941680908203 0.4418604373931885 0.28294944763183594
-0.007751941680908203 0.4573643207550049 -0.2781594395637512
-0.007751941680908203 0.4573643207550049 0.2830096483230591
-0.007751941680908203 0.4728682041168213 -0.2782173752784729
-0.007751941680908203 0.4728682041168213 0.28290289640426636
-0.007751941680908203 0.4883720874786377 -0.278364896774292
-0.007751941680908203 0.4883720874786377 0.28291967511177063
-0.007751941680908203 0.5038759708404541 -0.2784743905067444
-0.007751941680908203 0.5038759708404541 0.2832409143447876
-0.007751941680908203 0.5193798542022705 -0.27866220474243164
-0.007751941680908203 0.5193798542022705 0.2823645770549774
-0.007751941680908203 0.5348837375640869 -0.27886897325515747
-0.007751941680908203 0.5348837375640869 0.22360271215438843
-0.007751941680908203 0.5503876209259033 -0.27895718812942505
-0.007751941680908203 0.5503876209259033 0.16946972906589508
-0.007751941680908203 0.5658915042877197 -0.2789745330810547
-0.007751941680908203 0.5658915042877197 0.1537528932094574
-0.007751941680908203 0.5813953876495361 -0.27897560596466064
-0.007751941680908203 0.5813953876495361 0.1453891098499298
-0.007751941680908203 0.5968992710113525 -0.278933584690094
-0.007751941680908203 0.5968992710113525 0.13506990671157837
-0.007751941680908203 0.612403154373169 -0.2787058353424072
-0.00775194214656949 0.612403154373169 0.13206230103969574
-0.007751941680908203 0.6279069185256958 -0.2785555124282837
-0.007751941680908203 0.6279069185256958 0.12767712771892548
-0.007751941680908203 0.6434108018875122 -0.278340607881546
-0.007751941680908203 0.6434108018875122 0.12573562562465668
-0.007751941680908203 0.6589146852493286 -0.2781396508216858
-0.007751941680908203 0.6589146852493286 0.1246238648891449
-0.007751941680908203 0.674418568611145 -0.2779243588447571
-0.007751941680908203 0.674418568611145 0.12346263229846954
-0.007751941680908203 0.6899224519729614 -0.27772635221481323
-0.007751941680908203 0.6899224519729614 0.12190811336040497
-0.007751941680908203 0.7054263353347778 -0.2776338458061218
-0.007751941680908203 0.7054263353347778 0.1202598586678505
-0.007751941680908203 0.7209302186965942 -0.27762287855148315
-0.007751941680908203 0.7209302186965942 0.11867409199476242
-0.007751941680908203 0.7364341020584106 -0.2777390778064728
-0.007751941680908203 0.7364341020584106 0.11700170487165451
-0.007751941680908203 0.751937985420227 -0.2778184413909912
-0.007751941680908203 0.751937985420227 0.1135995090007782
-0.007751941680908203 0.7674418687820435 -0.2779160439968109
-0.007751941680908203 0.7674418687820435 0.11006638407707214
-0.007751941680908203 0.7829457521438599 -0.27795517444610596
-0.007751941680908203 0.7829457521438599 0.10764395445585251
-0.007751941680908203 0.7984496355056763 -0.27797675132751465
-0.007751941680908203 0.7984496355056763 0.10638293623924255
-0.007751941680908203 0.8139535188674927 -0.2778986692428589
-0.007751941680908203 0.8139535188674927 0.10589186102151871
-0.007751941680908203 0.8294574022293091 -0.2778194546699524
-0.007751941215246916 0.8294574022293091 0.10597588121891022
-0.007751941680908203 0.8449612855911255 -0.2777668237686157
-0.007751941680908203 0.8449612855911255 0.10628876090049744
-0.007751941680908203 0.8604651689529419 -0.2776651680469513
-0.007751941680908203 0.8604651689529419 0.1067034900188446
-0.007751941680908203 0.8759689331054688 -0.27762219309806824
-0.007751941680908203 0.8759689331054688 0.10694952309131622
-0.007751941680908203 0.8914728164672852 -0.2776302397251129
-0.007751941680908203 0.8914728164672852 0.1069616973400116
-0.007751941680908203 0.9069766998291016 -0.2777372896671295
-0.007751941680908203 0.9069766998291016 0.10662487149238586
-0.007751941680908203 0.922480583190918 -0.2780371308326721
-0.007751941680908203 0.922480583190918 0.10601043701171875
-0.007751941680908203 0.9379844665527344 -0.278626948595047
-0.007751941680908203 0.9379844665527344 0.10500543564558029
-0.007751941680908203 0.9534883499145508 -0.2797337472438812
-0.007751941680908203 0.9534883499145508 0.10400436818599701
-0.007751941680908203 0.9689922332763672 -0.28297531604766846
-0.007751941680908203 0.9689921736717224 0.10417685657739639
-0.007751941680908203 0.9844961166381836 -0.2870672345161438
-0.007751941680908203 0.9844961762428284 0.10755293071269989
0.007751941680908203 -0.9534883499145508 -0.17884615063667297
0.007751941680908203 -0.9534883499145508 -0.17570830881595612
0.007751941680908203 -0.9379844665527344 -0.17875462770462036
0.007751941680908203 -0.9379844665527344 -0.1622658222913742
0.007751941680908203 -0.9224806427955627 -0.17842771112918854
0.007751941680908203 -0.9224806427955627 -0.15750473737716675
0.007751941680908203 -0.9069767594337463 -0.17851826548576355
0.007751941680908203 -0.9069767594337463 -0.1497630923986435
0.007751941680908203 -0.8914728760719299 -0.1788327693939209
0.007751941680908203 -0.8914728760719299 -0.14249378442764282
0.007751941680908203 -0.8759689927101135 -0.1792232245206833
0.007751941680908203 -0.8759690523147583 -0.13468335568904877
0.007751941680908203 -0.8604651093482971 -0.17974142730236053
0.007751941680908203 -0.8604651689529419 -0.12694478034973145
0.007751941680908203 -0.8449612259864807 -0.18035033345222473
0.007751941680908203 -0.8449612259864807 -0.11921442300081253
0.007751941680908203 -0.8294573426246643 -0.18103104829788208
0.007751941680908203 -0.8294572830200195 -0.11165158450603485
0.007751941680908203 -0.8139535188674927 -0.18201874196529388
0.007751941680908203 -0.8139535188674927 -0.10469121485948563
0.007751941680908203 -0.7984496355056763 -0.18324613571166992
0.007751941680908203 -0.7984496355056763 -0.09721028059720993
0.007751941680908203 -0.7829457521438599 -0.18474559485912323
0.007751941680908203 -0.7829457521438599 -0.0920242890715599
0.007751941680908203 -0.7674418687820435 -0.18668730556964874
0.007751941680908203 -0.7674418687820435 -0.08407716453075409
0.007751941680908203 -0.751937985420227 -0.1894504278898239
0.007751941680908203 -0.751937985420227 -0.07931873202323914
0.007751941680908203 -0.7364341020584106 -0.1933756321668625
0.007751941680908203 -0.7364341020584106 -0.07281096279621124
0.007751941680908203 -0.7209302186965942 -0.1949988603591919
0.00775194214656949 -0.7209302186965942 -0.0660119280219078
0.007751941680908203 -0.7054263353347778 -0.1968114972114563
0.007751941680908203 -0.7054263353347778 -0.06019040197134018
0.007751941680908203 -0.6899224519729614 -0.19896700978279114
0.007751941680908203 -0.6899224519729614 -0.051853250712156296
0.007751941680908203 -0.674418568611145 -0.20125776529312134
0.007751941680908203 -0.674418568611145 -0.04564065486192703
0.007751941680908203 -0.6589146852493286 -0.20332500338554382
0.007751941680908203 -0.6589146852493286 -0.03740569204092026
0.007751941680908203 -0.643410861492157 -0.20529460906982422
0.007751941680908203 -0.6434109210968018 -0.031264085322618484
0.007751941680908203 -0.6279069185256958 -0.2074548304080963
0.007751941680908203 -0.6279069781303406 -0.02438964881002903
0.007751941680908203 -0.612403154373169 -0.20909473299980164
0.007751941680908203 -0.6124030947685242 -0.01821543648838997
0.007751941680908203 -0.5968992114067078 -0.20940813422203064
0.007751941680908203 -0.5968992114067078 -0.012294469401240349
0.007751941680908203 -0.5813953876495361 -0.2092764675617218
0.007751941680908203 -0.5813953876495361 -0.005051884800195694
0.007751941680908203 -0.5658915042877197 -0.20875699818134308
0.007751941680908203 -0.5658915042877197 0.0014867503196001053
0.00775194214656949 -0.5503876209259033 -0.20818741619586945
0.007751941680908203 -0.5503876209259033 0.009255054406821728
0.007751941680908203 -0.5348837375640869 -0.20762115716934204
0.007751941680908203 -0.5348837375640869 0.014889022335410118
0.00775194214656949 -0.5193798542022705 -0.20752254128456116
0.007751941680908203 -0.5193798542022705 0.023113591596484184
0.007751941680908203 -0.5038759708404541 -0.20825530588626862
0.007751941215246916 -0.5038759708404541 0.0273848045617342
0.007751941680908203 -0.4883720874786377 -0.20949003100395203
0.007751941680908203 -0.4883720874786377 0.03293639048933983
0.007751941680908203 -0.4728682041168213 -0.2101459801197052
0.007751941680908203 -0.4728682041168213 0.03950795158743858
0.007751941680908203 -0.4573643207550049 -0.21090254187583923
0.007751941680908203 -0.4573643207550049 0.042885735630989075
0.007751941680908203 -0.4418604373931885 -0.21173855662345886
0.007751941680908203 -0.4418604373931885 0.04758216440677643
0.007751941680908203 -0.42635661363601685 -0.21255405247211456
0.00775194214656949 -0.42635664343833923 0.05453930422663689
0.007751941680908203 -0.41085273027420044 -0.21329550445079803
0.007751941680908203 -0.41085273027420044 0.058135371655225754
0.007751941680908203 -0.39534884691238403 -0.21378639340400696
0.007751941680908203 -0.39534884691238403 0.062134649604558945
0.007751941680908203 -0.3798449635505676 -0.21388645470142365
0.007751941680908203 -0.3798449635505676 0.06870197504758835
0.007751941680908203 -0.3643410801887512 -0.21341773867607117
0.007751941215246916 -0.3643410801887512 0.07355313003063202
0.007751941680908203 -0.3488371968269348 -0.21277225017547607
0.007751941680908203 -0.3488371968269348 0.0785820409655571
0.007751941680908203 -0.3333333134651184 -0.21232271194458008
0.007751941680908203 -0.3333333134651184 0.08659812808036804
0.007751941680908203 -0.317829430103302 -0.21213841438293457
0.007751941680908203 -0.317829430103302 0.09184562414884567
0.007751941680908203 -0.30232560634613037 -0.21244479715824127
0.007751941680908203 -0.30232560634613037 0.10060364753007889
0.007751941680908203 -0.28682172298431396 -0.21356207132339478
0.007751941680908203 -0.28682172298431396 0.10550300031900406
0.007751941680908203 -0.27131783962249756 -0.21511556208133698
0.007751941680908203 -0.27131783962249756 0.11222860217094421
0.007751941680908203 -0.25581395626068115 -0.21711057424545288
0.007751941680908203 -0.25581395626068115 0.11922631412744522
0.007751941680908203 -0.24031007289886475 -0.21936792135238647
0.007751941680908203 -0.24031007289886475 0.12445539236068726
0.007751941680908203 -0.22480618953704834 -0.22123289108276367
0.007751941680908203 -0.22480618953704834 0.1326250433921814
0.007751941680908203 -0.20930230617523193 -0.22221994400024414
0.007751941680908203 -0.20930230617523193 0.1364019215106964
0.007751941680908203 -0.19379842281341553 -0.2220253348350525
0.007751941680908203 -0.19379842281341553 0.1427689641714096
0.007751941680908203 -0.1782945990562439 -0.22033821046352386
0.007751941680908203 -0.1782945990562439 0.14909939467906952
0.007751941680908203 -0.1627907156944275 -0.21825823187828064
0.007751941680908203 -0.1627907156944275 0.15272776782512665
0.007751941680908203 -0.14728683233261108 -0.21681629121303558
0.007751941680908203 -0.14728683233261108 0.15971076488494873
0.007751941680908203 -0.13178294897079468 -0.2160862386226654
0.007751941680908203 -0.13178294897079468 0.16522251069545746
0.007751941680908203 -0.11627906560897827 -0.2166820913553238
0.007751941680908203 -0.11627906560897827 0.1700456142425537
0.007751941680908203 -0.10077518224716187 -0.21808785200119019
0.00775194214656949 -0.10077518969774246 0.17892074584960938
0.007751941680908203 -0.08527129888534546 -0.2217779904603958
0.007751941680908203 -0.08527129888534546 0.1834176480770111
0.007751941680908203 -0.06976741552352905 -0.24173183739185333
0.007751941680908203 -0.06976741552352905 0.1914987564086914
0.007751941680908203 -0.05426359176635742 -0.25706252455711365
0.007751941680908203 -0.05426359176635742 0.1976611614227295
0.007751941680908203 -0.038759708404541016 -0.26056647300720215
0.007751941680908203 -0.038759708404541016 0.2049209177494049
0.007751941680908203 -0.02325582504272461 -0.2610112726688385
0.007751941680908203 -0.02325582504272461 0.21198152005672455
0.007751941680908203 -0.007751941680908203 -0.2578897476196289
0.007751941680908203 -0.007751941680908203 0.21774393320083618
0.007751941680908203 0.007751941680908203 -0.2466127872467041
0.007751941215246916 0.007751941215246916 0.2260822057723999
0.007751941680908203 0.02325582504272461 -0.24237987399101257
0.007751941680908203 0.02325582504272461 0.23038583993911743
0.007751941680908203 0.038759708404541016 -0.24075905978679657
0.007751941680908203 0.038759708404541016 0.2390163540840149
0.007751941680908203 0.05426359176635742 -0.2349783480167389
0.007751941680908203 0.05426359176635742 0.24392904341220856
0.007751941680908203 0.06976747512817383 -0.23117798566818237
0.007751941680908203 0.06976747512817383 0.2508038282394409
0.007751941680908203 0.08527135848999023 -0.23022200167179108
0.007751941680908203 0.08527135848999023 0.25849175453186035
0.007751941680908203 0.10077524185180664 -0.23363062739372253
0.007751941680908203 0.10077524185180664 0.2647884786128998
0.007751941680908203 0.11627911776304245 -0.23979496955871582
0.007751941680908203 0.11627912521362305 0.27320995926856995
0.007751941680908203 0.1317828893661499 -0.2397766411304474
0.007751941680908203 0.1317828893661499 0.27576687932014465
0.007751941680908203 0.1472867727279663 -0.23652884364128113
0.007751941680908203 0.1472867727279663 0.2773372530937195
0.007751941680908203 0.16279065608978271 -0.24291937053203583
0.007751941680908203 0.16279065608978271 0.2786693572998047
0.007751941680908203 0.17829453945159912 -0.25995808839797974
0.007751941680908203 0.17829453945159912 0.2797740399837494
0.007751941680908203 0.19379842281341553 -0.27330154180526733
0.007751941680908203 0.19379842281341553 0.28001630306243896
0.007751941680908203 0.20930230617523193 -0.2755748927593231
0.007751941680908203 0.20930230617523193 0.2786797285079956
0.007751941680908203 0.22480618953704834 -0.2767329514026642
0.007751941680908203 0.22480620443820953 0.2774336636066437
0.007751941680908203 0.24031007289886475 -0.2769613265991211
0.007751941680908203 0.24031007289886475 0.27766382694244385
0.007751941680908203 0.25581395626068115 -0.27691587805747986
0.00775194214656949 0.25581395626068115 0.2787347435951233
0.007751941680908203 0.27131783962249756 -0.27717480063438416
0.007751941680908203 0.27131783962249756 0.2796868681907654
0.007751941680908203 0.28682172298431396 -0.2777496874332428
0.007751941680908203 0.28682172298431396 0.2803807854652405
0.007751941680908203 0.30232560634613037 -0.27834004163742065
0.007751941680908203 0.30232560634613037 0.2807607054710388
0.007751941680908203 0.3178294897079468 -0.27883464097976685
0.007751941680908203 0.3178294897079468 0.28092262148857117
0.007751941680908203 0.3333333730697632 -0.2790663242340088
0.007751941680908203 0.3333333730697632 0.28097155690193176
0.007751941680908203 0.3488372564315796 -0.27896231412887573
0.007751941680908203 0.3488372564315796 0.2809595763683319
0.007751941680908203 0.364341139793396 -0.2787349224090576
0.007751941680908203 0.364341139793396 0.28075698018074036
0.007751941680908203 0.37984490394592285 -0.27853623032569885
0.007751941680908203 0.37984490394592285 0.28057748079299927
0.007751941680908203 0.39534878730773926 -0.27835318446159363
0.007751941680908203 0.39534878730773926 0.2805483341217041
0.007751941680908203 0.41085267066955566 -0.2782660722732544
0.007751941680908203 0.41085267066955566 0.2813521921634674
0.007751941680908203 0.42635655403137207 -0.27809959650039673
0.007751941680908203 0.42635655403137207 0.28241994976997375
0.007751941680908203 0.4418604373931885 -0.2780643403530121
0.007751941680908203 0.4418604373931885 0.28298497200012207
0.007751941680908203 0.4573643207550049 -0.27812302112579346
0.007751941680908203 0.4573643207550049 0.2830720543861389
0.007751941680908203 0.4728682041168213 -0.2781835198402405
0.007751941680908203 0.4728682041168213 0.2829833924770355
0.007751941680908203 0.4883720874786377 -0.27833133935928345
0.007751941680908203 0.4883720874786377 0.2829902768135071
0.007751941680908203 0.5038759708404541 -0.27844393253326416
0.007751941680908203 0.5038759708404541 0.2832632064819336
0.007751941680908203 0.5193798542022705 -0.2786291539669037
0.007751941680908203 0.5193798542022705 0.2823733687400818
0.007751941680908203 0.5348837375640869 -0.2788259983062744
0.007751941680908203 0.5348837375640869 0.22326622903347015
0.007751941680908203 0.5503876209259033 -0.27890264987945557
0.007751941680908203 0.5503876209259033 0.16933128237724304
0.007751941680908203 0.5658915042877197 -0.2789117693901062
0.007751941680908203 0.5658915042877197 0.15354561805725098
0.007751941680908203 0.5813953876495361 -0.27890926599502563
0.007751941680908203 0.5813953876495361 0.14498719573020935
0.007751941680908203 0.5968992710113525 -0.27887052297592163
0.00775194214656949 0.5968992710113525 0.13490574061870575
0.007751941680908203 0.612403154373169 -0.2786533236503601
0.007751941680908203 0.612403154373169 0.13196559250354767
0.007751941680908203 0.6279069185256958 -0.2785126566886902
0.007751941680908203 0.6279069185256958 0.12735728919506073
0.007751941680908203 0.6434108018875122 -0.2783063054084778
0.007751941680908203 0.6434108018875122 0.12548920512199402
0.007751941680908203 0.6589146852493286 -0.27811163663864136
0.007751941680908203 0.6589146852493286 0.1244204118847847
0.007751941680908203 0.674418568611145 -0.27790015935897827
0.007751941680908203 0.674418568611145 0.1233007162809372
0.007751941680908203 0.6899224519729614 -0.27770620584487915
0.007751941680908203 0.6899224519729614 0.12179142236709595
0.007751941680908203 0.7054263353347778 -0.27761662006378174
0.007751941680908203 0.7054263353347778 0.12017476558685303
0.007751941680908203 0.7209302186965942 -0.2776067554950714
0.007751941680908203 0.7209302186965942 0.11858942359685898
0.007751941680908203 0.7364341020584106 -0.2777254581451416
0.00775194214656949 0.7364341616630554 0.11691663414239883
0.007751941680908203 0.751937985420227 -0.27780672907829285
0.007751941680908203 0.751937985420227 0.11340373754501343
0.007751941680908203 0.7674418687820435 -0.2779049277305603
0.007751941680908203 0.7674418687820435 0.10992893576622009
0.007751941680908203 0.7829457521438599 -0.2779446542263031
0.007751941680908203 0.7829457521438599 0.10753452777862549
0.007751941680908203 0.7984496355056763 -0.2779674232006073
0.007751941680908203 0.7984496355056763 0.10629346966743469
0.007751941680908203 0.8139535188674927 -0.2778890132904053
0.007751941680908203 0.8139535188674927 0.10580869019031525
0.007751941680908203 0.8294574022293091 -0.2778076231479645
0.007751941680908203 0.8294574618339539 0.10588967055082321
0.007751941680908203 0.8449612855911255 -0.2777540683746338
0.007751941680908203 0.8449612259864807 0.10619314759969711
0.007751941680908203 0.8604651689529419 -0.277651846408844
0.007751941680908203 0.8604651689529419 0.10659483820199966
0.007751941680908203 0.8759689331054688 -0.2776091694831848
0.007751941680908203 0.8759689331054688 0.10683569312095642
0.007751941680908203 0.8914728164672852 -0.27761757373809814
0.007751941680908203 0.8914728164672852 0.10685133934020996
0.007751941680908203 0.9069766998291016 -0.2777232825756073
0.007751941680908203 0.9069766998291016 0.10652469098567963
0.007751941680908203 0.922480583190918 -0.2780182361602783
0.00775194214656949 0.9224806427955627 0.10592465102672577
0.007751941680908203 0.9379844665527344 -0.27860236167907715
0.007751941680908203 0.9379844665527344 0.10494917631149292
0.007751941680908203 0.9534883499145508 -0.27972471714019775
0.007751941680908203 0.9534883499145508 0.10398172587156296
0.007751941680908203 0.9689922332763672 -0.2830467224121094
0.007751941680908203 0.9689922332763672 0.10417978465557098
0.007751941680908203 0.9844961166381836 -0.2870556712150574
0.007751941680908203 0.9844961166381836 0.10752738267183304
0.02325582504272461 -0.9534883499145508 -0.17869606614112854
0.02325582504272461 -0.953488290309906 -0.17574147880077362
0.02325582504272461 -0.9379844665527344 -0.17835278809070587
0.02325582504272461 -0.9379844665527344 -0.16126875579357147
0.02325582504272461 -0.9224806427955627 -0.17682749032974243
0.02325582504272461 -0.9224807024002075 -0.1569260209798813
0.02325582504272461 -0.9069767594337463 -0.17788511514663696
0.02325582504272461 -0.9069767594337463 -0.148052379488945
0.02325582504272461 -0.8914728760719299 -0.17857615649700165
0.02325582504272461 -0.8914729356765747 -0.14225174486637115
0.02325582504272461 -0.8759689927101135 -0.17896661162376404
0.02325582504272461 -0.8759690523147583 -0.13399630784988403
0.02325582504272461 -0.8604651093482971 -0.1794487088918686
0.02325582504272461 -0.8604651093482971 -0.1270543336868286
0.02325582504272461 -0.8449612259864807 -0.1799866110086441
0.02325582504272461 -0.8449612259864807 -0.119379922747612
0.02325582504272461 -0.8294573426246643 -0.18055978417396545
0.02325582690536976 -0.8294574022293091 -0.11194704473018646
0.02325582504272461 -0.8139535188674927 -0.18138150870800018
0.02325582504272461 -0.8139535188674927 -0.10514818131923676
0.02325582504272461 -0.7984496355056763 -0.1824309527873993
0.02325582504272461 -0.798449695110321 -0.09756091237068176
0.02325582504272461 -0.7829457521438599 -0.18375515937805176
0.02325582504272461 -0.7829457521438599 -0.09263168275356293
0.02325582504272461 -0.7674418687820435 -0.18549636006355286
0.02325582504272461 -0.7674419283866882 -0.08444442600011826
0.02325582504272461 -0.751937985420227 -0.18788820505142212
0.02325582504272461 -0.751937985420227 -0.079838827252388
