0.5193798542022705 0.4573643207550049 -0.02574317157268524
0.5193798542022705 0.4573643207550049 0.08648961037397385
0.5193798542022705 0.4728682041168213 -0.02525954693555832
0.5193798542022705 0.4728682041168213 0.08567696809768677
0.5193798542022705 0.4883720874786377 -0.025331804528832436
0.5193798542022705 0.4883720874786377 0.0785040333867073
0.5193798542022705 0.5038759708404541 -0.025326620787382126
0.5193798542022705 0.5038759708404541 0.07057453691959381
0.5193798542022705 0.5193798542022705 -0.025496790185570717
0.5193798542022705 0.5193798542022705 0.05642187222838402
0.5193798542022705 0.5348837375640869 -0.025542056187987328
0.5193798542022705 0.5348837375640869 0.04569735378026962
0.5193798542022705 0.5503876209259033 -0.025081569328904152
0.5193798542022705 0.5503876209259033 0.030164409428834915
0.5193798542022705 0.5658915042877197 -0.024034280329942703
0.5193798542022705 0.5658915042877197 0.007671250030398369
0.5348837375640869 -0.1627907156944275 -0.010127132758498192
0.5348837375640869 -0.1627907156944275 0.004727950319647789
0.5348837375640869 -0.14728683233261108 -0.010153697803616524
0.5348837375640869 -0.14728683233261108 0.011077764444053173
0.5348837375640869 -0.13178294897079468 -0.010167717933654785
0.5348837375640869 -0.13178294897079468 0.02383158914744854
0.5348837375640869 -0.11627906560897827 -0.011274278163909912
0.5348837375640869 -0.11627906560897827 0.032188232988119125
0.5348837375640869 -0.10077518224716187 -0.012635054998099804
0.5348837375640869 -0.10077518224716187 0.04332311451435089
0.5348837375640869 -0.08527129888534546 -0.013740242458879948
0.5348837375640869 -0.08527129888534546 0.055353399366140366
0.5348837375640869 -0.06976741552352905 -0.014687582850456238
0.5348837375640869 -0.06976741552352905 0.06625869870185852
0.5348837375640869 -0.05426359176635742 -0.01556324027478695
0.5348837375640869 -0.05426359176635742 0.07405905425548553
0.5348837375640869 -0.038759708404541016 -0.01624118909239769
0.5348837375640869 -0.038759708404541016 0.07942947745323181
0.5348837375640869 -0.02325582504272461 -0.016784869134426117
0.5348837375640869 -0.02325582504272461 0.08560612052679062
0.5348837375640869 -0.007751941680908203 -0.017247110605239868
0.5348837375640869 -0.007751941680908203 0.08635740727186203
0.5348837375640869 0.00775194214656949 -0.01757187396287918
0.5348837375640869 0.007751941680908203 0.08676563203334808
0.5348837375640869 0.02325582504272461 -0.017530987039208412
0.5348837375640869 0.02325582504272461 0.08695395290851593
0.5348837375640869 0.038759708404541016 -0.01749197579920292
0.5348837375640869 0.038759708404541016 0.08706346154212952
0.5348837375640869 0.05426359176635742 -0.01754600554704666
0.5348837375640869 0.05426359176635742 0.08708523213863373
0.5348837375640869 0.06976747512817383 -0.017374632880091667
0.5348837375640869 0.06976747512817383 0.08703000098466873
0.5348837375640869 0.08527135848999023 -0.017191769555211067
0.5348837375640869 0.08527135848999023 0.08694763481616974
0.5348837375640869 0.10077524185180664 -0.017172539606690407
0.5348837375640869 0.10077524185180664 0.08688874542713165
0.5348837375640869 0.11627912521362305 -0.01728389784693718
0.5348837375640869 0.11627912521362305 0.08683409541845322
0.5348837375640869 0.1317828893661499 -0.017465073615312576
0.5348837375640869 0.1317828893661499 0.08676508069038391
0.5348837375640869 0.1472867727279663 -0.017692413181066513
0.5348837375640869 0.1472867727279663 0.08672065287828445
0.5348837375640869 0.16279065608978271 -0.01793757826089859
0.5348837375640869 0.16279065608978271 0.08671094477176666
0.5348837375640869 0.17829453945159912 -0.018040457740426064
0.5348837375640869 0.17829453945159912 0.08687245100736618
0.5348837375640869 0.19379842281341553 -0.018183423206210136
0.5348837375640869 0.19379842281341553 0.08715423941612244
0.5348837375640869 0.20930230617523193 -0.018430138006806374
0.5348837375640869 0.20930230617523193 0.0874684527516365
0.5348837375640869 0.22480618953704834 -0.01885669305920601
0.5348837375640869 0.22480618953704834 0.08767156302928925
0.5348837375640869 0.24031008780002594 -0.01936417445540428
0.5348837375640869 0.24031007289886475 0.08781946450471878
0.5348837375640869 0.25581395626068115 -0.02011990174651146
0.5348837375640869 0.25581395626068115 0.0878850519657135
0.5348837375640869 0.27131783962249756 -0.02094689942896366
0.5348837375640869 0.27131783962249756 0.08800206333398819
0.5348837375640869 0.28682175278663635 -0.021769950166344643
0.5348837375640869 0.28682172298431396 0.08808472752571106
0.5348837375640869 0.30232560634613037 -0.023259105160832405
0.5348837375640869 0.30232560634613037 0.08798764646053314
0.5348837375640869 0.3178294897079468 -0.024117618799209595
0.5348837375640869 0.3178294897079468 0.0875975489616394
0.5348837375640869 0.3333333730697632 -0.02582644857466221
0.5348837375640869 0.3333333730697632 0.08744724094867706
0.5348837375640869 0.3488372564315796 -0.02775862067937851
0.5348837375640869 0.3488372564315796 0.08782301098108292
0.5348837375640869 0.364341139793396 -0.02950146049261093
0.5348837375640869 0.364341139793396 0.08810073137283325
0.5348837375640869 0.37984490394592285 -0.030260737985372543
0.5348837375640869 0.37984490394592285 0.088014617562294
0.5348837375640869 0.39534878730773926 -0.029806267470121384
0.5348837375640869 0.39534878730773926 0.0877780169248581
0.5348837375640869 0.41085267066955566 -0.028511568903923035
0.5348837375640869 0.41085267066955566 0.08776809275150299
0.5348837375640869 0.42635655403137207 -0.02751506119966507
0.5348837375640869 0.42635655403137207 0.08810822665691376
0.5348837375640869 0.4418604373931885 -0.026655737310647964
0.5348837375640869 0.4418604373931885 0.08798512071371078
0.5348837375640869 0.4573643207550049 -0.025798341259360313
0.5348837375640869 0.4573642909526825 0.08769220113754272
0.5348837375640869 0.4728682041168213 -0.025115327909588814
0.5348837375640869 0.4728681743144989 0.08654683083295822
0.5348837375640869 0.4883720874786377 -0.024966727942228317
0.5348837375640869 0.4883720874786377 0.0795557051897049
0.5348837375640869 0.5038759708404541 -0.02499029040336609
0.5348837375640869 0.5038759708404541 0.06810340285301208
0.5348837375640869 0.5193798542022705 -0.02521943673491478
0.5348837375640869 0.5193798542022705 0.05407804995775223
0.5348837375640869 0.5348837375640869 -0.02531924471259117
0.5348837375640869 0.5348837375640869 0.04414186626672745
0.5348837375640869 0.5503876209259033 -0.024925170466303825
0.5348837375640869 0.5503876209259033 0.029344558715820312
0.5348837375640869 0.5658915042877197 -0.02383154258131981
0.5348837375640869 0.5658915042877197 0.00763342622667551
0.5503876209259033 -0.1627907156944275 -0.009667670354247093
0.5503876209259033 -0.1627907156944275 0.000668209046125412
0.5503876209259033 -0.14728683233261108 -0.010114545002579689
0.5503876209259033 -0.14728683233261108 0.009798374027013779
0.5503876209259033 -0.13178294897079468 -0.010051917284727097
0.5503876209259033 -0.13178294897079468 0.018382210284471512
0.5503876209259033 -0.11627906560897827 -0.011091705411672592
0.5503876209259033 -0.11627906560897827 0.028931371867656708
0.5503876209259033 -0.10077518224716187 -0.012535842135548592
0.5503876209259033 -0.10077518224716187 0.04100129008293152
0.5503876209259033 -0.08527129888534546 -0.013705063611268997
0.5503876209259033 -0.08527129888534546 0.04998157545924187
0.5503876209259033 -0.06976741552352905 -0.01450863853096962
0.5503876209259033 -0.06976741552352905 0.06138874217867851
0.5503876209259033 -0.05426359176635742 -0.01500670611858368
0.5503876209259033 -0.05426359176635742 0.0727100744843483
0.5503876209259033 -0.038759708404541016 -0.015294943004846573
0.5503876209259033 -0.038759708404541016 0.07743997871875763
0.5503876209259033 -0.02325582504272461 -0.01559092104434967
0.5503876209259033 -0.02325582504272461 0.08533481508493423
0.5503876209259033 -0.007751941680908203 -0.015984460711479187
0.5503876209259033 -0.007751941680908203 0.08631245791912079
0.5503876209259033 0.007751941680908203 -0.016350284218788147
0.5503876209259033 0.007751941680908203 0.08678986877202988
0.5503876209259033 0.02325582504272461 -0.01640142872929573
0.5503876209259033 0.02325582504272461 0.08706200122833252
0.5503876209259033 0.038759708404541016 -0.016448630020022392
0.5503876209259033 0.038759708404541016 0.08731555193662643
0.5503876209259033 0.05426359176635742 -0.01654898375272751
0.5503876209259033 0.05426359176635742 0.08746518194675446
0.5503876209259033 0.06976747512817383 -0.01642330177128315
0.5503876209259033 0.06976747512817383 0.08749653398990631
0.5503876209259033 0.08527135848999023 -0.01627425104379654
0.5503876209259033 0.08527135848999023 0.0874672383069992
0.5503876209259033 0.10077524185180664 -0.01626124419271946
0.5503876209259033 0.10077524185180664 0.08742043375968933
0.5503876209259033 0.11627913266420364 -0.01635218784213066
0.5503876209259033 0.11627913266420364 0.08733232319355011
0.5503876209259033 0.1317828893661499 -0.01649867184460163
0.5503876209259033 0.1317828893661499 0.08723407238721848
0.5503876209259033 0.1472867727279663 -0.016682129353284836
0.5503876209259033 0.1472867727279663 0.08719204366207123
0.5503876209259033 0.16279065608978271 -0.016892600804567337
0.5503876209259033 0.16279065608978271 0.08722308278083801
0.5503876209259033 0.17829453945159912 -0.01701274700462818
0.5503876209259033 0.17829453945159912 0.08752385526895523
0.5503876209259033 0.19379842281341553 -0.01725212298333645
0.5503876209259033 0.19379842281341553 0.08810197561979294
0.5503876209259033 0.20930230617523193 -0.01765955425798893
0.5503876209259033 0.20930230617523193 0.08871406316757202
0.5503876209259033 0.22480618953704834 -0.01826235093176365
0.5503876209259033 0.22480618953704834 0.08905009180307388
0.5503876209259033 0.24031005799770355 -0.018931234255433083
0.5503876209259033 0.24031007289886475 0.08917627483606339
0.5503876209259033 0.25581395626068115 -0.019834203645586967
0.5503876209259033 0.25581395626068115 0.0892043337225914
0.5503876209259033 0.27131783962249756 -0.020793071016669273
0.5503876209259033 0.27131783962249756 0.08924908936023712
0.5503876209259033 0.28682172298431396 -0.02171451412141323
0.5503876209259033 0.28682172298431396 0.08928672224283218
0.5503876209259033 0.30232560634613037 -0.023246463388204575
0.5503876209259033 0.30232560634613037 0.08920897543430328
0.5503876209259033 0.3178294897079468 -0.024310549721121788
0.5503876209259033 0.3178294897079468 0.08901476860046387
0.5503876209259033 0.3333333730697632 -0.02628454938530922
0.5503876209259033 0.3333333730697632 0.08912559598684311
0.5503876209259033 0.3488372564315796 -0.028122102841734886
0.5503876209259033 0.3488372564315796 0.08977113664150238
0.5503876209259033 0.364341139793396 -0.029827993363142014
0.5503876209259033 0.364341139793396 0.09025120735168457
0.5503876209259033 0.37984490394592285 -0.030340416356921196
0.5503876209259033 0.37984490394592285 0.09027397632598877
0.5503876209259033 0.39534878730773926 -0.029763948172330856
0.5503876209259033 0.39534878730773926 0.0898817777633667
0.5503876209259033 0.41085267066955566 -0.028308657929301262
0.5503876209259033 0.41085267066955566 0.08924375474452972
0.5503876209259033 0.42635655403137207 -0.02735753357410431
0.5503876209259033 0.42635655403137207 0.08910367637872696
0.5503876209259033 0.4418604373931885 -0.02656877413392067
0.5503876209259033 0.4418604373931885 0.08909089863300323
0.5503876209259033 0.4573643207550049 -0.025790095329284668
0.5503876209259033 0.4573643207550049 0.0886920765042305
0.5503876209259033 0.4728682041168213 -0.025074254721403122
0.5503876209259033 0.4728682041168213 0.08709141612052917
0.5503876209259033 0.4883720874786377 -0.024786241352558136
0.5503876209259033 0.4883720874786377 0.07844465225934982
0.5503876209259033 0.5038759708404541 -0.024682173505425453
0.5503876209259033 0.5038759708404541 0.0615062490105629
0.5503876209259033 0.5193798542022705 -0.024796076118946075
0.5503876209259033 0.5193798542022705 0.04872898757457733
0.5503876209259033 0.5348837375640869 -0.024826034903526306
0.5503876209259033 0.5348837375640869 0.04198255389928818
0.5503876209259033 0.5503876209259033 -0.024436041712760925
0.5503876209259033 0.5503876209259033 0.027823541313409805
0.5503876209259033 0.5658915042877197 -0.023356594145298004
0.5503876209259033 0.5658915042877197 0.007223377004265785
0.5658915042877197 -0.1627907156944275 -0.009016906842589378
0.5658915042877197 -0.1627907156944275 -0.00330913532525301
0.5658915042877197 -0.14728683233261108 -0.009988222271203995
0.5658915042877197 -0.14728683233261108 0.008055231533944607
0.5658915042877197 -0.13178294897079468 -0.009829457849264145
0.5658915042877197 -0.13178294897079468 0.013183001428842545
0.5658915042877197 -0.11627906560897827 -0.010690518654882908
0.5658915042877197 -0.11627906560897827 0.025718018412590027
0.5658915042877197 -0.10077518224716187 -0.012088973075151443
0.5658915042877197 -0.10077518224716187 0.03493478521704674
0.5658915042877197 -0.08527129888534546 -0.013314951211214066
0.5658915042877197 -0.08527129888534546 0.044396817684173584
0.5658915042877197 -0.06976741552352905 -0.014092645607888699
0.5658915042877197 -0.06976741552352905 0.05693299323320389
0.5658915042877197 -0.05426359176635742 -0.014358332380652428
0.5658915042877197 -0.05426359176635742 0.06984418630599976
0.5658915042877197 -0.038759708404541016 -0.01435047946870327
0.5658915042877197 -0.038759708404541016 0.0749170333147049
0.5658915042877197 -0.02325582504272461 -0.014388954266905785
0.5658915042877197 -0.02325582504272461 0.08126375079154968
0.5658915042877197 -0.007751941680908203 -0.014663053676486015
0.5658915042877197 -0.007751941680908203 0.08597186207771301
0.5658915042877197 0.007751941680908203 -0.015025617554783821
0.5658915638923645 0.007751941680908203 0.08658738434314728
0.5658915042877197 0.02325582504272461 -0.015169361606240273
0.5658915042877197 0.02325582690536976 0.08689459413290024
0.5658915042877197 0.038759708404541016 -0.015318452380597591
0.5658915042877197 0.038759708404541016 0.08721288293600082
0.5658915042877197 0.05426359176635742 -0.015499911271035671
0.5658915042877197 0.05426359176635742 0.08745959401130676
0.5658915042877197 0.06976747512817383 -0.015450556762516499
0.5658915042877197 0.06976747512817383 0.08757884800434113
0.5658915042877197 0.08527135848999023 -0.015349170193076134
0.5658915042877197 0.08527135848999023 0.08760636299848557
0.5658915042877197 0.10077524185180664 -0.015335062518715858
0.5658915042877197 0.10077523440122604 0.08757313340902328
0.5658915042877197 0.11627912521362305 -0.015383929014205933
0.5658915042877197 0.11627912521362305 0.08744979649782181
0.5658915042877197 0.1317828893661499 -0.015459394082427025
0.5658915042877197 0.1317828893661499 0.08732379972934723
0.5658915042877197 0.1472867727279663 -0.015562416985630989
0.5658915042877197 0.1472867727279663 0.08728423714637756
0.5658915042877197 0.16279065608978271 -0.015726536512374878
0.5658915042877197 0.16279065608978271 0.08735273033380508
0.5658915042877197 0.17829453945159912 -0.01588982157409191
0.5658915042877197 0.17829455435276031 0.08778376877307892
0.5658915042877197 0.19379842281341553 -0.016273317858576775
0.5658915042877197 0.19379843771457672 0.08869310468435287
0.5658915042877197 0.20930230617523193 -0.016885217279195786
0.5658915042877197 0.20930230617523193 0.08950045704841614
0.5658915042877197 0.22480618953704834 -0.017664063721895218
0.5658915042877197 0.22480618953704834 0.08965611457824707
0.5658915042877197 0.24031007289886475 -0.018439941108226776
0.5658915042877197 0.24031007289886475 0.08972577750682831
0.5658915042877197 0.25581395626068115 -0.01940390281379223
0.5658915042877197 0.25581395626068115 0.08977439999580383
0.5658915042877197 0.27131783962249756 -0.020407214760780334
0.5658915042877197 0.27131783962249756 0.08984296023845673
0.5658915042877197 0.28682172298431396 -0.021374115720391273
0.5658915042877197 0.28682172298431396 0.0899258702993393
0.5658915042877197 0.30232560634613037 -0.022847110405564308
0.5658915042877197 0.30232560634613037 0.08999007195234299
0.5658915042877197 0.3178294897079468 -0.024138957262039185
0.5658915042877197 0.3178294897079468 0.09013578295707703
0.5658915042877197 0.3333333730697632 -0.02589312195777893
0.5658915042877197 0.3333333730697632 0.09054863452911377
0.5658915042877197 0.3488372564315796 -0.027735108509659767
0.5658915042877197 0.3488372564315796 0.09135226905345917
0.5658915042877197 0.364341139793396 -0.02968393638730049
0.5658915042877197 0.364341139793396 0.09193864464759827
0.5658915042877197 0.37984490394592285 -0.030476991087198257
0.5658915042877197 0.37984490394592285 0.09206384420394897
0.5658915042877197 0.39534878730773926 -0.03004031628370285
0.5658915042877197 0.39534878730773926 0.09157468378543854
0.5658915042877197 0.41085267066955566 -0.028411980718374252
0.5658915042877197 0.41085267066955566 0.09031283110380173
0.5658915042877197 0.42635655403137207 -0.02728324569761753
0.5658915042877197 0.42635655403137207 0.08954914659261703
0.5658915042877197 0.4418604373931885 -0.026438862085342407
0.5658915042877197 0.4418604075908661 0.08931845426559448
0.5658915042877197 0.4573643207550049 -0.02563904970884323
0.5658915042877197 0.4573643207550049 0.0889904648065567
0.5658915042877197 0.4728682041168213 -0.024876611307263374
0.5658915042877197 0.4728682041168213 0.08701179176568985
0.5658915042877197 0.4883720874786377 -0.02448204904794693
0.5658915042877197 0.4883721172809601 0.07555881142616272
0.5658915042877197 0.5038759708404541 -0.024259796366095543
0.5658915042877197 0.5038759708404541 0.056217923760414124
0.5658915042877197 0.5193798542022705 -0.0242784321308136
0.5658915042877197 0.5193798542022705 0.04762667044997215
0.5658915042877197 0.5348837375640869 -0.02425108663737774
0.5658915042877197 0.5348837375640869 0.042224109172821045
0.5658915042877197 0.5503876209259033 -0.023895420134067535
0.5658915042877197 0.5503876209259033 0.028367359191179276
0.5658915042877197 0.5658915042877197 -0.022838490083813667
0.565891444683075 0.565891444683075 0.008753621950745583
0.5813953876495361 -0.14728683233261108 -0.009825240820646286
0.5813953876495361 -0.14728683233261108 0.002943694591522217
0.5813953876495361 -0.13178294897079468 -0.00969837699085474
0.5813953876495361 -0.13178294897079468 0.010248546488583088
0.5813953876495361 -0.11627906560897827 -0.010264981538057327
0.5813953876495361 -0.11627906560897827 0.018318144604563713
0.5813953876495361 -0.10077518224716187 -0.011482546105980873
0.5813953876495361 -0.10077518224716187 0.02779945358633995
0.5813953876495361 -0.08527129888534546 -0.012686271220445633
0.5813953280448914 -0.08527129888534546 0.03945216163992882
0.5813953876495361 -0.06976741552352905 -0.013491926714777946
0.5813953876495361 -0.06976741552352905 0.04761774465441704
0.5813953876495361 -0.05426359176635742 -0.013730155304074287
0.5813953876495361 -0.05426359176635742 0.05948891490697861
0.5813953876495361 -0.038759708404541016 -0.013605892658233643
0.5813953876495361 -0.038759708404541016 0.07162096351385117
0.5813953876495361 -0.02325582504272461 -0.013474622741341591
0.5813953876495361 -0.02325582504272461 0.07650188356637955
0.5813953876495361 -0.007751941680908203 -0.013613268733024597
0.5813953876495361 -0.007751941680908203 0.08416087180376053
0.5813953876495361 0.007751941680908203 -0.013905957341194153
0.5813954472541809 0.007751941680908203 0.08620914071798325
0.5813953876495361 0.02325582504272461 -0.014121132902801037
0.5813953876495361 0.02325582504272461 0.08670016378164291
0.5813953876495361 0.038759708404541016 -0.014351003803312778
0.5813953876495361 0.038759708404541016 0.08715137839317322
0.5813953876495361 0.05426359176635742 -0.014609057456254959
0.5813953876495361 0.05426359176635742 0.08753234148025513
0.5813953876495361 0.06976747512817383 -0.014603646472096443
0.5813953876495361 0.06976747512817383 0.08776259422302246
0.5813953876495361 0.08527135848999023 -0.014528833329677582
0.5813953876495361 0.08527135848999023 0.08785613626241684
0.5813953876495361 0.10077524185180664 -0.014478150755167007
0.5813953876495361 0.10077524185180664 0.08784937858581543
0.5813953876495361 0.11627912521362305 -0.014446910470724106
0.5813953876495361 0.11627912521362305 0.08769237995147705
0.5813953876495361 0.1317828893661499 -0.014443879947066307
0.5813953876495361 0.1317828893661499 0.08753187209367752
0.5813953876495361 0.1472867727279663 -0.014482354745268822
0.5813953876495361 0.1472867727279663 0.08749458938837051
0.5813953876495361 0.16279065608978271 -0.014633217826485634
0.5813953876495361 0.16279065608978271 0.0876292958855629
0.5813953876495361 0.17829453945159912 -0.014878371730446815
0.5813953876495361 0.17829453945159912 0.08834240585565567
0.5813953876495361 0.19379842281341553 -0.015450515784323215
0.5813953876495361 0.19379842281341553 0.0895780548453331
0.5813953876495361 0.20930230617523193 -0.016290241852402687
0.5813953876495361 0.20930230617523193 0.09007376432418823
0.5813953876495361 0.22480618953704834 -0.0172222089022398
0.5813953876495361 0.22480618953704834 0.08998916298151016
0.5813953876495361 0.24031007289886475 -0.01801944337785244
0.5813953876495361 0.24031007289886475 0.09002544730901718
0.5813953876495361 0.25581395626068115 -0.018924549221992493
0.5813953876495361 0.25581395626068115 0.09008680284023285
0.5813953876495361 0.27131783962249756 -0.01986236870288849
0.5813953876495361 0.27131783962249756 0.09019513428211212
0.5813953876495361 0.28682172298431396 -0.020775562152266502
0.5813953876495361 0.28682172298431396 0.0904235690832138
0.5813953876495361 0.30232560634613037 -0.02210324816405773
0.5813953876495361 0.30232560634613037 0.09073404967784882
0.5813953876495361 0.3178294897079468 -0.023833246901631355
0.5813953876495361 0.3178294897079468 0.09126917272806168
0.5813953876495361 0.3333333730697632 -0.025213703513145447
0.5813953876495361 0.3333333730697632 0.09207818657159805
0.5813953876495361 0.3488372564315796 -0.02679838053882122
0.5813953876495361 0.3488372564315796 0.09310175478458405
0.5813953876495361 0.364341139793396 -0.02870238572359085
0.5813953876495361 0.364341139793396 0.09363891929388046
0.5813953876495361 0.37984490394592285 -0.030194872990250587
0.5813953876495361 0.37984490394592285 0.09366154670715332
0.5813953876495361 0.39534878730773926 -0.030071010813117027
0.5813953876495361 0.39534878730773926 0.09299924969673157
0.5813953876495361 0.41085267066955566 -0.028345398604869843
0.5813953876495361 0.41085267066955566 0.09120869636535645
0.5813953876495361 0.42635655403137207 -0.026908230036497116
0.5813953876495361 0.42635655403137207 0.08979614078998566
0.5813953876495361 0.4418604373931885 -0.025923356413841248
0.5813953876495361 0.4418604373931885 0.08920156955718994
0.5813953876495361 0.4573643207550049 -0.025048907846212387
0.5813953876495361 0.4573643207550049 0.08879725635051727
0.5813953876495361 0.4728682041168213 -0.02429276704788208
0.5813953876495361 0.4728682041168213 0.08686977624893188
0.5813953876495361 0.4883720874786377 -0.0238941702991724
0.5813953876495361 0.4883720874786377 0.0758766382932663
0.5813953876495361 0.5038759708404541 -0.023657625541090965
0.5813953876495361 0.5038759708404541 0.06090230122208595
0.5813953876495361 0.5193798542022705 -0.023600051179528236
0.5813953876495361 0.5193798542022705 0.05412667617201805
0.5813953876495361 0.5348837375640869 -0.023505201563239098
0.5813953876495361 0.5348837375640869 0.04775180667638779
0.5813953876495361 0.5503876209259033 -0.023269636556506157
0.5813953876495361 0.5503876209259033 0.03526277840137482
0.5813953876495361 0.5658915042877197 -0.02210371382534504
0.5813953876495361 0.5658915042877197 0.014318278059363365
0.5968992710113525 -0.14728683233261108 -0.009627592749893665
0.5968992710113525 -0.14728683233261108 -0.0010070176795125008
0.5968992710113525 -0.13178294897079468 -0.009699974209070206
0.5968992710113525 -0.13178294897079468 0.00813960563391447
0.5968992710113525 -0.11627906560897827 -0.010007601231336594
0.5968992710113525 -0.11627906560897827 0.012575734406709671
0.5968992710113525 -0.10077518224716187 -0.011009174399077892
0.5968992710113525 -0.10077518224716187 0.023739393800497055
0.5968992710113525 -0.08527129888534546 -0.012152040377259254
0.5968992710113525 -0.08527129888534546 0.029934190213680267
0.5968992710113525 -0.06976741552352905 -0.01302280556410551
0.5968992710113525 -0.06976741552352905 0.04153179004788399
0.5968992710113525 -0.05426359176635742 -0.013376429677009583
0.5968992710113525 -0.05426359176635742 0.05179741978645325
0.5968992710113525 -0.038759708404541016 -0.01336303073912859
0.5968992710113525 -0.038759708404541016 0.062036484479904175
0.5968992710113525 -0.02325582504272461 -0.013242252171039581
0.5968992710113525 -0.02325582504272461 0.0724867582321167
0.5968992710113525 -0.007751941680908203 -0.01334390975534916
0.5968992710113525 -0.007751941680908203 0.07790885865688324
0.5968992710113525 0.007751941680908203 -0.013607915490865707
0.5968992710113525 0.007751941680908203 0.08494894206523895
0.5968992710113525 0.02325582504272461 -0.013894632458686829
0.5968992710113525 0.02325582504272461 0.08624325692653656
0.5968992710113525 0.038759708404541016 -0.014189841225743294
0.5968992710113525 0.038759708404541016 0.08696071058511734
0.5968992710113525 0.05426359176635742 -0.014513151720166206
0.5968992114067078 0.05426359176635742 0.08752596378326416
0.5968992710113525 0.06976747512817383 -0.014503240585327148
0.5968992710113525 0.06976747512817383 0.08790229260921478
0.5968992710113525 0.08527135848999023 -0.014406977221369743
0.5968992710113525 0.08527135848999023 0.08810783922672272
0.5968992710113525 0.10077524185180664 -0.014273620210587978
0.5968992710113525 0.10077524185180664 0.0882173627614975
0.5968992710113525 0.11627912521362305 -0.014136756770312786
0.5968992710113525 0.11627912521362305 0.08811753988265991
0.5968992710113525 0.1317828893661499 -0.014063352718949318
0.5968992710113525 0.1317828893661499 0.08795633912086487
0.5968992710113525 0.1472867727279663 -0.014071516692638397
0.5968992710113525 0.1472867727279663 0.08792559802532196
0.5968992710113525 0.16279065608978271 -0.014242319390177727
0.5968992710113525 0.16279065608978271 0.08821931481361389
0.5968992710113525 0.17829453945159912 -0.014592066407203674
0.5968992710113525 0.17829453945159912 0.08934615552425385
0.5968992710113525 0.19379842281341553 -0.015329064801335335
0.5968992710113525 0.19379842281341553 0.09060554206371307
0.5968992710113525 0.20930230617523193 -0.01631886325776577
0.5968992710113525 0.20930230617523193 0.09065979719161987
0.5968992710113525 0.22480618953704834 -0.017311446368694305
0.5968992710113525 0.22480618953704834 0.09046372771263123
0.5968992710113525 0.24031007289886475 -0.018064819276332855
0.5968992710113525 0.24031007289886475 0.09048086404800415
0.5968992710113525 0.25581395626068115 -0.01886926218867302
0.5968992710113525 0.25581395626068115 0.09051048755645752
0.5968992710113525 0.27131783962249756 -0.019701143726706505
0.5968992710113525 0.27131783962249756 0.0906766802072525
0.5968992710113525 0.28682172298431396 -0.02051117643713951
0.5968992710113525 0.28682172298431396 0.09104688465595245
0.5968992710113525 0.30232560634613037 -0.021712958812713623
0.5968992710113525 0.30232560634613037 0.09153422713279724
0.5968992710113525 0.3178294897079468 -0.023703627288341522
0.5968992710113525 0.3178294897079468 0.09236931055784225
0.5968992710113525 0.3333333730697632 -0.024792244657874107
0.5968992710113525 0.3333333730697632 0.09338951110839844
0.5968992710113525 0.3488372564315796 -0.02608414925634861
0.5968992710113525 0.3488372564315796 0.09429679065942764
0.5968992710113525 0.364341139793396 -0.027715232223272324
0.5968992710113525 0.364341139793396 0.09446169435977936
0.5968992710113525 0.37984490394592285 -0.029360447078943253
0.5968992710113525 0.37984490394592285 0.09420362114906311
0.5968992710113525 0.39534878730773926 -0.02960207313299179
0.5968992710113525 0.39534878730773926 0.09339915215969086
0.5968992710113525 0.41085267066955566 -0.027955135330557823
0.5968992710113525 0.41085267066955566 0.09144437313079834
0.5968992710113525 0.42635655403137207 -0.02637641131877899
0.5968992710113525 0.42635658383369446 0.08967283368110657
0.5968992710113525 0.4418604373931885 -0.02533680386841297
0.5968992710113525 0.4418604075908661 0.08870145678520203
0.5968992710113525 0.4573643207550049 -0.02446112409234047
0.5968992710113525 0.45736435055732727 0.08812212198972702
0.5968992710113525 0.4728682041168213 -0.02376175858080387
0.5968992710113525 0.4728682041168213 0.08650556206703186
0.5968992710113525 0.4883720874786377 -0.02340719848871231
0.5968992710113525 0.4883720874786377 0.07734227180480957
0.5968992710113525 0.5038759708404541 -0.02310771495103836
0.5968992710113525 0.5038759708404541 0.06831122934818268
0.5968992710113525 0.5193798542022705 -0.022895455360412598
0.5968992710113525 0.5193798542022705 0.058511294424533844
0.5968992710113525 0.5348837375640869 -0.022604625672101974
0.5968992710113525 0.5348837375640869 0.05538284778594971
0.5968992710113525 0.5503876209259033 -0.02211381308734417
0.5968992710113525 0.5503876209259033 0.04497446119785309
0.5968992710113525 0.5658915042877197 -0.021084675565361977
0.5968992710113525 0.5658915042877197 0.025262586772441864
0.5968992710113525 0.5813953876495361 -0.01542707160115242
0.5968992710113525 0.5813953876495361 0.002140783704817295
0.612403154373169 -0.14728683233261108 -0.009000934660434723
0.612403154373169 -0.14728683233261108 -0.004879503510892391
0.612403154373169 -0.13178294897079468 -0.009668956510722637
0.612403154373169 -0.13178294897079468 0.0021758005023002625
0.612403154373169 -0.11627906560897827 -0.009798414073884487
0.612403154373169 -0.11627905815839767 0.00943156611174345
0.612403154373169 -0.10077518224716187 -0.010491136461496353
0.612403154373169 -0.10077518224716187 0.014668341726064682
0.612403154373169 -0.08527129888534546 -0.011441116221249104
0.612403154373169 -0.08527129888534546 0.025084497407078743
0.612403154373169 -0.06976741552352905 -0.012271026149392128
0.612403154373169 -0.06976741552352905 0.03339289873838425
0.612403154373169 -0.05426359176635742 -0.012699151411652565
0.612403154373169 -0.05426359176635742 0.043541066348552704
0.612403154373169 -0.038759708404541016 -0.012815400958061218
0.612403154373169 -0.038759708404541016 0.055198706686496735
0.612403154373169 -0.02325582504272461 -0.01283814013004303
0.612403154373169 -0.02325582504272461 0.06432145833969116
0.612403154373169 -0.007751941680908203 -0.013035282492637634
0.612403154373169 -0.007751941680908203 0.07297559082508087
0.612403154373169 0.007751941680908203 -0.013375895097851753
0.612403154373169 0.007751941680908203 0.07844118773937225
0.612403154373169 0.02325582504272461 -0.01374573353677988
0.612403154373169 0.02325582504272461 0.08396822959184647
0.612403154373169 0.038759708404541016 -0.014104110188782215
0.612403154373169 0.038759708404541016 0.0861411914229393
0.612403154373169 0.05426359176635742 -0.014460155740380287
0.612403154373169 0.05426359176635742 0.0869864895939827
0.612403154373169 0.06976747512817383 -0.01442801859229803
0.612403154373169 0.06976747512817383 0.08755891025066376
0.612403154373169 0.08527135848999023 -0.014277605339884758
0.612403154373169 0.08527135103940964 0.08791539818048477
0.612403154373169 0.10077524185180664 -0.014049816876649857
0.612403154373169 0.10077524185180664 0.08817044645547867
0.612403154373169 0.11627912521362305 -0.013823338784277439
0.612403154373169 0.11627912521362305 0.08817160874605179
0.612403154373169 0.1317828893661499 -0.01370849646627903
0.612403154373169 0.1317828893661499 0.08808387815952301
0.612403154373169 0.1472867727279663 -0.013724050484597683
0.612403154373169 0.1472867727279663 0.08814087510108948
0.612403154373169 0.16279065608978271 -0.013948500156402588
0.612403154373169 0.16279065608978271 0.08860111981630325
0.612403154373169 0.17829453945159912 -0.014385363087058067
0.612403154373169 0.17829453945159912 0.08994045853614807
0.612403154373169 0.19379842281341553 -0.01520366221666336
0.612403154373169 0.19379842281341553 0.09100480377674103
0.612403154373169 0.20930230617523193 -0.016221407800912857
0.612403154373169 0.20930230617523193 0.09087145328521729
0.612403154373169 0.22480618953704834 -0.01716795191168785
0.612403154373169 0.22480618953704834 0.09063306450843811
0.612403154373169 0.24031007289886475 -0.017799995839595795
0.612403154373169 0.24031007289886475 0.09060685336589813
0.612403154373169 0.25581395626068115 -0.0184310432523489
0.612403154373169 0.25581395626068115 0.09058915823698044
0.612403154373169 0.27131783962249756 -0.019089965149760246
0.612403154373169 0.27131783962249756 0.09075161814689636
0.612403154373169 0.28682172298431396 -0.01971559040248394
0.612403154373169 0.28682172298431396 0.09115009009838104
0.612403154373169 0.30232560634613037 -0.02075142413377762
0.612403154373169 0.30232560634613037 0.09167325496673584
0.612403154373169 0.3178294897079468 -0.0234027411788702
0.612403154373169 0.3178294897079468 0.09260587394237518
0.612403154373169 0.3333333730697632 -0.024238988757133484
0.612403154373169 0.3333333730697632 0.09350147843360901
0.612403154373169 0.3488372564315796 -0.025300491601228714
0.612403154373169 0.3488372564315796 0.09396444261074066
0.612403154373169 0.364341139793396 -0.026635248214006424
0.612403154373169 0.364341139793396 0.09362004697322845
0.612403154373169 0.37984490394592285 -0.028047213330864906
0.612403154373169 0.37984490394592285 0.09311992675065994
0.612403154373169 0.39534878730773926 -0.02859707549214363
0.612403154373169 0.39534878730773926 0.09237213432788849
0.612403154373169 0.41085267066955566 -0.02707798220217228
0.612403154373169 0.41085267066955566 0.09065663069486618
0.612403154373169 0.42635655403137207 -0.02557557076215744
0.612403154373169 0.42635655403137207 0.08893462270498276
0.612403154373169 0.4418604373931885 -0.024624129757285118
0.612403154373169 0.4418604373931885 0.08779050409793854
0.612403154373169 0.4573643207550049 -0.02383248135447502
0.612403154373169 0.4573643207550049 0.08696748316287994
0.612403154373169 0.4728682041168213 -0.02322142757475376
0.612403154373169 0.4728681743144989 0.08542262017726898
0.612403154373169 0.4883720874786377 -0.02254410646855831
0.612403154373169 0.4883720874786377 0.07623685896396637
0.612403154373169 0.5038759708404541 -0.022090882062911987
0.612403154373169 0.5038759708404541 0.07020767778158188
0.612403154373169 0.5193798542022705 -0.02182135172188282
0.612403154373169 0.5193798542022705 0.06245924532413483
0.612403154373169 0.5348837375640869 -0.021445106714963913
0.612403154373169 0.5348837375640869 0.06013622507452965
0.612403154373169 0.5503876209259033 -0.020847856998443604
0.612403154373169 0.5503876209259033 0.057165615260601044
0.612403154373169 0.5658915042877197 -0.019997386261820793
0.612403154373169 0.5658915042877197 0.047651223838329315
0.612403154373169 0.5813953876495361 -0.01805233396589756
0.612403154373169 0.5813953876495361 0.021101051941514015
0.6279069185256958 -0.13178294897079468 -0.009441346861422062
0.6279069185256958 -0.13178294897079468 -0.002404250903055072
0.6279069185256958 -0.11627906560897827 -0.00964001938700676
0.6279069185256958 -0.11627906560897827 0.004374036565423012
0.6279069185256958 -0.10077518224716187 -0.010030696168541908
0.6279069185256958 -0.10077518224716187 0.010181467048823833
0.6279069185256958 -0.08527129888534546 -0.010712241753935814
0.6279069185256958 -0.08527129888534546 0.016586873680353165
0.6279069185256958 -0.06976741552352905 -0.011394783854484558
0.6279069185256958 -0.06976741552352905 0.02687349170446396
0.6279069185256958 -0.05426359176635742 -0.01182447001338005
0.6279069185256958 -0.05426359176635742 0.03875847905874252
0.6279069185256958 -0.038759708404541016 -0.012032171711325645
0.6279069185256958 -0.038759708404541016 0.04620132967829704
0.6279069185256958 -0.02325582504272461 -0.012175360694527626
0.627906858921051 -0.02325582318007946 0.05706849694252014
0.6279069185256958 -0.007751941680908203 -0.01247057132422924
0.6279069185256958 -0.007751941680908203 0.06645185500383377
0.6279069185256958 0.007751941680908203 -0.012892558239400387
0.6279069185256958 0.007751941680908203 0.0734277069568634
0.6279069185256958 0.02325582504272461 -0.01331065222620964
0.6279069185256958 0.02325582504272461 0.07858060300350189
0.6279069185256958 0.038759708404541016 -0.013695746660232544
0.6279069185256958 0.038759708404541016 0.0836944654583931
0.6279069185256958 0.05426359176635742 -0.014050999656319618
0.6279069185256958 0.05426359176635742 0.08604321628808975
0.6279069185256958 0.06976747512817383 -0.0140138640999794
0.6279069185256958 0.06976747512817383 0.0868571400642395
0.6279069185256958 0.08527135848999023 -0.013842797838151455
0.6279069185256958 0.08527135848999023 0.08737607300281525
0.6279069185256958 0.10077524185180664 -0.013575078919529915
0.6279069185256958 0.10077524930238724 0.08774049580097198
0.6279069185256958 0.11627912521362305 -0.01331719383597374
0.6279069185256958 0.11627912521362305 0.0878092423081398
0.6279069185256958 0.1317828893661499 -0.013206448405981064
0.6279069185256958 0.1317828893661499 0.08777377009391785
0.6279069185256958 0.1472867727279663 -0.013271957635879517
0.6279069185256958 0.1472867727279663 0.08787207305431366
0.6279069185256958 0.16279065608978271 -0.01356455683708191
0.6279069781303406 0.16279065608978271 0.08832103759050369
0.6279069185256958 0.17829453945159912 -0.014055214822292328
0.6279069185256958 0.17829453945159912 0.08960816264152527
0.6279069185256958 0.19379842281341553 -0.014853881672024727
0.6279069185256958 0.19379842281341553 0.09076245129108429
0.6279069185256958 0.20930230617523193 -0.015780257061123848
0.6279069185256958 0.20930230617523193 0.09070390462875366
0.6279069185256958 0.22480618953704834 -0.016602404415607452
0.6279069185256958 0.22480618953704834 0.09039363265037537
0.6279069185256958 0.24031007289886475 -0.017075855284929276
0.6279069185256958 0.24031007289886475 0.09026284515857697
0.6279069185256958 0.25581395626068115 -0.01751616783440113
0.6279069185256958 0.25581395626068115 0.09015430510044098
0.6279069185256958 0.27131783962249756 -0.017969738692045212
0.6279069185256958 0.27131783962249756 0.0902458131313324
0.6279069185256958 0.28682172298431396 -0.018369214609265327
0.6279069185256958 0.28682172298431396 0.09056387841701508
0.6279069185256958 0.30232560634613037 -0.019099876284599304
0.6279069185256958 0.30232560634613037 0.09102430194616318
0.6279069185256958 0.3178294897079468 -0.021313002333045006
0.6279069185256958 0.3178294897079468 0.091869056224823
0.6279069185256958 0.3333333730697632 -0.02348037250339985
0.6279069185256958 0.3333333730697632 0.09252867847681046
0.6279069185256958 0.3488372564315796 -0.024309437721967697
0.6279069185256958 0.3488372564315796 0.09265656024217606
0.6279069185256958 0.364341139793396 -0.025382714346051216
0.6279069185256958 0.364341139793396 0.09209397435188293
0.6279069185256958 0.37984490394592285 -0.02652922086417675
0.6279069185256958 0.37984490394592285 0.09147734194993973
0.6279069185256958 0.39534878730773926 -0.02725895866751671
0.6279069185256958 0.39534878730773926 0.0907362550497055
0.6279069185256958 0.41085267066955566 -0.026013396680355072
0.6279069185256958 0.4108526408672333 0.0893426388502121
0.6279069185256958 0.42635655403137207 -0.024755051359534264
0.6279069185256958 0.42635655403137207 0.08775490522384644
0.6279069185256958 0.4418604373931885 -0.023970337584614754
0.6279069185256958 0.4418604373931885 0.08654998242855072
0.6279069185256958 0.4573643207550049 -0.023314591497182846
0.6279069185256958 0.4573643207550049 0.08546402305364609
0.6279069185256958 0.4728682041168213 -0.0221332386136055
0.6279069185256958 0.4728682041168213 0.07985784113407135
0.6279069185256958 0.4883720576763153 -0.021502362564206123
0.6279069185256958 0.4883720874786377 0.07337558269500732
0.6279069185256958 0.5038759708404541 -0.020930899307131767
0.6279069185256958 0.5038759708404541 0.0680394247174263
0.6279069185256958 0.5193798542022705 -0.020609114319086075
0.6279069185256958 0.5193798542022705 0.06286405026912689
0.6279069185256958 0.5348837375640869 -0.020228901877999306
0.6279069185256958 0.5348837375640869 0.06241109222173691
0.6279069185256958 0.5503876209259033 -0.019581440836191177
0.6279069185256958 0.5503876209259033 0.06367156654596329
0.6279069185256958 0.5658915042877197 -0.018702935427427292
0.6279069185256958 0.5658915042877197 0.06403745710849762
0.6279069185256958 0.5813953876495361 -0.01762191392481327
0.6279069185256958 0.5813953876495361 0.059682805091142654
0.6279069185256958 0.5968992710113525 -0.013980086892843246
0.6279069185256958 0.5968992710113525 0.01826009899377823
0.6434108018875122 -0.13178294897079468 -0.007832587696611881
0.6434108018875122 -0.13178294897079468 -0.007576696574687958
0.6434108018875122 -0.11627906560897827 -0.009287375956773758
0.6434108018875122 -0.11627906560897827 -0.0009360725525766611
0.6434108018875122 -0.10077518224716187 -0.009519465267658234
0.6434108018875122 -0.10077518224716187 0.006090093404054642
0.6434108018875122 -0.08527129888534546 -0.009929521009325981
0.6434108018875122 -0.08527129888534546 0.011456413194537163
0.6434108018875122 -0.06976741552352905 -0.010387498885393143
0.6434108018875122 -0.06976741552352905 0.02185881696641445
0.6434108018875122 -0.05426359176635742 -0.01074736937880516
0.6434108018875122 -0.05426359176635742 0.029940441250801086
0.6434108018875122 -0.038759708404541016 -0.011011160910129547
0.6434108018875122 -0.038759708404541016 0.04140433669090271
0.6434108018875122 -0.02325582504272461 -0.011216921731829643
0.6434108018875122 -0.02325582504272461 0.04988470673561096
0.6434108018875122 -0.007751941680908203 -0.011543447151780128
0.6434108018875122 -0.007751941680908203 0.05959067493677139
0.6434108018875122 0.007751941680908203 -0.011967196129262447
0.6434108018875122 0.007751941215246916 0.06985727697610855
0.6434108018875122 0.02325582504272461 -0.012336316518485546
0.6434108018875122 0.02325582504272461 0.07448737323284149
0.6434108018875122 0.038759708404541016 -0.01266910694539547
0.6434108018875122 0.038759708404541016 0.07983995229005814
0.6434108018875122 0.05426359176635742 -0.012964637950062752
0.6434108018875122 0.05426359176635742 0.08471020311117172
0.6434108018875122 0.06976747512817383 -0.012929486110806465
0.6434108018875122 0.06976747512817383 0.08616869896650314
0.6434108018875122 0.08527135848999023 -0.012773679569363594
0.6434108018875122 0.08527135103940964 0.08684748411178589
0.6434108018875122 0.10077524185180664 -0.012525509111583233
0.6434108018875122 0.10077524185180664 0.08725931495428085
0.6434108018875122 0.11627912521362305 -0.012292768806219101
0.6434108018875122 0.11627912521362305 0.08732523769140244
0.6434108018875122 0.1317828893661499 -0.0122117530554533
0.6434108018875122 0.1317828893661499 0.08729829639196396
0.6434108018875122 0.1472867727279663 -0.012317836284637451
0.6434108018875122 0.1472867727279663 0.0873856469988823
0.6434108018875122 0.16279065608978271 -0.012614566832780838
0.6434108018875122 0.1627906709909439 0.08773075044155121
0.6434108018875122 0.17829453945159912 -0.013084059581160545
0.6434108018875122 0.17829453945159912 0.08876916766166687
0.6434108018875122 0.19379842281341553 -0.013766530901193619
0.6434108018875122 0.19379842281341553 0.09009048342704773
0.6434108018875122 0.20930230617523193 -0.014527834951877594
0.6434108018875122 0.20930230617523193 0.09033669531345367
0.6434108018875122 0.22480618953704834 -0.015188952907919884
0.6434108018875122 0.22480618953704834 0.09003470838069916
0.6434108018875122 0.24031007289886475 -0.015515206381678581
0.6434108018875122 0.24031007289886475 0.0897955447435379
0.6434108018875122 0.25581395626068115 -0.01580352522432804
0.6434108018875122 0.25581395626068115 0.08957425504922867
0.6434108018875122 0.27131783962249756 -0.016086185351014137
0.6434108018875122 0.27131783962249756 0.08957787603139877
0.6434108018875122 0.28682172298431396 -0.016283567994832993
0.6434108018875122 0.28682172298431396 0.08975881338119507
0.6434108018875122 0.30232560634613037 -0.016604524105787277
0.6434108018875122 0.30232560634613037 0.09008714556694031
0.6434108018875122 0.3178294897079468 -0.01765957847237587
0.6434108018875122 0.3178294897079468 0.09073491394519806
0.6434108018875122 0.3333333730697632 -0.01917785219848156
0.6434108018875122 0.3333333730697632 0.0911988690495491
0.6434108018875122 0.3488372564315796 -0.022026685997843742
0.6434108018875122 0.3488372564315796 0.09115789830684662
0.6434108018875122 0.364341139793396 -0.024019766598939896
0.6434108018875122 0.364341139793396 0.0905730277299881
0.6434108018875122 0.37984490394592285 -0.02504785545170307
0.6434108018875122 0.37984490394592285 0.08990834653377533
0.6434108018875122 0.39534878730773926 -0.025706913322210312
0.6434108018875122 0.39534878730773926 0.08908417075872421
0.6434108018875122 0.41085267066955566 -0.024717524647712708
0.6434108018875122 0.41085267066955566 0.08770604431629181
0.6434108018875122 0.42635655403137207 -0.023825891315937042
0.6434108018875122 0.42635655403137207 0.08610942959785461
0.6434108018875122 0.4418604373931885 -0.023255452513694763
0.6434108018875122 0.4418604373931885 0.0831810012459755
0.6434108018875122 0.4573643207550049 -0.021812256425619125
0.6434108018875122 0.4573643207550049 0.07882260531187057
0.6434108018875122 0.4728682041168213 -0.020618459209799767
0.6434108018875122 0.4728682041168213 0.0743219405412674
0.6434108018875122 0.4883720874786377 -0.019876867532730103
0.6434108018875122 0.4883720576763153 0.07035451382398605
0.6434108018875122 0.5038759708404541 -0.01919563300907612
0.6434108018875122 0.5038759708404541 0.06271830946207047
0.6434108018875122 0.5193798542022705 -0.018885677680373192
0.6434108018875122 0.5193798542022705 0.06033644080162048
0.6434108018875122 0.5348837375640869 -0.01854008249938488
0.6434108018875122 0.5348837375640869 0.061094269156455994
0.6434108018875122 0.5503876209259033 -0.017801957204937935
0.6434108018875122 0.5503876209259033 0.0632409155368805
0.6434108018875122 0.5658915042877197 -0.016785282641649246
0.6434108018875122 0.5658915042877197 0.0639624297618866
0.6434108018875122 0.5813953876495361 -0.015912385657429695
0.6434108018875122 0.5813953876495361 0.06314463168382645
0.6434108018875122 0.5968992710113525 -0.014990599825978279
0.6434108018875122 0.5968992710113525 0.05843043327331543
0.6589146852493286 -0.11627906560897827 -0.008464448153972626
0.6589146852493286 -0.11627906560897827 -0.005693858955055475
0.6589146852493286 -0.10077518224716187 -0.009144630283117294
0.6589146852493286 -0.10077518224716187 0.0003195579629391432
0.6589146852493286 -0.08527129888534546 -0.009327368810772896
0.6589146852493286 -0.08527129888534546 0.008364018984138966
0.6589146852493286 -0.06976741552352905 -0.009589091874659061
0.6589146852493286 -0.06976741552352905 0.014080766588449478
0.6589146852493286 -0.05426359176635742 -0.009861880913376808
0.6589146852493286 -0.05426359176635742 0.02554982900619507
0.6589146852493286 -0.038759708404541016 -0.01010575145483017
0.6589146852493286 -0.038759708404541016 0.035276178270578384
0.6589146852493286 -0.02325582504272461 -0.010326944291591644
0.6589146852493286 -0.02325582504272461 0.04433600604534149
0.6589146852493286 -0.007751941680908203 -0.010633659549057484
0.6589146852493286 -0.007751941680908203 0.054888978600502014
0.6589146852493286 0.007751941680908203 -0.011000351049005985
0.6589146852493286 0.007751941680908203 0.0631764605641365
0.6589146852493286 0.02325582504272461 -0.011295616626739502
0.6589146852493286 0.02325582504272461 0.07174811512231827
0.6589146852493286 0.038759708404541016 -0.011522648856043816
0.6589146852493286 0.038759708404541016 0.07703234255313873
