-0.3643410801887512 0.0792016088962555 -0.05426359176635742
-0.3643410801887512 0.08463107794523239 0.1317828893661499
-0.3643410801887512 0.12306496500968933 -0.038759708404541016
-0.3643410801887512 0.36935222148895264 -0.02325582318007946
-0.3643410801887512 0.5687400698661804 -0.007751941680908203
-0.3643410801887512 0.5772343873977661 0.007751941680908203
-0.3643410801887512 0.5825590491294861 0.02325582504272461
-0.3643410801887512 0.5835762023925781 0.038759708404541016
-0.36434105038642883 0.5839834809303284 0.05426358804106712
-0.3643410801887512 0.58426833152771 0.06976747512817383
-0.3643410801887512 0.5845104455947876 0.08527135848999023
-0.36434105038642883 0.5845475792884827 0.10077523440122604
-0.36434105038642883 0.5837819576263428 0.11627912521362305
-0.3643410801887512 0.5820375680923462 0.1317828893661499
-0.3488371968269348 -0.41927072405815125 -0.007751941680908203
-0.3488371968269348 -0.42436426877975464 0.007751941680908203
-0.3488371968269348 -0.4055178761482239 -0.02325582504272461
-0.3488371968269348 -0.3810065686702728 -0.08527129888534546
-0.3488371968269348 -0.3812274932861328 -0.06976741552352905
-0.3488371968269348 -0.38449761271476746 -0.05426359176635742
-0.3488371968269348 -0.3929639756679535 -0.038759708404541016
-0.3488371968269348 -0.37672942876815796 -0.10077518224716187
-0.3488371968269348 -0.3666967749595642 0.02325582504272461
-0.3488371968269348 -0.2723134160041809 0.02325582504272461
-0.3488371968269348 -0.2665538787841797 -0.10077518969774246
-0.3488371968269348 -0.2559893727302551 -0.08527129888534546
-0.3488371968269348 -0.25239992141723633 -0.06976741552352905
-0.3488371968269348 -0.24900874495506287 -0.05426359176635742
-0.3488371968269348 -0.24405081570148468 -0.038759708404541016
-0.3488371968269348 -0.2453307807445526 0.007751941680908203
-0.3488371968269348 -0.23933379352092743 -0.02325582504272461
-0.3488372266292572 -0.23902718722820282 -0.007751941680908203
-0.3488371968269348 0.03827425837516785 -0.038759708404541016
-0.3488371968269348 0.03650945797562599 -0.02325582504272461
-0.3488371968269348 0.035933684557676315 -0.007751941680908203
-0.3488371968269348 0.036622606217861176 0.007751941680908203
-0.3488371968269348 0.03775857388973236 0.02325582504272461
-0.3488371968269348 0.04908895492553711 -0.05426359176635742
-0.3488371968269348 0.0403251014649868 0.038759708404541016
-0.3488371968269348 0.04773162677884102 0.05426359176635742
-0.3488371968269348 0.05116282403469086 0.06976747512817383
-0.3488371968269348 0.05312430486083031 0.08527135848999023
-0.3488371968269348 0.05667569115757942 0.10077524185180664
-0.3488371968269348 0.06433817744255066 0.11627912521362305
-0.3488371968269348 0.09381768852472305 -0.05426359176635742
-0.3488371968269348 0.09236881136894226 0.1317828893661499
-0.3488371968269348 0.2351042479276657 -0.038759708404541016
-0.3488371968269348 0.4264315068721771 -0.02325582504272461
-0.3488371968269348 0.5781894326210022 -0.007751941680908203
-0.3488371968269348 0.5848789811134338 0.007751941680908203
-0.3488371968269348 0.5878914594650269 0.02325582504272461
-0.3488371968269348 0.5910336375236511 0.038759708404541016
-0.3488371968269348 0.5938551425933838 0.05426359176635742
-0.3488371968269348 0.5954413414001465 0.11627912521362305
-0.3488371968269348 0.5857248306274414 0.1317828893661499
-0.3488371968269348 0.5972349643707275 0.06976747512817383
-0.3488371968269348 0.5980425477027893 0.08527135848999023
-0.3488371968269348 0.5981459021568298 0.10077524185180664
-0.3333333134651184 -0.3226599395275116 -0.02325582504272461
-0.3333333134651184 -0.3238264322280884 -0.007751941680908203
-0.3333333134651184 -0.3077605068683624 -0.05426359176635742
-0.333333283662796 -0.3161028027534485 -0.038759708404541016
-0.3333333134651184 -0.305120050907135 0.007751941680908203
-0.3333333134651184 -0.29401642084121704 -0.05426359176635742
-0.3333333134651184 -0.29964545369148254 0.007751941680908203
-0.333333283662796 -0.28580495715141296 -0.038759708404541016
-0.333333283662796 -0.283555269241333 -0.02325582504272461
-0.3333333134651184 -0.2842496633529663 -0.007751941680908203
-0.3333333134651184 0.035534925758838654 -0.038759708404541016
-0.3333333134651184 0.03178311884403229 -0.02325582504272461
-0.3333333134651184 0.029774263501167297 -0.007751941680908203
-0.3333333134651184 0.031194284558296204 0.007751941680908203
-0.3333333134651184 0.03397217392921448 0.02325582504272461
-0.3333333134651184 0.0364023894071579 0.038759708404541016
-0.3333333134651184 0.04693107306957245 -0.05426359176635742
-0.3333333134651184 0.039538994431495667 0.05426359176635742
-0.3333333134651184 0.047293879091739655 0.06976747512817383
-0.3333333134651184 0.0513528510928154 0.08527135848999023
-0.3333333134651184 0.05356811359524727 0.10077524185180664
-0.3333333134651184 0.06361983716487885 0.11627912521362305
-0.3333333134651184 0.10038608312606812 -0.05426359176635742
-0.3333333134651184 0.10517480969429016 0.1317828893661499
-0.3333333134651184 0.26039665937423706 -0.038759708404541016
-0.3333333134651184 0.4428996443748474 -0.02325582504272461
-0.333333283662796 0.5851790308952332 -0.007751941680908203
-0.3333333134651184 0.5920758247375488 0.007751941680908203
-0.333333283662796 0.5990167856216431 0.02325582504272461
-0.3333333134651184 0.6008627414703369 0.038759708404541016
-0.3333333134651184 0.6024754047393799 0.05426359176635742
-0.3333333134651184 0.6068869829177856 0.06976747512817383
-0.3333333134651184 0.6083211898803711 0.11627912521362305
-0.3333333134651184 0.5969404578208923 0.1317828893661499
-0.3333333134651184 0.6127644181251526 0.08527135848999023
-0.3333333134651184 0.6135854721069336 0.10077524185180664
-0.317829430103302 0.02148219756782055 -0.007751941680908203
-0.317829430103302 0.02067285217344761 0.007751941680908203
-0.317829430103302 0.02128114365041256 0.02325582504272461
-0.317829430103302 0.022968657314777374 0.038759708404541016
-0.317829430103302 0.03349081426858902 -0.038759708404541016
-0.317829430103302 0.02421516366302967 -0.02325582504272461
-0.317829430103302 0.032682690769433975 0.05426359176635742
-0.317829430103302 0.04949435219168663 -0.05426359176635742
-0.317829430103302 0.04031180217862129 0.06976747512817383
-0.317829430103302 0.0510091707110405 0.08527135848999023
-0.317829430103302 0.05648605898022652 0.10077524185180664
-0.317829430103302 0.06812604516744614 0.11627912521362305
-0.317829430103302 0.08843712508678436 -0.05426359176635742
-0.3178294599056244 0.11834822595119476 -0.038759708404541016
-0.3178294003009796 0.13400603830814362 0.1317828893661499
-0.317829430103302 0.1625043749809265 -0.038759708404541016
-0.3178294599056244 0.2584274113178253 0.1317828893661499
-0.317829430103302 0.2749735116958618 -0.038759708404541016
-0.317829430103302 0.319125771522522 0.1317828893661499
-0.317829430103302 0.3949125409126282 0.1317828893661499
-0.317829430103302 0.45316174626350403 -0.02325582504272461
-0.317829430103302 0.4496079981327057 0.1317828893661499
-0.317829430103302 0.5910729765892029 -0.007751941680908203
-0.317829430103302 0.6022776365280151 0.007751941680908203
-0.317829430103302 0.6062152981758118 0.1317828893661499
-0.317829430103302 0.6162111759185791 0.02325582504272461
-0.317829430103302 0.618331253528595 0.038759708404541016
-0.317829430103302 0.6185455322265625 0.05426359176635742
-0.317829430103302 0.6269721984863281 0.06976747512817383
-0.317829430103302 0.6360379457473755 0.08527135848999023
-0.317829430103302 0.6396496295928955 0.10077524185180664
-0.317829430103302 0.6321024298667908 0.11627912521362305
-0.30232560634613037 -0.011514993384480476 0.02325582504272461
-0.30232560634613037 -0.01544974185526371 0.038759708404541016
-0.30232560634613037 -0.008005673065781593 0.05426359176635742
-0.30232560634613037 0.005760238505899906 -0.007751941680908203
-0.30232560634613037 -0.0033429174218326807 0.007751941680908203
-0.30232560634613037 0.016336070373654366 -0.02325582504272461
-0.30232560634613037 0.013116683810949326 0.06976747512817383
-0.30232560634613037 0.02680988609790802 -0.038759708404541016
-0.30232560634613037 0.05260329693555832 -0.05426359176635742
-0.30232560634613037 0.04832717031240463 0.08527135848999023
-0.30232560634613037 0.06594079732894897 0.10077524185180664
-0.30232560634613037 0.07183961570262909 -0.05426359176635742
-0.30232560634613037 0.08318369090557098 0.11627912521362305
-0.30232560634613037 0.10678083449602127 -0.038759708404541016
-0.30232560634613037 0.12105488777160645 -0.02325582504272461
-0.30232560634613037 0.12613198161125183 -0.007751941680908203
-0.30232560634613037 0.12613458931446075 0.007751941680908203
-0.30232560634613037 0.12446397542953491 0.02325582504272461
-0.30232560634613037 0.1243867576122284 0.038759708404541016
-0.30232560634613037 0.12974610924720764 0.05426359176635742
-0.30232560634613037 0.1376698911190033 0.05426359176635742
-0.30232560634613037 0.15811389684677124 -0.007751941680908203
-0.30232560634613037 0.1570027619600296 0.007751941680908203
-0.30232560634613037 0.15702414512634277 0.02325582504272461
-0.30232560634613037 0.15385575592517853 0.038759708404541016
-0.30232560634613037 0.16495166718959808 -0.02325582504272461
-0.30232560634613037 0.20159536600112915 -0.038759708404541016
-0.30232560634613037 0.3024684488773346 -0.03875970467925072
-0.30232560634613037 0.4623837172985077 -0.02325582504272461
-0.30232560634613037 0.47614988684654236 0.1317828893661499
-0.30232560634613037 0.6040374040603638 -0.007751941680908203
-0.30232560634613037 0.6187613010406494 0.1317828893661499
-0.30232560634613037 0.6397464275360107 0.007751941680908203
-0.30232560634613037 0.656797468662262 0.038759708404541016
-0.30232560634613037 0.643426775932312 0.05426359176635742
-0.30232560634613037 0.6475778818130493 0.06976747512817383
-0.30232560634613037 0.6563817262649536 0.08527135848999023
-0.30232560634613037 0.6524450778961182 0.11627912521362305
-0.30232560634613037 0.6650197505950928 0.02325582504272461
-0.30232560634613037 0.6596059203147888 0.10077524185180664
-0.28682172298431396 -0.13071207702159882 0.038759708404541016
-0.28682172298431396 -0.10955120623111725 0.02325582504272461
-0.28682172298431396 -0.1038600280880928 0.05426359176635742
-0.28682172298431396 -0.0745067149400711 0.007751941680908203
-0.28682172298431396 -0.06646399199962616 0.06976747512817383
-0.28682172298431396 -0.04655824601650238 -0.007751941680908203
-0.28682172298431396 -0.02294003777205944 -0.02325582504272461
-0.28682172298431396 -0.007885894738137722 0.08527135848999023
-0.28682172298431396 -0.004629811272025108 -0.038759708404541016
-0.28682172298431396 0.01589500717818737 -0.05426359176635742
-0.28682172298431396 0.06699364632368088 0.10077524185180664
-0.28682172298431396 0.08409146219491959 -0.05426359176635742
-0.28682172298431396 0.10221759974956512 0.11627912521362305
-0.2868216931819916 0.11683285981416702 -0.038759708404541016
-0.28682172298431396 0.1316264271736145 -0.02325582504272461
-0.28682172298431396 0.1428384929895401 0.02325582504272461
-0.28682172298431396 0.13792410492897034 0.038759708404541016
-0.28682172298431396 0.15234580636024475 -0.02325582318007946
-0.28682172298431396 0.14825108647346497 0.02325582504272461
-0.28682172298431396 0.14821182191371918 0.038759708404541016
-0.28682172298431396 0.1742449402809143 -0.038759708404541016
-0.28682172298431396 0.33260029554367065 -0.038759708404541016
-0.28682172298431396 0.4879741668701172 -0.02325582504272461
-0.28682172298431396 0.49329471588134766 0.1317828893661499
-0.28682172298431396 0.6274910569190979 0.1317828893661499
-0.28682172298431396 0.6506907939910889 -0.02325582504272461
-0.28682172298431396 0.6675722599029541 0.05426359176635742
-0.28682172298431396 0.6634975075721741 0.06976747512817383
-0.28682172298431396 0.6680629849433899 0.08527135848999023
-0.28682172298431396 0.671012818813324 0.10077524185180664
-0.28682172298431396 0.6651546955108643 0.11627912521362305
-0.28682172298431396 0.6898033022880554 -0.02325582504272461
-0.28682172298431396 0.6872300505638123 0.007751941680908203
-0.28682172298431396 0.6858071088790894 0.02325582504272461
-0.28682172298431396 0.6790052652359009 0.038759708404541016
-0.28682172298431396 0.6907202005386353 -0.007751941680908203
-0.27131783962249756 -0.22810150682926178 0.02325582504272461
-0.27131783962249756 -0.22675864398479462 0.038759708404541016
-0.27131783962249756 -0.2211528718471527 0.007751941680908203
-0.27131783962249756 -0.2070237100124359 -0.007751941680908203
-0.27131783962249756 -0.19486181437969208 0.05426359176635742
-0.27131783962249756 -0.1795041710138321 -0.02325582504272461
-0.27131783962249756 -0.12798477709293365 0.06976747512817383
-0.27131783962249756 -0.09417305886745453 -0.038759708404541016
-0.27131783962249756 -0.07517945766448975 0.08527135848999023
-0.27131783962249756 -0.055531326681375504 -0.08527129888534546
-0.27131783962249756 -0.055626969784498215 -0.06976741552352905
-0.27131783962249756 -0.06396478414535522 -0.05426359176635742
-0.27131783962249756 -0.00700247660279274 0.10077524185180664
-0.27131783962249756 0.026040319353342056 -0.08527129888534546
-0.27131783962249756 0.07576791942119598 -0.06976741552352905
-0.27131783962249756 0.11368084698915482 0.11627912521362305
-0.27131783962249756 0.12151899933815002 -0.05426358804106712
-0.27131783962249756 0.1777128130197525 -0.05426359176635742
-0.27131783962249756 0.17846615612506866 -0.05426359176635742
-0.27131783962249756 0.3626699149608612 -0.038759708404541016
-0.27131783962249756 0.5029729604721069 0.1317828893661499
-0.27131783962249756 0.6371184587478638 0.1317828893661499
-0.27131783962249756 0.6883853673934937 0.06976747512817383
-0.27131783962249756 0.6867839097976685 0.08527135848999023
-0.27131783962249756 0.6869773864746094 0.10077524185180664
-0.27131783962249756 0.6822360754013062 0.11627912521362305
-0.27131783962249756 0.7041063904762268 0.007751941680908203
-0.27131783962249756 0.7004348039627075 0.02325582504272461
-0.27131783962249756 0.6961798667907715 0.038759708404541016
-0.27131783962249756 0.691978931427002 0.05426359176635742
-0.27131783962249756 0.7100957036018372 -0.02325582504272461
-0.27131783962249756 0.7073093056678772 -0.007751941680908203
-0.25581395626068115 -0.39594703912734985 -0.007751941680908203
-0.25581395626068115 -0.40251708030700684 0.007751941680908203
-0.25581395626068115 -0.3991454243659973 0.02325582504272461
-0.25581395626068115 -0.35941654443740845 -0.007751941680908203
-0.25581395626068115 -0.35148754715919495 0.007751941680908203
-0.25581395626068115 -0.35692352056503296 0.02325582504272461
-0.25581395626068115 -0.3210243880748749 -0.007751941680908203
-0.25581395626068115 -0.3228723704814911 0.007751941680908203
-0.25581395626068115 -0.31104356050491333 -0.02325582504272461
-0.25581395626068115 -0.3096888065338135 0.02325582504272461
-0.25581395626068115 -0.3019278347492218 -0.038759708404541016
-0.25581395626068115 -0.2727501690387726 -0.038759708404541016
-0.25581395626068115 -0.2717057168483734 0.038759708404541016
-0.25581395626068115 -0.25031888484954834 -0.038759708404541016
-0.25581395626068115 -0.23249965906143188 0.05426359176635742
-0.25581395626068115 -0.2233300656080246 -0.05426359176635742
-0.25581395626068115 -0.196573868393898 -0.06976741552352905
-0.25581395626068115 -0.1686844825744629 -0.08527129888534546
-0.25581395626068115 -0.1713656485080719 0.06976747512817383
-0.25581395626068115 -0.10720085352659225 -0.10077518224716187
-0.25581395626068115 -0.11085572838783264 0.08527135848999023
-0.25581395626068115 -0.056887611746788025 0.10077524185180664
-0.25581395626068115 -0.003071114420890808 -0.10077518224716187
-0.25581395626068115 0.061445701867341995 -0.08527129888534546
-0.25581395626068115 0.11194667220115662 0.11627912521362305
-0.25581395626068115 0.12332144379615784 -0.06976741552352905
-0.25581395626068115 0.3044463098049164 -0.05426359176635742
-0.25581395626068115 0.4849357008934021 -0.038759708404541016
-0.25581395626068115 0.5165790319442749 0.1317828893661499
-0.25581395626068115 0.6046079993247986 -0.038759708404541016
-0.25581395626068115 0.6757495999336243 0.1317828893661499
-0.25581395626068115 0.703008234500885 0.10077524185180664
-0.25581395626068115 0.6991094946861267 0.11627912521362305
-0.25581395626068115 0.7182415723800659 0.007751941680908203
-0.25581395626068115 0.7138383388519287 0.02325582504272461
-0.25581395626068115 0.7117860317230225 0.038759708404541016
-0.25581395626068115 0.7100623846054077 0.05426359176635742
-0.25581395626068115 0.7078728079795837 0.06976747512817383
-0.25581395626068115 0.7058941721916199 0.08527135848999023
-0.25581395626068115 0.7221087217330933 -0.038759708404541016
-0.25581395626068115 0.725264310836792 -0.02325582504272461
-0.25581395626068115 0.7223104238510132 -0.007751941680908203
-0.24031007289886475 -0.49162983894348145 0.007751941680908203
-0.24031007289886475 -0.4866652190685272 -0.007751941215246916
-0.24031007289886475 -0.43983009457588196 -0.02325582504272461
-0.24031007289886475 -0.4396114945411682 0.02325582504272461
-0.24031007289886475 -0.4065217077732086 -0.038759708404541016
-0.24031007289886475 -0.40452951192855835 0.038759708404541016
-0.24031007289886475 -0.382294237613678 -0.05426359176635742
-0.24031007289886475 -0.3744279444217682 -0.05426359176635742
-0.24031007289886475 -0.3164650797843933 -0.05426359176635742
-0.24031007289886475 -0.29875457286834717 -0.06976741552352905
-0.24031007289886475 -0.27803921699523926 -0.06976741552352905
-0.24031007289886475 -0.26247715950012207 0.05426359176635742
-0.24031007289886475 -0.25565481185913086 -0.06976741552352905
-0.24031007289886475 -0.20934244990348816 0.06976747512817383
-0.24031007289886475 -0.20682492852210999 -0.08527129888534546
-0.24031007289886475 -0.13816189765930176 -0.10077518224716187
-0.24031007289886475 -0.14198806881904602 0.08527135848999023
-0.24031007289886475 -0.08875304460525513 0.10077524185180664
-0.24031007289886475 -0.030208177864551544 0.11627912521362305
-0.24031007289886475 0.017440438270568848 -0.10077518224716187
-0.24031007289886475 0.09333306550979614 -0.08527129888534546
-0.24031007289886475 0.17908333241939545 -0.06976741552352905
-0.24031005799770355 0.33607545495033264 -0.05426359176635742
-0.24031007289886475 0.5215137600898743 0.1317828893661499
-0.24031007289886475 0.7194110155105591 0.10077524185180664
-0.24031007289886475 0.7165985703468323 0.11627912521362305
-0.24031007289886475 0.7055155038833618 0.1317828893661499
-0.24031007289886475 0.7310504913330078 0.007751941680908203
-0.24031007289886475 0.7270455360412598 0.02325582504272461
-0.24031007289886475 0.7262187004089355 0.038759708404541016
-0.24031007289886475 0.7261567711830139 0.05426359176635742
-0.24031007289886475 0.7244950532913208 0.06976747512817383
-0.24031007289886475 0.7220076322555542 0.08527135848999023
-0.24031007289886475 0.7385823130607605 -0.038759708404541016
-0.24031007289886475 0.7387903928756714 -0.02325582504272461
-0.24031007289886475 0.7368370294570923 -0.007751941680908203
-0.22480618953704834 -0.6532792448997498 -0.007751941680908203
-0.22480618953704834 -0.6445249319076538 0.007751941680908203
-0.22480618953704834 -0.635172426700592 -0.02325582504272461
-0.22480618953704834 -0.6050868630409241 -0.038759708404541016
-0.22480618953704834 -0.48223572969436646 0.02325582504272461
-0.22480618953704834 -0.4706845283508301 -0.05426359176635742
-0.22480618953704834 -0.42780768871307373 0.038759708404541016
-0.22480618953704834 -0.41335171461105347 -0.06976741552352905
-0.22480618953704834 -0.313768208026886 0.05426359549164772
-0.22480618953704834 -0.24091282486915588 -0.08527129888534546
-0.22480618953704834 -0.23853902518749237 0.06976747512817383
-0.22480618953704834 -0.18088796734809875 0.08527135848999023
-0.22480620443820953 -0.16074495017528534 -0.10077518224716187
-0.22480618953704834 -0.11926084756851196 0.10077524185180664
-0.22480618953704834 -0.06951745599508286 0.11627912521362305
-0.22480618953704834 0.04040171578526497 -0.10077518224716187
-0.22480618953704834 0.14060182869434357 -0.08527129888534546
-0.22480618953704834 0.19829922914505005 -0.06976741552352905
-0.22480618953704834 0.36025339365005493 -0.05426359176635742
-0.22480618953704834 0.4849812388420105 0.1317828893661499
-0.22480618953704834 0.6186639070510864 -0.05426359176635742
-0.22480618953704834 0.7303768396377563 0.1317828893661499
-0.22480618953704834 0.7434308528900146 -0.05426359176635742
-0.22480618953704834 0.7487998008728027 0.007751941680908203
-0.22480618953704834 0.7449303865432739 0.02325582504272461
-0.22480618953704834 0.7435665130615234 0.038759708404541016
-0.22480618953704834 0.7436137199401855 0.05426359176635742
-0.22480618953704834 0.7418639659881592 0.06976747512817383
-0.22480617463588715 0.7388927340507507 0.08527135848999023
-0.22480617463588715 0.7384757399559021 0.10077523440122604
-0.22480618953704834 0.739173173904419 0.11627912521362305
-0.22480618953704834 0.7531884908676147 -0.038759708404541016
-0.22480618953704834 0.7537051439285278 -0.02325582504272461
-0.22480620443820953 0.7523430585861206 -0.00775194214656949
-0.20930230617523193 -0.7221599221229553 -0.02325582504272461
-0.20930230617523193 -0.7237236499786377 -0.007751941680908203
-0.20930230617523193 -0.7063421010971069 -0.05426359176635742
-0.20930230617523193 -0.7137526869773865 -0.038759708404541016
-0.20930230617523193 -0.7022497653961182 0.007751941680908203
-0.20930230617523193 -0.6183046102523804 -0.06976741552352905
-0.20930230617523193 -0.5588947534561157 -0.08527129888534546
-0.20930230617523193 -0.5245881080627441 -0.08527129888534546
-0.20930230617523193 -0.5123807191848755 0.02325582504272461
-0.20930230617523193 -0.454908162355423 0.038759708404541016
-0.20930230617523193 -0.44111740589141846 -0.08527129888534546
-0.20930230617523193 -0.3939611315727234 0.05426359176635742
-0.20930230617523193 -0.3725687265396118 -0.08527129888534546
-0.20930230617523193 -0.30509012937545776 -0.08527129888534546
-0.20930230617523193 -0.2638159990310669 0.06976747512817383
-0.20930230617523193 -0.21238896250724792 0.08527135848999023
-0.20930230617523193 -0.18324103951454163 -0.10077518224716187
-0.20930230617523193 -0.15217697620391846 0.10077524185180664
-0.20930230617523193 -0.09757953882217407 0.11627912521362305
-0.20930230617523193 -0.027280882000923157 0.1317828893661499
-0.20930230617523193 0.050080910325050354 0.1317828893661499
-0.20930230617523193 0.06178335100412369 -0.10077518224716187
-0.20930230617523193 0.1653173416852951 -0.08527129143476486
-0.20930230617523193 0.2224806696176529 -0.06976741552352905
-0.20930230617523193 0.3397115468978882 0.1317828893661499
-0.20930230617523193 0.556392252445221 -0.05426359176635742
-0.20930230617523193 0.568652868270874 -0.05426359176635742
-0.20930230617523193 0.7630996108055115 0.06976747512817383
-0.20930230617523193 0.760122537612915 0.08527135848999023
-0.20930230617523193 0.7650125026702881 0.10077524185180664
-0.20930230617523193 0.7613350749015808 0.1317828893661499
-0.20930232107639313 0.770539402961731 -0.05426359176635742
-0.20930230617523193 0.7744978070259094 -0.038759708404541016
-0.20930230617523193 0.7770596742630005 -0.02325582504272461
-0.20930230617523193 0.7775976657867432 -0.007751941680908203
-0.20930230617523193 0.7763934135437012 0.007751941680908203
-0.20930230617523193 0.7732049226760864 0.02325582504272461
-0.20930230617523193 0.7700729370117188 0.038759708404541016
-0.20930230617523193 0.7677131295204163 0.05426359176635742
-0.20930230617523193 0.7680509686470032 0.11627912521362305
-0.19379842281341553 -0.7677322626113892 -0.007751941680908203
-0.19379842281341553 -0.760769248008728 -0.10077518224716187
-0.19379842281341553 -0.7640051245689392 -0.08527129888534546
-0.19379842281341553 -0.7649425864219666 -0.06976741552352905
-0.19379842281341553 -0.7650126814842224 -0.05426359176635742
-0.19379842281341553 -0.7647932171821594 -0.038759708404541016
-0.19379842281341553 -0.7669683694839478 -0.02325582504272461
-0.19379842281341553 -0.7567015886306763 0.007751941680908203
-0.19379842281341553 -0.6995970606803894 -0.10077518224716187
-0.19379842281341553 -0.6468676328659058 0.02325582504272461
-0.19379842281341553 -0.4807608723640442 0.038759708404541016
-0.19379842281341553 -0.42447200417518616 0.05426359176635742
-0.19379842281341553 -0.3073344826698303 0.06976747512817383
-0.19379842281341553 -0.2350454032421112 0.08527135848999023
-0.19379842281341553 -0.21207191050052643 -0.10077518224716187
-0.19379842281341553 -0.1874053180217743 0.10077524185180664
-0.19379842281341553 -0.1263139247894287 0.11627912521362305
-0.19379843771457672 -0.11186648905277252 -0.11627906560897827
-0.19379842281341553 -0.061781734228134155 0.1317828893661499
-0.19379842281341553 0.005233953706920147 -0.11627906560897827
-0.19379842281341553 0.09339331835508347 -0.10077518224716187
-0.19379842281341553 0.08799959719181061 0.1317828893661499
-0.19379842281341553 0.17794565856456757 -0.08527129888534546
-0.19379842281341553 0.2980424463748932 0.1317828893661499
-0.19379842281341553 0.3065074384212494 -0.06976741552352905
-0.19379842281341553 0.6365281343460083 -0.06976741552352905
-0.19379842281341553 0.6774071455001831 0.1472867727279663
-0.19379842281341553 0.7122629284858704 0.1472867727279663
-0.19379842281341553 0.7933240532875061 0.06976747512817383
-0.19379842281341553 0.7929514050483704 0.08527135848999023
-0.19379842281341553 0.7934020161628723 0.1317828893661499
-0.19379842281341553 0.7990982532501221 -0.06976741552352905
-0.19379842281341553 0.8046243190765381 -0.05426359176635742
-0.19379842281341553 0.8059588670730591 -0.038759708404541016
-0.19379842281341553 0.8084909319877625 -0.02325582504272461
-0.19379842281341553 0.8104054927825928 -0.007751941680908203
-0.19379842281341553 0.8107967972755432 0.007751941680908203
-0.19379842281341553 0.8080095648765564 0.02325582504272461
-0.19379842281341553 0.8037419319152832 0.038759708404541016
-0.19379842281341553 0.8002728223800659 0.05426359176635742
-0.19379842281341553 0.8016266822814941 0.10077524185180664
-0.19379842281341553 0.8018304705619812 0.11627912521362305
-0.1782945990562439 -0.7998009920120239 -0.05426359176635742
-0.1782945990562439 -0.8014025688171387 -0.038759708404541016
-0.1782945990562439 -0.8043595552444458 -0.02325582504272461
-0.1782945990562439 -0.8057444095611572 -0.007751941680908203
-0.1782945990562439 -0.7861570715904236 -0.11627906560897827
-0.1782945990562439 -0.7947933673858643 -0.10077517479658127
-0.1782945990562439 -0.7960336804389954 -0.08527130633592606
-0.1782945990562439 -0.7983301281929016 -0.06976741552352905
-0.1782945990562439 -0.79521244764328 0.007751941680908203
-0.1782945990562439 -0.7264907360076904 -0.11627906560897827
-0.1782945990562439 -0.7090442180633545 0.02325582504272461
-0.1782945990562439 -0.5127295851707458 0.038759708404541016
-0.1782945990562439 -0.45552369952201843 0.05426358804106712
-0.1782945990562439 -0.3820035755634308 -0.10077518224716187
-0.1782945990562439 -0.3919883966445923 0.06976747512817383
-0.1782945990562439 -0.2627222239971161 0.08527135848999023
-0.1782945990562439 -0.2540997564792633 -0.10077518224716187
-0.1782945990562439 -0.2151167243719101 0.10077524185180664
-0.1782945990562439 -0.1612028330564499 0.11627912521362305
-0.1782945990562439 -0.1453331559896469 -0.11627906560897827
-0.1782945990562439 -0.08911924064159393 0.1317828893661499
-0.1782945990562439 0.03289226070046425 -0.11627906560897827
-0.1782945990562439 0.14005827903747559 -0.10077518224716187
-0.1782945990562439 0.1381583958864212 0.1317828893661499
-0.1782945990562439 0.19056615233421326 -0.08527129888534546
-0.1782945990562439 0.2886955142021179 0.1317828893661499
-0.1782945990562439 0.33930689096450806 -0.06976741552352905
-0.1782945990562439 0.6079921126365662 -0.06976741552352905
-0.1782945990562439 0.6590244174003601 0.1472867727279663
-0.1782945990562439 0.7454103231430054 0.1472867727279663
-0.1782945990562439 0.8278745412826538 0.06976747512817383
-0.1782945990562439 0.8279633522033691 0.08527135848999023
-0.1782945990562439 0.8285719156265259 0.1317828893661499
-0.1782945990562439 0.8362520933151245 -0.06976741552352905
-0.1782945990562439 0.8380558490753174 -0.05426359176635742
-0.1782945990562439 0.8386470675468445 -0.038759708404541016
-0.1782945990562439 0.8419193029403687 -0.02325582504272461
-0.1782945990562439 0.8433393836021423 0.038759708404541016
-0.1782945990562439 0.8356627225875854 0.05426359176635742
-0.1782945990562439 0.8349519371986389 0.10077524185180664
-0.1782945990562439 0.8353599309921265 0.11627912521362305
-0.1782945990562439 0.845827043056488 -0.007751941215246916
-0.1782945990562439 0.8482720851898193 0.007751941680908203
-0.1782945990562439 0.8473560810089111 0.02325582504272461
-0.1627907156944275 -0.8460255265235901 -0.02325582504272461
-0.1627907156944275 -0.8311657309532166 -0.10077518224716187
-0.1627907156944275 -0.8318709135055542 -0.08527129888534546
-0.1627907156944275 -0.8330885171890259 -0.06976741552352905
-0.1627907156944275 -0.8358818292617798 -0.05426359176635742
-0.1627907156944275 -0.8409504294395447 -0.038759708404541016
-0.1627907156944275 -0.8435219526290894 -0.007751941680908203
-0.1627907156944275 -0.8275794982910156 -0.11627906560897827
-0.1627907156944275 -0.8211387991905212 0.007751941680908203
-0.1627907156944275 -0.7843135595321655 -0.13178294897079468
-0.1627907156944275 -0.7817001938819885 -0.13178294897079468
-0.1627907156944275 -0.743536651134491 0.02325582504272461
-0.1627907156944275 -0.6811398267745972 -0.11627906560897827
-0.1627907156944275 -0.6699303388595581 -0.11627906560897827
-0.1627907156944275 -0.5555623769760132 0.038759708404541016
-0.1627907156944275 -0.5458515882492065 -0.11627906560897827
-0.1627907156944275 -0.4787933826446533 0.05426359176635742
-0.16279073059558868 -0.4246417284011841 0.06976747512817383
-0.1627907156944275 -0.3360038697719574 0.08527135848999023
-0.1627907156944275 -0.23511441051959991 0.10077524185180664
-0.1627907156944275 -0.18325668573379517 0.11627912521362305
-0.1627907156944275 -0.17553149163722992 -0.11627906560897827
-0.1627907156944275 -0.10412193834781647 0.1317828893661499
-0.1627907156944275 -0.07437006384134293 -0.13178294897079468
-0.1627907156944275 -0.017648931592702866 -0.13178294897079468
-0.1627907156944275 0.055443305522203445 -0.11627906560897827
-0.1627907156944275 0.12334147840738297 0.1317828893661499
-0.1627907156944275 0.1585691273212433 -0.10077518224716187
-0.1627907156944275 0.2022610604763031 -0.08527129888534546
-0.1627907156944275 0.31209301948547363 0.1317828893661499
-0.1627907156944275 0.36169347167015076 -0.06976741552352905
-0.1627907156944275 0.4105865955352783 -0.06976741552352905
-0.1627907156944275 0.5227715373039246 -0.06976741552352905
-0.1627907156944275 0.5951065421104431 -0.06976741552352905
-0.1627907156944275 0.6702075600624084 0.1472867727279663
-0.1627907156944275 0.7272557616233826 0.1472867727279663
-0.1627907156944275 0.7633227705955505 -0.08527129888534546
-0.1627907156944275 0.8408206701278687 -0.08527129888534546
-0.1627907156944275 0.8394346237182617 0.06976747512817383
-0.1627907156944275 0.8298158645629883 0.08527135103940964
-0.1627907156944275 0.8406474590301514 0.10077524185180664
-0.1627907156944275 0.8373678922653198 0.1317828893661499
-0.1627907156944275 0.8600618839263916 -0.05426359176635742
-0.1627907156944275 0.8595168590545654 -0.038759708404541016
-0.1627907156944275 0.8590857982635498 0.05426359176635742
-0.1627907156944275 0.849982500076294 0.11627912521362305
-0.1627907156944275 0.8625006079673767 -0.06976741552352905
-0.1627907156944275 0.8661757707595825 -0.02325582504272461
-0.1627907156944275 0.8731397390365601 0.038759708404541016
-0.1627907156944275 0.8762978315353394 -0.007751941680908203
-0.1627907156944275 0.8821743726730347 0.007751941680908203
-0.1627907156944275 0.8809086084365845 0.02325582504272461
-0.14728683233261108 -0.8762940168380737 -0.08527129888534546
-0.14728683233261108 -0.8765760064125061 -0.038759708404541016
-0.14728683233261108 -0.8763806819915771 -0.02325582504272461
-0.14728683233261108 -0.8679938316345215 -0.10077518224716187
-0.14728683233261108 -0.8749793767929077 -0.06976741552352905
-0.14728683233261108 -0.8729168176651001 -0.05426359176635742
-0.14728683233261108 -0.8540612459182739 -0.11627906560897827
-0.14728684723377228 -0.8591678738594055 -0.007751941680908203
-0.14728683233261108 -0.8294028043746948 -0.13178294897079468
-0.14728683233261108 -0.8205121159553528 0.007751941680908203
-0.14728683233261108 -0.7587786912918091 0.02325582504272461
-0.14728683233261108 -0.7371664643287659 -0.13178294897079468
-0.14728683233261108 -0.6474661231040955 0.038759708404541016
-0.14728683233261108 -0.5207182765007019 -0.11627906560897827
-0.14728683233261108 -0.4947229325771332 0.05426359176635742
-0.14728683233261108 -0.4605807065963745 -0.11627906560897827
-0.14728683233261108 -0.44472837448120117 0.06976747512817383
-0.14728683233261108 -0.4092315137386322 -0.11627906560897827
-0.14728683233261108 -0.3888551592826843 0.08527135848999023
-0.14728683233261108 -0.2546338737010956 0.10077524185180664
-0.14728683233261108 -0.2018054723739624 -0.11627906560897827
-0.14728683233261108 -0.1954958736896515 0.11627912521362305
-0.14728683233261108 -0.1112011969089508 -0.13178294897079468
-0.14728683233261108 -0.10717720538377762 0.1317828893661499
-0.14728683233261108 -0.0004947539418935776 -0.13178294897079468
-0.14728683233261108 0.07092704623937607 -0.11627906560897827
-0.14728683233261108 0.1130790039896965 0.1317828893661499
-0.14728683233261108 0.16385608911514282 -0.10077518224716187
-0.14728683233261108 0.2068302482366562 -0.08527129888534546
-0.14728683233261108 0.3518548011779785 0.1317828893661499
-0.1472868174314499 0.3658854365348816 0.1317828893661499
-0.14728683233261108 0.49248993396759033 0.1317828893661499
-0.14728683233261108 0.5448707342147827 -0.06976741552352905
-0.14728683233261108 0.587325930595398 -0.06976741552352905
-0.14728683233261108 0.680803656578064 0.1472867727279663
-0.14728683233261108 0.7176884412765503 -0.08527129888534546
-0.14728683233261108 0.712248682975769 0.1472867727279663
-0.14728683233261108 0.8222172260284424 0.08527135848999023
-0.14728683233261108 0.8245159387588501 0.10077524185180664
-0.14728683233261108 0.8180009126663208 0.1317828893661499
-0.14728683233261108 0.8352266550064087 0.06976747512817383
-0.14728683233261108 0.8315449953079224 0.11627912521362305
-0.14728683233261108 0.8537216186523438 -0.08527129888534546
-0.14728684723377228 0.8610276579856873 0.05426359176635742
-0.14728683233261108 0.8764928579330444 -0.038759708404541016
-0.14728683233261108 0.9038109183311462 -0.06976741552352905
-0.14728683233261108 0.8918059468269348 -0.05426359549164772
-0.14728683233261108 0.8993456363677979 -0.02325582504272461
-0.14728683233261108 0.8993722200393677 0.038759708404541016
-0.14728683233261108 0.9102505445480347 -0.007751941680908203
-0.14728683233261108 0.9142272472381592 0.007751941680908203
-0.14728683233261108 0.9120830297470093 0.02325582504272461
-0.13178294897079468 -0.9236037135124207 -0.13178294897079468
-0.13178294897079468 -0.9228395223617554 -0.11627906560897827
-0.13178294897079468 -0.9127699136734009 -0.10077518224716187
-0.13178294897079468 -0.9090777635574341 -0.08527129888534546
-0.13178294897079468 -0.9021780490875244 -0.06976741552352905
-0.13178294897079468 -0.8960050940513611 -0.05426359176635742
-0.13178294897079468 -0.8923628330230713 -0.038759708404541016
-0.13178294897079468 -0.8905208110809326 -0.1472868174314499
-0.13178294897079468 -0.8772737979888916 -0.02325582504272461
-0.13178294897079468 -0.848252534866333 -0.007751941680908203
-0.13178294897079468 -0.8150485754013062 0.007751941680908203
-0.13178294897079468 -0.7655510306358337 -0.14728683233261108
-0.13178294897079468 -0.7643829584121704 0.02325582504272461
-0.13178294897079468 -0.7223166227340698 -0.13178294897079468
-0.13178294897079468 -0.6717681288719177 0.038759708404541016
-0.13178294897079468 -0.6129199266433716 -0.13178294897079468
-0.13178294897079468 -0.6102149486541748 -0.13178294897079468
-0.13178294897079468 -0.5100151300430298 0.05426359176635742
-0.13178294897079468 -0.4589468836784363 0.06976747512817383
-0.13178294897079468 -0.407213032245636 0.08527135848999023
-0.13178294897079468 -0.36008939146995544 -0.11627906560897827
-0.13178294897079468 -0.2734283208847046 0.10077524185180664
-0.13178294897079468 -0.22509795427322388 -0.11627906560897827
-0.13178294897079468 -0.20145927369594574 0.11627912521362305
-0.13178294897079468 -0.1349712312221527 -0.13178294897079468
-0.13178294897079468 -0.10355889797210693 0.1317828893661499
-0.13178294897079468 -0.07183420658111572 -0.14728683233261108
-0.13178294897079468 -0.039085566997528076 -0.14728683233261108
-0.13178294897079468 0.021668488159775734 -0.13178294897079468
-0.13178294897079468 0.09353989362716675 -0.11627906560897827
-0.13178294897079468 0.10804568231105804 0.1317828893661499
-0.13178294897079468 0.16568124294281006 -0.10077518224716187
-0.13178294897079468 0.20771828293800354 -0.08527129888534546
-0.13178294897079468 0.3448438346385956 0.1317828893661499
-0.13178294897079468 0.38748884201049805 0.1317828893661499
-0.13178294897079468 0.4732944965362549 0.1317828893661499
-0.13178294897079468 0.5526571273803711 -0.06976741552352905
-0.13178294897079468 0.5838903188705444 -0.06976741552352905
-0.13178294897079468 0.6708300113677979 -0.08527129888534546
-0.13178294897079468 0.6674220561981201 0.1472867727279663
-0.13178294897079468 0.7508735060691833 0.1472867727279663
-0.13178294897079468 0.8379253149032593 0.1317828893661499
-0.13178293406963348 0.8764455914497375 0.11627912521362305
-0.13178294897079468 0.8994380235671997 -0.08527129888534546
-0.13178294897079468 0.9090356230735779 0.10077524185180664
-0.13178294897079468 0.9278661012649536 0.08527135848999023
-0.13178294897079468 0.9430362582206726 -0.06976741552352905
-0.13178294897079468 0.9439338445663452 -0.05426359176635742
-0.13178294897079468 0.9448515176773071 -0.038759708404541016
-0.13178294897079468 0.947184681892395 -0.02325582504272461
-0.13178294897079468 0.948101282119751 -0.007751941680908203
-0.13178294897079468 0.9485456943511963 0.007751941680908203
-0.13178294897079468 0.9480607509613037 0.02325582504272461
-0.13178294897079468 0.9474970102310181 0.038759708404541016
-0.13178294897079468 0.9461719989776611 0.05426359176635742
-0.13178294897079468 0.9416425228118896 0.06976747512817383
-0.11627906560897827 -0.9800084829330444 -0.14728683233261108
-0.11627906560897827 -0.9697690010070801 -0.13178294897079468
-0.11627906560897827 -0.9455047845840454 -0.1627907156944275
-0.11627906560897827 -0.9477178454399109 -0.11627906560897827
-0.11627905815839767 -0.9324555397033691 -0.10077518224716187
-0.11627906560897827 -0.9238537549972534 -0.08527129888534546
-0.11627906560897827 -0.9095432162284851 -0.1782945990562439
-0.11627906560897827 -0.9120703935623169 -0.06976741552352905
-0.11627906560897827 -0.9048757553100586 -0.05426359176635742
-0.11627906560897827 -0.8929941654205322 -0.038759708404541016
-0.11627906560897827 -0.8628917932510376 -0.19379842281341553
-0.11627906560897827 -0.871237576007843 -0.02325582504272461
-0.11627907305955887 -0.8397233486175537 -0.007751941680908203
-0.11627906560897827 -0.8087118268013 0.007751941680908203
-0.11627906560897827 -0.7691016793251038 0.02325582504272461
-0.11627906560897827 -0.7073649168014526 -0.19379842281341553
-0.11627906560897827 -0.7050438523292542 -0.19379842281341553
-0.11627906560897827 -0.6968287229537964 0.038759708404541016
-0.11627906560897827 -0.6713732481002808 -0.19379842281341553
-0.11627906560897827 -0.6706868410110474 -0.1782945990562439
-0.11627906560897827 -0.6677411794662476 -0.1627907156944275
-0.11627905815839767 -0.5933735370635986 -0.14728683233261108
-0.11627906560897827 -0.5580869913101196 0.05426359176635742
-0.11627906560897827 -0.5289621353149414 -0.13178294897079468
-0.11627906560897827 -0.5220971703529358 -0.11627906560897827
-0.11627906560897827 -0.5149381160736084 -0.11627906560897827
-0.11627906560897827 -0.4796617329120636 -0.13178294897079468
-0.11627906560897827 -0.4800909161567688 0.06976747512817383
-0.11627906560897827 -0.46010640263557434 -0.19379842281341553
-0.11627906560897827 -0.43011635541915894 0.08527135848999023
-0.11627906560897827 -0.42129725217819214 -0.19379842281341553
-0.11627906560897827 -0.40196549892425537 -0.13178294897079468
-0.11627906560897827 -0.2911039888858795 0.10077524185180664
-0.11627906560897827 -0.21141336858272552 0.11627912521362305
-0.11627906560897827 -0.16374798119068146 -0.19379842281341553
-0.11627906560897827 -0.16361308097839355 -0.1782945990562439
-0.11627906560897827 -0.1634460836648941 -0.1627907156944275
-0.11627906560897827 -0.16780780255794525 -0.14728683233261108
-0.11627906560897827 -0.17426088452339172 -0.13178294897079468
-0.11627906560897827 -0.10867186635732651 0.1317828893661499
-0.11627906560897827 0.024994397535920143 -0.19379842281341553
-0.11627906560897827 0.08327772468328476 -0.19379842281341553
-0.11627906560897827 0.10886803269386292 0.1317828893661499
-0.11627906560897827 0.11634907871484756 -0.19379842281341553
-0.11627906560897827 0.11858780682086945 -0.1782945990562439
-0.11627906560897827 0.12032698839902878 -0.1627907156944275
-0.11627906560897827 0.12264230102300644 -0.14728683233261108
-0.11627906560897827 0.129352867603302 -0.13178294897079468
-0.11627906560897827 0.13545693457126617 -0.11627906560897827
-0.11627907305955887 0.16482582688331604 -0.10077518224716187
-0.11627906560897827 0.20486435294151306 -0.08527129888534546
-0.11627906560897827 0.298189640045166 0.1317828893661499
-0.11627906560897827 0.5520089864730835 -0.06976741552352905
-0.11627906560897827 0.5845211744308472 -0.06976741552352905
-0.11627906560897827 0.637548565864563 0.1472867727279663
-0.11627906560897827 0.6629674434661865 -0.08527129888534546
-0.11627906560897827 0.7720770835876465 0.1472867727279663
-0.11627906560897827 0.8448576331138611 0.1317828893661499
-0.11627906560897827 0.8893137574195862 0.11627912521362305
-0.11627906560897827 0.9051573276519775 -0.08527129888534546
-0.11627906560897827 0.9159070253372192 0.10077524185180664
-0.11627906560897827 0.9363893866539001 0.08527135848999023
-0.11627906560897827 0.9496534466743469 -0.06976741552352905
-0.11627906560897827 0.9510015249252319 0.06976747512817383
-0.11627906560897827 0.955807089805603 -0.05426359176635742
-0.11627906560897827 0.9612658023834229 -0.038759708404541016
-0.11627906560897827 0.9671434760093689 -0.02325582504272461
-0.11627906560897827 0.9610855579376221 0.05426359176635742
-0.11627906560897827 0.9703470468521118 -0.007751941680908203
-0.11627906560897827 0.971621036529541 0.00775194214656949
-0.11627906560897827 0.9710733294487 0.02325582504272461
-0.11627907305955887 0.9693781137466431 0.038759708404541016
-0.10077518224716187 -0.9814593195915222 -0.14728683233261108
-0.10077518224716187 -0.9704378843307495 -0.13178294897079468
-0.10077518224716187 -0.9467867016792297 -0.1627907156944275
-0.10077518224716187 -0.948258101940155 -0.11627905815839767
-0.10077518224716187 -0.9321972131729126 -0.10077518224716187
-0.10077518224716187 -0.9085294604301453 -0.1782945990562439
-0.10077517479658127 -0.9219654202461243 -0.08527129888534546
-0.10077518224716187 -0.9103132486343384 -0.06976741552352905
-0.10077518224716187 -0.8988602161407471 -0.05426359176635742
-0.10077518224716187 -0.8835383653640747 -0.038759708404541016
-0.10077518224716187 -0.8625748157501221 -0.19379842281341553
-0.10077518224716187 -0.8622898459434509 -0.02325582504272461
-0.10077518224716187 -0.8308538198471069 -0.007751941680908203
-0.10077518224716187 -0.802009642124176 0.007751941680908203
-0.10077518224716187 -0.7678949236869812 0.02325582504272461
-0.10077518224716187 -0.7148104906082153 0.038759708404541016
-0.10077518224716187 -0.6519618034362793 0.05426359176635742
-0.10077518224716187 -0.5357171297073364 0.06976747512817383
-0.10077518224716187 -0.46913719177246094 0.08527135848999023
-0.10077518224716187 -0.4179755747318268 0.10077524185180664
-0.10077518224716187 -0.27339044213294983 0.11627912521362305
-0.10077518224716187 -0.22722075879573822 0.1317828893661499
-0.10077518224716187 -0.10999581217765808 0.1472867727279663
-0.10077518224716187 0.04901963844895363 0.1472867727279663
-0.10077518224716187 0.13043470680713654 0.1317828893661499
-0.10077518224716187 0.13297663629055023 -0.19379842281341553
-0.10077517479658127 0.13502679765224457 -0.1782945990562439
-0.10077518224716187 0.13697472214698792 -0.1627907156944275
-0.10077518224716187 0.14025171101093292 -0.14728683233261108
-0.10077518224716187 0.14751969277858734 -0.13178294897079468
-0.10077517479658127 0.1498332917690277 -0.11627906560897827
-0.10077518224716187 0.16351404786109924 -0.10077518224716187
-0.10077518224716187 0.2009725123643875 -0.08527129888534546
-0.10077518224716187 0.22095869481563568 0.1317828893661499
-0.10077518224716187 0.4739968776702881 0.1472867727279663
-0.10077518224716187 0.5551774501800537 -0.06976741552352905
-0.10077518224716187 0.5832042694091797 -0.06976741552352905
-0.10077518224716187 0.6545681953430176 0.16279065608978271
-0.10077518224716187 0.6594882607460022 -0.08527129888534546
-0.10077517479658127 0.7230745553970337 0.16279065608978271
-0.10077518224716187 0.7754955291748047 0.1472867727279663
-0.10077518224716187 0.8422833681106567 0.1317828893661499
-0.10077518224716187 0.8841841220855713 0.11627912521362305
-0.10077518224716187 0.908165693283081 -0.08527129888534546
-0.10077518224716187 0.9112594723701477 0.10077524185180664
-0.10077518224716187 0.9326250553131104 0.08527135848999023
-0.10077518224716187 0.94780433177948 -0.06976741552352905
-0.10077518224716187 0.9497041702270508 0.06976747512817383
-0.10077518224716187 0.9564664959907532 -0.05426359176635742
-0.10077518224716187 0.9652920365333557 -0.038759708404541016
-0.10077518224716187 0.9639479517936707 0.05426359176635742
-0.10077518224716187 0.9736024141311646 -0.02325582690536976
-0.10077518224716187 0.9784929752349854 -0.007751941680908203
-0.10077518224716187 0.9810761213302612 0.007751941680908203
-0.10077518224716187 0.9785271883010864 0.02325582504272461
-0.10077518224716187 0.9732628464698792 0.038759708404541016
-0.08527129888534546 -0.9766473770141602 -0.14728683233261108
-0.08527129888534546 -0.9699829816818237 -0.13178294897079468
-0.08527129888534546 -0.9387245178222656 -0.1627907156944275
-0.08527129888534546 -0.9453762769699097 -0.11627906560897827
-0.08527129888534546 -0.9291285276412964 -0.10077518224716187
-0.08527129888534546 -0.9158210158348083 -0.08527129888534546
-0.08527129888534546 -0.8992195725440979 -0.1782945990562439
-0.08527129888534546 -0.9055663347244263 -0.06976741552352905
-0.08527129888534546 -0.8920455574989319 -0.05426359176635742
-0.08527130633592606 -0.8749502301216125 -0.038759708404541016
-0.08527129888534546 -0.8469704389572144 -0.19379842281341553
-0.08527129888534546 -0.8542343974113464 -0.02325582504272461
-0.08527129888534546 -0.8237757682800293 -0.007751941680908203
-0.08527129888534546 -0.799163281917572 0.007751941680908203
-0.08527129888534546 -0.7677513360977173 0.02325582504272461
-0.08527129888534546 -0.7250949144363403 0.038759708404541016
-0.08527129888534546 -0.6747124791145325 0.05426359176635742
-0.08527129888534546 -0.6162706017494202 0.06976747512817383
-0.08527129888534546 -0.53000807762146 0.08527135848999023
-0.08527129888534546 -0.4759591221809387 0.10077524185180664
-0.08527129888534546 -0.42875754833221436 0.11627912521362305
-0.08527129888534546 -0.3777681291103363 0.1317828893661499
-0.08527129888534546 -0.29159921407699585 0.1472867727279663
-0.08527129888534546 -0.2625346779823303 0.16279065608978271
-0.08527129888534546 -0.2501966655254364 0.17829453945159912
-0.08527129888534546 -0.2301148772239685 0.19379842281341553
