0.43229860067367554 -0.038759708404541016 0.27131783962249756
0.4329502582550049 -0.02325582504272461 -0.28682172298431396
0.42840319871902466 -0.02325582504272461 -0.24031008780002594
0.4353189170360565 -0.02325582504272461 -0.22480618953704834
0.4386952817440033 -0.02325582504272461 0.17829453945159912
0.43207985162734985 -0.02325582504272461 0.19379842281341553
0.43293601274490356 -0.02325582504272461 0.27131783962249756
0.43717077374458313 -0.007751941680908203 0.17829453945159912
0.4307517111301422 -0.007751941680908203 0.19379842281341553
0.43331393599510193 -0.007751941680908203 0.27131783962249756
0.4364227056503296 0.007751941680908203 0.17829453945159912
0.4297190010547638 0.007751941680908203 0.19379842281341553
0.43314439058303833 0.007751941680908203 0.27131783962249756
0.435854971408844 0.02325582504272461 0.17829453945159912
0.42883777618408203 0.02325582504272461 0.19379842281341553
0.43269678950309753 0.02325582504272461 0.27131783962249756
0.43460536003112793 0.038759708404541016 0.17829453945159912
0.4278940260410309 0.038759708404541016 0.19379842281341553
0.43216264247894287 0.038759708404541016 0.27131783962249756
0.4361222982406616 0.05426359176635742 0.17829453945159912
0.429413765668869 0.05426359176635742 0.19379842281341553
0.4413554072380066 0.05426359176635742 0.25581395626068115
0.4314228892326355 0.05426359176635742 0.27131783962249756
0.4278048872947693 0.06976747512817383 -0.28682172298431396
0.44014421105384827 0.06976747512817383 -0.27131783962249756
0.4280548095703125 0.06976747512817383 -0.24031008780002594
0.4365684986114502 0.06976747512817383 -0.22480618953704834
0.4357277750968933 0.06976747512817383 0.19379842281341553
0.4277198910713196 0.06976747512817383 0.20930230617523193
0.4415416717529297 0.06976747512817383 0.25581395626068115
0.4314301908016205 0.06976747512817383 0.27131783962249756
0.4281696081161499 0.08527135848999023 -0.28682172298431396
0.43985939025878906 0.08527135848999023 -0.27131783962249756
0.4269291162490845 0.08527135848999023 -0.24031005799770355
0.43601974844932556 0.08527135848999023 -0.22480618953704834
0.43557342886924744 0.08527135848999023 0.20930230617523193
0.4313869774341583 0.08527135848999023 0.27131783962249756
0.43779823184013367 0.10077524185180664 -0.27131783962249756
0.43439286947250366 0.10077524185180664 -0.22480618953704834
0.43943896889686584 0.10077524185180664 0.20930230617523193
0.43014368414878845 0.10077524185180664 0.22480617463588715
0.43966180086135864 0.10077524185180664 0.25581395626068115
0.4298987090587616 0.10077524185180664 0.27131783962249756
0.43525099754333496 0.11627912521362305 -0.27131783962249756
0.43155115842819214 0.11627912521362305 -0.22480618953704834
0.4362286925315857 0.11627912521362305 0.20930230617523193
0.4269465208053589 0.11627912521362305 0.22480618953704834
0.4352076053619385 0.11627912521362305 0.25581395626068115
0.42710745334625244 0.1317828893661499 -0.27131783962249756
0.43895256519317627 0.1317828893661499 -0.25581395626068115
0.4264082610607147 0.1317828893661499 -0.22480618953704834
0.43438589572906494 0.1317828893661499 -0.20930230617523193
0.440090537071228 0.1317828893661499 0.19379842281341553
0.430768221616745 0.1317828893661499 0.20930230617523193
0.4338616728782654 0.1317828893661499 0.25581395626068115
0.4352523684501648 0.1472867727279663 -0.25581395626068115
0.42718371748924255 0.1472867727279663 -0.20930230617523193
0.43480753898620605 0.1472867727279663 -0.19379842281341553
0.4355742931365967 0.1472867727279663 0.19379842281341553
0.42722398042678833 0.1472867727279663 0.20930230617523193
0.4398088753223419 0.1472867727279663 0.24031007289886475
0.4312264323234558 0.1472867727279663 0.25581395626068115
0.4284422993659973 0.16279065608978271 -0.25581395626068115
0.4391050338745117 0.16279065608978271 -0.24031007289886475
0.4268971085548401 0.16279065608978271 -0.19379843771457672
0.4337122142314911 0.16279065608978271 -0.1782945990562439
0.4346010088920593 0.16279065608978271 0.17829453945159912
0.42691272497177124 0.16279065608978271 0.19379842281341553
0.4372289180755615 0.16279065608978271 0.24031007289886475
0.4366151988506317 0.17829453945159912 -0.24031007289886475
0.4326081871986389 0.17829453945159912 -0.1627907156944275
0.44091475009918213 0.17829453945159912 -0.14728683233261108
0.4393971860408783 0.17829453945159912 0.1472867727279663
0.43132317066192627 0.17829453945159912 0.16279065608978271
0.4410019814968109 0.17829453945159912 0.22480618953704834
0.43333154916763306 0.17829453945159912 0.24031007289886475
0.4318731725215912 0.19379842281341553 -0.24031007289886475
0.44086071848869324 0.19379842281341553 -0.22480618953704834
0.43220531940460205 0.19379842281341553 -0.14728683233261108
0.4400393068790436 0.19379842281341553 -0.13178294897079468
0.4379296600818634 0.19379842281341553 0.1317828893661499
0.430172860622406 0.19379843771457672 0.1472867727279663
0.4385351240634918 0.19379842281341553 0.22480618953704834
0.42705729603767395 0.19379842281341553 0.24031005799770355
0.426634818315506 0.20930230617523193 -0.24031007289886475
0.43838852643966675 0.20930230617523193 -0.22480618953704834
0.4270666837692261 0.20930230617523193 -0.14728683233261108
0.4346867799758911 0.20930230617523193 -0.13178294897079468
0.43870997428894043 0.20930230617523193 0.11627912521362305
0.43216705322265625 0.20930230617523193 0.1317828893661499
0.4414963722229004 0.20930230617523193 0.20930230617523193
0.4344272315502167 0.20930230617523193 0.22480618953704834
0.4343285858631134 0.22480618953704834 -0.22480618953704834
0.4413473606109619 0.22480618953704834 -0.20930230617523193
0.43185681104660034 0.22480618953704834 -0.13178294897079468
0.43934327363967896 0.22480618953704834 -0.11627906560897827
0.4353291988372803 0.22480618953704834 0.11627912521362305
0.42910850048065186 0.22480618953704834 0.1317828893661499
0.43826526403427124 0.22480618953704834 0.20930230617523193
0.42743685841560364 0.22480618953704834 0.22480618953704834
0.4283405840396881 0.24031007289886475 -0.22480618953704834
0.4383283853530884 0.24031007289886475 -0.20930230617523193
0.43035608530044556 0.24031007289886475 -0.13178294897079468
0.43734046816825867 0.24031007289886475 -0.11627906560897827
0.43956106901168823 0.24031007289886475 0.10077524185180664
0.43310412764549255 0.24031007289886475 0.11627912521362305
0.4274926781654358 0.24031007289886475 0.1317828893661499
0.4408559501171112 0.24031007289886475 0.19379842281341553
0.4340786933898926 0.24031007289886475 0.20930230617523193
0.43435001373291016 0.25581395626068115 -0.20930230617523193
0.4404122233390808 0.25581395626068115 -0.19379842281341553
0.4288817346096039 0.25581395626068115 -0.13178294897079468
0.4349980652332306 0.25581395626068115 -0.11627906560897827
0.4367225468158722 0.25581395626068115 0.10077524185180664
0.43054765462875366 0.25581395626068115 0.11627912521362305
0.4378434717655182 0.25581395626068115 0.19379842281341553
0.42716580629348755 0.25581395626068115 0.20930230617523193
0.42844894528388977 0.27131783962249756 -0.20930230617523193
0.43728888034820557 0.27131783962249756 -0.19379842281341553
0.4272741377353668 0.27131783962249756 -0.13178294897079468
0.43245822191238403 0.27131783962249756 -0.11627906560897827
0.43896669149398804 0.27131783962249756 -0.10077518224716187
0.43997570872306824 0.27131783962249756 0.08527135848999023
0.4338633716106415 0.27131783962249756 0.10077524185180664
0.42826592922210693 0.27131783962249756 0.11627913266420364
0.4399738311767578 0.27131783962249756 0.17829453945159912
0.4336789548397064 0.27131783962249756 0.19379842281341553
0.43317610025405884 0.28682172298431396 -0.19379842281341553
0.4389956295490265 0.28682172298431396 -0.1782945990562439
0.42910730838775635 0.28682172298431396 -0.11627906560897827
0.4346400499343872 0.28682172298431396 -0.10077518224716187
0.4409845769405365 0.28682172298431396 -0.08527129888534546
0.44097667932510376 0.28682172298431396 0.06976747512817383
0.4359266459941864 0.28682172298431396 0.08527135848999023
0.4302654266357422 0.28682172298431396 0.10077524185180664
0.44151002168655396 0.28682172298431396 0.16279065608978271
0.4367592930793762 0.28682172298431396 0.17829453945159912
0.43553414940834045 0.30232560634613037 -0.1782945990562439
0.44024258852005005 0.30232560634613037 -0.1627907156944275
0.42971378564834595 0.30232560634613037 -0.10077518224716187
0.43496012687683105 0.30232560634613037 -0.08527129888534546
0.43977415561676025 0.30232560634613037 -0.06976741552352905
0.4401938319206238 0.30232560634613037 0.05426359176635742
0.43535345792770386 0.30232560634613037 0.06976747512817383
0.4307367503643036 0.30232560634613037 0.08527135848999023
0.4381454885005951 0.30232560634613037 0.16279065608978271
0.4301130175590515 0.30232560634613037 0.17829453945159912
0.4298183023929596 0.3178294897079468 -0.1782945990562439
0.43698960542678833 0.3178294897079468 -0.1627907156944275
0.441680908203125 0.3178294897079468 -0.14728683233261108
0.42648208141326904 0.3178294599056244 -0.10077518224716187
0.4302487373352051 0.3178294897079468 -0.08527129888534546
0.4343118667602539 0.3178294897079468 -0.06976741552352905
0.43813711404800415 0.3178294897079468 -0.05426359176635742
0.4410798251628876 0.3178294897079468 -0.038759708404541016
0.4410834014415741 0.3178294897079468 0.02325582504272461
0.4382239878177643 0.3178294897079468 0.038759708404541016
0.4346912205219269 0.3178294897079468 0.05426359176635742
0.43022847175598145 0.3178294897079468 0.06976747512817383
0.4264949858188629 0.3178294897079468 0.08527135848999023
0.4393284022808075 0.3178294897079468 0.1472867727279663
0.4333842694759369 0.3178294897079468 0.16279065608978271
0.43377625942230225 0.3333333730697632 -0.1627907156944275
0.4382800757884979 0.3333333730697632 -0.14728683233261108
0.4278203547000885 0.3333333730697632 -0.08527129888534546
0.43105587363243103 0.3333333730697632 -0.06976741552352905
0.4345550239086151 0.3333333730697632 -0.05426359176635742
0.43720743060112 0.3333333730697632 -0.038759708404541016
0.4388100206851959 0.3333333730697632 -0.02325582504272461
0.438983678817749 0.3333333730697632 -0.007751941680908203
0.43825238943099976 0.3333333730697632 0.007751941680908203
0.4363666772842407 0.3333333730697632 0.02325582504272461
0.433523565530777 0.3333333730697632 0.038759708404541016
0.43004247546195984 0.3333333730697632 0.05426359176635742
0.4263923764228821 0.3333333730697632 0.06976748257875443
0.44031089544296265 0.3333333730697632 0.1317828893661499
0.43567389249801636 0.3333333730697632 0.1472867727279663
0.43553978204727173 0.3488372564315796 -0.14728683233261108
0.4390265941619873 0.3488372564315796 -0.13178294897079468
0.42771777510643005 0.3488372564315796 -0.06976741552352905
0.4303918480873108 0.3488372564315796 -0.05426359176635742
0.43286532163619995 0.3488372564315796 -0.038759708404541016
0.4344152510166168 0.3488372564315796 -0.02325582504272461
0.43459874391555786 0.3488372564315796 -0.007751941680908203
0.4338154196739197 0.3488372564315796 0.00775194214656949
0.43184784054756165 0.3488372564315796 0.02325582504272461
0.4291768968105316 0.3488372564315796 0.038759708404541016
0.4263588488101959 0.3488372564315796 0.05426359549164772
0.44097602367401123 0.3488372564315796 0.11627912521362305
0.4368666112422943 0.3488372564315796 0.1317828893661499
0.4279271960258484 0.3488372564315796 0.1472867727279663
0.42720162868499756 0.364341139793396 -0.14728684723377228
0.4357667863368988 0.364341139793396 -0.13178294897079468
0.4391801655292511 0.364341139793396 -0.11627906560897827
0.4270921051502228 0.364341139793396 -0.038759712129831314
0.4281405508518219 0.364341139793396 -0.02325582504272461
0.42834925651550293 0.364341139793396 -0.007751941680908203
0.4278550446033478 0.364341139793396 0.007751941680908203
0.42654502391815186 0.364341139793396 0.02325582690536976
0.44133925437927246 0.364341139793396 0.10077524185180664
0.437411367893219 0.364341139793396 0.11627912521362305
0.42915934324264526 0.364341139793396 0.1317828893661499
0.4268699586391449 0.37984493374824524 -0.13178294897079468
0.4347594380378723 0.37984490394592285 -0.11627906560897827
0.43866947293281555 0.37984490394592285 -0.10077518224716187
0.44089561700820923 0.37984490394592285 0.08527135848999023
0.43719980120658875 0.37984490394592285 0.10077524185180664
0.4291042983531952 0.37984490394592285 0.11627912521362305
0.4333200454711914 0.39534878730773926 -0.10077518224716187
0.4377608597278595 0.39534878730773926 -0.08527129888534546
0.44114649295806885 0.39534878730773926 -0.06976741552352905
0.4397929608821869 0.39534878730773926 0.06976747512817383
0.4363713264465332 0.39534878730773926 0.08527135848999023
0.4284437596797943 0.39534878730773926 0.10077524185180664
0.4301413893699646 0.41085267066955566 -0.08527129888534546
0.4359014928340912 0.41085267066955566 -0.06976741552352905
0.4386975169181824 0.41085267066955566 -0.05426359176635742
0.44085124135017395 0.41085267066955566 -0.038759708404541016
0.44163912534713745 0.41085267066955566 0.02325582504272461
0.43990233540534973 0.41085267066955566 0.038759708404541016
0.4376981556415558 0.41085267066955566 0.05426359176635742
0.43326449394226074 0.41085267066955566 0.06976747512817383
0.4266809821128845 0.41085267066955566 0.08527135848999023
0.43094348907470703 0.42635655403137207 -0.05426359549164772
0.4350533187389374 0.42635655403137207 -0.038759708404541016
0.436794638633728 0.42635655403137207 -0.02325582504272461
0.4374915361404419 0.42635655403137207 -0.007751941680908203
0.43732205033302307 0.42635655403137207 0.007751941680908203
0.43612945079803467 0.42635655403137207 0.02325582504272461
0.4333599805831909 0.42635655403137207 0.038759708404541016
0.4281269311904907 0.42635655403137207 0.05426359176635742
0.4270719587802887 0.4418604373931885 -0.02325582504272461
0.42800772190093994 0.4418604373931885 -0.007751941680908203
0.4277433454990387 0.4418604075908661 0.007751941680908203
0.44307249784469604 -0.3798449635505676 -0.05426359176635742
0.44721758365631104 -0.3798449635505676 -0.038759708404541016
0.4499930143356323 -0.3798449635505676 -0.02325582504272461
0.4507268965244293 -0.3798449635505676 -0.007751941680908203
0.45052969455718994 -0.3798449635505676 0.007751941680908203
0.44909197092056274 -0.3798449635505676 0.02325582504272461
0.4458574652671814 -0.3798449635505676 0.038759708404541016
0.44234558939933777 -0.3798449635505676 0.05426359176635742
0.44251134991645813 -0.3643410801887512 -0.08527129888534546
0.4484490156173706 -0.3643410801887512 -0.06976741552352905
0.4521039128303528 -0.3643410801887512 -0.05426359176635742
0.45397165417671204 -0.3643410801887512 -0.038759708404541016
0.4549729824066162 -0.3643410801887512 -0.02325582504272461
0.45534393191337585 -0.3643410801887512 -0.007751941680908203
0.4553336799144745 -0.3643410801887512 0.007751941680908203
0.4547693133354187 -0.3643410801887512 0.02325582504272461
0.4533655047416687 -0.3643410801887512 0.038759708404541016
0.4507422149181366 -0.3643410801887512 0.05426359176635742
0.4459473192691803 -0.3643410801887512 0.06976747512817383
0.4459104835987091 -0.3488371968269348 -0.10077518969774246
0.4514249563217163 -0.3488371968269348 -0.08527129888534546
0.4540713131427765 -0.3488371968269348 -0.06976741552352905
0.45594125986099243 -0.3488371968269348 -0.05426359176635742
0.45540621876716614 -0.3488371968269348 0.05426359176635742
0.45302721858024597 -0.3488371968269348 0.06976747512817383
0.44886910915374756 -0.3488371968269348 0.08527135848999023
0.44271332025527954 -0.3488371968269348 0.10077524930238724
0.44812971353530884 -0.3333333134651184 -0.11627906560897827
0.4524286091327667 -0.3333333134651184 -0.10077518224716187
0.4549371004104614 -0.3333333134651184 -0.08527129888534546
0.45705875754356384 -0.3333333134651184 0.06976747512817383
0.4541274309158325 -0.3333333134651184 0.08527135848999023
0.44957107305526733 -0.3333333134651184 0.10077524185180664
0.44327446818351746 -0.3333333134651184 0.11627912521362305
0.44910353422164917 -0.317829430103302 -0.13178294897079468
0.4529149532318115 -0.317829430103302 -0.11627906560897827
0.4555599093437195 -0.317829430103302 -0.10077518224716187
0.45461535453796387 -0.317829430103302 0.10077524185180664
0.45003005862236023 -0.317829430103302 0.11627912521362305
0.44342732429504395 -0.317829430103302 0.1317828893661499
0.4490550756454468 -0.30232560634613037 -0.14728683233261108
0.4530041813850403 -0.30232560634613037 -0.13178294897079468
0.4560932219028473 -0.30232560634613037 -0.11627906560897827
0.4422951936721802 -0.30232560634613037 -0.05426358804106712
0.4436326324939728 -0.302325576543808 -0.038759708404541016
0.44474634528160095 -0.30232560634613037 -0.02325582504272461
0.4447330832481384 -0.30232560634613037 -0.007751941680908203
0.4441908895969391 -0.30232560634613037 0.007751941680908203
0.44293710589408875 -0.30232560634613037 0.02325582504272461
0.45480069518089294 -0.30232560634613037 0.11627912521362305
0.44982144236564636 -0.30232560634613037 0.1317828893661499
0.4427797198295593 -0.30232560634613037 0.1472867727279663
0.44843319058418274 -0.28682172298431396 -0.1627907156944275
0.4528988301753998 -0.28682172298431396 -0.14728683233261108
0.45630544424057007 -0.28682172298431396 -0.13178294897079468
0.4436590373516083 -0.28682172298431396 -0.06976741552352905
0.44573330879211426 -0.28682172298431396 -0.05426359176635742
0.4476262032985687 -0.28682172298431396 -0.038759708404541016
0.4492354989051819 -0.28682172298431396 -0.02325582504272461
0.4492504596710205 -0.28682172298431396 -0.007751941680908203
0.4486081898212433 -0.28682172298431396 0.007751941680908203
0.44696733355522156 -0.28682172298431396 0.02325582504272461
0.44461801648139954 -0.28682172298431396 0.038759708404541016
0.4420069456100464 -0.2868216931819916 0.05426359176635742
0.4546860158443451 -0.28682172298431396 0.1317828893661499
0.4492165446281433 -0.28682172298431396 0.1472867727279663
0.4464258551597595 -0.27131783962249756 -0.1782946139574051
0.45265015959739685 -0.27131783962249756 -0.1627907156944275
0.45608288049697876 -0.27131783962249756 -0.14728683233261108
0.4442862570285797 -0.27131783962249756 -0.08527129143476486
0.4469548761844635 -0.27131783962249756 -0.06976741552352905
0.44973355531692505 -0.27131783962249756 -0.05426359176635742
0.4517555832862854 -0.27131783962249756 -0.038759708404541016
0.45322439074516296 -0.27131783962249756 -0.02325582504272461
0.45313429832458496 -0.27131783962249756 -0.007751941680908203
0.45242637395858765 -0.27131783962249756 0.007751941680908203
0.45059993863105774 -0.27131783962249756 0.02325582504272461
0.4477947950363159 -0.27131783962249756 0.038759708404541016
0.4444180130958557 -0.27131783962249756 0.05426359176635742
0.4543549418449402 -0.27131783962249756 0.1472867727279663
0.44822555780410767 -0.27131783962249756 0.16279065608978271
0.4423522353172302 -0.25581395626068115 -0.19379842281341553
0.4517243504524231 -0.25581395626068115 -0.1782945990562439
0.45531758666038513 -0.25581395626068115 -0.1627907156944275
0.44383853673934937 -0.25581395626068115 -0.10077517479658127
0.44736605882644653 -0.25581395626068115 -0.08527129888534546
0.4504995346069336 -0.25581395626068115 -0.06976741552352905
0.45305970311164856 -0.25581395626068115 -0.05426359176635742
0.4548608064651489 -0.25581395626068115 -0.038759708404541016
0.4562660753726959 -0.25581395626068115 -0.02325582504272461
0.45619943737983704 -0.25581395626068115 -0.007751941680908203
0.4555355906486511 -0.25581395626068115 0.007751941680908203
0.453690767288208 -0.25581395626068115 0.02325582504272461
0.45089858770370483 -0.25581395626068115 0.038759708404541016
0.4473859369754791 -0.25581395626068115 0.05426359176635742
0.4430452585220337 -0.25581395626068115 0.06976747512817383
0.4534775912761688 -0.25581395626068115 0.16279065608978271
0.4460764527320862 -0.25581395626068115 0.17829453945159912
0.4492606520652771 -0.24031007289886475 -0.19379842281341553
0.4542570412158966 -0.24031007289886475 -0.1782945990562439
0.44275641441345215 -0.24031005799770355 -0.11627905815839767
0.4465646743774414 -0.24031007289886475 -0.10077518224716187
0.45074912905693054 -0.24031007289886475 -0.08527129888534546
0.45392054319381714 -0.24031007289886475 -0.06976741552352905
0.4565824270248413 -0.24031007289886475 -0.05426359176635742
0.45478957891464233 -0.24031007289886475 0.038759708404541016
0.4512329697608948 -0.24031007289886475 0.05426359176635742
0.44687676429748535 -0.24031007289886475 0.06976747512817383
0.4428209364414215 -0.24031007289886475 0.08527135848999023
0.4512953758239746 -0.24031007289886475 0.17829453945159912
0.4425564110279083 -0.24031007289886475 0.19379842281341553
0.4426771104335785 -0.22480618953704834 -0.20930230617523193
0.45271557569503784 -0.22480618953704834 -0.19379842281341553
0.4563030004501343 -0.22480618953704834 -0.1782945990562439
0.4449478089809418 -0.22480618953704834 -0.11627906560897827
0.44972163438796997 -0.22480618953704834 -0.10077518224716187
0.4544976055622101 -0.22480618953704834 -0.08527129888534546
0.4558503031730652 -0.22480618953704834 0.05426359176635742
0.4510831832885742 -0.22480618953704834 0.06976747512817383
0.4467152953147888 -0.22480618953704834 0.08527135848999023
0.4423865079879761 -0.22480618953704834 0.10077524185180664
0.4550888240337372 -0.22480618953704834 0.17829453945159912
0.44771608710289 -0.22480618953704834 0.19379842281341553
0.4486761689186096 -0.20930230617523193 -0.20930230617523193
0.454805850982666 -0.20930230617523193 -0.19379842281341553
0.4433564841747284 -0.20930230617523193 -0.13178294897079468
0.4476063847541809 -0.20930230617523193 -0.11627906560897827
0.4533093571662903 -0.20930230617523193 -0.10077518224716187
0.45413488149642944 -0.20930230617523193 0.06976747512817383
0.4492700397968292 -0.20930230617523193 0.08527135848999023
0.44440051913261414 -0.20930230617523193 0.10077524185180664
0.45264917612075806 -0.20930230617523193 0.19379842281341553
0.4434039890766144 -0.20930230617523193 0.20930230617523193
0.4422040283679962 -0.19379842281341553 -0.22480618953704834
0.4531211256980896 -0.19379842281341553 -0.20930230617523193
0.4573547840118408 -0.19379842281341553 -0.19379842281341553
0.4425502121448517 -0.19379842281341553 -0.14728683233261108
0.4470836818218231 -0.19379842281341553 -0.13178294897079468
0.45308730006217957 -0.19379842281341553 -0.11627906560897827
0.45345211029052734 -0.19379842281341553 0.08527135848999023
0.44807547330856323 -0.19379842281341553 0.10077524185180664
0.44338181614875793 -0.19379842281341553 0.11627912521362305
0.4571414291858673 -0.19379842281341553 0.19379842281341553
0.44954872131347656 -0.19379842281341553 0.20930230617523193
0.4491981565952301 -0.1782945990562439 -0.22480618953704834
0.4546186625957489 -0.1782945990562439 -0.20930230617523193
0.4427037537097931 -0.1782945990562439 -0.1627907156944275
0.4473873972892761 -0.1782945990562439 -0.14728683233261108
0.4545954465866089 -0.1782945990562439 -0.13178294897079468
0.4543425738811493 -0.1782945990562439 0.10077524185180664
0.44919681549072266 -0.1782945990562439 0.11627912521362305
0.44430026412010193 -0.1782945990562439 0.1317828893661499
0.45403310656547546 -0.1782945990562439 0.20930230617523193
0.44385814666748047 -0.1782945990562439 0.22480618953704834
0.45235511660575867 -0.1627907156944275 -0.22480618953704834
0.4425748586654663 -0.1627907156944275 -0.1782945990562439
0.44732415676116943 -0.1627907156944275 -0.1627907156944275
0.45507732033729553 -0.1627907156944275 -0.14728683233261108
0.4524853825569153 -0.1627907156944275 0.1317828893661499
0.4461485743522644 -0.1627907156944275 0.1472867727279663
0.45708099007606506 -0.1627907156944275 0.20930230617523193
0.44927844405174255 -0.1627907156944275 0.22480618953704834
0.4483412504196167 -0.14728683233261108 -0.24031007289886475
0.45440909266471863 -0.14728683233261108 -0.22480618953704834
0.44624191522598267 -0.14728683233261108 -0.1782945990562439
0.4541577994823456 -0.14728683233261108 -0.1627907156944275
0.4571329653263092 -0.14728683233261108 0.1472867727279663
0.4499098062515259 -0.14728683233261108 0.16279065608978271
0.44332075119018555 -0.14728683233261108 0.17829453945159912
0.4523630142211914 -0.14728683233261108 0.22480618953704834
0.4525383710861206 -0.13178294897079468 -0.24031007289886475
0.4453141689300537 -0.13178294897079468 -0.19379842281341553
0.4521259367465973 -0.13178294897079468 -0.1782945990562439
0.44969093799591064 -0.13178294897079468 0.17829453945159912
0.44238772988319397 -0.13178294897079468 0.19379842281341553
0.4521210193634033 -0.13178294897079468 0.22480618953704834
0.4426712393760681 -0.13178294897079468 0.24031007289886475
0.44993817806243896 -0.11627906560897827 -0.25581395626068115
0.4568796157836914 -0.11627906560897827 -0.24031007289886475
0.4437972903251648 -0.11627906560897827 -0.20930229127407074
0.449038028717041 -0.11627906560897827 -0.19379842281341553
0.4565284848213196 -0.11627906560897827 -0.1782945990562439
0.4555547833442688 -0.11627906560897827 0.16279065608978271
0.44951292872428894 -0.11627906560897827 0.17829453945159912
0.44233548641204834 -0.11627906560897827 0.19379842281341553
0.4455952048301697 -0.11627905815839767 0.24031007289886475
0.4526067078113556 -0.10077518224716187 -0.25581395626068115
0.4452539086341858 -0.10077518224716187 -0.20930230617523193
0.4515320658683777 -0.10077518224716187 -0.19379842281341553
0.4509963393211365 -0.10077518224716187 0.17829453945159912
0.44371020793914795 -0.10077518224716187 0.19379842281341553
0.4507640302181244 -0.10077518224716187 0.24031007289886475
0.44235700368881226 -0.08527129888534546 -0.27131783962249756
0.45359140634536743 -0.08527129888534546 -0.25581395626068115
0.4465986490249634 -0.08527129888534546 -0.20930230617523193
0.45285189151763916 -0.08527129888534546 -0.19379842281341553
0.45603474974632263 -0.08527129888534546 0.16279065608978271
0.4499165713787079 -0.08527129888534546 0.17829453945159912
0.4429781436920166 -0.08527129888534546 0.19379842281341553
0.45194441080093384 -0.08527129888534546 0.24031007289886475
0.44339805841445923 -0.06976741552352905 -0.27131783962249756
0.4536658227443695 -0.06976741552352905 -0.25581395626068115
0.4448865056037903 -0.06976741552352905 -0.20930230617523193
0.45062780380249023 -0.06976741552352905 -0.19379842281341553
0.45593351125717163 -0.06976741552352905 -0.1782945990562439
0.45236051082611084 -0.06976741552352905 0.16279065608978271
0.44688689708709717 -0.06976741552352905 0.17829453945159912
0.4515880048274994 -0.06976741552352905 0.24031007289886475
0.4444580376148224 -0.05426359176635742 -0.27131783962249756
0.4540523290634155 -0.05426359176635742 -0.25581395626068115
0.44620373845100403 -0.05426359176635742 -0.19379842281341553
0.45074424147605896 -0.05426359176635742 -0.1782945990562439
0.45640063285827637 -0.05426359176635742 -0.1627907156944275
0.45551323890686035 -0.05426359176635742 0.1472867727279663
0.4495199918746948 -0.05426359176635742 0.16279065608978271
0.44403275847435 -0.05426359549164772 0.17829455435276031
0.4510987401008606 -0.05426359176635742 0.24031007289886475
0.4451138377189636 -0.038759708404541016 -0.27131783962249756
0.4539761543273926 -0.038759708404541016 -0.25581395626068115
0.4441969394683838 -0.038759708404541016 -0.19379842281341553
0.4483085870742798 -0.038759708404541016 -0.1782945990562439
0.4525389075279236 -0.038759708404541016 -0.1627907156944275
0.45733973383903503 -0.038759708404541016 -0.14728683233261108
0.45182332396507263 -0.038759708404541016 0.1472867727279663
0.44671761989593506 -0.038759708404541016 0.16279065608978271
0.45106345415115356 -0.038759708404541016 0.24031007289886475
0.44213709235191345 -0.038759708404541016 0.25581395626068115
0.44349750876426697 -0.02325582504272461 -0.27131783962249756
0.4508494734764099 -0.02325582504272461 -0.25581395626068115
0.44360560178756714 -0.02325582504272461 -0.20930230617523193
0.4490644931793213 -0.02325582504272461 -0.19379842281341553
0.4522820711135864 -0.02325582504272461 -0.1782945990562439
0.4564721882343292 -0.02325582504272461 -0.1627907156944275
0.45526087284088135 -0.02325582504272461 0.1317828893661499
0.44968268275260925 -0.02325582504272461 0.1472867727279663
0.4450238347053528 -0.02325582504272461 0.16279065608978271
0.4512421488761902 -0.02325582504272461 0.24031007289886475
0.4428670108318329 -0.02325582504272461 0.25581395626068115
0.45421814918518066 -0.007751941680908203 0.1317828893661499
0.448741614818573 -0.007751941680908203 0.1472867727279663
0.44411152601242065 -0.007751941680908203 0.16279065608978271
0.4512626528739929 -0.007751941680908203 0.24031007289886475
0.44329968094825745 -0.007751941680908203 0.25581395626068115
0.4541480839252472 0.007751941680908203 0.1317828893661499
0.44860339164733887 0.007751941680908203 0.1472867727279663
0.4439506530761719 0.00775194214656949 0.16279065608978271
0.45057451725006104 0.007751941680908203 0.24031007289886475
0.4429570436477661 0.007751941680908203 0.25581395626068115
0.45274150371551514 0.02325582504272461 0.1317828893661499
0.4479089677333832 0.02325582504272461 0.1472867727279663
0.4436177909374237 0.02325582504272461 0.16279065608978271
0.45016664266586304 0.02325582504272461 0.24031007289886475
0.44241592288017273 0.02325582504272461 0.25581395626068115
0.45559534430503845 0.038759708404541016 0.10077524185180664
0.452565997838974 0.038759708404541016 0.11627912521362305
0.4492882490158081 0.038759708404541016 0.1317828893661499
0.4457510709762573 0.038759708404541016 0.1472867727279663
0.44211241602897644 0.038759712129831314 0.16279065608978271
0.4505336284637451 0.038759708404541016 0.24031007289886475
0.4422512948513031 0.038759712129831314 0.25581395626068115
0.4547615051269531 0.05426359176635742 -0.20930230617523193
0.45500972867012024 0.05426359176635742 -0.19379842281341553
0.4558641016483307 0.05426359176635742 -0.1782945990562439
0.4561045169830322 0.05426359176635742 0.10077524185180664
0.45328640937805176 0.05426359176635742 0.11627912521362305
0.45009103417396545 0.05426359176635742 0.1317828893661499
0.4465672969818115 0.05426359176635742 0.1472867727279663
0.44302308559417725 0.05426359176635742 0.16279065608978271
0.4507681727409363 0.05426359176635742 0.24031007289886475
0.45138978958129883 0.06976747512817383 -0.25581395626068115
0.44460028409957886 0.06976747512817383 -0.20930230617523193
0.45034947991371155 0.06976747512817383 -0.19379842281341553
0.45448198914527893 0.06976747512817383 -0.1782945990562439
0.4544781446456909 0.06976747512817383 0.1472867727279663
0.44950902462005615 0.06976747512817383 0.16279065608978271
0.4443012475967407 0.06976747512817383 0.17829453945159912
0.4513843059539795 0.06976747512817383 0.24031007289886475
0.45228511095046997 0.08527135848999023 -0.25581395626068115
0.4443685710430145 0.08527135848999023 -0.20930230617523193
0.450988233089447 0.08527135848999023 -0.19379842281341553
0.45636239647865295 0.08527135848999023 -0.1782945990562439
0.45233142375946045 0.08527135848999023 0.17829453945159912
0.44541504979133606 0.08527135848999023 0.19379842281341553
0.4521339535713196 0.08527135848999023 0.24031007289886475
0.4420114755630493 0.08527135848999023 0.25581398606300354
0.4505425691604614 0.10077524185180664 -0.25581395626068115
0.4438508152961731 0.10077523440122604 -0.20930230617523193
0.45066726207733154 0.10077524185180664 -0.19379842281341553
0.4571135640144348 0.10077524185180664 -0.1782945990562439
0.4557279944419861 0.10077524185180664 0.17829453945159912
0.4481814205646515 0.10077524185180664 0.19379842281341553
0.4515238404273987 0.10077524185180664 0.24031007289886475
0.4458620548248291 0.11627912521362305 -0.25581395626068115
0.4543650150299072 0.11627912521362305 -0.24031007289886475
0.44265276193618774 0.11627912521362305 -0.20930229127407074
0.4486650824546814 0.11627912521362305 -0.19379842281341553
0.45676374435424805 0.11627912521362305 -0.1782945990562439
0.4526931047439575 0.11627912521362305 0.17829453945159912
0.44489043951034546 0.11627911776304245 0.19379840791225433
0.44827550649642944 0.11627912521362305 0.24031007289886475
0.45094746351242065 0.1317828893661499 -0.24031007289886475
0.44416725635528564 0.1317828893661499 -0.19379842281341553
0.45136815309524536 0.1317828893661499 -0.1782945990562439
0.45467716455459595 0.1317828893661499 0.16279065608978271
0.4475068747997284 0.1317828893661499 0.17829453945159912
0.4537495970726013 0.1317828893661499 0.22480618953704834
0.44445979595184326 0.1317828893661499 0.24031007289886475
0.44365331530570984 0.1472867727279663 -0.24031007289886475
0.4534742534160614 0.1472867727279663 -0.22480618953704834
0.4436013400554657 0.1472867727279663 -0.1782945990562439
0.45055174827575684 0.1472867727279663 -0.1627907156944275
0.45071887969970703 0.1472867727279663 0.16279065608978271
0.44396907091140747 0.1472867727279663 0.17829453945159912
0.45213979482650757 0.1472867727279663 0.22480618953704834
0.4500555396080017 0.16279065608978271 -0.22480618953704834
0.4560903310775757 0.16279065608978271 -0.20930230617523193
0.44243067502975464 0.16279065608978271 -0.1627907156944275
0.44837796688079834 0.16279065608978271 -0.14728683233261108
0.45616596937179565 0.16279065608978271 -0.13178294897079468
0.4562690854072571 0.16279065608978271 0.1317828893661499
0.44898146390914917 0.16279065608978271 0.1472867727279663
0.4427877366542816 0.16279065608978271 0.16279065608978271
0.4549404978752136 0.16279065608978271 0.20930230617523193
0.4476349949836731 0.16279065608978271 0.22480618953704834
0.4441176652908325 0.17829455435276031 -0.22480618953704834
0.45391133427619934 0.17829453945159912 -0.20930230617523193
0.4469565153121948 0.17829453945159912 -0.13178294897079468
0.4536455273628235 0.17829453945159912 -0.11627906560897827
0.4515826404094696 0.17829453945159912 0.11627912521362305
0.4455089867115021 0.17829452455043793 0.1317828893661499
0.45211130380630493 0.17829453945159912 0.20930230617523193
0.45109450817108154 0.19379842281341553 -0.20930230617523193
0.4565836489200592 0.19379842281341553 -0.19379842281341553
0.44588151574134827 0.19379842281341553 -0.11627906560897827
0.45212048292160034 0.19379842281341553 -0.10077518224716187
0.45459070801734924 0.19379842281341553 0.08527135848999023
0.44900256395339966 0.19379842281341553 0.10077524185180664
0.44354572892189026 0.19379842281341553 0.11627912521362305
0.45502346754074097 0.19379842281341553 0.19379842281341553
0.4467952251434326 0.19379842281341553 0.20930230617523193
0.44585180282592773 0.20930230617523193 -0.20930230617523193
0.4542376697063446 0.20930230617523193 -0.19379842281341553
0.4418790638446808 0.20930230617523193 -0.11627905815839767
0.44708770513534546 0.20930230617523193 -0.10077518224716187
0.45294201374053955 0.20930230617523193 -0.08527129888534546
0.4572414457798004 0.20930230617523193 -0.06976741552352905
0.4538736939430237 0.20930230617523193 0.06976747512817383
0.4491158127784729 0.20930230617523193 0.08527135848999023
0.44389835000038147 0.20930230617523193 0.10077524930238724
0.45689377188682556 0.20930230617523193 0.17829453945159912
0.4516233205795288 0.20930230617523193 0.19379842281341553
0.4507424235343933 0.22480618953704834 -0.19379842281341553
0.45593926310539246 0.22480618953704834 -0.1782945990562439
0.44462984800338745 0.22480618953704834 -0.10077517479658127
0.4502091705799103 0.22480618953704834 -0.08527129888534546
0.4548380374908447 0.22480618953704834 -0.06976741552352905
0.4554382562637329 0.22480618953704834 0.05426359176635742
0.4505705237388611 0.22480618953704834 0.06976747512817383
0.4460006058216095 0.22480620443820953 0.08527135848999023
0.44187068939208984 0.22480618953704834 0.10077524185180664
0.45387640595436096 0.22480618953704834 0.17829453945159912
0.4454924166202545 0.22480618953704834 0.19379842281341553
0.44520628452301025 0.24031007289886475 -0.19379842281341553
0.4530390501022339 0.24031007289886475 -0.1782945990562439
0.44325944781303406 0.24031005799770355 -0.10077518224716187
0.4480319023132324 0.24031007289886475 -0.08527129888534546
0.4525771141052246 0.24031007289886475 -0.06976741552352905
0.45656004548072815 0.24031007289886475 -0.05426359176635742
0.4566400647163391 0.24031007289886475 0.038759708404541016
0.452925443649292 0.24031007289886475 0.05426359176635742
0.44823628664016724 0.24031007289886475 0.06976747512817383
0.44422468543052673 0.24031007289886475 0.08527135848999023
0.4554198384284973 0.24031007289886475 0.16279065608978271
0.45021921396255493 0.24031007289886475 0.17829453945159912
0.449150025844574 0.25581395626068115 -0.1782945990562439
0.45438969135284424 0.25581395626068115 -0.1627907156944275
0.44188612699508667 0.25581395626068115 -0.10077518224716187
0.445776104927063 0.25581395626068115 -0.08527129888534546
0.4498109221458435 0.25581395626068115 -0.06976741552352905
0.45364370942115784 0.25581395626068115 -0.05426359176635742
0.45644187927246094 0.25581395626068115 -0.038759708404541016
0.4564705789089203 0.25581395626068115 0.02325582504272461
0.45358261466026306 0.25581395626068115 0.038759708404541016
0.4500499963760376 0.25581395626068115 0.05426359176635742
0.44579118490219116 0.25581395626068115 0.06976747512817383
0.4425062835216522 0.25581395626068115 0.08527135848999023
0.45695576071739197 0.25581395626068115 0.1472867727279663
0.452537477016449 0.25581395626068115 0.16279065608978271
0.4439586400985718 0.25581395626068115 0.17829453945159912
0.44364774227142334 0.27131783962249756 -0.1782946139574051
0.45147791504859924 0.27131783962249756 -0.1627907156944275
0.45593908429145813 0.27131783962249756 -0.14728683233261108
0.4438430368900299 0.27131783962249756 -0.08527129888534546
0.4471983313560486 0.27131783962249756 -0.06976741552352905
0.45067739486694336 0.27131783962249756 -0.05426359176635742
0.4533502161502838 0.27131783962249756 -0.038759708404541016
0.4552268087863922 0.27131783962249756 -0.02325582504272461
0.4555679261684418 0.27131783962249756 -0.007751941680908203
0.45505231618881226 0.27131783962249756 0.007751941680908203
0.45340150594711304 0.27131783962249756 0.02325582504272461
0.4506957530975342 0.27131783962249756 0.038759708404541016
0.4474119246006012 0.27131783962249756 0.05426358804106712
0.443742036819458 0.27131783962249756 0.06976747512817383
0.4540939927101135 0.27131783962249756 0.1472867727279663
0.4481271505355835 0.27131783962249756 0.16279065608978271
0.4465637505054474 0.28682172298431396 -0.1627907156944275
0.45258644223213196 0.28682172298431396 -0.14728683233261108
0.4571385085582733 0.28682172298431396 -0.13178294897079468
0.44412195682525635 0.28682172298431396 -0.06976741552352905
0.4468821585178375 0.28682172298431396 -0.05426359176635742
0.4492679238319397 0.28682172298431396 -0.038759708404541016
0.4510272741317749 0.28682172298431396 -0.02325582504272461
0.451413631439209 0.28682172298431396 -0.007751941680908203
0.45098572969436646 0.28682172298431396 0.007751941680908203
0.44951528310775757 0.28682172298431396 0.02325582504272461
0.4471074938774109 0.28682172298431396 0.038759708404541016
0.44436442852020264 0.28682172298431396 0.05426359176635742
0.4549136757850647 0.28682172298431396 0.1317828893661499
0.4505080282688141 0.28682172298431396 0.1472867727279663
0.44829678535461426 0.30232560634613037 -0.14728683233261108
0.45314937829971313 0.30232560634613037 -0.13178294897079468
0.44298675656318665 0.30232560634613037 -0.05426359176635742
0.4447694420814514 0.30232560634613037 -0.038759708404541016
0.4461594223976135 0.30232560634613037 -0.02325582690536976
0.44649916887283325 0.30232560634613037 -0.007751941680908203
0.4461328387260437 0.30232560634613037 0.007751941680908203
0.44493579864501953 0.30232560634613037 0.02325582504272461
0.4430978298187256 0.30232560634613037 0.038759708404541016
0.45550012588500977 0.30232560634613037 0.11627912521362305
0.4516197443008423 0.30232560634613037 0.1317828893661499
0.4431191682815552 0.30232560634613037 0.1472867727279663
0.4498029947280884 0.3178294897079468 -0.13178294897079468
0.4536575973033905 0.3178294897079468 -0.11627906560897827
0.4425361752510071 0.3178294897079468 -0.02325582504272461
0.4427681565284729 0.3178294897079468 -0.007751941680908203
0.44244372844696045 0.3178294897079468 0.00775194214656949
0.4560791850090027 0.3178294897079468 0.10077524185180664
0.45240774750709534 0.3178294897079468 0.11627912521362305
0.44485047459602356 0.3178294897079468 0.1317828893661499
0.44380825757980347 0.3333333730697632 -0.13178294897079468
0.4510829448699951 0.3333333730697632 -0.11627906560897827
0.4541701674461365 0.3333333730697632 -0.10077518224716187
0.4564689099788666 0.3333333730697632 0.08527135848999023
0.45309847593307495 0.3333333730697632 0.10077524185180664
0.4465029835700989 0.3333333730697632 0.11627911776304245
0.4450847804546356 0.3488372564315796 -0.11627906560897827
0.4515150785446167 0.3488372564315796 -0.10077518224716187
0.45427417755126953 0.3488372564315796 -0.08527129888534546
0.45615166425704956 0.3488372564315796 0.06976747512817383
0.45339906215667725 0.3488372564315796 0.08527135848999023
0.4476298391819 0.3488372564315796 0.10077524185180664
0.44468921422958374 0.364341139793396 -0.10077517479658127
0.4510524868965149 0.364341139793396 -0.08527129888534546
0.4536827802658081 0.364341139793396 -0.06976741552352905
0.45602455735206604 0.364341139793396 -0.05426359176635742
0.455339252948761 0.364341139793396 0.05426359176635742
0.4528757333755493 0.364341139793396 0.06976747512817383
0.4476320147514343 0.364341139793396 0.08527135848999023
0.4431373178958893 0.37984490394592285 -0.08527129888534546
0.44888758659362793 0.37984490394592285 -0.06976741552352905
0.4522380828857422 0.37984490394592285 -0.05426359176635742
0.4540119767189026 0.37984490394592285 -0.038759708404541016
0.4550904929637909 0.37984490394592285 -0.02325582504272461
0.45559415221214294 0.37984490394592285 -0.007751941680908203
0.4555789828300476 0.37984490394592285 0.007751941680908203
0.4549381136894226 0.37984490394592285 0.02325582504272461
0.4536440968513489 0.37984490394592285 0.038759708404541016
0.45121586322784424 0.37984490394592285 0.05426359176635742
0.445339560508728 0.37984490394592285 0.06976747512817383
0.4451903998851776 0.39534878730773926 -0.05426359176635742
0.4492376446723938 0.39534878730773926 -0.038759708404541016
0.45116475224494934 0.39534878730773926 -0.02325582504272461
0.45177513360977173 0.39534878730773926 -0.007751941680908203
0.45163488388061523 0.39534878730773926 0.007751941680908203
0.450416624546051 0.39534878730773926 0.02325582504272461
0.4472413659095764 0.39534878730773926 0.038759708404541016
0.4427974224090576 0.39534878730773926 0.05426359176635742
0.4425475001335144 0.41085267066955566 -0.02325582504272461
0.4432854652404785 0.41085267066955566 -0.007751941680908203
0.4429892301559448 0.41085267066955566 0.007751941680908203
0.45854389667510986 -0.3488371968269348 -0.038759708404541016
0.46156495809555054 -0.3488371968269348 -0.02325582504272461
0.4625934064388275 -0.3488371968269348 -0.007751941680908203
0.4623866081237793 -0.3488371968269348 0.007751941680908203
0.4605395197868347 -0.3488371968269348 0.02325582504272461
0.4576210677623749 -0.3488371670246124 0.038759708404541016
0.45832300186157227 -0.333333283662796 -0.06976741552352905
0.4635414481163025 -0.3333333134651184 -0.05426359176635742
0.4661811590194702 -0.3333333134651184 -0.038759708404541016
0.46756812930107117 -0.3333333134651184 -0.02325582504272461
0.46802860498428345 -0.3333333134651184 -0.007751941680908203
0.4680047631263733 -0.3333333134651184 0.007751941680908203
0.46714267134666443 -0.3333333134651184 0.02325582504272461
0.4651544690132141 -0.3333333134651184 0.038759708404541016
0.4616039991378784 -0.3333333134651184 0.05426359176635742
0.46129652857780457 -0.317829430103302 -0.08527129888534546
0.4660009741783142 -0.317829430103302 -0.06976741552352905
0.4683500826358795 -0.317829430103302 -0.05426359176635742
0.4696671962738037 -0.317829430103302 -0.038759708404541016
0.47050344944000244 -0.317829430103302 -0.02325582504272461
0.47100841999053955 -0.317829430103302 -0.007751941680908203
0.4711366295814514 -0.317829430103302 0.007751941680908203
0.470632940530777 -0.317829430103302 0.02325582504272461
0.4696961045265198 -0.317829430103302 0.038759708404541016
0.46776750683784485 -0.317829430103302 0.05426359176635742
0.4643377959728241 -0.317829430103302 0.06976747512817383
0.4589993953704834 -0.317829430103302 0.08527135848999023
0.4629431366920471 -0.30232560634613037 -0.10077518224716187
0.4672326445579529 -0.30232560634613037 -0.08527129888534546
0.4694741666316986 -0.30232560634613037 -0.06976741552352905
0.47122207283973694 -0.30232560634613037 -0.05426359176635742
0.4713084399700165 -0.30232560634613037 0.05426359176635742
0.4692468047142029 -0.30232560634613037 0.06976747512817383
0.4657202363014221 -0.30232560634613037 0.08527135848999023
0.4597840905189514 -0.30232560634613037 0.10077524185180664
0.46359869837760925 -0.28682172298431396 -0.11627906560897827
0.46784573793411255 -0.28682172298431396 -0.10077518224716187
0.4702294170856476 -0.28682172298431396 -0.08527129888534546
0.47013059258461 -0.28682172298431396 0.08527135848999023
0.46611684560775757 -0.28682172298431396 0.10077524185180664
0.4601041376590729 -0.28682172298431396 0.11627912521362305
0.46378186345100403 -0.27131783962249756 -0.13178294897079468
0.4682025909423828 -0.27131783962249756 -0.11627906560897827
0.4708785116672516 -0.27131783962249756 -0.10077518224716187
0.4705790579319 -0.27131783962249756 0.10077524185180664
0.46644479036331177 -0.27131783962249756 0.11627912521362305
0.46012455224990845 -0.27131783962249756 0.1317828893661499
0.4626346826553345 -0.25581395626068115 -0.14728683233261108
0.4681623578071594 -0.25581395626068115 -0.13178294897079468
0.47120702266693115 -0.25581395626068115 -0.11627906560897827
0.4709829092025757 -0.25581395626068115 0.11627912521362305
0.4663888216018677 -0.25581395626068115 0.1317828893661499
0.4596119821071625 -0.25581395626068115 0.1472867876291275
0.4598614573478699 -0.24031007289886475 -0.1627907156944275
0.4672704339027405 -0.24031007289886475 -0.14728683233261108
0.4705856144428253 -0.24031007289886475 -0.13178294897079468
0.45825499296188354 -0.24031008780002594 -0.038759708404541016
0.4595463275909424 -0.24031007289886475 -0.02325582504272461
0.45957982540130615 -0.24031008780002594 -0.007751941680908203
0.45910683274269104 -0.24031008780002594 0.007751941680908203
0.4576477110385895 -0.24031005799770355 0.02325582504272461
0.47034090757369995 -0.24031007289886475 0.1317828893661499
0.46508559584617615 -0.24031007289886475 0.1472867727279663
0.457768052816391 -0.24031007289886475 0.16279065608978271
0.46545225381851196 -0.22480618953704834 -0.1627907156944275
0.46954017877578735 -0.22480618953704834 -0.14728683233261108
0.4578283429145813 -0.22480618953704834 -0.06976741552352905
0.4599156677722931 -0.22480620443820953 -0.05426359176635742
0.46189212799072266 -0.22480618953704834 -0.038759708404541016
0.46354401111602783 -0.22480618953704834 -0.02325582504272461
0.463631272315979 -0.22480618953704834 -0.007751941680908203
0.46309125423431396 -0.22480618953704834 0.007751941680908203
0.4613855183124542 -0.22480618953704834 0.02325582504272461
0.4589994549751282 -0.22480618953704834 0.038759708404541016
0.468843013048172 -0.22480618953704834 0.1472867727279663
0.4624435305595398 -0.22480618953704834 0.16279065608978271
0.4611833691596985 -0.20930230617523193 -0.1782945990562439
0.4683103859424591 -0.20930230617523193 -0.1627907156944275
0.47153642773628235 -0.20930230617523193 -0.14728683233261108
0.4579131305217743 -0.20930230617523193 -0.08527129888534546
0.4600851535797119 -0.20930230617523193 -0.06976741552352905
0.46257805824279785 -0.20930230617523193 -0.05426359176635742
0.46490922570228577 -0.20930230617523193 -0.038759708404541016
0.4667615294456482 -0.20930230617523193 -0.02325582504272461
0.4668392241001129 -0.20930230617523193 -0.007751941680908203
