0.3828527629375458 -0.4573643207550049 -0.02325582504272461
0.3853304386138916 -0.4573643207550049 -0.007751941680908203
0.38559502363204956 -0.4573643207550049 0.007751941680908203
0.38390254974365234 -0.4573643207550049 0.02325582504272461
0.3811221420764923 -0.45736435055732727 0.038759708404541016
0.38224974274635315 -0.4418604373931885 -0.06976741552352905
0.39009106159210205 -0.4418604373931885 -0.05426359176635742
0.3939495384693146 -0.4418604373931885 -0.038759708404541016
0.39192134141921997 -0.4418604373931885 0.05426359176635742
0.38696008920669556 -0.4418604373931885 0.06976747512817383
0.3812955915927887 -0.4418604075908661 0.08527135848999023
0.38187119364738464 -0.42635658383369446 -0.10077517479658127
0.3905768394470215 -0.42635661363601685 -0.08527129888534546
0.38939791917800903 -0.42635661363601685 0.10077524185180664
0.3821004629135132 -0.42635661363601685 0.11627911776304245
0.3800233006477356 -0.41085273027420044 -0.13178294897079468
0.38916242122650146 -0.41085273027420044 -0.11627906560897827
0.39498016238212585 -0.41085273027420044 -0.10077518224716187
0.38808125257492065 -0.41085273027420044 0.1317828893661499
0.3863212466239929 -0.39534884691238403 -0.14728683233261108
0.39312487840652466 -0.39534884691238403 -0.13178294897079468
0.3809638023376465 -0.39534884691238403 -0.038759708404541016
0.38331884145736694 -0.39534884691238403 -0.02325582504272461
0.38517826795578003 -0.3953488767147064 -0.00775194214656949
0.3857309818267822 -0.39534884691238403 0.007751941680908203
0.3846999406814575 -0.39534884691238403 0.02325582504272461
0.3823803961277008 -0.39534884691238403 0.038759708404541016
0.39167359471321106 -0.39534884691238403 0.1472867727279663
0.38233959674835205 -0.39534884691238403 0.1627906709909439
0.380764901638031 -0.3798449635505676 -0.1782945990562439
0.39033859968185425 -0.3798449635505676 -0.1627907156944275
0.38310110569000244 -0.37984499335289 -0.06976741552352905
0.38790300488471985 -0.3798449635505676 -0.05426359176635742
0.39259111881256104 -0.3798449635505676 -0.038759708404541016
0.3943978548049927 -0.3798449635505676 0.038759708404541016
0.3901664912700653 -0.3798449635505676 0.05426359176635742
0.38462817668914795 -0.3798449635505676 0.06976747512817383
0.38020238280296326 -0.3798449635505676 0.08527135848999023
0.3944826126098633 -0.3798449635505676 0.16279065608978271
0.3846295177936554 -0.3798449635505676 0.17829453945159912
0.3844859004020691 -0.3643410801887512 -0.19379842281341553
0.3926182687282562 -0.3643410801887512 -0.1782945990562439
0.38227900862693787 -0.3643410801887512 -0.10077518224716187
0.3891041874885559 -0.3643410801887512 -0.08527129888534546
0.39054927229881287 -0.3643410801887512 0.08527135848999023
0.3830915689468384 -0.3643410801887512 0.10077524185180664
0.3852754533290863 -0.3643410801887512 0.19379842281341553
0.3850252032279968 -0.3488371968269348 -0.20930230617523193
0.39401426911354065 -0.3488371968269348 -0.19379842281341553
0.38026830554008484 -0.3488371968269348 -0.13178294897079468
0.38521939516067505 -0.3488371968269348 -0.11627906560897827
0.3939044177532196 -0.3488371968269348 -0.10077518224716187
0.39381974935531616 -0.3488371968269348 0.10077524185180664
0.3860485553741455 -0.3488371968269348 0.11627912521362305
0.3849060833454132 -0.3488371968269348 0.20930230617523193
0.3830832839012146 -0.3333333134651184 -0.22480618953704834
0.3941410183906555 -0.3333333134651184 -0.20930230617523193
0.3815254867076874 -0.3333333134651184 -0.14728683233261108
0.38789013028144836 -0.3333333134651184 -0.13178294897079468
0.39436596632003784 -0.3333333134651184 0.11627912521362305
0.3864143490791321 -0.3333333134651184 0.1317828893661499
0.3799132704734802 -0.3333333134651184 0.1472867727279663
0.39469316601753235 -0.3333333134651184 0.20930230617523193
0.3832366466522217 -0.3333333134651184 0.22480618953704834
0.39292842149734497 -0.317829430103302 -0.22480618953704834
0.3828423321247101 -0.317829430103302 -0.1627907156944275
0.3900366425514221 -0.317829430103302 -0.14728683233261108
0.39373546838760376 -0.317829430103302 0.1317828893661499
0.3860327899456024 -0.317829430103302 0.1472867727279663
0.3798493444919586 -0.317829430103302 0.16279065608978271
0.39315998554229736 -0.317829430103302 0.22480618953704834
0.3804129362106323 -0.317829430103302 0.24031008780002594
0.39074161648750305 -0.30232560634613037 -0.24031007289886475
0.3844548761844635 -0.30232560634613037 -0.1782945990562439
0.39239877462387085 -0.30232560634613037 -0.1627907156944275
0.39242351055145264 -0.30232560634613037 0.1472867727279663
0.3852372169494629 -0.30232560634613037 0.16279065608978271
0.39114686846733093 -0.30232560634613037 0.24031007289886475
0.38734719157218933 -0.28682172298431396 -0.25581395626068115
0.3851207494735718 -0.28682172298431396 -0.19379842281341553
0.3951970636844635 -0.28682172298431396 -0.1782945990562439
0.3911615014076233 -0.28682172298431396 0.16279065608978271
0.3843269348144531 -0.28682172298431396 0.17829453945159912
0.38915878534317017 -0.28682172298431396 0.25581395626068115
0.38070690631866455 -0.27131783962249756 -0.27131783962249756
0.38332512974739075 -0.27131783962249756 -0.20930230617523193
0.38951873779296875 -0.27131783962249756 0.17829453945159912
0.38302451372146606 -0.27131783962249756 0.19379840791225433
0.3856550455093384 -0.27131783962249756 0.27131783962249756
0.3907259702682495 -0.25581395626068115 -0.27131783962249756
0.3807058334350586 -0.25581395626068115 -0.22480620443820953
0.39239123463630676 -0.25581395626068115 -0.20930230617523193
0.3890700340270996 -0.25581395626068115 0.19379842281341553
0.3817201256752014 -0.25581395626068115 0.20930230617523193
0.39333227276802063 -0.25581395626068115 0.27131783962249756
0.3812861740589142 -0.25581395626068115 0.28682172298431396
0.3861044943332672 -0.24031007289886475 -0.28682172298431396
0.3872936964035034 -0.24031007289886475 -0.22480618953704834
0.3884982466697693 -0.24031007289886475 0.20930230617523193
0.3809896409511566 -0.24031007289886475 0.22480618953704834
0.39053356647491455 -0.24031007289886475 0.28682172298431396
0.3939249813556671 -0.22480618953704834 -0.28682172298431396
0.38195011019706726 -0.22480618953704834 -0.24031007289886475
0.38729774951934814 -0.22480618953704834 0.22480618953704834
0.3863193392753601 -0.22480618953704834 0.30232560634613037
0.3894191384315491 -0.20930230617523193 -0.30232560634613037
0.3882899284362793 -0.20930230617523193 -0.24031007289886475
0.3936554491519928 -0.20930230617523193 0.22480618953704834
0.3849239647388458 -0.20930230617523193 0.24031007289886475
0.39258843660354614 -0.20930230617523193 0.30232560634613037
0.37994590401649475 -0.20930230617523193 0.3178294897079468
0.38158172369003296 -0.19379842281341553 -0.317829430103302
0.3818964958190918 -0.19379842281341553 -0.25581395626068115
0.39115071296691895 -0.19379842281341553 0.24031007289886475
0.382027268409729 -0.19379842281341553 0.25581395626068115
0.387794554233551 -0.19379842281341553 0.3178294897079468
0.3895883560180664 -0.1782945990562439 -0.317829430103302
0.3876568078994751 -0.1782945990562439 -0.25581395626068115
0.3867843449115753 -0.1782945990562439 0.25581395626068115
0.3928447365760803 -0.1782945990562439 0.3178294897079468
0.3799371123313904 -0.1782945990562439 0.3333333730697632
0.3940683901309967 -0.1627907156944275 -0.317829430103302
0.3802941143512726 -0.1627907156944275 -0.27131783962249756
0.39314889907836914 -0.1627907156944275 -0.25581395626068115
0.39077210426330566 -0.1627907156944275 0.25581395626068115
0.38163474202156067 -0.1627907156944275 0.27131783962249756
0.38580194115638733 -0.1627907156944275 0.3333333730697632
0.385972797870636 -0.14728683233261108 -0.3333333134651184
0.38326600193977356 -0.14728683233261108 -0.27131783962249756
0.39349934458732605 -0.14728683233261108 0.25581395626068115
0.3843398988246918 -0.14728683233261108 0.27131783962249756
0.3899962902069092 -0.14728683233261108 0.3333333730697632
0.39026451110839844 -0.13178294897079468 -0.3333333134651184
0.3871443569660187 -0.13178294897079468 -0.27131783962249756
0.395345538854599 -0.13178294897079468 0.25581395626068115
0.3860573172569275 -0.13178294897079468 0.27131783962249756
0.39277538657188416 -0.13178294897079468 0.3333333730697632
0.3804379403591156 -0.13178294897079468 0.3488372564315796
0.3930290639400482 -0.11627906560897827 -0.3333333134651184
0.37998417019844055 -0.11627906560897827 -0.28682172298431396
0.39250627160072327 -0.11627906560897827 -0.27131783962249756
0.3894486427307129 -0.11627906560897827 0.27131783962249756
0.38101422786712646 -0.11627906560897827 0.28682172298431396
0.38407987356185913 -0.11627906560897827 0.3488372564315796
0.3828358054161072 -0.10077517479658127 -0.3488371968269348
0.3830714523792267 -0.10077518224716187 -0.28682172298431396
0.39417925477027893 -0.10077518224716187 0.27131783962249756
0.38453078269958496 -0.10077518224716187 0.28682172298431396
0.38726383447647095 -0.10077518224716187 0.3488372564315796
0.38752806186676025 -0.08527129888534546 -0.3488371968269348
0.38711345195770264 -0.08527129888534546 -0.28682172298431396
0.3883571922779083 -0.08527129888534546 0.28682172298431396
0.3894229233264923 -0.08527129888534546 0.3488372564315796
0.390487402677536 -0.06976741552352905 -0.3488371968269348
0.39086371660232544 -0.06976741552352905 -0.28682172298431396
0.3917980194091797 -0.06976741552352905 0.28682172298431396
0.3810957670211792 -0.06976741552352905 0.30232560634613037
0.3909088969230652 -0.06976741552352905 0.3488372564315796
0.39228561520576477 -0.05426359176635742 -0.3488371968269348
0.38052570819854736 -0.05426359176635742 -0.30232563614845276
0.393187940120697 -0.05426359176635742 -0.28682172298431396
0.39386945962905884 -0.05426359176635742 0.28682172298431396
0.3825536370277405 -0.05426359176635742 0.30232560634613037
0.3931065797805786 -0.05426359176635742 0.3488372564315796
0.38050732016563416 -0.05426359549164772 0.3643411695957184
0.38008207082748413 -0.038759712129831314 -0.3643410801887512
0.3948020339012146 -0.038759708404541016 -0.3488371968269348
0.3815752863883972 -0.038759708404541016 -0.30232560634613037
0.3938308656215668 -0.038759708404541016 -0.28682172298431396
0.3861830234527588 -0.038759708404541016 0.30232560634613037
0.3853931427001953 -0.038759708404541016 0.364341139793396
0.38701754808425903 -0.02325582504272461 -0.3643410801887512
0.38651949167251587 -0.02325582504272461 -0.30232560634613037
0.3843420147895813 -0.02325582504272461 0.3178294897079468
0.3901144862174988 -0.02325582504272461 0.364341139793396
0.38955479860305786 -0.007751941680908203 -0.3643410801887512
0.3817789554595947 -0.007751941680908203 -0.317829430103302
0.3943365216255188 -0.007751941680908203 -0.30232560634613037
0.3854908347129822 -0.007751941680908203 0.3178294897079468
0.39152857661247253 -0.007751941680908203 0.364341139793396
0.38995876908302307 0.007751941680908203 -0.3643410801887512
0.3833973705768585 0.007751941680908203 -0.317829430103302
0.38615548610687256 0.007751941680908203 0.3178294897079468
0.3915727436542511 0.007751941680908203 0.364341139793396
0.38745763897895813 0.02325582504272461 -0.3643410801887512
0.38026371598243713 0.02325582690536976 -0.317829430103302
0.39072495698928833 0.02325582504272461 -0.30232560634613037
0.3844223618507385 0.02325582504272461 0.30232560634613037
0.3886564373970032 0.02325582504272461 0.364341139793396
0.39400815963745117 0.038759708404541016 -0.3488371968269348
0.3832165598869324 0.038759708404541016 -0.30232560634613037
0.39144212007522583 0.038759708404541016 0.28682172298431396
0.3808152377605438 0.03875970467925072 0.30232560634613037
0.3860958218574524 0.038759708404541016 0.364341139793396
0.39103034138679504 0.05426359176635742 -0.3488371968269348
0.38100746273994446 0.05426359176635742 -0.30232563614845276
0.3938458263874054 0.05426359176635742 -0.28682172298431396
0.39278095960617065 0.05426359176635742 0.28682172298431396
0.3815883696079254 0.05426359176635742 0.30232560634613037
0.3838678300380707 0.05426359549164772 0.364341139793396
0.3881508409976959 0.06976747512817383 -0.3488371968269348
0.37995052337646484 0.06976747512817383 -0.30232560634613037
0.39184629917144775 0.06976747512817383 -0.28682172298431396
0.3913841247558594 0.06976747512817383 0.28682172298431396
0.38072967529296875 0.06976747512817383 0.30232560634613037
0.3933683931827545 0.06976747512817383 0.3488372564315796
0.3808305561542511 0.06976747512817383 0.364341139793396
0.38361191749572754 0.08527135848999023 -0.3488371968269348
0.3874638080596924 0.08527135848999023 -0.28682172298431396
0.3868698477745056 0.08527135848999023 0.28682172298431396
0.3909413814544678 0.08527135848999023 0.3488372564315796
0.3932785093784332 0.10077524185180664 -0.3333333134651184
0.3828182816505432 0.10077524185180664 -0.28682172298431396
0.39272311329841614 0.10077524185180664 0.27131783962249756
0.3821253776550293 0.10077524185180664 0.28682172298431396
0.3880240321159363 0.10077524185180664 0.3488372564315796
0.3904113471508026 0.11627912521362305 -0.3333333134651184
0.38990509510040283 0.11627912521362305 -0.27131783962249756
0.38727065920829773 0.11627912521362305 0.27131783962249756
0.3834037482738495 0.11627913266420364 0.348837286233902
0.386801540851593 0.1317828893661499 -0.3333333134651184
0.3845920264720917 0.1317828893661499 -0.27131783962249756
0.39389747381210327 0.1317828893661499 0.25581395626068115
0.3825299143791199 0.1317828893661499 0.27131783962249756
0.3913518786430359 0.1317828893661499 0.3333333730697632
0.38192737102508545 0.14728675782680511 -0.3333333134651184
0.38127413392066956 0.1472867727279663 -0.27131783962249756
0.3934657871723175 0.1472867727279663 -0.25581395626068115
0.3892391622066498 0.1472867727279663 0.25581395626068115
0.3877274990081787 0.1472867727279663 0.3333333730697632
0.3915107250213623 0.16279065608978271 -0.317829430103302
0.3886410593986511 0.16279065608978271 -0.25581395626068115
0.38482385873794556 0.16279065608978271 0.25581395626068115
0.39382901787757874 0.16279065608978271 0.3178294897079468
0.38186681270599365 0.16279065608978271 0.3333333730697632
0.3873077929019928 0.17829453945159912 -0.317829430103302
0.38384848833084106 0.17829453945159912 -0.25581395626068115
0.3913351595401764 0.17829453945159912 0.24031007289886475
0.3804721534252167 0.17829455435276031 0.25581395626068115
0.38912761211395264 0.17829453945159912 0.3178294897079468
0.38008901476860046 0.19379842281341553 -0.317829430103302
0.39400240778923035 0.19379842281341553 -0.30232560634613037
0.3896898031234741 0.19379842281341553 -0.24031007289886475
0.3856688439846039 0.19379842281341553 0.24031007289886475
0.3932044208049774 0.19379842281341553 0.30232560634613037
0.3811788558959961 0.19379842281341553 0.3178294897079468
0.38713520765304565 0.20930230617523193 -0.30232560634613037
0.38228845596313477 0.20930230617523193 -0.24031007289886475
0.3940964341163635 0.20930230617523193 -0.22480618953704834
0.3899659514427185 0.20930230617523193 0.22480618953704834
0.38647037744522095 0.20930230617523193 0.30232560634613037
0.391456663608551 0.22480618953704834 -0.28682172298431396
0.3844723403453827 0.22480617463588715 -0.22480617463588715
0.39360707998275757 0.22480618953704834 0.20930230617523193
0.38332194089889526 0.22480618953704834 0.22480618953704834
0.3907499611377716 0.22480618953704834 0.28682172298431396
0.38421499729156494 0.24031007289886475 -0.28682172298431396
0.3872354030609131 0.24031008780002594 -0.20930230617523193
0.3864593505859375 0.24031007289886475 0.20930230617523193
0.3944927752017975 0.24031007289886475 0.27131783962249756
0.3819562792778015 0.24031007289886475 0.28682172298431396
0.3889661431312561 0.25581395626068115 -0.27131783962249756
0.3803277313709259 0.25581395626068115 -0.20930230617523193
0.39084988832473755 0.25581395626068115 -0.19379842281341553
0.3884493112564087 0.25581395626068115 0.19379842281341553
0.3869446814060211 0.25581395626068115 0.27131783962249756
0.3806408941745758 0.27131783962249756 -0.27131783962249756
0.39372578263282776 0.27131783962249756 -0.25581395626068115
0.3836311101913452 0.27131783962249756 -0.19379842281341553
0.39357849955558777 0.27131783962249756 -0.1782945990562439
0.3898352384567261 0.27131783962249756 0.17829453945159912
0.38140690326690674 0.27131783962249756 0.19379843771457672
0.3908781409263611 0.27131783962249756 0.25581395626068115
0.3864890933036804 0.28682172298431396 -0.25581395626068115
0.38564854860305786 0.28682172298431396 -0.1782945990562439
0.39499589800834656 0.28682172298431396 -0.1627907156944275
0.3914141058921814 0.28682172298431396 0.16279065608978271
0.3826851546764374 0.28682172298431396 0.17829453945159912
0.3939470946788788 0.28682172298431396 0.24031007289886475
0.38079094886779785 0.2868216931819916 0.25581395626068115
0.38985133171081543 0.30232560634613037 -0.24031007289886475
0.3861137628555298 0.30232560634613037 -0.1627907156944275
0.39514052867889404 0.30232560634613037 -0.14728683233261108
0.3920809030532837 0.30232560634613037 0.1472867727279663
0.383134663105011 0.30232560634613037 0.16279065608978271
0.38460445404052734 0.30232560634613037 0.24031005799770355
0.38071227073669434 0.3178294897079468 -0.24031007289886475
0.39307546615600586 0.3178294897079468 -0.22480618953704834
0.38004326820373535 0.3178294897079468 -0.1627907156944275
0.38680848479270935 0.3178294897079468 -0.14728683233261108
0.3952344059944153 0.3178294897079468 -0.13178294897079468
0.3922576606273651 0.3178294897079468 0.1317828893661499
0.3831130564212799 0.31782951951026917 0.1472867727279663
0.38764488697052 0.3178294897079468 0.22480618953704834
0.38395994901657104 0.3333333730697632 -0.22480618953704834
0.38005009293556213 0.3333333730697632 -0.14728683233261108
0.38593363761901855 0.3333333730697632 -0.13178294897079468
0.3938356637954712 0.3333333730697632 -0.11627906560897827
0.3907184600830078 0.3333333730697632 0.11627912521362305
0.382346510887146 0.3333333730697632 0.1317828893661499
0.38935989141464233 0.3333333730697632 0.20930230617523193
0.38500985503196716 0.3488372564315796 -0.20930230617523193
0.3830925226211548 0.3488372564315796 -0.11627906560897827
0.3900756239891052 0.3488372564315796 -0.10077518224716187
0.39360249042510986 0.3488372564315796 0.08527135848999023
0.38638007640838623 0.3488372564315796 0.10077524185180664
0.389618456363678 0.3488372564315796 0.19379842281341553
0.38398098945617676 0.364341139793396 -0.19379842281341553
0.3928532898426056 0.364341139793396 -0.1782945990562439
0.3799436688423157 0.364341139793396 -0.10077518224716187
0.38489049673080444 0.364341139793396 -0.08527129888534546
0.391191691160202 0.364341139793396 -0.06976741552352905
0.3912619948387146 0.364341139793396 0.05426359176635742
0.3850705325603485 0.364341139793396 0.06976747512817383
0.38037434220314026 0.364341139793396 0.08527135848999023
0.38877469301223755 0.364341139793396 0.17829453945159912
0.38071659207344055 0.37984490394592285 -0.1782945990562439
0.3881150484085083 0.37984490394592285 -0.1627907156944275
0.3824927806854248 0.37984490394592285 -0.05426359176635742
0.38520339131355286 0.37984490394592285 -0.038759708404541016
0.387600839138031 0.37984490394592285 -0.02325582504272461
0.38878291845321655 0.37984490394592285 -0.007751941680908203
0.3884022831916809 0.37984490394592285 0.007751941680908203
0.3862990140914917 0.37984490394592285 0.02325582504272461
0.382392019033432 0.37984487414360046 0.038759708404541016
0.3952871263027191 0.37984490394592285 0.1472867727279663
0.38608160614967346 0.37984490394592285 0.16279065608978271
0.3832772374153137 0.39534878730773926 -0.14728683233261108
0.3899763822555542 0.39534878730773926 -0.13178294897079468
0.3908729553222656 0.39534878730773926 0.1317828893661499
0.3825525939464569 0.39534878730773926 0.1472867727279663
0.38399645686149597 0.41085267066955566 -0.11627906560897827
0.3903355598449707 0.41085267066955566 -0.10077518224716187
0.3925160765647888 0.41085267066955566 0.10077524185180664
0.38544008135795593 0.41085267066955566 0.11627912521362305
0.38363412022590637 0.42635658383369446 -0.08527129888534546
0.38925448060035706 0.42635655403137207 -0.06976741552352905
0.39402300119400024 0.42635655403137207 -0.05426359176635742
0.39085662364959717 0.42635655403137207 0.06976747512817383
0.3854046165943146 0.42635655403137207 0.08527135848999023
0.3803066313266754 0.4418604373931885 -0.05426359176635742
0.3835822641849518 0.4418604075908661 -0.038759708404541016
0.3863416612148285 0.4418604373931885 -0.02325582504272461
0.3880242109298706 0.4418604373931885 -0.007751941680908203
0.3882094621658325 0.4418604373931885 0.007751941680908203
0.3871455490589142 0.4418604373931885 0.02325582504272461
0.3846069872379303 0.4418604373931885 0.038759708404541016
0.38129764795303345 0.4418604373931885 0.05426359549164772
0.39722663164138794 -0.4418604373931885 -0.02325582504272461
0.399599552154541 -0.4418604373931885 -0.007751941680908203
0.3999832272529602 -0.4418604373931885 0.007751941680908203
0.39859533309936523 -0.4418604373931885 0.02325582504272461
0.3958617150783539 -0.4418604373931885 0.038759708404541016
0.3957739472389221 -0.42635661363601685 -0.06976741552352905
0.40358966588974 -0.42635661363601685 -0.05426359176635742
0.40807974338531494 -0.42635661363601685 -0.038759708404541016
0.4108337461948395 -0.42635661363601685 -0.02325582504272461
0.4098176062107086 -0.42635661363601685 0.038759708404541016
0.4063234031200409 -0.42635661363601685 0.05426359176635742
0.4011837840080261 -0.42635661363601685 0.06976747512817383
0.39558735489845276 -0.42635661363601685 0.08527135103940964
0.4037744998931885 -0.41085273027420044 -0.08527129888534546
0.4095271825790405 -0.41085273027420044 -0.06976741552352905
0.4093255400657654 -0.41085273027420044 0.08527135848999023
0.4030502438545227 -0.41085273027420044 0.10077524185180664
0.3956443965435028 -0.41085270047187805 0.11627912521362305
0.4008324444293976 -0.39534884691238403 -0.11627906560897827
0.4082731604576111 -0.39534884691238403 -0.10077518224716187
0.4086924195289612 -0.39534884691238403 0.11627912521362305
0.4007803797721863 -0.39534884691238403 0.1317828893661499
0.39706504344940186 -0.3798449635505676 -0.14728683233261108
0.4059574604034424 -0.3798449635505676 -0.13178294897079468
0.39580482244491577 -0.3798449635505676 -0.02325582504272461
0.39701762795448303 -0.3798449635505676 -0.007751941680908203
0.3973861038684845 -0.3798449635505676 0.007751941680908203
0.39659127593040466 -0.3798449635505676 0.02325582504272461
0.40470796823501587 -0.3798449635505676 0.1472867727279663
0.40231645107269287 -0.3643410801887512 -0.1627907156944275
0.40917396545410156 -0.3643410801887512 -0.14728683233261108
0.39579641819000244 -0.3643410801887512 -0.06976741552352905
0.3990095853805542 -0.3643410801887512 -0.05426358804106712
0.4027941823005676 -0.3643410801887512 -0.038759708404541016
0.4063587784767151 -0.3643410801887512 -0.02325582504272461
0.40841108560562134 -0.3643410801887512 -0.007751941680908203
0.40873628854751587 -0.3643410801887512 0.007751941680908203
0.4074053466320038 -0.3643410801887512 0.02325582504272461
0.4046231508255005 -0.3643410801887512 0.038759708404541016
0.4008503556251526 -0.3643410801887512 0.05426359176635742
0.3960639238357544 -0.3643410801887512 0.06976747512817383
0.4068746864795685 -0.3643410801887512 0.16279065608978271
0.3957785964012146 -0.3643410801887512 0.17829452455043793
0.40543806552886963 -0.3488371968269348 -0.1782945990562439
0.39934632182121277 -0.3488371968269348 -0.08527129888534546
0.4052220284938812 -0.3488371968269348 -0.06976741552352905
0.40648970007896423 -0.3488371968269348 0.06976747512817383
0.4005521535873413 -0.3488371968269348 0.08527135848999023
0.40792593359947205 -0.3488371968269348 0.17829453945159912
0.3959265947341919 -0.3488371968269348 0.19379842281341553
0.40670305490493774 -0.3333333134651184 -0.19379842281341553
0.3961581587791443 -0.333333283662796 -0.11627905815839767
0.4018891453742981 -0.3333333134651184 -0.10077518224716187
0.4103909730911255 -0.3333333134651184 -0.08527129888534546
0.40963613986968994 -0.3333333134651184 0.08527135848999023
0.40115898847579956 -0.3333333134651184 0.10077524185180664
0.40743499994277954 -0.3333333134651184 0.19379842281341553
0.40665358304977417 -0.317829430103302 -0.20930230617523193
0.3975735306739807 -0.317829430103302 -0.13178294897079468
0.4043424427509308 -0.317829430103302 -0.11627906560897827
0.409097820520401 -0.317829430103302 0.10077524185180664
0.4006836414337158 -0.317829430103302 0.11627912521362305
0.4063389301300049 -0.317829430103302 0.20930230617523193
0.4051837921142578 -0.30232560634613037 -0.22480618953704834
0.3987264931201935 -0.30232560634613037 -0.14728683233261108
0.4067692756652832 -0.30232560634613037 -0.13178294897079468
0.4072554111480713 -0.30232560634613037 0.11627912521362305
0.3992632031440735 -0.30232560634613037 0.1317828893661499
0.4046180844306946 -0.30232560634613037 0.22480618953704834
0.401952862739563 -0.28682172298431396 -0.24031007289886475
0.3999474346637726 -0.28682172298431396 -0.1627907156944275
0.40801435708999634 -0.28682172298431396 -0.14728683233261108
0.40463539958000183 -0.28682172298431396 0.1317828893661499
0.39751142263412476 -0.28682172298431396 0.1472867727279663
0.40172722935676575 -0.28682172298431396 0.24031007289886475
0.39546096324920654 -0.27131783962249756 -0.25581395626068115
0.4105020761489868 -0.27131783962249756 -0.24031007289886475
0.3955608606338501 -0.27131783962249756 -0.19379842281341553
0.4013567268848419 -0.27131783962249756 -0.1782945990562439
0.4095138609409332 -0.27131783962249756 -0.1627907156944275
0.4091033637523651 -0.27131783962249756 0.1317828893661499
0.40196317434310913 -0.27131783962249756 0.1472867727279663
0.3957582116127014 -0.27131783962249756 0.16279065608978271
0.40992143750190735 -0.27131783962249756 0.24031007289886475
0.3973304331302643 -0.27131783962249756 0.25581395626068115
0.4062667489051819 -0.25581395626068115 -0.25581395626068115
0.4018334150314331 -0.25581395626068115 -0.19379842281341553
0.40866467356681824 -0.25581395626068115 0.1472867727279663
0.40191251039505005 -0.25581395626068115 0.16279065608978271
0.395639568567276 -0.25581395626068115 0.17829453945159912
0.4068814814090729 -0.25581395626068115 0.25581395626068115
0.40128588676452637 -0.24031007289886475 -0.27131783962249756
0.39973941445350647 -0.24031007289886475 -0.20930230617523193
0.41014328598976135 -0.24031007289886475 0.16279065608978271
0.40306270122528076 -0.24031007289886475 0.17829453945159912
0.3962855637073517 -0.24031008780002594 0.19379842281341553
0.40395569801330566 -0.24031007289886475 0.27131783962249756
0.4093092679977417 -0.22480618953704834 -0.27131783962249756
0.3962973952293396 -0.22480618953704834 -0.22480618953704834
0.40899857878685 -0.22480618953704834 -0.20930230617523193
0.40334534645080566 -0.22480618953704834 0.19379842281341553
0.3955284357070923 -0.22480618953704834 0.20930229127407074
0.39918577671051025 -0.22480617463588715 0.28682172298431396
0.40417003631591797 -0.20930230617523193 -0.28682172298431396
0.40142685174942017 -0.20930230617523193 -0.22480618953704834
0.410820871591568 -0.20930230617523193 0.19379842281341553
0.4019123315811157 -0.20930230617523193 0.20930230617523193
0.40628138184547424 -0.20930230617523193 0.28682172298431396
0.39640378952026367 -0.19379842281341553 -0.30232560634613037
0.41043177247047424 -0.19379842281341553 -0.28682172298431396
0.39615970849990845 -0.19379842281341553 -0.24031007289886475
0.410766065120697 -0.19379842281341553 -0.22480618953704834
0.41007766127586365 -0.19379842281341553 0.20930230617523193
0.4004078805446625 -0.19379842281341553 0.22480618953704834
0.4005820155143738 -0.19379842281341553 0.30232560634613037
0.4044616222381592 -0.1782945990562439 -0.30232560634613037
0.40099987387657166 -0.1782945990562439 -0.24031007289886475
0.4063156247138977 -0.1782945990562439 0.22480618953704834
0.3967060446739197 -0.1782945990562439 0.24031008780002594
0.40589749813079834 -0.1782945990562439 0.30232560634613037
0.4087866246700287 -0.1627907156944275 -0.30232560634613037
0.4065026044845581 -0.1627907156944275 -0.24031007289886475
0.41066914796829224 -0.1627907156944275 0.22480618953704834
0.4003151059150696 -0.1627907156944275 0.24031007289886475
0.41062718629837036 -0.1627907156944275 0.30232560634613037
0.3986862897872925 -0.1627907156944275 0.3178294897079468
0.4001739025115967 -0.14728683233261108 -0.317829430103302
0.39677974581718445 -0.14728683233261108 -0.25581395626068115
0.40256452560424805 -0.14728683233261108 0.24031007289886475
0.4035318195819855 -0.14728683233261108 0.3178294897079468
0.405012309551239 -0.13178294897079468 -0.317829430103302
0.4000166058540344 -0.13178294897079468 -0.25581395626068115
0.4040955901145935 -0.13178294897079468 0.24031007289886475
0.4061039686203003 -0.13178294897079468 0.3178294897079468
0.407787561416626 -0.11627906560897827 -0.317829430103302
0.40552735328674316 -0.11627906560897827 -0.25581395626068115
0.40835049748420715 -0.11627906560897827 0.24031007289886475
0.3985932767391205 -0.11627906560897827 0.25581395626068115
0.4084264934062958 -0.11627906560897827 0.3178294897079468
0.39639970660209656 -0.11627906560897827 0.3333333730697632
0.3969308137893677 -0.10077518224716187 -0.333333283662796
0.410771906375885 -0.10077518224716187 -0.317829430103302
0.39668822288513184 -0.10077518224716187 -0.27131783962249756
0.40314239263534546 -0.10077518224716187 0.25581395626068115
0.3995171785354614 -0.10077518224716187 0.3333333730697632
0.4015617072582245 -0.08527129888534546 -0.3333333134651184
0.40001681447029114 -0.08527129888534546 -0.27131783962249756
0.4079539179801941 -0.08527129888534546 0.25581395626068115
0.3980046510696411 -0.08527129888534546 0.27131783962249756
0.40224629640579224 -0.08527129888534546 0.3333333730697632
0.40500661730766296 -0.06976741552352905 -0.3333333134651184
0.4033139944076538 -0.06976741552352905 -0.27131783962249756
0.4011288583278656 -0.06976741552352905 0.27131783962249756
0.4043382406234741 -0.06976741552352905 0.3333333730697632
0.4069395959377289 -0.05426359176635742 -0.3333333134651184
0.40542733669281006 -0.05426359176635742 -0.27131783962249756
0.4029746651649475 -0.05426359176635742 0.27131783962249756
0.40592706203460693 -0.05426359176635742 0.3333333730697632
0.4088515639305115 -0.038759708404541016 -0.3333333134651184
0.40546926856040955 -0.038759708404541016 -0.27131783962249756
0.4060612916946411 -0.038759708404541016 0.27131783962249756
0.39660781621932983 -0.038759708404541016 0.28682172298431396
0.4083349108695984 -0.038759708404541016 0.3333333730697632
0.39787787199020386 -0.03875970467925072 0.3488372564315796
0.4000892639160156 -0.02325582504272461 -0.3488371968269348
0.3976750671863556 -0.02325582504272461 -0.28682172298431396
0.40978559851646423 -0.02325582504272461 -0.27131783962249756
0.4049510657787323 -0.02325582504272461 0.28682172298431396
0.3965277075767517 -0.02325582504272461 0.30232560634613037
0.4030449092388153 -0.02325582504272461 0.3488372564315796
0.4034346342086792 -0.007751941680908203 -0.3488371968269348
0.40405967831611633 -0.007751941680908203 -0.28682172298431396
0.4070154130458832 -0.007751941680908203 0.28682172298431396
0.39768463373184204 -0.007751941680908203 0.30232560634613037
0.4044633209705353 -0.007751941680908203 0.3488372564315796
0.4041675329208374 0.007751941680908203 -0.3488371968269348
0.39641639590263367 0.007751941680908203 -0.30232560634613037
0.407278835773468 0.007751941680908203 -0.28682172298431396
0.40750259160995483 0.007751941680908203 0.28682172298431396
0.39785146713256836 0.007751941680908203 0.30232560634613037
0.4048627018928528 0.007751941680908203 0.3488372564315796
0.4008064270019531 0.02325582504272461 -0.3488371968269348
0.40106087923049927 0.02325582504272461 -0.28682172298431396
0.4066600799560547 0.02325582504272461 0.27131783962249756
0.39610937237739563 0.02325582504272461 0.28682172298431396
0.40927550196647644 0.02325582504272461 0.3333333730697632
0.4008706212043762 0.02325582504272461 0.3488372564315796
0.4079418182373047 0.038759708404541016 -0.3333333134651184
0.39600422978401184 0.038759708404541016 -0.28682172298431396
0.4091099798679352 0.038759708404541016 -0.27131783962249756
0.4014597535133362 0.038759708404541016 0.27131783962249756
0.4079457223415375 0.038759708404541016 0.3333333730697632
0.39769092202186584 0.038759708404541016 0.3488372564315796
0.40580928325653076 0.05426359176635742 -0.3333333134651184
0.40656575560569763 0.05426359176635742 -0.27131783962249756
0.4022364318370819 0.05426359176635742 0.27131783962249756
0.4072573781013489 0.05426359176635742 0.3333333730697632
0.3956703841686249 0.05426359549164772 0.3488372564315796
0.4023265242576599 0.06976747512817383 -0.3333333134651184
0.40413808822631836 0.06976747512817383 -0.27131783962249756
0.40112540125846863 0.06976747512817383 0.27131783962249756
0.40622276067733765 0.06976747512817383 0.3333333730697632
0.3974972665309906 0.08527135848999023 -0.333333283662796
0.39972972869873047 0.08527135848999023 -0.27131783962249756
0.40909072756767273 0.08527135848999023 0.25581395626068115
0.39747416973114014 0.08527135848999023 0.27131783962249756
0.40376827120780945 0.08527135848999023 0.3333333730697632
0.40777719020843506 0.10077524185180664 -0.317829430103302
0.39580070972442627 0.10077524185180664 -0.27131780982017517
0.40933576226234436 0.10077524185180664 -0.25581395626068115
0.40328294038772583 0.10077524185180664 0.25581395626068115
0.3998039960861206 0.10077524185180664 0.3333333730697632
0.4050946831703186 0.11627912521362305 -0.317829430103302
0.4024016261100769 0.11627912521362305 -0.25581395626068115
0.4104617238044739 0.11627912521362305 0.24031007289886475
0.39838871359825134 0.11627912521362305 0.25581395626068115
0.4074055552482605 0.11627912521362305 0.3178294897079468
0.3953750431537628 0.11627912521362305 0.3333333730697632
0.40092933177948 0.1317828893661499 -0.317829430103302
0.3971858024597168 0.1317828893661499 -0.25581395626068115
0.40468674898147583 0.1317828893661499 0.24031007289886475
0.40448248386383057 0.1317828893661499 0.3178294897079468
0.3959789574146271 0.1472867727279663 -0.317829430103302
0.409584105014801 0.1472867727279663 -0.30232560634613037
0.40607696771621704 0.1472867727279663 -0.24031007289886475
0.40035533905029297 0.1472867727279663 0.24031007289886475
0.4106457233428955 0.1472867727279663 0.30232560634613037
0.3993496596813202 0.1472867727279663 0.3178294897079468
0.40584129095077515 0.16279065608978271 -0.30232560634613037
0.40080228447914124 0.16279065608978271 -0.24031007289886475
0.4072386920452118 0.16279065608978271 0.22480618953704834
0.39630094170570374 0.16279065608978271 0.24031007289886475
0.4064607620239258 0.16279065608978271 0.30232560634613037
0.4013404846191406 0.17829453945159912 -0.30232560634613037
0.39610832929611206 0.17829452455043793 -0.24031007289886475
0.40941694378852844 0.17829453945159912 -0.22480618953704834
0.40201717615127563 0.17829453945159912 0.22480618953704834
0.4009284973144531 0.17829453945159912 0.30232560634613037
0.40707072615623474 0.19379842281341553 -0.28682172298431396
0.40147268772125244 0.19379842281341553 -0.22480618953704834
0.4077136218547821 0.19379842281341553 0.20930230617523193
0.3966805338859558 0.19379842281341553 0.22480618953704834
0.4063974618911743 0.19379842281341553 0.28682172298431396
0.4004887640476227 0.20930230617523193 -0.28682172298431396
0.40544143319129944 0.20930230617523193 -0.20930230617523193
0.40031546354293823 0.20930230617523193 0.20930230617523193
0.39847251772880554 0.20930230617523193 0.28682172298431396
0.40472930669784546 0.22480618953704834 -0.27131783962249756
0.39621368050575256 0.22480618953704834 -0.20930229127407074
0.40811362862586975 0.22480618953704834 -0.19379842281341553
0.4039555490016937 0.22480618953704834 0.19379842281341553
0.40451037883758545 0.22480618953704834 0.27131783962249756
0.39669501781463623 0.24031007289886475 -0.27131783962249756
0.40909892320632935 0.24031007289886475 -0.25581395626068115
0.3985669016838074 0.24031007289886475 -0.19379842281341553
0.40997833013534546 0.24031007289886475 -0.1782945990562439
0.4057379961013794 0.24031007289886475 0.17829453945159912
0.3964954614639282 0.24031007289886475 0.19379840791225433
0.408712774515152 0.24031007289886475 0.25581395626068115
0.40221697092056274 0.25581395626068115 -0.25581395626068115
0.4003373086452484 0.25581395626068115 -0.1782945990562439
0.4055951237678528 0.25581395626068115 0.16279065608978271
0.3971655070781708 0.25581395626068115 0.17829453945159912
0.40028631687164307 0.25581395626068115 0.25581395626068115
0.4062062203884125 0.27131783962249756 -0.24031007289886475
0.4020029306411743 0.27131783962249756 -0.1627907156944275
0.40697556734085083 0.27131783962249756 0.1472867727279663
0.3982129991054535 0.27131783962249756 0.16279065608978271
0.4050423502922058 0.27131783962249756 0.24031007289886475
0.3992977738380432 0.28682172298431396 -0.24031007289886475
0.41058027744293213 0.28682172298431396 -0.22480618953704834
0.40299883484840393 0.28682172298431396 -0.14728683233261108
0.4103049635887146 0.28682172298431396 0.1317828893661499
0.40025514364242554 0.28682172298431396 0.1472867727279663
0.4078284502029419 0.28682172298431396 0.22480618953704834
0.40273046493530273 0.30232560634613037 -0.22480618953704834
0.40202343463897705 0.30232560634613037 -0.13178294897079468
0.41083449125289917 0.30232560634613037 -0.11627906560897827
0.4103458523750305 0.30232560634613037 0.11627912521362305
0.40099358558654785 0.30232560634613037 0.1317828893661499
0.4100067615509033 0.30232560634613037 0.20930230617523193
0.3971966505050659 0.30232560634613037 0.22480618953704834
0.4048480987548828 0.3178294897079468 -0.20930230617523193
0.4010160267353058 0.3178294897079468 -0.11627906560897827
0.4092409312725067 0.3178294897079468 -0.10077518224716187
0.40909692645072937 0.3178294897079468 0.10077524185180664
0.40042680501937866 0.3178294897079468 0.11627912521362305
0.3997379541397095 0.3178294897079468 0.20930230617523193
0.3955049514770508 0.3333333730697632 -0.20930230617523193
0.40550780296325684 0.3333333730697632 -0.19379842281341553
0.39939385652542114 0.3333333730697632 -0.10077518224716187
0.4069563150405884 0.3333333730697632 -0.08527129888534546
0.40592849254608154 0.3333333730697632 0.08527135848999023
0.3983391225337982 0.3333333730697632 0.10077524185180664
0.40125772356987 0.3333333730697632 0.19379842281341553
0.3954046964645386 0.3488372564315796 -0.19379842281341553
0.4042593240737915 0.3488372564315796 -0.1782945990562439
0.39676356315612793 0.3488372564315796 -0.08527129888534546
0.40159186720848083 0.3488372564315796 -0.06976741552352905
0.406769335269928 0.3488372564315796 -0.05426359176635742
0.4104613959789276 0.3488372564315796 0.038759708404541016
0.4049272835254669 0.3488372564315796 0.05426359176635742
0.3986312448978424 0.3488372564315796 0.06976747512817383
0.41040289402008057 0.3488372564315796 0.16279065608978271
0.4004961848258972 0.3488372564315796 0.17829453945159912
0.400859534740448 0.364341139793396 -0.1627907156944275
0.40841615200042725 0.364341139793396 -0.14728683233261108
0.3958350419998169 0.3643411695957184 -0.05426359549164772
0.39790457487106323 0.364341139793396 -0.038759708404541016
0.39992308616638184 0.364341139793396 -0.02325582504272461
0.40113961696624756 0.364341139793396 -0.007751941680908203
0.40108004212379456 0.364341139793396 0.007751941215246916
0.3995525538921356 0.3643411695957184 0.02325582690536976
0.3963747024536133 0.364341139793396 0.038759708404541016
0.40804240107536316 0.364341139793396 0.1472867727279663
0.39840659499168396 0.364341139793396 0.16279065608978271
0.3964298367500305 0.37984490394592285 -0.1472868174314499
0.4028504490852356 0.37984490394592285 -0.13178294897079468
0.40990859270095825 0.37984490394592285 -0.11627906560897827
0.40424787998199463 0.37984490394592285 0.1317828893661499
0.3974546790122986 0.39534878730773926 -0.11627906560897827
0.4033346176147461 0.39534878730773926 -0.10077518224716187
0.4095904231071472 0.39534878730773926 -0.08527129888534546
0.4061824083328247 0.39534878730773926 0.10077524185180664
0.3988875448703766 0.39534878730773926 0.11627912521362305
0.3969725966453552 0.41085267066955566 -0.08527129143476486
0.40225309133529663 0.41085267066955566 -0.06976741552352905
0.406819611787796 0.41085267066955566 -0.05426359176635742
0.4107029438018799 0.41085267066955566 -0.038759708404541016
0.40930524468421936 0.41085267066955566 0.05426359176635742
0.4048188030719757 0.41085267066955566 0.06976747512817383
0.3990328013896942 0.41085267066955566 0.08527135848999023
0.3975694477558136 0.42635655403137207 -0.03875970467925072
0.4001582860946655 0.42635655403137207 -0.02325582690536976
0.40202897787094116 0.42635655403137207 -0.007751941680908203
0.4023204445838928 0.42635655403137207 0.007751941680908203
0.4012632966041565 0.42635655403137207 0.02325582504272461
0.39899757504463196 0.42635658383369446 0.038759708404541016
0.39549675583839417 0.42635655403137207 0.05426359176635742
0.41295337677001953 -0.42635661363601685 -0.007751941680908203
0.41337844729423523 -0.42635658383369446 0.007751941680908203
0.4122467041015625 -0.42635661363601685 0.02325582504272461
0.41545772552490234 -0.41085273027420044 -0.05426359176635742
0.4215453267097473 -0.41085273027420044 -0.038759708404541016
0.4245138466358185 -0.41085273027420044 -0.02325582504272461
0.42611536383628845 -0.41085273027420044 -0.007751941680908203
0.4253289997577667 -0.41085273027420044 0.02325582504272461
0.422925740480423 -0.41085273027420044 0.038759708404541016
0.41952618956565857 -0.41085273027420044 0.05426359176635742
0.41454070806503296 -0.41085273027420044 0.06976747512817383
0.41499757766723633 -0.39534884691238403 -0.08527129888534546
0.42259860038757324 -0.39534884691238403 -0.06976741552352905
0.42195284366607666 -0.39534884691238403 0.08527135848999023
0.41565942764282227 -0.39534884691238403 0.10077524185180664
0.4121067523956299 -0.3798449635505676 -0.11627905815839767
0.4209999442100525 -0.3798449635505676 -0.10077518224716187
0.420994371175766 -0.3798449635505676 0.11627912521362305
0.41314420104026794 -0.3798449635505676 0.1317828893661499
0.41806790232658386 -0.3643410801887512 -0.13178294897079468
0.4248945415019989 -0.3643410801887512 -0.11627906560897827
0.42495983839035034 -0.3643410801887512 0.1317828893661499
0.4165472984313965 -0.3643410801887512 0.1472867727279663
0.41234272718429565 -0.3488371968269348 -0.1627907156944275
0.421997606754303 -0.3488371968269348 -0.14728683233261108
0.4111189842224121 -0.3488371968269348 -0.05426359176635742
0.4138801395893097 -0.3488371968269348 -0.038759708404541016
0.41666948795318604 -0.3488371968269348 -0.02325582504272461
0.41837209463119507 -0.3488371968269348 -0.007751941680908203
0.4186553955078125 -0.3488371968269348 0.007751941680908203
0.4175558388233185 -0.3488371968269348 0.02325582504272461
0.41520941257476807 -0.3488371968269348 0.038759708404541016
0.4121183156967163 -0.3488371968269348 0.05426359176635742
0.4191102981567383 -0.3488371968269348 0.16279065608978271
0.416540265083313 -0.3333333134651184 -0.1782945990562439
0.4245540499687195 -0.3333333134651184 -0.1627907156944275
0.4147048890590668 -0.3333333134651184 -0.06976741552352905
0.41959846019744873 -0.3333333134651184 -0.05426359176635742
0.4240160584449768 -0.3333333134651184 -0.038759708404541016
0.4250984191894531 -0.3333333134651184 0.038759708404541016
0.4210711717605591 -0.3333333134651184 0.05426359176635742
0.41506093740463257 -0.3333333134651184 0.06976747512817383
0.41957759857177734 -0.3333333134651184 0.17829453945159912
0.4188072085380554 -0.317829430103302 -0.19379842281341553
0.41237872838974 -0.317829430103302 -0.10077518224716187
0.4190027415752411 -0.317829430103302 -0.08527129888534546
0.4252600371837616 -0.317829430103302 -0.06976741552352905
0.42417123913764954 -0.317829430103302 0.06976747512817383
0.41725796461105347 -0.317829430103302 0.08527135848999023
0.41888687014579773 -0.317829430103302 0.19379842281341553
0.4183269143104553 -0.30232560634613037 -0.20930230617523193
0.41402310132980347 -0.30232560634613037 -0.11627906560897827
0.4217885136604309 -0.30232560634613037 -0.10077518224716187
0.4252488911151886 -0.30232560634613037 0.08527135848999023
0.41560015082359314 -0.30232560634613037 0.10077524185180664
0.41689419746398926 -0.30232560634613037 0.20930230617523193
0.4156862795352936 -0.28682172298431396 -0.22480618953704834
0.4153762459754944 -0.28682172298431396 -0.13178294897079468
0.4234645962715149 -0.28682172298431396 -0.11627906560897827
0.4218484163284302 -0.28682172298431396 0.10077524185180664
0.4125418961048126 -0.28682172298431396 0.11627913266420364
0.4259830415248871 -0.28682172298431396 0.20930230617523193
0.4139895737171173 -0.28682172298431396 0.22480618953704834
0.4254285395145416 -0.27131783962249756 -0.22480618953704834
0.41631263494491577 -0.27131783962249756 -0.14728683233261108
0.42589250206947327 -0.27131783962249756 -0.13178294897079468
0.4172894358634949 -0.27131783962249756 0.11627912521362305
0.4232102334499359 -0.27131783962249756 0.22480618953704834
0.4219557046890259 -0.25581395626068115 -0.24031007289886475
0.4116036593914032 -0.25581395626068115 -0.1782945990562439
0.4184683561325073 -0.25581395626068115 -0.1627907156944275
0.42570674419403076 -0.25581395626068115 0.11627912521362305
0.4164878726005554 -0.25581395626068115 0.1317828893661499
0.4203844666481018 -0.25581395626068115 0.24031007289886475
0.4169684946537018 -0.24031007289886475 -0.25581395626068115
0.4122013747692108 -0.24031007289886475 -0.19379842281341553
0.4208899736404419 -0.24031007289886475 -0.1782945990562439
0.41785144805908203 -0.24031007289886475 0.1472867727279663
0.4167035222053528 -0.24031007289886475 0.25581395626068115
0.4251580238342285 -0.22480618953704834 -0.25581395626068115
0.419808954000473 -0.22480618953704834 -0.19379842281341553
0.4187784194946289 -0.22480618953704834 0.16279065608978271
0.4108886420726776 -0.22480618953704834 0.17829453945159912
0.4238290786743164 -0.22480618953704834 0.25581395626068115
0.41120508313179016 -0.22480618953704834 0.27131786942481995
0.41904115676879883 -0.20930230617523193 -0.27131783962249756
0.4147639572620392 -0.20930230617523193 -0.20930230617523193
0.41896381974220276 -0.20930230617523193 0.17829453945159912
0.4194784164428711 -0.20930230617523193 0.27131783962249756
0.4254995882511139 -0.19379842281341553 -0.27131783962249756
0.4230024218559265 -0.19379842281341553 -0.20930230617523193
0.4199552536010742 -0.19379842281341553 0.19379842281341553
0.42509669065475464 -0.19379842281341553 0.27131783962249756
0.41316187381744385 -0.19379842281341553 0.28682172298431396
0.41839319467544556 -0.1782945990562439 -0.28682172298431396
0.41548341512680054 -0.1782945990562439 -0.22480618953704834
0.41656672954559326 -0.1782945990562439 0.20930230617523193
0.41931551694869995 -0.1782945990562439 0.28682172298431396
0.4232466220855713 -0.1627907156944275 -0.28682172298431396
0.42070409655570984 -0.1627907156944275 -0.22480618953704834
0.42123377323150635 -0.1627907156944275 0.20930230617523193
0.42306217551231384 -0.1627907156944275 0.28682172298431396
0.4139382541179657 -0.14728683233261108 -0.30232560634613037
0.4115854799747467 -0.14728683233261108 -0.24031007289886475
0.4240124225616455 -0.14728683233261108 0.20930230617523193
0.4127039611339569 -0.14728683233261108 0.22480618953704834
0.4156241714954376 -0.14728683233261108 0.30232560634613037
0.4193459749221802 -0.13178294897079468 -0.30232560634613037
0.414722204208374 -0.13178294897079468 -0.24031007289886475
0.4262267053127289 -0.13178294897079468 0.20930230617523193
0.41420572996139526 -0.13178294897079468 0.22480618953704834
0.419105589389801 -0.13178294897079468 0.30232560634613037
0.42263418436050415 -0.11627906560897827 -0.30232560634613037
0.41988497972488403 -0.11627906560897827 -0.24031007289886475
