0.3178294897079468 -0.4573643207550049 -0.2429237812757492
0.3178294897079468 -0.4573643207550049 -0.034772828221321106
0.3178294897079468 -0.4573643207550049 0.08543169498443604
0.3178294897079468 -0.4573643207550049 0.22026845812797546
0.3178294897079468 -0.4418604373931885 -0.265615850687027
0.3178294897079468 -0.4418604373931885 -0.0876847431063652
0.3178294897079468 -0.4418604373931885 0.11885061115026474
0.3178294897079468 -0.4418604373931885 0.25175124406814575
0.3178294897079468 -0.42635661363601685 -0.28729695081710815
0.3178294897079468 -0.42635661363601685 -0.1516001671552658
0.3178294897079468 -0.42635661363601685 0.16513527929782867
0.3178294897079468 -0.42635661363601685 0.2824037969112396
0.3178294897079468 -0.41085273027420044 -0.3067079782485962
0.3178294897079468 -0.41085273027420044 -0.1884603649377823
0.3178294897079468 -0.41085273027420044 0.20864003896713257
0.3178294897079468 -0.41085273027420044 0.31059831380844116
0.3178294897079468 -0.39534884691238403 -0.32433775067329407
0.3178294897079468 -0.39534884691238403 -0.21919989585876465
0.3178294897079468 -0.39534884691238403 0.24148306250572205
0.3178294897079468 -0.39534884691238403 0.33153432607650757
0.3178294897079468 -0.3798449635505676 -0.34062403440475464
0.3178294897079468 -0.3798449635505676 -0.2498200535774231
0.3178294897079468 -0.3798449635505676 0.2724834382534027
0.3178294897079468 -0.3798449635505676 0.3528185188770294
0.3178294897079468 -0.3643410801887512 -0.35625889897346497
0.3178294897079468 -0.3643410801887512 -0.2807399332523346
0.3178294897079468 -0.3643410801887512 0.3024855852127075
0.3178294897079468 -0.3643410801887512 0.3714314103126526
0.3178294897079468 -0.3488371968269348 -0.370857834815979
0.3178294897079468 -0.3488371968269348 -0.3062841594219208
0.3178294897079468 -0.3488371968269348 0.32705986499786377
0.3178294897079468 -0.3488371968269348 0.3883199095726013
0.3178294897079468 -0.3333333134651184 -0.3841952383518219
0.3178294897079468 -0.3333333134651184 -0.3247706890106201
0.3178294897079468 -0.3333333134651184 0.34728342294692993
0.3178294897079468 -0.3333333134651184 0.4039716422557831
0.3178294897079468 -0.317829430103302 -0.3959442377090454
0.3178294897079468 -0.317829430103302 -0.3395534157752991
0.3178294897079468 -0.317829430103302 0.36447978019714355
0.3178294897079468 -0.317829430103302 0.4184831380844116
0.3178294897079468 -0.30232560634613037 -0.4070300757884979
0.3178294897079468 -0.30232560634613037 -0.35305407643318176
0.3178294897079468 -0.30232560634613037 0.38129857182502747
0.3178294897079468 -0.30232560634613037 0.43126946687698364
0.3178294897079468 -0.28682172298431396 -0.41927438974380493
0.3178294897079468 -0.28682172298431396 -0.3651622533798218
0.3178294897079468 -0.28682175278663635 0.3961332142353058
0.3178294599056244 -0.28682172298431396 0.4423401951789856
0.3178294897079468 -0.27131783962249756 -0.42968225479125977
0.3178294897079468 -0.27131783962249756 -0.3754205107688904
0.3178294897079468 -0.27131783962249756 0.4062947928905487
0.3178294897079468 -0.27131783962249756 0.4516236186027527
0.3178294897079468 -0.25581395626068115 -0.43848714232444763
0.3178294897079468 -0.25581395626068115 -0.38499799370765686
0.3178294897079468 -0.25581395626068115 0.41419917345046997
0.3178294897079468 -0.25581395626068115 0.4622293710708618
0.3178294897079468 -0.24031007289886475 -0.4499804377555847
0.3178294897079468 -0.24031007289886475 -0.39414477348327637
0.3178294897079468 -0.24031007289886475 0.42172467708587646
0.3178294897079468 -0.24031007289886475 0.46829575300216675
0.3178294897079468 -0.22480618953704834 -0.4584023058414459
0.3178294897079468 -0.22480618953704834 -0.4010210931301117
0.3178294897079468 -0.22480618953704834 0.4290018081665039
0.3178294897079468 -0.22480618953704834 0.47867754101753235
0.3178294897079468 -0.20930230617523193 -0.46706873178482056
0.3178294897079468 -0.20930230617523193 -0.40724945068359375
0.3178294897079468 -0.20930230617523193 0.4353759288787842
0.3178294897079468 -0.20930230617523193 0.4843165874481201
0.3178294897079468 -0.19379842281341553 -0.4740670323371887
0.3178294897079468 -0.19379842281341553 -0.41385945677757263
0.3178294897079468 -0.19379842281341553 0.44363221526145935
0.3178294897079468 -0.19379842281341553 0.4938735365867615
0.3178294897079468 -0.1782945990562439 -0.4812501072883606
0.3178294897079468 -0.1782945990562439 -0.4197688400745392
0.3178294897079468 -0.1782945990562439 0.45111924409866333
0.3178294897079468 -0.1782945990562439 0.49821317195892334
0.3178294897079468 -0.1627907156944275 -0.48482316732406616
0.3178294897079468 -0.1627907156944275 -0.4254022240638733
0.3178294897079468 -0.1627907156944275 0.45859429240226746
0.31782951951026917 -0.1627907156944275 0.5048845410346985
0.3178294897079468 -0.14728683233261108 -0.49236130714416504
0.3178294897079468 -0.14728683233261108 -0.4312211275100708
0.3178294897079468 -0.14728683233261108 0.46151289343833923
0.3178294897079468 -0.14728683233261108 0.5100218653678894
0.3178294897079468 -0.13178294897079468 -0.49726158380508423
0.3178294897079468 -0.13178294897079468 -0.4371720850467682
0.3178294897079468 -0.13178294897079468 0.46362242102622986
0.3178294897079468 -0.13178294897079468 0.5128957629203796
0.3178294897079468 -0.11627906560897827 -0.4998796880245209
0.3178294897079468 -0.11627906560897827 -0.44250619411468506
0.3178294897079468 -0.11627906560897827 0.467329204082489
0.3178294897079468 -0.11627906560897827 0.5160863399505615
0.3178294897079468 -0.10077518224716187 -0.5064159035682678
0.3178294897079468 -0.10077518224716187 -0.4474541246891022
0.3178294897079468 -0.10077518224716187 0.4713262617588043
0.3178294897079468 -0.10077518224716187 0.521625280380249
0.3178294897079468 -0.08527129888534546 -0.5112259984016418
0.3178294897079468 -0.08527129888534546 -0.4534934163093567
0.31782951951026917 -0.08527129888534546 0.47331514954566956
0.3178294897079468 -0.08527129888534546 0.52556973695755
0.3178294897079468 -0.06976741552352905 -0.5133845806121826
0.3178294897079468 -0.06976741552352905 -0.4586055278778076
0.3178294897079468 -0.06976741552352905 0.4732148349285126
0.3178294897079468 -0.06976741552352905 0.5282348394393921
0.3178294897079468 -0.05426359176635742 -0.5144727230072021
0.3178294897079468 -0.05426359176635742 -0.4610920548439026
0.3178294897079468 -0.05426359176635742 0.47215309739112854
0.3178294897079468 -0.05426359176635742 0.5299462676048279
0.3178294897079468 -0.038759708404541016 -0.5158777832984924
0.3178294897079468 -0.038759708404541016 -0.4621461033821106
0.3178294897079468 -0.038759708404541016 0.47176051139831543
0.3178294897079468 -0.038759708404541016 0.5312129259109497
0.3178294897079468 -0.02325582504272461 -0.517348051071167
0.3178294897079468 -0.02325582504272461 -0.4613972306251526
0.3178294897079468 -0.02325582504272461 0.4777287244796753
0.3178294897079468 -0.02325582504272461 0.5321548581123352
0.3178294897079468 -0.007751941680908203 -0.5180298089981079
0.3178294897079468 -0.007751941680908203 -0.45966291427612305
0.3178294897079468 -0.007751941680908203 0.48456233739852905
0.3178294897079468 -0.007751941680908203 0.5322269201278687
0.3178294897079468 0.007751941680908203 -0.5169751644134521
0.3178294897079468 0.007751941680908203 -0.4596439003944397
0.3178294897079468 0.007751941680908203 0.4882412254810333
0.3178294897079468 0.007751941680908203 0.53180992603302
0.3178294897079468 0.02325582504272461 -0.5154953002929688
0.3178294897079468 0.02325582504272461 -0.46081477403640747
0.3178294897079468 0.02325582504272461 0.4880911707878113
0.3178294897079468 0.02325582504272461 0.5312204360961914
0.3178294897079468 0.038759708404541016 -0.514402449131012
0.3178294897079468 0.038759708404541016 -0.4624059498310089
0.3178294897079468 0.038759708404541016 0.4846220016479492
0.3178294897079468 0.038759708404541016 0.5307485461235046
0.3178294897079468 0.05426359176635742 -0.5135020613670349
0.3178294897079468 0.05426359176635742 -0.46280112862586975
0.3178294897079468 0.05426359176635742 0.4822620749473572
0.3178294897079468 0.05426359176635742 0.5297324657440186
0.3178294897079468 0.06976747512817383 -0.5121042132377625
0.3178294897079468 0.06976747512817383 -0.46194007992744446
0.3178294897079468 0.06976747512817383 0.48192739486694336
0.3178294897079468 0.06976747512817383 0.52750563621521
0.3178294897079468 0.08527135848999023 -0.5092311501502991
0.3178294897079468 0.08527135848999023 -0.4591454565525055
0.3178294897079468 0.08527135848999023 0.4795471727848053
0.3178294897079468 0.08527135848999023 0.5240309238433838
0.3178294897079468 0.10077524185180664 -0.5049171447753906
0.31782951951026917 0.10077524185180664 -0.4548448324203491
0.3178294897079468 0.10077524185180664 0.47198984026908875
0.3178294897079468 0.10077524185180664 0.5197016596794128
0.3178294897079468 0.11627912521362305 -0.49983054399490356
0.3178294897079468 0.11627912521362305 -0.4494785964488983
0.3178294897079468 0.11627912521362305 0.46515679359436035
0.3178294897079468 0.11627912521362305 0.5145400762557983
0.3178294897079468 0.1317828893661499 -0.49764999747276306
0.3178294897079468 0.1317828893661499 -0.44405484199523926
0.3178294897079468 0.1317828893661499 0.46002939343452454
0.3178294897079468 0.1317828893661499 0.5112653374671936
0.3178294897079468 0.1472867727279663 -0.4916812777519226
0.3178294897079468 0.1472867727279663 -0.43728193640708923
0.3178294897079468 0.1472867727279663 0.45742714405059814
0.3178294897079468 0.1472867727279663 0.5065448880195618
0.3178294897079468 0.16279065608978271 -0.48396000266075134
0.3178294897079468 0.16279065608978271 -0.4299721121788025
0.3178294897079468 0.16279065608978271 0.4527912735939026
0.3178294897079468 0.16279065608978271 0.49952930212020874
0.3178294897079468 0.17829453945159912 -0.4790770411491394
0.3178294897079468 0.17829453945159912 -0.4225882291793823
0.3178294897079468 0.17829453945159912 0.4442586302757263
0.3178294897079468 0.17829453945159912 0.4945495128631592
0.3178294897079468 0.19379842281341553 -0.46904003620147705
0.3178294897079468 0.19379842281341553 -0.4151701331138611
0.3178294897079468 0.19379842281341553 0.43442219495773315
0.3178294897079468 0.19379842281341553 0.48533323407173157
0.3178294897079468 0.20930230617523193 -0.4629060924053192
0.3178294897079468 0.20930230617523193 -0.4073373079299927
0.3178294897079468 0.20930230617523193 0.4262867867946625
0.3178294897079468 0.20930230617523193 0.4800236225128174
0.3178294897079468 0.22480620443820953 -0.45282426476478577
0.3178294897079468 0.22480618953704834 -0.39982572197914124
0.3178294897079468 0.22480618953704834 0.4168727993965149
0.3178294897079468 0.22480618953704834 0.47090765833854675
0.3178294897079468 0.24031007289886475 -0.44412118196487427
0.3178294897079468 0.24031008780002594 -0.3917195796966553
0.3178294897079468 0.24031007289886475 0.4087747037410736
0.3178294897079468 0.24031007289886475 0.4651278257369995
0.3178294897079468 0.25581395626068115 -0.43513190746307373
0.3178294897079468 0.25581395626068115 -0.3831695318222046
0.3178294897079468 0.25581395626068115 0.39909106492996216
0.3178294897079468 0.25581395626068115 0.45600518584251404
0.3178294897079468 0.27131783962249756 -0.42386212944984436
0.3178294897079468 0.27131783962249756 -0.3745267987251282
0.3178294897079468 0.27131783962249756 0.3908096253871918
0.3178294897079468 0.27131783962249756 0.4489152431488037
0.3178294897079468 0.28682172298431396 -0.41457584500312805
0.3178294897079468 0.28682172298431396 -0.3654017746448517
0.3178294897079468 0.2868216931819916 0.3805840313434601
0.3178294897079468 0.28682172298431396 0.4372543692588806
0.3178294897079468 0.30232560634613037 -0.4041582942008972
0.3178294897079468 0.30232560634613037 -0.3536556661128998
0.3178294599056244 0.30232560634613037 0.36581388115882874
0.3178294897079468 0.30232560634613037 0.42742958664894104
0.3178294599056244 0.3178294599056244 -0.3924667537212372
0.3178294897079468 0.3178294897079468 -0.3414407968521118
0.3178294897079468 0.3178294897079468 0.3517458140850067
0.3178294897079468 0.3178294897079468 0.41647017002105713
0.3178294897079468 0.3333333730697632 -0.3803166151046753
0.3178294897079468 0.3333333730697632 -0.32828569412231445
0.3178294897079468 0.3333333730697632 0.33516520261764526
0.3178294897079468 0.3333333730697632 0.40328508615493774
0.3178294897079468 0.3488372564315796 -0.36859965324401855
0.3178294897079468 0.3488372564315796 -0.312682569026947
0.3178294897079468 0.3488372564315796 0.3078725337982178
0.3178294897079468 0.3488372564315796 0.3880120515823364
0.3178294897079468 0.364341139793396 -0.3551286458969116
0.3178294897079468 0.364341139793396 -0.2912887930870056
0.3178294897079468 0.364341139793396 0.2757759094238281
0.3178294897079468 0.364341139793396 0.3703082203865051
0.3178294897079468 0.37984490394592285 -0.3394109308719635
0.3178294897079468 0.37984490394592285 -0.2529286742210388
0.3178294897079468 0.37984490394592285 0.23947526514530182
0.3178294897079468 0.37984490394592285 0.34780505299568176
0.3178294897079468 0.39534878730773926 -0.3226100504398346
0.3178294897079468 0.39534878730773926 -0.22107456624507904
0.3178294897079468 0.39534878730773926 0.20043610036373138
0.3178294897079468 0.39534878730773926 0.3251335024833679
0.3178294897079468 0.41085267066955566 -0.3038289546966553
0.3178294897079468 0.41085267066955566 -0.19893240928649902
0.3178294897079468 0.41085267066955566 0.16787314414978027
0.3178294897079468 0.41085267066955566 0.29789483547210693
0.3178294897079468 0.42635655403137207 -0.2830870747566223
0.3178294897079468 0.42635655403137207 -0.1749480664730072
0.3178294897079468 0.42635655403137207 0.13470673561096191
0.3178294897079468 0.42635655403137207 0.26924487948417664
0.3178294897079468 0.4418604373931885 -0.2593943178653717
0.3178294897079468 0.4418604373931885 -0.1461668610572815
0.3178294897079468 0.4418604373931885 0.11038041859865189
0.3178294897079468 0.4418604373931885 0.24121800065040588
0.3178294897079468 0.4573643207550049 -0.2335532009601593
0.3178294897079468 0.4573643207550049 -0.10475689172744751
0.3178294897079468 0.4573643207550049 0.08437703549861908
0.3178294897079468 0.4573643207550049 0.21305714547634125
0.3178294897079468 0.4728682041168213 -0.20275086164474487
0.3178294897079468 0.4728682041168213 0.18236412107944489
0.3178294897079468 0.4883720874786377 -0.16130425035953522
0.3178294897079468 0.4883720874786377 0.14383600652217865
0.3178294897079468 0.5038759708404541 -0.09924700111150742
0.3178294897079468 0.5038759708404541 0.08756609261035919
0.3333333730697632 -0.5038759708404541 -0.08984222263097763
0.3333333730697632 -0.5038759708404541 0.0852169543504715
0.3333333730697632 -0.4883720874786377 -0.1583472192287445
0.3333333730697632 -0.4883720874786377 0.1423325538635254
0.3333333730697632 -0.4728682041168213 -0.20271065831184387
0.3333333432674408 -0.4728681743144989 0.18117853999137878
0.3333333730697632 -0.4573643207550049 -0.2328292727470398
0.3333333730697632 -0.4573643207550049 -0.029348405078053474
0.3333333730697632 -0.4573643207550049 0.0788874700665474
0.3333333730697632 -0.4573643207550049 0.2137453556060791
0.3333333730697632 -0.4418604373931885 -0.25698840618133545
0.3333333730697632 -0.4418604373931885 -0.06628291308879852
0.3333333730697632 -0.4418604373931885 0.11477235704660416
0.3333333730697632 -0.4418604373931885 0.24558714032173157
0.3333333730697632 -0.42635661363601685 -0.27801311016082764
0.3333333730697632 -0.42635661363601685 -0.13412116467952728
0.3333333730697632 -0.42635661363601685 0.1636507362127304
0.3333333730697632 -0.42635661363601685 0.2760896682739258
0.3333333730697632 -0.41085273027420044 -0.29667994379997253
0.3333333730697632 -0.41085273027420044 -0.1738537698984146
0.3333333730697632 -0.41085273027420044 0.20794422924518585
0.3333333730697632 -0.41085273027420044 0.30267074704170227
0.3333333730697632 -0.39534884691238403 -0.3143004775047302
0.3333333730697632 -0.39534884691238403 -0.2036134898662567
0.3333333730697632 -0.39534884691238403 0.2417004108428955
0.3333333730697632 -0.39534884691238403 0.32719117403030396
0.3333333730697632 -0.3798449635505676 -0.33070164918899536
0.3333333730697632 -0.3798449635505676 -0.2327909618616104
0.3333333730697632 -0.37984493374824524 0.27312543988227844
0.3333333730697632 -0.3798449635505676 0.34605634212493896
0.3333333730697632 -0.3643410801887512 -0.3466036319732666
0.3333333730697632 -0.3643410801887512 -0.26543211936950684
0.33333340287208557 -0.3643410801887512 0.3025320768356323
0.3333333730697632 -0.3643410801887512 0.3648463785648346
0.3333333730697632 -0.3488371968269348 -0.3615235686302185
0.3333333730697632 -0.3488371968269348 -0.29502344131469727
0.3333333730697632 -0.3488371968269348 0.3262220621109009
0.3333333730697632 -0.3488371968269348 0.38313567638397217
0.3333333730697632 -0.3333333134651184 -0.3757723569869995
0.3333333730697632 -0.3333333134651184 -0.3166183531284332
0.3333333730697632 -0.3333333134651184 0.3464851677417755
0.3333333730697632 -0.3333333134651184 0.3992406725883484
0.3333333730697632 -0.317829430103302 -0.3892790377140045
0.3333333730697632 -0.317829430103302 -0.33240002393722534
0.3333333730697632 -0.317829430103302 0.3641373813152313
0.3333333730697632 -0.317829430103302 0.4138615131378174
0.3333333730697632 -0.30232560634613037 -0.4013330638408661
0.3333333730697632 -0.30232560634613037 -0.34619438648223877
0.3333333730697632 -0.30232560634613037 0.38092759251594543
0.3333333432674408 -0.30232560634613037 0.42670291662216187
0.3333333730697632 -0.28682172298431396 -0.41153740882873535
0.3333333730697632 -0.28682172298431396 -0.35832422971725464
0.3333333730697632 -0.28682172298431396 0.3956533670425415
0.3333333730697632 -0.28682172298431396 0.4371044635772705
0.3333333730697632 -0.27131783962249756 -0.42200708389282227
0.3333333730697632 -0.27131783962249756 -0.3693963289260864
0.3333333730697632 -0.27131783962249756 0.40691810846328735
0.3333333730697632 -0.27131783962249756 0.4487437605857849
0.3333333730697632 -0.25581395626068115 -0.4336172342300415
0.3333333730697632 -0.25581395626068115 -0.37988173961639404
0.3333333730697632 -0.25581395626068115 0.41602087020874023
0.3333333730697632 -0.25581395626068115 0.4578538239002228
0.3333333730697632 -0.24031007289886475 -0.44266679883003235
0.3333333730697632 -0.24031007289886475 -0.38901105523109436
0.3333333730697632 -0.24031007289886475 0.4249690771102905
0.3333333730697632 -0.24031007289886475 0.4650857448577881
0.3333333730697632 -0.22480618953704834 -0.4523289203643799
0.3333333730697632 -0.22480618953704834 -0.397096186876297
0.3333333730697632 -0.22480618953704834 0.4310779273509979
0.3333333730697632 -0.22480618953704834 0.4740866422653198
0.3333333730697632 -0.20930230617523193 -0.46173837780952454
0.3333333730697632 -0.20930230617523193 -0.40370431542396545
0.3333333730697632 -0.20930230617523193 0.43731051683425903
0.3333333730697632 -0.20930230617523193 0.48094692826271057
0.3333333730697632 -0.19379842281341553 -0.468181848526001
0.3333333730697632 -0.19379842281341553 -0.4107505977153778
0.3333333432674408 -0.19379842281341553 0.4443081021308899
0.3333333730697632 -0.19379842281341553 0.48850318789482117
0.3333333730697632 -0.1782945990562439 -0.475372314453125
0.3333333730697632 -0.1782945990562439 -0.41643232107162476
0.3333333730697632 -0.1782945990562439 0.45045363903045654
0.3333333730697632 -0.1782945990562439 0.4953318238258362
0.3333333730697632 -0.1627907156944275 -0.48163098096847534
0.3333333730697632 -0.1627907156944275 -0.4219379127025604
0.3333333730697632 -0.1627907156944275 0.4571797549724579
0.3333333730697632 -0.1627907156944275 0.49866679310798645
0.3333333730697632 -0.14728683233261108 -0.48491665720939636
0.3333333730697632 -0.14728683233261108 -0.42750802636146545
0.3333333432674408 -0.14728683233261108 0.46037375926971436
0.3333333730697632 -0.14728683233261108 0.5054300427436829
0.3333333730697632 -0.13178294897079468 -0.4922448992729187
0.3333333730697632 -0.13178294897079468 -0.4328565001487732
0.3333333730697632 -0.13178294897079468 0.4629504680633545
0.3333333730697632 -0.13178294897079468 0.5103139877319336
0.3333333730697632 -0.11627906560897827 -0.49706733226776123
0.3333333730697632 -0.11627906560897827 -0.4379029870033264
0.3333333730697632 -0.11627906560897827 0.4653995931148529
0.3333333730697632 -0.11627906560897827 0.5129860639572144
0.3333333730697632 -0.10077518224716187 -0.49939870834350586
0.3333333730697632 -0.10077518224716187 -0.4427248537540436
0.3333333730697632 -0.10077518224716187 0.4668368101119995
0.3333333730697632 -0.10077518224716187 0.5156490802764893
0.3333333730697632 -0.08527129888534546 -0.504569947719574
0.3333333730697632 -0.08527129888534546 -0.4483473598957062
0.3333333730697632 -0.08527129888534546 0.4676048159599304
0.3333333730697632 -0.08527129888534546 0.5214300751686096
0.3333333730697632 -0.06976741552352905 -0.5091943144798279
0.3333333730697632 -0.06976741552352905 -0.4536648392677307
0.3333333730697632 -0.06976741552352905 0.4691506028175354
0.3333333730697632 -0.06976741552352905 0.5253094434738159
0.3333333730697632 -0.05426359176635742 -0.5118358135223389
0.3333333730697632 -0.05426359176635742 -0.4567796587944031
0.3333333730697632 -0.05426359176635742 0.47341644763946533
0.3333333730697632 -0.05426359176635742 0.5277247428894043
0.3333333730697632 -0.038759708404541016 -0.5133834481239319
0.3333333730697632 -0.038759708404541016 -0.4573799669742584
0.3333333730697632 -0.038759708404541016 0.477908730506897
0.3333333730697632 -0.038759708404541016 0.5285547971725464
0.3333333730697632 -0.02325582504272461 -0.5140116214752197
0.3333333730697632 -0.02325582504272461 -0.4559101462364197
0.3333333730697632 -0.02325582504272461 0.481343150138855
0.3333333730697632 -0.02325582504272461 0.5285819172859192
0.3333333730697632 -0.007751941680908203 -0.5141270160675049
0.3333333730697632 -0.007751941680908203 -0.4535914957523346
0.3333333730697632 -0.007751941680908203 0.4828307330608368
0.3333333730697632 -0.007751941680908203 0.5283750295639038
0.3333333730697632 0.007751941680908203 -0.513678789138794
0.3333333730697632 0.007751941680908203 -0.45334869623184204
0.3333333730697632 0.007751941680908203 0.4848507046699524
0.3333333730697632 0.007751941680908203 0.5280719995498657
0.3333333730697632 0.02325582504272461 -0.5128589272499084
0.3333333730697632 0.02325582504272461 -0.4547664523124695
0.3333333730697632 0.02325582504272461 0.4859347939491272
0.3333333730697632 0.02325582504272461 0.5276217460632324
0.3333333730697632 0.038759708404541016 -0.5115057826042175
0.3333333730697632 0.038759708404541016 -0.4569857120513916
0.3333333730697632 0.038759708404541016 0.4853268563747406
0.3333333730697632 0.038759708404541016 0.5273247361183167
0.3333333730697632 0.05426359176635742 -0.509238064289093
0.3333333730697632 0.05426359176635742 -0.4578222930431366
0.3333333730697632 0.05426359176635742 0.4830458164215088
0.3333333730697632 0.05426359176635742 0.5266886949539185
0.3333333730697632 0.06976747512817383 -0.5060802102088928
0.33333340287208557 0.06976747512817383 -0.4573555290699005
0.3333333730697632 0.06976747512817383 0.47996455430984497
0.3333333730697632 0.06976747512817383 0.5242311954498291
0.3333333730697632 0.08527135848999023 -0.5015239715576172
0.3333333730697632 0.08527135848999023 -0.4540266990661621
0.3333333730697632 0.08527135848999023 0.4773131012916565
0.3333333730697632 0.08527135848999023 0.5197776556015015
0.3333333730697632 0.10077524185180664 -0.49910789728164673
0.3333333730697632 0.10077524185180664 -0.44966527819633484
0.33333340287208557 0.10077524185180664 0.4744448959827423
0.3333333730697632 0.10077524185180664 0.5143065452575684
0.3333333730697632 0.11627912521362305 -0.4971690773963928
0.3333333730697632 0.11627912521362305 -0.4450189471244812
0.3333333730697632 0.11627912521362305 0.46914106607437134
0.3333333730697632 0.11627912521362305 0.5118436813354492
0.3333333730697632 0.1317828893661499 -0.49196183681488037
0.3333333730697632 0.1317828893661499 -0.43974560499191284
0.3333333730697632 0.1317828893661499 0.4627242684364319
0.3333333730697632 0.1317828893661499 0.5079092979431152
0.3333333730697632 0.1472867727279663 -0.4844212234020233
0.3333333730697632 0.1472867727279663 -0.4331229031085968
0.3333333730697632 0.1472867727279663 0.45800843834877014
0.3333333730697632 0.1472867727279663 0.5004292726516724
0.3333333730697632 0.16279065608978271 -0.48082399368286133
0.3333333730697632 0.16279065608978271 -0.42650583386421204
0.3333333730697632 0.16279065608978271 0.45092588663101196
0.3333333730697632 0.16279065608978271 0.4963745176792145
0.3333333730697632 0.17829453945159912 -0.4709993898868561
0.3333333730697632 0.17829453945159912 -0.4188370108604431
0.3333333730697632 0.17829453945159912 0.443573534488678
0.3333333730697632 0.17829453945159912 0.4897995889186859
0.3333333730697632 0.19379842281341553 -0.46565157175064087
0.3333333730697632 0.19379842281341553 -0.411744624376297
0.3333333730697632 0.19379842281341553 0.43538612127304077
0.3333333730697632 0.19379842281341553 0.4821372628211975
0.3333333730697632 0.20930232107639313 -0.4548662304878235
0.3333333730697632 0.20930230617523193 -0.4038839340209961
0.33333340287208557 0.20930230617523193 0.4281003475189209
0.3333333730697632 0.20930230617523193 0.47581082582473755
0.3333333730697632 0.22480618953704834 -0.4483110010623932
0.3333333730697632 0.22480618953704834 -0.39659690856933594
0.3333333730697632 0.22480618953704834 0.41977179050445557
0.3333333730697632 0.22480618953704834 0.46717536449432373
0.3333333730697632 0.24031007289886475 -0.43731188774108887
0.3333333730697632 0.24031007289886475 -0.38796305656433105
0.3333333730697632 0.24031007289886475 0.4119667708873749
0.3333333730697632 0.24031007289886475 0.46150463819503784
0.3333333730697632 0.25581395626068115 -0.4281269609928131
0.3333333730697632 0.25581395626068115 -0.37942934036254883
0.3333333730697632 0.25581395626068115 0.401167094707489
0.3333333730697632 0.25581395626068115 0.4521865248680115
0.3333333730697632 0.27131783962249756 -0.418529748916626
0.3333333730697632 0.27131783962249756 -0.370052695274353
0.3333333730697632 0.27131783962249756 0.39147648215293884
0.3333333730697632 0.27131783962249756 0.44513046741485596
0.3333333730697632 0.28682172298431396 -0.40679270029067993
0.3333333730697632 0.28682172298431396 -0.35947614908218384
0.3333333730697632 0.28682172298431396 0.3800415098667145
0.3333333730697632 0.28682172298431396 0.43497973680496216
0.3333333730697632 0.30232560634613037 -0.39584779739379883
0.3333333730697632 0.302325576543808 -0.3471440076828003
0.3333333730697632 0.30232560634613037 0.36481839418411255
0.3333333730697632 0.30232560634613037 0.42289796471595764
0.3333333730697632 0.3178294897079468 -0.3855978846549988
0.3333333730697632 0.3178294897079468 -0.33416101336479187
0.3333333730697632 0.3178294897079468 0.35052490234375
0.3333333730697632 0.3178294897079468 0.41220468282699585
0.3333333730697632 0.3333333730697632 -0.3736914396286011
0.3333333730697632 0.3333333730697632 -0.3197801411151886
0.3333333730697632 0.3333333730697632 0.3344652056694031
0.3333333730697632 0.3333333730697632 0.3995618224143982
0.3333333730697632 0.3488372564315796 -0.3605622351169586
0.3333333730697632 0.3488372564315796 -0.3022506833076477
0.3333333730697632 0.3488372564315796 0.30923378467559814
0.3333333730697632 0.3488372564315796 0.3840565085411072
0.3333333730697632 0.364341139793396 -0.3464530110359192
0.3333333730697632 0.364341139793396 -0.2737899124622345
0.3333333730697632 0.364341139793396 0.2785983681678772
0.3333333730697632 0.364341139793396 0.3652360439300537
0.3333333730697632 0.37984490394592285 -0.3307557702064514
0.3333333730697632 0.37984490394592285 -0.23357757925987244
0.3333333730697632 0.37984490394592285 0.24123159050941467
0.3333333730697632 0.37984490394592285 0.34386175870895386
0.3333333730697632 0.39534878730773926 -0.3141303062438965
0.3333333730697632 0.39534878730773926 -0.2064521759748459
0.3333333730697632 0.39534878730773926 0.19901461899280548
0.3333333730697632 0.39534878730773926 0.3198973536491394
0.3333333730697632 0.41085267066955566 -0.2948812246322632
0.3333333730697632 0.41085267066955566 -0.18530911207199097
0.3333333730697632 0.41085267066955566 0.1674005389213562
0.3333333730697632 0.41085267066955566 0.29305991530418396
0.3333333730697632 0.42635655403137207 -0.2730371952056885
0.3333333730697632 0.42635655403137207 -0.16145490109920502
0.3333333730697632 0.4263565242290497 0.13206036388874054
0.3333333730697632 0.42635655403137207 0.26434311270713806
0.3333333730697632 0.4418604075908661 -0.24941816926002502
0.3333333730697632 0.44186046719551086 -0.12962044775485992
0.3333333730697632 0.4418604075908661 0.10468634963035583
0.3333333730697632 0.4418604373931885 0.23552097380161285
0.3333333432674408 0.4573643207550049 -0.22206616401672363
0.3333333730697632 0.4573643207550049 -0.08107806742191315
0.3333333730697632 0.4573643207550049 0.07362470030784607
0.3333333730697632 0.4573643207550049 0.20601366460323334
0.3333333730697632 0.4728682041168213 -0.18894201517105103
0.3333333730697632 0.4728682041168213 0.17370739579200745
0.3333333730697632 0.4883720874786377 -0.14180393517017365
0.3333333730697632 0.4883720874786377 0.1310204714536667
0.3333333730697632 0.5038759708404541 -0.07317040860652924
0.3333333730697632 0.5038759708404541 0.06996305286884308
0.3488372266292572 -0.5038759708404541 -0.0677395612001419
0.3488372564315796 -0.5038759708404541 0.06498338282108307
0.3488372564315796 -0.4883720874786377 -0.13999149203300476
0.3488372564315796 -0.4883720874786377 0.12844526767730713
0.3488372564315796 -0.4728682041168213 -0.19009631872177124
0.3488372564315796 -0.4728682041168213 0.1709890067577362
0.3488372564315796 -0.4573643207550049 -0.22299255430698395
0.3488372564315796 -0.4573643207550049 -0.02493954263627529
0.3488372564315796 -0.4573643207550049 0.06545863300561905
0.3488372564315796 -0.4573643207550049 0.20388656854629517
0.3488372564315796 -0.4418604373931885 -0.24798500537872314
0.3488372564315796 -0.4418604373931885 -0.06345023214817047
0.3488372564315796 -0.4418604373931885 0.10838297009468079
0.3488372564315796 -0.4418604373931885 0.235663041472435
0.3488372564315796 -0.42635661363601685 -0.26885417103767395
0.3488372564315796 -0.42635661363601685 -0.12211548537015915
0.3488372564315796 -0.42635661363601685 0.15318748354911804
0.3488372564315796 -0.42635661363601685 0.26657506823539734
0.3488372564315796 -0.41085273027420044 -0.2884809374809265
0.3488372564315796 -0.41085273027420044 -0.1645803302526474
0.3488372564315796 -0.41085273027420044 0.20381790399551392
0.3488372564315796 -0.41085273027420044 0.29600369930267334
0.3488372564315796 -0.39534884691238403 -0.30641722679138184
0.3488372564315796 -0.39534884691238403 -0.19405613839626312
0.3488372564315796 -0.39534884691238403 0.23897653818130493
0.3488372564315796 -0.39534884691238403 0.31958121061325073
0.3488372564315796 -0.3798449635505676 -0.32306644320487976
0.3488372564315796 -0.3798449635505676 -0.22253011167049408
0.3488372564315796 -0.3798449635505676 0.270149827003479
0.3488372564315796 -0.3798449635505676 0.3414100706577301
0.3488372564315796 -0.3643410801887512 -0.33926522731781006
0.3488372564315796 -0.3643410801887512 -0.2542450726032257
0.3488372564315796 -0.3643410801887512 0.2979864478111267
0.3488372564315796 -0.3643410801887512 0.35974904894828796
0.3488372564315796 -0.3488371968269348 -0.35488346219062805
0.3488372564315796 -0.3488372266292572 -0.28583261370658875
0.3488372564315796 -0.3488371968269348 0.32239124178886414
0.3488372564315796 -0.3488371968269348 0.37669259309768677
0.3488372564315796 -0.3333333134651184 -0.36938178539276123
0.3488372564315796 -0.3333333134651184 -0.3080753684043884
0.3488372564315796 -0.3333333134651184 0.34262895584106445
0.3488372564315796 -0.3333333134651184 0.39246299862861633
0.3488372564315796 -0.317829430103302 -0.3818795084953308
0.3488372564315796 -0.317829430103302 -0.32477331161499023
0.3488372564315796 -0.317829430103302 0.36046090722084045
0.3488372564315796 -0.317829430103302 0.4074346125125885
0.3488372564315796 -0.30232560634613037 -0.3934028148651123
0.3488372564315796 -0.30232560634613037 -0.33941346406936646
0.3488372564315796 -0.30232560634613037 0.37764331698417664
0.3488372564315796 -0.30232560634613037 0.4214601516723633
0.3488372564315796 -0.28682172298431396 -0.4056472182273865
0.3488372564315796 -0.28682172298431396 -0.3521122932434082
0.3488372564315796 -0.28682172298431396 0.3916209936141968
0.3488372564315796 -0.28682172298431396 0.4339897632598877
0.3488372564315796 -0.27131783962249756 -0.4168475866317749
0.3488372564315796 -0.27131783962249756 -0.3639073669910431
0.3488372564315796 -0.27131783962249756 0.4034746587276459
0.3488372266292572 -0.27131783962249756 0.44423142075538635
0.3488372564315796 -0.25581395626068115 -0.42641976475715637
0.3488372564315796 -0.25581395626068115 -0.37394073605537415
0.3488372564315796 -0.25581395626068115 0.4138234853744507
0.3488372564315796 -0.25581395626068115 0.4515007734298706
0.3488372564315796 -0.24031007289886475 -0.43687716126441956
0.3488372564315796 -0.24031007289886475 -0.3837197422981262
0.3488372564315796 -0.24031007289886475 0.4221717417240143
0.3488372564315796 -0.24031007289886475 0.4619116485118866
0.3488372564315796 -0.22480618953704834 -0.44751831889152527
0.3488372564315796 -0.22480618953704834 -0.3926396071910858
0.3488372564315796 -0.22480620443820953 0.4289642572402954
0.3488372564315796 -0.22480618953704834 0.46762484312057495
0.3488372564315796 -0.20930230617523193 -0.4544646739959717
0.3488372564315796 -0.20930230617523193 -0.39973726868629456
0.3488372564315796 -0.20930230617523193 0.4340093433856964
0.3488372564315796 -0.20930230617523193 0.4781649112701416
0.3488372564315796 -0.19379842281341553 -0.4643206298351288
0.3488372564315796 -0.19379842281341553 -0.4071001708507538
0.3488372564315796 -0.19379842281341553 0.4398260712623596
0.3488372564315796 -0.19379842281341553 0.4828454256057739
0.3488372564315796 -0.1782946139574051 -0.4689383804798126
0.3488372564315796 -0.1782945990562439 -0.41290661692619324
0.3488372564315796 -0.1782945990562439 0.44430285692214966
0.3488372564315796 -0.1782945990562439 0.4917339086532593
0.3488372564315796 -0.1627907156944275 -0.4764285385608673
0.3488372564315796 -0.1627907156944275 -0.4182150363922119
0.3488372564315796 -0.1627907156944275 0.4475981295108795
0.3488372564315796 -0.1627907156944275 0.49706482887268066
0.3488372564315796 -0.14728683233261108 -0.481981098651886
0.348837286233902 -0.14728683233261108 -0.42360594868659973
0.3488372564315796 -0.14728683233261108 0.4503321349620819
0.3488372564315796 -0.14728683233261108 0.49992606043815613
0.3488372564315796 -0.13178294897079468 -0.4849289059638977
0.3488372564315796 -0.13178294897079468 -0.42867517471313477
0.3488372564315796 -0.13178294897079468 0.45363736152648926
0.3488372564315796 -0.13178294897079468 0.5072289705276489
0.3488372564315796 -0.11627906560897827 -0.4920274317264557
0.3488372564315796 -0.11627906560897827 -0.4334028363227844
0.3488372266292572 -0.11627906560897827 0.4591279625892639
0.3488372564315796 -0.11627906560897827 0.5117438435554504
0.3488372564315796 -0.10077518224716187 -0.4967176020145416
0.3488372564315796 -0.10077517479658127 -0.43808984756469727
0.3488372564315796 -0.10077518224716187 0.4640549421310425
0.3488372564315796 -0.10077518224716187 0.513990044593811
0.3488372564315796 -0.08527129888534546 -0.4987969696521759
0.3488372564315796 -0.08527129888534546 -0.443632572889328
0.3488372564315796 -0.08527129888534546 0.469910204410553
0.3488372564315796 -0.08527129888534546 0.5158073902130127
0.3488372564315796 -0.06976741552352905 -0.5014331340789795
0.3488372564315796 -0.06976741552352905 -0.4484160542488098
0.3488372564315796 -0.06976740807294846 0.4737314283847809
0.3488372564315796 -0.06976741552352905 0.5191908478736877
0.3488372564315796 -0.05426359176635742 -0.5059524178504944
0.3488372564315796 -0.05426359176635742 -0.4509410858154297
0.3488372564315796 -0.05426359176635742 0.4745117127895355
0.3488372564315796 -0.05426359176635742 0.5214206576347351
0.3488372564315796 -0.038759708404541016 -0.5091737508773804
0.3488372564315796 -0.038759708404541016 -0.45120030641555786
0.3488372564315796 -0.038759708404541016 0.47468361258506775
0.3488372564315796 -0.038759708404541016 0.5228473544120789
0.3488372564315796 -0.02325582504272461 -0.5105044841766357
0.3488372564315796 -0.02325582504272461 -0.4500112235546112
0.3488372564315796 -0.02325582318007946 0.47485190629959106
0.3488372564315796 -0.02325582504272461 0.5231413841247559
0.3488372564315796 -0.007751941680908203 -0.5107554197311401
0.3488372564315796 -0.007751941680908203 -0.4480806589126587
0.3488372564315796 -0.007751941215246916 0.4751531481742859
0.3488372564315796 -0.007751941215246916 0.5228372812271118
0.3488372564315796 0.007751941680908203 -0.5100082755088806
0.3488372564315796 0.007751941680908203 -0.44784221053123474
0.3488372564315796 0.007751941680908203 0.4767659902572632
0.3488372564315796 0.007751941680908203 0.522425651550293
0.3488372564315796 0.02325582504272461 -0.5083706378936768
0.3488372564315796 0.02325582504272461 -0.4490795135498047
0.3488372564315796 0.02325582504272461 0.4777880907058716
0.3488372564315796 0.02325582504272461 0.521674394607544
0.3488372564315796 0.038759708404541016 -0.5058014392852783
0.3488372564315796 0.038759708404541016 -0.45098984241485596
0.3488372564315796 0.038759708404541016 0.47872933745384216
0.3488372564315796 0.038759708404541016 0.5209371447563171
0.3488372564315796 0.05426359176635742 -0.5020684003829956
0.3488372564315796 0.05426359176635742 -0.45188313722610474
0.3488372564315796 0.05426359176635742 0.47903501987457275
0.3488372564315796 0.05426359176635742 0.5198487043380737
0.3488372564315796 0.06976747512817383 -0.4995175898075104
0.3488372564315796 0.06976747512817383 -0.4513412117958069
0.3488372564315796 0.06976747512817383 0.4780665338039398
0.3488372564315796 0.06976747512817383 0.5171973705291748
0.3488372564315796 0.08527135848999023 -0.49817776679992676
0.3488372564315796 0.08527135848999023 -0.4486662745475769
0.348837286233902 0.08527135848999023 0.4751540422439575
0.3488372564315796 0.08527135848999023 0.5152169466018677
0.3488372564315796 0.10077524185180664 -0.4961373209953308
0.3488372564315796 0.10077524185180664 -0.44498804211616516
0.3488372564315796 0.10077524185180664 0.47016197443008423
0.3488372564315796 0.10077524185180664 0.513282299041748
0.3488372564315796 0.11627912521362305 -0.4909851551055908
0.3488372564315796 0.11627912521362305 -0.4406769275665283
0.3488372564315796 0.11627912521362305 0.4631935954093933
0.3488372564315796 0.11627912521362305 0.5099970102310181
0.3488372564315796 0.1317828893661499 -0.48446449637413025
0.3488372564315796 0.1317828893661499 -0.43504518270492554
0.3488372564315796 0.1317828893661499 0.45696011185646057
0.3488372564315796 0.1317828893661499 0.503665030002594
0.3488372564315796 0.1472867727279663 -0.48161715269088745
0.3488372564315796 0.1472867727279663 -0.4289650619029999
0.3488372564315796 0.1472867727279663 0.4502854347229004
0.3488372564315796 0.1472867727279663 0.49824416637420654
0.3488372564315796 0.16279065608978271 -0.4734160900115967
0.3488372564315796 0.16279065608978271 -0.4221690893173218
0.3488372564315796 0.16279065608978271 0.4451808035373688
0.3488372564315796 0.16279065608978271 0.4939839541912079
0.3488372564315796 0.17829453945159912 -0.4671855568885803
0.3488372564315796 0.17829453945159912 -0.4150765836238861
0.3488372564315796 0.17829453945159912 0.4392161965370178
0.3488372564315796 0.17829453945159912 0.48460060358047485
0.3488372564315796 0.19379842281341553 -0.458605021238327
0.3488372564315796 0.19379842281341553 -0.40806078910827637
0.3488372564315796 0.19379842281341553 0.4329274594783783
0.3488372564315796 0.19379842281341553 0.4800054430961609
0.3488372564315796 0.20930230617523193 -0.45089298486709595
0.3488372564315796 0.20930230617523193 -0.4003341794013977
0.3488372564315796 0.20930232107639313 0.4266557991504669
0.3488372564315796 0.20930230617523193 0.46998628973960876
0.3488372564315796 0.22480618953704834 -0.43976813554763794
0.3488372564315796 0.22480618953704834 -0.3926505744457245
0.3488372564315796 0.22480618953704834 0.4181792140007019
0.3488372564315796 0.22480618953704834 0.46469518542289734
0.3488372564315796 0.24031007289886475 -0.43247923254966736
0.3488372564315796 0.24031007289886475 -0.3838858902454376
0.3488372564315796 0.24031007289886475 0.41015952825546265
0.3488372564315796 0.24031007289886475 0.4554973244667053
0.3488372564315796 0.25581395626068115 -0.4213176965713501
0.3488372564315796 0.25581395626068115 -0.3748031556606293
0.3488372564315796 0.25581395626068115 0.39915987849235535
0.3488372564315796 0.25581395626068115 0.44924771785736084
0.3488372564315796 0.27131783962249756 -0.4098826050758362
0.3488372564315796 0.27131783962249756 -0.36558997631073
0.3488372564315796 0.27131783962249756 0.38827621936798096
0.3488372564315796 0.27131783962249756 0.4392980635166168
0.3488372564315796 0.28682172298431396 -0.40094679594039917
0.3488372564315796 0.28682172298431396 -0.35433128476142883
0.3488372564315796 0.28682172298431396 0.3765740692615509
0.3488372564315796 0.28682172298431396 0.4317150413990021
0.3488372564315796 0.30232560634613037 -0.3895719349384308
0.3488372564315796 0.30232560634613037 -0.34131795167922974
0.3488372564315796 0.30232560634613037 0.3620714843273163
0.3488372564315796 0.30232560634613037 0.4205530881881714
0.3488372564315796 0.3178294897079468 -0.37714657187461853
0.3488372564315796 0.3178294897079468 -0.3277434706687927
0.3488372564315796 0.3178294897079468 0.3481213450431824
0.3488372564315796 0.3178294897079468 0.40770667791366577
0.3488372564315796 0.3333333730697632 -0.36504149436950684
0.3488372564315796 0.3333333730697632 -0.31287097930908203
0.3488372564315796 0.3333333730697632 0.3315255343914032
0.3488372564315796 0.3333333730697632 0.3944760262966156
0.3488372564315796 0.3488372564315796 -0.3525371551513672
0.3488372564315796 0.3488372564315796 -0.2932969927787781
0.3488372564315796 0.3488372564315796 0.3076644539833069
0.3488372564315796 0.3488372564315796 0.37865200638771057
0.3488372564315796 0.364341139793396 -0.3385201692581177
0.3488372564315796 0.364341139793396 -0.26371124386787415
0.3488372564315796 0.364341139793396 0.2789442539215088
0.3488372564315796 0.364341139793396 0.3605264127254486
0.3488372564315796 0.37984490394592285 -0.32271283864974976
0.3488372564315796 0.37984490394592285 -0.2267329841852188
0.3488372564315796 0.37984490394592285 0.24127423763275146
0.3488372564315796 0.37984490394592285 0.3400244116783142
0.3488372564315796 0.39534878730773926 -0.30544114112854004
0.3488372564315796 0.39534878730773926 -0.20063188672065735
0.3488372564315796 0.39534878730773926 0.19680851697921753
0.3488372564315796 0.39534878730773926 0.3147754371166229
0.3488372564315796 0.41085267066955566 -0.2858092486858368
0.3488372564315796 0.41085267066955566 -0.17916861176490784
0.3488372564315796 0.41085267066955566 0.16619333624839783
0.3488372564315796 0.41085267066955566 0.2870738208293915
0.3488372564315796 0.42635655403137207 -0.2640719711780548
0.3488372564315796 0.42635655403137207 -0.15452221035957336
0.3488372564315796 0.42635655403137207 0.1303202360868454
0.3488372564315796 0.42635658383369446 0.25843846797943115
0.3488372564315796 0.4418604373931885 -0.23885118961334229
0.3488372564315796 0.4418604373931885 -0.11995603889226913
0.3488372564315796 0.4418604373931885 0.09986784309148788
0.3488372564315796 0.4418604373931885 0.22946175932884216
0.3488372564315796 0.4573643207550049 -0.20998403429985046
0.3488372564315796 0.4573643207550049 -0.06373710930347443
0.3488372564315796 0.4573643207550049 0.06122596561908722
0.3488372564315796 0.4573643207550049 0.19908061623573303
0.3488372564315796 0.4728682041168213 -0.17337241768836975
0.3488372564315796 0.4728682041168213 0.162586510181427
0.3488372564315796 0.4883720874786377 -0.11990641057491302
0.3488372564315796 0.4883720874786377 0.11573998630046844
0.3488372564315796 0.5038759708404541 -0.04312264174222946
0.3488372564315796 0.5038759708404541 0.045093245804309845
0.364341139793396 -0.5038759708404541 -0.040330369025468826
0.364341139793396 -0.5038759708404541 0.03682507574558258
0.364341139793396 -0.4883720874786377 -0.1185900866985321
0.364341139793396 -0.4883720874786377 0.11108384281396866
0.3643411099910736 -0.4728681743144989 -0.17519038915634155
0.364341139793396 -0.4728682041168213 0.1577841192483902
0.364341139793396 -0.4573643207550049 -0.2115282267332077
0.364341139793396 -0.45736435055732727 -0.017556434497237206
0.364341139793396 -0.4573643207550049 0.04819006100296974
0.3643411099910736 -0.4573642909526825 0.19386106729507446
0.364341139793396 -0.4418604373931885 -0.2376958727836609
0.364341139793396 -0.4418604373931885 -0.06141163408756256
0.364341139793396 -0.4418604373931885 0.100637286901474
0.364341139793396 -0.4418604373931885 0.22733230888843536
0.364341139793396 -0.42635661363601685 -0.25961723923683167
0.364341139793396 -0.42635661363601685 -0.11163130402565002
0.364341139793396 -0.42635661363601685 0.13801704347133636
0.3643411695957184 -0.42635661363601685 0.258878231048584
0.364341139793396 -0.41085273027420044 -0.27898967266082764
0.364341139793396 -0.41085273027420044 -0.15662641823291779
0.364341139793396 -0.41085273027420044 0.19520564377307892
0.364341139793396 -0.41085273027420044 0.28752565383911133
0.364341139793396 -0.39534884691238403 -0.29664507508277893
0.364341139793396 -0.39534884691238403 -0.18631553649902344
0.364341139793396 -0.39534884691238403 0.2311631739139557
0.364341139793396 -0.39534884691238403 0.31277501583099365
0.3643411695957184 -0.3798449635505676 -0.31319740414619446
0.364341139793396 -0.3798449635505676 -0.21430882811546326
0.364341139793396 -0.3798449635505676 0.26189208030700684
0.364341139793396 -0.3798449635505676 0.33375367522239685
0.364341139793396 -0.3643410801887512 -0.3293303847312927
0.364341139793396 -0.3643410801887512 -0.24474437534809113
0.364341139793396 -0.3643410801887512 0.2902350425720215
0.364341139793396 -0.3643410801887512 0.3546200692653656
0.364341139793396 -0.3488371968269348 -0.34516188502311707
0.364341139793396 -0.3488371968269348 -0.275777131319046
0.364341139793396 -0.3488371968269348 0.31583574414253235
0.364341139793396 -0.3488371968269348 0.37251704931259155
0.364341139793396 -0.3333333134651184 -0.36051803827285767
0.364341139793396 -0.3333333134651184 -0.2996372580528259
0.364341139793396 -0.3333333134651184 0.3366902768611908
0.364341139793396 -0.3333333134651184 0.38871046900749207
0.364341139793396 -0.317829430103302 -0.3748168647289276
0.364341139793396 -0.317829430103302 -0.3173893690109253
0.364341139793396 -0.317829430103302 0.35401588678359985
0.364341139793396 -0.317829430103302 0.4035865068435669
0.364341139793396 -0.30232560634613037 -0.3878803253173828
0.364341139793396 -0.30232560634613037 -0.33238667249679565
0.364341139793396 -0.30232560634613037 0.3702933192253113
0.364341139793396 -0.30232560634613037 0.41745513677597046
0.364341139793396 -0.28682172298431396 -0.3992931842803955
0.3643411099910736 -0.28682172298431396 -0.34499022364616394
0.364341139793396 -0.28682172298431396 0.38475263118743896
0.364341139793396 -0.28682172298431396 0.4289059340953827
0.364341139793396 -0.27131783962249756 -0.40871158242225647
0.364341139793396 -0.27131783962249756 -0.35650449991226196
0.364341139793396 -0.27131783962249756 0.39790767431259155
0.364341139793396 -0.27131783962249756 0.43750470876693726
0.364341139793396 -0.25581395626068115 -0.4207667112350464
0.364341139793396 -0.25581395626068115 -0.3673425316810608
0.364341139793396 -0.25581395626068115 0.40857255458831787
0.364341139793396 -0.25581395626068115 0.4485310912132263
