0.612403154373169 -0.2852011024951935 0.17829453945159912
0.612403154373169 -0.099652960896492 0.17829453945159912
0.612403154373169 -0.07972888648509979 0.17829453945159912
0.612403154373169 -0.0665682852268219 0.17829453945159912
0.612403154373169 -0.061358049511909485 0.19379842281341553
0.6279069185256958 -0.47309744358062744 0.19379842281341553
0.6279069185256958 -0.46048784255981445 0.20930230617523193
0.6279069185256958 -0.3983652889728546 0.20930230617523193
0.6279069185256958 -0.3879881799221039 0.17829453945159912
0.6279069185256958 -0.31312882900238037 0.17829453945159912
0.6279069185256958 -0.25502902269363403 0.17829453945159912
0.6279069185256958 -0.1384807527065277 0.17829453945159912
0.6279069185256958 -0.05423731729388237 0.19379842281341553
0.6434108018875122 -0.46659374237060547 0.19379842281341553
0.6434108018875122 -0.46884340047836304 0.20930230617523193
0.6434108018875122 -0.3792598247528076 0.17829453945159912
0.6434108018875122 -0.36926278471946716 0.20930230617523193
0.6434108018875122 -0.32839468121528625 0.17829453945159912
0.6434108018875122 -0.24347451329231262 0.17829453945159912
0.6434108018875122 -0.15361839532852173 0.17829453945159912
0.6434108018875122 -0.054032035171985626 0.19379842281341553
0.6589146852493286 -0.4752063453197479 0.20930230617523193
0.6589146852493286 -0.46038174629211426 0.19379842281341553
0.6589146852493286 -0.36628979444503784 0.17829453945159912
0.6589146852493286 -0.3438390791416168 0.17829453945159912
0.6589146852493286 -0.344468891620636 0.20930230617523193
0.6589146852493286 -0.23273786902427673 0.17829453945159912
0.6589146852493286 -0.1642284095287323 0.17829453945159912
0.6589146852493286 -0.05395300313830376 0.19379842281341553
0.674418568611145 -0.4790724515914917 0.20930230617523193
0.674418568611145 -0.45603832602500916 0.19379842281341553
0.674418568611145 -0.32132336497306824 0.20930230617523193
0.674418568611145 -0.21662543714046478 0.17829453945159912
0.674418568611145 -0.1877635419368744 0.17829453945159912
0.674418568611145 -0.05398085340857506 0.19379842281341553
0.6899224519729614 -0.4890495538711548 0.20930230617523193
0.6899224519729614 -0.45547688007354736 0.19379842281341553
0.6899224519729614 -0.3504887819290161 0.17829453945159912
0.6899224519729614 -0.3483179211616516 0.17829453945159912
0.6899224519729614 -0.30326467752456665 0.20930230617523193
0.6899225115776062 -0.22327888011932373 0.17829455435276031
0.6899224519729614 -0.1919783502817154 0.17829453945159912
0.6899224519729614 -0.05417049676179886 0.19379842281341553
0.7054263353347778 -0.49311143159866333 0.20930230617523193
0.7054263353347778 -0.45963579416275024 0.19379842281341553
0.7054263353347778 -0.3695283532142639 0.17829453945159912
0.7054263353347778 -0.3309115767478943 0.17829453945159912
0.7054263353347778 -0.29050326347351074 0.20930230617523193
0.7054263353347778 -0.2359246015548706 0.17829453945159912
0.7054263353347778 -0.1921045184135437 0.17829455435276031
0.7054263353347778 -0.0540173165500164 0.19379842281341553
0.7209302186965942 -0.5055816173553467 0.20930230617523193
0.7209302186965942 -0.4664207696914673 0.19379842281341553
0.7209302186965942 -0.3774108588695526 0.17829455435276031
0.7209302186965942 -0.3156871795654297 0.17829453945159912
0.7209302186965942 -0.28102466464042664 0.20930230617523193
0.7209302186965942 -0.24762699007987976 0.17829453945159912
0.7209302186965942 -0.19483502209186554 0.17829453945159912
0.7209302186965942 -0.05362388491630554 0.19379842281341553
0.7364341020584106 -0.5108874440193176 0.20930230617523193
0.7364341020584106 -0.473470002412796 0.19379842281341553
0.7364341020584106 -0.38204795122146606 0.17829453945159912
0.7364341020584106 -0.3049212098121643 0.17829453945159912
0.7364341020584106 -0.2740553319454193 0.20930230617523193
0.7364341020584106 -0.25866129994392395 0.17829453945159912
0.7364341020584106 -0.19957131147384644 0.17829453945159912
0.7364341020584106 -0.05330416560173035 0.19379842281341553
0.751937985420227 -0.5210352540016174 0.20930230617523193
0.751937985420227 -0.474211722612381 0.19379842281341553
0.751937985420227 -0.37904420495033264 0.17829453945159912
0.751937985420227 -0.3094003200531006 0.17829453945159912
0.751937985420227 -0.26994553208351135 0.20930230617523193
0.7519379258155823 -0.05308760702610016 0.19379842281341553
0.7674418687820435 -0.5269661545753479 0.20930230617523193
0.7674418687820435 -0.4734955430030823 0.19379842281341553
0.7674418687820435 -0.36864838004112244 0.17829453945159912
0.7674418687820435 -0.3260910212993622 0.17829453945159912
0.7674418687820435 -0.26483362913131714 0.20930230617523193
0.7674418687820435 -0.05302787944674492 0.19379842281341553
0.7829458117485046 -0.5466513633728027 0.20930232107639313
0.7829457521438599 -0.47248387336730957 0.19379842281341553
0.7829457521438599 -0.256435364484787 0.20930230617523193
0.7829457521438599 -0.05330557003617287 0.19379842281341553
0.7984496355056763 -0.6041020154953003 0.19379842281341553
0.7984496355056763 -0.5815487504005432 0.20930230617523193
0.7984496355056763 -0.53760826587677 0.19379842281341553
0.7984496355056763 -0.4712105691432953 0.19379842281341553
0.7984496355056763 -0.25231167674064636 0.20930230617523193
0.7984496355056763 -0.05417848005890846 0.19379842281341553
0.8139535188674927 -0.6173413395881653 0.19379842281341553
0.8139535188674927 -0.5861399173736572 0.20930230617523193
0.8139535188674927 -0.5290213823318481 0.19379842281341553
0.8139535188674927 -0.46781492233276367 0.19379842281341553
0.8139535188674927 -0.2529517412185669 0.20930230617523193
0.8139535188674927 -0.06125203147530556 0.19379842281341553
0.8294574022293091 -0.6217479705810547 0.19379842281341553
0.8294574022293091 -0.5824003219604492 0.20930230617523193
0.8294574022293091 -0.525858998298645 0.19379842281341553
0.8294574022293091 -0.46133437752723694 0.19379842281341553
0.8294574022293091 -0.2594146430492401 0.20930230617523193
0.8294574022293091 -0.06647619605064392 0.19379842281341553
0.8449612855911255 -0.624126136302948 0.19379842281341553
0.8449612855911255 -0.5685010552406311 0.20930230617523193
0.8449612855911255 -0.5238252878189087 0.19379842281341553
0.8449612855911255 -0.4517272114753723 0.19379842281341553
0.8449612855911255 -0.2714686691761017 0.20930230617523193
0.8449612855911255 -0.07698013633489609 0.19379842281341553
0.8604651689529419 -0.6255850791931152 0.19379842281341553
0.8604652285575867 -0.5493797659873962 0.20930232107639313
0.8604651689529419 -0.5177552700042725 0.19379842281341553
0.8604651689529419 -0.4448992609977722 0.19379842281341553
0.8604651689529419 -0.29232877492904663 0.20930230617523193
0.8604651689529419 -0.0945950523018837 0.19379842281341553
0.8759689331054688 -0.6245203614234924 0.19379843771457672
0.8759689331054688 -0.5266906023025513 0.20930230617523193
0.8759689331054688 -0.5076709985733032 0.19379842281341553
0.8759689331054688 -0.4438154101371765 0.19379842281341553
0.8759689331054688 -0.3164432644844055 0.20930229127407074
0.8759689331054688 -0.12405271828174591 0.19379842281341553
0.8914728164672852 -0.6230388879776001 0.19379842281341553
0.8914728164672852 -0.5085358619689941 0.20930230617523193
0.8914728164672852 -0.4911240339279175 0.19379842281341553
0.8914728164672852 -0.45219409465789795 0.19379842281341553
0.8914728164672852 -0.3374764323234558 0.20930230617523193
0.8914728164672852 -0.14645542204380035 0.19379842281341553
0.9069766998291016 -0.6219877004623413 0.19379842281341553
0.9069766998291016 -0.4811152219772339 0.20930230617523193
0.9069766998291016 -0.36067381501197815 0.20930230617523193
0.9069766998291016 -0.17441830039024353 0.19379842281341553
0.922480583190918 -0.6222888231277466 0.19379842281341553
0.922480583190918 -0.2448039948940277 0.19379842281341553
0.9379844665527344 -0.6212872862815857 0.19379842281341553
0.9379844665527344 -0.364348441362381 0.19379842281341553
0.9534883499145508 -0.6114067435264587 0.19379842281341553
0.9534883499145508 -0.40945953130722046 0.19379842281341553
0.9689922332763672 -0.5860661268234253 0.19379842281341553
0.9689922332763672 -0.43934643268585205 0.19379843771457672
0.9844961166381836 -0.542507529258728 0.19379842281341553
0.9844961762428284 -0.46958127617836 0.19379842281341553
-0.9844961166381836 -0.5348837375640869 0.19274379312992096
-0.9844961166381836 -0.5348837375640869 0.19489622116088867
-0.9844961166381836 -0.5193798542022705 0.19222034513950348
-0.9844961166381836 -0.5193798542022705 0.19557425379753113
-0.9844961166381836 -0.5038759708404541 0.192339688539505
-0.9844960570335388 -0.5038759708404541 0.19564223289489746
-0.9844961166381836 -0.4883720874786377 0.19289492070674896
-0.9844960570335388 -0.4883720874786377 0.19511288404464722
-0.9689922332763672 -0.5658915042877197 0.19269625842571259
-0.9689922332763672 -0.565891444683075 0.19497570395469666
-0.9689922332763672 -0.5503876209259033 0.19186192750930786
-0.9689921736717224 -0.5503876209259033 0.19595903158187866
-0.9689922332763672 -0.5348837375640869 0.19180653989315033
-0.9689922332763672 -0.5348837375640869 0.1961480975151062
-0.9689922332763672 -0.5193798542022705 0.19200262427330017
-0.9689922332763672 -0.5193798542022705 0.19615620374679565
-0.9689922332763672 -0.5038759708404541 0.19200772047042847
-0.9689922332763672 -0.5038759708404541 0.19659462571144104
-0.9689922332763672 -0.4883720874786377 0.1919131577014923
-0.9689922332763672 -0.4883720874786377 0.1972341388463974
-0.9689922332763672 -0.4728682041168213 0.19180160760879517
-0.9689921736717224 -0.4728682041168213 0.1975303739309311
-0.9689922332763672 -0.4573643207550049 0.19218885898590088
-0.9689922332763672 -0.4573643207550049 0.19677762687206268
-0.9534883499145508 -0.5968992114067078 0.19372817873954773
-0.9534883499145508 -0.5968992114067078 0.1938706934452057
-0.9534883499145508 -0.5813953876495361 0.19205902516841888
-0.9534883499145508 -0.5813953876495361 0.19570256769657135
-0.9534883499145508 -0.5658915042877197 0.19196850061416626
-0.9534883499145508 -0.5658915042877197 0.19592438638210297
-0.9534883499145508 -0.5503876209259033 0.19205068051815033
-0.9534883499145508 -0.5503876209259033 0.19596710801124573
-0.9534883499145508 -0.5348837375640869 0.19209229946136475
-0.9534883499145508 -0.5348837375640869 0.19608353078365326
-0.9534883499145508 -0.5193798542022705 0.19207626581192017
-0.9534883499145508 -0.5193798542022705 0.19643792510032654
-0.9534883499145508 -0.5038759708404541 0.1919909566640854
-0.9534883499145508 -0.5038759708404541 0.19721858203411102
-0.9534883499145508 -0.4883720874786377 0.19194041192531586
-0.9534883499145508 -0.4883720874786377 0.1980920284986496
-0.9534883499145508 -0.4728682041168213 0.19193337857723236
-0.9534883499145508 -0.4728682041168213 0.19842106103897095
-0.9534883499145508 -0.4573643207550049 0.19191451370716095
-0.9534883499145508 -0.4573643207550049 0.19848012924194336
-0.9534883499145508 -0.4418604373931885 0.1919896900653839
-0.9534883499145508 -0.4418604373931885 0.19825434684753418
-0.9534883499145508 -0.42635661363601685 0.19252324104309082
-0.9534883499145508 -0.42635661363601685 0.19688963890075684
-0.9379844665527344 -0.5968992114067078 0.19207048416137695
-0.9379844665527344 -0.5968992114067078 0.19572137296199799
-0.9379844665527344 -0.5813953876495361 0.19198113679885864
-0.9379844665527344 -0.5813953876495361 0.196006640791893
-0.9379844665527344 -0.5658915042877197 0.1919768750667572
-0.9379844665527344 -0.5658915042877197 0.19617076218128204
-0.9379844665527344 -0.5503876209259033 0.19193780422210693
-0.9379844665527344 -0.5503876209259033 0.1964108943939209
-0.9379844665527344 -0.5348837375640869 0.19187217950820923
-0.9379844665527344 -0.5348837375640869 0.19678746163845062
-0.9379844665527344 -0.5193798542022705 0.19179701805114746
-0.9379844665527344 -0.5193798542022705 0.19751721620559692
-0.9379844665527344 -0.5038759708404541 0.191761776804924
-0.9379844665527344 -0.5038759708404541 0.19865435361862183
-0.9379844665527344 -0.4883720874786377 0.19183292984962463
-0.9379844665527344 -0.4883720874786377 0.1997678279876709
-0.9379844665527344 -0.4728682041168213 0.19189995527267456
-0.9379844665527344 -0.4728682041168213 0.20034238696098328
-0.9379844665527344 -0.4573643207550049 0.19184179604053497
-0.9379844665527344 -0.4573643207550049 0.20091137290000916
-0.9379844665527344 -0.4418604373931885 0.1918545514345169
-0.9379844665527344 -0.4418604373931885 0.20140984654426575
-0.9379844665527344 -0.42635661363601685 0.1919034868478775
-0.9379844665527344 -0.42635661363601685 0.20112860202789307
-0.9379844665527344 -0.41085273027420044 0.19189085066318512
-0.9379844665527344 -0.41085273027420044 0.2008337378501892
-0.9379844665527344 -0.39534884691238403 0.19209396839141846
-0.9379844665527344 -0.39534884691238403 0.20045265555381775
-0.9379844665527344 -0.3798449635505676 0.19299793243408203
-0.9379844665527344 -0.3798449635505676 0.19740404188632965
-0.9224806427955627 -0.6124030947685242 0.19371537864208221
-0.9224806427955627 -0.6124030947685242 0.1938869059085846
-0.9224806427955627 -0.5968992114067078 0.1920405924320221
-0.9224807024002075 -0.5968992114067078 0.1958606094121933
-0.9224806427955627 -0.5813953876495361 0.19189199805259705
-0.9224806427955627 -0.5813953876495361 0.19628895819187164
-0.9224806427955627 -0.5658915042877197 0.19184544682502747
-0.9224807024002075 -0.5658915042877197 0.1966121941804886
-0.9224806427955627 -0.5503876209259033 0.19176599383354187
-0.9224806427955627 -0.5503876209259033 0.19705957174301147
-0.9224806427955627 -0.5348837375640869 0.19167469441890717
-0.9224806427955627 -0.5348837375640869 0.1977144181728363
-0.9224807024002075 -0.5193798542022705 0.1916474550962448
-0.9224806427955627 -0.5193798542022705 0.19879107177257538
-0.9224807024002075 -0.5038759708404541 0.19178351759910583
-0.9224806427955627 -0.5038759708404541 0.2003985345363617
-0.9224806427955627 -0.4883720874786377 0.19214420020580292
-0.9224806427955627 -0.4883720874786377 0.20191630721092224
-0.9224806427955627 -0.4728682041168213 0.19240467250347137
-0.922480583190918 -0.4728682041168213 0.20272955298423767
-0.9224806427955627 -0.4573643207550049 0.19233685731887817
-0.9224806427955627 -0.4573643207550049 0.20393623411655426
-0.9224806427955627 -0.4418604373931885 0.19221843779087067
-0.9224806427955627 -0.4418604373931885 0.20599757134914398
-0.9224806427955627 -0.42635661363601685 0.19205467402935028
-0.9224806427955627 -0.42635661363601685 0.20732662081718445
-0.9224806427955627 -0.41085273027420044 0.19196444749832153
-0.9224806427955627 -0.41085273027420044 0.20820876955986023
-0.9224806427955627 -0.39534884691238403 0.19198785722255707
-0.9224806427955627 -0.39534884691238403 0.20881494879722595
-0.9224806427955627 -0.3798449635505676 0.19189268350601196
-0.9224807024002075 -0.3798449635505676 0.20721986889839172
-0.9224806427955627 -0.3643410801887512 0.19172033667564392
-0.9224806427955627 -0.3643410801887512 0.20551662147045135
-0.9224806427955627 -0.3488371968269348 0.19180411100387573
-0.9224806427955627 -0.3488371968269348 0.20309242606163025
-0.9224806427955627 -0.3333333134651184 0.19205817580223083
-0.922480583190918 -0.3333333134651184 0.20011460781097412
-0.9224806427955627 -0.317829430103302 0.19239331781864166
-0.922480583190918 -0.317829430103302 0.19801056385040283
-0.9224806427955627 -0.30232560634613037 0.19279639422893524
-0.9224806427955627 -0.30232560634613037 0.19629929959774017
-0.9224806427955627 -0.28682172298431396 0.19319413602352142
-0.9224806427955627 -0.28682172298431396 0.1950312852859497
-0.9224806427955627 -0.27131783962249756 0.19368036091327667
-0.922480583190918 -0.27131780982017517 0.19400423765182495
-0.9069767594337463 -0.5968992114067078 0.19201642274856567
-0.9069768190383911 -0.5968992114067078 0.19596053659915924
-0.9069767594337463 -0.5813953876495361 0.19181308150291443
-0.9069767594337463 -0.5813953876495361 0.19659456610679626
-0.9069767594337463 -0.5658915042877197 0.19177046418190002
-0.9069768190383911 -0.5658915042877197 0.19707733392715454
-0.9069767594337463 -0.5503876209259033 0.19170916080474854
-0.9069767594337463 -0.5503876209259033 0.19773855805397034
-0.9069767594337463 -0.5348837375640869 0.1916932761669159
-0.9069767594337463 -0.5348837375640869 0.19856779277324677
-0.9069767594337463 -0.5193798542022705 0.19183973968029022
-0.9069767594337463 -0.5193798542022705 0.19992125034332275
-0.9069767594337463 -0.5038759708404541 0.19220905005931854
-0.9069767594337463 -0.5038759708404541 0.20206612348556519
-0.9069767594337463 -0.4883720874786377 0.19282983243465424
-0.9069767594337463 -0.4883720874786377 0.20463451743125916
-0.9069767594337463 -0.4728682041168213 0.19323700666427612
-0.9069767594337463 -0.4728682041168213 0.20907443761825562
-0.9069767594337463 -0.4573643207550049 0.1931549608707428
-0.9069767594337463 -0.4573643207550049 0.20949091017246246
-0.9069767594337463 -0.4418604373931885 0.19295130670070648
-0.9069767594337463 -0.4418604373931885 0.20973125100135803
-0.9069767594337463 -0.42635661363601685 0.1925746500492096
-0.9069768190383911 -0.42635664343833923 0.20988565683364868
-0.9069767594337463 -0.41085273027420044 0.19229842722415924
-0.9069766998291016 -0.41085273027420044 0.2099950909614563
-0.9069767594337463 -0.39534884691238403 0.1921902298927307
-0.9069767594337463 -0.39534884691238403 0.21006479859352112
-0.9069767594337463 -0.3798449635505676 0.19201602041721344
-0.9069767594337463 -0.3798449635505676 0.20997902750968933
-0.9069767594337463 -0.3643410801887512 0.19180718064308167
-0.9069768190383911 -0.3643411099910736 0.20977403223514557
-0.9069767594337463 -0.3488371968269348 0.19165468215942383
-0.9069767594337463 -0.3488371968269348 0.20896491408348083
-0.9069766998291016 -0.3333333134651184 0.19160929322242737
-0.9069767594337463 -0.3333333134651184 0.20478209853172302
-0.9069766998291016 -0.317829430103302 0.1916075199842453
-0.9069767594337463 -0.317829430103302 0.20237784087657928
-0.9069766998291016 -0.30232560634613037 0.19162608683109283
-0.9069767594337463 -0.30232560634613037 0.20078644156455994
-0.9069767594337463 -0.28682172298431396 0.19171500205993652
-0.9069767594337463 -0.28682172298431396 0.19924572110176086
-0.9069767594337463 -0.27131783962249756 0.19186674058437347
-0.9069767594337463 -0.27131783962249756 0.19806432723999023
-0.9069767594337463 -0.25581395626068115 0.19198483228683472
-0.9069766998291016 -0.25581395626068115 0.19720102846622467
-0.9069767594337463 -0.24031007289886475 0.19203616678714752
-0.9069767594337463 -0.24031007289886475 0.19668155908584595
-0.9069767594337463 -0.22480618953704834 0.19218020141124725
-0.9069767594337463 -0.22480620443820953 0.19628755748271942
-0.9069767594337463 -0.20930230617523193 0.1927747130393982
-0.9069767594337463 -0.20930230617523193 0.19531428813934326
-0.8914728760719299 -0.5968992114067078 0.19193366169929504
-0.8914728760719299 -0.5968992114067078 0.19616439938545227
-0.8914729356765747 -0.5813953876495361 0.19173140823841095
-0.8914729356765747 -0.5813953876495361 0.19695648550987244
-0.8914728760719299 -0.5658915042877197 0.191703200340271
-0.8914728760719299 -0.5658915042877197 0.19763778150081635
-0.8914728760719299 -0.5503876209259033 0.1917048543691635
-0.8914728760719299 -0.5503876209259033 0.1984926015138626
-0.8914728164672852 -0.5348837375640869 0.19195283949375153
-0.8914729356765747 -0.5348837375640869 0.19922885298728943
-0.8914728760719299 -0.5193798542022705 0.19244427978992462
-0.8914729356765747 -0.5193798542022705 0.2003711611032486
-0.8914728760719299 -0.5038759708404541 0.19308048486709595
-0.8914728760719299 -0.5038759708404541 0.20272335410118103
-0.8914728164672852 -0.4883720874786377 0.1972396969795227
-0.8914728760719299 -0.4883720874786377 0.2096354216337204
-0.8914728760719299 -0.4728682041168213 0.2000437080860138
-0.8914728760719299 -0.4728682041168213 0.21001996099948883
-0.8914729356765747 -0.4573643207550049 0.19682103395462036
-0.8914728760719299 -0.4573643207550049 0.2101307064294815
-0.8914728760719299 -0.4418604373931885 0.1936328113079071
-0.8914728760719299 -0.4418604373931885 0.21027444303035736
-0.8914728760719299 -0.42635661363601685 0.19306021928787231
-0.8914728760719299 -0.42635658383369446 0.21037015318870544
-0.8914728760719299 -0.41085273027420044 0.1926284283399582
-0.8914728760719299 -0.4108527600765228 0.2104427069425583
-0.8914728760719299 -0.39534884691238403 0.1923961341381073
-0.8914728760719299 -0.39534884691238403 0.21047884225845337
-0.8914729356765747 -0.3798449635505676 0.1920531839132309
-0.8914728164672852 -0.37984493374824524 0.21037957072257996
-0.8914728760719299 -0.3643410801887512 0.19174188375473022
-0.8914728760719299 -0.3643410801887512 0.21016572415828705
-0.8914728164672852 -0.3488371968269348 0.19159802794456482
-0.8914728164672852 -0.3488371670246124 0.20975656807422638
-0.8914729356765747 -0.3333333134651184 0.19162437319755554
-0.8914728760719299 -0.3333333134651184 0.2086714208126068
-0.8914728760719299 -0.317829430103302 0.1917244791984558
-0.8914728760719299 -0.317829430103302 0.2055293172597885
-0.8914729356765747 -0.30232560634613037 0.1917698234319687
-0.8914728164672852 -0.30232560634613037 0.20288985967636108
-0.8914728760719299 -0.28682172298431396 0.19168955087661743
-0.8914728760719299 -0.28682172298431396 0.20092862844467163
-0.8914728760719299 -0.27131783962249756 0.1916838139295578
-0.8914728760719299 -0.27131783962249756 0.19968809187412262
-0.8914728164672852 -0.25581395626068115 0.19179174304008484
-0.8914729356765747 -0.25581395626068115 0.19849170744419098
-0.8914728760719299 -0.24031007289886475 0.1918676197528839
-0.8914728164672852 -0.24031007289886475 0.19762836396694183
-0.8914728760719299 -0.22480618953704834 0.1919013261795044
-0.8914728760719299 -0.22480618953704834 0.19722415506839752
-0.8914728760719299 -0.20930230617523193 0.19195078313350677
-0.8914728760719299 -0.20930230617523193 0.19687378406524658
-0.8914728760719299 -0.19379842281341553 0.1920062005519867
-0.8914728760719299 -0.19379842281341553 0.19666314125061035
-0.8914728760719299 -0.1782945990562439 0.19241613149642944
-0.8914729356765747 -0.1782945990562439 0.19594848155975342
-0.8759689927101135 -0.5968992114067078 0.1918048858642578
-0.8759690523147583 -0.5968992114067078 0.19645938277244568
-0.8759689331054688 -0.5813953876495361 0.1916733831167221
-0.8759689927101135 -0.5813953876495361 0.1973709613084793
-0.8759689927101135 -0.5658915042877197 0.19165439903736115
-0.8759689927101135 -0.5658915042877197 0.19835329055786133
-0.8759689927101135 -0.5503876209259033 0.19171446561813354
-0.8759689927101135 -0.5503876209259033 0.1997097283601761
-0.8759689927101135 -0.5348837375640869 0.1922345608472824
-0.8759689331054688 -0.5348837375640869 0.20069009065628052
-0.8759689927101135 -0.5193798542022705 0.193267822265625
-0.8759689927101135 -0.5193798542022705 0.2006312906742096
-0.8759689927101135 -0.5038759708404541 0.20334315299987793
-0.8759689927101135 -0.5038759708404541 0.2096853256225586
-0.8759690523147583 -0.4883720874786377 0.20273327827453613
-0.8759689927101135 -0.4883720874786377 0.210388645529747
-0.8759689927101135 -0.4728682041168213 0.2019897997379303
-0.8759689927101135 -0.4728682041168213 0.21067072451114655
-0.8759689927101135 -0.4573643207550049 0.19985702633857727
-0.8759689927101135 -0.4573643207550049 0.2107284516096115
-0.8759689331054688 -0.4418604373931885 0.19617865979671478
-0.8759689927101135 -0.4418604373931885 0.21083807945251465
-0.8759689927101135 -0.42635661363601685 0.19332365691661835
-0.8759689331054688 -0.42635658383369446 0.21092739701271057
-0.8759689927101135 -0.41085273027420044 0.19277511537075043
-0.8759689927101135 -0.41085273027420044 0.2110002040863037
-0.8759689927101135 -0.39534884691238403 0.19245529174804688
-0.8759689927101135 -0.39534884691238403 0.21103836596012115
-0.8759689927101135 -0.3798449635505676 0.1919940710067749
-0.8759689927101135 -0.37984493374824524 0.2109576016664505
-0.8759689927101135 -0.3643410801887512 0.19160717725753784
-0.8759689927101135 -0.3643410801887512 0.21074819564819336
-0.8759689927101135 -0.3488371968269348 0.19146502017974854
-0.8759690523147583 -0.3488372266292572 0.21035194396972656
-0.8759689927101135 -0.3333333134651184 0.1915527582168579
-0.8759689927101135 -0.3333333134651184 0.20985329151153564
-0.8759689927101135 -0.317829430103302 0.19173714518547058
-0.8759690523147583 -0.317829430103302 0.20935489237308502
-0.8759690523147583 -0.30232560634613037 0.19187775254249573
-0.8759689927101135 -0.30232560634613037 0.20623791217803955
-0.8759689927101135 -0.28682172298431396 0.19182467460632324
-0.8759690523147583 -0.28682172298431396 0.20343855023384094
-0.8759689927101135 -0.27131783962249756 0.19166728854179382
-0.8759689927101135 -0.27131783962249756 0.2016109824180603
-0.8759689927101135 -0.25581395626068115 0.19151520729064941
-0.8759690523147583 -0.25581395626068115 0.20034939050674438
-0.8759689927101135 -0.24031007289886475 0.19152361154556274
-0.8759689927101135 -0.24031007289886475 0.19920754432678223
-0.8759689927101135 -0.22480618953704834 0.19153134524822235
-0.8759689927101135 -0.22480618953704834 0.19864332675933838
-0.8759689927101135 -0.20930230617523193 0.19166040420532227
-0.8759689927101135 -0.20930230617523193 0.19794854521751404
-0.8759689927101135 -0.19379842281341553 0.19174514710903168
-0.8759689927101135 -0.19379842281341553 0.19753509759902954
-0.8759689927101135 -0.1782945990562439 0.19181674718856812
-0.8759689331054688 -0.1782945990562439 0.1972721517086029
-0.8759689927101135 -0.1627907156944275 0.19213633239269257
-0.8759689331054688 -0.1627907156944275 0.1965724229812622
-0.8759689927101135 -0.14728683233261108 0.19331935048103333
-0.8759689331054688 -0.14728683233261108 0.19455742835998535
-0.8604651093482971 -0.5968992114067078 0.1917213797569275
-0.8604651093482971 -0.5968992114067078 0.19670790433883667
-0.8604651093482971 -0.5813953876495361 0.19163842499256134
-0.8604651093482971 -0.5813953876495361 0.1978760063648224
-0.8604651093482971 -0.5658915042877197 0.1916155070066452
-0.8604650497436523 -0.5658915042877197 0.19948288798332214
-0.8604651093482971 -0.5503876209259033 0.1917390525341034
-0.8604651093482971 -0.5503876209259033 0.2018212378025055
-0.8604651689529419 -0.5348837375640869 0.19250765442848206
-0.8604650497436523 -0.5348837375640869 0.2040446400642395
-0.8604651689529419 -0.5193798542022705 0.20059458911418915
-0.8604651093482971 -0.5193798542022705 0.2097119688987732
-0.8604651093482971 -0.5038759708404541 0.2031337022781372
-0.8604651093482971 -0.5038759708404541 0.21055537462234497
-0.8604651689529419 -0.4883720874786377 0.20303326845169067
-0.8604651093482971 -0.4883720576763153 0.21102802455425262
-0.8604651093482971 -0.4728682041168213 0.20204465091228485
-0.8604651093482971 -0.4728682339191437 0.2111932337284088
-0.8604651093482971 -0.4573643207550049 0.1995873749256134
-0.8604651093482971 -0.4573643207550049 0.2112593650817871
-0.8604651093482971 -0.4418604373931885 0.19561679661273956
-0.8604651093482971 -0.44186046719551086 0.21141210198402405
-0.8604651093482971 -0.42635661363601685 0.1932641714811325
-0.8604651093482971 -0.42635661363601685 0.21154847741127014
-0.8604651093482971 -0.41085273027420044 0.19266702234745026
-0.8604650497436523 -0.41085273027420044 0.21165040135383606
-0.8604651093482971 -0.39534884691238403 0.19230255484580994
-0.8604651093482971 -0.3953488767147064 0.21168729662895203
-0.8604651093482971 -0.3798449635505676 0.1917663812637329
-0.8604651093482971 -0.3798449635505676 0.21162143349647522
-0.8604651093482971 -0.3643410801887512 0.1912923902273178
-0.8604651093482971 -0.3643410801887512 0.2114158719778061
-0.8604651689529419 -0.3488371968269348 0.19113749265670776
-0.8604651093482971 -0.3488371968269348 0.2110278606414795
-0.8604651689529419 -0.3333333134651184 0.19128388166427612
-0.8604651093482971 -0.3333333134651184 0.21052995324134827
-0.8604651093482971 -0.317829430103302 0.19155602157115936
-0.8604651093482971 -0.317829430103302 0.21005192399024963
-0.8604651689529419 -0.30232560634613037 0.1917915642261505
-0.8604650497436523 -0.30232560634613037 0.20958532392978668
-0.8604651093482971 -0.28682172298431396 0.19181089103221893
-0.8604651093482971 -0.28682172298431396 0.20760446786880493
-0.8604651093482971 -0.27131783962249756 0.19169417023658752
-0.8604651093482971 -0.27131783962249756 0.20469307899475098
-0.8604651093482971 -0.25581395626068115 0.19149641692638397
-0.8604651093482971 -0.25581395626068115 0.20216773450374603
-0.8604651689529419 -0.24031007289886475 0.19127000868320465
-0.8604650497436523 -0.24031007289886475 0.20077647268772125
-0.8604651093482971 -0.22480618953704834 0.19114899635314941
-0.8604651093482971 -0.22480618953704834 0.20009179413318634
-0.8604651689529419 -0.20930230617523193 0.1912059783935547
-0.8604651093482971 -0.20930230617523193 0.19927948713302612
-0.8604651689529419 -0.19379842281341553 0.191427543759346
-0.8604651093482971 -0.19379842281341553 0.19848649203777313
-0.8604651093482971 -0.1782945990562439 0.19153422117233276
-0.8604650497436523 -0.1782945990562439 0.1981433629989624
-0.8604651093482971 -0.1627907156944275 0.19165503978729248
-0.8604651689529419 -0.1627907156944275 0.19784075021743774
-0.8604651093482971 -0.14728683233261108 0.19214516878128052
-0.8604651093482971 -0.14728683233261108 0.1968216598033905
-0.8604651093482971 -0.13178294897079468 0.1928679496049881
-0.8604650497436523 -0.13178294897079468 0.19541117548942566
-0.8449612259864807 -0.5968992114067078 0.1916557401418686
-0.8449611663818359 -0.5968992114067078 0.19715146720409393
-0.8449612259864807 -0.5813953876495361 0.19156964123249054
-0.8449611663818359 -0.5813953876495361 0.19887250661849976
-0.8449612855911255 -0.5658915042877197 0.19156040251255035
-0.8449612855911255 -0.5658915042877197 0.201500803232193
-0.8449612259864807 -0.5503876209259033 0.19183367490768433
-0.8449612259864807 -0.5503876209259033 0.20515193045139313
-0.8449612259864807 -0.5348837375640869 0.19297082722187042
-0.8449612259864807 -0.5348837375640869 0.2097267359495163
-0.8449612259864807 -0.5193798542022705 0.20178911089897156
-0.8449612259864807 -0.5193798542022705 0.2106543928384781
-0.8449611663818359 -0.5038759708404541 0.20347967743873596
-0.8449611663818359 -0.5038759708404541 0.2111809253692627
-0.8449612855911255 -0.4883720874786377 0.2032502442598343
-0.8449612259864807 -0.4883720874786377 0.21142324805259705
-0.8449612259864807 -0.4728682041168213 0.2016456425189972
-0.8449611663818359 -0.4728682041168213 0.2115309089422226
-0.8449612259864807 -0.4573643207550049 0.19790837168693542
-0.8449612259864807 -0.4573643207550049 0.21166779100894928
-0.8449612259864807 -0.4418604373931885 0.19353584945201874
-0.8449612259864807 -0.4418604373931885 0.21193848550319672
-0.8449612259864807 -0.42635661363601685 0.19279544055461884
-0.8449612259864807 -0.42635661363601685 0.21218369901180267
-0.8449612259864807 -0.41085273027420044 0.19221651554107666
-0.8449612259864807 -0.41085273027420044 0.21235916018486023
-0.8449612855911255 -0.39534884691238403 0.19189879298210144
-0.8449612855911255 -0.39534884691238403 0.212396502494812
-0.8449612259864807 -0.3798449635505676 0.19140122830867767
-0.8449612259864807 -0.3798449635505676 0.21230703592300415
-0.8449611663818359 -0.3643410801887512 0.19088561832904816
-0.8449612259864807 -0.36434105038642883 0.21206510066986084
-0.8449612259864807 -0.3488371968269348 0.19070899486541748
-0.8449612259864807 -0.3488371968269348 0.21164746582508087
-0.8449612259864807 -0.3333333134651184 0.19089077413082123
-0.8449611663818359 -0.333333283662796 0.21113698184490204
-0.8449612259864807 -0.317829430103302 0.19119559228420258
-0.8449612259864807 -0.317829430103302 0.21066728234291077
-0.8449612259864807 -0.30232560634613037 0.1914643943309784
-0.8449612259864807 -0.30232563614845276 0.21023432910442352
-0.8449612259864807 -0.28682172298431396 0.19154022634029388
-0.8449612855911255 -0.28682172298431396 0.20975539088249207
-0.8449612259864807 -0.27131783962249756 0.19147157669067383
-0.8449612259864807 -0.27131783962249756 0.20843303203582764
-0.8449612259864807 -0.25581395626068115 0.19136734306812286
-0.8449612259864807 -0.25581395626068115 0.20461821556091309
-0.8449612259864807 -0.24031007289886475 0.19118165969848633
-0.8449612259864807 -0.24031007289886475 0.20198598504066467
-0.8449612259864807 -0.22480618953704834 0.19098354876041412
-0.8449611663818359 -0.22480618953704834 0.20107576251029968
-0.8449612855911255 -0.20930230617523193 0.19106809794902802
-0.8449612855911255 -0.20930230617523193 0.20002898573875427
-0.8449612259864807 -0.19379842281341553 0.1913270801305771
-0.8449612259864807 -0.19379842281341553 0.19904565811157227
-0.8449612259864807 -0.1782945990562439 0.19146595895290375
-0.8449612259864807 -0.1782945990562439 0.19857442378997803
-0.8449612259864807 -0.1627907156944275 0.1914568692445755
-0.8449611663818359 -0.1627907156944275 0.19853082299232483
-0.8449612259864807 -0.14728683233261108 0.19161683320999146
-0.8449612259864807 -0.14728683233261108 0.19825395941734314
-0.8449612259864807 -0.13178294897079468 0.19210931658744812
-0.8449612855911255 -0.13178294897079468 0.19726581871509552
-0.8449611663818359 -0.11627906560897827 0.19232651591300964
-0.8449612855911255 -0.11627906560897827 0.19664664566516876
-0.8449612259864807 -0.10077518224716187 0.19251833856105804
-0.8449612855911255 -0.10077518224716187 0.1960468590259552
-0.8449612259864807 -0.08527129888534546 0.19316039979457855
-0.8449611663818359 -0.08527129888534546 0.19483621418476105
-0.8294573426246643 -0.5968992114067078 0.19171127676963806
-0.8294574022293091 -0.5968992114067078 0.197368785738945
-0.8294573426246643 -0.5813953876495361 0.19152754545211792
-0.8294573426246643 -0.5813953876495361 0.19980508089065552
-0.8294573426246643 -0.5658915042877197 0.1915581226348877
-0.8294572830200195 -0.5658915042877197 0.20319992303848267
-0.8294573426246643 -0.5503876209259033 0.19192007184028625
-0.8294573426246643 -0.5503876209259033 0.20824497938156128
-0.8294573426246643 -0.5348837375640869 0.19327513873577118
-0.8294573426246643 -0.5348837375640869 0.21031931042671204
-0.8294573426246643 -0.5193798542022705 0.20175400376319885
-0.8294572830200195 -0.5193798542022705 0.21104983985424042
-0.8294573426246643 -0.5038759708404541 0.20325732231140137
-0.8294573426246643 -0.5038759708404541 0.21139854192733765
-0.8294573426246643 -0.4883720874786377 0.20272278785705566
-0.8294572830200195 -0.4883720874786377 0.21161241829395294
-0.8294574022293091 -0.4728682041168213 0.2002413421869278
-0.8294574022293091 -0.4728682339191437 0.21178942918777466
-0.8294573426246643 -0.4573643207550049 0.19433365762233734
-0.8294573426246643 -0.4573643207550049 0.21202293038368225
-0.8294573426246643 -0.4418604373931885 0.19295597076416016
-0.8294573426246643 -0.4418604373931885 0.21241548657417297
-0.8294573426246643 -0.42635661363601685 0.19224949181079865
-0.8294573426246643 -0.42635661363601685 0.2127658575773239
-0.8294573426246643 -0.41085273027420044 0.19167709350585938
-0.8294573426246643 -0.41085273027420044 0.21299943327903748
-0.8294573426246643 -0.39534884691238403 0.19140943884849548
-0.8294573426246643 -0.39534884691238403 0.2130197286605835
-0.8294574022293091 -0.3798449635505676 0.19098079204559326
-0.8294573426246643 -0.3798449635505676 0.21287164092063904
-0.8294573426246643 -0.3643410801887512 0.1904328167438507
-0.8294572830200195 -0.3643410801887512 0.2125624716281891
-0.8294573426246643 -0.3488371968269348 0.19020278751850128
-0.8294573426246643 -0.3488371968269348 0.21207350492477417
-0.8294573426246643 -0.3333333134651184 0.1904149055480957
-0.8294573426246643 -0.3333333134651184 0.21152254939079285
-0.8294573426246643 -0.317829430103302 0.19076348841190338
-0.8294574022293091 -0.317829430103302 0.21104098856449127
-0.8294573426246643 -0.30232560634613037 0.19107922911643982
-0.8294572830200195 -0.30232560634613037 0.2106161117553711
-0.8294573426246643 -0.28682172298431396 0.1912202686071396
-0.8294573426246643 -0.28682172298431396 0.21016716957092285
-0.8294574022293091 -0.27131783962249756 0.1911967694759369
-0.8294573426246643 -0.27131783962249756 0.20964336395263672
-0.8294573426246643 -0.25581395626068115 0.19114191830158234
-0.8294572830200195 -0.25581395626068115 0.2070913165807724
-0.8294573426246643 -0.24031007289886475 0.19103796780109406
-0.8294572830200195 -0.24031007289886475 0.20376792550086975
-0.8294573426246643 -0.22480618953704834 0.1908666491508484
-0.8294573426246643 -0.22480618953704834 0.20229314267635345
-0.8294573426246643 -0.20930230617523193 0.19083598256111145
-0.8294572830200195 -0.20930230617523193 0.20122402906417847
-0.8294573426246643 -0.19379842281341553 0.19100616872310638
-0.8294573426246643 -0.19379842281341553 0.2002287060022354
-0.8294572830200195 -0.1782945990562439 0.19121518731117249
-0.8294573426246643 -0.1782945990562439 0.19958454370498657
-0.8294573426246643 -0.1627907156944275 0.19136294722557068
-0.8294572830200195 -0.1627907156944275 0.19911403954029083
-0.8294573426246643 -0.14728683233261108 0.19136346876621246
-0.8294574022293091 -0.14728683233261108 0.1990845799446106
-0.8294573426246643 -0.13178294897079468 0.19177661836147308
-0.8294573426246643 -0.13178294897079468 0.19838330149650574
-0.8294573426246643 -0.11627906560897827 0.19197523593902588
-0.8294573426246643 -0.11627906560897827 0.19776403903961182
-0.8294573426246643 -0.10077518224716187 0.1922324001789093
-0.8294573426246643 -0.10077518224716187 0.19674794375896454
-0.8294573426246643 -0.08527129888534546 0.19232791662216187
-0.8294573426246643 -0.08527129888534546 0.19613224267959595
-0.8294573426246643 -0.06976741552352905 0.19331951439380646
-0.8294573426246643 -0.06976742297410965 0.194513738155365
-0.8139535188674927 -0.5968992114067078 0.19359302520751953
-0.8139535188674927 -0.5968992114067078 0.19417177140712738
-0.8139535188674927 -0.5813953876495361 0.19168370962142944
-0.8139535188674927 -0.5813953876495361 0.19958001375198364
-0.8139535188674927 -0.5658915042877197 0.1916615068912506
-0.8139535188674927 -0.5658915042877197 0.20363152027130127
-0.8139535188674927 -0.5503876209259033 0.1921503096818924
-0.8139535188674927 -0.5503875613212585 0.20939373970031738
-0.8139535188674927 -0.5348837375640869 0.19377197325229645
-0.8139535188674927 -0.5348837375640869 0.21052323281764984
-0.8139535188674927 -0.5193798542022705 0.20217782258987427
-0.8139535188674927 -0.5193798542022705 0.21115204691886902
-0.8139535188674927 -0.5038759708404541 0.20313090085983276
-0.8139535188674927 -0.5038759708404541 0.21142499148845673
-0.8139535188674927 -0.4883720874786377 0.20211869478225708
-0.8139535188674927 -0.4883721172809601 0.21168047189712524
-0.8139535188674927 -0.4728682041168213 0.19842663407325745
-0.8139534592628479 -0.4728682041168213 0.21192032098770142
-0.8139535188674927 -0.4573643207550049 0.19335506856441498
-0.8139535188674927 -0.4573643207550049 0.21222177147865295
-0.8139535188674927 -0.4418604373931885 0.1924646943807602
-0.8139535188674927 -0.4418604373931885 0.21269731223583221
-0.8139535188674927 -0.42635661363601685 0.1917445957660675
-0.8139534592628479 -0.42635661363601685 0.21312159299850464
-0.8139535188674927 -0.41085273027420044 0.19112490117549896
-0.8139535188674927 -0.41085273027420044 0.21340197324752808
-0.8139535188674927 -0.39534884691238403 0.19082094728946686
-0.8139535188674927 -0.39534884691238403 0.21339981257915497
-0.8139535188674927 -0.3798449635505676 0.19035284221172333
-0.8139535188674927 -0.3798449635505676 0.21317914128303528
-0.8139535188674927 -0.3643410801887512 0.1897098273038864
-0.8139535188674927 -0.3643410801887512 0.21279208362102509
-0.8139535188674927 -0.3488371968269348 0.1894390732049942
-0.8139535188674927 -0.3488371968269348 0.21225354075431824
-0.8139535188674927 -0.3333333134651184 0.1897483468055725
-0.8139535188674927 -0.3333333134651184 0.2116636037826538
-0.8139535188674927 -0.317829430103302 0.1902461051940918
-0.8139535188674927 -0.317829430103302 0.21115733683109283
-0.8139535188674927 -0.30232560634613037 0.19068677723407745
-0.8139535188674927 -0.30232560634613037 0.21071510016918182
-0.8139535188674927 -0.28682172298431396 0.1909034550189972
-0.8139535188674927 -0.28682172298431396 0.21027891337871552
-0.8139535188674927 -0.27131783962249756 0.1909034252166748
-0.8139534592628479 -0.27131783962249756 0.2098127156496048
-0.8139535188674927 -0.25581395626068115 0.19085025787353516
-0.8139535188674927 -0.25581395626068115 0.20862942934036255
-0.8139535188674927 -0.24031007289886475 0.1907612532377243
-0.8139535188674927 -0.24031007289886475 0.2052742838859558
-0.8139535188674927 -0.22480618953704834 0.19055911898612976
-0.8139535188674927 -0.22480618953704834 0.2036869078874588
-0.8139535188674927 -0.20930230617523193 0.19044294953346252
-0.8139535188674927 -0.20930230617523193 0.2024446725845337
-0.8139535188674927 -0.19379842281341553 0.19057145714759827
-0.8139535188674927 -0.19379842281341553 0.20126411318778992
-0.8139535188674927 -0.1782945990562439 0.19087104499340057
-0.8139535188674927 -0.1782945990562439 0.2004665583372116
-0.8139535188674927 -0.1627907156944275 0.1912035346031189
-0.8139535188674927 -0.1627907156944275 0.19976766407489777
-0.8139535188674927 -0.14728683233261108 0.19132961332798004
-0.8139535188674927 -0.14728683233261108 0.19936008751392365
-0.8139535188674927 -0.13178294897079468 0.19153785705566406
-0.8139534592628479 -0.13178294897079468 0.19903187453746796
-0.8139535188674927 -0.11627906560897827 0.19176673889160156
-0.8139535188674927 -0.11627906560897827 0.1982816457748413
-0.8139535188674927 -0.10077518224716187 0.19214996695518494
-0.8139535188674927 -0.10077518224716187 0.19677972793579102
-0.8139535188674927 -0.08527129888534546 0.19215349853038788
-0.8139535188674927 -0.08527130633592606 0.196182519197464
-0.8139535188674927 -0.06976741552352905 0.19216711819171906
-0.8139535188674927 -0.06976741552352905 0.19598488509655
-0.7984496355056763 -0.5658915042877197 0.192738875746727
-0.7984495759010315 -0.5658915042877197 0.19847336411476135
-0.7984496355056763 -0.5503876209259033 0.1933497190475464
-0.7984496355056763 -0.5503876209259033 0.2005021870136261
-0.7984496355056763 -0.5348837375640869 0.20352953672409058
-0.7984496355056763 -0.5348837375640869 0.21020936965942383
-0.7984496355056763 -0.5193798542022705 0.2035294473171234
-0.7984495759010315 -0.5193798542022705 0.21106043457984924
-0.7984496355056763 -0.5038759708404541 0.20358213782310486
-0.7984496355056763 -0.5038759708404541 0.21133168041706085
-0.7984496355056763 -0.4883720874786377 0.20206999778747559
-0.7984496355056763 -0.4883720874786377 0.2116033434867859
-0.7984496355056763 -0.4728682041168213 0.19713139533996582
-0.7984496355056763 -0.4728682339191437 0.21185874938964844
-0.7984496355056763 -0.4573643207550049 0.1930740922689438
-0.7984496355056763 -0.4573643207550049 0.2121683657169342
-0.7984496355056763 -0.4418604373931885 0.19221612811088562
-0.7984496355056763 -0.4418604373931885 0.21263599395751953
-0.7984496355056763 -0.42635661363601685 0.19150254130363464
-0.7984496355056763 -0.42635661363601685 0.21305766701698303
-0.7984496355056763 -0.41085273027420044 0.19083744287490845
-0.7984496355056763 -0.41085273027420044 0.21334904432296753
-0.7984496355056763 -0.39534884691238403 0.19043923914432526
-0.7984496355056763 -0.39534881711006165 0.21333695948123932
-0.7984496355056763 -0.3798449635505676 0.18982750177383423
-0.7984496355056763 -0.3798449635505676 0.21309791505336761
-0.7984496355056763 -0.3643410801887512 0.18901804089546204
-0.7984496355056763 -0.3643410801887512 0.21268944442272186
-0.7984496355056763 -0.3488371968269348 0.18866431713104248
-0.7984496355056763 -0.3488371968269348 0.21215234696865082
-0.7984496355056763 -0.3333333134651184 0.1890624463558197
-0.7984496355056763 -0.3333333134651184 0.21156221628189087
-0.7984496355056763 -0.317829430103302 0.18975557386875153
-0.7984495759010315 -0.317829430103302 0.2110564261674881
-0.7984496355056763 -0.30232560634613037 0.19036461412906647
-0.7984496355056763 -0.30232560634613037 0.21061056852340698
-0.7984496355056763 -0.28682172298431396 0.19064657390117645
-0.7984496355056763 -0.28682172298431396 0.2101789116859436
-0.7984496355056763 -0.27131783962249756 0.19063228368759155
-0.7984496355056763 -0.27131783962249756 0.20974516868591309
-0.7984496355056763 -0.25581395626068115 0.1905149221420288
-0.7984496355056763 -0.25581395626068115 0.20872880518436432
-0.7984496355056763 -0.24031007289886475 0.1904156506061554
-0.7984496355056763 -0.24031007289886475 0.20571348071098328
-0.7984496355056763 -0.22480618953704834 0.1902228146791458
-0.7984496355056763 -0.22480618953704834 0.20421691238880157
-0.7984496355056763 -0.20930230617523193 0.19006676971912384
-0.7984496355056763 -0.20930230617523193 0.20296929776668549
-0.7984496355056763 -0.19379842281341553 0.1901666224002838
-0.7984496355056763 -0.19379842281341553 0.20172947645187378
-0.7984496355056763 -0.1782945990562439 0.19055712223052979
-0.7984496355056763 -0.1782945990562439 0.2007961869239807
-0.7984496355056763 -0.1627907156944275 0.19104473292827606
-0.7984496355056763 -0.1627907156944275 0.1999683380126953
-0.7984496355056763 -0.14728683233261108 0.1913209855556488
-0.7984496355056763 -0.14728683233261108 0.19937719404697418
-0.7984496355056763 -0.13178294897079468 0.19139625132083893
-0.7984496355056763 -0.13178294897079468 0.19924582540988922
-0.7984496355056763 -0.11627906560897827 0.19161619246006012
-0.7984496355056763 -0.11627906560897827 0.1984226405620575
-0.7984496355056763 -0.10077518224716187 0.19197654724121094
-0.7984496355056763 -0.10077518224716187 0.19684460759162903
-0.7984496355056763 -0.08527129888534546 0.19197222590446472
-0.7984496355056763 -0.08527129888534546 0.19609130918979645
-0.7984496355056763 -0.06976741552352905 0.19195224344730377
-0.798449695110321 -0.06976741552352905 0.19592703878879547
-0.7829457521438599 -0.5193798542022705 0.2057979702949524
-0.7829457521438599 -0.5193798542022705 0.21073003113269806
-0.7829457521438599 -0.5038759708404541 0.20470404624938965
-0.7829458117485046 -0.5038759708404541 0.21124976873397827
-0.7829457521438599 -0.4883720874786377 0.2031077891588211
-0.7829457521438599 -0.4883720874786377 0.21152502298355103
-0.7829457521438599 -0.4728682041168213 0.1981789618730545
-0.7829457521438599 -0.4728682041168213 0.21176984906196594
-0.7829457521438599 -0.4573643207550049 0.19313161075115204
-0.7829457521438599 -0.4573643207550049 0.2120477855205536
-0.7829457521438599 -0.4418604373931885 0.19228896498680115
-0.7829457521438599 -0.4418604373931885 0.21248656511306763
-0.7829457521438599 -0.42635661363601685 0.19161121547222137
-0.7829457521438599 -0.42635661363601685 0.2128857523202896
-0.7829457521438599 -0.41085273027420044 0.19096200168132782
-0.7829457521438599 -0.41085273027420044 0.21316348016262054
-0.7829457521438599 -0.39534884691238403 0.19053970277309418
-0.7829457521438599 -0.39534884691238403 0.21315515041351318
-0.7829457521438599 -0.3798449635505676 0.18986289203166962
-0.7829457521438599 -0.37984499335289 0.21292078495025635
-0.7829457521438599 -0.3643410801887512 0.1889917105436325
-0.7829457521438599 -0.3643410801887512 0.21252912282943726
-0.7829457521438599 -0.3488371968269348 0.1885521411895752
-0.7829457521438599 -0.3488371968269348 0.21200890839099884
-0.7829457521438599 -0.3333333134651184 0.18888695538043976
-0.7829457521438599 -0.3333333134651184 0.21142198145389557
-0.7829457521438599 -0.317829430103302 0.18960502743721008
-0.7829457521438599 -0.317829430103302 0.21092109382152557
-0.7829457521438599 -0.30232560634613037 0.19027486443519592
-0.7829456925392151 -0.30232560634613037 0.21047824621200562
-0.7829457521438599 -0.28682172298431396 0.19057965278625488
-0.7829456925392151 -0.28682172298431396 0.21005326509475708
-0.7829457521438599 -0.27131783962249756 0.1905255764722824
-0.7829457521438599 -0.27131783962249756 0.20964586734771729
