-0.5503876209259033 0.007751941680908203 0.11498089879751205
-0.5503876209259033 0.007751941680908203 0.12120312452316284
-0.5503876209259033 0.02325582504272461 0.11501011252403259
-0.5503876209259033 0.02325582504272461 0.12139920890331268
-0.5503876209259033 0.038759708404541016 0.11508303880691528
-0.5503876209259033 0.038759708404541016 0.12135834991931915
-0.5503876209259033 0.05426359176635742 0.11521794646978378
-0.5503876209259033 0.05426359176635742 0.12132953852415085
-0.5503876209259033 0.06976747512817383 0.11539295315742493
-0.5503876209259033 0.06976747512817383 0.12134499847888947
-0.5503876209259033 0.08527135848999023 0.11550081521272659
-0.5503876209259033 0.08527135848999023 0.12156573683023453
-0.5503876209259033 0.10077524185180664 0.11550085991621017
-0.5503876209259033 0.10077524185180664 0.12192444503307343
-0.5503876209259033 0.11627912521362305 0.11548206210136414
-0.5503876209259033 0.11627912521362305 0.1221550703048706
-0.5503876209259033 0.1317828893661499 0.11541557312011719
-0.5503876209259033 0.1317828893661499 0.12223492562770844
-0.5503876209259033 0.1472867727279663 0.1153414398431778
-0.5503876209259033 0.1472867727279663 0.12199106067419052
-0.5503876209259033 0.16279065608978271 0.11535904556512833
-0.5503876209259033 0.16279065608978271 0.12154272198677063
-0.5503876209259033 0.17829453945159912 0.11536751687526703
-0.5503876209259033 0.17829453945159912 0.12115400284528732
-0.5503876209259033 0.19379842281341553 0.1153564453125
-0.5503876209259033 0.19379842281341553 0.12081891298294067
-0.5503876209259033 0.20930230617523193 0.11533606797456741
-0.5503876209259033 0.20930230617523193 0.1206941083073616
-0.5503876209259033 0.22480618953704834 0.1153474673628807
-0.5503876209259033 0.22480618953704834 0.12065860629081726
-0.5503876209259033 0.24031007289886475 0.11532749980688095
-0.5503876209259033 0.24031007289886475 0.1210249811410904
-0.5503876209259033 0.25581395626068115 0.11525988578796387
-0.5503876209259033 0.25581395626068115 0.12182001769542694
-0.5503876209259033 0.27131783962249756 0.1152346059679985
-0.5503876209259033 0.27131783962249756 0.12261192500591278
-0.5503876209259033 0.28682172298431396 0.11523400247097015
-0.5503876209259033 0.28682172298431396 0.12336452305316925
-0.5503876209259033 0.30232560634613037 0.11526469141244888
-0.5503876209259033 0.30232560634613037 0.12412204593420029
-0.5503876209259033 0.3178294897079468 0.11533857882022858
-0.5503876209259033 0.3178294897079468 0.12435755133628845
-0.5503876209259033 0.3333333730697632 0.11556287109851837
-0.5503876209259033 0.3333333730697632 0.12389907240867615
-0.5503876209259033 0.3488372564315796 0.11591731756925583
-0.5503876209259033 0.3488372564315796 0.12217506766319275
-0.5503876209259033 0.39534878730773926 0.13132266700267792
-0.5503876209259033 0.39534878730773926 0.13186407089233398
-0.5503876209259033 0.41085267066955566 0.13042689859867096
-0.5503876209259033 0.41085270047187805 0.13222497701644897
-0.5503876209259033 0.42635655403137207 0.13013553619384766
-0.5503876209259033 0.42635655403137207 0.13268502056598663
-0.5503876209259033 0.4418604373931885 0.13008353114128113
-0.5503876209259033 0.4418604373931885 0.13315731287002563
-0.5503876209259033 0.4573643207550049 0.1302058845758438
-0.5503876209259033 0.4573643207550049 0.133355975151062
-0.5503876209259033 0.4728682041168213 0.13127373158931732
-0.5503876805305481 0.4728682339191437 0.13231126964092255
-0.5348837375640869 -0.05426359176635742 0.11498677730560303
-0.5348837375640869 -0.05426359176635742 0.11961762607097626
-0.5348837375640869 -0.038759708404541016 0.11494758725166321
-0.5348837375640869 -0.038759708404541016 0.11978597939014435
-0.5348837375640869 -0.02325582504272461 0.11485519260168076
-0.5348837375640869 -0.02325582504272461 0.11989985406398773
-0.5348837375640869 -0.007751941680908203 0.11472754180431366
-0.5348837375640869 -0.007751941680908203 0.12016113102436066
-0.5348837375640869 0.007751941680908203 0.11468017846345901
-0.5348837375640869 0.007751941680908203 0.12036363780498505
-0.5348837375640869 0.02325582504272461 0.1147134006023407
-0.5348837375640869 0.02325582504272461 0.12059646844863892
-0.5348837375640869 0.038759708404541016 0.11477062106132507
-0.5348837375640869 0.038759708404541016 0.12073909491300583
-0.5348837375640869 0.05426359176635742 0.11484495550394058
-0.5348837375640869 0.05426359176635742 0.12100324034690857
-0.5348837375640869 0.06976747512817383 0.11494568735361099
-0.5348837375640869 0.06976747512817383 0.12137612700462341
-0.5348837375640869 0.08527135848999023 0.11501806229352951
-0.5348837375640869 0.08527135848999023 0.12176358699798584
-0.5348837375640869 0.10077524185180664 0.11502482742071152
-0.5348837375640869 0.10077524185180664 0.12201972305774689
-0.5348837375640869 0.11627912521362305 0.11502773314714432
-0.5348837375640869 0.11627912521362305 0.12211916595697403
-0.5348837375640869 0.1317828893661499 0.11499792337417603
-0.5348837375640869 0.1317828893661499 0.12202619016170502
-0.5348837375640869 0.1472867727279663 0.11495564132928848
-0.5348837375640869 0.1472867727279663 0.12171000242233276
-0.5348837375640869 0.16279065608978271 0.11496662348508835
-0.5348837375640869 0.16279065608978271 0.12137873470783234
-0.5348837375640869 0.17829453945159912 0.11496760696172714
-0.5348837375640869 0.17829453945159912 0.12108664214611053
-0.5348837375640869 0.19379842281341553 0.11494927108287811
-0.5348837375640869 0.19379842281341553 0.12083107233047485
-0.5348837375640869 0.20930230617523193 0.11493535339832306
-0.5348837375640869 0.20930230617523193 0.12072354555130005
-0.5348837375640869 0.22480618953704834 0.11495539546012878
-0.5348837375640869 0.22480618953704834 0.12073183059692383
-0.5348837375640869 0.24031007289886475 0.11496102064847946
-0.5348837375640869 0.24031007289886475 0.12103961408138275
-0.5348837375640869 0.25581395626068115 0.11494676023721695
-0.5348837375640869 0.25581395626068115 0.12160898000001907
-0.5348837375640869 0.27131783962249756 0.11497209966182709
-0.5348837375640869 0.27131783962249756 0.12219937145709991
-0.5348837375640869 0.28682172298431396 0.11501371115446091
-0.5348837375640869 0.28682172298431396 0.12275859713554382
-0.5348837375640869 0.30232560634613037 0.11505842208862305
-0.5348837375640869 0.30232560634613037 0.12338092923164368
-0.5348837375640869 0.3178294897079468 0.11511622369289398
-0.5348837375640869 0.3178294897079468 0.12365420162677765
-0.5348837375640869 0.3333333730697632 0.11528553068637848
-0.5348837375640869 0.3333333730697632 0.12354350835084915
-0.5348837375640869 0.3488372564315796 0.115561842918396
-0.5348837375640869 0.3488372564315796 0.12298130244016647
-0.5348837375640869 0.364341139793396 0.11600357294082642
-0.5348837375640869 0.364341139793396 0.12060663104057312
-0.5348837375640869 0.41085267066955566 0.13077139854431152
-0.5348837375640869 0.41085267066955566 0.13198049366474152
-0.5348837375640869 0.42635655403137207 0.12979786098003387
-0.5348837971687317 0.42635655403137207 0.13252587616443634
-0.5348837375640869 0.4418604373931885 0.12961971759796143
-0.5348837375640869 0.4418604373931885 0.1331208050251007
-0.5348837375640869 0.4573643207550049 0.12988720834255219
-0.5348837375640869 0.4573643207550049 0.13331203162670135
-0.5193798542022705 -0.06976741552352905 0.11482592672109604
-0.5193798542022705 -0.06976741552352905 0.11848235875368118
-0.5193798542022705 -0.05426359176635742 0.1147681400179863
-0.5193798542022705 -0.05426359176635742 0.11883485317230225
-0.5193798542022705 -0.038759708404541016 0.11471596360206604
-0.5193798542022705 -0.038759708404541016 0.11908169090747833
-0.5193798542022705 -0.02325582504272461 0.11462501436471939
-0.5193798542022705 -0.02325582504272461 0.11919116228818893
-0.5193798542022705 -0.007751941680908203 0.11448977887630463
-0.5193798542022705 -0.007751941680908203 0.11933879554271698
-0.5193798542022705 0.007751941680908203 0.11444117873907089
-0.5193798542022705 0.007751941680908203 0.11948500573635101
-0.5193798542022705 0.02325582504272461 0.11450827121734619
-0.5193798542022705 0.02325582504272461 0.11966273933649063
-0.5193798542022705 0.038759708404541016 0.11458706855773926
-0.5193798542022705 0.038759708404541016 0.1197970062494278
-0.5193798542022705 0.05426359176635742 0.11463482677936554
-0.5193798542022705 0.05426359176635742 0.120081827044487
-0.5193798542022705 0.06976747512817383 0.11464856564998627
-0.5193798542022705 0.06976747512817383 0.12053433060646057
-0.5193798542022705 0.08527135848999023 0.11464634537696838
-0.5193798542022705 0.08527135848999023 0.12095381319522858
-0.5193798542022705 0.10077524185180664 0.1146114245057106
-0.5193798542022705 0.10077524185180664 0.12117578089237213
-0.5193798542022705 0.11627912521362305 0.11458460241556168
-0.5193798542022705 0.11627912521362305 0.12127862125635147
-0.5193798542022705 0.1317828893661499 0.11455098539590836
-0.5193798542022705 0.1317828893661499 0.12119635939598083
-0.5193798542022705 0.1472867727279663 0.11451581865549088
-0.5193798542022705 0.1472867727279663 0.12095048278570175
-0.5193798542022705 0.16279065608978271 0.11452119052410126
-0.5193798542022705 0.16279065608978271 0.12074963748455048
-0.5193798542022705 0.17829453945159912 0.11452034115791321
-0.5193798542022705 0.17829453945159912 0.1205587238073349
-0.5193798542022705 0.19379842281341553 0.11453117430210114
-0.5193798542022705 0.19379840791225433 0.12035477161407471
-0.5193798542022705 0.20930230617523193 0.11456215381622314
-0.5193798542022705 0.20930230617523193 0.12023501098155975
-0.5193798542022705 0.22480618953704834 0.11462616920471191
-0.5193798542022705 0.22480618953704834 0.12021220475435257
-0.5193798542022705 0.24031007289886475 0.11467931419610977
-0.5193798542022705 0.24031007289886475 0.12039419263601303
-0.5193798542022705 0.25581395626068115 0.11473138630390167
-0.5193798542022705 0.25581395626068115 0.1207190454006195
-0.5193798542022705 0.27131783962249756 0.11481411010026932
-0.5193798542022705 0.27131783962249756 0.12109225988388062
-0.5193798542022705 0.28682172298431396 0.11487720906734467
-0.5193798542022705 0.28682172298431396 0.1215205192565918
-0.5193798542022705 0.30232560634613037 0.11491094529628754
-0.5193798542022705 0.30232560634613037 0.12206113338470459
-0.5193798542022705 0.3178294897079468 0.11493484675884247
-0.5193798542022705 0.3178294897079468 0.12237849086523056
-0.5193798542022705 0.3333333730697632 0.11503452062606812
-0.5193798542022705 0.3333333730697632 0.12252022325992584
-0.5193798542022705 0.3488372564315796 0.1152062639594078
-0.5193798542022705 0.3488372564315796 0.12252607196569443
-0.5193798542022705 0.364341139793396 0.11550762504339218
-0.5193798542022705 0.364341139793396 0.12214618176221848
-0.5193798542022705 0.37984490394592285 0.11589977145195007
-0.5193798542022705 0.37984490394592285 0.12092834711074829
-0.5193798542022705 0.42635655403137207 0.12933877110481262
-0.5193798542022705 0.42635655403137207 0.1321955770254135
-0.5193798542022705 0.4418604373931885 0.12859609723091125
-0.5193798542022705 0.4418604075908661 0.13290779292583466
-0.5193798542022705 0.4573643207550049 0.12965920567512512
-0.5193798542022705 0.4573643207550049 0.13291984796524048
-0.5038759708404541 -0.08527129888534546 0.1159464493393898
-0.5038759708404541 -0.08527130633592606 0.11661350727081299
-0.5038759708404541 -0.06976741552352905 0.11468005180358887
-0.5038759708404541 -0.06976742297410965 0.11788630485534668
-0.5038759708404541 -0.05426359176635742 0.11453936249017715
-0.5038759708404541 -0.05426359176635742 0.11810742318630219
-0.5038759708404541 -0.038759708404541016 0.11451739072799683
-0.5038759708404541 -0.038759708404541016 0.11832796037197113
-0.5038759708404541 -0.02325582504272461 0.11444003880023956
-0.5038759708404541 -0.02325582504272461 0.11848238855600357
-0.5038759708404541 -0.007751941680908203 0.11429519206285477
-0.5038759708404541 -0.007751941680908203 0.11862651258707047
-0.5038759708404541 0.007751941680908203 0.1142360270023346
-0.5038759708404541 0.00775194214656949 0.11876116693019867
-0.5038759708404541 0.02325582504272461 0.11431410908699036
-0.5038759708404541 0.02325582504272461 0.11888091266155243
-0.5038759708404541 0.038759708404541016 0.11443239450454712
-0.5038759708404541 0.038759708404541016 0.11896540969610214
-0.5038759708404541 0.05426359176635742 0.11452194303274155
-0.5038759708404541 0.05426359176635742 0.1191403940320015
-0.5038759708404541 0.06976747512817383 0.11453229188919067
-0.5038759708404541 0.06976747512817383 0.11944787949323654
-0.5038759708404541 0.08527135848999023 0.11449776589870453
-0.5038759708404541 0.08527135848999023 0.11974067986011505
-0.5038759708404541 0.10077524185180664 0.114437997341156
-0.5038759708404541 0.10077523440122604 0.11986784636974335
-0.5038759708404541 0.11627912521362305 0.1143905371427536
-0.5038759708404541 0.11627912521362305 0.1199047714471817
-0.5038759708404541 0.1317828893661499 0.11434189975261688
-0.5038759708404541 0.1317828893661499 0.11982117593288422
-0.5038759708404541 0.1472867727279663 0.11429037153720856
-0.5038759708404541 0.1472867727279663 0.11967505514621735
-0.5038759708404541 0.16279065608978271 0.11426999419927597
-0.5038759708404541 0.16279065608978271 0.11963129043579102
-0.5038759708404541 0.17829453945159912 0.11425386369228363
-0.5038759708404541 0.17829453945159912 0.11958857625722885
-0.5038759708404541 0.19379842281341553 0.11427824944257736
-0.5038759708404541 0.19379842281341553 0.1195157989859581
-0.5038759708404541 0.20930230617523193 0.11435512453317642
-0.5038759708404541 0.20930230617523193 0.11943036317825317
-0.5038759708404541 0.22480618953704834 0.11446932703256607
-0.5038759708404541 0.22480618953704834 0.11937269568443298
-0.5038759708404541 0.24031007289886475 0.11457974463701248
-0.5038759708404541 0.24031007289886475 0.11939671635627747
-0.5038759708404541 0.25581395626068115 0.11468575149774551
-0.5038759708404541 0.25581395626068115 0.11948759853839874
-0.5038759708404541 0.27131783962249756 0.11478326469659805
-0.5038759708404541 0.27131783962249756 0.119675412774086
-0.5038759708404541 0.28682172298431396 0.11483354866504669
-0.5038759708404541 0.28682172298431396 0.11998475342988968
-0.5038759708404541 0.30232560634613037 0.11483944952487946
-0.5038759708404541 0.30232560634613037 0.12043583393096924
-0.5038759708404541 0.3178294897079468 0.1148298978805542
-0.5038759708404541 0.3178294897079468 0.12078015506267548
-0.5038759708404541 0.3333333730697632 0.11488576978445053
-0.5038759708404541 0.3333333730697632 0.12105695903301239
-0.5038759708404541 0.3488372564315796 0.11499086767435074
-0.5038759708404541 0.3488372564315796 0.12128937244415283
-0.5038759708404541 0.364341139793396 0.11516884714365005
-0.5038759708404541 0.364341139793396 0.12146690487861633
-0.5038759708404541 0.37984490394592285 0.11539540439844131
-0.5038759708404541 0.37984490394592285 0.12163941562175751
-0.5038759708404541 0.39534878730773926 0.11566892266273499
-0.5038759708404541 0.39534878730773926 0.12147130072116852
-0.5038759708404541 0.41085267066955566 0.11593679338693619
-0.5038759708404541 0.41085267066955566 0.12108655273914337
-0.5038759708404541 0.4418604373931885 0.12690629065036774
-0.5038759708404541 0.4418604373931885 0.13230133056640625
-0.5038759708404541 0.4573643207550049 0.13136707246303558
-0.5038759708404541 0.4573643207550049 0.13187740743160248
-0.4883720874786377 -0.08527129888534546 0.11466662585735321
-0.4883720576763153 -0.08527129888534546 0.11748958379030228
-0.4883720874786377 -0.06976741552352905 0.11424075067043304
-0.4883720874786377 -0.06976741552352905 0.117558553814888
-0.4883720874786377 -0.05426359176635742 0.11386596411466599
-0.4883720874786377 -0.05426359176635742 0.11772067844867706
-0.4883720874786377 -0.038759708404541016 0.11396773159503937
-0.4883720874786377 -0.03875970467925072 0.11787281930446625
-0.4883720874786377 -0.02325582504272461 0.11399384588003159
-0.4883720874786377 -0.02325582504272461 0.11803016811609268
-0.4883720874786377 -0.007751941680908203 0.11394032835960388
-0.4883720874786377 -0.007751941215246916 0.11817542463541031
-0.4883720874786377 0.007751941680908203 0.11394566297531128
-0.4883720874786377 0.007751941680908203 0.11830361932516098
-0.4883720874786377 0.02325582504272461 0.11404289305210114
-0.4883720874786377 0.02325582504272461 0.11839668452739716
-0.4883720874786377 0.038759708404541016 0.11418687552213669
-0.4883720874786377 0.038759708404541016 0.11845847964286804
-0.4883720874786377 0.05426359176635742 0.11433359235525131
-0.4883720576763153 0.05426358804106712 0.11856094002723694
-0.4883720874786377 0.06976747512817383 0.11438995599746704
-0.4883720874786377 0.06976747512817383 0.11874449253082275
-0.4883720874786377 0.08527135848999023 0.11438249796628952
-0.4883720874786377 0.08527136594057083 0.11890697479248047
-0.4883720874786377 0.10077524185180664 0.11433275789022446
-0.4883720874786377 0.10077524185180664 0.11894294619560242
-0.4883720874786377 0.11627912521362305 0.11426469683647156
-0.4883720874786377 0.11627912521362305 0.11891601979732513
-0.4883720874786377 0.1317828893661499 0.11414197087287903
-0.4883721172809601 0.1317828893661499 0.11885048449039459
-0.4883720874786377 0.1472867727279663 0.11402440816164017
-0.4883720874786377 0.1472867727279663 0.11878197640180588
-0.4883720874786377 0.16279065608978271 0.1140156239271164
-0.4883720874786377 0.16279065608978271 0.11878791451454163
-0.4883720874786377 0.17829453945159912 0.11403881013393402
-0.4883720874786377 0.17829453945159912 0.11880367994308472
-0.4883720874786377 0.19379842281341553 0.11410842835903168
-0.4883720874786377 0.19379842281341553 0.1188131794333458
-0.4883720874786377 0.20930230617523193 0.11422315239906311
-0.4883720576763153 0.20930229127407074 0.11878883093595505
-0.4883720874786377 0.22480618953704834 0.11437052488327026
-0.4883720874786377 0.22480618953704834 0.11874330788850784
-0.4883720874786377 0.24031007289886475 0.11450507491827011
-0.4883720874786377 0.24031007289886475 0.11871854215860367
-0.4883720874786377 0.25581395626068115 0.11462279409170151
-0.4883720874786377 0.25581395626068115 0.11872807890176773
-0.4883720874786377 0.27131783962249756 0.11471433192491531
-0.4883720874786377 0.27131783962249756 0.1188129186630249
-0.4883720874786377 0.28682172298431396 0.11475206166505814
-0.4883721172809601 0.28682172298431396 0.1190003976225853
-0.4883720874786377 0.30232560634613037 0.11474195122718811
-0.4883720874786377 0.30232560634613037 0.11931819468736649
-0.4883720874786377 0.3178294897079468 0.11471599340438843
-0.4883720576763153 0.3178294897079468 0.11961724609136581
-0.4883720874786377 0.3333333730697632 0.11476791650056839
-0.4883720874786377 0.3333333730697632 0.11990828812122345
-0.4883720874786377 0.3488372564315796 0.11486084014177322
-0.4883720874786377 0.3488372564315796 0.12019692361354828
-0.4883720874786377 0.364341139793396 0.11498602479696274
-0.4883720874786377 0.364341139793396 0.12052556872367859
-0.4883720874786377 0.37984490394592285 0.11512749642133713
-0.4883720874786377 0.37984490394592285 0.12095028162002563
-0.4883720874786377 0.39534878730773926 0.1152966171503067
-0.4883720874786377 0.39534878730773926 0.12128665298223495
-0.4883720874786377 0.41085267066955566 0.1154320165514946
-0.4883720874786377 0.41085267066955566 0.12177368998527527
-0.4883720874786377 0.42635655403137207 0.11558892577886581
-0.4883720874786377 0.42635655403137207 0.12265682965517044
-0.4883720874786377 0.4418604373931885 0.11590633541345596
-0.4883720874786377 0.4418604373931885 0.12279516458511353
-0.4728682041168213 -0.08527129888534546 0.11389783024787903
-0.4728682339191437 -0.08527130633592606 0.11739394068717957
-0.4728682041168213 -0.06976741552352905 0.11273766309022903
-0.4728682041168213 -0.06976741552352905 0.11737973242998123
-0.4728682041168213 -0.05426359176635742 0.11187905073165894
-0.4728682041168213 -0.05426359176635742 0.1174805536866188
-0.4728682041168213 -0.038759708404541016 0.11230003088712692
-0.4728681743144989 -0.03875970467925072 0.11756894737482071
-0.4728682041168213 -0.02325582504272461 0.1126428097486496
-0.4728681743144989 -0.02325582504272461 0.11771238595247269
-0.4728682041168213 -0.007751941680908203 0.11301741003990173
-0.4728682041168213 -0.007751941680908203 0.11785628646612167
-0.4728682041168213 0.007751941680908203 0.11330565810203552
-0.4728682041168213 0.007751941680908203 0.11798747628927231
-0.4728682041168213 0.02325582504272461 0.11351983994245529
-0.4728682041168213 0.02325582504272461 0.11807966232299805
-0.4728682041168213 0.038759708404541016 0.1136891320347786
-0.4728682041168213 0.038759708404541016 0.11813054978847504
-0.4728682041168213 0.05426359176635742 0.1138940155506134
-0.4728682041168213 0.05426359176635742 0.11819335073232651
-0.4728682041168213 0.06976747512817383 0.11400536447763443
-0.4728682041168213 0.06976747512817383 0.1183050349354744
-0.4728682041168213 0.08527135848999023 0.11403727531433105
-0.4728682339191437 0.08527135848999023 0.11839009821414948
-0.4728682041168213 0.10077524185180664 0.11400385946035385
-0.4728682041168213 0.10077524185180664 0.11837319284677505
-0.4728682041168213 0.11627912521362305 0.11388897150754929
-0.4728682041168213 0.11627911776304245 0.1183282881975174
-0.4728682041168213 0.1317828893661499 0.11358829587697983
-0.4728682041168213 0.1317828893661499 0.11828559637069702
-0.4728682041168213 0.1472867727279663 0.11332327127456665
-0.4728682041168213 0.1472867727279663 0.11824800074100494
-0.4728682041168213 0.16279065608978271 0.11336486786603928
-0.4728682041168213 0.16279065608978271 0.11826079338788986
-0.4728682041168213 0.17829453945159912 0.11353389918804169
-0.4728682041168213 0.17829453945159912 0.11828402429819107
-0.4728682041168213 0.19379842281341553 0.11377274990081787
-0.4728682339191437 0.19379843771457672 0.11832603067159653
-0.4728682041168213 0.20930230617523193 0.11398686468601227
-0.4728682339191437 0.20930230617523193 0.11835061013698578
-0.4728682041168213 0.22480618953704834 0.11419007182121277
-0.4728682041168213 0.22480618953704834 0.11833712458610535
-0.4728682041168213 0.24031007289886475 0.11434860527515411
-0.4728682041168213 0.24031007289886475 0.11831249296665192
-0.4728682041168213 0.25581395626068115 0.11447251588106155
-0.4728682041168213 0.25581395626068115 0.11830329895019531
-0.4728682041168213 0.27131783962249756 0.11455679684877396
-0.4728681743144989 0.27131783962249756 0.11834938824176788
-0.4728682041168213 0.28682172298431396 0.11457625776529312
-0.4728682041168213 0.28682172298431396 0.11846983432769775
-0.4728682041168213 0.30232560634613037 0.11454920470714569
-0.4728682041168213 0.30232560634613037 0.11868446320295334
-0.4728682041168213 0.3178294897079468 0.11451264470815659
-0.4728682041168213 0.3178294897079468 0.11890547722578049
-0.4728682041168213 0.3333333730697632 0.114585742354393
-0.4728682041168213 0.3333333730697632 0.11914059519767761
-0.4728682041168213 0.3488372564315796 0.11470678448677063
-0.4728682041168213 0.3488372564315796 0.11939529329538345
-0.4728682041168213 0.364341139793396 0.11483430117368698
-0.4728682041168213 0.364341139793396 0.11973977088928223
-0.4728682041168213 0.37984490394592285 0.11495599150657654
-0.4728682041168213 0.37984490394592285 0.12018592655658722
-0.4728682041168213 0.39534878730773926 0.11508652567863464
-0.4728682041168213 0.39534878730773926 0.1205693855881691
-0.4728682041168213 0.41085267066955566 0.11517240852117538
-0.4728681743144989 0.41085267066955566 0.12098062038421631
-0.4728682041168213 0.42635655403137207 0.11527462303638458
-0.4728682041168213 0.42635655403137207 0.12134227156639099
-0.4728682041168213 0.4418604373931885 0.11548733711242676
-0.4728682041168213 0.4418604373931885 0.12078715860843658
-0.4573643207550049 -0.10077518224716187 0.11545536667108536
-0.4573643207550049 -0.10077518224716187 0.11649704724550247
-0.4573643207550049 -0.08527129888534546 0.1121404618024826
-0.45736435055732727 -0.08527129888534546 0.1172281801700592
-0.4573643207550049 -0.06976741552352905 0.10909242928028107
-0.4573643207550049 -0.06976741552352905 0.11718195676803589
-0.4573643207550049 -0.05426359176635742 0.10671056807041168
-0.4573643207550049 -0.05426359176635742 0.11719287931919098
-0.4573643207550049 -0.038759708404541016 0.10800632834434509
-0.4573643207550049 -0.038759708404541016 0.11720878630876541
-0.4573643207550049 -0.02325582504272461 0.10943789035081863
-0.4573643207550049 -0.02325582504272461 0.11732658743858337
-0.4573643207550049 -0.007751941680908203 0.11103294789791107
-0.4573643207550049 -0.007751941680908203 0.1174958124756813
-0.4573643207550049 0.007751941680908203 0.11201407015323639
-0.4573643207550049 0.00775194214656949 0.11767332255840302
-0.4573643207550049 0.02325582504272461 0.11252425611019135
-0.4573643207550049 0.02325582318007946 0.11780226230621338
-0.4573643207550049 0.038759708404541016 0.1127341091632843
-0.4573642909526825 0.038759708404541016 0.1178649514913559
-0.4573643207550049 0.05426359176635742 0.11301400512456894
-0.4573643207550049 0.05426359176635742 0.11791475117206573
-0.4573643207550049 0.06976747512817383 0.11322615295648575
-0.4573643207550049 0.06976747512817383 0.11798421293497086
-0.4573643207550049 0.08527135848999023 0.11330593377351761
-0.4573643207550049 0.08527135103940964 0.1180233508348465
-0.4573643207550049 0.10077524185180664 0.1132599487900734
-0.4573643207550049 0.10077524185180664 0.11798147112131119
-0.4573643207550049 0.11627912521362305 0.11307403445243835
-0.4573643207550049 0.11627912521362305 0.11793623864650726
-0.4573643207550049 0.1317828893661499 0.11257106065750122
-0.4573642909526825 0.1317828893661499 0.11791104823350906
-0.4573643207550049 0.1472867727279663 0.1121814027428627
-0.4573643207550049 0.1472867727279663 0.117879219353199
-0.4573643207550049 0.16279065608978271 0.11233009397983551
-0.4573642909526825 0.16279065608978271 0.11788053810596466
-0.4573643207550049 0.17829453945159912 0.11270995438098907
-0.4573643207550049 0.17829453945159912 0.11789631843566895
-0.4573643207550049 0.19379842281341553 0.113233782351017
-0.4573643207550049 0.19379842281341553 0.1179547980427742
-0.4573643207550049 0.20930230617523193 0.11364442110061646
-0.4573643207550049 0.20930230617523193 0.11801079660654068
-0.4573643207550049 0.22480618953704834 0.11395884305238724
-0.4573643207550049 0.22480618953704834 0.11802889406681061
-0.4573643207550049 0.24031007289886475 0.11416281759738922
-0.4573643207550049 0.24031007289886475 0.11802113801240921
-0.4573643207550049 0.25581395626068115 0.1142956092953682
-0.4573643207550049 0.25581395626068115 0.11801465600728989
-0.4573643207550049 0.27131783962249756 0.11437109857797623
-0.4573643207550049 0.27131783962249756 0.11804971098899841
-0.4573643207550049 0.28682172298431396 0.11436548829078674
-0.4573643207550049 0.28682172298431396 0.11813588440418243
-0.4573643207550049 0.30232560634613037 0.11432057619094849
-0.45736435055732727 0.30232560634613037 0.11828145384788513
-0.4573643207550049 0.3178294897079468 0.11428185552358627
-0.4573643207550049 0.3178294897079468 0.1184261292219162
-0.4573643207550049 0.3333333730697632 0.11439745128154755
-0.4573643207550049 0.3333333730697632 0.11859221756458282
-0.4573643207550049 0.3488372564315796 0.11457202583551407
-0.4573643207550049 0.3488372564315796 0.1187872439622879
-0.4573643207550049 0.364341139793396 0.1147327721118927
-0.4573643207550049 0.364341139793396 0.11909690499305725
-0.4573643207550049 0.37984490394592285 0.11486263573169708
-0.4573643207550049 0.37984490394592285 0.11950871348381042
-0.4573643207550049 0.39534878730773926 0.11499723792076111
-0.4573643207550049 0.39534878730773926 0.11981392651796341
-0.4573643207550049 0.41085267066955566 0.11508472263813019
-0.4573643207550049 0.41085267066955566 0.12002965807914734
-0.4573643207550049 0.42635655403137207 0.1151808574795723
-0.4573643207550049 0.42635655403137207 0.12002650648355484
-0.4573643207550049 0.4418604373931885 0.11548688262701035
-0.4573643207550049 0.4418604373931885 0.1190720722079277
-0.4418604373931885 -0.10077518224716187 0.11151565611362457
-0.4418604373931885 -0.10077518224716187 0.11662057042121887
-0.4418604373931885 -0.08527129888534546 0.10926136374473572
-0.44186046719551086 -0.08527129888534546 0.11690500378608704
-0.4418604373931885 -0.06976741552352905 0.10069204866886139
-0.4418604373931885 -0.06976741552352905 0.11685183644294739
-0.4418604373931885 -0.05426359176635742 0.10024911910295486
-0.4418604373931885 -0.05426359176635742 0.11675447225570679
-0.4418604373931885 -0.038759708404541016 0.10017416626214981
-0.4418604373931885 -0.038759708404541016 0.11660661548376083
-0.4418604373931885 -0.02325582504272461 0.10031890124082565
-0.4418604373931885 -0.02325582504272461 0.11660661548376083
-0.4418604373931885 -0.007751941680908203 0.10393673926591873
-0.4418604075908661 -0.007751941215246916 0.11681705713272095
-0.4418604373931885 0.007751941680908203 0.10944344848394394
-0.4418604373931885 0.007751941680908203 0.11714358627796173
-0.4418604373931885 0.02325582504272461 0.11063353717327118
-0.44186046719551086 0.02325582504272461 0.11741702258586884
-0.4418604373931885 0.038759708404541016 0.11096859723329544
-0.4418604373931885 0.038759708404541016 0.11755524575710297
-0.4418604373931885 0.05426359176635742 0.11143019795417786
-0.44186046719551086 0.05426359176635742 0.11764265596866608
-0.4418604373931885 0.06976747512817383 0.11188693344593048
-0.4418604373931885 0.06976747512817383 0.1177128404378891
-0.4418604373931885 0.08527135848999023 0.11208118498325348
-0.4418604373931885 0.08527135848999023 0.11773768812417984
-0.4418604373931885 0.10077524185180664 0.11197080463171005
-0.44186046719551086 0.10077524185180664 0.11767938733100891
-0.4418604373931885 0.11627912521362305 0.11162861436605453
-0.4418604373931885 0.11627912521362305 0.11761411279439926
-0.4418604373931885 0.1317828893661499 0.11086827516555786
-0.4418604373931885 0.1317828893661499 0.11757802963256836
-0.4418604373931885 0.1472867727279663 0.11042534559965134
-0.4418604373931885 0.1472867876291275 0.11754503846168518
-0.4418604373931885 0.16279065608978271 0.11084482073783875
-0.4418604075908661 0.16279065608978271 0.11754944175481796
-0.4418604373931885 0.17829453945159912 0.11156046390533447
-0.4418604373931885 0.17829453945159912 0.11758007109165192
-0.4418604373931885 0.19379842281341553 0.11241360008716583
-0.4418604373931885 0.19379842281341553 0.11766460537910461
-0.4418604373931885 0.20930230617523193 0.11305514723062515
-0.4418604373931885 0.20930229127407074 0.11774566024541855
-0.4418604373931885 0.22480618953704834 0.11353322118520737
-0.4418604373931885 0.22480620443820953 0.11778566986322403
-0.4418604373931885 0.24031007289886475 0.11382077634334564
-0.4418604373931885 0.24031005799770355 0.11779239028692245
-0.4418604373931885 0.25581395626068115 0.1139809787273407
-0.4418604373931885 0.25581395626068115 0.11778751760721207
-0.4418604373931885 0.27131783962249756 0.1140543669462204
-0.4418604373931885 0.27131783962249756 0.11780822277069092
-0.4418604373931885 0.28682172298431396 0.11402081698179245
-0.4418604373931885 0.28682172298431396 0.1178564727306366
-0.4418604373931885 0.30232560634613037 0.1139606237411499
-0.4418604373931885 0.30232560634613037 0.11793471872806549
-0.4418604373931885 0.3178294897079468 0.11392686516046524
-0.4418604373931885 0.3178294897079468 0.11801040917634964
-0.4418604373931885 0.3333333730697632 0.1141289547085762
-0.4418604373931885 0.3333333730697632 0.11810911446809769
-0.4418604373931885 0.3488372564315796 0.11441317200660706
-0.44186046719551086 0.3488372564315796 0.11824329942464828
-0.4418604373931885 0.364341139793396 0.11464159190654755
-0.4418604373931885 0.364341139793396 0.11849769949913025
-0.4418604373931885 0.37984490394592285 0.1147981584072113
-0.4418604373931885 0.37984490394592285 0.11883821338415146
-0.4418604373931885 0.39534878730773926 0.11495738476514816
-0.4418604373931885 0.39534878730773926 0.11902914941310883
-0.4418604373931885 0.41085267066955566 0.11507975310087204
-0.4418604373931885 0.41085267066955566 0.11902991682291031
-0.4418604373931885 0.42635655403137207 0.11523516476154327
-0.4418604373931885 0.42635655403137207 0.11878179013729095
-0.4418604373931885 0.4418604373931885 0.11574754863977432
-0.4418604373931885 0.4418604373931885 0.11757767200469971
-0.42635661363601685 -0.10077518224716187 0.10016636550426483
-0.42635661363601685 -0.10077518224716187 0.1068473607301712
-0.42635661363601685 -0.08527129888534546 0.10049141943454742
-0.42635661363601685 -0.08527129888534546 0.1117018610239029
-0.42635661363601685 -0.06976741552352905 0.09991991519927979
-0.42635661363601685 -0.06976741552352905 0.1139671728014946
-0.42635661363601685 -0.05426359176635742 0.09938175976276398
-0.42635661363601685 -0.05426359176635742 0.11251369118690491
-0.42635661363601685 -0.038759708404541016 0.09913652390241623
-0.42635661363601685 -0.038759708404541016 0.11062818765640259
-0.42635661363601685 -0.02325582504272461 0.09918533265590668
-0.42635661363601685 -0.02325582504272461 0.11008166521787643
-0.42635661363601685 -0.007751941680908203 0.09959301352500916
-0.42635661363601685 -0.007751941680908203 0.1106179878115654
-0.42635661363601685 0.007751941680908203 0.10026179254055023
-0.42635661363601685 0.007751941680908203 0.11439995467662811
-0.42635661363601685 0.02325582504272461 0.10403900593519211
-0.42635661363601685 0.02325582504272461 0.11672194302082062
-0.42635661363601685 0.038759708404541016 0.10709276050329208
-0.42635658383369446 0.038759708404541016 0.11703917384147644
-0.42635661363601685 0.05426359176635742 0.10856391489505768
-0.42635664343833923 0.05426359549164772 0.11725696176290512
-0.42635661363601685 0.06976747512817383 0.10969527065753937
-0.42635661363601685 0.06976746767759323 0.11740628629922867
-0.42635661363601685 0.08527135848999023 0.11007483303546906
-0.42635661363601685 0.08527135848999023 0.1174587681889534
-0.42635661363601685 0.10077524185180664 0.10973786562681198
-0.42635661363601685 0.10077524185180664 0.1173814907670021
-0.42635661363601685 0.11627912521362305 0.10877418518066406
-0.42635661363601685 0.11627912521362305 0.11728116869926453
-0.42635661363601685 0.1317828893661499 0.10679653286933899
-0.42635664343833923 0.1317828893661499 0.11723274737596512
-0.42635661363601685 0.1472867727279663 0.10585570335388184
-0.42635661363601685 0.1472867727279663 0.11720863729715347
-0.42635661363601685 0.16279065608978271 0.10741312801837921
-0.42635661363601685 0.16279064118862152 0.1172311007976532
-0.42635661363601685 0.17829453945159912 0.1093866154551506
-0.42635658383369446 0.17829453945159912 0.11730139702558517
-0.42635661363601685 0.19379842281341553 0.11101552844047546
-0.42635658383369446 0.19379842281341553 0.11742798238992691
-0.42635661363601685 0.20930230617523193 0.11202406883239746
-0.42635661363601685 0.20930230617523193 0.11753950268030167
-0.42635661363601685 0.22480618953704834 0.11273681372404099
-0.42635661363601685 0.22480618953704834 0.11760042607784271
-0.42635661363601685 0.24031007289886475 0.11317592114210129
-0.42635658383369446 0.24031007289886475 0.11761778593063354
-0.42635661363601685 0.25581395626068115 0.11339684575796127
-0.42635661363601685 0.25581395626068115 0.11760963499546051
-0.42635661363601685 0.27131783962249756 0.11346065998077393
-0.42635661363601685 0.27131783962249756 0.11760444194078445
-0.42635661363601685 0.28682172298431396 0.113414466381073
-0.42635661363601685 0.28682172298431396 0.1176024079322815
-0.42635661363601685 0.30232560634613037 0.11336217820644379
-0.42635664343833923 0.30232560634613037 0.11761754751205444
-0.42635661363601685 0.3178294897079468 0.11333528906106949
-0.42635661363601685 0.3178294897079468 0.11766205728054047
-0.42635661363601685 0.3333333730697632 0.11366306245326996
-0.42635661363601685 0.3333333730697632 0.11773411184549332
-0.42635661363601685 0.3488372564315796 0.11414845287799835
-0.42635661363601685 0.3488372564315796 0.11784042418003082
-0.42635661363601685 0.364341139793396 0.1145099550485611
-0.42635661363601685 0.364341139793396 0.11804453283548355
-0.42635661363601685 0.37984490394592285 0.11474007368087769
-0.42635661363601685 0.37984490394592285 0.11827214062213898
-0.42635661363601685 0.39534878730773926 0.1149599701166153
-0.42635664343833923 0.39534878730773926 0.11832007020711899
-0.42635661363601685 0.41085267066955566 0.11514059454202652
-0.42635661363601685 0.41085267066955566 0.11817114800214767
-0.42635661363601685 0.42635655403137207 0.1153983622789383
-0.42635661363601685 0.42635655403137207 0.11780177056789398
-0.41085273027420044 -0.10077518224716187 0.09939319640398026
-0.41085273027420044 -0.10077518224716187 0.10363102704286575
-0.41085273027420044 -0.08527129888534546 0.09930796176195145
-0.41085273027420044 -0.08527129888534546 0.1061660572886467
-0.41085273027420044 -0.06976741552352905 0.09872845560312271
-0.41085273027420044 -0.06976741552352905 0.10707107931375504
-0.41085273027420044 -0.05426359176635742 0.09801521897315979
-0.41085273027420044 -0.05426359176635742 0.10736062377691269
-0.41085273027420044 -0.038759708404541016 0.09777636080980301
-0.41085273027420044 -0.038759708404541016 0.10691989958286285
-0.41085273027420044 -0.02325582504272461 0.09804210066795349
-0.41085273027420044 -0.02325582504272461 0.1066775918006897
-0.41085273027420044 -0.007751941680908203 0.09863504767417908
-0.41085273027420044 -0.007751941680908203 0.1068185418844223
-0.41085273027420044 0.007751941680908203 0.09920009225606918
-0.41085273027420044 0.007751941680908203 0.10762546956539154
-0.41085273027420044 0.02325582504272461 0.09957538545131683
-0.41085273027420044 0.02325582504272461 0.109370157122612
-0.41085273027420044 0.038759708404541016 0.09984967112541199
-0.41085273027420044 0.038759708404541016 0.11211195588111877
-0.41085273027420044 0.05426359176635742 0.1002432331442833
-0.41085273027420044 0.05426359176635742 0.11640681326389313
-0.41085273027420044 0.06976747512817383 0.10074744373559952
-0.41085273027420044 0.06976747512817383 0.11674612015485764
-0.41085273027420044 0.08527136594057083 0.10435318946838379
-0.41085273027420044 0.08527135848999023 0.11688732355833054
-0.41085273027420044 0.10077524185180664 0.10075796395540237
-0.41085273027420044 0.10077523440122604 0.11677524447441101
-0.41085273027420044 0.11627912521362305 0.10038960725069046
-0.41085273027420044 0.11627912521362305 0.11665187776088715
-0.41085273027420044 0.1317828893661499 0.1000417098402977
-0.41085273027420044 0.1317828893661499 0.1166159063577652
-0.41085273027420044 0.1472867727279663 0.09992380440235138
-0.41085270047187805 0.1472867727279663 0.11660945415496826
-0.41085273027420044 0.16279065608978271 0.10018777847290039
-0.41085273027420044 0.16279065608978271 0.11666572093963623
-0.41085273027420044 0.17829453945159912 0.10068149864673615
-0.41085273027420044 0.17829453945159912 0.11679413914680481
-0.41085273027420044 0.19379842281341553 0.10749663412570953
-0.41085273027420044 0.19379842281341553 0.11700223386287689
-0.41085273027420044 0.20930230617523193 0.10970531404018402
-0.41085273027420044 0.20930230617523193 0.11719200015068054
-0.41085273027420044 0.22480618953704834 0.11085641384124756
-0.41085273027420044 0.22480620443820953 0.11732933670282364
-0.41085273027420044 0.24031007289886475 0.11150802671909332
-0.41085273027420044 0.24031007289886475 0.11740201711654663
-0.41085273027420044 0.25581395626068115 0.11178769171237946
-0.41085273027420044 0.25581395626068115 0.11740586161613464
-0.41085273027420044 0.27131783962249756 0.11193282902240753
-0.41085273027420044 0.27131783962249756 0.11736788600683212
-0.41085273027420044 0.28682172298431396 0.11206185072660446
-0.41085273027420044 0.28682172298431396 0.11728473007678986
-0.41085273027420044 0.30232560634613037 0.11208686232566833
-0.4108527600765228 0.30232560634613037 0.11722931265830994
-0.41085273027420044 0.3178294897079468 0.11209752410650253
-0.41085273027420044 0.3178294897079468 0.1172623261809349
-0.41085273027420044 0.3333333730697632 0.11266899853944778
-0.41085273027420044 0.3333333730697632 0.11733051389455795
-0.41085273027420044 0.3488372564315796 0.11353316903114319
-0.41085273027420044 0.3488372564315796 0.11742125451564789
-0.41085273027420044 0.364341139793396 0.11416999250650406
-0.41085273027420044 0.3643411099910736 0.11759629100561142
-0.41085273027420044 0.37984490394592285 0.11459551751613617
-0.41085273027420044 0.37984493374824524 0.11772038042545319
-0.41085273027420044 0.39534878730773926 0.1149706020951271
-0.41085273027420044 0.39534878730773926 0.11763536930084229
-0.41085273027420044 0.41085267066955566 0.11525571346282959
-0.41085273027420044 0.4108526408672333 0.11742262542247772
-0.41085273027420044 0.42635655403137207 0.11590813100337982
-0.41085273027420044 0.42635655403137207 0.11672769486904144
-0.39534884691238403 -0.10077518224716187 0.0988846942782402
-0.39534884691238403 -0.10077518224716187 0.10214613378047943
-0.39534884691238403 -0.08527129888534546 0.09847846627235413
-0.39534884691238403 -0.08527129888534546 0.10345342755317688
-0.39534884691238403 -0.06976741552352905 0.0975298136472702
-0.39534884691238403 -0.06976741552352905 0.10454196482896805
-0.39534884691238403 -0.05426359176635742 0.09658969938755035
-0.39534884691238403 -0.05426359176635742 0.10501684248447418
-0.39534884691238403 -0.038759708404541016 0.09643207490444183
-0.39534884691238403 -0.038759708404541016 0.10483846068382263
-0.39534884691238403 -0.02325582504272461 0.0968799889087677
-0.39534884691238403 -0.02325582504272461 0.10466106981039047
-0.39534884691238403 -0.007751941680908203 0.09776663780212402
-0.39534884691238403 -0.007751941680908203 0.10463327914476395
-0.39534884691238403 0.007751941680908203 0.09856382012367249
-0.39534881711006165 0.007751941215246916 0.1050529032945633
-0.39534884691238403 0.02325582504272461 0.09890683740377426
-0.39534884691238403 0.02325582504272461 0.10595579445362091
-0.39534884691238403 0.038759708404541016 0.0990511029958725
-0.39534884691238403 0.038759708404541016 0.10699594020843506
-0.39534884691238403 0.05426359176635742 0.0992651879787445
-0.39534884691238403 0.05426359176635742 0.10808810591697693
-0.39534884691238403 0.06976747512817383 0.09956983476877213
-0.39534884691238403 0.06976747512817383 0.10938163101673126
-0.39534884691238403 0.08527135848999023 0.09975310415029526
-0.39534884691238403 0.08527135848999023 0.11040514707565308
-0.39534884691238403 0.10077524185180664 0.09964553266763687
-0.39534884691238403 0.10077524185180664 0.11020656675100327
-0.39534884691238403 0.11627912521362305 0.09939124435186386
-0.39534884691238403 0.11627912521362305 0.1103501096367836
-0.39534884691238403 0.1317828893661499 0.09903263300657272
-0.39534884691238403 0.1317828893661499 0.11093407869338989
-0.39534884691238403 0.1472867727279663 0.09882808476686478
-0.39534884691238403 0.1472867727279663 0.11132143437862396
-0.39534884691238403 0.16279065608978271 0.09904647618532181
-0.39534884691238403 0.16279065608978271 0.11157513409852982
-0.39534884691238403 0.17829453945159912 0.09940893948078156
-0.39534884691238403 0.17829453945159912 0.11215981841087341
-0.39534884691238403 0.19379842281341553 0.09992489218711853
-0.39534884691238403 0.19379842281341553 0.11460869014263153
-0.39534884691238403 0.20930230617523193 0.10045310854911804
-0.39534884691238403 0.20930230617523193 0.11648806929588318
-0.39534881711006165 0.22480618953704834 0.10521728545427322
-0.39534884691238403 0.22480618953704834 0.11676471680402756
-0.39534884691238403 0.24031007289886475 0.10776662826538086
-0.39534884691238403 0.24031007289886475 0.11701265722513199
-0.39534884691238403 0.25581395626068115 0.10806140303611755
-0.39534884691238403 0.25581395626068115 0.11714494973421097
-0.39534884691238403 0.27131783962249756 0.108505979180336
-0.39534884691238403 0.27131780982017517 0.11713708937168121
-0.39534884691238403 0.28682172298431396 0.1093490868806839
-0.39534884691238403 0.28682172298431396 0.11699014157056808
-0.39534884691238403 0.30232560634613037 0.10952407121658325
-0.39534884691238403 0.30232560634613037 0.11689746379852295
-0.39534884691238403 0.3178294897079468 0.1097661703824997
-0.39534884691238403 0.3178294897079468 0.1169639378786087
-0.39534884691238403 0.3333333730697632 0.11078523099422455
-0.39534884691238403 0.33333340287208557 0.11708955466747284
-0.39534884691238403 0.3488372564315796 0.11226747930049896
-0.3953488767147064 0.3488372564315796 0.11721758544445038
-0.39534884691238403 0.364341139793396 0.11354635655879974
-0.3953488767147064 0.364341139793396 0.11738663911819458
-0.39534884691238403 0.37984490394592285 0.11443673819303513
-0.39534884691238403 0.37984487414360046 0.11741939932107925
-0.39534884691238403 0.39534878730773926 0.11505899578332901
-0.39534884691238403 0.39534881711006165 0.11723774671554565
-0.39534884691238403 0.41085267066955566 0.11584870517253876
-0.39534884691238403 0.41085267066955566 0.1166497990489006
-0.3798449635505676 -0.10077518224716187 0.10013969987630844
-0.3798449635505676 -0.10077518224716187 0.10094653069972992
-0.3798449635505676 -0.08527129888534546 0.09647341072559357
-0.3798449635505676 -0.08527129888534546 0.10226060450077057
-0.3798449635505676 -0.06976741552352905 0.09620282799005508
-0.3798449635505676 -0.06976741552352905 0.10272965580224991
-0.3798449635505676 -0.05426359176635742 0.09520811587572098
-0.3798449635505676 -0.05426359176635742 0.10314095765352249
-0.3798449635505676 -0.038759708404541016 0.09492079168558121
-0.3798449635505676 -0.038759708404541016 0.10314695537090302
-0.3798449635505676 -0.02325582504272461 0.09526249766349792
-0.3798449635505676 -0.02325582504272461 0.10309167206287384
-0.3798449635505676 -0.007751941680908203 0.09632494300603867
-0.3798449635505676 -0.007751941680908203 0.10307566821575165
-0.3798449635505676 0.007751941680908203 0.09749706089496613
-0.3798449635505676 0.007751941680908203 0.10327652841806412
-0.3798449635505676 0.02325582504272461 0.09811265766620636
-0.3798449635505676 0.02325582504272461 0.10364639759063721
-0.3798449635505676 0.038759708404541016 0.09834259748458862
-0.3798449635505676 0.038759708404541016 0.10409882664680481
-0.3798449635505676 0.05426359176635742 0.0985073372721672
-0.3798449635505676 0.05426359176635742 0.10467861592769623
-0.3798449635505676 0.06976747512817383 0.0986323133111
-0.3798449635505676 0.06976747512817383 0.10546833276748657
-0.3798449635505676 0.08527135848999023 0.09871447831392288
-0.3798449635505676 0.08527135848999023 0.1060086190700531
-0.3798449635505676 0.10077524185180664 0.09871575236320496
-0.3798449635505676 0.10077524185180664 0.10602831840515137
-0.3798449635505676 0.11627912521362305 0.09845686703920364
-0.3798449635505676 0.11627912521362305 0.1062249019742012
-0.3798449635505676 0.1317828893661499 0.09786852449178696
-0.3798449635505676 0.1317828893661499 0.1067122370004654
-0.3798449635505676 0.1472867727279663 0.0975428968667984
-0.3798449635505676 0.1472867727279663 0.10700103640556335
-0.3798449635505676 0.16279065608978271 0.0978337824344635
-0.3798449635505676 0.16279065608978271 0.1070844829082489
-0.3798449635505676 0.17829453945159912 0.09822733700275421
-0.3798449635505676 0.17829453945159912 0.10717839002609253
-0.3798449635505676 0.19379842281341553 0.09858516603708267
-0.3798449635505676 0.19379842281341553 0.10766640305519104
-0.3798449635505676 0.20930230617523193 0.09884973615407944
-0.3798449635505676 0.20930230617523193 0.10837189108133316
-0.3798449635505676 0.22480618953704834 0.09914539754390717
-0.3798449635505676 0.22480618953704834 0.10938194394111633
-0.3798449635505676 0.24031007289886475 0.09947484731674194
-0.3798449635505676 0.24031007289886475 0.1118927150964737
-0.3798449635505676 0.25581395626068115 0.09967350959777832
