0.11627912521362305 -0.4316960573196411 0.06976747512817383
0.11627913266420364 -0.4064371883869171 0.06976747512817383
0.11627912521362305 -0.22586460411548615 -0.05426359176635742
0.11627912521362305 -0.2244766503572464 -0.05426358804106712
0.11627912521362305 -0.14827130734920502 -0.08527129888534546
0.11627912521362305 -0.14925159513950348 -0.06976741552352905
0.11627912521362305 -0.14936421811580658 -0.05426359176635742
0.11627912521362305 -0.14856243133544922 -0.038759708404541016
0.11627912521362305 -0.1473262906074524 -0.02325582504272461
0.11627912521362305 -0.13264323770999908 -0.10077518224716187
0.11627912521362305 -0.1428932398557663 -0.007751941680908203
0.11627912521362305 -0.13673049211502075 0.007751941680908203
0.11627912521362305 -0.1264064610004425 0.02325582504272461
0.11627911776304245 -0.11340354382991791 0.038759708404541016
0.11627912521362305 -0.10141658782958984 0.05426359176635742
0.11627912521362305 -0.09334096312522888 0.06976747512817383
0.11627912521362305 -0.07398573309183121 -0.11627906560897827
0.11627912521362305 -0.0848490297794342 0.08527135848999023
0.11627912521362305 -0.07083310186862946 0.10077524185180664
0.11627912521362305 -0.05664630979299545 0.11627912521362305
0.11627912521362305 -0.040563151240348816 0.1317828893661499
0.11627912521362305 -0.02820437029004097 -0.11627906560897827
0.11627912521362305 -0.014211252331733704 -0.10077518224716187
0.11627912521362305 -0.018171070143580437 0.02325582504272461
0.11627912521362305 -0.020423324778676033 0.038759708404541016
0.11627912521362305 -0.009381340816617012 0.05426359176635742
0.11627912521362305 -5.330587737262249e-05 -0.08527129888534546
0.11627912521362305 0.006333705969154835 -0.007751941680908203
0.11627912521362305 -0.0051858797669410706 0.007751941680908203
0.11627912521362305 0.008581380359828472 -0.06976741552352905
0.11627912521362305 0.013924957253038883 -0.05426359176635742
0.11627912521362305 0.018584027886390686 -0.038759708404541016
0.11627912521362305 0.01528681069612503 -0.02325582504272461
0.11627912521362305 0.009001648984849453 0.06976747512817383
0.11627912521362305 0.01742306724190712 0.08527135848999023
0.11627912521362305 0.022031787782907486 0.10077524185180664
0.11627912521362305 0.019080141559243202 0.11627912521362305
0.11627912521362305 0.013628929853439331 0.1317828893661499
0.11627912521362305 0.021035222336649895 0.1472867727279663
0.11627912521362305 0.021523812785744667 0.16279065608978271
0.11627912521362305 0.02891065552830696 0.1317828893661499
0.11627912521362305 0.07093457132577896 0.1317828893661499
0.11627912521362305 0.07516229152679443 0.1472867727279663
0.11627912521362305 0.07017313688993454 0.16279065608978271
0.11627912521362305 0.09321194142103195 -0.02325582504272461
0.11627912521362305 0.0970478355884552 -0.007751941680908203
0.11627912521362305 0.11012391746044159 -0.038759708404541016
0.11627912521362305 0.11349057406187057 0.007751941680908203
0.11627912521362305 0.13017570972442627 -0.05426359176635742
0.11627912521362305 0.14723969995975494 -0.1627907156944275
0.11627912521362305 0.14632675051689148 -0.14728683233261108
0.11627912521362305 0.14588256180286407 -0.13178294897079468
0.11627912521362305 0.14333319664001465 0.02325582504272461
0.11627912521362305 0.14751942455768585 -0.11627906560897827
0.11627912521362305 0.16216379404067993 -0.08527129888534546
0.11627912521362305 0.14954136312007904 -0.06976741552352905
0.11627912521362305 0.16331063210964203 -0.1627907007932663
0.11627912521362305 0.16923177242279053 -0.14728683233261108
0.11627912521362305 0.16829568147659302 -0.10077518224716187
0.11627912521362305 0.17899192869663239 -0.13178294897079468
0.11627912521362305 0.17856457829475403 -0.11627906560897827
0.11627912521362305 0.20241621136665344 0.02325582504272461
0.11627912521362305 0.36763283610343933 0.007751941680908203
0.11627912521362305 0.417824387550354 -0.10077518224716187
0.11627911776304245 0.4287372827529907 -0.08527129888534546
0.11627912521362305 0.42926114797592163 -0.06976741552352905
0.11627912521362305 0.4290178120136261 -0.05426359176635742
0.11627912521362305 0.4289306700229645 -0.038759708404541016
0.11627912521362305 0.42899662256240845 -0.02325582504272461
0.11627913266420364 0.42924803495407104 -0.007751941680908203
0.1317828893661499 -0.14793726801872253 -0.06976741552352905
0.1317828893661499 -0.14750206470489502 -0.05426359176635742
0.1317828893661499 -0.14532481133937836 -0.08527129888534546
0.1317828893661499 -0.14107434451580048 -0.038759708404541016
0.1317828893661499 -0.13374537229537964 -0.02325582504272461
0.1317828893661499 -0.12965215742588043 -0.10077518224716187
0.1317828893661499 -0.12389490753412247 -0.007751941680908203
0.1317828893661499 -0.10805634409189224 -0.10077518224716187
0.1317828893661499 -0.1125539243221283 0.007751941680908203
0.1317828893661499 -0.09690449386835098 -0.10077518224716187
0.1317828893661499 -0.09428082406520844 0.02325582504272461
0.1317828893661499 -0.08579011261463165 0.038759708404541016
0.1317828893661499 -0.07409127056598663 -0.11627906560897827
0.1317828893661499 -0.041676029562950134 0.007751941680908203
0.1317828893661499 -0.047684166580438614 0.02325582504272461
0.1317828893661499 -0.05252885818481445 0.038759708404541016
0.1317828893661499 -0.03925509378314018 0.08527135848999023
0.1317828893661499 -0.04269128292798996 0.10077524185180664
0.1317828893661499 -0.024769438430666924 -0.11627906560897827
0.1317828893661499 -0.03498004749417305 -0.007751941680908203
0.1317828893661499 -0.03577635437250137 0.11627912521362305
0.1317828893661499 -0.018176238983869553 -0.10077517479658127
0.1317828893661499 -0.01857386715710163 -0.02325582504272461
0.1317828893661499 -0.021636659279465675 0.08527136594057083
0.1317828893661499 -0.011154992505908012 0.10077524185180664
0.1317828893661499 -0.013777868822216988 0.11627912521362305
0.1317828893661499 -0.005362627096474171 -0.08527129888534546
0.1317828893661499 0.0005623418837785721 -0.06976741552352905
0.1317828893661499 0.0033075660467147827 -0.05426359176635742
0.1317828893661499 -0.002482511568814516 -0.038759708404541016
0.1317828893661499 0.02026168443262577 0.16279065608978271
0.1317828893661499 0.030270416289567947 0.1472867727279663
0.1317828893661499 0.07220948487520218 0.1472867727279663
0.1317828893661499 0.07147284597158432 0.16279065608978271
0.1317828893661499 0.13084843754768372 -0.20930230617523193
0.1317828893661499 0.12890054285526276 -0.19379842281341553
0.1317828893661499 0.14054028689861298 -0.24031007289886475
0.1317828893661499 0.1412380188703537 -0.22480618953704834
0.1317828893661499 0.13282808661460876 -0.1782945990562439
0.1317828893661499 0.1422976702451706 -0.1627907156944275
0.1317828893661499 0.14278309047222137 -0.14728683233261108
0.1317828893661499 0.1439102292060852 -0.13178294897079468
0.1317828893661499 0.1468431055545807 -0.007751941680908203
0.1317828893661499 0.14628490805625916 0.007751941680908203
0.1317828893661499 0.15010371804237366 -0.24031007289886475
0.1317828893661499 0.15396767854690552 -0.22480617463588715
0.1317828893661499 0.16026440262794495 -0.20930230617523193
0.1317828893661499 0.15859389305114746 -0.11627906560897827
0.1317828893661499 0.1525643765926361 -0.02325582504272461
0.1317828893661499 0.16335375607013702 -0.19379842281341553
0.1317828893661499 0.1647183746099472 -0.1782945990562439
0.1317828893661499 0.16783630847930908 -0.1627907156944275
0.1317828893661499 0.16390801966190338 -0.11627906560897827
0.1317828893661499 0.16854797303676605 -0.038759708404541016
0.1317828893661499 0.17764386534690857 0.02325582504272461
0.1317828893661499 0.17868150770664215 -0.14728683233261108
0.1317828893661499 0.17934881150722504 -0.13178294897079468
0.1317828893661499 0.1790837049484253 0.02325582318007946
0.1317828893661499 0.24889159202575684 -0.05426359176635742
0.1317828893661499 0.2601364254951477 -0.08527129888534546
0.1317828893661499 0.25729724764823914 -0.06976741552352905
0.1317828893661499 0.28686630725860596 -0.10077517479658127
0.1317828893661499 0.3681451678276062 0.007751941680908203
0.1317828893661499 0.40387415885925293 -0.10077518224716187
0.1317828893661499 0.42836910486221313 -0.08527129888534546
0.1317828893661499 0.4296967387199402 -0.06976741552352905
0.1317828893661499 0.42972081899642944 -0.05426359176635742
0.1317828893661499 0.42982733249664307 -0.038759708404541016
0.1317828893661499 0.429685115814209 -0.02325582504272461
0.1317828893661499 0.42989808320999146 -0.007751941680908203
0.1472867727279663 -0.1330879181623459 -0.08527129888534546
0.1472867727279663 -0.11371253430843353 -0.08527129888534546
0.1472867727279663 -0.07403367757797241 -0.10077518224716187
0.1472867727279663 -0.07466506958007812 -0.08527129888534546
0.1472867727279663 -0.06126675009727478 -0.11627906560897827
0.1472867727279663 -0.062179774045944214 -0.06976741552352905
0.1472867727279663 -0.0372314378619194 -0.11627906560897827
0.1472867727279663 -0.03214404359459877 -0.10077518224716187
0.1472867727279663 -0.032764751464128494 -0.08527129888534546
0.1472867727279663 -0.03837427496910095 -0.06976741552352905
0.1472867727279663 0.01835768111050129 0.16279065608978271
0.1472867727279663 0.03572932258248329 0.1472867727279663
0.1472867727279663 0.07118856906890869 0.1472867727279663
0.1472867727279663 0.07265587896108627 0.16279065608978271
0.1472867727279663 0.13016510009765625 -0.19379842281341553
0.1472867727279663 0.14674130082130432 -0.20930230617523193
0.1472867727279663 0.14225807785987854 -0.1782945990562439
0.1472867727279663 0.1466061770915985 -0.1627907156944275
0.1472867727279663 0.14742089807987213 -0.20930230617523193
0.1472867727279663 0.15122924745082855 -0.19379842281341553
0.1472867727279663 0.1528138369321823 -0.1782945990562439
0.1472867727279663 0.15283595025539398 -0.1627907156944275
0.1472867727279663 0.32302725315093994 -0.007751941680908203
0.1472867727279663 0.3404023051261902 -0.02325582504272461
0.1472867727279663 0.387137234210968 -0.02325582504272461
0.1472867727279663 0.4255640208721161 -0.02325582504272461
0.1472867727279663 0.42639461159706116 -0.02325582504272461
0.1472867727279663 0.42648714780807495 -0.007751941680908203
0.16279065608978271 -0.13753187656402588 -0.14728683233261108
0.16279065608978271 -0.1368587464094162 -0.13178294897079468
0.16279065608978271 -0.12938624620437622 -0.14728683233261108
0.16279065608978271 -0.12666839361190796 -0.13178294897079468
0.16279065608978271 0.00214236113242805 0.17829453945159912
0.16279065608978271 0.01922149769961834 0.16279065608978271
0.16279065608978271 0.03412867337465286 0.17829453945159912
0.16279065608978271 0.049420371651649475 0.1472867727279663
0.16279065608978271 0.06201978400349617 0.1472867727279663
0.16279065608978271 0.07395274937152863 0.16279065608978271
0.17829453945159912 -0.009540935046970844 0.17829453945159912
0.17829453945159912 0.02688988856971264 0.16279065608978271
0.17829453945159912 0.07416107505559921 0.16279065608978271
0.17829453945159912 0.07173411548137665 0.17829453945159912
0.19379842281341553 -0.11628296226263046 -0.27131783962249756
0.19379842281341553 -0.11627156287431717 -0.27131783962249756
0.19379842281341553 -0.03981124609708786 0.19379842281341553
0.19379842281341553 -0.0019399896264076233 0.17829453945159912
0.19379842281341553 0.0005192002281546593 0.19379842281341553
0.19379842281341553 0.0838068500161171 0.17829453945159912
0.20930230617523193 -0.10172608494758606 -0.28682172298431396
0.20930230617523193 -0.09301199018955231 -0.30232560634613037
0.20930230617523193 -0.09977196156978607 -0.28682172298431396
0.20930230617523193 -0.07999639213085175 -0.30232560634613037
0.20930230617523193 -0.039905063807964325 0.19379842281341553
0.20930230617523193 0.021399425342679024 0.17829453945159912
0.20930230617523193 0.028642114251852036 0.19379842281341553
0.20930230617523193 0.08555027097463608 0.17829452455043793
0.22480618953704834 -0.059012964367866516 -0.317829430103302
0.22480618953704834 -0.03829013183712959 -0.317829430103302
0.22480618953704834 -0.03213139623403549 0.19379842281341553
0.22480618953704834 0.05183325707912445 0.17829453945159912
0.22480618953704834 0.07250483334064484 0.17829453945159912
0.22480618953704834 0.07550356537103653 0.19379842281341553
0.24031007289886475 -0.054727330803871155 0.20930230617523193
0.24031007289886475 -0.010421253740787506 0.19379842281341553
0.24031005799770355 -0.018318260088562965 0.20930230617523193
0.24031007289886475 0.08529654890298843 0.19379842281341553
0.25581395626068115 -0.055191103368997574 0.20930230617523193
0.25581395626068115 0.02687351405620575 0.19379842281341553
0.25581395626068115 0.023642396554350853 0.20930230617523193
0.25581395626068115 0.07858516275882721 0.19379842281341553
0.27131783962249756 -0.05443490296602249 0.20930230617523193
0.27131783962249756 0.07436536252498627 0.20930230617523193
0.28682172298431396 -0.07052589952945709 0.22480618953704834
0.28682172298431396 -0.026839729398489 0.20930230617523193
0.28682172298431396 -0.03442767262458801 0.22480618953704834
0.28682172298431396 0.07605347037315369 0.20930230617523193
0.30232560634613037 -0.07119668275117874 0.22480618953704834
0.30232560634613037 0.039098676294088364 0.20930230617523193
0.30232560634613037 0.040185220539569855 0.22480618953704834
0.30232560634613037 0.07180540263652802 0.20930230617523193
0.3178294897079468 -0.08720569312572479 0.24031007289886475
0.3178294897079468 -0.05680573731660843 0.22480618953704834
0.3178294897079468 -0.05943256616592407 0.24031007289886475
0.3178294897079468 0.07610142230987549 0.22480618953704834
0.3333333730697632 -0.09066884219646454 0.24031007289886475
0.3333333730697632 -0.007139395922422409 0.22480618953704834
0.3333333432674408 -0.0051507726311683655 0.24031007289886475
0.3333333730697632 0.08613094687461853 0.22480620443820953
0.3488372564315796 -0.10262300074100494 0.25581395626068115
0.3488372564315796 -0.08202914893627167 0.24031007289886475
0.3488372564315796 -0.07958775758743286 0.25581395626068115
0.3488372564315796 0.0697687491774559 0.24031007289886475
0.364341139793396 -0.10837660729885101 0.25581395626068115
0.364341139793396 -0.055528730154037476 0.24031007289886475
0.364341139793396 -0.04855591803789139 0.25581395626068115
0.364341139793396 0.09941869229078293 0.24031007289886475
0.37984490394592285 -0.16061581671237946 0.27131783962249756
0.37984490394592285 -0.13924095034599304 0.27131783962249756
0.37984490394592285 -0.1045837253332138 0.25581395626068115
0.37984490394592285 -0.10273875296115875 0.27131783962249756
0.37984490394592285 -0.0993829071521759 0.27131783962249756
0.37984490394592285 0.000632215291261673 0.24031007289886475
0.37984490394592285 -0.001110190525650978 0.25581395626068115
0.37984490394592285 0.10688982903957367 0.24031007289886475
0.39534878730773926 -0.16593900322914124 0.27131783962249756
0.39534878730773926 -0.08797719329595566 0.25581395626068115
0.39534878730773926 -0.07347571104764938 0.27131783962249756
0.39534878730773926 0.060169611126184464 0.25581395626068115
0.39534878730773926 0.08419126272201538 0.24031007289886475
0.39534878730773926 0.1171393170952797 0.24031007289886475
0.41085267066955566 -0.17423608899116516 0.27131783962249756
0.41085267066955566 -0.16371937096118927 0.28682172298431396
0.41085267066955566 -0.14197838306427002 0.28682172298431396
0.41085267066955566 -0.06444239616394043 0.25581395626068115
0.41085267066955566 -0.048461273312568665 0.27131783962249756
0.41085267066955566 0.11599249392747879 0.25581395626068115
0.42635655403137207 -0.17528389394283295 0.28682172298431396
0.42635655403137207 -0.11835776269435883 0.27131783962249756
0.42635655403137207 -0.10983996838331223 0.28682172298431396
0.42635655403137207 -0.031010301783680916 0.25581395626068115
0.42635655403137207 -0.01621164381504059 0.27131783962249756
0.42635655403137207 0.12733042240142822 0.25581395626068115
0.4418604373931885 -0.1791784167289734 0.28682172298431396
0.4418604373931885 -0.10613881796598434 0.27131783962249756
0.4418604373931885 -0.09062014520168304 0.28682172298431396
0.4418604373931885 0.006546247750520706 0.25581395626068115
0.4418604373931885 0.009527654387056828 0.27131783962249756
0.4418604373931885 0.13364717364311218 0.25581395626068115
0.4573643207550049 -0.17937175929546356 0.28682172298431396
0.4573643207550049 -0.09703905880451202 0.27131783962249756
0.4573643207550049 -0.07304859161376953 0.28682172298431396
0.4573642909526825 0.042556777596473694 0.27131783962249756
0.4573643207550049 0.10305006802082062 0.25581395626068115
0.4573643207550049 0.1319277286529541 0.25581392645835876
0.4728682041168213 -0.1744857132434845 0.28682172298431396
0.4728681743144989 -0.0829707458615303 0.27131783962249756
0.4728682041168213 -0.056781552731990814 0.28682172298431396
0.4728682041168213 0.13199062645435333 0.27131783962249756
0.4883720874786377 -0.16302381455898285 0.28682172298431396
0.4883720874786377 -0.16883686184883118 0.30232560634613037
0.4883720874786377 -0.15269270539283752 0.30232560634613037
0.4883720874786377 -0.060217201709747314 0.27131783962249756
0.4883720874786377 -0.03805987909436226 0.28682172298431396
0.4883720874786377 0.14374421536922455 0.27131783962249756
0.5038759708404541 -0.17072920501232147 0.30232560634613037
0.5038759708404541 -0.13950563967227936 0.28682172298431396
0.5038759708404541 -0.13759246468544006 0.30232560634613037
0.5038759708404541 -0.038198068737983704 0.27131783962249756
0.5038759708404541 -0.02085134945809841 0.28682172298431396
0.5038759708404541 0.155117928981781 0.27131783962249756
0.5193798542022705 -0.16879802942276 0.30232560634613037
0.5193798542022705 -0.12573252618312836 0.30232560634613037
0.5193798542022705 -0.11446838080883026 0.28682172298431396
0.5193798542022705 -0.016761770471930504 0.27131783962249756
0.5193798542022705 -0.0027503317687660456 0.28682172298431396
0.5193798542022705 0.16636577248573303 0.27131783962249756
0.5348837375640869 -0.16601362824440002 0.30232560634613037
0.5348837375640869 -0.12115363776683807 0.30232560634613037
0.5348837375640869 -0.09526354819536209 0.28682172298431396
0.5348837375640869 0.011946679092943668 0.27131783962249756
0.5348837375640869 0.02143075130879879 0.28682172298431396
0.5348837375640869 0.16782677173614502 0.27131783962249756
0.5503876209259033 -0.15737318992614746 0.30232560634613037
0.5503876209259033 -0.11492545157670975 0.30232560634613037
0.5503876209259033 -0.08751359581947327 0.28682172298431396
0.5503876209259033 0.06445387750864029 0.28682172298431396
0.5503876209259033 0.08749338984489441 0.27131783962249756
0.5503876209259033 0.13885441422462463 0.27131783962249756
0.5503876209259033 0.13992154598236084 0.28682172298431396
0.5503876209259033 0.17881618440151215 0.28682172298431396
0.5658915042877197 -0.14901193976402283 0.30232560634613037
0.5658915042877197 -0.1047537550330162 0.30232560634613037
0.5658915042877197 -0.07678119093179703 0.28682172298431396
0.5658915042877197 0.1816103607416153 0.28682172298431396
0.5813953876495361 -0.13587859272956848 0.30232560634613037
0.5813953876495361 -0.0779782384634018 0.30232560634613037
0.5813953876495361 -0.06633177399635315 0.28682172298431396
0.5813953876495361 0.18280594050884247 0.28682172298431396
0.5968992710113525 -0.11860436201095581 0.30232560634613037
0.5968992710113525 -0.06580868363380432 0.30232560634613037
0.5968992114067078 -0.0525522343814373 0.28682172298431396
0.5968992710113525 0.1835957020521164 0.28682172298431396
0.612403154373169 -0.09380050003528595 0.30232560634613037
0.612403154373169 -0.05278094485402107 0.30232560634613037
0.612403154373169 -0.03157845512032509 0.28682172298431396
0.612403154373169 0.1803237497806549 0.28682172298431396
0.6279069185256958 -0.08054226636886597 0.30232560634613037
0.6279069185256958 -0.03776971995830536 0.30232560634613037
0.6279069185256958 -0.017499815672636032 0.28682172298431396
0.6279069185256958 0.16949647665023804 0.28682172298431396
0.6434108018875122 -0.0645897388458252 0.30232560634613037
0.6434108018875122 -0.025443322956562042 0.30232560634613037
0.6434108018875122 -0.009856950491666794 0.28682172298431396
0.6434108018875122 0.16480639576911926 0.28682172298431396
0.6589146852493286 -0.04726557433605194 0.30232560634613037
0.6589146852493286 -0.01401812955737114 0.30232560634613037
0.6589146852493286 -0.002925623208284378 0.28682172298431396
0.6589146852493286 0.15296079218387604 0.28682172298431396
0.674418568611145 -0.03002244234085083 0.30232560634613037
0.674418568611145 0.004093490540981293 0.28682172298431396
0.674418568611145 -0.0007352877873927355 0.30232560634613037
0.674418568611145 0.14616824686527252 0.28682172298431396
0.6899224519729614 -0.012484660372138023 0.30232560634613037
0.6899224519729614 0.013335093855857849 0.28682172298431396
0.6899224519729614 0.013575701043009758 0.30232560634613037
0.6899224519729614 0.14299389719963074 0.28682172298431396
0.7054263353347778 0.006556586362421513 0.30232560634613037
0.7054263353347778 0.027930937707424164 0.28682172298431396
0.7054263353347778 0.029926912859082222 0.30232560634613037
0.7054263353347778 0.14032697677612305 0.28682172298431396
0.7209302186965942 0.0335833877325058 0.30232560634613037
0.7209302186965942 0.048994459211826324 0.28682172298431396
0.7209302186965942 0.05023619905114174 0.30232560634613037
0.7209302186965942 0.1390056014060974 0.28682172298431396
0.7209302186965942 0.22243155539035797 0.28682172298431396
0.7209302186965942 0.24858053028583527 0.28682172298431396
0.7364341020584106 0.064863421022892 0.30232560634613037
0.7364341020584106 0.07714688777923584 0.28682172298431396
0.7364341020584106 0.07727590203285217 0.30232560634613037
0.7364341020584106 0.13374821841716766 0.28682172298431396
0.7364341020584106 0.1435667872428894 0.30232560634613037
0.7364341616630554 0.20977017283439636 0.28682172298431396
0.7364341020584106 0.21292170882225037 0.30232560634613037
0.7364341020584106 0.2729240357875824 0.28682172298431396
0.751937985420227 0.15290606021881104 0.30232560634613037
0.751937985420227 0.2216295450925827 0.28682172298431396
0.751937985420227 0.22657836973667145 0.30232560634613037
0.751937985420227 0.3221874237060547 0.28682172298431396
0.7674418687820435 0.23967665433883667 0.30232560634613037
0.7674418687820435 0.2691901922225952 0.28682172298431396
0.7674418687820435 0.30790093541145325 0.30232560634613037
0.7674418687820435 0.34017789363861084 0.28682172298431396
0.7829457521438599 0.2674315273761749 0.30232560634613037
0.7829457521438599 0.3050925135612488 0.28682172298431396
0.7829457521438599 0.350647509098053 0.28682175278663635
0.7829457521438599 0.34906065464019775 0.30232560634613037
0.7984496355056763 0.2963334321975708 0.30232560634613037
0.7984496355056763 0.3325739800930023 0.28682172298431396
0.7984496355056763 0.3380511701107025 0.28682172298431396
0.7984496355056763 0.3659012019634247 0.30232560634613037
0.8139535188674927 0.3255252242088318 0.30232560634613037
0.8139535188674927 0.38415244221687317 0.30232560634613037
0.8294573426246643 0.3511570692062378 0.302325576543808
0.8294574022293091 0.4063184857368469 0.30232560634613037
0.8449612855911255 0.37495502829551697 0.30232560634613037
0.8449612855911255 0.42678728699684143 0.30232560634613037
0.8604651689529419 0.40183025598526 0.30232560634613037
0.8604651689529419 0.4465517997741699 0.30232560634613037
0.8759689331054688 0.4277312159538269 0.30232560634613037
0.8759689331054688 0.48566344380378723 0.30232560634613037
0.8914728164672852 0.4549793004989624 0.30232560634613037
0.8914728164672852 0.5109172463417053 0.30232560634613037
0.9069766998291016 0.48043739795684814 0.30232560634613037
0.9069766998291016 0.5315970182418823 0.30232560634613037
0.922480583190918 0.5099661350250244 0.30232560634613037
0.922480583190918 0.5553001761436462 0.30232560634613037
0.9379844665527344 0.54595547914505 0.30232560634613037
0.9379844665527344 0.5831211805343628 0.30232560634613037
0.9689922332763672 0.6401040554046631 0.3178294897079468
0.9689922332763672 0.6500386595726013 0.3178294897079468
0.9844961166381836 0.662627100944519 0.3178294897079468
0.9844961166381836 0.7329697608947754 0.3178294897079468
-0.9844961166381836 0.674418568611145 0.3164566159248352
-0.9844961166381836 0.674418568611145 0.32014721632003784
-0.9844961166381836 0.6899224519729614 0.3149959146976471
-0.9844961166381836 0.6899224519729614 0.3227628767490387
-0.9844961166381836 0.7054263353347778 0.3143876791000366
-0.9844961166381836 0.7054263353347778 0.32389000058174133
-0.9844961166381836 0.7209302186965942 0.31470081210136414
-0.9844961166381836 0.7209302186965942 0.3234490156173706
-0.9689922332763672 0.6434108018875122 0.317356139421463
-0.9689922332763672 0.6434108018875122 0.31832534074783325
-0.9689922332763672 0.6589146852493286 0.31710171699523926
-0.9689922332763672 0.6589146852493286 0.31863850355148315
-0.9069767594337463 0.5038759708404541 0.3008303642272949
-0.9069766998291016 0.5038759708404541 0.30455052852630615
-0.9069767594337463 0.5193798542022705 0.3009704053401947
-0.9069767594337463 0.5193798542022705 0.30427971482276917
-0.8914728760719299 0.4728682041168213 0.300895094871521
-0.8914728760719299 0.4728682041168213 0.3041761517524719
-0.8914728164672852 0.4883720874786377 0.30067193508148193
-0.8914728760719299 0.4883720874786377 0.30441805720329285
-0.8914728760719299 0.5038759708404541 0.3013002276420593
-0.8914728164672852 0.5038759708404541 0.3035108149051666
-0.8759689927101135 0.4418604373931885 0.3017774522304535
-0.8759689927101135 0.4418604373931885 0.3030258119106293
-0.8759689927101135 0.4573643207550049 0.30057424306869507
-0.8759689331054688 0.4573643207550049 0.30440905690193176
-0.8759689927101135 0.4728682041168213 0.30148065090179443
-0.8759689927101135 0.4728682041168213 0.3032207190990448
-0.8604651093482971 0.42635655403137207 0.3003799319267273
-0.8604651093482971 0.42635655403137207 0.3044714033603668
-0.8604651689529419 0.4418604373931885 0.3008006513118744
-0.8604651689529419 0.4418604373931885 0.3039471507072449
-0.8449612259864807 0.39534878730773926 0.3006030321121216
-0.8449612259864807 0.39534878730773926 0.3038933277130127
-0.8449612855911255 0.41085267066955566 0.29981622099876404
-0.8449612259864807 0.4108526408672333 0.3045356869697571
-0.8449612259864807 0.42635655403137207 0.30149003863334656
-0.8449612259864807 0.42635655403137207 0.3030700087547302
-0.8294573426246643 0.364341139793396 0.3016960918903351
-0.8294573426246643 0.3643411695957184 0.3027383089065552
-0.8294573426246643 0.37984490394592285 0.29913195967674255
-0.8294573426246643 0.37984490394592285 0.30436971783638
-0.8294572830200195 0.39534878730773926 0.2997320592403412
-0.8294573426246643 0.39534878730773926 0.3040485978126526
-0.8139535188674927 0.3488372564315796 0.2990356385707855
-0.8139535188674927 0.3488372564315796 0.30369752645492554
-0.8139535188674927 0.364341139793396 0.2985619008541107
-0.8139535188674927 0.364341139793396 0.30393728613853455
-0.8139535188674927 0.37984490394592285 0.3003859221935272
-0.8139535188674927 0.37984487414360046 0.3032141625881195
-0.7984496355056763 0.3178294897079468 0.2979803681373596
-0.7984495759010315 0.3178294897079468 0.3033353388309479
-0.7984496355056763 0.3333333730697632 0.2941615581512451
-0.7984496355056763 0.3333333730697632 0.30385708808898926
-0.7984496355056763 0.3488372564315796 0.29467713832855225
-0.7984496355056763 0.3488372564315796 0.30357474088668823
-0.7984496355056763 0.364341139793396 0.3012177050113678
-0.7984496355056763 0.364341139793396 0.3025933802127838
-0.7829457521438599 0.28682172298431396 0.2993670701980591
-0.7829457521438599 0.28682172298431396 0.3029189705848694
-0.7829457521438599 0.30232560634613037 0.29363948106765747
-0.7829457521438599 0.30232560634613037 0.30358943343162537
-0.7829457521438599 0.3178294897079468 0.2866629362106323
-0.7829457521438599 0.3178294897079468 0.3033791780471802
-0.7829457521438599 0.3333333730697632 0.2862600088119507
-0.7829457521438599 0.3333333730697632 0.3028358817100525
-0.7674418687820435 0.25581395626068115 0.298408180475235
-0.7674418687820435 0.25581395626068115 0.3024948835372925
-0.7674419283866882 0.27131783962249756 0.2876799404621124
-0.7674418687820435 0.27131783962249756 0.3030150830745697
-0.7674418687820435 0.28682172298431396 0.28850096464157104
-0.7674418687820435 0.28682172298431396 0.30306556820869446
-0.7674418687820435 0.30232560634613037 0.28646326065063477
-0.7674418687820435 0.30232560634613037 0.3027864992618561
-0.7674418687820435 0.3178294897079468 0.2859053909778595
-0.7674418687820435 0.3178294897079468 0.2996058762073517
-0.7674418687820435 0.3333333730697632 0.28610172867774963
-0.7674418687820435 0.3333333730697632 0.2941621243953705
-0.751937985420227 0.1317828893661499 0.3011281192302704
-0.751937985420227 0.1317828893661499 0.30269113183021545
-0.751937985420227 0.1472867727279663 0.3005512058734894
-0.751937985420227 0.1472867727279663 0.30288833379745483
-0.751937985420227 0.16279065608978271 0.3006289601325989
-0.751937985420227 0.16279064118862152 0.30287179350852966
-0.751937985420227 0.17829453945159912 0.3008953928947449
-0.751937985420227 0.17829453945159912 0.30272507667541504
-0.751937985420227 0.19379842281341553 0.3011782169342041
-0.751937985420227 0.19379842281341553 0.30255186557769775
-0.751937985420227 0.20930230617523193 0.3005249500274658
-0.751937985420227 0.20930232107639313 0.3025129735469818
-0.751937985420227 0.22480618953704834 0.2929852604866028
-0.751937985420227 0.22480618953704834 0.30249863862991333
-0.751937985420227 0.24031007289886475 0.28621435165405273
-0.751937985420227 0.24031007289886475 0.30240514874458313
-0.751937985420227 0.25581395626068115 0.2860725522041321
-0.751937985420227 0.25581395626068115 0.30236539244651794
-0.751937985420227 0.27131783962249756 0.28632205724716187
-0.751937985420227 0.27131783962249756 0.3023826479911804
-0.751937985420227 0.28682172298431396 0.28654882311820984
-0.751937985420227 0.28682172298431396 0.29815247654914856
-0.751937985420227 0.30232560634613037 0.28638577461242676
-0.751937985420227 0.30232560634613037 0.2938465476036072
-0.751937985420227 0.3178294897079468 0.28645947575569153
-0.751937985420227 0.3178294897079468 0.2897437810897827
-0.7364341020584106 0.08527135848999023 0.2905566990375519
-0.7364341020584106 0.08527135848999023 0.3026961386203766
-0.7364341020584106 0.10077524185180664 0.28633230924606323
-0.7364341020584106 0.10077524185180664 0.3029877841472626
-0.7364341020584106 0.11627912521362305 0.2867930233478546
-0.7364340424537659 0.11627912521362305 0.3031314015388489
-0.7364341020584106 0.1317828893661499 0.295768678188324
-0.7364341020584106 0.1317828893661499 0.30329805612564087
-0.7364341020584106 0.1472867727279663 0.2980932891368866
-0.7364341020584106 0.1472867727279663 0.3033522367477417
-0.7364341020584106 0.16279065608978271 0.29867228865623474
-0.7364341020584106 0.16279065608978271 0.30341190099716187
-0.7364341020584106 0.17829453945159912 0.29894405603408813
-0.7364340424537659 0.17829453945159912 0.3033123314380646
-0.7364341020584106 0.19379842281341553 0.2985062599182129
-0.7364341020584106 0.19379842281341553 0.30314192175865173
-0.7364341020584106 0.20930230617523193 0.29680800437927246
-0.7364341020584106 0.20930230617523193 0.30293139815330505
-0.7364341020584106 0.22480618953704834 0.28855615854263306
-0.7364341020584106 0.22480620443820953 0.30256950855255127
-0.7364341020584106 0.24031007289886475 0.2863326072692871
-0.7364341020584106 0.24031007289886475 0.29866424202919006
-0.7364341020584106 0.25581395626068115 0.28622862696647644
-0.7364341020584106 0.25581395626068115 0.2963581383228302
-0.7364341020584106 0.27131783962249756 0.28642702102661133
-0.7364341020584106 0.27131783962249756 0.29384171962738037
-0.7209302186965942 0.05426359176635742 0.28666600584983826
-0.7209302186965942 0.05426359176635742 0.2922405004501343
-0.7209302186965942 0.06976747512817383 0.28563836216926575
-0.7209302186965942 0.06976747512817383 0.2977222204208374
-0.7209302186965942 0.08527135848999023 0.28543218970298767
-0.7209302186965942 0.08527135848999023 0.2964237928390503
-0.7209302186965942 0.10077524185180664 0.2855035662651062
-0.7209302186965942 0.10077524185180664 0.29641151428222656
-0.7209302186965942 0.11627912521362305 0.2859942615032196
-0.7209302186965942 0.11627912521362305 0.2971420884132385
-0.7209302186965942 0.1317828893661499 0.2977520227432251
-0.7209302186965942 0.1317828893661499 0.30258703231811523
-0.7209302186965942 0.1472867727279663 0.29978540539741516
-0.7209302186965942 0.1472867727279663 0.30290359258651733
-0.7209302186965942 0.16279065608978271 0.2999439537525177
-0.7209302186965942 0.16279065608978271 0.30313366651535034
-0.7209302186965942 0.17829453945159912 0.30023127794265747
-0.7209302186965942 0.17829453945159912 0.30311378836631775
-0.7209302186965942 0.19379842281341553 0.3001895248889923
-0.720930278301239 0.19379842281341553 0.30301129817962646
-0.7209302186965942 0.20930230617523193 0.29949086904525757
-0.7209302186965942 0.20930230617523193 0.30287089943885803
-0.7209302186965942 0.22480618953704834 0.3003354072570801
-0.7209302186965942 0.22480618953704834 0.3024607002735138
-0.7209302186965942 0.25581395626068115 0.28661492466926575
-0.7209302186965942 0.25581395626068115 0.29031333327293396
-0.7054263353347778 0.038759708404541016 0.28582891821861267
-0.7054263353347778 0.038759708404541016 0.29649484157562256
-0.7054263353347778 0.05426359176635742 0.2854626476764679
-0.7054263353347778 0.05426359176635742 0.29441696405410767
-0.7054263353347778 0.06976747512817383 0.2854078412055969
-0.7054263353347778 0.06976747512817383 0.2933388948440552
-0.7054263353347778 0.08527135848999023 0.28544530272483826
-0.7054263353347778 0.08527135848999023 0.2929004430770874
-0.7054263353347778 0.10077524185180664 0.28553083539009094
-0.7054263353347778 0.10077524185180664 0.29319506883621216
-0.7054263353347778 0.11627912521362305 0.28591209650039673
-0.7054263353347778 0.11627912521362305 0.29325470328330994
-0.7054263353347778 0.16279065608978271 0.3022055923938751
-0.7054263353347778 0.16279065608978271 0.3023686408996582
-0.7054263353347778 0.17829453945159912 0.30228573083877563
-0.7054263353347778 0.17829453945159912 0.30234283208847046
-0.6899224519729614 0.007751941680908203 0.296935498714447
-0.6899224519729614 0.007751941680908203 0.3028678894042969
-0.6899224519729614 0.02325582504272461 0.2858637571334839
-0.6899224519729614 0.02325582504272461 0.296191543340683
-0.6899224519729614 0.038759708404541016 0.2854650616645813
-0.6899224519729614 0.038759708404541016 0.2932835817337036
-0.6899224519729614 0.05426359176635742 0.2854149639606476
-0.6899224519729614 0.05426359176635742 0.29226920008659363
-0.6899224519729614 0.06976747512817383 0.28544527292251587
-0.6899224519729614 0.06976747512817383 0.2918860912322998
-0.6899224519729614 0.08527135848999023 0.28549447655677795
-0.6899224519729614 0.08527135848999023 0.2918720245361328
-0.6899224519729614 0.10077524185180664 0.2855888903141022
-0.6899224519729614 0.10077524185180664 0.2922772169113159
-0.6899224519729614 0.11627912521362305 0.2858976721763611
-0.6899224519729614 0.11627912521362305 0.2925229072570801
-0.674418568611145 -0.02325582504272461 0.3006250262260437
-0.674418568611145 -0.02325582504272461 0.3032234013080597
-0.674418568611145 -0.007751941680908203 0.2976805567741394
-0.6744185090065002 -0.007751941680908203 0.3033486604690552
-0.674418568611145 0.007751941680908203 0.2861980199813843
-0.674418568611145 0.007751941680908203 0.2947114109992981
-0.674418568611145 0.02325582504272461 0.2855413258075714
-0.674418568611145 0.02325582504272461 0.2931838631629944
-0.674418568611145 0.038759708404541016 0.285420298576355
-0.674418568611145 0.038759708404541016 0.2919333577156067
-0.674418568611145 0.05426359176635742 0.28543010354042053
-0.674418568611145 0.05426359176635742 0.2914392948150635
-0.674418568611145 0.06976747512817383 0.28545311093330383
-0.674418568611145 0.06976747512817383 0.2913220524787903
-0.674418568611145 0.08527135848999023 0.28547927737236023
-0.674418568611145 0.08527135848999023 0.291494220495224
-0.674418568611145 0.10077524185180664 0.2855512499809265
-0.674418568611145 0.10077524185180664 0.29201507568359375
-0.674418568611145 0.11627912521362305 0.2857418954372406
-0.674418568611145 0.11627912521362305 0.2926592230796814
-0.674418568611145 0.1317828893661499 0.28652438521385193
-0.674418568611145 0.1317828893661499 0.2900885045528412
-0.6589146852493286 -0.038759708404541016 0.30042484402656555
-0.6589146852493286 -0.038759708404541016 0.30375364422798157
-0.6589146852493286 -0.02325582504272461 0.29939478635787964
-0.6589146852493286 -0.02325582504272461 0.3035582900047302
-0.6589146852493286 0.007751941680908203 0.2857787013053894
-0.6589146852493286 0.007751941680908203 0.2926904559135437
-0.6589146852493286 0.02325582504272461 0.28542259335517883
-0.6589146852493286 0.02325582504272461 0.2921164631843567
-0.6589146852493286 0.038759708404541016 0.28537654876708984
-0.6589146852493286 0.038759708404541016 0.29128193855285645
-0.6589146852493286 0.05426359176635742 0.28540146350860596
-0.6589146852493286 0.05426358804106712 0.29091891646385193
-0.6589146852493286 0.06976747512817383 0.28543105721473694
-0.6589146852493286 0.06976747512817383 0.2908387780189514
-0.6589146852493286 0.08527135848999023 0.2854553163051605
-0.6589146852493286 0.08527135848999023 0.2910209894180298
-0.6589146852493286 0.10077524185180664 0.2854667901992798
-0.6589146852493286 0.10077524185180664 0.2916308045387268
-0.6589146852493286 0.11627912521362305 0.28548064827919006
-0.6589146852493286 0.11627912521362305 0.2926297187805176
-0.6589146852493286 0.1317828893661499 0.285885751247406
-0.6589146852493286 0.1317828893661499 0.29288363456726074
-0.643410861492157 -0.05426359176635742 0.30031871795654297
-0.6434108018875122 -0.05426359176635742 0.30403316020965576
-0.6434109210968018 -0.038759708404541016 0.29996946454048157
-0.6434108018875122 -0.03875970467925072 0.30379152297973633
-0.643410861492157 -0.02325582504272461 0.3013343811035156
-0.643410861492157 -0.02325582318007946 0.30254846811294556
-0.643410861492157 -0.007751941680908203 0.28666359186172485
-0.643410861492157 -0.007751941680908203 0.2887043058872223
-0.643410861492157 0.007751941680908203 0.28556862473487854
-0.643410861492157 0.007751941680908203 0.2922823131084442
-0.643410861492157 0.02325582504272461 0.28529322147369385
-0.643410861492157 0.02325582504272461 0.2917473614215851
-0.643410861492157 0.038759708404541016 0.2852894067764282
-0.643410861492157 0.038759708404541016 0.2909400165081024
-0.643410861492157 0.05426359176635742 0.28532931208610535
-0.643410861492157 0.05426359176635742 0.2906031608581543
-0.643410861492157 0.06976747512817383 0.2853723466396332
-0.643410861492157 0.06976747512817383 0.29053568840026855
-0.643410861492157 0.08527135848999023 0.285409152507782
-0.643410861492157 0.08527135848999023 0.29067325592041016
-0.643410861492157 0.10077524185180664 0.28532999753952026
-0.643410861492157 0.10077524185180664 0.2913509011268616
-0.643410861492157 0.11627912521362305 0.28520146012306213
-0.6434108018875122 0.11627912521362305 0.2924976348876953
-0.643410861492157 0.1317828893661499 0.2853793799877167
-0.643410861492157 0.1317828893661499 0.29345065355300903
-0.643410861492157 0.1472867727279663 0.2856868505477905
-0.643410861492157 0.1472867727279663 0.29329946637153625
-0.643410861492157 0.16279065608978271 0.2861575484275818
-0.643410861492157 0.16279065608978271 0.2915979027748108
-0.6279069781303406 -0.06976741552352905 0.3003022074699402
-0.6279069781303406 -0.06976741552352905 0.3041805922985077
-0.6279069781303406 -0.05426359176635742 0.2999759018421173
-0.6279069781303406 -0.05426359176635742 0.30394691228866577
-0.6279069781303406 -0.038759708404541016 0.30066952109336853
-0.6279069781303406 -0.038759708404541016 0.30300217866897583
-0.6279069781303406 -0.007751941680908203 0.2862534523010254
-0.6279069781303406 -0.007751941680908203 0.29059314727783203
-0.6279069781303406 0.007751941680908203 0.2853314280509949
-0.6279069781303406 0.007751941680908203 0.29210302233695984
-0.6279069781303406 0.02325582504272461 0.2851264774799347
-0.6279069781303406 0.02325582504272461 0.2914915084838867
-0.6279069781303406 0.038759708404541016 0.28517451882362366
-0.6279069781303406 0.038759708404541016 0.29066845774650574
-0.6279069781303406 0.05426359176635742 0.28522804379463196
-0.6279069781303406 0.05426359176635742 0.2903364300727844
-0.6279069781303406 0.06976747512817383 0.28527432680130005
-0.6279069781303406 0.06976747512817383 0.2902655601501465
-0.6279069781303406 0.08527135848999023 0.2853023111820221
-0.6279069781303406 0.08527135848999023 0.29035425186157227
-0.6279069781303406 0.10077524185180664 0.28514593839645386
-0.6279070377349854 0.10077524930238724 0.29095137119293213
-0.6279069781303406 0.11627912521362305 0.28494149446487427
-0.6279069781303406 0.11627912521362305 0.29189246892929077
-0.6279069185256958 0.1317828893661499 0.2849951982498169
-0.6279069781303406 0.1317828893661499 0.29263755679130554
-0.6279069185256958 0.1472867727279663 0.28517621755599976
-0.6279069781303406 0.1472867727279663 0.29280924797058105
-0.6279069781303406 0.16279065608978271 0.2854972183704376
-0.6279069781303406 0.16279065608978271 0.2920399010181427
-0.6279069781303406 0.17829453945159912 0.28674057126045227
-0.6279069781303406 0.17829453945159912 0.2871389091014862
-0.6124030947685242 -0.08527129888534546 0.3005925416946411
-0.612403154373169 -0.08527129888534546 0.3041036128997803
-0.6124030947685242 -0.06976741552352905 0.3001123368740082
-0.6124030947685242 -0.06976741552352905 0.3039601147174835
-0.6124030947685242 -0.05426359176635742 0.30078819394111633
-0.6124030947685242 -0.05426359176635742 0.30293309688568115
-0.6124030947685242 -0.007751941680908203 0.2856193780899048
-0.6124030947685242 -0.007751941680908203 0.2915092706680298
-0.6124030351638794 0.007751941680908203 0.2850278615951538
-0.6124030947685242 0.007751941680908203 0.2916232943534851
-0.6124030947685242 0.02325582504272461 0.28496819734573364
-0.612403154373169 0.02325582690536976 0.29089659452438354
-0.6124030947685242 0.038759708404541016 0.2850678563117981
-0.6124030947685242 0.038759708404541016 0.29014408588409424
-0.6124030947685242 0.05426359176635742 0.28513672947883606
-0.6124030947685242 0.05426358804106712 0.28982558846473694
-0.6124030947685242 0.06976747512817383 0.28517577052116394
-0.6124030947685242 0.06976747512817383 0.28971460461616516
-0.6124030947685242 0.08527135848999023 0.2851381003856659
-0.6124030947685242 0.08527135848999023 0.2897711992263794
-0.6124030947685242 0.10077524185180664 0.28493866324424744
-0.6124030947685242 0.10077524185180664 0.2900889217853546
-0.6124030947685242 0.11627912521362305 0.2847065329551697
-0.6124030947685242 0.11627912521362305 0.29043033719062805
-0.6124030947685242 0.1317828893661499 0.2848234474658966
-0.6124030947685242 0.1317828893661499 0.29059678316116333
-0.6124030947685242 0.1472867727279663 0.2850841283798218
-0.6124030947685242 0.1472867727279663 0.29064616560935974
-0.6124030947685242 0.16279065608978271 0.28520143032073975
-0.612403154373169 0.16279065608978271 0.2907333970069885
-0.6124030947685242 0.17829453945159912 0.28594520688056946
-0.6124030947685242 0.17829453945159912 0.28875890374183655
-0.5968992114067078 -0.11627906560897827 0.30174189805984497
-0.5968992114067078 -0.11627906560897827 0.3029818832874298
-0.5968992114067078 -0.10077518224716187 0.3011821508407593
-0.5968992114067078 -0.10077518224716187 0.3036147952079773
-0.596899151802063 -0.08527129888534546 0.3004661500453949
-0.5968992114067078 -0.08527129888534546 0.30404210090637207
-0.5968992114067078 -0.06976741552352905 0.3008057475090027
-0.5968992710113525 -0.06976741552352905 0.30302220582962036
-0.5968992114067078 -0.038759708404541016 0.2867029011249542
-0.5968992114067078 -0.038759708404541016 0.28770485520362854
-0.5968992114067078 -0.02325582504272461 0.2857802212238312
-0.5968992114067078 -0.02325582504272461 0.29074394702911377
-0.5968992114067078 -0.007751941680908203 0.28509533405303955
-0.5968992114067078 -0.007751941680908203 0.29141175746917725
-0.5968992114067078 0.007751941680908203 0.2848793864250183
-0.5968992114067078 0.007751941680908203 0.2908766269683838
-0.5968992114067078 0.02325582504272461 0.28490906953811646
-0.5968992114067078 0.02325582504272461 0.2901972234249115
-0.5968992114067078 0.038759708404541016 0.284972608089447
-0.5968992114067078 0.038759708404541016 0.28963738679885864
-0.5968992114067078 0.05426359176635742 0.2850362956523895
-0.5968992114067078 0.05426359176635742 0.2893540859222412
-0.5968992114067078 0.06976747512817383 0.2850796580314636
-0.5968992710113525 0.06976747512817383 0.2891937792301178
-0.5968992114067078 0.08527135848999023 0.28498518466949463
-0.5968992114067078 0.08527135848999023 0.2891445457935333
-0.5968992114067078 0.10077524185180664 0.2846551239490509
-0.5968992114067078 0.10077524185180664 0.28919798135757446
-0.5968992114067078 0.11627912521362305 0.28422415256500244
-0.596899151802063 0.11627912521362305 0.28924494981765747
-0.5968992114067078 0.1317828893661499 0.2844224274158478
-0.5968992114067078 0.1317828893661499 0.2892395555973053
-0.596899151802063 0.1472867727279663 0.2850247919559479
-0.5968992114067078 0.1472867727279663 0.28913775086402893
-0.5968992114067078 0.16279065608978271 0.2852734923362732
-0.596899151802063 0.16279065608978271 0.28932541608810425
-0.5968992114067078 0.17829453945159912 0.2856222689151764
-0.5968992114067078 0.17829455435276031 0.28880733251571655
-0.5813953876495361 -0.13178294897079468 0.301409512758255
-0.5813953876495361 -0.13178294897079468 0.3033040463924408
-0.5813953876495361 -0.11627906560897827 0.3008630871772766
-0.5813953876495361 -0.11627906560897827 0.3039398789405823
-0.5813953876495361 -0.10077518224716187 0.30147793889045715
-0.5813953876495361 -0.10077518224716187 0.3032350242137909
-0.5813953876495361 -0.08527129888534546 0.3009950518608093
-0.5813953876495361 -0.08527130633592606 0.3032456040382385
-0.5813953876495361 -0.05426359176635742 0.28613701462745667
-0.5813953876495361 -0.05426359176635742 0.290533185005188
-0.5813953876495361 -0.038759708404541016 0.28546103835105896
-0.5813953876495361 -0.038759708404541016 0.2912273406982422
-0.5813953876495361 -0.02325582504272461 0.28508904576301575
-0.5813953876495361 -0.02325582504272461 0.291006863117218
-0.5813953876495361 -0.007751941680908203 0.2848878502845764
-0.5813953876495361 -0.007751941680908203 0.29064059257507324
-0.5813953876495361 0.007751941680908203 0.2848553955554962
-0.5813953876495361 0.007751941680908203 0.2900114357471466
-0.5813953876495361 0.02325582504272461 0.2848155200481415
-0.5813953876495361 0.02325582504272461 0.28956228494644165
-0.5813953876495361 0.038759708404541016 0.2847661077976227
-0.5813953876495361 0.038759708404541016 0.28920626640319824
-0.5813953876495361 0.05426359176635742 0.2848094403743744
-0.5813953876495361 0.05426359176635742 0.28896838426589966
-0.5813953876495361 0.06976747512817383 0.28485965728759766
-0.5813953876495361 0.06976747512817383 0.28876641392707825
-0.5813953876495361 0.08527135848999023 0.2846943736076355
-0.5813953876495361 0.08527135848999023 0.28857457637786865
-0.5813953876495361 0.10077524185180664 0.2841896414756775
-0.5813954472541809 0.10077524185180664 0.28842872381210327
-0.5813953876495361 0.11627912521362305 0.28347867727279663
-0.5813953876495361 0.11627912521362305 0.28836721181869507
-0.5813953876495361 0.1317828893661499 0.2838219404220581
-0.5813953876495361 0.1317828893661499 0.2883772850036621
-0.5813953876495361 0.1472867727279663 0.28469759225845337
-0.5813953876495361 0.1472867727279663 0.28841328620910645
-0.5813953876495361 0.16279065608978271 0.2851252853870392
-0.5813953876495361 0.16279065608978271 0.28867337107658386
