0.11627912521362305 0.16466285288333893 0.007751941215246916
0.11627913266420364 0.18446247279644012 0.02325582504272461
0.11627912521362305 0.27661818265914917 0.038759708404541016
0.11627912521362305 0.2871549129486084 0.14728675782680511
0.11627913266420364 0.3081758916378021 0.05426359549164772
0.11627912521362305 0.3142956495285034 0.16279065608978271
0.11627912521362305 0.34054791927337646 0.06976747512817383
0.11627912521362305 0.4161686301231384 0.08527135848999023
0.11627912521362305 0.49034154415130615 0.10077523440122604
0.11627912521362305 0.5191843509674072 0.11627912521362305
0.11627912521362305 0.5519852638244629 0.1317828893661499
0.11627912521362305 0.6199901103973389 0.16279065608978271
0.11627912521362305 0.6349236369132996 0.1472867727279663
0.1317828893661499 -0.24353443086147308 -0.05426359176635742
0.1317828893661499 -0.24040575325489044 -0.038759708404541016
0.1317828893661499 -0.24001771211624146 -0.038759708404541016
0.1317828893661499 -0.22361047565937042 -0.05426359176635742
0.1317828893661499 -0.21343426406383514 0.17829453945159912
0.1317828893661499 -0.2127416431903839 0.19379842281341553
0.1317828893661499 -0.18324662744998932 0.19379842281341553
0.1317828893661499 -0.16306205093860626 -0.007751941680908203
0.1317828893661499 -0.17624840140342712 0.17829453945159912
0.1317828893661499 -0.1624908447265625 0.007751941680908203
0.1317828893661499 -0.151906818151474 0.02325582504272461
0.1317828893661499 -0.14714574813842773 -0.02325582504272461
0.1317828893661499 -0.14618323743343353 0.038759708404541016
0.1317828893661499 -0.140646293759346 0.05426359176635742
0.1317828893661499 -0.12996095418930054 0.06976747512817383
0.1317828893661499 -0.11404313892126083 -0.038759708404541016
0.1317828893661499 -0.11298274993896484 0.08527135848999023
0.1317828893661499 -0.10060708969831467 0.10077524185180664
0.1317828893661499 -0.09827106446027756 0.11627912521362305
0.1317828893661499 -0.09704393148422241 0.1317828893661499
0.1317828893661499 -0.0951659232378006 0.1472867727279663
0.1317828893661499 -0.07384035736322403 -0.05426359176635742
0.1317828893661499 -0.07621641457080841 0.16279065608978271
0.1317828893661499 -0.03133805841207504 -0.06976741552352905
0.1317828893661499 -0.003325708908960223 -0.06976741552352905
0.1317828893661499 -0.006952767260372639 0.16279064118862152
0.1317828893661499 0.022550715133547783 -0.05426359176635742
0.1317828893661499 0.01782958023250103 0.1472867727279663
0.1317828893661499 0.038000915199518204 -0.038759708404541016
0.1317828893661499 0.05225054919719696 0.1317828893661499
0.1317828893661499 0.07124975323677063 0.1317828893661499
0.1317828893661499 0.1145969033241272 -0.038759708404541016
0.1317828893661499 0.12749849259853363 -0.05426359176635742
0.1317828893661499 0.13311763107776642 -0.06976741552352905
0.1317828893661499 0.14863914251327515 -0.06976741552352905
0.1317828893661499 0.1528567224740982 -0.05426359176635742
0.1317828893661499 0.16009368002414703 -0.038759708404541016
0.1317828893661499 0.16083520650863647 -0.02325582504272461
0.1317828893661499 0.15898557007312775 -0.007751941680908203
0.1317828893661499 0.16290266811847687 0.00775194214656949
0.1317828893661499 0.17391104996204376 0.02325582504272461
0.1317828893661499 0.2721177935600281 0.038759708404541016
0.1317828893661499 0.2983371615409851 0.1472867727279663
0.1317828893661499 0.30308040976524353 0.05426359176635742
0.1317828893661499 0.31326183676719666 0.16279065608978271
0.1317828893661499 0.3335629105567932 0.06976747512817383
0.1317828893661499 0.3759375214576721 0.08527135848999023
0.1317828893661499 0.4523651599884033 0.10077524185180664
0.1317828893661499 0.4947719871997833 0.11627912521362305
0.1317828893661499 0.5286467671394348 0.1317828893661499
0.1317828893661499 0.5775371789932251 0.1472867727279663
0.1317828893661499 0.6060196757316589 0.16279065608978271
0.1472867727279663 -0.4751060903072357 0.20930230617523193
0.1472867727279663 -0.42631205916404724 0.20930230617523193
0.1472867727279663 -0.24048975110054016 -0.05426359176635742
0.1472867727279663 -0.23908065259456635 -0.05426359176635742
0.1472867727279663 -0.21333026885986328 0.19379842281341553
0.1472867727279663 -0.1747138798236847 0.19379842281341553
0.1472867727279663 -0.0857471227645874 -0.007751941680908203
0.1472867727279663 -0.07325953245162964 -0.02325582504272461
0.1472867727279663 -0.07917669415473938 0.007751941680908203
0.1472867727279663 -0.06606566160917282 0.02325582504272461
0.1472867727279663 -0.0593324676156044 0.038759708404541016
0.1472867727279663 -0.05758677423000336 0.05426359176635742
0.1472867727279663 -0.05490170419216156 0.10077524185180664
0.1472867727279663 -0.05642099305987358 0.11627912521362305
0.1472867727279663 -0.04930036514997482 -0.038759708404541016
0.1472867727279663 -0.05385984480381012 0.06976747512817383
0.1472867727279663 -0.05237334594130516 0.08527135848999023
0.1472867727279663 -0.05388105288147926 0.1317828893661499
0.1472867727279663 -0.04644472151994705 0.1472867727279663
0.1472867727279663 0.011744210496544838 -0.038759708404541016
0.1472867727279663 0.020155686885118484 0.1317828893661499
0.1472867727279663 0.007796882651746273 0.1472867727279663
0.1472867727279663 0.03724658861756325 -0.02325582504272461
0.1472867727279663 0.03177511692047119 0.11627912521362305
0.1472867727279663 0.07785002887248993 0.11627912521362305
0.1472867727279663 0.11551672965288162 -0.02325582504272461
0.1472867727279663 0.11300527304410934 0.1317828893661499
0.1472867727279663 0.12927602231502533 -0.038759708404541016
0.14728675782680511 0.14810612797737122 -0.038759708404541016
0.14728675782680511 0.14856880903244019 -0.02325582504272461
0.1472867727279663 0.14825095236301422 -0.00775194214656949
0.1472867727279663 0.14935311675071716 0.007751941680908203
0.1472867727279663 0.15328606963157654 0.02325582504272461
0.1472867727279663 0.17130468785762787 0.1317828893661499
0.1472867727279663 0.17889326810836792 0.038759708404541016
0.1472867727279663 0.23951029777526855 0.11627912521362305
0.1472867727279663 0.26977407932281494 0.05426359176635742
0.1472867727279663 0.2748914062976837 0.10077524185180664
0.1472867727279663 0.29086706042289734 0.06976747512817383
0.1472867727279663 0.29809656739234924 0.08527135848999023
0.16279065608978271 -0.4830261766910553 0.20930230617523193
0.16279065608978271 -0.4108874797821045 0.20930230617523193
0.16279065608978271 -0.04257000982761383 -0.13178294897079468
0.16279065608978271 -0.03332044184207916 -0.13178294897079468
0.17829453945159912 -0.48843812942504883 0.22480618953704834
0.17829453945159912 -0.48670998215675354 0.22480618953704834
0.17829453945159912 -0.4666602611541748 0.20930230617523193
0.17829453945159912 -0.4099089503288269 0.20930229127407074
0.17829453945159912 -0.21166697144508362 0.20930230617523193
0.17829453945159912 -0.17403194308280945 0.20930230617523193
0.17829453945159912 -0.09539072215557098 -0.10077518224716187
0.17829453945159912 -0.07935965806245804 -0.10077518224716187
0.17829453945159912 -0.05506715178489685 -0.13178294897079468
0.17829453945159912 -0.05666125565767288 -0.11627906560897827
0.17829453945159912 -0.03113647550344467 -0.13178294897079468
0.17829453945159912 -0.03840019553899765 -0.11627906560897827
0.19379842281341553 -0.49209776520729065 0.22480618953704834
0.19379842281341553 -0.4565580487251282 0.22480618953704834
0.19379842281341553 -0.2108810991048813 0.20930230617523193
0.19379842281341553 -0.17979738116264343 -0.08527129888534546
0.19379842281341553 -0.1685243546962738 -0.10077518224716187
0.19379842281341553 -0.16232649981975555 -0.08527129888534546
0.19379842281341553 -0.121363565325737 -0.11627906560897827
0.19379840791225433 -0.12662148475646973 0.20930230617523193
0.19379842281341553 -0.10428119450807571 -0.08527129888534546
0.19379842281341553 -0.08943109959363937 -0.08527129888534546
0.19379842281341553 -0.06840147823095322 -0.13178294897079468
0.19379842281341553 -0.06510953605175018 -0.10077518224716187
0.19379842281341553 -0.06311996281147003 0.19379842281341553
0.19379842281341553 -0.04693470150232315 -0.11627906560897827
0.19379840791225433 -0.05067720264196396 0.19379840791225433
0.19379842281341553 -0.03650376945734024 -0.13178294897079468
0.19379842281341553 0.13143691420555115 -0.1782945990562439
0.19379842281341553 0.14756706357002258 -0.1782945990562439
0.20930230617523193 -0.49309805035591125 0.22480618953704834
0.20930230617523193 -0.410075306892395 0.22480617463588715
0.20930230617523193 -0.18217791616916656 0.20930230617523193
0.20930230617523193 -0.16287344694137573 -0.10077518224716187
0.20930230617523193 -0.13514776527881622 -0.11627906560897827
0.20930229127407074 -0.11515843123197556 -0.10077517479658127
0.20930230617523193 -0.07976541668176651 -0.13178294897079468
0.20930230617523193 -0.06708109378814697 -0.11627907305955887
0.20930230617523193 -0.05884245038032532 0.20930230617523193
0.20930230617523193 -0.0512816458940506 -0.13178294897079468
0.20930230617523193 0.13077068328857422 -0.19379842281341553
0.20930230617523193 0.14560167491436005 -0.19379842281341553
0.22480618953704834 -0.4913236200809479 0.22480618953704834
0.22480618953704834 -0.39848458766937256 0.22480618953704834
0.22480618953704834 -0.14817944169044495 0.20930230617523193
0.22480618953704834 -0.03501021862030029 0.20930230617523193
0.22480618953704834 0.13123562932014465 -0.22480618953704834
0.22480618953704834 0.13135303556919098 -0.20930230617523193
0.22480618953704834 0.13468317687511444 -0.22480618953704834
0.22480618953704834 0.1347540020942688 -0.20930230617523193
0.24031007289886475 -0.4885760247707367 0.22480618953704834
0.24031007289886475 -0.39267486333847046 0.22480618953704834
0.24031007289886475 -0.13208821415901184 0.20930230617523193
0.24031007289886475 -0.02264207974076271 0.20930230617523193
0.24031007289886475 0.05276154354214668 -0.30232560634613037
0.24031007289886475 0.07934129238128662 -0.30232560634613037
0.24031007289886475 0.13137830793857574 -0.25581395626068115
0.24031007289886475 0.13238081336021423 -0.25581395626068115
0.25581395626068115 -0.4813564419746399 0.22480618953704834
0.25581395626068115 -0.3892338275909424 0.22480618953704834
0.25581395626068115 -0.22494380176067352 0.22480618953704834
0.25581395626068115 -0.1570391058921814 0.22480618953704834
0.25581395626068115 -0.11904577165842056 0.20930230617523193
0.25581395626068115 -0.021175773814320564 0.20930230617523193
0.25581395626068115 0.022529244422912598 -0.30232560634613037
0.25581395626068115 0.11708933115005493 -0.30232560634613037
0.27131783962249756 -0.47883889079093933 0.22480618953704834
0.27131783962249756 -0.37957140803337097 0.22480617463588715
0.27131783962249756 -0.22834230959415436 0.22480618953704834
0.27131783962249756 -0.10834953188896179 0.20930230617523193
0.27131783962249756 -0.11135666072368622 0.22480618953704834
0.27131783962249756 -0.016483420506119728 0.20930230617523193
0.28682172298431396 -0.4773135483264923 0.22480618953704834
0.28682172298431396 -0.37864169478416443 0.22480618953704834
0.28682172298431396 -0.23379163444042206 0.22480618953704834
0.28682172298431396 -0.09434380382299423 0.20930230617523193
0.28682172298431396 -0.08088064193725586 0.22480618953704834
0.28682172298431396 -0.008409172296524048 0.20930230617523193
0.30232560634613037 -0.47604089975357056 0.22480618953704834
0.30232560634613037 -0.37932249903678894 0.22480618953704834
0.30232560634613037 -0.24232657253742218 0.22480618953704834
0.30232560634613037 -0.07030415534973145 0.20930230617523193
0.30232560634613037 -0.021987320855259895 0.22480618953704834
0.30232560634613037 -0.007477986626327038 0.20930230617523193
0.3178294897079468 -0.47446173429489136 0.22480618953704834
0.3178294897079468 -0.4522002339363098 0.24031007289886475
0.3178294897079468 -0.39229103922843933 0.22480618953704834
0.3178294897079468 -0.3778793215751648 0.24031007289886475
0.3178294897079468 -0.24360236525535583 0.22480618953704834
0.3178294897079468 -0.24048562347888947 0.24031007289886475
0.3178294897079468 -0.23970776796340942 0.24031007289886475
0.3178294897079468 -0.006983708590269089 0.22480618953704834
0.3333333730697632 -0.47027388215065 0.22480618953704834
0.3333333730697632 -0.4644707143306732 0.24031007289886475
0.3333333730697632 -0.4156424403190613 0.22480618953704834
0.3333333730697632 -0.3738246560096741 0.24031007289886475
0.3333333730697632 -0.25820887088775635 0.24031007289886475
0.3333333730697632 -0.24149377644062042 0.22480618953704834
0.3333333730697632 -0.21099434792995453 0.24031007289886475
0.3333333730697632 -0.0046113296411931515 0.22480620443820953
0.3488372564315796 -0.4698387682437897 0.24031007289886475
0.3488372564315796 -0.36508825421333313 0.24031007289886475
0.3488372564315796 -0.2827657163143158 0.24031007289886475
0.3488372564315796 -0.21634317934513092 0.22480618953704834
0.3488372564315796 -0.09499366581439972 0.24031007289886475
0.3488372564315796 0.006966480985283852 0.22480618953704834
0.364341139793396 -0.46808022260665894 0.24031007289886475
0.364341139793396 -0.1484772115945816 0.22480618953704834
0.364341139793396 -0.06743717193603516 0.24031007289886475
0.364341139793396 0.12069223821163177 0.22480618953704834
0.37984490394592285 -0.4656594395637512 0.24031007289886475
0.37984490394592285 -0.4041323661804199 0.25581395626068115
0.37984490394592285 -0.3797675371170044 0.25581398606300354
0.37984490394592285 -0.04414842277765274 0.22480618953704834
0.37984490394592285 -0.02183782123029232 0.24031005799770355
0.37984490394592285 0.12800553441047668 0.22480618953704834
0.39534878730773926 -0.4640588164329529 0.24031007289886475
0.39534878730773926 -0.44699594378471375 0.25581395626068115
0.39534878730773926 -0.3527377247810364 0.25581395626068115
0.39534878730773926 -0.28440120816230774 0.25581395626068115
0.39534878730773926 -0.23941171169281006 0.25581395626068115
0.39534878730773926 -0.001515708863735199 0.22480618953704834
0.39534878730773926 -0.0031209969893097878 0.24031007289886475
0.39534878730773926 0.13249310851097107 0.22480618953704834
0.41085267066955566 -0.46254852414131165 0.24031007289886475
0.41085267066955566 -0.458894819021225 0.25581395626068115
0.41085267066955566 -0.22239527106285095 0.25581395626068115
0.41085267066955566 0.00711465161293745 0.22480618953704834
0.41085267066955566 0.008976367302238941 0.24031007289886475
0.41085267066955566 0.13316644728183746 0.22480618953704834
0.42635655403137207 -0.46075373888015747 0.24031007289886475
0.42635655403137207 -0.46007925271987915 0.25581395626068115
0.42635655403137207 -0.386329710483551 0.24031007289886475
0.42635655403137207 -0.3518136143684387 0.24031007289886475
0.42635655403137207 -0.20919381082057953 0.25581398606300354
0.42635658383369446 0.01349538005888462 0.22480618953704834
0.42635655403137207 0.014533180743455887 0.24031007289886475
0.4263565242290497 0.13364458084106445 0.22480618953704834
0.4418604373931885 -0.4583776295185089 0.24031007289886475
0.4418604373931885 -0.4602530896663666 0.25581395626068115
0.4418604373931885 -0.39887136220932007 0.24031007289886475
0.4418604373931885 -0.33457446098327637 0.24031007289886475
0.4418604373931885 -0.18704140186309814 0.25581395626068115
0.4418604373931885 0.01739613339304924 0.22480618953704834
0.4418604373931885 0.016825998201966286 0.24031007289886475
0.4418604373931885 0.13366393744945526 0.22480617463588715
0.4573643207550049 -0.45985037088394165 0.25581395626068115
0.4573643207550049 -0.296478271484375 0.24031007289886475
0.4573643207550049 -0.16820941865444183 0.25581395626068115
0.4573643207550049 0.02069222554564476 0.22480618953704834
0.4573643207550049 0.0179792121052742 0.24031007289886475
0.4573642909526825 0.13333383202552795 0.22480618953704834
0.4728682041168213 -0.4593751132488251 0.25581395626068115
0.4728682041168213 -0.25967922806739807 0.24031007289886475
0.4728682041168213 -0.1532611846923828 0.25581395626068115
0.4728682041168213 0.02290048450231552 0.24031007289886475
0.4728682041168213 0.028042996302247047 0.22480618953704834
0.4728682041168213 0.13313840329647064 0.22480618953704834
0.4883720874786377 -0.45873403549194336 0.25581395626068115
0.4883720874786377 -0.22739389538764954 0.24031007289886475
0.4883720874786377 -0.13235251605510712 0.25581395626068115
0.4883720874786377 0.03459201380610466 0.22480618953704834
0.4883720874786377 0.028458431363105774 0.24031007289886475
0.4883720874786377 0.13329589366912842 0.22480618953704834
0.5038759708404541 -0.4581032991409302 0.25581395626068115
0.5038759708404541 -0.20841637253761292 0.24031007289886475
0.5038759708404541 -0.11175128817558289 0.25581395626068115
0.5038759708404541 0.03581035137176514 0.22480618953704834
0.5038759708404541 0.030493371188640594 0.24031007289886475
0.5038759708404541 0.1339786946773529 0.22480618953704834
0.5193798542022705 -0.4577603042125702 0.25581395626068115
0.5193798542022705 -0.44819802045822144 0.27131783962249756
0.5193798542022705 -0.4125518798828125 0.27131783962249756
0.5193798542022705 -0.19530902802944183 0.24031007289886475
0.5193798542022705 -0.09479695558547974 0.25581395626068115
0.5193798542022705 0.03828968107700348 0.22480618953704834
0.5193798542022705 0.0336785763502121 0.24031007289886475
0.5193798542022705 0.13507682085037231 0.22480618953704834
0.5348837375640869 -0.45640304684638977 0.25581395626068115
0.5348837375640869 -0.4549243450164795 0.27131783962249756
0.5348837375640869 -0.38846585154533386 0.27131783962249756
0.5348837375640869 -0.17745724320411682 0.24031007289886475
0.5348837375640869 -0.0792078897356987 0.25581395626068115
0.5348837375640869 0.04890096187591553 0.22480618953704834
0.5348837375640869 0.042449891567230225 0.24031007289886475
0.5348837375640869 0.13794860243797302 0.22480618953704834
0.5503876209259033 -0.4525344967842102 0.25581395626068115
0.5503876209259033 -0.45628052949905396 0.27131783962249756
0.5503876209259033 -0.36404547095298767 0.27131783962249756
0.5503876209259033 -0.150339275598526 0.24031007289886475
0.5503876209259033 -0.0662316381931305 0.25581395626068115
0.5503876209259033 0.07004155963659286 0.22480618953704834
0.5503876209259033 0.0762401819229126 0.24031007289886475
0.5503876209259033 0.14010494947433472 0.22480618953704834
0.5658915042877197 -0.44645193219184875 0.25581395626068115
0.5658915042877197 -0.454761803150177 0.27131783962249756
0.5658915042877197 -0.32553017139434814 0.27131783962249756
0.5658915042877197 -0.08034359663724899 0.24031007289886475
0.5658915042877197 -0.050796426832675934 0.25581395626068115
0.5658915042877197 0.09240713715553284 0.22480618953704834
0.5658915042877197 0.11186482757329941 0.24031007289886475
0.5658915042877197 0.1396704912185669 0.22480618953704834
0.5813953876495361 -0.45297637581825256 0.27131783962249756
0.5813953876495361 -0.432984858751297 0.25581395626068115
0.5813953876495361 -0.22957497835159302 0.27131783962249756
0.5813953876495361 -0.04690917581319809 0.24031007289886475
0.5813953876495361 -0.033484578132629395 0.25581395626068115
0.5813953876495361 0.10832611471414566 0.22480618953704834
0.5813953876495361 0.14070837199687958 0.22480618953704834
0.5813953876495361 0.13384389877319336 0.24031007289886475
0.5968992710113525 -0.4515067934989929 0.27131783962249756
0.5968992710113525 -0.41314396262168884 0.25581395626068115
0.5968992710113525 -0.19291311502456665 0.27131783962249756
0.5968992710113525 -0.018336331471800804 0.24031007289886475
0.5968992710113525 -0.017513159662485123 0.25581395626068115
0.5968992710113525 0.11564173549413681 0.22480618953704834
0.5968992710113525 0.1405637562274933 0.24031007289886475
0.5968992114067078 0.1482822448015213 0.22480617463588715
0.612403154373169 -0.4509536027908325 0.27131783962249756
0.612403154373169 -0.38817906379699707 0.25581395626068115
0.612403154373169 -0.1665736436843872 0.27131783962249756
0.612403154373169 -0.00012283353134989738 0.24031007289886475
0.612403154373169 -0.0022375183179974556 0.25581395626068115
0.612403154373169 0.12044110149145126 0.22480618953704834
0.6124032139778137 0.14968211948871613 0.22480618953704834
0.612403154373169 0.14759933948516846 0.24031007289886475
0.6279069185256958 -0.45067888498306274 0.27131783962249756
0.6279069185256958 -0.3426128029823303 0.25581395626068115
0.6279069185256958 -0.13018062710762024 0.27131783962249756
0.6279069185256958 0.012676578015089035 0.24031007289886475
0.6279069185256958 0.01670527458190918 0.25581395626068115
0.6279069185256958 0.12459719181060791 0.22480618953704834
0.6279069185256958 0.14948362112045288 0.22480618953704834
0.6279069185256958 0.14761383831501007 0.24031007289886475
0.6434108018875122 -0.4504094123840332 0.27131783962249756
0.6434108018875122 -0.4449895918369293 0.28682172298431396
0.6434108018875122 -0.4159243702888489 0.28682172298431396
0.6434108018875122 -0.30363231897354126 0.25581395626068115
0.6434108018875122 -0.10001984238624573 0.27131783962249756
0.6434108018875122 0.021711617708206177 0.24031007289886475
0.6434108018875122 0.04076671227812767 0.25581395626068115
0.6434108018875122 0.12739041447639465 0.22480618953704834
0.6434108018875122 0.14230604469776154 0.24031007289886475
0.6434108018875122 0.1481153666973114 0.22480618953704834
0.6589146852493286 -0.4497936964035034 0.27131783962249756
0.6589146852493286 -0.44931191205978394 0.28682172298431396
0.6589146852493286 -0.3892565965652466 0.28682172298431396
0.6589146852493286 -0.26566970348358154 0.25581395626068115
0.6589146852493286 -0.07774136960506439 0.27131783962249756
0.6589146852493286 0.034192487597465515 0.24031007289886475
0.6589146852493286 0.07085703313350677 0.25581395626068115
0.6589146852493286 0.129989892244339 0.22480618953704834
0.6589146852493286 0.1366143524646759 0.22480618953704834
0.6589146852493286 0.13740694522857666 0.24031007289886475
0.674418568611145 -0.44837260246276855 0.27131783962249756
0.674418568611145 -0.45136749744415283 0.28682172298431396
0.674418568611145 -0.35709628462791443 0.28682172298431396
0.674418568611145 -0.20058521628379822 0.25581395626068115
0.674418568611145 -0.059209927916526794 0.27131783962249756
0.674418568611145 0.04538930207490921 0.24031007289886475
0.674418568611145 0.08696956932544708 0.25581395626068115
0.674418568611145 0.13316817581653595 0.24031007289886475
0.6899224519729614 -0.4464782476425171 0.27131783962249756
0.6899224519729614 -0.45255425572395325 0.28682172298431396
0.6899224519729614 -0.29329490661621094 0.28682172298431396
0.6899224519729614 -0.1629887968301773 0.25581395626068115
0.6899224519729614 -0.04660503566265106 0.27131783962249756
0.6899223923683167 0.07052704691886902 0.24031007289886475
0.6899224519729614 0.09200221300125122 0.25581395626068115
0.6899224519729614 0.1170366182923317 0.24031007289886475
0.7054263353347778 -0.4438798427581787 0.27131783962249756
0.7054263353347778 -0.4533701539039612 0.28682172298431396
0.7054263353347778 -0.25619328022003174 0.28682172298431396
0.7054263353347778 -0.08468474447727203 0.25581395626068115
0.7054263353347778 -0.035471055656671524 0.27131783962249756
0.7054263353347778 0.08142413198947906 0.25581395626068115
0.7209302186965942 -0.4530144929885864 0.28682172298431396
0.7209302186965942 -0.43487197160720825 0.27131783962249756
0.720930278301239 -0.22244399785995483 0.28682172298431396
0.7209302186965942 -0.057224735617637634 0.25581395626068115
0.7209302186965942 -0.02177824266254902 0.27131783962249756
0.7209302186965942 0.06128963828086853 0.25581395626068115
0.7364341020584106 -0.45129477977752686 0.28682172298431396
0.7364341020584106 -0.41511499881744385 0.27131783962249756
0.7364341020584106 -0.19274698197841644 0.28682172298431396
0.7364341020584106 -0.03472134843468666 0.25581395626068115
0.7364341020584106 -0.0011678626760840416 0.27131783962249756
0.7364341020584106 0.02669994905591011 0.25581395626068115
0.751937985420227 -0.44943857192993164 0.28682172298431396
0.751937985420227 -0.39567485451698303 0.27131783962249756
0.751937985420227 -0.16882383823394775 0.28682172298431396
0.751937985420227 -0.022314514964818954 0.25581395626068115
0.7519380450248718 0.012371255084872246 0.25581395626068115
0.751937985420227 0.02369551733136177 0.27131783962249756
0.7674418687820435 -0.4485102891921997 0.28682172298431396
0.7674418687820435 -0.3116967976093292 0.27131783962249756
0.7674418687820435 -0.14286839962005615 0.28682172298431396
0.7674418687820435 0.018706271424889565 0.27131783962249756
0.7829457521438599 -0.4483804702758789 0.28682172298431396
0.7829457521438599 -0.23916096985340118 0.27131783962249756
0.7829457521438599 -0.119566909968853 0.28682172298431396
0.7829457521438599 0.010685699991881847 0.27131783962249756
0.7984496355056763 -0.4480849504470825 0.28682172298431396
0.7984496355056763 -0.19399568438529968 0.27131783962249756
0.7984496355056763 -0.10117099434137344 0.28682172298431396
0.7984496355056763 -0.0008308375254273415 0.27131783962249756
0.8139535188674927 -0.4473700523376465 0.28682172298431396
0.8139535188674927 -0.12839636206626892 0.27131783962249756
0.8139535188674927 -0.07801414281129837 0.28682172298431396
0.8139535188674927 -0.022091301158070564 0.27131783962249756
0.8294574022293091 -0.44586247205734253 0.28682172298431396
0.8294574022293091 -0.07630671560764313 0.27131783962249756
0.8294574022293091 -0.05928289145231247 0.27131783962249756
0.8294574618339539 -0.06382599472999573 0.28682172298431396
0.8449612855911255 -0.4437141716480255 0.28682172298431396
0.8449612855911255 -0.38503241539001465 0.30232560634613037
0.8449612855911255 -0.3750075399875641 0.30232560634613037
0.8449612855911255 -0.07648071646690369 0.28682172298431396
0.8604651689529419 -0.4417329728603363 0.28682172298431396
0.8604651689529419 -0.40676265954971313 0.30232560634613037
0.8604651689529419 -0.3537611663341522 0.30232560634613037
0.8604651689529419 -0.10007375478744507 0.28682172298431396
0.8759689331054688 -0.43395841121673584 0.28682172298431396
0.8759689331054688 -0.412026047706604 0.30232560634613037
0.8759689331054688 -0.3443634808063507 0.30232560634613037
0.8759689331054688 -0.12318055331707001 0.28682172298431396
0.8914728164672852 -0.42845025658607483 0.28682172298431396
0.8914728164672852 -0.41100066900253296 0.30232560634613037
0.8914728164672852 -0.3421578109264374 0.30232560634613037
0.8914728164672852 -0.14489977061748505 0.28682172298431396
0.9069766998291016 -0.4182037115097046 0.28682172298431396
0.9069766998291016 -0.40027326345443726 0.30232560634613037
0.9069766998291016 -0.3469979763031006 0.30232563614845276
0.9069766998291016 -0.16854195296764374 0.28682172298431396
0.922480583190918 -0.4010152220726013 0.28682172298431396
0.922480583190918 -0.3901847004890442 0.30232560634613037
0.922480583190918 -0.3592994809150696 0.30232560634613037
0.9224806427955627 -0.19317881762981415 0.28682172298431396
0.9379844665527344 -0.38443130254745483 0.28682172298431396
0.9379844665527344 -0.21679139137268066 0.28682172298431396
0.9534883499145508 -0.3703990578651428 0.28682172298431396
0.9534883499145508 -0.23595097661018372 0.28682172298431396
0.9689922332763672 -0.36183255910873413 0.28682172298431396
0.9689922332763672 -0.25553759932518005 0.28682172298431396
0.9844961762428284 -0.33229097723960876 0.28682172298431396
0.9844961166381836 -0.2903405427932739 0.28682172298431396
-0.9844961166381836 -0.3333333134651184 0.2864740788936615
-0.9844961166381836 -0.3333333134651184 0.2884799540042877
-0.9844961166381836 -0.317829430103302 0.28589507937431335
-0.9844961166381836 -0.317829430103302 0.289882630109787
-0.9844961166381836 -0.30232560634613037 0.28611382842063904
-0.9844961166381836 -0.30232560634613037 0.2887669503688812
-0.9689922332763672 -0.3488371968269348 0.28578853607177734
-0.9689922332763672 -0.3488371968269348 0.296886682510376
-0.9689922332763672 -0.3333333134651184 0.28533369302749634
-0.9689922332763672 -0.3333333134651184 0.2953803539276123
-0.9689922332763672 -0.317829430103302 0.2851851284503937
-0.9689922332763672 -0.317829430103302 0.2941795885562897
-0.9689922332763672 -0.30232560634613037 0.28517428040504456
-0.9689922332763672 -0.30232560634613037 0.2931595742702484
-0.9689922332763672 -0.28682172298431396 0.28508979082107544
-0.9689922332763672 -0.28682172298431396 0.29201608896255493
-0.9689922332763672 -0.27131783962249756 0.2855009138584137
-0.9689922332763672 -0.27131783962249756 0.29008322954177856
-0.9534883499145508 -0.3643410801887512 0.2864827811717987
-0.9534883499145508 -0.3643410801887512 0.2946672737598419
-0.9534883499145508 -0.3488371968269348 0.2856428623199463
-0.9534883499145508 -0.3488371968269348 0.2967657148838043
-0.9534883499145508 -0.3333333134651184 0.2853880822658539
-0.9534883499145508 -0.3333333134651184 0.29507678747177124
-0.9534883499145508 -0.317829430103302 0.2853228449821472
-0.9534883499145508 -0.317829430103302 0.29364049434661865
-0.9534883499145508 -0.30232560634613037 0.28533369302749634
-0.953488290309906 -0.30232560634613037 0.29259100556373596
-0.9534883499145508 -0.28682172298431396 0.28532183170318604
-0.9534883499145508 -0.28682172298431396 0.29165154695510864
-0.9534883499145508 -0.27131783962249756 0.285345196723938
-0.9534883499145508 -0.27131783962249756 0.2908988296985626
-0.9534883499145508 -0.25581395626068115 0.28535136580467224
-0.9534883499145508 -0.25581395626068115 0.2899894118309021
-0.9534883499145508 -0.24031007289886475 0.28645989298820496
-0.9534883499145508 -0.24031007289886475 0.28747445344924927
-0.9379844665527344 -0.3798449635505676 0.28677627444267273
-0.9379844665527344 -0.3798449635505676 0.2947191298007965
-0.9379844665527344 -0.3643410801887512 0.2855324149131775
-0.9379844665527344 -0.3643410801887512 0.3014528751373291
-0.9379844665527344 -0.3488371968269348 0.2851615846157074
-0.9379844665527344 -0.3488371968269348 0.29862329363822937
-0.9379844665527344 -0.3333333134651184 0.28505441546440125
-0.9379844665527344 -0.3333333134651184 0.29641401767730713
-0.9379844665527344 -0.317829430103302 0.2850402891635895
-0.9379844665527344 -0.317829430103302 0.2947307825088501
-0.9379844665527344 -0.30232560634613037 0.2850611209869385
-0.9379844665527344 -0.30232560634613037 0.29348933696746826
-0.9379844665527344 -0.28682172298431396 0.28506800532341003
-0.9379844665527344 -0.28682172298431396 0.29229986667633057
-0.9379844665527344 -0.27131783962249756 0.285127192735672
-0.9379844069480896 -0.27131783962249756 0.2913960814476013
-0.9379844665527344 -0.25581395626068115 0.2852579951286316
-0.9379844069480896 -0.25581395626068115 0.29052734375
-0.9379844665527344 -0.24031007289886475 0.28540825843811035
-0.9379844665527344 -0.24031007289886475 0.28963032364845276
-0.9379844665527344 -0.22480618953704834 0.286275714635849
-0.9379845261573792 -0.22480618953704834 0.2877301275730133
-0.9224806427955627 -0.39534884691238403 0.29776230454444885
-0.9224806427955627 -0.39534884691238403 0.302455335855484
-0.9224806427955627 -0.3798449635505676 0.2854456603527069
-0.9224807024002075 -0.3798449635505676 0.3027304708957672
-0.9224806427955627 -0.3643410801887512 0.28488150238990784
-0.922480583190918 -0.3643410801887512 0.3026092052459717
-0.9224806427955627 -0.3488371968269348 0.2847216725349426
-0.922480583190918 -0.3488371968269348 0.3010965585708618
-0.9224806427955627 -0.3333333134651184 0.2847243547439575
-0.922480583190918 -0.3333333134651184 0.2984018921852112
-0.9224806427955627 -0.317829430103302 0.2847484350204468
-0.9224806427955627 -0.317829430103302 0.29637956619262695
-0.9224806427955627 -0.30232560634613037 0.28477412462234497
-0.9224806427955627 -0.30232560634613037 0.2948097288608551
-0.9224806427955627 -0.28682172298431396 0.28477758169174194
-0.9224806427955627 -0.28682172298431396 0.2932415008544922
-0.9224806427955627 -0.27131783962249756 0.2848157584667206
-0.9224807024002075 -0.27131783962249756 0.29210135340690613
-0.9224806427955627 -0.25581395626068115 0.28493791818618774
-0.9224806427955627 -0.25581395626068115 0.29119688272476196
-0.9224806427955627 -0.24031007289886475 0.28515174984931946
-0.9224806427955627 -0.24031007289886475 0.29036104679107666
-0.9224806427955627 -0.22480618953704834 0.28531748056411743
-0.9224806427955627 -0.22480617463588715 0.2896572947502136
-0.922480583190918 -0.20930230617523193 0.28558722138404846
-0.9224806427955627 -0.20930230617523193 0.2887415587902069
-0.9069767594337463 -0.41085273027420044 0.30186522006988525
-0.9069767594337463 -0.4108527600765228 0.3023359179496765
-0.9069767594337463 -0.39534884691238403 0.28567513823509216
-0.9069767594337463 -0.39534884691238403 0.30287718772888184
-0.9069767594337463 -0.3798449635505676 0.2847052216529846
-0.9069767594337463 -0.3798449635505676 0.3031255006790161
-0.9069767594337463 -0.3643410801887512 0.28431445360183716
-0.9069767594337463 -0.3643410801887512 0.30304086208343506
-0.9069767594337463 -0.3488371968269348 0.28433459997177124
-0.9069767594337463 -0.3488371968269348 0.30255237221717834
-0.9069767594337463 -0.3333333134651184 0.284454882144928
-0.9069767594337463 -0.3333333134651184 0.30024006962776184
-0.9069767594337463 -0.317829430103302 0.28450897336006165
-0.9069767594337463 -0.317829430103302 0.29788243770599365
-0.9069767594337463 -0.30232560634613037 0.28452566266059875
-0.9069767594337463 -0.30232560634613037 0.29604655504226685
-0.9069767594337463 -0.28682172298431396 0.2845154106616974
-0.9069768190383911 -0.28682172298431396 0.29414457082748413
-0.9069767594337463 -0.27131783962249756 0.2845216393470764
-0.9069767594337463 -0.27131783962249756 0.2927505373954773
-0.9069767594337463 -0.25581395626068115 0.2846182882785797
-0.9069766998291016 -0.25581395626068115 0.2917289733886719
-0.9069767594337463 -0.24031007289886475 0.2848259508609772
-0.9069767594337463 -0.24031007289886475 0.2909156382083893
-0.9069767594337463 -0.22480618953704834 0.2850688695907593
-0.9069768190383911 -0.22480618953704834 0.2901969850063324
-0.9069767594337463 -0.20930230617523193 0.2852229177951813
-0.9069766998291016 -0.20930230617523193 0.2895461618900299
-0.9069767594337463 -0.19379842281341553 0.2851732075214386
-0.9069766998291016 -0.19379842281341553 0.2891794741153717
-0.9069767594337463 -0.1782945990562439 0.28599265217781067
-0.9069767594337463 -0.1782945990562439 0.2878305912017822
-0.8914728760719299 -0.41085273027420044 0.2859150469303131
-0.8914728760719299 -0.41085270047187805 0.3027594983577728
-0.8914728760719299 -0.39534884691238403 0.28495073318481445
-0.8914728760719299 -0.39534884691238403 0.30318811535835266
-0.8914728760719299 -0.3798449635505676 0.28413182497024536
-0.8914728760719299 -0.3798449635505676 0.3034592866897583
-0.8914728760719299 -0.3643410801887512 0.28383708000183105
-0.8914728760719299 -0.3643410801887512 0.303349107503891
-0.8914728760719299 -0.3488371968269348 0.28403156995773315
-0.8914728760719299 -0.3488371968269348 0.3028579354286194
-0.8914728760719299 -0.3333333134651184 0.2842777967453003
-0.8914728760719299 -0.3333333134651184 0.3015689551830292
-0.8914728760719299 -0.317829430103302 0.2843462824821472
-0.8914728760719299 -0.317829430103302 0.2990034818649292
-0.8914728760719299 -0.30232560634613037 0.28433874249458313
-0.8914728760719299 -0.30232560634613037 0.2970227599143982
-0.8914728760719299 -0.28682172298431396 0.28429630398750305
-0.8914728760719299 -0.28682172298431396 0.2949216961860657
-0.8914728164672852 -0.27131783962249756 0.28426340222358704
-0.8914728164672852 -0.27131783962249756 0.29334938526153564
-0.8914728760719299 -0.25581395626068115 0.2843213975429535
-0.8914729356765747 -0.25581395626068115 0.29218801856040955
-0.8914728760719299 -0.24031007289886475 0.28449249267578125
-0.8914728164672852 -0.24031007289886475 0.29132330417633057
-0.8914728760719299 -0.22480618953704834 0.2847220003604889
-0.8914728164672852 -0.22480618953704834 0.2905857563018799
-0.8914728760719299 -0.20930230617523193 0.28495553135871887
-0.8914728760719299 -0.20930230617523193 0.28986749053001404
-0.8914728760719299 -0.19379842281341553 0.2850756049156189
-0.8914729356765747 -0.19379842281341553 0.2893529236316681
-0.8914728760719299 -0.1782945990562439 0.2849650979042053
-0.8914728760719299 -0.1782945990562439 0.28913700580596924
-0.8914728164672852 -0.1627907156944275 0.2849186658859253
-0.8914729356765747 -0.1627907156944275 0.28881531953811646
-0.8914728760719299 -0.14728683233261108 0.28670960664749146
-0.8914728760719299 -0.14728683233261108 0.2869203984737396
-0.8759689927101135 -0.42635661363601685 0.28590264916419983
-0.8759689927101135 -0.42635661363601685 0.29806920886039734
-0.8759689927101135 -0.41085273027420044 0.28515392541885376
-0.8759689927101135 -0.41085273027420044 0.303007036447525
-0.8759690523147583 -0.39534884691238403 0.2843621075153351
-0.8759689927101135 -0.39534884691238403 0.303410142660141
-0.8759689927101135 -0.3798449635505676 0.28355929255485535
-0.8759690523147583 -0.3798449635505676 0.3036751449108124
-0.8759689927101135 -0.3643410801887512 0.28334638476371765
-0.8759689927101135 -0.3643410801887512 0.3035238981246948
-0.8759689927101135 -0.3488371968269348 0.2837090492248535
-0.8759689927101135 -0.3488371670246124 0.30302152037620544
-0.8759689927101135 -0.3333333134651184 0.28412729501724243
-0.8759689927101135 -0.3333333134651184 0.30235105752944946
-0.8759689927101135 -0.317829430103302 0.2842540442943573
-0.8759689927101135 -0.317829430103302 0.2997552454471588
-0.8759689331054688 -0.30232560634613037 0.2842382788658142
-0.8759690523147583 -0.30232560634613037 0.2976837754249573
-0.8759689927101135 -0.28682172298431396 0.28416380286216736
-0.8759689927101135 -0.28682172298431396 0.29549509286880493
-0.8759689331054688 -0.27131783962249756 0.2840912640094757
-0.8759690523147583 -0.27131783962249756 0.2938424050807953
-0.8759689927101135 -0.25581395626068115 0.2840934991836548
-0.8759690523147583 -0.25581395626068115 0.29261288046836853
-0.8759689927101135 -0.24031007289886475 0.2841857671737671
-0.8759689927101135 -0.24031007289886475 0.2917039096355438
-0.8759689927101135 -0.22480618953704834 0.2843208909034729
-0.8759689927101135 -0.22480618953704834 0.2909543514251709
-0.8759690523147583 -0.20930230617523193 0.2845025360584259
-0.8759689331054688 -0.20930230617523193 0.29021507501602173
-0.8759689927101135 -0.19379842281341553 0.28468412160873413
-0.8759689927101135 -0.19379842281341553 0.2896351218223572
-0.8759690523147583 -0.1782945990562439 0.28477850556373596
-0.8759689927101135 -0.1782945990562439 0.2891969084739685
-0.8759689927101135 -0.1627907156944275 0.2845976948738098
-0.8759689927101135 -0.1627907156944275 0.28904852271080017
-0.8759689927101135 -0.14728683233261108 0.2842293977737427
-0.8759689927101135 -0.14728684723377228 0.2890832722187042
-0.8759689331054688 -0.13178294897079468 0.28500768542289734
-0.8759689331054688 -0.13178294897079468 0.28812283277511597
-0.8604651093482971 -0.42635661363601685 0.28512150049209595
-0.8604651093482971 -0.42635661363601685 0.30144330859184265
-0.8604651093482971 -0.41085273027420044 0.28457626700401306
-0.8604651093482971 -0.41085273027420044 0.3029486835002899
-0.8604651093482971 -0.39534884691238403 0.2838697135448456
-0.8604651093482971 -0.39534884691238403 0.3032938838005066
-0.8604651093482971 -0.3798449635505676 0.2830803096294403
-0.8604651093482971 -0.3798449635505676 0.3035377860069275
-0.8604650497436523 -0.3643410801887512 0.2829238772392273
-0.8604651093482971 -0.3643410801887512 0.3033466339111328
-0.8604651093482971 -0.3488371968269348 0.283425509929657
-0.8604651093482971 -0.3488371670246124 0.30281320214271545
-0.8604651093482971 -0.3333333134651184 0.2839716672897339
-0.8604651093482971 -0.3333333134651184 0.3014650046825409
-0.8604651093482971 -0.317829430103302 0.2841339409351349
-0.8604651093482971 -0.317829430103302 0.2990507483482361
-0.8604650497436523 -0.30232560634613037 0.28410497307777405
-0.8604651093482971 -0.30232560634613037 0.29717642068862915
-0.8604651093482971 -0.28682172298431396 0.28402647376060486
-0.8604651093482971 -0.28682172298431396 0.29514890909194946
-0.8604650497436523 -0.27131783962249756 0.2839338183403015
-0.8604651093482971 -0.27131783962249756 0.29361411929130554
-0.8604651093482971 -0.25581395626068115 0.28389865159988403
-0.8604651689529419 -0.25581395626068115 0.2924495041370392
-0.8604651093482971 -0.24031007289886475 0.2839117646217346
-0.8604650497436523 -0.24031005799770355 0.29160076379776
-0.8604651093482971 -0.22480618953704834 0.28390711545944214
-0.8604651689529419 -0.22480618953704834 0.2909378409385681
-0.8604651093482971 -0.20930230617523193 0.28393107652664185
-0.8604651689529419 -0.20930230617523193 0.29029786586761475
-0.8604651093482971 -0.19379842281341553 0.2839862108230591
-0.8604651093482971 -0.19379842281341553 0.2897862493991852
-0.8604651093482971 -0.1782945990562439 0.28404492139816284
-0.8604651689529419 -0.1782945990562439 0.289343923330307
-0.8604651093482971 -0.1627907156944275 0.2839288115501404
-0.8604650497436523 -0.1627907007932663 0.28903934359550476
-0.8604651093482971 -0.14728683233261108 0.28366702795028687
-0.8604651093482971 -0.14728683233261108 0.2889438271522522
-0.8604651093482971 -0.13178294897079468 0.2830542325973511
-0.8604651093482971 -0.13178294897079468 0.28903910517692566
-0.8604651093482971 -0.11627906560897827 0.28266775608062744
-0.8604650497436523 -0.11627905815839767 0.2889447808265686
-0.8604651093482971 -0.10077518224716187 0.28427064418792725
-0.8604651093482971 -0.10077518224716187 0.28782230615615845
-0.8449612259864807 -0.4418604373931885 0.28631502389907837
-0.8449612259864807 -0.4418604373931885 0.29068294167518616
-0.8449612259864807 -0.42635661363601685 0.2846601605415344
-0.8449612259864807 -0.42635661363601685 0.3010944128036499
-0.8449612259864807 -0.41085273027420044 0.28414368629455566
-0.8449612259864807 -0.41085273027420044 0.30268239974975586
-0.8449611663818359 -0.39534884691238403 0.28332751989364624
-0.8449612259864807 -0.39534884691238403 0.30304402112960815
-0.8449612259864807 -0.3798449635505676 0.28235483169555664
-0.8449612259864807 -0.3798449635505676 0.30331021547317505
-0.8449612259864807 -0.3643410801887512 0.2821670472621918
-0.8449612855911255 -0.3643411099910736 0.3030792474746704
-0.8449612259864807 -0.3488371968269348 0.28290855884552
-0.8449612259864807 -0.3488371968269348 0.3024626672267914
-0.8449612259864807 -0.3333333134651184 0.28369584679603577
-0.8449612259864807 -0.3333333134651184 0.2998191714286804
-0.8449612259864807 -0.317829430103302 0.28394612669944763
-0.8449611663818359 -0.317829430103302 0.29770398139953613
-0.8449612855911255 -0.30232560634613037 0.28390347957611084
-0.8449612259864807 -0.30232560634613037 0.29615071415901184
-0.8449612259864807 -0.28682172298431396 0.28378501534461975
-0.8449611663818359 -0.28682172298431396 0.2944403290748596
-0.8449612259864807 -0.27131783962249756 0.2836197316646576
-0.8449611663818359 -0.27131783962249756 0.29314589500427246
-0.8449611663818359 -0.25581395626068115 0.2834826409816742
-0.8449612259864807 -0.25581395626068115 0.2921399772167206
-0.8449612259864807 -0.24031007289886475 0.2833387851715088
-0.8449612259864807 -0.24031007289886475 0.29141420125961304
-0.8449612259864807 -0.22480618953704834 0.28308719396591187
-0.8449612259864807 -0.22480618953704834 0.290849894285202
-0.8449612259864807 -0.20930230617523193 0.28286510705947876
-0.8449612259864807 -0.20930230617523193 0.2903059720993042
-0.8449612259864807 -0.19379842281341553 0.2827005684375763
-0.8449612855911255 -0.19379842281341553 0.28986459970474243
-0.8449612855911255 -0.1782945990562439 0.2825902998447418
-0.8449612259864807 -0.1782945990562439 0.2894478440284729
-0.8449612259864807 -0.1627907156944275 0.282338410615921
-0.8449612259864807 -0.1627907156944275 0.28910401463508606
-0.8449612259864807 -0.14728683233261108 0.28215616941452026
-0.8449612259864807 -0.14728683233261108 0.2888679504394531
-0.8449612259864807 -0.13178294897079468 0.2816365957260132
-0.8449612259864807 -0.13178294897079468 0.2887595295906067
-0.8449612259864807 -0.11627906560897827 0.28087300062179565
-0.8449612259864807 -0.11627906560897827 0.2887946367263794
-0.8449612259864807 -0.10077518224716187 0.27976202964782715
-0.8449612259864807 -0.10077518224716187 0.28886258602142334
-0.8449612259864807 -0.08527129888534546 0.27903950214385986
-0.8449612259864807 -0.08527129888534546 0.2887955904006958
-0.8449612259864807 -0.06976741552352905 0.280489057302475
-0.8449612855911255 -0.06976741552352905 0.2880179286003113
-0.8294573426246643 -0.4418604373931885 0.28563109040260315
-0.8294573426246643 -0.4418604373931885 0.2939647436141968
-0.8294573426246643 -0.42635661363601685 0.28447386622428894
-0.8294573426246643 -0.42635661363601685 0.3001565635204315
-0.8294573426246643 -0.41085273027420044 0.283948689699173
-0.8294573426246643 -0.41085273027420044 0.30237317085266113
-0.8294573426246643 -0.39534884691238403 0.2830418050289154
-0.8294573426246643 -0.39534884691238403 0.30271750688552856
-0.8294573426246643 -0.3798449635505676 0.2819337546825409
-0.8294573426246643 -0.3798449635505676 0.3029726445674896
-0.8294572830200195 -0.3643410801887512 0.2817078232765198
-0.8294573426246643 -0.3643410801887512 0.30271121859550476
-0.8294574022293091 -0.3488371968269348 0.28255265951156616
-0.8294573426246643 -0.3488371968269348 0.30114126205444336
-0.8294573426246643 -0.3333333134651184 0.2834720313549042
-0.8294573426246643 -0.3333333134651184 0.2983176112174988
-0.8294573426246643 -0.317829430103302 0.28374698758125305
-0.8294572830200195 -0.317829430103302 0.2965252101421356
-0.8294573426246643 -0.30232560634613037 0.2836530804634094
-0.8294573426246643 -0.30232560634613037 0.295257568359375
-0.8294572830200195 -0.28682172298431396 0.2834387421607971
-0.8294573426246643 -0.28682172298431396 0.29382824897766113
-0.8294573426246643 -0.27131783962249756 0.283118337392807
-0.8294574022293091 -0.27131783962249756 0.29274657368659973
-0.8294573426246643 -0.25581395626068115 0.28279536962509155
-0.8294574022293091 -0.25581395626068115 0.29188066720962524
-0.8294572830200195 -0.24031007289886475 0.2824031710624695
-0.8294574022293091 -0.24031007289886475 0.2912589907646179
-0.8294574022293091 -0.22480618953704834 0.2817723751068115
-0.8294573426246643 -0.22480618953704834 0.29077214002609253
-0.8294573426246643 -0.20930230617523193 0.2811731696128845
-0.8294573426246643 -0.20930230617523193 0.2903023362159729
-0.8294573426246643 -0.19379842281341553 0.2806418538093567
-0.8294573426246643 -0.19379842281341553 0.2899225354194641
-0.8294573426246643 -0.1782945990562439 0.28014764189720154
-0.8294573426246643 -0.1782945990562439 0.28953880071640015
-0.8294573426246643 -0.1627907156944275 0.2794218063354492
-0.8294573426246643 -0.1627907156944275 0.28918176889419556
-0.8294572830200195 -0.14728683233261108 0.2790328562259674
-0.8294573426246643 -0.14728683233261108 0.28888577222824097
-0.8294573426246643 -0.13178294897079468 0.2782607078552246
-0.8294573426246643 -0.13178294897079468 0.2886398732662201
-0.8294574022293091 -0.11627906560897827 0.27729031443595886
-0.8294573426246643 -0.11627906560897827 0.28847864270210266
-0.8294573426246643 -0.10077518224716187 0.27530398964881897
-0.8294573426246643 -0.10077518224716187 0.2883976995944977
-0.8294573426246643 -0.08527129888534546 0.27156150341033936
-0.8294573426246643 -0.08527129888534546 0.28840845823287964
-0.8294573426246643 -0.06976741552352905 0.27081525325775146
-0.8294573426246643 -0.06976741552352905 0.28844648599624634
-0.8294573426246643 -0.05426359176635742 0.2705783545970917
-0.8294572830200195 -0.05426358804106712 0.2882542610168457
-0.8294573426246643 -0.038759708404541016 0.2712242305278778
-0.8294572830200195 -0.038759708404541016 0.28690770268440247
-0.8139535188674927 -0.4418604373931885 0.28525015711784363
-0.8139535188674927 -0.4418604373931885 0.2948490083217621
-0.8139535188674927 -0.42635661363601685 0.2844046950340271
-0.8139535188674927 -0.42635661363601685 0.29918140172958374
-0.8139535188674927 -0.41085273027420044 0.2838866114616394
-0.8139535188674927 -0.41085273027420044 0.30119025707244873
