-0.14089959859848022 0.4573643207550049 0.22480618953704834
-0.1336473822593689 0.4573643207550049 0.24031007289886475
-0.13276079297065735 0.4728682041168213 -0.1782945990562439
-0.13617905974388123 0.4728682041168213 -0.1627907156944275
-0.1384272277355194 0.4728682041168213 -0.14728683233261108
-0.13979265093803406 0.4728682041168213 -0.13178294897079468
-0.14084255695343018 0.4728682041168213 -0.11627906560897827
-0.1419968605041504 0.4728682041168213 -0.10077518224716187
-0.14382313191890717 0.4728682041168213 -0.08527129888534546
-0.14457349479198456 0.4728682041168213 0.19379842281341553
-0.14021354913711548 0.4728682041168213 0.20930230617523193
-0.1332167685031891 0.4728682041168213 0.22480618953704834
-0.13235007226467133 0.4883720874786377 -0.1627907156944275
-0.1334596425294876 0.4883720874786377 -0.14728683233261108
-0.1344505250453949 0.4883720874786377 -0.13178294897079468
-0.1352488398551941 0.4883720874786377 -0.11627906560897827
-0.13591797649860382 0.4883720874786377 -0.10077518224716187
-0.13814090192317963 0.4883720874786377 -0.08527129888534546
-0.14126160740852356 0.4883720874786377 -0.06976741552352905
-0.14407342672348022 0.4883720874786377 -0.05426359176635742
-0.1460445523262024 0.4883720874786377 0.16279065608978271
-0.14291632175445557 0.4883720874786377 0.17829453945159912
-0.13855603337287903 0.4883720874786377 0.19379842281341553
-0.13208022713661194 0.5038759708404541 -0.06976741552352905
-0.13636699318885803 0.5038759708404541 -0.05426359176635742
-0.1409711241722107 0.5038759708404541 -0.038759708404541016
-0.14350654184818268 0.5038759708404541 -0.02325582504272461
-0.14572086930274963 0.5038759708404541 -0.007751941680908203
-0.14712679386138916 0.5038759708404541 0.11627912521362305
-0.14550767838954926 0.5038759708404541 0.1317828893661499
-0.14373429119586945 0.5038759708404541 0.1472867727279663
-0.1408417820930481 0.5038759708404541 0.16279065608978271
-0.13513396680355072 0.5038759708404541 0.17829453945159912
-0.13362546265125275 0.5193798542022705 -0.02325582504272461
-0.13787807524204254 0.5193798542022705 -0.007751941680908203
-0.14064453542232513 0.5193798542022705 0.007751941680908203
-0.14183326065540314 0.5193798542022705 0.02325582504272461
-0.1426074504852295 0.5193798542022705 0.038759708404541016
-0.14306937158107758 0.5193798542022705 0.05426358804106712
-0.14313532412052155 0.5193798542022705 0.06976747512817383
-0.143079474568367 0.5193798542022705 0.08527135848999023
-0.14246636629104614 0.5193798542022705 0.10077524185180664
-0.14122188091278076 0.5193798542022705 0.11627912521362305
-0.13939043879508972 0.5193798542022705 0.1317828893661499
-0.13555525243282318 0.5193798542022705 0.1472867727279663
-0.1318325698375702 0.5348837375640869 0.05426359176635742
-0.13205668330192566 0.5348837375640869 0.06976747512817383
-0.13233505189418793 0.5348837375640869 0.08527135848999023
-0.12424628436565399 -0.8449612259864807 0.4418604373931885
-0.12130310386419296 -0.8294573426246643 0.41085267066955566
-0.12032513320446014 -0.8294573426246643 0.4883720874786377
-0.11850842088460922 -0.8139535188674927 0.30232560634613037
-0.12202360481023788 -0.8139535188674927 0.3178294897079468
-0.12153549492359161 -0.8139535188674927 0.3333333730697632
-0.11834848672151566 -0.8139535188674927 0.3488372564315796
-0.11682001501321793 -0.8139535188674927 0.364341139793396
-0.11721717566251755 -0.8139535188674927 0.37984490394592285
-0.11971971392631531 -0.8139535188674927 0.39534878730773926
-0.12639424204826355 -0.8139535188674927 0.41085267066955566
-0.12617963552474976 -0.8139535188674927 0.4573643207550049
-0.1169031485915184 -0.7984496355056763 0.28682172298431396
-0.1237957626581192 -0.7984496355056763 0.30232560634613037
-0.12740325927734375 -0.7984496355056763 0.3178294897079468
-0.12671300768852234 -0.7984496355056763 0.3333333730697632
-0.12262353301048279 -0.7984496355056763 0.3488372564315796
-0.11882416903972626 -0.7984496355056763 0.364341139793396
-0.11832982301712036 -0.7984496355056763 0.37984490394592285
-0.11973369121551514 -0.7984496355056763 0.39534878730773926
-0.121984101831913 -0.7984496355056763 0.41085267066955566
-0.1228572204709053 -0.7984496355056763 0.42635655403137207
-0.11910098791122437 -0.7984496355056763 0.4418604373931885
-0.12023207545280457 -0.7829457521438599 0.28682172298431396
-0.126296728849411 -0.7829457521438599 0.30232560634613037
-0.12970495223999023 -0.7829457521438599 0.31782951951026917
-0.1285020411014557 -0.7829457521438599 0.3333333730697632
-0.12392456829547882 -0.7829457521438599 0.3488372564315796
-0.119308702647686 -0.7829457521438599 0.364341139793396
-0.1176324188709259 -0.7829457521438599 0.37984490394592285
-0.1171775534749031 -0.7829457521438599 0.39534878730773926
-0.12059430778026581 -0.7674418687820435 0.28682172298431396
-0.1255776286125183 -0.7674418687820435 0.30232560634613037
-0.1279486119747162 -0.7674418687820435 0.3178294897079468
-0.12638133764266968 -0.7674418687820435 0.3333333730697632
-0.12220458686351776 -0.7674418687820435 0.3488372564315796
-0.1177501454949379 -0.7674418687820435 0.364341139793396
-0.1194058507680893 -0.751937985420227 0.28682172298431396
-0.12298986315727234 -0.751937985420227 0.30232560634613037
-0.12440507113933563 -0.751937985420227 0.3178294897079468
-0.12277539074420929 -0.751937985420227 0.3333333730697632
-0.1189444363117218 -0.751937985420227 0.3488372564315796
-0.11832424998283386 -0.7364341020584106 0.28682172298431396
-0.12033829092979431 -0.7364341020584106 0.30232560634613037
-0.12088991701602936 -0.7364341020584106 0.3178294897079468
-0.11908881366252899 -0.7364341020584106 0.3333333730697632
-0.1162913590669632 -0.7209302186965942 0.27131783962249756
-0.11809079349040985 -0.7209302186965942 0.28682172298431396
-0.11902123689651489 -0.7209302186965942 0.30232560634613037
-0.11876798421144485 -0.7209302186965942 0.3178294897079468
-0.11697670817375183 -0.7209302186965942 0.3333333730697632
-0.11673042923212051 -0.7054263353347778 0.27131783962249756
-0.11814263463020325 -0.7054263353347778 0.28682172298431396
-0.11860691756010056 -0.7054263353347778 0.30232560634613037
-0.11794354766607285 -0.7054263353347778 0.3178294897079468
-0.11709009855985641 -0.6899224519729614 0.27131783962249756
-0.11827927827835083 -0.6899224519729614 0.28682172298431396
-0.11853155493736267 -0.6899224519729614 0.30232560634613037
-0.1176576167345047 -0.6899224519729614 0.3178294897079468
-0.11716873943805695 -0.674418568611145 0.27131783962249756
-0.11808408051729202 -0.674418568611145 0.28682172298431396
-0.11816379427909851 -0.674418568611145 0.30232560634613037
-0.11719091236591339 -0.674418568611145 0.3178294897079468
-0.11711544543504715 -0.6589146852493286 0.27131783962249756
-0.11767902970314026 -0.6589146852493286 0.28682172298431396
-0.1175585687160492 -0.6589146852493286 0.30232560634613037
-0.11653000116348267 -0.6589146852493286 0.3178294897079468
-0.11690304428339005 -0.643410861492157 0.27131783962249756
-0.11706596612930298 -0.643410861492157 0.28682172298431396
-0.11667244136333466 -0.643410861492157 0.30232560634613037
-0.11647406220436096 -0.6279069781303406 0.27131783962249756
-0.11659663915634155 -0.5968992114067078 0.20930230617523193
-0.11674169450998306 -0.5968992114067078 0.22480618953704834
-0.11677158623933792 -0.5968992114067078 0.24031007289886475
-0.11645501852035522 -0.5968992114067078 0.25581395626068115
-0.11882459372282028 -0.5813953876495361 0.16279065608978271
-0.12019482254981995 -0.5813953876495361 0.17829453945159912
-0.12063255906105042 -0.5813953876495361 0.19379842281341553
-0.1203920915722847 -0.5813953876495361 0.20930230617523193
-0.11942946165800095 -0.5813953876495361 0.22480618953704834
-0.1185913160443306 -0.5813953876495361 0.24031007289886475
-0.11757326871156693 -0.5813953876495361 0.25581395626068115
-0.11671283841133118 -0.5658915042877197 0.1317828893661499
-0.12102735787630081 -0.5658915042877197 0.1472867727279663
-0.12318044900894165 -0.5658915042877197 0.16279065608978271
-0.1236501932144165 -0.5658915042877197 0.17829453945159912
-0.12360949069261551 -0.5658915042877197 0.19379842281341553
-0.12327180057764053 -0.5658915042877197 0.20930230617523193
-0.12199664115905762 -0.5658915042877197 0.22480618953704834
-0.1206328421831131 -0.5658915042877197 0.24031007289886475
-0.11907735466957092 -0.5658915042877197 0.25581395626068115
-0.11692547053098679 -0.5658915042877197 0.27131783962249756
-0.12072959542274475 -0.5503876209259033 0.1317828893661499
-0.12406529486179352 -0.5503876209259033 0.1472867727279663
-0.12605632841587067 -0.5503876209259033 0.16279065608978271
-0.12638986110687256 -0.5503876209259033 0.17829453945159912
-0.1259019821882248 -0.5503876209259033 0.19379842281341553
-0.12520548701286316 -0.5503876209259033 0.20930230617523193
-0.12382389605045319 -0.5503876209259033 0.22480618953704834
-0.12234342098236084 -0.5503876209259033 0.24031007289886475
-0.12064743041992188 -0.5503876209259033 0.25581395626068115
-0.11812986433506012 -0.5503876209259033 0.27131783962249756
-0.11982230842113495 -0.5348837375640869 0.11627912521362305
-0.12314674258232117 -0.5348837375640869 0.1317828893661499
-0.12626992166042328 -0.5348837375640869 0.1472867727279663
-0.12821997702121735 -0.5348837375640869 0.16279065608978271
-0.12840482592582703 -0.5348837375640869 0.17829453945159912
-0.127761572599411 -0.5348837375640869 0.19379842281341553
-0.1266934871673584 -0.5348837375640869 0.20930232107639313
-0.1251438856124878 -0.5348837375640869 0.22480618953704834
-0.1235702708363533 -0.5348837375640869 0.24031007289886475
-0.12183424830436707 -0.5348837375640869 0.25581395626068115
-0.11929615586996078 -0.5348837375640869 0.27131783962249756
-0.12004949152469635 -0.5193798542022705 0.10077524185180664
-0.12358367443084717 -0.5193798542022705 0.11627912521362305
-0.12644389271736145 -0.5193798542022705 0.1317828893661499
-0.12868528068065643 -0.5193798542022705 0.1472867727279663
-0.1299033910036087 -0.5193798542022705 0.16279064118862152
-0.12977087497711182 -0.5193798542022705 0.17829453945159912
-0.12880849838256836 -0.5193798542022705 0.19379842281341553
-0.12774890661239624 -0.5193798542022705 0.20930230617523193
-0.12635870277881622 -0.5193798542022705 0.22480618953704834
-0.12477422505617142 -0.5193798542022705 0.24031007289886475
-0.12308741360902786 -0.5193798542022705 0.25581395626068115
-0.12079459428787231 -0.5193798542022705 0.27131783962249756
-0.11710139364004135 -0.5193798542022705 0.28682172298431396
-0.12073168158531189 -0.5038759708404541 0.08527135848999023
-0.12475927174091339 -0.5038759708404541 0.10077524185180664
-0.12791480123996735 -0.5038759708404541 0.11627912521362305
-0.13014546036720276 -0.5038759708404541 0.1317828893661499
-0.13176418840885162 -0.5038759708404541 0.17829453945159912
-0.12996511161327362 -0.5038759708404541 0.19379842281341553
-0.12843063473701477 -0.5038759708404541 0.20930230617523193
-0.12729081511497498 -0.5038759708404541 0.22480618953704834
-0.12591737508773804 -0.5038759708404541 0.24031005799770355
-0.12428727000951767 -0.5038759708404541 0.25581395626068115
-0.12222052365541458 -0.5038759708404541 0.27131783962249756
-0.11910083889961243 -0.5038759708404541 0.28682172298431396
-0.11886650323867798 -0.4883720874786377 -0.4883720874786377
-0.12078994512557983 -0.4883720874786377 0.06976747512817383
-0.12569405138492584 -0.4883720874786377 0.08527135848999023
-0.12902483344078064 -0.4883720874786377 0.10077524185180664
-0.13151948153972626 -0.4883720874786377 0.19379842281341553
-0.12920349836349487 -0.4883720874786377 0.20930230617523193
-0.12790976464748383 -0.4883720874786377 0.22480618953704834
-0.12682096660137177 -0.4883720874786377 0.24031007289886475
-0.12529833614826202 -0.4883720874786377 0.25581395626068115
-0.12334584444761276 -0.4883720874786377 0.27131783962249756
-0.12093070149421692 -0.4883720874786377 0.28682172298431396
-0.11712049692869186 -0.4883720874786377 0.30232560634613037
-0.12612201273441315 -0.4728681743144989 -0.4883720874786377
-0.11913435161113739 -0.4728682041168213 -0.4728682041168213
-0.12073631584644318 -0.4728682041168213 0.05426359176635742
-0.12602455914020538 -0.4728682041168213 0.06976747512817383
-0.12994951009750366 -0.4728681743144989 0.08527135848999023
-0.1303127557039261 -0.4728681743144989 0.20930229127407074
-0.1285492479801178 -0.4728682041168213 0.22480618953704834
-0.12741784751415253 -0.4728682041168213 0.24031007289886475
-0.12615644931793213 -0.4728682041168213 0.25581395626068115
-0.12422436475753784 -0.4728682041168213 0.27131783962249756
-0.12203855812549591 -0.4728682041168213 0.28682172298431396
-0.11877745389938354 -0.4728682041168213 0.30232560634613037
-0.12586668133735657 -0.4573643207550049 -0.4883720874786377
-0.11961378902196884 -0.4573643207550049 -0.4728682041168213
-0.12081235647201538 -0.4573643207550049 0.038759708404541016
-0.12648916244506836 -0.4573643207550049 0.05426359176635742
-0.1304851919412613 -0.4573643207550049 0.06976747512817383
-0.1297406554222107 -0.4573643207550049 0.22480618953704834
-0.12814125418663025 -0.4573643207550049 0.24031007289886475
-0.12694641947746277 -0.4573643207550049 0.25581395626068115
-0.12506240606307983 -0.45736435055732727 0.27131783962249756
-0.12275199592113495 -0.4573643207550049 0.28682172298431396
-0.11973147094249725 -0.4573643207550049 0.30232560634613037
-0.1250077784061432 -0.4418604373931885 -0.4883720874786377
-0.11926224082708359 -0.4418604373931885 -0.4728682041168213
-0.12181608378887177 -0.4418604373931885 0.02325582504272461
-0.1268322616815567 -0.4418604373931885 0.038759708404541016
-0.1313369870185852 -0.4418604373931885 0.05426359176635742
-0.1294572502374649 -0.4418604373931885 0.24031007289886475
-0.1278332769870758 -0.4418604373931885 0.25581395626068115
-0.12599867582321167 -0.4418604373931885 0.27131783962249756
-0.12332869321107864 -0.4418604373931885 0.28682172298431396
-0.12012776732444763 -0.4418604373931885 0.30232560634613037
-0.12450273334980011 -0.42635661363601685 -0.4883720874786377
-0.12012755870819092 -0.42635661363601685 -0.4728682041168213
-0.12347753345966339 -0.42635661363601685 0.007751941680908203
-0.1274862289428711 -0.42635661363601685 0.02325582690536976
-0.13164356350898743 -0.42635658383369446 0.038759708404541016
-0.1314207911491394 -0.42635661363601685 0.24031007289886475
-0.12890583276748657 -0.42635661363601685 0.25581395626068115
-0.1268141120672226 -0.42635661363601685 0.27131783962249756
-0.12373713403940201 -0.42635661363601685 0.28682172298431396
-0.12001579999923706 -0.42635661363601685 0.30232560634613037
-0.12405174970626831 -0.41085273027420044 -0.4883720874786377
-0.12148554623126984 -0.41085273027420044 -0.4728682041168213
-0.11638941615819931 -0.41085273027420044 -0.02325582504272461
-0.12471770495176315 -0.41085273027420044 -0.007751941680908203
-0.12833113968372345 -0.41085270047187805 0.007751941680908203
-0.12973719835281372 -0.41085273027420044 0.25581395626068115
-0.1271640658378601 -0.41085273027420044 0.27131783962249756
-0.12377183139324188 -0.41085273027420044 0.28682172298431396
-0.11937214434146881 -0.41085273027420044 0.30232560634613037
-0.1238335445523262 -0.39534884691238403 -0.4883720874786377
-0.12280218303203583 -0.39534884691238403 -0.4728682041168213
-0.11684250086545944 -0.39534884691238403 -0.038759708404541016
-0.1247016116976738 -0.39534884691238403 -0.02325582504272461
-0.12877660989761353 -0.39534884691238403 -0.007751941680908203
-0.1302764117717743 -0.39534884691238403 0.25581395626068115
-0.1271595060825348 -0.39534884691238403 0.27131783962249756
-0.12353534996509552 -0.39534884691238403 0.28682172298431396
-0.11839385330677032 -0.39534884691238403 0.30232560634613037
-0.12308809161186218 -0.3798449635505676 -0.4883720874786377
-0.12333056330680847 -0.3798449635505676 -0.4728682041168213
-0.11821214854717255 -0.3798449635505676 -0.4573643207550049
-0.12420259416103363 -0.3798449635505676 -0.038759708404541016
-0.12870043516159058 -0.3798449635505676 -0.02325582504272461
-0.13073581457138062 -0.37984493374824524 0.25581395626068115
-0.12704013288021088 -0.3798449635505676 0.27131783962249756
-0.12324456870555878 -0.3798449635505676 0.28682172298431396
-0.11733180284500122 -0.3798449635505676 0.30232560634613037
-0.11966287344694138 -0.3643410801887512 -0.4883720874786377
-0.12244051694869995 -0.3643410801887512 -0.4728682041168213
-0.12006615847349167 -0.3643410801887512 -0.4573643207550049
-0.12309952080249786 -0.3643410801887512 -0.05426359176635742
-0.1279856264591217 -0.3643411099910736 -0.038759708404541016
-0.1274607628583908 -0.3643410801887512 0.27131783962249756
-0.12343118339776993 -0.3643410801887512 0.28682172298431396
-0.1169770210981369 -0.3643410801887512 0.30232560634613037
-0.11821218580007553 -0.3488371968269348 -0.4728682041168213
-0.1189054325222969 -0.3488371968269348 -0.4573643207550049
-0.12114392220973969 -0.3488371968269348 -0.06976741552352905
-0.12585048377513885 -0.3488371968269348 -0.05426359549164772
-0.13127368688583374 -0.3488371968269348 -0.03875970467925072
-0.1281929612159729 -0.3488371968269348 0.27131783962249756
-0.12393076717853546 -0.3488371968269348 0.28682172298431396
-0.11723159998655319 -0.3488371968269348 0.30232560634613037
-0.11705947667360306 -0.3333333134651184 -0.11627906560897827
-0.12123280763626099 -0.3333333134651184 -0.10077518224716187
-0.12422001361846924 -0.3333333134651184 -0.08527129888534546
-0.12517452239990234 -0.3333333134651184 -0.06976741552352905
-0.12781178951263428 -0.3333333134651184 -0.05426359176635742
-0.1294168382883072 -0.3333333134651184 0.27131783962249756
-0.12481364607810974 -0.3333333134651184 0.28682172298431396
-0.1182224452495575 -0.3333333134651184 0.30232560634613037
-0.11665091663599014 -0.317829430103302 -0.41085273027420044
-0.11689377576112747 -0.317829430103302 -0.39534884691238403
-0.11674187332391739 -0.317829430103302 -0.20930230617523193
-0.11881886422634125 -0.317829430103302 -0.19379842281341553
-0.12202337384223938 -0.317829430103302 -0.1782945990562439
-0.12468980252742767 -0.317829430103302 -0.1627907156944275
-0.12700477242469788 -0.317829430103302 -0.14728683233261108
-0.12921176850795746 -0.3178294003009796 -0.13178294897079468
-0.1308908760547638 -0.317829430103302 -0.11627906560897827
-0.13167764246463776 -0.317829430103302 -0.10077518224716187
-0.1316099464893341 -0.3178294599056244 -0.06976742297410965
-0.1261357069015503 -0.317829430103302 0.28682172298431396
-0.12000205367803574 -0.317829430103302 0.30232560634613037
-0.11635280400514603 -0.30232560634613037 -0.3798449635505676
-0.1165325939655304 -0.30232560634613037 -0.3643410801887512
-0.11758753657341003 -0.30232560634613037 -0.3488371968269348
-0.11906743794679642 -0.30232560634613037 -0.3333333134651184
-0.12061914801597595 -0.30232560634613037 -0.317829430103302
-0.12156146764755249 -0.30232560634613037 -0.30232560634613037
-0.12186350673437119 -0.30232560634613037 -0.28682172298431396
-0.12186688184738159 -0.30232560634613037 -0.27131783962249756
-0.1219848170876503 -0.30232560634613037 -0.25581395626068115
-0.1225871816277504 -0.30232560634613037 -0.24031007289886475
-0.12371498346328735 -0.30232560634613037 -0.22480618953704834
-0.12575697898864746 -0.30232560634613037 -0.20930230617523193
-0.12808704376220703 -0.30232560634613037 -0.19379842281341553
-0.13054217398166656 -0.30232560634613037 -0.1782945990562439
-0.12753306329250336 -0.30232560634613037 0.28682172298431396
-0.12191488593816757 -0.30232560634613037 0.30232560634613037
-0.11664825677871704 -0.28682172298431396 -0.3488371968269348
-0.11996124684810638 -0.28682172298431396 -0.3333333134651184
-0.12175390124320984 -0.28682172298431396 -0.317829430103302
-0.12246924638748169 -0.28682172298431396 -0.30232560634613037
-0.1230473667383194 -0.28682172298431396 -0.28682172298431396
-0.12357774376869202 -0.28682172298431396 -0.27131783962249756
-0.12438007444143295 -0.28682172298431396 -0.25581395626068115
-0.12561389803886414 -0.28682172298431396 -0.24031007289886475
-0.12711413204669952 -0.28682172298431396 -0.22480618953704834
-0.12951013445854187 -0.28682172298431396 -0.20930230617523193
-0.12947438657283783 -0.28682172298431396 0.28682172298431396
-0.12348784506320953 -0.28682172298431396 0.30232560634613037
-0.1207374781370163 -0.27131783962249756 -0.317829430103302
-0.12281320989131927 -0.27131783962249756 -0.30232560634613037
-0.12414971739053726 -0.27131783962249756 -0.28682172298431396
-0.1250700056552887 -0.27131783962249756 -0.27131783962249756
-0.12594321370124817 -0.27131783962249756 -0.25581395626068115
-0.12698960304260254 -0.27131783962249756 -0.24031007289886475
-0.12874247133731842 -0.27131783962249756 -0.22480618953704834
-0.12524673342704773 -0.27131783962249756 0.30232560634613037
-0.11702237278223038 -0.27131783962249756 0.3178294897079468
-0.11688815802335739 -0.25581395626068115 -0.30232560634613037
-0.1207997053861618 -0.25581395626068115 -0.28682172298431396
-0.12287941575050354 -0.25581395626068115 -0.27131783962249756
-0.12443006783723831 -0.25581395626068115 -0.25581395626068115
-0.1258380115032196 -0.25581395626068115 -0.24031007289886475
-0.127302348613739 -0.25581395626068115 -0.22480618953704834
-0.12971751391887665 -0.25581395626068115 -0.20930230617523193
-0.1270218789577484 -0.25581395626068115 0.30232560634613037
-0.12029679119586945 -0.25581395626068115 0.3178294897079468
-0.1181667298078537 -0.24031007289886475 -0.22480618953704834
-0.12154613435268402 -0.24031007289886475 -0.20930230617523193
-0.12428168952465057 -0.24031007289886475 -0.19379842281341553
-0.12648682296276093 -0.24031007289886475 -0.1782945990562439
-0.1284477859735489 -0.24031007289886475 -0.1627907156944275
-0.13137173652648926 -0.24031007289886475 -0.14728683233261108
-0.1289493888616562 -0.24031007289886475 0.30232560634613037
-0.12244537472724915 -0.24031007289886475 0.3178294897079468
-0.11966507136821747 -0.22480618953704834 -0.11627906560897827
-0.12406494468450546 -0.22480618953704834 -0.10077518224716187
-0.13098575174808502 -0.22480618953704834 0.30232560634613037
-0.12376631796360016 -0.22480618953704834 0.3178294897079468
-0.12970399856567383 -0.20930230617523193 -0.05426359176635742
-0.12439907342195511 -0.20930230617523193 0.3178294897079468
-0.11639685928821564 -0.20930230617523193 0.3333333730697632
-0.11796373128890991 -0.19379842281341553 -0.038759708404541016
-0.12743958830833435 -0.19379842281341553 -0.02325582504272461
-0.12620046734809875 -0.19379842281341553 0.3178294897079468
-0.11629486829042435 -0.19379842281341553 0.3333333730697632
-0.1232367530465126 -0.1782945990562439 -0.007751941680908203
-0.12765121459960938 -0.1782945990562439 0.3178294897079468
-0.11739491671323776 -0.1782945990562439 0.3333333730697632
-0.12371236085891724 -0.1627907156944275 0.007751941680908203
-0.13075916469097137 -0.1627907156944275 0.02325582690536976
-0.12823541462421417 -0.1627907156944275 0.3178294897079468
-0.11843813210725784 -0.1627907156944275 0.3333333730697632
-0.11809664964675903 -0.14728683233261108 0.007751941680908203
-0.12475477159023285 -0.14728683233261108 0.02325582504272461
-0.12983188033103943 -0.14728683233261108 0.038759708404541016
-0.12842831015586853 -0.14728683233261108 0.3178294897079468
-0.1187187135219574 -0.14728683233261108 0.3333333730697632
-0.12198667228221893 -0.13178294897079468 0.02325582504272461
-0.12629100680351257 -0.13178294897079468 0.038759708404541016
-0.12857253849506378 -0.13178294897079468 0.3178294897079468
-0.1190497949719429 -0.13178294897079468 0.3333333730697632
-0.12085193395614624 -0.11627906560897827 0.02325582504272461
-0.12578196823596954 -0.11627906560897827 0.038759708404541016
-0.13104458153247833 -0.11627906560897827 0.05426359176635742
-0.1288892924785614 -0.11627906560897827 0.3178294897079468
-0.11981913447380066 -0.11627906560897827 0.3333333730697632
-0.12162421643733978 -0.10077518224716187 0.02325582504272461
-0.12670859694480896 -0.10077518224716187 0.038759708404541016
-0.12901432812213898 -0.10077518224716187 0.3178294897079468
-0.12002455443143845 -0.10077518224716187 0.3333333730697632
-0.11696463823318481 -0.08527129888534546 0.007751941680908203
-0.12306713312864304 -0.08527129888534546 0.02325582504272461
-0.12961922585964203 -0.08527129888534546 0.038759708404541016
-0.12872210144996643 -0.08527129888534546 0.3178294897079468
-0.11917343735694885 -0.08527129888534546 0.3333333730697632
-0.11815328896045685 -0.06976741552352905 0.007751941680908203
-0.12405259907245636 -0.06976741552352905 0.02325582504272461
-0.12769678235054016 -0.06976741552352905 0.3178294897079468
-0.11807999014854431 -0.06976741552352905 0.3333333730697632
-0.11823385953903198 -0.05426359176635742 0.007751941680908203
-0.12455862760543823 -0.05426359176635742 0.02325582504272461
-0.12652581930160522 -0.05426359176635742 0.3178294897079468
-0.1179141253232956 -0.05426359176635742 0.3333333730697632
-0.11769713461399078 -0.038759708404541016 0.007751941680908203
-0.12452979385852814 -0.038759708404541016 0.02325582504272461
-0.12501923739910126 -0.038759708404541016 0.3178294897079468
-0.1167309582233429 -0.038759708404541016 0.3333333730697632
-0.11651322990655899 -0.02325582504272461 0.007751941680908203
-0.12397819757461548 -0.02325582504272461 0.02325582504272461
-0.12332351505756378 -0.02325582504272461 0.3178294897079468
-0.12245498597621918 -0.007751941680908203 0.02325582504272461
-0.1291854977607727 -0.007751941680908203 0.30232560634613037
-0.12140311300754547 -0.007751941680908203 0.3178294897079468
-0.11946066468954086 0.007751941680908203 0.02325582504272461
-0.12847109138965607 0.007751941680908203 0.038759708404541016
-0.12671241164207458 0.007751941680908203 0.30232560634613037
-0.11867138743400574 0.007751941680908203 0.3178294897079468
-0.1254497468471527 0.02325582504272461 0.038759708404541016
-0.12463028728961945 0.02325582504272461 0.30232560634613037
-0.11632121354341507 0.02325582504272461 0.3178294897079468
-0.12256889045238495 0.038759708404541016 0.038759708404541016
-0.1306859254837036 0.038759708404541016 0.28682172298431396
-0.12308786809444427 0.038759708404541016 0.30232560634613037
-0.12223966419696808 0.05426359176635742 0.038759708404541016
-0.12963221967220306 0.05426359176635742 0.28682172298431396
-0.12230314314365387 0.05426359176635742 0.30232560634613037
-0.12516570091247559 0.06976747512817383 0.038759708404541016
-0.12897071242332458 0.06976747512817383 0.28682172298431396
-0.12190844863653183 0.06976747512817383 0.30232560634613037
-0.12037906050682068 0.08527135848999023 0.02325582504272461
-0.12930552661418915 0.08527135848999023 0.038759708404541016
-0.12873311340808868 0.08527135848999023 0.28682172298431396
-0.12184954434633255 0.08527135848999023 0.30232560634613037
-0.12370233237743378 0.10077524185180664 0.02325582504272461
-0.12926776707172394 0.10077524185180664 0.28682172298431396
-0.12228822708129883 0.10077524185180664 0.30232560634613037
-0.11629543453454971 0.11627912521362305 0.007751941680908203
-0.12610574066638947 0.11627912521362305 0.02325582504272461
-0.1303211897611618 0.11627912521362305 0.2868216931819916
-0.12303736805915833 0.11627912521362305 0.30232560634613037
-0.11957121640443802 0.1317828893661499 0.007751941680908203
-0.12848344445228577 0.1317828893661499 0.02325582504272461
-0.13157108426094055 0.1317828893661499 0.28682172298431396
-0.12392449378967285 0.1317828893661499 0.30232560634613037
-0.12275032699108124 0.1472867727279663 0.007751941680908203
-0.13133414089679718 0.1472867727279663 0.02325582504272461
-0.12465222179889679 0.1472867727279663 0.30232560634613037
-0.11692771315574646 0.16279065608978271 -0.007751941680908203
-0.12610793113708496 0.16279065608978271 0.007751941680908203
-0.12539717555046082 0.16279065608978271 0.30232560634613037
-0.12047061324119568 0.17829453945159912 -0.007751941680908203
-0.12912419438362122 0.17829453945159912 0.007751941680908203
-0.1261979341506958 0.17829453945159912 0.30232560634613037
-0.12174062430858612 0.19379842281341553 -0.007751941680908203
-0.1268964260816574 0.19379840791225433 0.30232560634613037
-0.11661138385534286 0.19379842281341553 0.3178294897079468
-0.12220300734043121 0.20930230617523193 -0.007751941680908203
-0.12745007872581482 0.20930230617523193 0.30232560634613037
-0.1169651448726654 0.20930230617523193 0.3178294897079468
-0.1258460432291031 0.22480618953704834 -0.007751941680908203
-0.12775693833827972 0.22480618953704834 0.30232560634613037
-0.1170434057712555 0.22480618953704834 0.3178294897079468
-0.1227727085351944 0.24031007289886475 -0.02325582504272461
-0.12827186286449432 0.24031007289886475 0.30232560634613037
-0.11723458021879196 0.24031007289886475 0.3178294897079468
-0.1257314532995224 0.25581395626068115 -0.038759708404541016
-0.12825754284858704 0.25581395626068115 0.30232560634613037
-0.11689784377813339 0.25581395626068115 0.3178294897079468
-0.1277046501636505 0.27131783962249756 0.30232560634613037
-0.12209907174110413 0.28682172298431396 -0.08527129888534546
-0.12654149532318115 0.28682172298431396 0.30232560634613037
-0.12524020671844482 0.30232560634613037 0.30232560634613037
-0.11862605810165405 0.3178294897079468 -0.13178294897079468
-0.12418833374977112 0.3178294897079468 0.30232560634613037
-0.12384878098964691 0.3333333730697632 0.30232560634613037
-0.12345565855503082 0.3488372564315796 0.30232560634613037
-0.12237484753131866 0.364341139793396 0.30232560634613037
-0.12052299827337265 0.37984490394592285 -0.1627907156944275
-0.13135461509227753 0.37984493374824524 0.28682172298431396
-0.12044898420572281 0.37984490394592285 0.30232560634613037
-0.12241601943969727 0.39534878730773926 -0.4883720874786377
-0.11934299767017365 0.39534878730773926 -0.4728682041168213
-0.1261393129825592 0.39534878730773926 -0.1627907156944275
-0.12842018902301788 0.39534875750541687 0.28682172298431396
-0.11659740656614304 0.39534878730773926 0.30232560634613037
-0.12391261756420135 0.41085267066955566 -0.4883720874786377
-0.12196371704339981 0.41085267066955566 -0.4728682041168213
-0.12461540848016739 0.41085267066955566 0.28682172298431396
-0.12397567927837372 0.42635655403137207 -0.4883720874786377
-0.12347741425037384 0.42635655403137207 -0.4728682041168213
-0.11890110373497009 0.42635655403137207 -0.4573643207550049
-0.12945964932441711 0.42635655403137207 0.27131783962249756
-0.11841703206300735 0.42635655403137207 0.28682172298431396
-0.12336842715740204 0.4418604373931885 -0.4883720874786377
-0.1247846782207489 0.4418604373931885 -0.4728682041168213
-0.12229084968566895 0.4418604373931885 -0.4573643207550049
-0.1262989044189453 0.4418604373931885 -0.1782945990562439
-0.12329065799713135 0.4418604373931885 0.27131783962249756
-0.12161606550216675 0.4573643207550049 -0.4883720874786377
-0.12543442845344543 0.4573643207550049 -0.4728682041168213
-0.12424847483634949 0.4573643207550049 -0.4573643207550049
-0.12075012922286987 0.4573643207550049 -0.4418604373931885
-0.12190970778465271 0.4573643207550049 -0.19379842281341553
-0.12514469027519226 0.4573643207550049 0.25581395626068115
-0.12488711625337601 0.4728682041168213 -0.4728682041168213
-0.1247730702161789 0.4728682041168213 -0.4573643207550049
-0.12344378232955933 0.4728682041168213 -0.4418604373931885
-0.12128444015979767 0.4728682041168213 -0.42635661363601685
-0.11897023022174835 0.4728682041168213 -0.41085273027420044
-0.11716465651988983 0.4728682041168213 -0.39534884691238403
-0.11841878294944763 0.4728682041168213 -0.22480618953704834
-0.12327346950769424 0.4728682041168213 -0.20930230617523193
-0.1279430091381073 0.4728682041168213 -0.19379842281341553
-0.12569081783294678 0.4728682041168213 0.24031007289886475
-0.1173236295580864 0.4728682041168213 0.25581395626068115
-0.1182103380560875 0.4883720874786377 -0.4728682041168213
-0.12302206456661224 0.4883720874786377 -0.4573643207550049
-0.12364061176776886 0.4883720874786377 -0.4418604373931885
-0.12349201738834381 0.4883720874786377 -0.42635661363601685
-0.12268336117267609 0.4883720874786377 -0.41085273027420044
-0.12174227833747864 0.4883720874786377 -0.39534884691238403
-0.12095127999782562 0.4883720874786377 -0.3798449635505676
-0.12049224972724915 0.4883720874786377 -0.3643410801887512
-0.12011804431676865 0.4883720874786377 -0.3488371968269348
-0.11974026262760162 0.4883720874786377 -0.3333333134651184
-0.11969123780727386 0.4883720874786377 -0.317829430103302
-0.11967210471630096 0.4883720874786377 -0.30232560634613037
-0.11976216733455658 0.4883720874786377 -0.28682172298431396
-0.11990068852901459 0.4883720874786377 -0.27131783962249756
-0.1201801747083664 0.4883720874786377 -0.25581395626068115
-0.12106743454933167 0.4883720874786377 -0.24031007289886475
-0.12306828796863556 0.4883720874786377 -0.22480618953704834
-0.12589100003242493 0.4883720874786377 -0.20930230617523193
-0.12811538577079773 0.4883720874786377 -0.19379842281341553
-0.1303759515285492 0.4883720874786377 -0.1782945990562439
-0.13167136907577515 0.4883720874786377 0.20930230617523193
-0.12517616152763367 0.4883720874786377 0.22480618953704834
-0.11794215440750122 0.4883720874786377 0.24031007289886475
-0.11862066388130188 0.5038759708404541 -0.4418604373931885
-0.12175746262073517 0.5038759708404541 -0.42635661363601685
-0.12223973870277405 0.5038759708404541 -0.41085273027420044
-0.12225112318992615 0.5038759708404541 -0.39534884691238403
-0.12207601964473724 0.5038759708404541 -0.3798449635505676
-0.12192969024181366 0.5038759708404541 -0.3643410801887512
-0.12176099419593811 0.5038759708404541 -0.3488371968269348
-0.12154782563447952 0.5038759708404541 -0.3333333134651184
-0.12143338471651077 0.5038759708404541 -0.317829430103302
-0.12122862040996552 0.5038759708404541 -0.30232560634613037
-0.1212024837732315 0.5038759708404541 -0.28682172298431396
-0.12129437178373337 0.5038759708404541 -0.27131783962249756
-0.12149377167224884 0.5038759708404541 -0.25581395626068115
-0.12218798696994781 0.5038759708404541 -0.24031007289886475
-0.12350496649742126 0.5038759708404541 -0.22480618953704834
-0.12506645917892456 0.5038759708404541 -0.20930230617523193
-0.12649503350257874 0.5038759708404541 -0.19379842281341553
-0.12751813232898712 0.5038759708404541 -0.1782945990562439
-0.12795394659042358 0.5038759708404541 -0.1627907156944275
-0.12816491723060608 0.5038759708404541 -0.14728683233261108
-0.12818941473960876 0.5038759708404541 -0.13178294897079468
-0.1278497576713562 0.5038759708404541 -0.11627907305955887
-0.1270846128463745 0.5038759708404541 -0.10077518224716187
-0.1279289424419403 0.5038759708404541 -0.08527129888534546
-0.12914566695690155 0.5038759708404541 0.19379842281341553
-0.1242639422416687 0.5038759708404541 0.20930230617523193
-0.117204949259758 0.5038759708404541 0.22480618953704834
-0.11694677174091339 0.5193798542022705 -0.41085273027420044
-0.1195450946688652 0.5193798542022705 -0.39534884691238403
-0.12069523334503174 0.5193798542022705 -0.3798449635505676
-0.12114440649747849 0.5193798542022705 -0.3643410801887512
-0.12128137797117233 0.5193798542022705 -0.3488371968269348
-0.12122712284326553 0.5193798542022705 -0.3333333134651184
-0.12113097310066223 0.5193798542022705 -0.317829430103302
-0.12082532048225403 0.5193798542022705 -0.30232560634613037
-0.12077812105417252 0.5193798542022705 -0.28682172298431396
-0.12089245021343231 0.5193798542022705 -0.27131783962249756
-0.12105502188205719 0.5193798542022705 -0.25581395626068115
-0.12167369574308395 0.5193798542022705 -0.24031007289886475
-0.12274554371833801 0.5193798542022705 -0.22480618953704834
-0.12362395226955414 0.5193798542022705 -0.20930230617523193
-0.1240147277712822 0.5193798542022705 -0.19379842281341553
-0.12368406355381012 0.5193798542022705 -0.1782945990562439
-0.12205198407173157 0.5193798542022705 -0.1627907156944275
-0.11983121931552887 0.5193798542022705 -0.14728683233261108
-0.11745579540729523 0.5193798542022705 -0.13178294897079468
-0.12152616679668427 0.5193798542022705 -0.05426359176635742
-0.12887506186962128 0.5193798542022705 -0.038759708404541016
-0.1303843855857849 0.5193798542022705 0.16279064118862152
-0.12635326385498047 0.5193798542022705 0.17829453945159912
-0.12147950381040573 0.5193798542022705 0.19379842281341553
-0.11634988337755203 0.5348837375640869 -0.3643410801887512
-0.11709427088499069 0.5348837375640869 -0.3488371968269348
-0.11742568761110306 0.5348837375640869 -0.3333333134651184
-0.11753308027982712 0.5348837375640869 -0.317829430103302
-0.11735013127326965 0.5348837375640869 -0.30232560634613037
-0.11736273020505905 0.5348837375640869 -0.28682172298431396
-0.11747291684150696 0.5348837375640869 -0.27131783962249756
-0.11750856041908264 0.5348837375640869 -0.25581395626068115
-0.11757156252861023 0.5348837375640869 -0.24031007289886475
-0.11758816987276077 0.5348837375640869 -0.22480618953704834
-0.11710906773805618 0.5348837375640869 -0.20930230617523193
-0.12105204910039902 0.5348837375640869 -0.007751941680908203
-0.12629525363445282 0.5348837375640869 0.007751941680908203
-0.1294238567352295 0.5348837375640869 0.02325582504272461
-0.13099655508995056 0.5348837375640869 0.038759708404541016
-0.13164620101451874 0.5348837375640869 0.10077524185180664
-0.1303715705871582 0.5348837375640869 0.11627912521362305
-0.12879621982574463 0.5348837375640869 0.1317828893661499
-0.12617658078670502 0.5348837375640869 0.1472867727279663
-0.12240210175514221 0.5348837375640869 0.16279065608978271
-0.11656861007213593 0.5503876209259033 0.08527135848999023
-0.11797937750816345 0.5503876209259033 0.10077524185180664
-0.11793215572834015 0.5503876209259033 0.11627912521362305
-0.11007466912269592 -0.8449611663818359 0.42635655403137207
-0.10143042355775833 -0.8449612259864807 0.4883720874786377
-0.10829505324363708 -0.8294573426246643 0.30232560634613037
-0.1120799109339714 -0.8294574022293091 0.3178294897079468
-0.11180814355611801 -0.8294574022293091 0.3333333730697632
-0.10905353724956512 -0.8294572830200195 0.3488372564315796
-0.10692431032657623 -0.8294573426246643 0.364341139793396
-0.10754930973052979 -0.8294573426246643 0.37984490394592285
-0.11405351012945175 -0.8294573426246643 0.39534878730773926
-0.11328934878110886 -0.8294573426246643 0.4883720874786377
-0.10906004160642624 -0.8139535188674927 0.28682172298431396
-0.10471126437187195 -0.7984496355056763 0.27131783962249756
-0.10944044589996338 -0.7829457521438599 0.27131783962249756
-0.115617536008358 -0.7829457521438599 0.4108526408672333
-0.10785679519176483 -0.7829457521438599 0.42635655403137207
-0.10274327546358109 -0.7674418687820435 0.25581395626068115
-0.11199115961790085 -0.7674418687820435 0.27131783962249756
-0.11457132548093796 -0.7674418687820435 0.37984490394592285
-0.1102316826581955 -0.7674418687820435 0.39534878730773926
-0.10548599064350128 -0.7674418687820435 0.41085267066955566
-0.10597633570432663 -0.751937985420227 0.25581395626068115
-0.11316290497779846 -0.751937985420227 0.27131783962249756
-0.11431360244750977 -0.751937985420227 0.364341139793396
-0.10972380638122559 -0.751937985420227 0.37984490394592285
-0.10626087337732315 -0.751937985420227 0.39534878730773926
-0.10169121623039246 -0.7364341020584106 0.24031007289886475
-0.10817377269268036 -0.7364341020584106 0.25581395626068115
-0.11442756652832031 -0.7364341020584106 0.27131783962249756
-0.11596296727657318 -0.7364341616630554 0.348837286233902
-0.11045048385858536 -0.7364341020584106 0.364341139793396
-0.10691103339195251 -0.7364341020584106 0.37984490394592285
-0.10278034210205078 -0.7364341020584106 0.39534878730773926
-0.10506302118301392 -0.7209302186965942 0.24031007289886475
-0.11009158194065094 -0.7209302186965942 0.25581395626068115
-0.11260247230529785 -0.7209302186965942 0.3488372564315796
-0.10817909240722656 -0.7209302186965942 0.364341139793396
-0.10489420592784882 -0.7209302186965942 0.37984490394592285
-0.10196004807949066 -0.7054263353347778 0.22480618953704834
-0.10723280906677246 -0.7054263353347778 0.24031007289886475
-0.1116594672203064 -0.7054263353347778 0.25581395626068115
-0.11601892113685608 -0.7054263949394226 0.3333333730697632
-0.11076398193836212 -0.7054263353347778 0.3488372564315796
-0.10681140422821045 -0.7054263353347778 0.364341139793396
-0.1028313934803009 -0.7054263353347778 0.37984490394592285
-0.1051839217543602 -0.6899224519729614 0.22480618953704834
-0.10923898220062256 -0.6899224519729614 0.24031005799770355
-0.11346455663442612 -0.6899224519729614 0.25581395626068115
-0.1148809939622879 -0.6899224519729614 0.3333333730697632
-0.10956966131925583 -0.6899224519729614 0.3488372564315796
-0.10602424293756485 -0.6899224519729614 0.364341139793396
-0.10149349272251129 -0.6899224519729614 0.37984490394592285
-0.10337544977664948 -0.674418568611145 0.20930230617523193
-0.10722146928310394 -0.674418568611145 0.22480618953704834
-0.11080038547515869 -0.674418568611145 0.24031007289886475
-0.11493689566850662 -0.674418568611145 0.25581395626068115
-0.11345894634723663 -0.674418568611145 0.3333333730697632
-0.10857109725475311 -0.674418568611145 0.3488372564315796
-0.10506834834814072 -0.674418568611145 0.364341139793396
-0.1023181825876236 -0.6589146852493286 0.19379842281341553
-0.10589553415775299 -0.6589146852493286 0.20930230617523193
-0.1088520735502243 -0.6589146852493286 0.22480618953704834
-0.11199842393398285 -0.6589146852493286 0.24031007289886475
-0.11599902808666229 -0.6589146852493286 0.25581395626068115
-0.11175069957971573 -0.6589146852493286 0.3333333730697632
-0.10752864181995392 -0.6589146852493286 0.3488372564315796
-0.10378006845712662 -0.6589146852493286 0.364341139793396
-0.10156818479299545 -0.643410861492157 0.17829453945159912
-0.10542069375514984 -0.643410861492157 0.19379842281341553
-0.10774946212768555 -0.643410861492157 0.20930230617523193
-0.11027972400188446 -0.6434109210968018 0.22480618953704834
-0.1128159612417221 -0.6434109210968018 0.24031007289886475
-0.11622726917266846 -0.643410861492157 0.25581395626068115
-0.11387889832258224 -0.6434108018875122 0.3178294897079468
-0.10963042825460434 -0.643410861492157 0.3333333730697632
-0.10611690580844879 -0.643410861492157 0.3488372564315796
-0.10170110315084457 -0.643410861492157 0.364341139793396
-0.10133445262908936 -0.6279069781303406 0.16279065608978271
-0.10568961501121521 -0.6279069781303406 0.17829453945159912
-0.10787677764892578 -0.6279069781303406 0.19379842281341553
-0.10964471101760864 -0.6279069781303406 0.20930230617523193
-0.11157575249671936 -0.6279069781303406 0.22480618953704834
-0.11344621330499649 -0.6279069781303406 0.24031008780002594
-0.11574101448059082 -0.6279069185256958 0.25581395626068115
-0.1160692423582077 -0.6279069781303406 0.28682172298431396
-0.113640196621418 -0.6279069185256958 0.30232560634613037
-0.11069469898939133 -0.6279069781303406 0.3178294897079468
-0.10730552673339844 -0.6279069781303406 0.3333333730697632
-0.10384886711835861 -0.6279069781303406 0.3488372564315796
-0.10197672247886658 -0.6124030947685242 0.1472867727279663
-0.10668328404426575 -0.6124030947685242 0.16279065608978271
-0.10908137261867523 -0.6124030947685242 0.17829453945159912
-0.11084393411874771 -0.6124030351638794 0.19379840791225433
-0.1121664047241211 -0.6124030947685242 0.20930230617523193
-0.11344440281391144 -0.6124030947685242 0.22480618953704834
-0.11475330591201782 -0.6124030947685242 0.24031007289886475
-0.1155623123049736 -0.6124030947685242 0.25581395626068115
-0.11523116379976273 -0.612403154373169 0.27131786942481995
-0.11350832879543304 -0.6124030947685242 0.28682172298431396
-0.11108959466218948 -0.6124030947685242 0.30232560634613037
-0.10856346786022186 -0.6124030351638794 0.3178294897079468
-0.10540290176868439 -0.6124030947685242 0.3333333730697632
-0.10121281445026398 -0.6124030947685242 0.3488372564315796
-0.10537491738796234 -0.5968992114067078 0.1317828893661499
-0.10905222594738007 -0.5968992114067078 0.1472867727279663
-0.11167757213115692 -0.5968992114067078 0.16279065608978271
-0.11403542011976242 -0.5968992114067078 0.17829453945159912
-0.11616653949022293 -0.5968992114067078 0.19379842281341553
-0.11480221897363663 -0.5968992114067078 0.27131783962249756
-0.11254661530256271 -0.5968992114067078 0.28682172298431396
-0.10996566712856293 -0.5968992114067078 0.30232560634613037
-0.10708411037921906 -0.5968992114067078 0.3178294897079468
-0.10342203080654144 -0.5968992114067078 0.3333333730697632
-0.10759428143501282 -0.5813953876495361 0.11627912521362305
-0.11080755293369293 -0.5813953876495361 0.1317828893661499
-0.11521584540605545 -0.5813953876495361 0.1472867727279663
-0.11583767086267471 -0.5813953876495361 0.27131783962249756
-0.11288347095251083 -0.5813953876495361 0.28682172298431396
-0.10980532318353653 -0.5813953876495361 0.30232560634613037
-0.10659069567918777 -0.5813953876495361 0.3178294897079468
-0.10241782665252686 -0.5813953876495361 0.3333333730697632
-0.10778090357780457 -0.5658915042877197 0.10077524185180664
-0.11132954061031342 -0.5658915042877197 0.11627912521362305
-0.11362535506486893 -0.5658915042877197 0.28682172298431396
-0.11009486764669418 -0.5658915042877197 0.30232560634613037
-0.10650332272052765 -0.5658915042877197 0.3178294897079468
-0.10193902999162674 -0.5658915042877197 0.3333333730697632
-0.10697861015796661 -0.5503876209259033 0.08527135848999023
-0.11124324798583984 -0.5503876209259033 0.10077524185180664
-0.11625602096319199 -0.5503876209259033 0.11627912521362305
-0.11448083072900772 -0.5503876209259033 0.28682172298431396
-0.11051824688911438 -0.5503876209259033 0.30232560634613037
-0.10657059401273727 -0.5503876209259033 0.3178294897079468
-0.10164769738912582 -0.5503876209259033 0.3333333730697632
-0.1039682999253273 -0.5348837375640869 0.06976747512817383
-0.11026253551244736 -0.5348837375640869 0.08527135848999023
-0.11474665999412537 -0.5348837375640869 0.10077524185180664
-0.11541810631752014 -0.5348837375640869 0.28682172298431396
-0.11100545525550842 -0.5348837375640869 0.30232560634613037
-0.10685434937477112 -0.5348837375640869 0.3178294897079468
-0.10151419788599014 -0.5348837375640869 0.3333333730697632
-0.1093166247010231 -0.5193798542022705 0.06976747512817383
-0.11429828405380249 -0.5193798542022705 0.08527135848999023
-0.1123269647359848 -0.5193798542022705 0.30232560634613037
-0.10799461603164673 -0.5193798542022705 0.3178294897079468
-0.10223913937807083 -0.5193798542022705 0.3333333730697632
-0.108422189950943 -0.5038759708404541 0.05426359176635742
-0.11388126760721207 -0.5038759708404541 0.06976747512817383
-0.1145395040512085 -0.5038759708404541 0.30232560634613037
-0.10982009768486023 -0.5038759708404541 0.3178294897079468
-0.1039959117770195 -0.5038759708404541 0.3333333730697632
-0.10097081959247589 -0.4883720874786377 -0.4728682041168213
-0.10596893727779388 -0.4883720874786377 0.038759708404541016
-0.11328022181987762 -0.4883721172809601 0.05426359176635742
-0.11160078644752502 -0.4883720874786377 0.3178294897079468
-0.10601584613323212 -0.4883720874786377 0.3333333730697632
-0.10256783664226532 -0.4728682041168213 0.02325582504272461
-0.11207905411720276 -0.4728682041168213 0.038759708404541016
-0.11284730583429337 -0.4728682041168213 0.3178294897079468
-0.10731343924999237 -0.4728682041168213 0.3333333730697632
-0.11126302182674408 -0.45736435055732727 0.02325582504272461
-0.11346500366926193 -0.4573643207550049 0.3178294897079468
-0.1076599508523941 -0.4573643207550049 0.3333333730697632
-0.10153329372406006 -0.4418604373931885 -0.007751941680908203
-0.1118302047252655 -0.4418604373931885 0.007751941680908203
-0.11350493878126144 -0.44186046719551086 0.31782951951026917
-0.10751018673181534 -0.4418604373931885 0.3333333730697632
-0.10491255670785904 -0.42635661363601685 -0.02325582504272461
-0.11409898847341537 -0.42635661363601685 -0.007751941680908203
-0.11300664395093918 -0.42635664343833923 0.3178294897079468
-0.10678635537624359 -0.42635661363601685 0.3333333730697632
-0.10773837566375732 -0.41085273027420044 -0.038759708404541016
-0.11217539012432098 -0.41085273027420044 0.3178294897079468
