0.10077524185180664 0.4020472764968872 -0.10077518224716187
0.10077524930238724 0.4002418518066406 -0.08527129888534546
0.10077524185180664 0.39898139238357544 -0.06976741552352905
0.10077524185180664 0.3974578380584717 -0.05426359176635742
0.10077524185180664 0.3959580659866333 -0.038759708404541016
0.10077524185180664 0.3967553973197937 0.007751941680908203
0.10077524185180664 0.40115970373153687 0.02325582504272461
0.10077524185180664 0.4062635898590088 0.038759708404541016
0.10077524185180664 0.4080282747745514 0.1472867727279663
0.10077524185180664 0.4048319458961487 0.16279065608978271
0.10077524185180664 0.39790263772010803 0.17829455435276031
0.10077524185180664 0.4230080246925354 -0.28682172298431396
0.10077524185180664 0.4193620979785919 -0.27131783962249756
0.10077524185180664 0.4120107591152191 -0.25581395626068115
0.10077524185180664 0.4171142578125 -0.14728683233261108
0.10077524185180664 0.4118443727493286 -0.13178294897079468
0.10077524185180664 0.4114021062850952 0.05426359176635742
0.10077523440122604 0.4153635501861572 0.06976747512817383
0.10077524185180664 0.41703587770462036 0.08527135848999023
0.10077524185180664 0.41723811626434326 0.10077524185180664
0.10077524185180664 0.4159415364265442 0.11627912521362305
0.10077524185180664 0.412907212972641 0.1317828893661499
0.10077524185180664 0.43998757004737854 -0.3333333134651184
0.10077524185180664 0.43554264307022095 -0.317829430103302
0.10077524185180664 0.4274834990501404 -0.30232560634613037
0.10077524185180664 0.4391961693763733 -0.1782945990562439
0.10077524930238724 0.4270891547203064 -0.16279073059558868
0.10077524185180664 0.4537257254123688 -0.4883720874786377
0.10077524185180664 0.4440460503101349 -0.4728682041168213
0.10077524185180664 0.4490150213241577 -0.4573643207550049
0.10077524185180664 0.45701804757118225 -0.4418604373931885
0.10077524185180664 0.4552784264087677 -0.3643410801887512
0.10077524185180664 0.4491383731365204 -0.3488371968269348
0.10077524185180664 0.4508681297302246 -0.19379842281341553
0.10077524185180664 0.4676815867424011 -0.42635661363601685
0.10077524185180664 0.47086912393569946 -0.41085273027420044
0.10077524185180664 0.46823278069496155 -0.39534884691238403
0.10077524185180664 0.462718665599823 -0.3798449635505676
0.10077524185180664 0.46314573287963867 -0.20930230617523193
0.10077524185180664 0.4762764275074005 -0.22480618953704834
0.10077524185180664 0.5028700828552246 -0.25581395626068115
0.10077524185180664 0.4898664355278015 -0.24031007289886475
0.10077524185180664 0.5148090124130249 -0.27131783962249756
0.10077524185180664 0.5262349843978882 -0.4883720874786377
0.10077524185180664 0.5348127484321594 -0.30232560634613037
0.10077524185180664 0.5254610776901245 -0.28682172298431396
0.10077524185180664 0.5451728701591492 -0.4728682041168213
0.10077524185180664 0.5499658584594727 -0.4573643207550049
0.10077524185180664 0.5481112003326416 -0.42635661363601685
0.10077524185180664 0.5496941804885864 -0.41085273027420044
0.10077524185180664 0.5475888252258301 -0.3333333134651184
0.10077524185180664 0.5418809056282043 -0.317829430103302
0.10077524185180664 0.5506851077079773 -0.4418604373931885
0.10077524930238724 0.5510517358779907 -0.3953488767147064
0.10077524185180664 0.5518503785133362 -0.3798449635505676
0.10077524185180664 0.5520764589309692 -0.3643410801887512
0.10077524930238724 0.5511102676391602 -0.3488371968269348
0.11627912521362305 -0.7852547764778137 0.4573643207550049
0.11627912521362305 -0.7876657843589783 0.4728682041168213
0.11627912521362305 -0.788841187953949 0.4883720874786377
0.11627912521362305 -0.7713925838470459 0.27131783962249756
0.11627912521362305 -0.7722054123878479 0.28682172298431396
0.11627912521362305 -0.7680845260620117 0.41085267066955566
0.11627912521362305 -0.7709230780601501 0.42635655403137207
0.11627912521362305 -0.7780798077583313 0.4418604373931885
0.11627912521362305 -0.7598533630371094 0.25581395626068115
0.11627912521362305 -0.7571611404418945 0.30232560634613037
0.11627912521362305 -0.7524644136428833 0.39534878730773926
0.11627912521362305 -0.7631900906562805 0.4883720874786377
0.11627913266420364 -0.7477927803993225 0.30232560634613037
0.11627912521362305 -0.7426886558532715 0.4573643207550049
0.11627912521362305 -0.7489338517189026 0.4728681743144989
0.11627912521362305 -0.7268177270889282 0.28682172298431396
0.11627912521362305 -0.7299729585647583 0.39534878730773926
0.11627912521362305 -0.7283354997634888 0.41085267066955566
0.11627912521362305 -0.7314790487289429 0.42635655403137207
0.11627912521362305 -0.7358211874961853 0.44186046719551086
0.11627912521362305 -0.7147958278656006 0.25581395626068115
0.11627912521362305 -0.7174358367919922 0.27131783962249756
0.11627912521362305 -0.6627899408340454 0.20930230617523193
0.11627912521362305 -0.6637944579124451 0.22480618953704834
0.11627912521362305 -0.6463150382041931 0.17829453945159912
0.11627912521362305 -0.6561682820320129 0.19379840791225433
0.11627912521362305 -0.6534316539764404 0.24031007289886475
0.11627912521362305 -0.6370517015457153 0.16279065608978271
0.11627912521362305 -0.6215261220932007 0.1317828893661499
0.11627912521362305 -0.6275318264961243 0.1472867727279663
0.11627912521362305 -0.6137064099311829 0.25581395626068115
0.11627912521362305 -0.6016062498092651 0.08527135848999023
0.11627912521362305 -0.6061518788337708 0.10077524185180664
0.11627912521362305 -0.6122713685035706 0.11627912521362305
0.11627912521362305 -0.5900088548660278 0.05426359176635742
0.11627912521362305 -0.5954371690750122 0.06976747512817383
0.11627912521362305 -0.5738502740859985 0.038759708404541016
0.11627912521362305 -0.5542043447494507 0.02325582504272461
0.11627912521362305 -0.5465919971466064 -0.4883720874786377
0.11627913266420364 -0.5482720136642456 -0.4728682041168213
0.11627912521362305 -0.5372579097747803 0.27131783962249756
0.11627912521362305 -0.5199884176254272 -0.007751941680908203
0.11627912521362305 -0.5345248579978943 0.007751941680908203
0.11627912521362305 -0.5169849395751953 -0.4573643207550049
0.11627912521362305 -0.5102885365486145 -0.02325582504272461
0.11627912521362305 -0.5113174319267273 0.28682172298431396
0.11627912521362305 -0.48909786343574524 -0.06976741552352905
0.11627912521362305 -0.4954261779785156 -0.05426359176635742
0.11627912521362305 -0.5005961060523987 -0.038759708404541016
0.11627912521362305 -0.4935374855995178 0.30232560634613037
0.11627912521362305 -0.48318785429000854 -0.4883720874786377
0.11627912521362305 -0.4753565788269043 -0.11627906560897827
0.11627912521362305 -0.48058801889419556 -0.10077518224716187
0.11627912521362305 -0.4839974045753479 -0.08527129888534546
0.11627912521362305 -0.47366607189178467 0.3178294897079468
0.11627912521362305 -0.4677324891090393 -0.4728682041168213
0.11627912521362305 -0.4665055572986603 -0.4573643207550049
0.11627912521362305 -0.4595613181591034 -0.1627907156944275
0.11627912521362305 -0.4657413363456726 -0.14728683233261108
0.11627913266420364 -0.470257043838501 -0.13178294897079468
0.11627912521362305 -0.4418710470199585 -0.3798449635505676
0.11627912521362305 -0.4419792592525482 -0.317829430103302
0.11627912521362305 -0.44247299432754517 -0.30232560634613037
0.11627912521362305 -0.4429992437362671 -0.28682172298431396
0.11627912521362305 -0.4429261088371277 -0.27131783962249756
0.11627912521362305 -0.442654013633728 -0.25581395626068115
0.11627912521362305 -0.44264185428619385 -0.24031007289886475
0.11627912521362305 -0.44308096170425415 -0.22480618953704834
0.11627912521362305 -0.44462960958480835 -0.20930230617523193
0.11627912521362305 -0.44901150465011597 -0.19379842281341553
0.11627912521362305 -0.4541252851486206 -0.1782945990562439
0.11627912521362305 -0.4428199529647827 0.3333333730697632
0.11627912521362305 -0.4412676990032196 -0.36434105038642883
0.11627912521362305 -0.44093358516693115 -0.3488371968269348
0.11627912521362305 -0.4412982165813446 -0.3333333134651184
0.11627912521362305 -0.41918498277664185 -0.3798449635505676
0.11627912521362305 -0.40937569737434387 -0.3643410801887512
0.11627912521362305 -0.40546098351478577 -0.3488371968269348
0.11627912521362305 -0.40264713764190674 -0.3333333134651184
0.11627912521362305 -0.3989742398262024 -0.317829430103302
0.11627912521362305 -0.39462122321128845 -0.30232560634613037
0.11627912521362305 -0.39282816648483276 -0.28682172298431396
0.11627912521362305 -0.3915921449661255 -0.27131783962249756
0.11627913266420364 -0.3898279070854187 -0.25581395626068115
0.11627912521362305 -0.3873700499534607 -0.24031007289886475
0.11627912521362305 -0.38386425375938416 -0.22480618953704834
0.11627912521362305 -0.3832321763038635 0.3333333730697632
0.11627912521362305 -0.379251092672348 -0.20930230617523193
0.11627912521362305 -0.37667620182037354 -0.19379842281341553
0.11627912521362305 -0.3725394904613495 -0.1782945990562439
0.11627912521362305 -0.36518457531929016 -0.1627907156944275
0.11627912521362305 -0.3614986538887024 -0.14728683233261108
0.11627912521362305 -0.3576492667198181 -0.13178294897079468
0.11627912521362305 -0.3535861372947693 -0.11627906560897827
0.11627912521362305 -0.35054463148117065 -0.10077518224716187
0.11627912521362305 -0.34924209117889404 -0.08527129888534546
0.11627912521362305 -0.3476889729499817 -0.06976741552352905
0.11627912521362305 -0.3400155305862427 -0.05426359176635742
0.11627912521362305 -0.33615005016326904 0.3178294897079468
0.11627912521362305 -0.32061734795570374 -0.038759708404541016
0.11627912521362305 -0.3275414705276489 0.3178294897079468
0.11627911776304245 -0.28008949756622314 -0.02325582504272461
0.11627912521362305 -0.20406854152679443 -0.007751941215246916
0.11627912521362305 -0.17694269120693207 0.31782951951026917
0.11627912521362305 -0.1511334478855133 0.007751941680908203
0.11627912521362305 -0.13410377502441406 0.30232560634613037
0.11627912521362305 -0.09644974768161774 0.28682172298431396
0.11627913266420364 -0.06433065235614777 0.27131783962249756
0.11627912521362305 -0.02266620472073555 0.25581395626068115
0.11627912521362305 0.06282017379999161 0.25581395626068115
0.11627912521362305 0.08193004131317139 0.007751941680908203
0.11627912521362305 0.08630026131868362 0.27131783962249756
0.11627912521362305 0.1067943274974823 -0.00775194214656949
0.11627912521362305 0.11148339509963989 0.28682172298431396
0.11627912521362305 0.12450534105300903 -0.02325582504272461
0.11627912521362305 0.14378367364406586 -0.038759708404541016
0.11627912521362305 0.16074535250663757 -0.05426359176635742
0.11627912521362305 0.17528043687343597 -0.06976741552352905
0.11627912521362305 0.19280190765857697 -0.08527129888534546
0.11627912521362305 0.24951612949371338 0.28682172298431396
0.11627912521362305 0.2608937621116638 -0.10077518224716187
0.11627912521362305 0.28447890281677246 0.27131783962249756
0.11627912521362305 0.29313963651657104 -0.11627906560897827
0.11627912521362305 0.3122062683105469 -0.13178294897079468
0.11627912521362305 0.31187793612480164 0.25581395626068115
0.11627912521362305 0.32719746232032776 -0.14728683233261108
0.11627912521362305 0.33269867300987244 0.24031007289886475
0.11627912521362305 0.34408462047576904 -0.1627907156944275
0.11627912521362305 0.34806692600250244 0.22480618953704834
0.11627912521362305 0.35880473256111145 0.20930230617523193
0.11627913266420364 0.3654593229293823 -0.1782945990562439
0.11627912521362305 0.37649819254875183 0.17829453945159912
0.11627911776304245 0.3687569797039032 0.19379842281341553
0.11627912521362305 0.3859723210334778 -0.19379842281341553
0.11627912521362305 0.39083707332611084 0.1472867727279663
0.11627912521362305 0.3862748444080353 0.16279065608978271
0.11627912521362305 0.40911173820495605 -0.22480618953704834
0.11627912521362305 0.4001351296901703 -0.20930230617523193
0.11627912521362305 0.4062979221343994 -0.11627906560897827
0.11627912521362305 0.4032948613166809 -0.10077518224716187
0.11627912521362305 0.40189123153686523 -0.08527129888534546
0.11627912521362305 0.4006403088569641 -0.06976741552352905
0.11627912521362305 0.3989854156970978 -0.05426359176635742
0.11627912521362305 0.3976929783821106 -0.038759708404541016
0.11627912521362305 0.3969179093837738 -0.02325582504272461
0.11627913266420364 0.39743202924728394 -0.007751941680908203
0.11627912521362305 0.39981502294540405 0.007751941680908203
0.11627912521362305 0.40341153740882874 0.02325582504272461
0.11627912521362305 0.4071621894836426 0.038759708404541016
0.11627912521362305 0.41005954146385193 0.05426359176635742
0.11627912521362305 0.4097948670387268 0.08527135848999023
0.11627912521362305 0.4068325161933899 0.10077524185180664
0.11627912521362305 0.40424197912216187 0.11627912521362305
0.11627912521362305 0.3977089524269104 0.1317828893661499
0.11627912521362305 0.42531606554985046 -0.27131783962249756
0.11627912521362305 0.42216041684150696 -0.25581395626068115
0.11627912521362305 0.4175052046775818 -0.24031005799770355
0.11627912521362305 0.42113012075424194 -0.1627907156944275
0.11627912521362305 0.41439422965049744 -0.14728683233261108
0.11627912521362305 0.41085758805274963 -0.13178294897079468
0.11627911776304245 0.4114508628845215 0.06976747512817383
0.11627912521362305 0.44120028614997864 -0.317829430103302
0.11627912521362305 0.43726789951324463 -0.30232560634613037
0.11627912521362305 0.432096004486084 -0.28682172298431396
0.11627912521362305 0.4315674304962158 -0.1782945990562439
0.11627912521362305 0.4512825012207031 -0.4728682041168213
0.11627912521362305 0.4541129469871521 -0.4573643207550049
0.11627912521362305 0.45595094561576843 -0.3488371968269348
0.11627912521362305 0.450393408536911 -0.3333333134651184
0.11627912521362305 0.450771689414978 -0.20930230617523193
0.11627912521362305 0.44214653968811035 -0.19379842281341553
0.11627912521362305 0.461861252784729 -0.4883720874786377
0.11627912521362305 0.4628114104270935 -0.4418604373931885
0.11627912521362305 0.4719127118587494 -0.42635661363601685
0.11627912521362305 0.470537930727005 -0.3798449635505676
0.11627912521362305 0.4654349684715271 -0.3643410801887512
0.11627913266420364 0.4630471467971802 -0.22480618953704834
0.11627912521362305 0.4768165946006775 -0.41085273027420044
0.11627912521362305 0.4740926921367645 -0.39534884691238403
0.11627912521362305 0.4881523549556732 -0.25581395626068115
0.11627912521362305 0.4759203791618347 -0.24031007289886475
0.11627912521362305 0.500011682510376 -0.27131783962249756
0.11627912521362305 0.5180349946022034 -0.4883720874786377
0.11627912521362305 0.511509358882904 -0.28682172298431396
0.11627912521362305 0.5322918891906738 -0.317829430103302
0.11627912521362305 0.5227891206741333 -0.30232560634613037
0.11627912521362305 0.5367034077644348 -0.4728682041168213
0.11627912521362305 0.5421257019042969 -0.4573643207550049
0.11627912521362305 0.5426657199859619 -0.4418604373931885
0.11627913266420364 0.5408033728599548 -0.42635661363601685
0.11627912521362305 0.542312741279602 -0.41085273027420044
0.11627912521362305 0.5443234443664551 -0.39534884691238403
0.11627912521362305 0.5453312397003174 -0.3798449635505676
0.11627912521362305 0.545245349407196 -0.3643410801887512
0.11627912521362305 0.5438387393951416 -0.3488371968269348
0.11627912521362305 0.5398340225219727 -0.3333333134651184
0.1317828893661499 -0.785727858543396 0.4728682041168213
0.1317828893661499 -0.7845643758773804 0.4883720874786377
0.1317828893661499 -0.7717180252075195 0.4573643207550049
0.1317828893661499 -0.766294538974762 0.4573643207550049
0.1317828893661499 -0.761661171913147 0.4728682339191437
0.1317828893661499 -0.7648221254348755 0.4883720874786377
0.1317828893661499 -0.5659577250480652 0.10077524185180664
0.1317828893661499 -0.5683989524841309 0.11627912521362305
0.1317828893661499 -0.5691846609115601 0.1317828893661499
0.1317828893661499 -0.5698179006576538 0.1472867727279663
0.1317828893661499 -0.5691784620285034 0.16279065608978271
0.1317828893661499 -0.5553125739097595 0.05426359176635742
0.1317828893661499 -0.5605059862136841 0.06976747512817383
0.1317828893661499 -0.5634796619415283 0.08527135848999023
0.1317828893661499 -0.5635277032852173 0.17829453945159912
0.1317828893661499 -0.5552595853805542 0.19379842281341553
0.1317828893661499 -0.544268012046814 0.038759708404541016
0.1317828893661499 -0.538969874382019 0.20930230617523193
0.1317828893661499 -0.5303220748901367 0.02325582504272461
0.1317828893661499 -0.5064741373062134 -0.007751941680908203
0.1317828893661499 -0.5168334245681763 0.00775194214656949
0.1317828893661499 -0.5168865919113159 0.22480620443820953
0.1317828893661499 -0.4897622764110565 -0.038759708404541016
0.1317828893661499 -0.49695855379104614 -0.02325582504272461
0.1317828893661499 -0.49755728244781494 0.24031007289886475
0.1317828893661499 -0.4763963222503662 -0.06976741552352905
0.1317828893661499 -0.48220309615135193 -0.05426359176635742
0.1317828893661499 -0.48069751262664795 0.25581395626068115
0.1317828893661499 -0.46153828501701355 -0.11627906560897827
0.1317828893661499 -0.46568208932876587 -0.10077518224716187
0.1317828893661499 -0.47089874744415283 -0.08527129143476486
0.1317828893661499 -0.4630488157272339 0.27131783962249756
0.1317828893661499 -0.44375303387641907 -0.1627907156944275
0.1317828893661499 -0.4503695070743561 -0.14728683233261108
0.1317828893661499 -0.4572144150733948 -0.13178294897079468
0.1317828893661499 -0.43389958143234253 -0.1782945990562439
0.1317828893661499 -0.43908625841140747 0.28682172298431396
0.1317828893661499 -0.4038051962852478 -0.1782945990562439
0.1317828893661499 -0.39263835549354553 -0.1627907156944275
0.1317828893661499 -0.38502949476242065 -0.14728683233261108
0.1317828893661499 -0.37726569175720215 -0.13178294897079468
0.1317828893661499 -0.371589720249176 -0.11627906560897827
0.1317828893661499 -0.36595672369003296 -0.10077518224716187
0.1317828893661499 -0.3633298873901367 -0.08527129888534546
0.1317828893661499 -0.3609868288040161 -0.06976741552352905
0.1317828893661499 -0.3533550798892975 -0.05426359176635742
0.1317828893661499 -0.36326414346694946 0.28682172298431396
0.1317828893661499 -0.34077662229537964 -0.038759708404541016
0.1317828893661499 -0.3380470871925354 0.27131783962249756
0.1317828893661499 -0.3230268061161041 -0.02325582504272461
0.1317828893661499 -0.31184348464012146 0.27131783962249756
0.1317828893661499 -0.296264111995697 -0.007751941680908203
0.1317828893661499 -0.27385133504867554 0.28682172298431396
0.1317828893661499 -0.23726262152194977 0.007751941680908203
0.1317828893661499 -0.20321908593177795 0.02325582504272461
0.1317828893661499 -0.1895366907119751 0.28682172298431396
0.1317828893661499 -0.16665217280387878 0.038759708404541016
0.1317828893661499 -0.1538960486650467 0.27131783962249756
0.1317828893661499 -0.13009709119796753 0.25581395626068115
0.1317828893661499 -0.10814377665519714 0.24031007289886475
0.1317828893661499 -0.09014840424060822 0.20930230617523193
0.1317828893661499 -0.0966772586107254 0.22480618953704834
0.1317828893661499 -0.07797599583864212 0.17829453945159912
0.1317828893661499 -0.08332055807113647 0.19379842281341553
0.1317828893661499 -0.06806313246488571 0.16279065608978271
0.1317828893661499 -0.044766589999198914 0.16279065608978271
0.1317828893661499 -0.008349007926881313 0.038759708404541016
0.1317828893661499 -0.0037006987258791924 0.038759708404541016
0.1317828893661499 0.022551583126187325 0.16279065608978271
0.1317828893661499 0.04584026709198952 0.16279065608978271
0.1317828893661499 0.06090005487203598 0.038759708404541016
0.1317828893661499 0.05644541233778 0.17829452455043793
0.1317828893661499 0.061461590230464935 0.19379842281341553
0.1317828893661499 0.06927909702062607 0.20930230617523193
0.1317828893661499 0.07703661918640137 0.22480618953704834
0.1317828893661499 0.09213489294052124 0.02325582504272461
0.1317828893661499 0.0881284698843956 0.24031007289886475
0.1317828893661499 0.10919298976659775 0.007751941680908203
0.1317828893661499 0.1030571460723877 0.25581395626068115
0.1317828893661499 0.1232830286026001 -0.007751941680908203
0.1317828893661499 0.12693800032138824 0.27131783962249756
0.1317828893661499 0.1389962136745453 -0.02325582504272461
0.1317828893661499 0.15748178958892822 -0.038759708404541016
0.1317828893661499 0.1741076409816742 -0.05426359176635742
0.1317828893661499 0.19079509377479553 -0.06976741552352905
0.1317828893661499 0.23714794218540192 -0.08527129888534546
0.1317828893661499 0.241845041513443 0.27131783962249756
0.1317828893661499 0.27423396706581116 0.25581395626068115
0.1317828893661499 0.2868858873844147 -0.10077518969774246
0.1317828893661499 0.29704809188842773 0.24031007289886475
0.1317828893661499 0.31649118661880493 -0.11627906560897827
0.1317828893661499 0.31781789660453796 0.22480618953704834
0.1317828893661499 0.33603066205978394 -0.13178294897079468
0.1317828893661499 0.34477338194847107 0.19379842281341553
0.1317828893661499 0.33356261253356934 0.20930232107639313
0.1317828893661499 0.35759788751602173 -0.14728683233261108
0.1317828893661499 0.362378865480423 0.16279065608978271
0.1317828893661499 0.3542596697807312 0.17829453945159912
0.1317828893661499 0.37844085693359375 0.1317828893661499
0.1317828893661499 0.37259021401405334 0.1472867727279663
0.1317828893661499 0.39112892746925354 -0.14728683233261108
0.1317828893661499 0.39200156927108765 0.10077524185180664
0.1317828893661499 0.38717663288116455 0.11627912521362305
0.1317829042673111 0.3955683410167694 -0.13178296387195587
0.1317828893661499 0.3958638310432434 -0.11627906560897827
0.1317828893661499 0.39584842324256897 -0.10077517479658127
0.1317828893661499 0.39619186520576477 -0.08527129888534546
0.1317828893661499 0.3963228762149811 -0.06976742297410965
0.1317828893661499 0.3961298167705536 -0.05426359549164772
0.1317828893661499 0.3958015739917755 -0.038759708404541016
0.1317829042673111 0.3956955671310425 -0.02325582504272461
0.1317828893661499 0.3965555429458618 -0.007751941215246916
0.1317828893661499 0.39880111813545227 0.007751941680908203
0.1317828893661499 0.40162068605422974 0.02325582504272461
0.1317828893661499 0.40334516763687134 0.038759708404541016
0.1317828893661499 0.4034968912601471 0.05426359176635742
0.1317828893661499 0.40208184719085693 0.06976747512817383
0.1317828893661499 0.3979899287223816 0.08527135103940964
0.1317828893661499 0.46187853813171387 -0.4728682041168213
0.1317828893661499 0.4643856883049011 -0.4573643207550049
0.1317828893661499 0.47035789489746094 -0.4418604373931885
0.1317828893661499 0.4722793698310852 -0.3333333134651184
0.1317828893661499 0.46897566318511963 -0.317829430103302
0.1317828893661499 0.4685654640197754 -0.30232560634613037
0.1317828893661499 0.47766703367233276 -0.4883720874786377
0.1317828893661499 0.4826918840408325 -0.42635661363601685
0.1317828893661499 0.48617011308670044 -0.3643410801887512
0.1317828893661499 0.4811968207359314 -0.3488371968269348
0.1317828893661499 0.47674381732940674 -0.30232560634613037
0.1317828893661499 0.4989417791366577 -0.4883720874786377
0.1317828893661499 0.49108558893203735 -0.41085273027420044
0.1317828893661499 0.4955627918243408 -0.39534884691238403
0.1317828893661499 0.49082887172698975 -0.3798449635505676
0.1317828893661499 0.4936210513114929 -0.317829430103302
0.1317828893661499 0.5170656442642212 -0.3488371968269348
0.1317828893661499 0.5080816745758057 -0.3333333134651184
0.1317828893661499 0.5237287878990173 -0.4728682041168213
0.1317828893661499 0.5286391973495483 -0.4573643207550049
0.1317828893661499 0.5290626287460327 -0.4418604373931885
0.1317828893661499 0.5250819325447083 -0.42635664343833923
0.1317828893661499 0.5237629413604736 -0.41085273027420044
0.1317828893661499 0.524310827255249 -0.39534881711006165
0.1317828893661499 0.5235968232154846 -0.3798449635505676
0.1317828893661499 0.52181077003479 -0.3643410801887512
0.1472867727279663 -0.5207107067108154 0.05426359176635742
0.1472867727279663 -0.5252350568771362 0.06976747512817383
0.1472867727279663 -0.5272340774536133 0.08527135848999023
0.1472867727279663 -0.5280104279518127 0.10077524185180664
0.1472867727279663 -0.5279916524887085 0.11627912521362305
0.1472867727279663 -0.526442289352417 0.1317828893661499
0.1472867727279663 -0.5235778093338013 0.1472867727279663
0.1472867727279663 -0.5039622783660889 0.02325582504272461
0.1472867727279663 -0.5132867097854614 0.038759708404541016
0.1472867727279663 -0.5171132683753967 0.16279065608978271
0.1472867727279663 -0.507624089717865 0.17829453945159912
0.1472867727279663 -0.49396467208862305 0.007751941680908203
0.1472867727279663 -0.494617223739624 0.19379842281341553
0.1472867727279663 -0.4831022620201111 -0.007751941680908203
0.1472867727279663 -0.4778459668159485 0.20930230617523193
0.1472867727279663 -0.47156625986099243 -0.02325582690536976
0.1472867727279663 -0.4567340612411499 -0.038759708404541016
0.1472867727279663 -0.44794797897338867 0.22480618953704834
0.1472867727279663 -0.433297336101532 -0.05426359176635742
0.1472867727279663 -0.39935946464538574 -0.05426359176635742
0.1472867727279663 -0.3777027726173401 -0.038759708404541016
0.1472867727279663 -0.36023828387260437 -0.02325582690536976
0.1472867727279663 -0.3592333197593689 0.22480620443820953
0.1472867727279663 -0.343350350856781 -0.007751941680908203
0.1472867727279663 -0.3259180188179016 0.007751941680908203
0.1472867727279663 -0.29763171076774597 0.02325582504272461
0.1472867727279663 -0.2755585312843323 0.22480618953704834
0.1472867727279663 -0.25141245126724243 0.038759708404541016
0.1472867727279663 -0.22440378367900848 0.05426359549164772
0.1472867727279663 -0.21449142694473267 0.22480618953704834
0.1472867727279663 -0.20030075311660767 0.06976747512817383
0.1472867727279663 -0.20127186179161072 0.20930230617523193
0.1472867727279663 -0.19069509208202362 0.19379842281341553
0.1472867727279663 -0.16809965670108795 0.08527135848999023
0.1472867727279663 -0.17564894258975983 0.17829455435276031
0.1472867727279663 -0.14797228574752808 0.10077524185180664
0.1472867727279663 -0.1537644863128662 0.1472867727279663
0.14728675782680511 -0.1611175388097763 0.16279064118862152
0.1472867727279663 -0.14293643832206726 0.11627912521362305
0.1472867727279663 -0.1471123993396759 0.1317828893661499
0.1472867727279663 0.09356838464736938 0.06976747512817383
0.1472867727279663 0.08948048204183578 0.08527135848999023
0.1472867727279663 0.08769756555557251 0.10077524185180664
0.1472867727279663 0.08875881135463715 0.11627911776304245
0.1472867727279663 0.09174364805221558 0.1317828893661499
0.1472867727279663 0.09523644298315048 0.1472867727279663
0.1472867727279663 0.09851586818695068 0.16279065608978271
0.1472867727279663 0.11088459193706512 0.038759708404541016
0.1472867727279663 0.1021399274468422 0.05426358804106712
0.1472867727279663 0.10095153003931046 0.17829453945159912
0.1472867727279663 0.1037348285317421 0.19379842281341553
0.1472867727279663 0.1083996593952179 0.20930230617523193
0.1472867727279663 0.12218429148197174 0.02325582504272461
0.14728675782680511 0.11750685423612595 0.22480617463588715
0.1472867727279663 0.146633118391037 -0.007751941680908203
0.1472867727279663 0.13378357887268066 0.00775194214656949
0.1472867727279663 0.13292600214481354 0.24031007289886475
0.1472867727279663 0.16328085958957672 -0.02325582504272461
0.1472867727279663 0.18803873658180237 -0.038759708404541016
0.1472867727279663 0.2157634198665619 -0.05426359176635742
0.1472867727279663 0.2486770749092102 0.24031007289886475
0.1472867727279663 0.28371283411979675 -0.06976741552352905
0.1472867727279663 0.27557146549224854 0.22480620443820953
0.1472867727279663 0.29541292786598206 0.20930230617523193
0.1472867727279663 0.3107578158378601 0.19379842281341553
0.1472867727279663 0.32255175709724426 0.17829453945159912
0.1472867727279663 0.3447660207748413 0.1472867727279663
0.1472867727279663 0.3334170877933502 0.16279065608978271
0.1472867727279663 0.36264288425445557 0.11627912521362305
0.1472867727279663 0.35412999987602234 0.1317828893661499
0.1472867876291275 0.3647686541080475 -0.06976742297410965
0.1472867727279663 0.37008512020111084 -0.05426359176635742
0.1472867727279663 0.3739643394947052 -0.038759708404541016
0.1472867727279663 0.3776407837867737 -0.02325582504272461
0.1472867727279663 0.3773459494113922 0.08527135848999023
0.1472867727279663 0.3703521490097046 0.10077524185180664
0.1472867727279663 0.3812781274318695 -0.007751941680908203
0.1472867727279663 0.3840331435203552 0.007751941680908203
0.1472867727279663 0.3855409026145935 0.02325582504272461
0.1472867727279663 0.3857450485229492 0.038759708404541016
0.1472867727279663 0.384756863117218 0.05426359176635742
0.1472867727279663 0.38228800892829895 0.06976747512817383
0.16279065608978271 -0.4746837913990021 0.08527135848999023
0.16279065608978271 -0.4758787155151367 0.10077524185180664
0.16279065608978271 -0.4743403196334839 0.11627912521362305
0.16279065608978271 -0.46878117322921753 0.06976747512817383
0.16279065608978271 -0.46469876170158386 0.1317828893661499
0.16279065608978271 -0.4538104832172394 0.05426358804106712
0.16279065608978271 -0.44433119893074036 0.1472867727279663
0.16279065608978271 -0.431289404630661 0.1472867727279663
0.16279065608978271 -0.42386385798454285 0.1472867727279663
0.16279065608978271 -0.38014331459999084 0.05426359176635742
0.16279065608978271 -0.386015385389328 0.1472867727279663
0.16279065608978271 -0.3711528778076172 0.1317828893661499
0.16279065608978271 -0.3627980947494507 0.06976747512817383
0.16279065608978271 -0.3513180911540985 0.08527135848999023
0.16279065608978271 -0.35347849130630493 0.10077524185180664
0.16279065608978271 -0.3616313636302948 0.11627913266420364
0.16279065608978271 -0.34204500913619995 0.08527135848999023
0.16279065608978271 -0.33405834436416626 0.10077524185180664
0.16279065608978271 -0.3193783164024353 0.11627912521362305
0.16279065608978271 -0.2752542197704315 0.08527135848999023
0.16279065608978271 -0.26359260082244873 0.10077524185180664
0.16279065608978271 -0.2680385112762451 0.11627912521362305
0.16279065608978271 0.12759816646575928 0.06976747512817383
0.16279065608978271 0.12389771640300751 0.08527135848999023
0.16279065608978271 0.12254481017589569 0.10077524185180664
0.16279065608978271 0.12255100905895233 0.11627912521362305
0.16279065608978271 0.12364042550325394 0.1317828893661499
0.16279065608978271 0.12568068504333496 0.1472867727279663
0.16279065608978271 0.12932409346103668 0.16279065608978271
0.16279065608978271 0.14049988985061646 0.038759708404541016
0.16279065608978271 0.13407354056835175 0.05426359176635742
0.16279065608978271 0.1347440630197525 0.17829453945159912
0.16279065608978271 0.14388754963874817 0.19379842281341553
0.16279065608978271 0.1511169672012329 0.02325582504272461
0.16279064118862152 0.16423076391220093 0.007751941680908203
0.16279065608978271 0.17255307734012604 0.20930230617523193
0.16279065608978271 0.18792256712913513 -0.007751941680908203
0.16279065608978271 0.2039627879858017 0.20930230617523193
0.16279065608978271 0.2459849864244461 -0.02325582504272461
0.16279065608978271 0.24836799502372742 0.19379842281341553
0.16279065608978271 0.2666513919830322 -0.02325582504272461
0.16279065608978271 0.2687681019306183 0.17829453945159912
0.16279065608978271 0.2842160761356354 0.16279065608978271
0.16279065608978271 0.29756781458854675 0.1472867727279663
0.16279065608978271 0.30991479754447937 0.1317828893661499
0.16279065608978271 0.3219791352748871 0.11627913266420364
0.16279065608978271 0.335462361574173 -0.007751941680908203
0.16279065608978271 0.3467633128166199 0.007751941680908203
0.16279065608978271 0.34851667284965515 0.06976747512817383
0.16279065608978271 0.3413870334625244 0.08527135848999023
0.16279065608978271 0.33347102999687195 0.10077524185180664
0.16279065608978271 0.35094213485717773 0.02325582504272461
0.16279065608978271 0.3519774079322815 0.038759708404541016
0.16279065608978271 0.35136646032333374 0.05426359176635742
0.17829453945159912 0.17776170372962952 0.06976747512817383
0.17829453945159912 0.17804764211177826 0.08527135848999023
0.17829453945159912 0.18564429879188538 0.05426359176635742
0.17829453945159912 0.22273224592208862 0.038759708404541016
0.17829453945159912 0.22548572719097137 0.038759708404541016
0.17829453945159912 0.25430452823638916 0.05426359176635742
0.17829453945159912 0.25464770197868347 0.06976747512817383
0.17829453945159912 0.24456661939620972 0.08527135848999023
-0.1782945990562439 0.19379842281341553 0.050894178450107574
-0.1782945990562439 0.19379842281341553 0.09767705947160721
-0.1782945990562439 0.20930230617523193 0.04375474154949188
-0.1782945990562439 0.20930230617523193 0.10061250627040863
-0.1782945990562439 0.22480618953704834 0.045405223965644836
-0.1782945990562439 0.22480618953704834 0.0963108018040657
-0.1782945990562439 0.24031007289886475 0.059021253138780594
-0.1782945990562439 0.24031007289886475 0.08087033778429031
-0.1627907156944275 -0.4728682041168213 0.0852508693933487
-0.1627907156944275 -0.4728682041168213 0.11275164037942886
-0.1627907156944275 -0.4573643207550049 0.0726688951253891
-0.1627907156944275 -0.4573643207550049 0.12510114908218384
-0.1627907156944275 -0.4418604373931885 0.07013523578643799
-0.1627907007932663 -0.4418604373931885 0.1330152451992035
-0.1627907156944275 -0.42635661363601685 0.06795937567949295
-0.1627907156944275 -0.42635661363601685 0.12944401800632477
-0.1627907156944275 -0.41085273027420044 0.06728877872228622
-0.1627907156944275 -0.41085273027420044 0.135091632604599
-0.1627907156944275 -0.3953488767147064 0.06992845237255096
-0.1627907156944275 -0.39534884691238403 0.14298546314239502
-0.1627907156944275 -0.3798449635505676 0.082522451877594
-0.1627907007932663 -0.37984493374824524 0.13199740648269653
-0.1627907156944275 0.1317828893661499 0.07945353537797928
-0.1627907156944275 0.1317828893661499 0.15754076838493347
-0.1627907156944275 0.1472867727279663 0.03266800567507744
-0.1627907156944275 0.1472867727279663 0.1931993067264557
-0.1627907156944275 0.16279065608978271 0.010023736394941807
-0.1627907156944275 0.16279065608978271 0.203514963388443
-0.1627907156944275 0.17829455435276031 -0.0035334646236151457
-0.1627907156944275 0.17829453945159912 0.2050618827342987
-0.1627907156944275 0.19379842281341553 -0.010312551632523537
-0.1627907156944275 0.19379842281341553 0.20456933975219727
-0.1627907156944275 0.20930230617523193 -0.01503065600991249
-0.1627907156944275 0.20930230617523193 0.20442059636116028
-0.1627907156944275 0.22480618953704834 -0.018676290288567543
-0.1627907156944275 0.22480618953704834 0.20293161273002625
-0.1627907156944275 0.24031007289886475 -0.021140361204743385
-0.1627907156944275 0.24031007289886475 0.19686269760131836
-0.1627907156944275 0.25581395626068115 -0.02003331482410431
-0.1627907156944275 0.25581395626068115 0.18619883060455322
-0.1627907156944275 0.27131783962249756 -0.01577673852443695
-0.1627907156944275 0.27131783962249756 0.1718953251838684
-0.1627907156944275 0.28682172298431396 -0.008972425013780594
-0.1627907156944275 0.28682172298431396 0.15206246078014374
-0.1627907156944275 0.30232560634613037 0.0034777505788952112
-0.1627907156944275 0.30232560634613037 0.12592054903507233
-0.1627907156944275 0.3178294897079468 0.023641323670744896
-0.1627907156944275 0.3178294897079468 0.09284410625696182
-0.14728683233261108 -0.5193798542022705 0.05528194457292557
-0.14728683233261108 -0.5193798542022705 0.1517462581396103
-0.14728683233261108 -0.5038759708404541 0.02978193759918213
-0.14728683233261108 -0.5038759708404541 0.17246446013450623
-0.14728683233261108 -0.4883720874786377 0.006959287449717522
-0.14728683233261108 -0.4883720874786377 0.18865057826042175
-0.14728683233261108 -0.4728682041168213 -0.012670736759901047
-0.14728683233261108 -0.4728682041168213 0.19938071072101593
-0.14728683233261108 -0.4573643207550049 -0.026915617287158966
-0.14728683233261108 -0.4573643207550049 0.20500056445598602
-0.14728683233261108 -0.4418604373931885 -0.03467453643679619
-0.14728683233261108 -0.4418604373931885 0.2081795334815979
-0.14728683233261108 -0.42635661363601685 -0.0395389124751091
-0.14728683233261108 -0.42635661363601685 0.21419908106327057
-0.14728683233261108 -0.41085273027420044 -0.038960445672273636
-0.14728683233261108 -0.41085273027420044 0.2236839383840561
-0.14728683233261108 -0.39534884691238403 -0.032029714435338974
-0.14728683233261108 -0.39534884691238403 0.22886750102043152
-0.14728683233261108 -0.3798449635505676 -0.022928880527615547
-0.14728683233261108 -0.37984499335289 0.22771169245243073
-0.14728683233261108 -0.3643410801887512 -0.011294050142168999
-0.14728683233261108 -0.3643410801887512 0.2213442474603653
-0.14728683233261108 -0.3488371968269348 0.001413179561495781
-0.14728683233261108 -0.3488372266292572 0.21266677975654602
-0.14728683233261108 -0.3333333134651184 0.01451131235808134
-0.14728683233261108 -0.3333333134651184 0.20567424595355988
-0.14728683233261108 -0.317829430103302 0.02365947514772415
-0.14728683233261108 -0.317829430103302 0.20665858685970306
-0.14728683233261108 -0.30232560634613037 0.030032051727175713
-0.14728683233261108 -0.30232560634613037 0.2117254137992859
-0.14728683233261108 -0.28682172298431396 0.034069884568452835
-0.14728683233261108 -0.28682172298431396 0.21854384243488312
-0.14728683233261108 -0.27131783962249756 0.038575541228055954
-0.14728683233261108 -0.27131783962249756 0.2249411791563034
-0.14728683233261108 -0.25581395626068115 0.045421019196510315
-0.14728683233261108 -0.25581395626068115 0.2298683226108551
-0.14728683233261108 -0.24031007289886475 0.05373215302824974
-0.14728683233261108 -0.24031007289886475 0.22897738218307495
-0.14728683233261108 -0.22480618953704834 0.06531353294849396
-0.14728683233261108 -0.22480618953704834 0.21605050563812256
-0.14728683233261108 -0.20930230617523193 0.07897326350212097
-0.14728683233261108 -0.20930230617523193 0.1859479695558548
-0.14728683233261108 -0.19379842281341553 0.08957965672016144
-0.14728683233261108 -0.19379842281341553 0.15490233898162842
-0.14728684723377228 -0.1782946139574051 0.10140589624643326
-0.14728683233261108 -0.1782945990562439 0.14226004481315613
-0.14728683233261108 0.10077524185180664 0.07640138268470764
-0.14728683233261108 0.10077524185180664 0.1461470127105713
-0.14728683233261108 0.11627912521362305 0.0372481606900692
-0.14728683233261108 0.11627912521362305 0.22897085547447205
-0.14728683233261108 0.1317828893661499 0.011790993623435497
-0.14728683233261108 0.1317828893661499 0.2416650503873825
-0.14728683233261108 0.1472867727279663 -0.007808600086718798
-0.14728683233261108 0.1472867727279663 0.24656060338020325
-0.14728683233261108 0.16279065608978271 -0.02291240729391575
-0.14728683233261108 0.16279065608978271 0.24758277833461761
-0.14728683233261108 0.17829453945159912 -0.03466320037841797
-0.14728683233261108 0.17829453945159912 0.2462625801563263
-0.14728683233261108 0.19379842281341553 -0.04557729512453079
-0.14728683233261108 0.19379842281341553 0.2443472146987915
-0.14728683233261108 0.20930230617523193 -0.05447549745440483
-0.14728683233261108 0.20930229127407074 0.24447032809257507
-0.14728683233261108 0.22480618953704834 -0.05899651348590851
-0.14728683233261108 0.22480620443820953 0.24416425824165344
-0.14728683233261108 0.24031007289886475 -0.06277140974998474
-0.14728683233261108 0.24031008780002594 0.2411171942949295
-0.14728683233261108 0.25581395626068115 -0.06652751564979553
-0.14728683233261108 0.25581395626068115 0.23427987098693848
-0.14728683233261108 0.27131783962249756 -0.07084119319915771
-0.14728683233261108 0.27131783962249756 0.22418972849845886
-0.14728683233261108 0.28682172298431396 -0.07393691688776016
-0.14728683233261108 0.28682172298431396 0.21126045286655426
-0.14728683233261108 0.30232560634613037 -0.07612840086221695
-0.14728683233261108 0.30232560634613037 0.19418637454509735
-0.14728683233261108 0.3178294897079468 -0.07478759437799454
-0.14728683233261108 0.3178294897079468 0.1718054562807083
-0.14728683233261108 0.3333333730697632 -0.0693301185965538
-0.14728683233261108 0.3333333730697632 0.1456015706062317
-0.14728683233261108 0.348837286233902 -0.0532393679022789
-0.14728683233261108 0.3488372564315796 0.11788991093635559
-0.14728683233261108 0.364341139793396 -0.013803275302052498
-0.14728683233261108 0.3643411099910736 0.08790606260299683
-0.13178294897079468 -0.7829458117485046 0.460867315530777
-0.13178294897079468 -0.7829457521438599 0.48865315318107605
-0.13178294897079468 -0.7674418687820435 0.4560319483280182
-0.13178294897079468 -0.7674418687820435 0.48921361565589905
-0.13178294897079468 -0.5658915042877197 0.09956018626689911
-0.13178294897079468 -0.5658915042877197 0.16403263807296753
-0.13178294897079468 -0.5503876209259033 0.05187466740608215
-0.13178294897079468 -0.5503876209259033 0.1891602724790573
-0.13178294897079468 -0.5348837375640869 0.031188765540719032
-0.13178294897079468 -0.5348837375640869 0.2021683156490326
-0.13178294897079468 -0.5193798542022705 0.01326371543109417
-0.13178294897079468 -0.5193798542022705 0.2119549810886383
-0.13178294897079468 -0.5038759708404541 -0.007824786007404327
-0.13178294897079468 -0.5038759708404541 0.22323733568191528
-0.13178294897079468 -0.4883720576763153 -0.03716236725449562
-0.13178294897079468 -0.4883720874786377 0.23743164539337158
-0.13178294897079468 -0.4728682041168213 -0.07458484172821045
-0.13178294897079468 -0.4728682041168213 0.2503792345523834
-0.13178294897079468 -0.4573643207550049 -0.1254502534866333
-0.13178294897079468 -0.4573643207550049 0.2602135241031647
-0.13178294897079468 -0.4418604373931885 -0.16272951662540436
-0.13178294897079468 -0.4418604373931885 0.26826727390289307
-0.13178294897079468 -0.42635661363601685 -0.18385392427444458
-0.13178294897079468 -0.42635661363601685 0.2779805660247803
-0.13178294897079468 -0.41085273027420044 -0.1803959310054779
-0.13178294897079468 -0.41085273027420044 0.2864112854003906
-0.13178294897079468 -0.39534884691238403 -0.16135574877262115
-0.13178294897079468 -0.39534884691238403 0.29160892963409424
-0.13178294897079468 -0.3798449635505676 -0.12944380939006805
-0.13178294897079468 -0.3798449635505676 0.28967374563217163
-0.13178294897079468 -0.3643410801887512 -0.07094548642635345
-0.13178294897079468 -0.3643410801887512 0.28238946199417114
-0.13178294897079468 -0.3488371968269348 -0.042945075780153275
-0.13178294897079468 -0.3488371968269348 0.2729949355125427
-0.13178294897079468 -0.3333333134651184 -0.026899591088294983
-0.13178294897079468 -0.3333333134651184 0.26859554648399353
-0.13178294897079468 -0.317829430103302 -0.01443156786262989
-0.13178294897079468 -0.317829430103302 0.2707088887691498
-0.13178294897079468 -0.30232560634613037 -0.005760212428867817
-0.13178294897079468 -0.30232560634613037 0.27634257078170776
-0.13178294897079468 -0.28682172298431396 0.00027162092737853527
-0.13178294897079468 -0.28682172298431396 0.2822801470756531
-0.13178294897079468 -0.27131783962249756 0.003934591077268124
-0.13178294897079468 -0.27131783962249756 0.2883804440498352
-0.13178294897079468 -0.25581395626068115 0.006643149070441723
-0.13178294897079468 -0.25581395626068115 0.2920219302177429
-0.13178294897079468 -0.24031008780002594 0.011833995580673218
-0.13178294897079468 -0.24031007289886475 0.2930094003677368
-0.13178294897079468 -0.22480618953704834 0.017318274825811386
-0.13178294897079468 -0.22480618953704834 0.2922883927822113
-0.13178294897079468 -0.20930230617523193 0.026132430881261826
-0.13178294897079468 -0.20930229127407074 0.28844350576400757
-0.13178294897079468 -0.19379842281341553 0.03406144678592682
-0.13178294897079468 -0.19379842281341553 0.28344786167144775
-0.13178294897079468 -0.1782945990562439 0.04141751676797867
-0.13178294897079468 -0.1782945990562439 0.27804282307624817
-0.13178294897079468 -0.1627907156944275 0.04444831609725952
-0.13178294897079468 -0.1627907156944275 0.27392542362213135
-0.13178294897079468 -0.14728683233261108 0.04617545008659363
-0.13178294897079468 -0.14728683233261108 0.2693926692008972
-0.13178294897079468 -0.13178294897079468 0.048223499208688736
-0.13178294897079468 -0.13178294897079468 0.26366302371025085
-0.13178294897079468 -0.11627906560897827 0.050677791237831116
-0.13178294897079468 -0.11627906560897827 0.2587677836418152
-0.13178294897079468 -0.10077518224716187 0.05189794674515724
-0.13178294897079468 -0.10077518224716187 0.2532363831996918
-0.13178294897079468 -0.08527129888534546 0.05222181975841522
-0.13178294897079468 -0.08527129888534546 0.24374248087406158
-0.13178294897079468 -0.06976741552352905 0.051338233053684235
-0.13178294897079468 -0.06976741552352905 0.18782997131347656
-0.13178294897079468 -0.05426359176635742 0.04850095510482788
-0.13178294897079468 -0.05426359176635742 0.1715053915977478
-0.13178294897079468 -0.038759708404541016 0.04531707614660263
-0.13178294897079468 -0.038759708404541016 0.1732812374830246
-0.13178294897079468 -0.02325582504272461 0.04228902980685234
-0.13178294897079468 -0.02325582504272461 0.17550550401210785
-0.13178294897079468 -0.007751941680908203 0.04019305109977722
-0.13178294897079468 -0.007751941680908203 0.17714157700538635
-0.13178294897079468 0.007751941680908203 0.04108389467000961
-0.13178294897079468 0.007751941680908203 0.17344364523887634
-0.13178294897079468 0.02325582504272461 0.041967324912548065
-0.13178294897079468 0.02325582504272461 0.16726896166801453
-0.13178294897079468 0.038759708404541016 0.04286917299032211
-0.13178294897079468 0.038759708404541016 0.162679523229599
-0.13178294897079468 0.05426359176635742 0.042683981359004974
-0.13178294897079468 0.05426359176635742 0.185318261384964
-0.13178294897079468 0.06976747512817383 0.03768927603960037
-0.13178294897079468 0.06976747512817383 0.22613483667373657
-0.13178294897079468 0.08527135848999023 0.02926396206021309
-0.13178294897079468 0.08527135848999023 0.24619457125663757
-0.13178294897079468 0.10077524185180664 0.016721829771995544
-0.13178294897079468 0.10077524185180664 0.2600570321083069
-0.13178294897079468 0.11627912521362305 0.00018777884542942047
-0.13178294897079468 0.11627912521362305 0.2685927152633667
-0.13178294897079468 0.1317828893661499 -0.016092658042907715
-0.13178294897079468 0.1317828893661499 0.27365007996559143
-0.13178294897079468 0.1472867727279663 -0.03078366443514824
-0.13178294897079468 0.1472867727279663 0.27618709206581116
-0.13178294897079468 0.16279065608978271 -0.04482492431998253
-0.13178294897079468 0.16279065608978271 0.2770369350910187
-0.13178294897079468 0.17829453945159912 -0.06032080203294754
-0.13178294897079468 0.17829453945159912 0.27615779638290405
-0.13178294897079468 0.19379842281341553 -0.07343420386314392
-0.13178294897079468 0.19379842281341553 0.2737288773059845
-0.13178294897079468 0.20930230617523193 -0.07967863976955414
-0.13178294897079468 0.20930230617523193 0.27175676822662354
-0.13178294897079468 0.22480618953704834 -0.0824490413069725
-0.13178294897079468 0.22480618953704834 0.2721814215183258
-0.13178294897079468 0.24031007289886475 -0.08589138090610504
-0.13178294897079468 0.24031007289886475 0.2704685628414154
-0.13178294897079468 0.25581395626068115 -0.08968271315097809
-0.13178294897079468 0.25581395626068115 0.2635062336921692
-0.13178294897079468 0.27131783962249756 -0.09435323625802994
-0.13178294897079468 0.27131786942481995 0.2559846043586731
-0.13178294897079468 0.28682172298431396 -0.10227777063846588
-0.13178294897079468 0.28682172298431396 0.2448938488960266
-0.13178294897079468 0.30232560634613037 -0.10898701846599579
-0.13178294897079468 0.30232560634613037 0.23297280073165894
-0.13178294897079468 0.3178294897079468 -0.11824703961610794
-0.13178294897079468 0.3178294897079468 0.2190859317779541
-0.13178294897079468 0.3333333730697632 -0.12731191515922546
-0.13178294897079468 0.3333333730697632 0.20003637671470642
-0.13178294897079468 0.3488372564315796 -0.13686847686767578
-0.13178294897079468 0.3488372564315796 0.17509505152702332
-0.13178294897079468 0.364341139793396 -0.14154797792434692
-0.13178294897079468 0.364341139793396 0.145776629447937
