-0.04867726191878319 -0.317829430103302 -0.06976741552352905
-0.03988202288746834 -0.317829430103302 0.37984490394592285
-0.047601327300071716 -0.30232560634613037 -0.06976741552352905
-0.04045797884464264 -0.30232560634613037 0.37984490394592285
-0.04868536442518234 -0.28682172298431396 -0.06976741552352905
-0.04175345599651337 -0.28682172298431396 0.37984490394592285
-0.04994955658912659 -0.27131783962249756 -0.06976741552352905
-0.043800972402095795 -0.27131783962249756 0.37984490394592285
-0.04989628493785858 -0.25581395626068115 -0.06976741552352905
-0.04652383178472519 -0.25581395626068115 0.37984490394592285
-0.048488058149814606 -0.24031005799770355 -0.06976741552352905
-0.049036916345357895 -0.24031007289886475 0.37984490394592285
-0.04567903280258179 -0.22480618953704834 -0.06976741552352905
-0.05073424056172371 -0.22480618953704834 0.37984493374824524
-0.04163854196667671 -0.20930230617523193 -0.06976741552352905
-0.05233427509665489 -0.20930230617523193 0.37984490394592285
-0.054037198424339294 -0.19379843771457672 -0.05426359176635742
-0.05382300168275833 -0.19379840791225433 0.37984490394592285
-0.04585941880941391 -0.1782945990562439 -0.05426359176635742
-0.053459037095308304 -0.1782945841550827 0.37984490394592285
-0.03931540250778198 -0.1627907156944275 -0.05426359176635742
-0.05217744782567024 -0.1627907156944275 0.37984490394592285
-0.051313333213329315 -0.14728683233261108 -0.038759708404541016
-0.04978097975254059 -0.14728683233261108 0.37984490394592285
-0.044548675417900085 -0.13178294897079468 -0.038759708404541016
-0.046514205634593964 -0.13178294897079468 0.37984490394592285
-0.04020589590072632 -0.11627906560897827 -0.038759708404541016
-0.042183585464954376 -0.11627906560897827 0.37984490394592285
-0.04212635010480881 0.007751941680908203 -0.02325582504272461
-0.05176960304379463 0.02325582504272461 -0.00775194214656949
-0.048639118671417236 0.1472867727279663 0.364341139793396
-0.04871254414319992 0.16279065608978271 -0.02325582504272461
-0.039649900048971176 0.16279065608978271 0.364341139793396
-0.05168069526553154 0.17829453945159912 -0.038759708404541016
-0.04673673212528229 0.17829453945159912 -0.02325582504272461
-0.051571086049079895 0.19379842281341553 -0.038759708404541016
-0.048085276037454605 0.19379842281341553 -0.02325582504272461
-0.041409045457839966 0.19379842281341553 -0.007751941680908203
-0.05018879473209381 0.19379842281341553 0.3488372564315796
-0.052563443779945374 0.20930232107639313 -0.038759708404541016
-0.05000975728034973 0.20930230617523193 -0.02325582504272461
-0.04473761096596718 0.20930230617523193 -0.007751941680908203
-0.053458720445632935 0.22480618953704834 -0.03875970467925072
-0.05090576782822609 0.22480618953704834 -0.02325582504272461
-0.045384958386421204 0.22480618953704834 -0.007751941680908203
-0.05059715360403061 0.22480618953704834 0.3333333730697632
-0.053682148456573486 0.24031008780002594 -0.038759708404541016
-0.05069872736930847 0.24031007289886475 -0.02325582504272461
-0.0447559654712677 0.24031007289886475 -0.007751941680908203
-0.05296280235052109 0.25581395626068115 -0.038759708404541016
-0.04933019354939461 0.25581395626068115 -0.02325582504272461
-0.04336142539978027 0.25581395626068115 -0.007751941680908203
-0.044538430869579315 0.25581395626068115 0.3178294897079468
-0.051599252969026566 0.27131783962249756 -0.038759708404541016
-0.04750095307826996 0.27131783962249756 -0.02325582504272461
-0.04160888493061066 0.27131783962249756 -0.007751941680908203
-0.05390356108546257 0.28682172298431396 -0.05426359176635742
-0.05089777708053589 0.28682172298431396 -0.038759708404541016
-0.046911634504795074 0.28682172298431396 -0.02325582504272461
-0.041014671325683594 0.28682172298431396 -0.007751941680908203
-0.04504181444644928 0.28682172298431396 0.30232560634613037
-0.05319513380527496 0.30232560634613037 -0.05426359549164772
-0.050646573305130005 0.30232560634613037 -0.038759708404541016
-0.04703299328684807 0.30232560634613037 -0.02325582504272461
-0.04128233343362808 0.30232560634613037 -0.007751941680908203
-0.05417153611779213 0.3178294897079468 -0.06976741552352905
-0.0535457618534565 0.3178294897079468 -0.05426359176635742
-0.05182673782110214 0.3178294897079468 -0.038759708404541016
-0.04892880469560623 0.3178294897079468 -0.02325582504272461
-0.04397868737578392 0.3178294897079468 -0.007751941680908203
-0.042584218084812164 0.3178294897079468 0.28682172298431396
-0.05341850221157074 0.3333333730697632 -0.038759708404541016
-0.05171966552734375 0.3333333730697632 -0.02325582504272461
-0.04802784323692322 0.3333333730697632 -0.007751941680908203
-0.042615342885255814 0.3333333730697632 0.007751941680908203
-0.05042870342731476 0.3333333730697632 0.27131783962249756
-0.052936479449272156 0.3488372564315796 -0.007751941680908203
-0.04994110018014908 0.3488372564315796 0.007751941680908203
-0.046163223683834076 0.3488372564315796 0.02325582504272461
-0.04108099266886711 0.3488372564315796 0.038759708404541016
-0.05275090038776398 0.3488372564315796 0.25581395626068115
-0.0533815398812294 0.364341139793396 0.24031007289886475
-0.05161873996257782 0.37984493374824524 0.22480618953704834
-0.04899201542139053 0.39534878730773926 0.1472867727279663
-0.053826939314603806 0.39534878730773926 0.16279065608978271
-0.05321282893419266 0.39534875750541687 0.19379840791225433
-0.04733648896217346 0.39534878730773926 0.20930230617523193
-0.04159185290336609 0.41085267066955566 0.16279065608978271
-0.04422987625002861 0.41085267066955566 0.17829453945159912
-0.04272603988647461 0.41085267066955566 0.19379842281341553
-0.03930473327636719 0.42635655403137207 0.17829453945159912
-0.0389164462685585 0.4728682041168213 0.1317828893661499
-0.03981673717498779 0.4883720874786377 0.11627912521362305
-0.039441052824258804 0.4883720874786377 0.1317828893661499
-0.04044046625494957 0.5038759708404541 0.10077524185180664
-0.04105839878320694 0.5038759708404541 0.11627912521362305
-0.03946647793054581 0.5193798542022705 0.08527135848999023
-0.041092388331890106 0.5193798542022705 0.10077524185180664
-0.040015749633312225 0.5193798542022705 0.11627912521362305
-0.0399932898581028 0.5348837375640869 0.08527135848999023
-0.040380485355854034 0.5348837375640869 0.10077524185180664
-0.03888876736164093 0.5503876209259033 0.06976747512817383
-0.039394184947013855 0.5503876209259033 0.08527135848999023
-0.02766023576259613 -0.9844961166381836 0.20930230617523193
-0.02975652366876602 -0.9844961166381836 0.22480618953704834
-0.023919539526104927 -0.9844961166381836 0.24031007289886475
-0.030876224860548973 -0.9689922332763672 0.17829453945159912
-0.03773833438754082 -0.968992292881012 0.24031007289886475
-0.02386852353811264 -0.9689922332763672 0.25581395626068115
-0.035708166658878326 -0.9534883499145508 0.25581395626068115
-0.025255287066102028 -0.9379844665527344 0.27131783962249756
-0.02376938983798027 -0.8759689927101135 0.17829453945159912
-0.033921584486961365 -0.8759690523147583 0.3333333730697632
-0.03243802860379219 -0.7984496355056763 0.41085267066955566
-0.03681366518139839 -0.7209302186965942 0.1317828893661499
-0.028141312301158905 -0.7054263353347778 0.11627912521362305
-0.02404533512890339 -0.6899224519729614 0.10077524185180664
-0.031234590336680412 -0.674418568611145 0.08527135848999023
-0.02471931278705597 -0.6589146852493286 0.05426359176635742
-0.035868674516677856 -0.643410861492157 0.038759712129831314
-0.02439982444047928 -0.6124030947685242 -0.007751941680908203
-0.02990802749991417 -0.5968992114067078 -0.02325582504272461
-0.03735528513789177 -0.5503876209259033 0.37984490394592285
-0.03465675562620163 -0.5348837375640869 0.37984490394592285
-0.03406340628862381 -0.5193798542022705 0.37984490394592285
-0.035680435597896576 -0.5038759708404541 0.37984490394592285
-0.03719495236873627 -0.3798449635505676 -0.10077518224716187
-0.026459574699401855 -0.3643410801887512 -0.10077518224716187
-0.03653085231781006 -0.317829430103302 -0.08527129888534546
-0.03487765043973923 -0.30232560634613037 -0.08527129888534546
-0.03562958166003227 -0.28682172298431396 -0.08527129888534546
-0.03661445528268814 -0.27131783962249756 -0.08527129888534546
-0.03557732328772545 -0.25581395626068115 -0.08527130633592606
-0.03228500485420227 -0.24031007289886475 -0.08527129888534546
-0.027743037790060043 -0.22480618953704834 -0.08527129888534546
-0.034894637763500214 -0.19379842281341553 -0.06976741552352905
-0.02598702721297741 -0.1782945990562439 -0.06976741552352905
-0.030623916536569595 -0.14728683233261108 -0.05426359176635742
-0.02512029930949211 -0.13178294897079468 -0.05426359176635742
-0.036893658339977264 -0.10077518224716187 -0.038759708404541016
-0.037934884428977966 -0.10077517479658127 0.37984490394592285
-0.036550961434841156 -0.08527129143476486 -0.038759708404541016
-0.03492449223995209 -0.08527129888534546 0.37984490394592285
-0.03703710436820984 -0.06976741552352905 -0.038759708404541016
-0.032968319952487946 -0.06976741552352905 0.37984490394592285
-0.03663775324821472 -0.05426359176635742 -0.038759708404541016
-0.03314092382788658 -0.05426359176635742 0.37984490394592285
-0.03479139506816864 -0.038759708404541016 -0.038759708404541016
-0.0323236882686615 -0.038759708404541016 0.37984490394592285
-0.03224176540970802 -0.02325582504272461 -0.038759708404541016
-0.03263765200972557 -0.02325582504272461 0.37984490394592285
-0.02616426721215248 -0.007751941680908203 -0.038759708404541016
-0.03406553342938423 -0.007751941680908203 0.37984493374824524
-0.03317089378833771 0.00775194214656949 0.37984490394592285
-0.029479321092367172 0.02325582504272461 0.37984490394592285
-0.026873862370848656 0.038759708404541016 -0.007751941680908203
-0.023414215072989464 0.08527135848999023 0.37984490394592285
-0.025097021833062172 0.10077524185180664 -0.007751941680908203
-0.02341540716588497 0.10077524185180664 0.37984490394592285
-0.03027896210551262 0.17829453945159912 -0.007751941680908203
-0.028012128546833992 0.17829453945159912 0.364341139793396
-0.033597126603126526 0.20930230617523193 0.3488372564315796
-0.026847995817661285 0.24031007289886475 0.3333333730697632
-0.026761656627058983 0.25581395626068115 0.007751941680908203
-0.029221542179584503 0.27131783962249756 0.007751941680908203
-0.02999628707766533 0.28682172298431396 0.007751941680908203
-0.030051104724407196 0.30232560634613037 0.007751941680908203
-0.024405857548117638 0.30232560634613037 0.30232560634613037
-0.03459418565034866 0.3178294897079468 0.007751941680908203
-0.02781795710325241 0.3333333730697632 0.02325582504272461
-0.027317289263010025 0.3333333730697632 0.28682172298431396
-0.03546374663710594 0.3488372564315796 0.27131783962249756
-0.026623815298080444 0.364341139793396 0.06976747512817383
-0.03832968324422836 0.364341139793396 0.25581395626068115
-0.03758840635418892 0.37984490394592285 0.10077524185180664
-0.03845565766096115 0.37984490394592285 0.24031007289886475
-0.024288352578878403 0.37984490394592285 0.25581395626068115
-0.024298112839460373 0.39534878730773926 0.11627912521362305
-0.03732553869485855 0.39534878730773926 0.1317828893661499
-0.0376705639064312 0.39534878730773926 0.22480618953704834
-0.02702847681939602 0.39534878730773926 0.24031007289886475
-0.02679654210805893 0.41085267066955566 0.1317828893661499
-0.03489309176802635 0.41085267066955566 0.1472867727279663
-0.03697386384010315 0.41085267066955566 0.20930230617523193
-0.02824842929840088 0.41085267066955566 0.22480618953704834
-0.02630925364792347 0.42635655403137207 0.1317828893661499
-0.032667551189661026 0.42635655403137207 0.1472867727279663
-0.03837418183684349 0.42635655403137207 0.16279065608978271
-0.0361906960606575 0.42635655403137207 0.19379842281341553
-0.029442500323057175 0.42635655403137207 0.20930230617523193
-0.02330721914768219 0.4418604373931885 0.11627912521362305
-0.028588123619556427 0.4418604373931885 0.1317828893661499
-0.0346236452460289 0.4418604373931885 0.1472867727279663
-0.03794245794415474 0.44186046719551086 0.16279065608978271
-0.03635429963469505 0.4418604373931885 0.17829453945159912
-0.030611764639616013 0.4418604373931885 0.19379842281341553
-0.02702995017170906 0.4573643207550049 0.11627912521362305
-0.03303065150976181 0.4573643207550049 0.1317828893661499
-0.038367368280887604 0.4573643207550049 0.1472867727279663
-0.03736967593431473 0.4573643207550049 0.16279065608978271
-0.0324041023850441 0.4573643207550049 0.17829453945159912
-0.026550663635134697 0.4728682041168213 0.10077524185180664
-0.033350374549627304 0.4728682041168213 0.11627912521362305
-0.03862173482775688 0.4728682041168213 0.1472867727279663
-0.03424764797091484 0.4728682041168213 0.16279065608978271
-0.02665214240550995 0.4728682041168213 0.17829453945159912
-0.02707645297050476 0.4883720874786377 0.08527135848999023
-0.035702481865882874 0.4883720874786377 0.10077524185180664
-0.03531645983457565 0.4883720874786377 0.1472867727279663
-0.028883840888738632 0.4883720874786377 0.16279065608978271
-0.026642918586730957 0.5038759708404541 0.06976747512817383
-0.036021098494529724 0.5038759708404541 0.08527135848999023
-0.03747519478201866 0.5038759708404541 0.1317828893661499
-0.0308692529797554 0.5038759708404541 0.1472867727279663
-0.023800814524292946 0.5193798542022705 0.05426359176635742
-0.032748594880104065 0.5193798542022705 0.06976747512817383
-0.03358708694577217 0.5193798542022705 0.1317828893661499
-0.023450590670108795 0.5193798542022705 0.1472867727279663
-0.029206471517682076 0.5348837375640869 0.05426359176635742
-0.03765337914228439 0.5348837375640869 0.06976746767759323
-0.03647198900580406 0.5348837375640869 0.11627912521362305
-0.029162324965000153 0.5348837375640869 0.1317828893661499
-0.026539906859397888 0.5503876209259033 0.038759708404541016
-0.03335556387901306 0.5503876209259033 0.05426359176635742
-0.036870360374450684 0.5503876209259033 0.10077524185180664
-0.031988609582185745 0.5503876209259033 0.11627912521362305
-0.02336842380464077 0.5658915042877197 0.02325582504272461
-0.030856262892484665 0.5658915042877197 0.038759708404541016
-0.03556467592716217 0.5658915042877197 0.05426359176635742
-0.03833415359258652 0.5658915042877197 0.06976747512817383
-0.0362616665661335 0.5658915042877197 0.08527135848999023
-0.03276533633470535 0.5658915042877197 0.10077524185180664
-0.02458341419696808 0.5658915042877197 0.11627912521362305
-0.02806241065263748 0.5813953876495361 0.02325582504272461
-0.03347726911306381 0.5813953876495361 0.038759708404541016
-0.036067575216293335 0.5813953876495361 0.05426359176635742
-0.035706181079149246 0.5813953876495361 0.06976747512817383
-0.03322325274348259 0.5813953876495361 0.08527135848999023
-0.028409160673618317 0.5813953876495361 0.10077524185180664
-0.030864670872688293 0.5968992710113525 0.02325582504272461
-0.034260571002960205 0.5968992710113525 0.038759708404541016
-0.03480144590139389 0.5968992710113525 0.05426359176635742
-0.03327511250972748 0.5968992710113525 0.06976747512817383
-0.030903715640306473 0.5968992710113525 0.08527135848999023
-0.02421184629201889 0.612403154373169 0.007751941680908203
-0.031746260821819305 0.612403154373169 0.02325582504272461
-0.03381522744894028 0.612403154373169 0.038759708404541016
-0.03304688259959221 0.612403154373169 0.05426359176635742
-0.031872235238552094 0.612403154373169 0.06976747512817383
-0.025397254154086113 0.6279069185256958 0.007751941680908203
-0.031381286680698395 0.6279069185256958 0.02325582504272461
-0.032377876341342926 0.6279069185256958 0.038759708404541016
-0.0316949263215065 0.6279069185256958 0.05426359176635742
-0.027414148673415184 0.6279069185256958 0.06976747512817383
-0.02641170844435692 0.6434108018875122 0.007751941680908203
-0.03086163103580475 0.6434108018875122 0.02325582504272461
-0.03137534111738205 0.6434108018875122 0.038759708404541016
-0.02992832288146019 0.6434108018875122 0.05426359176635742
-0.027535084635019302 0.6589146852493286 0.007751941680908203
-0.03032318875193596 0.6589146852493286 0.02325582504272461
-0.030502794310450554 0.6589146852493286 0.038759708404541016
-0.02429068647325039 0.6589146852493286 0.05426359176635742
-0.028377395123243332 0.674418568611145 0.007751941680908203
-0.029720444232225418 0.674418568611145 0.02325582504272461
-0.0274665467441082 0.674418568611145 0.038759708404541016
-0.025961589068174362 0.6899224519729614 -0.007751941680908203
-0.028710778802633286 0.6899224519729614 0.007751941680908203
-0.028797749429941177 0.6899224519729614 0.02325582504272461
-0.027498040348291397 0.7054263353347778 -0.007751941680908203
-0.02875640243291855 0.7054263353347778 0.007751941680908203
-0.026309914886951447 0.7054263353347778 0.02325582504272461
-0.0253373384475708 0.7209302186965942 -0.02325582504272461
-0.027754243463277817 0.7209302186965942 -0.007751941680908203
-0.027817104011774063 0.7209302186965942 0.007751941680908203
-0.02605825662612915 0.7364341020584106 -0.02325582504272461
-0.027379093691706657 0.7364341020584106 -0.007751941680908203
-0.02466466836631298 0.7364341020584106 0.007751941680908203
-0.025915201753377914 0.751937985420227 -0.02325582504272461
-0.0255949217826128 0.751937985420227 -0.007751941680908203
-0.024496469646692276 0.7674418687820435 -0.02325582504272461
-0.02128172479569912 -0.9844961166381836 0.19379842281341553
-0.019770294427871704 -0.9379844665527344 0.16279065608978271
-0.014567198231816292 -0.9224806427955627 0.16279065608978271
-0.01800737902522087 -0.8759689331054688 0.17829453945159912
-0.018573498353362083 -0.751937985420227 0.16279065608978271
-0.00793174933642149 -0.674418568611145 0.06976747512817383
-0.02100076526403427 -0.643410861492157 0.39534878730773926
-0.011730814352631569 -0.6279069781303406 0.007751941680908203
-0.023026760667562485 -0.5813953876495361 -0.038759708404541016
-0.01697550155222416 -0.3488371968269348 -0.10077518224716187
-0.009384306147694588 -0.3333333134651184 -0.10077518224716187
-0.008227651007473469 -0.27131783962249756 -0.10077518224716187
-0.021749788895249367 -0.20930230617523193 -0.08527129888534546
-0.014352250844240189 -0.1627907156944275 -0.06976741552352905
-0.018817512318491936 -0.11627906560897827 -0.05426359176635742
-0.013082428835332394 -0.10077518224716187 -0.05426359176635742
-0.010547176003456116 -0.08527129888534546 -0.05426359176635742
-0.020977487787604332 0.02325582504272461 -0.02325582504272461
-0.023239167407155037 0.038759708404541016 0.37984490394592285
-0.01897829957306385 0.05426359176635742 0.37984490394592285
-0.020099220797419548 0.06976747512817383 0.37984490394592285
-0.01781500317156315 0.11627912521362305 0.37984490394592285
-0.016262158751487732 0.27131783962249756 0.3178294897079468
-0.011513257399201393 0.3333333730697632 0.02325582504272461
-0.01499340683221817 0.3488372564315796 0.038759708404541016
-0.008425964042544365 0.3488372564315796 0.28682172298431396
-0.020218893885612488 0.3643411695957184 0.27131783962249756
-0.014654472470283508 0.37984490394592285 0.08527135848999023
-0.014114625751972198 0.41085267066955566 0.11627912521362305
-0.01058227475732565 0.41085267066955566 0.24031007289886475
-0.013108762912452221 0.42635655403137207 0.11627912521362305
-0.014585955068469048 0.42635655403137207 0.22480618953704834
-0.018221771344542503 0.4418604373931885 0.20930230617523193
-0.012055862694978714 0.4573643207550049 0.10077524185180664
-0.022854719310998917 0.4573643207550049 0.19379842281341553
-0.011155158281326294 0.4883720874786377 0.17829453945159912
-0.016048897057771683 0.5038759708404541 0.16279065608978271
-0.01380481943488121 0.5348837375640869 0.038759708404541016
-0.015601381659507751 0.5503876209259033 0.1317828893661499
-0.01770373433828354 0.5968992710113525 0.007751941680908203
-0.01499691978096962 0.5968992710113525 0.10077524185180664
-0.023244502022862434 0.612403154373169 0.08527135848999023
-0.01819760724902153 0.6434108018875122 0.06976747512817383
-0.008008723147213459 0.6589146852493286 -0.007751941680908203
-0.02084350399672985 0.674418568611145 -0.007751941680908203
-0.015971161425113678 0.674418568611145 0.05426359176635742
-0.0214705727994442 0.6899223923683167 0.038759708404541016
-0.02275814488530159 0.7054263353347778 -0.02325582504272461
-0.014929193072021008 0.7054263353347778 0.038759708404541016
-0.020665625110268593 0.7209302186965942 0.02325582504272461
-0.017163462936878204 0.7364341020584106 -0.038759708404541016
-0.014025075361132622 0.7364341020584106 0.02325582504272461
-0.009070242755115032 0.751937985420227 -0.05426359176635742
-0.022549258545041084 0.751937985420227 -0.03875970467925072
-0.018938299268484116 0.751937985420227 0.007751941680908203
-0.01575479656457901 0.7674418687820435 -0.05426359176635742
-0.023055454716086388 0.7674418687820435 -0.038759708404541016
-0.02073911391198635 0.7674418687820435 -0.007751941215246916
-0.010209280997514725 0.7674418687820435 0.007751941680908203
-0.012977667152881622 0.7829457521438599 -0.06976741552352905
-0.018482405692338943 0.7829457521438599 -0.05426359176635742
-0.020576825365424156 0.7829457521438599 -0.038759708404541016
-0.020415419712662697 0.7829457521438599 -0.02325582504272461
-0.014447459019720554 0.7829457521438599 -0.007751941680908203
-0.016113750636577606 0.7984496355056763 -0.06976741552352905
-0.018476665019989014 0.7984495759010315 -0.05426359176635742
-0.017927536740899086 0.7984496355056763 -0.038759708404541016
-0.01502392441034317 0.7984496355056763 -0.02325582504272461
-0.017585108056664467 0.8139535188674927 -0.06976741552352905
-0.01827838458120823 0.8139535188674927 -0.05426359176635742
-0.015222827903926373 0.8139535188674927 -0.038759708404541016
-0.009650561027228832 0.8139535188674927 -0.02325582504272461
-0.008926710113883018 0.8294574022293091 -0.08527129888534546
-0.01813991740345955 0.8294574022293091 -0.06976741552352905
-0.01742853783071041 0.8294573426246643 -0.05426359176635742
-0.013395769521594048 0.8294574022293091 -0.038759708404541016
-0.010344055481255054 0.8449612855911255 -0.08527129888534546
-0.01752474159002304 0.8449612855911255 -0.06976741552352905
-0.015800299122929573 0.8449612855911255 -0.05426359176635742
-0.011293305084109306 0.8449612855911255 -0.038759708404541016
-0.011368919163942337 0.8604651689529419 -0.08527129888534546
-0.01657017320394516 0.8604651689529419 -0.06976741552352905
-0.01478000357747078 0.8604651689529419 -0.05426359176635742
-0.009158194996416569 0.8604651689529419 -0.038759708404541016
-0.01205210480839014 0.8759689331054688 -0.08527129888534546
-0.015650508925318718 0.8759689331054688 -0.06976741552352905
-0.013862695544958115 0.8759689331054688 -0.05426359176635742
-0.012394288554787636 0.8914728164672852 -0.08527129888534546
-0.014839144423604012 0.8914728164672852 -0.06976741552352905
-0.012090319767594337 0.8914728164672852 -0.05426359176635742
-0.012090504169464111 0.9069766998291016 -0.08527129888534546
-0.013936109840869904 0.9069766998291016 -0.06976741552352905
-0.00867762416601181 0.9069766998291016 -0.05426359176635742
-0.011503132060170174 0.922480583190918 -0.08527129888534546
-0.012572327628731728 0.922480583190918 -0.06976741552352905
-0.010888218879699707 0.9379844665527344 -0.08527129888534546
-0.010134713724255562 0.9379844665527344 -0.06976741552352905
-0.009985629469156265 0.9534883499145508 -0.08527129888534546
0.002171039581298828 -0.9224807024002075 0.16279065608978271
-0.001311453990638256 -0.8759690523147583 0.3333333730697632
-0.004655630327761173 -0.8449612855911255 0.364341139793396
0.0013488640543073416 -0.8294573426246643 0.37984490394592285
0.005319288000464439 -0.8139535188674927 0.19379842281341553
-0.002583748660981655 -0.8139535188674927 0.39534878730773926
0.006477781571447849 -0.7209302186965942 0.41085267066955566
-0.007120823487639427 -0.6744185090065002 0.06976747512817383
0.005930548533797264 -0.6279069781303406 0.007751941680908203
-0.0009797706734389067 -0.3333333134651184 -0.10077518224716187
-0.005599208176136017 -0.27131783962249756 -0.10077518224716187
0.00316989584825933 -0.08527129888534546 -0.05426359176635742
0.007068411447107792 0.24031007289886475 0.007751941680908203
-0.004452287685126066 0.3333333730697632 0.02325582504272461
0.00023359875194728374 0.3488372564315796 0.28682172298431396
0.0031080879271030426 0.4573643207550049 0.10077524185180664
0.006573011167347431 0.5348837375640869 0.038759708404541016
-0.007233723066747189 0.6589146852493286 -0.007751941680908203
-0.0034545855596661568 0.7519379258155823 -0.05426359176635742
0.0005061111878603697 0.8294574022293091 -0.08527129888534546
0.020307356491684914 -0.9844961166381836 0.19379842281341553
0.0227016843855381 -0.9844961166381836 0.24031007289886475
0.021863792091608047 -0.9689922332763672 0.25581395626068115
0.014377417042851448 -0.9379844665527344 0.16279065608978271
0.0223280917853117 -0.9379844665527344 0.27131783962249756
0.009331160224974155 -0.8139535188674927 0.19379842281341553
0.01613881252706051 -0.7364341020584106 0.1472867727279663
0.022153861820697784 -0.7209302186965942 0.1317828893661499
0.015522542409598827 -0.7054263353347778 0.11627912521362305
0.013393238186836243 -0.6899224519729614 0.10077524185180664
0.022110018879175186 -0.674418568611145 0.08527135848999023
0.015107685700058937 -0.6589146852493286 0.05426359176635742
0.008373449556529522 -0.643410861492157 0.39534878730773926
0.014758018776774406 -0.6124030351638794 -0.007751941680908203
0.017003672197461128 -0.5968992114067078 -0.02325582504272461
0.011404364369809628 -0.5813953876495361 -0.038759708404541016
0.011043448001146317 -0.5503876209259033 -0.05426359176635742
0.011804018169641495 -0.5193798542022705 -0.06976741552352905
0.013627689331769943 -0.4883720874786377 -0.08527129888534546
0.014198060147464275 -0.4418604373931885 -0.10077518224716187
0.018858715891838074 -0.3643410801887512 -0.10077518224716187
0.010609515011310577 -0.3488371968269348 -0.10077518224716187
0.014459917321801186 -0.20930230617523193 -0.08527129888534546
0.022057214751839638 -0.1782945990562439 -0.06976741552352905
0.00986157450824976 -0.1627907156944275 -0.06976741552352905
0.01954103633761406 -0.13178294897079468 -0.05426359176635742
0.012689009308815002 -0.11627906560897827 -0.05426359176635742
0.008900591172277927 -0.10077518224716187 -0.05426359176635742
0.02220919169485569 -0.038759708404541016 -0.038759708404541016
0.01868513971567154 -0.02325582504272461 -0.038759708404541016
0.01273149810731411 -0.007751941680908203 -0.038759708404541016
0.009003235027194023 0.02325582318007946 -0.02325582318007946
0.013176219537854195 0.038759708404541016 -0.007751941680908203
0.01766672171652317 0.038759708404541016 0.37984490394592285
0.014857716858386993 0.05426359176635742 0.37984490394592285
0.01578747108578682 0.06976747512817383 0.37984490394592285
0.018305262550711632 0.08527135848999023 0.37984490394592285
0.008819677866995335 0.10077524185180664 -0.007751941680908203
0.018055716529488564 0.10077524185180664 0.37984490394592285
0.017400039359927177 0.11627912521362305 -0.007751941680908203
0.013188814744353294 0.11627911776304245 0.37984490394592285
0.020563915371894836 0.1317828893661499 -0.007751941680908203
0.01649627275764942 0.1472867727279663 -0.007751941680908203
0.008630631491541862 0.16279065608978271 -0.00775194214656949
0.020242132246494293 0.17829453945159912 0.364341139793396
0.0215365719050169 0.20930230617523193 0.007751941680908203
0.014757798984646797 0.22480618953704834 0.007751941680908203
0.018954617902636528 0.24031007289886475 0.3333333730697632
0.02121841348707676 0.27131783962249756 0.02325582504272461
0.010934486985206604 0.27131783962249756 0.3178294897079468
0.0182531476020813 0.28682172298431396 0.02325582504272461
0.019800815731287003 0.30232560634613037 0.02325582504272461
0.01932564191520214 0.30232560634613037 0.30232560634613037
0.017351681366562843 0.3178294897079468 0.02325582504272461
0.008230541832745075 0.3488372266292572 0.038759708404541016
0.02031203918159008 0.3488372564315796 0.05426359176635742
0.01543240062892437 0.364341139793396 0.06976747512817383
0.02314320020377636 0.364341139793396 0.08527135848999023
0.01822734624147415 0.364341139793396 0.27131783962249756
0.009783637709915638 0.37984490394592285 0.08527135848999023
0.017883166670799255 0.37984490394592285 0.10077524185180664
0.02226349525153637 0.37984490394592285 0.25581395626068115
0.013353096321225166 0.39534878730773926 0.11627912521362305
0.02228904888033867 0.39534878730773926 0.1317828893661499
0.00859767571091652 0.4108526408672333 0.11627911776304245
0.016970280557870865 0.41085267066955566 0.1317828893661499
0.010062775574624538 0.41085267066955566 0.24031005799770355
0.00809512846171856 0.42635655403137207 0.11627912521362305
0.015940910205245018 0.42635655403137207 0.1317828893661499
0.013667200691998005 0.42635655403137207 0.22480618953704834
0.010582736693322659 0.4418604373931885 0.11627912521362305
0.01944574899971485 0.4418604373931885 0.1317828893661499
0.016236690804362297 0.4418604373931885 0.20930230617523193
0.01586131565272808 0.4573643207550049 0.11627912521362305
0.018746210262179375 0.4573643207550049 0.19379842281341553
0.014039341360330582 0.4728682041168213 0.10077524185180664
0.020833579823374748 0.4728682041168213 0.17829453945159912
0.0139973945915699 0.4883720874786377 0.08527135848999023
0.021971991285681725 0.4883720874786377 0.16279065608978271
0.009151123464107513 0.4883721172809601 0.17829453945159912
0.013740573078393936 0.5038759708404541 0.06976747512817383
0.012427950277924538 0.5038759708404541 0.16279065608978271
0.010653513483703136 0.5193798542022705 0.05426359176635742
0.015813114121556282 0.5193798542022705 0.1472867727279663
0.02025679312646389 0.5348837375640869 0.05426359176635742
0.02131614275276661 0.5348837375640869 0.1317828893661499
0.015359790995717049 0.5503876209259033 0.038759708404541016
0.012053831480443478 0.5503876209259033 0.1317828893661499
0.0107954740524292 0.5658915042877197 0.02325582504272461
0.01768975518643856 0.5658915042877197 0.11627912521362305
0.017542129382491112 0.5813953876495361 0.02325582504272461
0.02268102951347828 0.5813953876495361 0.10077524185180664
0.008716689422726631 0.5968992710113525 0.007751941680908203
0.012327935546636581 0.5968992710113525 0.10077524185180664
0.011261079460382462 0.612403154373169 0.007751941680908203
0.018176788464188576 0.612403154373169 0.08527135848999023
0.012951165437698364 0.6279069185256958 0.007751941680908203
0.015037454664707184 0.6434108018875122 0.007751941680908203
0.016207555308938026 0.6434108018875122 0.06976747512817383
0.018565921112895012 0.6589146852493286 0.007751941680908203
0.02120937965810299 0.6589146852493286 0.05426359176635742
0.010497179813683033 0.674418568611145 -0.007751941680908203
0.01472141407430172 0.674418568611145 0.05426359176635742
0.018669094890356064 0.6899224519729614 -0.007751941680908203
0.01990852691233158 0.6899224519729614 0.038759708404541016
0.011899547651410103 0.7054263949394226 -0.02325582504272461
0.01377071999013424 0.7054263353347778 0.038759708404541016
0.02005850337445736 0.7209302186965942 -0.02325582504272461
0.019551271572709084 0.7209302186965942 0.02325582504272461
0.010284588672220707 0.7364341020584106 -0.038759708404541016
0.012861186638474464 0.7364341020584106 0.02325582504272461
0.015358145348727703 0.751937985420227 -0.038759708404541016
0.01817326247692108 0.751937985420227 0.007751941680908203
0.01111065037548542 0.7674418687820435 -0.05426359176635742
0.017099952325224876 0.7674418687820435 -0.038759708404541016
0.02253028191626072 0.7674418687820435 -0.02325582504272461
0.019310621544718742 0.7674418687820435 -0.007751941680908203
0.00943644717335701 0.7674418687820435 0.007751941680908203
0.009431008249521255 0.7829458117485046 -0.06976741552352905
0.01403516810387373 0.7829457521438599 -0.05426359176635742
0.01691966876387596 0.7829457521438599 -0.038759708404541016
0.01866745948791504 0.7829457521438599 -0.02325582504272461
0.013870601542294025 0.7829457521438599 -0.007751941680908203
0.012159127742052078 0.7984496355056763 -0.06976741552352905
0.014884654432535172 0.7984496355056763 -0.05426359176635742
0.015499128960072994 0.7984496355056763 -0.038759708404541016
0.014496635645627975 0.7984496355056763 -0.02325582504272461
0.013429321348667145 0.8139535188674927 -0.06976741552352905
0.015072204172611237 0.8139535188674927 -0.05426359176635742
0.013978028669953346 0.8139535188674927 -0.038759708404541016
0.009563332423567772 0.8139535188674927 -0.02325582504272461
0.014282546937465668 0.8294574022293091 -0.06976741552352905
0.015238066203892231 0.8294574022293091 -0.05426359176635742
0.012718522921204567 0.8294574022293091 -0.038759708404541016
0.008381124585866928 0.8449612855911255 -0.08527129888534546
0.014846796169877052 0.8449612855911255 -0.06976741552352905
0.015093881636857986 0.8449612855911255 -0.05426359176635742
0.011160433292388916 0.8449612855911255 -0.038759708404541016
0.00948701985180378 0.8604651689529419 -0.08527129888534546
0.014937316067516804 0.8604651689529419 -0.06976741552352905
0.014532560482621193 0.8604651689529419 -0.05426359176635742
0.009314172901213169 0.8604651689529419 -0.038759708404541016
0.010321270674467087 0.8759689331054688 -0.08527130633592606
0.014710664749145508 0.8759689331054688 -0.06976741552352905
0.013804269023239613 0.8759689331054688 -0.05426359176635742
0.01075749471783638 0.8914728164672852 -0.08527129888534546
0.01419929601252079 0.8914728164672852 -0.06976741552352905
0.012183960527181625 0.8914728760719299 -0.05426359549164772
0.010466383770108223 0.9069767594337463 -0.08527129888534546
0.01310473307967186 0.9069766998291016 -0.06976741552352905
0.008869248442351818 0.9069767594337463 -0.05426359176635742
0.009943744167685509 0.922480583190918 -0.08527129888534546
0.011622194200754166 0.922480583190918 -0.06976741552352905
0.009646868333220482 0.9379844665527344 -0.08527129888534546
0.009666882455348969 0.9379844665527344 -0.06976741552352905
0.008956787176430225 0.9534883499145508 -0.08527129888534546
0.026870016008615494 -0.9844961166381836 0.20930230617523193
0.02860044687986374 -0.9844961166381836 0.22480618953704834
0.030021917074918747 -0.9689921736717224 0.17829453945159912
0.03626232594251633 -0.9689922332763672 0.24031007289886475
0.033766936510801315 -0.9534883499145508 0.25581395626068115
0.03067612834274769 -0.8914728164672852 0.17829453945159912
0.034970346838235855 -0.8604651093482971 0.3488372564315796
0.03610090911388397 -0.8449612259864807 0.19379842281341553
0.03613698109984398 -0.8294573426246643 0.19379842281341553
0.03166075795888901 -0.8294573426246643 0.37984490394592285
0.028800321742892265 -0.8139535784721375 0.39534878730773926
0.038500893861055374 -0.674418568611145 0.10077524185180664
0.03367157652974129 -0.6589146852493286 0.06976747512817383
0.03237895667552948 -0.6589146852493286 0.39534878730773926
0.026643022894859314 -0.6434109210968018 0.038759708404541016
0.03454010188579559 -0.6279069781303406 0.02325582504272461
0.030957715585827827 -0.5658915042877197 -0.038759708404541016
0.03695005550980568 -0.5503876209259033 0.37984490394592285
0.0334925577044487 -0.5348837375640869 0.37984490394592285
0.03220753371715546 -0.5193798542022705 0.37984490394592285
0.03323116526007652 -0.5038759708404541 0.37984490394592285
0.03654070943593979 -0.4883720874786377 0.37984490394592285
0.027573322877287865 -0.42635661363601685 -0.10077518969774246
0.03484884649515152 -0.41085273027420044 -0.10077518224716187
0.03255079314112663 -0.39534884691238403 -0.10077518224716187
0.025725845247507095 -0.3798449635505676 -0.10077518224716187
0.037760742008686066 -0.3488371968269348 0.37984490394592285
0.03481229022145271 -0.3333333134651184 -0.08527129888534546
0.03744808956980705 -0.3333333134651184 0.37984490394592285
0.0312555730342865 -0.317829430103302 -0.08527129888534546
0.03775674104690552 -0.317829430103302 0.37984490394592285
0.02992803230881691 -0.30232560634613037 -0.08527129888534546
0.037915922701358795 -0.30232560634613037 0.37984490394592285
0.03042411059141159 -0.28682172298431396 -0.08527129888534546
0.03869005665183067 -0.28682172298431396 0.37984490394592285
0.031051866710186005 -0.27131783962249756 -0.08527129888534546
0.030034910887479782 -0.25581395626068115 -0.08527129888534546
0.027675572782754898 -0.24031007289886475 -0.08527129888534546
0.024365847930312157 -0.22480618953704834 -0.08527129888534546
0.037824634462594986 -0.20930230617523193 -0.06976741552352905
0.029308754950761795 -0.19379842281341553 -0.06976741552352905
0.03333618864417076 -0.1627907156944275 -0.05426359176635742
0.026000287383794785 -0.14728683233261108 -0.05426359176635742
0.033581048250198364 -0.11627906560897827 -0.038759708404541016
0.03744189068675041 -0.11627906560897827 0.37984490394592285
0.03010610118508339 -0.10077518224716187 -0.038759708404541016
0.03364497795701027 -0.10077518224716187 0.37984490394592285
0.029222039505839348 -0.08527129888534546 -0.038759708404541016
0.031054142862558365 -0.08527129888534546 0.37984490394592285
0.02823980711400509 -0.06976741552352905 -0.038759708404541016
0.028357088565826416 -0.06976741552352905 0.37984490394592285
0.02560282126069069 -0.05426359176635742 -0.038759708404541016
0.027658335864543915 -0.05426359176635742 0.37984490394592285
0.026910146698355675 -0.038759708404541016 0.37984490394592285
0.027585148811340332 -0.02325582504272461 0.37984490394592285
0.029100462794303894 -0.007751941215246916 0.37984490394592285
0.027973350137472153 0.007751941680908203 -0.02325582504272461
0.028052646666765213 0.007751941680908203 0.37984490394592285
0.034285832196474075 0.02325582504272461 -0.007751941680908203
0.023375196382403374 0.02325582504272461 0.37984490394592285
0.033376775681972504 0.05426359176635742 0.007751941680908203
0.03291059657931328 0.06976747512817383 0.007751941680908203
0.03232618793845177 0.16279065608978271 0.364341139793396
0.026679828763008118 0.20930230617523193 0.3488372564315796
0.03826014697551727 0.25581395626068115 0.3178294897079468
0.03172451630234718 0.27131783962249756 0.02325582504272461
0.038288664072752 0.27131783962249756 0.08527135848999023
0.034083589911460876 0.28682172298431396 0.02325582504272461
0.03741784021258354 0.28682172298431396 0.08527135848999023
0.03179091215133667 0.30232560634613037 0.02325582504272461
0.03825228661298752 0.30232560634613037 0.08527135848999023
0.03823407366871834 0.3178294897079468 0.28682172298431396
0.026977889239788055 0.3333333730697632 0.038759708404541016
0.03810470178723335 0.3333333730697632 0.05426359176635742
0.03773245960474014 0.3333333730697632 0.06976747512817383
0.023262592032551765 0.33333340287208557 0.28682172298431396
0.02716301940381527 0.3488372564315796 0.06976747512817383
0.0366554819047451 0.3488372564315796 0.08527135848999023
0.032521024346351624 0.3488372564315796 0.27131783962249756
0.0351925864815712 0.364341139793396 0.25581395626068115
0.030127720907330513 0.37984490394592285 0.11627911776304245
0.035020794719457626 0.37984490394592285 0.24031007289886475
0.029886486008763313 0.39534878730773926 0.1472867727279663
0.03666509687900543 0.39534878730773926 0.16279065608978271
0.03389773517847061 0.39534878730773926 0.22480618953704834
0.024422181770205498 0.39534878730773926 0.24031008780002594
0.02520597353577614 0.41085267066955566 0.1472867727279663
0.030577022582292557 0.41085267066955566 0.16279065608978271
0.03411560133099556 0.41085267066955566 0.17829453945159912
0.03487692400813103 0.41085267066955566 0.19379842281341553
0.03235609084367752 0.41085267066955566 0.20930230617523193
0.02569499984383583 0.41085267066955566 0.22480618953704834
0.02468552440404892 0.42635655403137207 0.1472867727279663
0.028893880546092987 0.42635655403137207 0.16279065608978271
0.03147999569773674 0.42635655403137207 0.17829453945159912
0.030986173078417778 0.42635655403137207 0.19379842281341553
0.026436088606715202 0.42635655403137207 0.20930230617523193
0.02595742605626583 0.4418604373931885 0.1472867727279663
0.029266107827425003 0.4418604373931885 0.16279065608978271
0.029987648129463196 0.4418604373931885 0.17829453945159912
0.02706831321120262 0.4418604373931885 0.19379842281341553
0.024576930329203606 0.4573643207550049 0.1317828893661499
0.027793213725090027 0.4573643207550049 0.1472867727279663
0.029399622231721878 0.4573643207550049 0.16279065608978271
0.0276581272482872 0.4573643207550049 0.17829453945159912
0.02385837957262993 0.4728682041168213 0.11627912521362305
0.026360919699072838 0.4728682041168213 0.1317828893661499
0.028328455984592438 0.4728682041168213 0.1472867727279663
0.027531001716852188 0.4728682041168213 0.16279065608978271
0.023806998506188393 0.4883720874786377 0.10077523440122604
0.02609708160161972 0.4883720874786377 0.11627912521362305
0.02728860080242157 0.4883720874786377 0.1317828893661499
0.02677832916378975 0.4883720874786377 0.1472867727279663
0.024089239537715912 0.5038759708404541 0.08527135848999023
0.026592690497636795 0.5038759708404541 0.10077524185180664
0.027712108567357063 0.5038759708404541 0.11627912521362305
0.027394559234380722 0.5038759708404541 0.1317828893661499
0.023701870813965797 0.5038759708404541 0.1472867727279663
0.02365393377840519 0.5193798542022705 0.06976747512817383
0.02666350081562996 0.5193798542022705 0.08527135848999023
0.028189552947878838 0.5193798542022705 0.10077524185180664
0.02846040390431881 0.5193798542022705 0.11627912521362305
0.026192354038357735 0.5193798542022705 0.1317828893661499
0.026299990713596344 0.5348837375640869 0.06976747512817383
0.0282910019159317 0.5348837375640869 0.08527135848999023
0.028843607753515244 0.5348837375640869 0.10077524185180664
0.028307247906923294 0.5348837375640869 0.11627912521362305
0.025266140699386597 0.5503876209259033 0.05426359549164772
0.02812023088335991 0.5503876209259033 0.06976747512817383
0.028768613934516907 0.5503876209259033 0.08527135848999023
0.028562523424625397 0.5503876209259033 0.10077524185180664
0.02555418200790882 0.5503876209259033 0.11627912521362305
0.02392263524234295 0.5658915042877197 0.038759708404541016
0.027449097484350204 0.5658915042877197 0.05426359176635742
0.028728332370519638 0.5658915042877197 0.06976747512817383
0.028617026284337044 0.5658915042877197 0.08527135848999023
0.027329392731189728 0.5658915042877197 0.10077524185180664
0.026456793770194054 0.5813953876495361 0.038759708404541016
0.028668945655226707 0.5813953876495361 0.05426359176635742
0.028789516538381577 0.5813953876495361 0.06976747512817383
0.02836906909942627 0.5813953876495361 0.08527135848999023
0.023579616099596024 0.5968992710113525 0.02325582504272461
0.02796442061662674 0.5968992710113525 0.038759708404541016
0.02895781584084034 0.5968992710113525 0.05426359176635742
0.02873195707798004 0.5968992710113525 0.06976747512817383
0.02548372745513916 0.5968992710113525 0.08527135848999023
0.02497921511530876 0.612403154373169 0.02325582504272461
0.028474802151322365 0.612403154373169 0.038759708404541016
0.028947506099939346 0.612403154373169 0.05426359176635742
0.027581006288528442 0.612403154373169 0.06976747512817383
0.02554367482662201 0.6279069185256958 0.02325582504272461
0.028382258489727974 0.6279069185256958 0.038759708404541016
0.028578631579875946 0.6279069185256958 0.05426359176635742
0.023368338122963905 0.6279069185256958 0.06976747512817383
0.025898471474647522 0.6434108018875122 0.02325582504272461
0.028001613914966583 0.6434108018875122 0.038759708404541016
0.026456784456968307 0.6434108018875122 0.05426359176635742
0.026205994188785553 0.6589146852493286 0.02325582504272461
0.027054715901613235 0.6589146852493286 0.038759708404541016
0.023938830941915512 0.674418568611145 0.007751941680908203
0.026674844324588776 0.674418568611145 0.02325582504272461
0.024741634726524353 0.674418568611145 0.03875970467925072
0.02627786062657833 0.6899224519729614 0.007751941680908203
0.02675924450159073 0.6899224519729614 0.02325582504272461
0.025060802698135376 0.7054263353347778 -0.007751941680908203
0.027161460369825363 0.7054263353347778 0.007751941680908203
0.024789363145828247 0.7054263353347778 0.02325582504272461
0.026369735598564148 0.7209302186965942 -0.007751941680908203
0.026647154241800308 0.7209302186965942 0.007751941680908203
0.024066483601927757 0.7364341020584106 -0.02325582504272461
0.026312176138162613 0.7364341020584106 -0.007751941680908203
0.023759517818689346 0.7364341020584106 0.007751941680908203
0.024216802790760994 0.751937985420227 -0.02325582504272461
0.024514883756637573 0.7519380450248718 -0.007751941680908203
0.04009341821074486 -0.9689922332763672 0.19379842281341553
0.042847588658332825 -0.9689922332763672 0.20930230617523193
0.04163329675793648 -0.9689922332763672 0.22480618953704834
0.04104189947247505 -0.953488290309906 0.17829453945159912
0.04751225560903549 -0.9534883499145508 0.19379842281341553
0.04850982129573822 -0.9534883499145508 0.20930230617523193
0.048438675701618195 -0.9534883499145508 0.22480618953704834
0.04555940628051758 -0.9534883499145508 0.24031007289886475
0.0442485436797142 -0.9379844665527344 0.17829453945159912
0.048970840871334076 -0.9379844665527344 0.19379842281341553
0.04981299117207527 -0.9379844665527344 0.20930230617523193
0.050413910299539566 -0.9379844665527344 0.22480618953704834
0.04989747703075409 -0.9379844665527344 0.24031007289886475
0.04324822872877121 -0.9379844665527344 0.25581395626068115
0.0434720553457737 -0.922480583190918 0.17829453945159912
0.049053844064474106 -0.9224806427955627 0.19379842281341553
0.051025114953517914 -0.9224806427955627 0.20930230617523193
0.052577391266822815 -0.9224806427955627 0.22480618953704834
0.05162772908806801 -0.9224806427955627 0.25581395626068115
0.03996550664305687 -0.9224806427955627 0.27131783962249756
0.04072536528110504 -0.9069767594337463 0.17829455435276031
0.04763307049870491 -0.9069767594337463 0.19379842281341553
0.05080881342291832 -0.9069767594337463 0.20930230617523193
0.039371490478515625 -0.9069768190383911 0.28682175278663635
0.04479493945837021 -0.8914729356765747 0.19379842281341553
0.04970062896609306 -0.8914728164672852 0.20930230617523193
0.048165760934352875 -0.8914728760719299 0.30232560634613037
0.041499823331832886 -0.8759689927101135 0.19379842281341553
0.04863304644823074 -0.8759689927101135 0.20930230617523193
0.03924395889043808 -0.8604651093482971 0.19379842281341553
0.048890821635723114 -0.8604651093482971 0.20930230617523193
0.05158174782991409 -0.8449612259864807 0.20930230617523193
0.04866328090429306 -0.8449612855911255 0.364341139793396
0.04167645424604416 -0.8139535188674927 0.19379840791225433
0.046267908066511154 -0.7984496355056763 0.41085267066955566
0.05143863707780838 -0.7209302186965942 0.1472867727279663
0.04597845301032066 -0.7054263353347778 0.1317828893661499
0.04205550625920296 -0.6899224519729614 0.11627912521362305
0.04897912219166756 -0.674418568611145 0.39534878730773926
0.04751987010240555 -0.6589146852493286 0.08527135848999023
0.04668457806110382 -0.643410861492157 0.05426359176635742
0.045307841151952744 -0.6124030351638794 0.007751941215246916
0.05214618146419525 -0.5968992114067078 0.37984490394592285
0.04571209102869034 -0.5813953876495361 0.37984490394592285
0.04891029745340347 -0.5658915042877197 -0.038759708404541016
0.0412173867225647 -0.5658915042877197 0.37984490394592285
0.05408108979463577 -0.5503876209259033 0.364341139793396
0.051164619624614716 -0.5348837375640869 0.364341139793396
0.04969782382249832 -0.5193798542022705 -0.06976741552352905
0.05030127614736557 -0.5193798542022705 0.364341139793396
0.051449552178382874 -0.5038759708404541 0.364341139793396
0.048768650740385056 -0.4883720874786377 -0.08527129888534546
0.04006146267056465 -0.4728682041168213 0.37984493374824524
0.051359761506319046 -0.4573643207550049 -0.10077518224716187
0.04234728589653969 -0.45736435055732727 0.37984490394592285
0.04671947658061981 -0.4418604373931885 -0.10077518224716187
0.04318014532327652 -0.4418604373931885 0.37984490394592285
0.043279342353343964 -0.42635661363601685 -0.10077518224716187
