-0.06976741552352905 0.3911912143230438 -0.038759708404541016
-0.06976741552352905 0.3935246765613556 -0.02325582504272461
-0.06976741552352905 0.3810345530509949 0.25581395626068115
-0.06976741552352905 0.40426453948020935 -0.4418604373931885
-0.06976741552352905 0.40331709384918213 -0.41085273027420044
-0.06976741552352905 0.4075362980365753 -0.25581395626068115
-0.06976741552352905 0.39763110876083374 -0.24031007289886475
-0.06976741552352905 0.4008180499076843 -0.22480618953704834
-0.06976741552352905 0.40402573347091675 -0.20930230617523193
-0.06976741552352905 0.4070863127708435 -0.19379842281341553
-0.06976741552352905 0.4070151150226593 -0.1782945990562439
-0.06976741552352905 0.40302473306655884 -0.1627907156944275
-0.06976741552352905 0.3972740173339844 -0.14728683233261108
-0.06976741552352905 0.39619001746177673 -0.007751941680908203
-0.06976741552352905 0.3978794813156128 0.007751941680908203
-0.06976741552352905 0.39829879999160767 0.02325582504272461
-0.06976741552352905 0.39754289388656616 0.038759708404541016
-0.06976741552352905 0.3969931900501251 0.05426358804106712
-0.06976741552352905 0.3975706100463867 0.06976747512817383
-0.06976741552352905 0.3987555503845215 0.08527135848999023
-0.06976741552352905 0.40082645416259766 0.10077524185180664
-0.06976741552352905 0.4027826189994812 0.11627912521362305
-0.06976741552352905 0.4052625894546509 0.1317828893661499
-0.06976741552352905 0.4092977046966553 0.1472867727279663
-0.06976741552352905 0.407855749130249 0.22480618953704834
-0.06976741552352905 0.3955036997795105 0.24031007289886475
-0.06976741552352905 0.41116392612457275 -0.42635661363601685
-0.06976741552352905 0.4140141010284424 -0.39534884691238403
-0.06976741552352905 0.4187384247779846 -0.27131783962249756
-0.06976741552352905 0.4135231077671051 0.16279065608978271
-0.06976741552352905 0.41715380549430847 0.17829453945159912
-0.06976741552352905 0.41906633973121643 0.19379842281341553
-0.06976741552352905 0.41649866104125977 0.20930230617523193
-0.06976741552352905 0.42676451802253723 -0.37984499335289
-0.06976741552352905 0.43511122465133667 -0.3643410801887512
-0.06976741552352905 0.4370543360710144 -0.3488371968269348
-0.06976741552352905 0.4362819194793701 -0.3333333134651184
-0.06976741552352905 0.43426281213760376 -0.317829430103302
-0.06976741552352905 0.43037986755371094 -0.30232560634613037
-0.06976741552352905 0.42652326822280884 -0.28682172298431396
-0.05426359176635742 -0.8772512078285217 0.25581395626068115
-0.05426359176635742 -0.890365719795227 0.27131783962249756
-0.05426359549164772 -0.8910973072052002 0.28682172298431396
-0.05426359176635742 -0.8854861259460449 0.30232560634613037
-0.05426359176635742 -0.8790143132209778 0.3178294897079468
-0.05426359176635742 -0.8698033094406128 0.3333333730697632
-0.05426359176635742 -0.8573893308639526 0.3488372564315796
-0.05426359176635742 -0.8341127634048462 0.24031007289886475
-0.05426358804106712 -0.8390489816665649 0.364341139793396
-0.05426359176635742 -0.8199381828308105 0.37984490394592285
-0.05426359176635742 -0.8037067651748657 0.39534878730773926
-0.05426359176635742 -0.7909308671951294 0.24031007289886475
-0.05426359176635742 -0.7888764142990112 0.41085267066955566
-0.05426359176635742 -0.7680658102035522 0.42635655403137207
-0.05426359176635742 -0.758307695388794 0.25581395626068115
-0.05426359176635742 -0.7084104418754578 0.42635655403137207
-0.05426358804106712 -0.6856048107147217 0.41085267066955566
-0.05426359176635742 -0.6712021231651306 0.25581395626068115
-0.05426359176635742 -0.6705297231674194 0.39534878730773926
-0.05426359176635742 -0.6486919522285461 0.22480618953704834
-0.05426359176635742 -0.6585044264793396 0.24031005799770355
-0.05426359176635742 -0.6483010053634644 0.37984490394592285
-0.05426359176635742 -0.6315721869468689 0.19379842281341553
-0.05426359176635742 -0.6396569609642029 0.20930230617523193
-0.05426359176635742 -0.6208352446556091 0.17829453945159912
-0.05426359176635742 -0.6070953011512756 0.16279065608978271
-0.05426359176635742 -0.6022094488143921 0.364341139793396
-0.05426359176635742 -0.5932211875915527 0.1472867727279663
-0.05426359176635742 -0.5774649381637573 0.1317828893661499
-0.05426359176635742 -0.55195552110672 0.10077524185180664
-0.05426359176635742 -0.5642184019088745 0.11627912521362305
-0.05426359176635742 -0.5473594069480896 -0.4728682041168213
-0.05426359176635742 -0.5399147868156433 -0.4573643207550049
-0.05426359176635742 -0.5389125347137451 0.08527135848999023
-0.05426359176635742 -0.5256317853927612 0.06976747512817383
-0.05426359176635742 -0.5115588903427124 0.05426359176635742
-0.05426359176635742 -0.4982200860977173 0.038759708404541016
-0.05426359176635742 -0.48376965522766113 -0.4728682041168213
-0.05426359176635742 -0.4856698215007782 0.02325582504272461
-0.05426359176635742 -0.45885878801345825 -0.4573643207550049
-0.05426359176635742 -0.4727139174938202 0.007751941680908203
-0.05426359176635742 -0.45595377683639526 -0.007751941680908203
-0.05426359176635742 -0.43598783016204834 -0.02325582504272461
-0.05426359176635742 -0.4158881604671478 -0.038759708404541016
-0.05426359176635742 -0.39806509017944336 -0.06976741552352905
-0.05426359176635742 -0.4050515294075012 -0.05426359176635742
-0.05426359176635742 -0.3876030743122101 -0.08527129888534546
-0.05426359176635742 -0.38467830419540405 0.3488372564315796
-0.05426359176635742 -0.36255934834480286 -0.08527129888534546
-0.05426359176635742 -0.3196156322956085 -0.06976741552352905
-0.05426359176635742 -0.30179935693740845 -0.06976740807294846
-0.05426359176635742 -0.27871254086494446 -0.08527129888534546
-0.05426359176635742 -0.2798955738544464 0.3333333730697632
-0.05426359176635742 -0.25619813799858093 -0.10077518224716187
-0.05426359176635742 -0.21312901377677917 -0.10077518224716187
-0.05426359176635742 -0.16327309608459473 -0.08527129888534546
-0.05426359176635742 0.01523012388497591 0.3178294897079468
-0.05426359176635742 0.03407958894968033 -0.06976741552352905
-0.05426359176635742 0.18547554314136505 0.3178294897079468
-0.05426359176635742 0.22962623834609985 0.3178294897079468
-0.05426359176635742 0.2593786120414734 -0.06976741552352905
-0.05426359176635742 0.28995123505592346 -0.08527129888534546
-0.05426359176635742 0.3141751289367676 0.30232560634613037
-0.05426359176635742 0.35166168212890625 -0.08527129888534546
-0.05426359176635742 0.34966596961021423 0.28682172298431396
-0.05426359549164772 0.364521324634552 -0.06976741552352905
-0.05426359176635742 0.37256529927253723 -0.05426359176635742
-0.05426359176635742 0.37927544116973877 -0.038759708404541016
-0.05426359176635742 0.37038829922676086 0.27131783962249756
-0.05426359176635742 0.3830203115940094 -0.02325582504272461
-0.05426359176635742 0.3867381811141968 -0.007751941680908203
-0.05426359176635742 0.3892097473144531 0.007751941680908203
-0.05426359176635742 0.3907109200954437 0.02325582504272461
-0.05426359176635742 0.39156684279441833 0.038759708404541016
-0.05426359176635742 0.3926219940185547 0.05426359176635742
-0.05426359176635742 0.39471232891082764 0.06976747512817383
-0.05426359176635742 0.38802555203437805 0.25581395626068115
-0.05426359176635742 0.39642274379730225 0.08527136594057083
-0.05426359176635742 0.39848679304122925 0.10077524185180664
-0.05426359176635742 0.4013720154762268 0.11627912521362305
-0.05426359176635742 0.40601682662963867 0.1317828893661499
-0.05426359176635742 0.40436434745788574 0.24031007289886475
-0.05426359176635742 0.41193750500679016 0.1472867727279663
-0.05426359176635742 0.4174599051475525 0.16279065608978271
-0.05426359176635742 0.42277610301971436 0.17829453945159912
-0.05426359176635742 0.4250390827655792 0.20930230617523193
-0.05426359176635742 0.41771364212036133 0.22480618953704834
-0.05426359176635742 0.4266336262226105 0.19379842281341553
-0.038759708404541016 -0.9465339779853821 0.25581395626068115
-0.038759708404541016 -0.9526180624961853 0.27131783962249756
-0.038759708404541016 -0.9461955428123474 0.28682172298431396
-0.038759708404541016 -0.9295212626457214 0.24031007289886475
-0.038759708404541016 -0.9296873807907104 0.30232560634613037
-0.038759708404541016 -0.9066408276557922 0.3178294897079468
-0.038759708404541016 -0.8872876763343811 0.3333333730697632
-0.038759708404541016 -0.8700283765792847 0.3488372564315796
-0.038759708404541016 -0.8552908301353455 0.22480618953704834
-0.038759708404541016 -0.8478420972824097 0.364341139793396
-0.038759708404541016 -0.8252918720245361 0.37984490394592285
-0.038759708404541016 -0.8095861077308655 0.22480618953704834
-0.038759708404541016 -0.8064870834350586 0.39534878730773926
-0.038759708404541016 -0.7849991321563721 0.41085267066955566
-0.038759708404541016 -0.7733128070831299 0.24031007289886475
-0.038759708404541016 -0.7486448884010315 0.25581395626068115
-0.038759708404541016 -0.6900114417076111 0.41085267066955566
-0.038759708404541016 -0.6794137358665466 0.25581395626068115
-0.038759708404541016 -0.6648572087287903 0.24031007289886475
-0.038759708404541016 -0.6663762927055359 0.39534878730773926
-0.038759708404541016 -0.6478726267814636 0.20930230617523193
-0.038759708404541016 -0.6549671292304993 0.22480618953704834
-0.038759708404541016 -0.629848062992096 0.17829453945159912
-0.038759708404541016 -0.63910973072052 0.19379842281341553
-0.038759708404541016 -0.6315218210220337 0.37984490394592285
-0.038759708404541016 -0.6189771294593811 0.16279065608978271
-0.038759708404541016 -0.6062875390052795 0.1472867727279663
-0.038759708404541016 -0.5911720395088196 0.1317828893661499
-0.038759708404541016 -0.577114999294281 0.11627912521362305
-0.038759708404541016 -0.5632930994033813 0.10077524185180664
-0.038759708404541016 -0.5649138689041138 0.3643411695957184
-0.038759708404541016 -0.548202633857727 0.08527135848999023
-0.038759708404541016 -0.5327523350715637 0.06976747512817383
-0.038759708404541016 -0.5165884494781494 0.05426359176635742
-0.038759708404541016 -0.5008363723754883 0.038759708404541016
-0.038759708404541016 -0.4861510097980499 0.02325582504272461
-0.038759708404541016 -0.4699878692626953 0.007751941215246916
-0.038759708404541016 -0.4494331479072571 -0.007751941680908203
-0.038759708404541016 -0.4234669804573059 -0.02325582318007946
-0.038759708404541016 -0.3616787791252136 -0.038759708404541016
-0.038759708404541016 -0.3629717528820038 0.3488372266292572
-0.038759708404541016 -0.3003118336200714 -0.05426359176635742
-0.038759708404541016 -0.2726466953754425 -0.08527129888534546
-0.038759708404541016 -0.28458118438720703 -0.06976741552352905
-0.038759708404541016 -0.2527732253074646 -0.10077518224716187
-0.038759708404541016 -0.1985192894935608 -0.10077518224716187
-0.038759708404541016 -0.1846778690814972 0.3333333730697632
-0.038759708404541016 -0.14168456196784973 -0.08527129888534546
-0.038759708404541016 0.15470664203166962 -0.06976741552352905
-0.038759708404541016 0.26599442958831787 0.3178294897079468
-0.038759708404541016 0.3278366029262543 0.30232560634613037
-0.038759708404541016 0.3392214775085449 -0.05426359176635742
-0.038759708404541016 0.35097742080688477 -0.038759708404541016
-0.038759708404541016 0.35724204778671265 -0.02325582504272461
-0.038759708404541016 0.3580237030982971 0.28682172298431396
-0.038759712129831314 0.3650274872779846 -0.007751941680908203
-0.038759708404541016 0.3705306053161621 0.007751941680908203
-0.038759708404541016 0.37591373920440674 0.02325582504272461
-0.038759708404541016 0.37942102551460266 0.27131783962249756
-0.038759708404541016 0.38054224848747253 0.038759708404541016
-0.038759708404541016 0.3829489052295685 0.05426358804106712
-0.038759708404541016 0.3858897089958191 0.06976747512817383
-0.038759708404541016 0.38932478427886963 0.08527135848999023
-0.038759708404541016 0.3940852880477905 0.10077524185180664
-0.038759708404541016 0.3991958498954773 0.11627912521362305
-0.038759708404541016 0.40681391954421997 0.1317828893661499
-0.038759708404541016 0.3988756835460663 0.25581395626068115
-0.038759708404541016 0.414541631937027 0.1472867727279663
-0.038759708404541016 0.4222724139690399 0.16279065608978271
-0.038759708404541016 0.4159952998161316 0.24031007289886475
-0.038759708404541016 0.4307984709739685 0.17829453945159912
-0.038759708404541016 0.4382704794406891 0.19379842281341553
-0.038759708404541016 0.43812277913093567 0.20930230617523193
-0.038759708404541016 0.4296172857284546 0.22480618953704834
-0.02325582504272461 -0.9757395386695862 0.25581395626068115
-0.02325582504272461 -0.9813876152038574 0.27131783962249756
-0.02325582504272461 -0.9771478176116943 0.28682172298431396
-0.02325582504272461 -0.9566956162452698 0.22480618953704834
-0.02325582318007946 -0.9681705832481384 0.24031005799770355
-0.02325582504272461 -0.9639205932617188 0.30232560634613037
-0.02325582504272461 -0.9388917684555054 0.3178294897079468
-0.02325582504272461 -0.9296894073486328 0.20930230617523193
-0.02325582504272461 -0.9065159559249878 0.3333333730697632
-0.02325582504272461 -0.8790346384048462 0.3488372564315796
-0.02325582504272461 -0.8525062203407288 0.364341139793396
-0.02325582504272461 -0.8282836079597473 0.20930230617523193
-0.02325582504272461 -0.8259572386741638 0.37984490394592285
-0.02325582504272461 -0.8045093417167664 0.39534878730773926
-0.02325582504272461 -0.7841135263442993 0.22480618953704834
-0.02325582504272461 -0.7649506330490112 0.24031007289886475
-0.02325582504272461 -0.7658365964889526 0.41085267066955566
-0.02325582504272461 -0.7397999167442322 0.25581395626068115
-0.02325582504272461 -0.7074034214019775 0.41085267066955566
-0.02325582504272461 -0.6891123652458191 0.25581395626068115
-0.02325582504272461 -0.6618170142173767 0.22480618953704834
-0.02325582504272461 -0.6713238954544067 0.24031007289886475
-0.02325582504272461 -0.6634040474891663 0.39534878730773926
-0.02325582504272461 -0.6445514559745789 0.19379842281341553
-0.02325582504272461 -0.6524893045425415 0.20930230617523193
-0.02325582504272461 -0.6343082189559937 0.17829453945159912
-0.02325582504272461 -0.6138354539871216 0.1472867727279663
-0.02325582504272461 -0.6231736540794373 0.16279065608978271
-0.02325582504272461 -0.6211165189743042 0.37984490394592285
-0.02325582504272461 -0.6012265682220459 0.1317828893661499
-0.02325582504272461 -0.5874514579772949 0.11627912521362305
-0.02325582504272461 -0.57270348072052 0.10077524185180664
-0.02325582504272461 -0.5552968382835388 0.08527135848999023
-0.02325582504272461 -0.5372146368026733 0.06976747512817383
-0.02325582504272461 -0.5194544196128845 0.05426359176635742
-0.02325582504272461 -0.5278491973876953 0.364341139793396
-0.02325582504272461 -0.5001035928726196 0.038759708404541016
-0.02325582504272461 -0.498348593711853 0.364341139793396
-0.02325582504272461 -0.4821656048297882 0.02325582504272461
-0.02325582504272461 -0.46340033411979675 0.007751941680908203
-0.02325582504272461 -0.44073721766471863 -0.007751941680908203
-0.02325582504272461 -0.429509699344635 0.364341139793396
-0.02325582504272461 -0.3458029627799988 -0.02325582504272461
-0.02325582504272461 -0.34229087829589844 0.3488372564315796
-0.02325582504272461 -0.29793649911880493 -0.038759708404541016
-0.02325582504272461 -0.2746692895889282 -0.06976741552352905
-0.02325582318007946 -0.2852388024330139 -0.05426359176635742
-0.02325582504272461 -0.26243823766708374 -0.08527129888534546
-0.02325582504272461 -0.2404637336730957 -0.10077518224716187
-0.02325582504272461 -0.195479154586792 -0.10077518224716187
-0.02325582504272461 -0.13583733141422272 0.3333333730697632
-0.02325582504272461 -0.12735700607299805 -0.08527129888534546
-0.02325582504272461 0.16964739561080933 -0.06976741552352905
-0.02325582504272461 0.26779162883758545 -0.05426359176635742
-0.02325582504272461 0.2995035946369171 -0.038759708404541016
-0.02325582504272461 0.29161813855171204 0.3178294897079468
-0.02325582504272461 0.3084459900856018 -0.02325582504272461
-0.02325582504272461 0.3159826397895813 -0.007751941680908203
-0.02325582504272461 0.3267618417739868 0.007751941680908203
-0.02325582504272461 0.33878254890441895 0.02325582504272461
-0.02325582504272461 0.34110820293426514 0.30232560634613037
-0.02325582504272461 0.3507130742073059 0.038759708404541016
-0.02325582504272461 0.36356401443481445 0.05426359176635742
-0.02325582504272461 0.373827189207077 0.06976747512817383
-0.02325582504272461 0.3690277338027954 0.28682172298431396
-0.02325582504272461 0.38206836581230164 0.08527135848999023
-0.02325582504272461 0.38844335079193115 0.10077524185180664
-0.02325582504272461 0.39033299684524536 0.27131783962249756
-0.02325582504272461 0.3970131576061249 0.11627912521362305
-0.02325582504272461 0.40718477964401245 0.1317828893661499
-0.02325582504272461 0.4170822501182556 0.1472867727279663
-0.02325582504272461 0.4123934507369995 0.25581395626068115
-0.02325582504272461 0.4269901216030121 0.16279065608978271
-0.02325582504272461 0.44094592332839966 0.17829453945159912
-0.02325582504272461 0.43369248509407043 0.24031007289886475
-0.02325582504272461 0.4533763527870178 0.22480618953704834
-0.02325582504272461 0.46724334359169006 0.17829453945159912
-0.02325582504272461 0.48548075556755066 0.1472867727279663
-0.02325582504272461 0.4791263937950134 0.16279065608978271
-0.02325582504272461 0.47328266501426697 0.20930230617523193
-0.02325582504272461 0.502547025680542 0.10077524185180664
-0.02325582504272461 0.49833858013153076 0.11627912521362305
-0.02325582504272461 0.49189040064811707 0.1317828893661499
-0.02325582504272461 0.496215283870697 0.19379842281341553
-0.02325582504272461 0.5152254700660706 0.06976747512817383
-0.02325582504272461 0.5097466707229614 0.08527135848999023
-0.02325582504272461 0.5137516260147095 0.17829453945159912
-0.02325582504272461 0.5302039384841919 0.038759708404541016
-0.02325582504272461 0.5221914052963257 0.05426359176635742
-0.02325582504272461 0.5304322838783264 0.16279065608978271
-0.02325582504272461 0.54481041431427 0.007751941680908203
-0.02325582504272461 0.5363384485244751 0.02325582504272461
-0.02325582504272461 0.545647919178009 0.1472867727279663
-0.02325582504272461 0.5628893375396729 -0.02325582504272461
-0.02325582504272461 0.5526862740516663 -0.007751941680908203
-0.02325582504272461 0.5589699149131775 0.1317828893661499
-0.02325582504272461 0.5755011439323425 -0.038759708404541016
-0.02325582504272461 0.5781766772270203 0.10077524185180664
-0.02325582318007946 0.5699533224105835 0.11627912521362305
-0.02325582504272461 0.5926896333694458 -0.05426359176635742
-0.02325582504272461 0.5889397859573364 0.08527135848999023
-0.02325582504272461 0.6107138395309448 0.05426359176635742
-0.02325582504272461 0.600618839263916 0.06976747512817383
-0.02325582504272461 0.6127909421920776 -0.06976741552352905
-0.02325582504272461 0.6224672794342041 0.038759708404541016
-0.02325582504272461 0.6317893266677856 -0.08527129888534546
-0.02325582504272461 0.6398313045501709 0.007751941680908203
-0.02325582504272461 0.6312978267669678 0.02325582504272461
-0.02325582504272461 0.652080774307251 -0.10077518224716187
-0.02325582504272461 0.6491878032684326 -0.007751941680908203
-0.02325582504272461 0.6609519720077515 -0.02325582504272461
-0.02325582504272461 0.678911566734314 -0.11627906560897827
-0.02325582504272461 0.6756448745727539 -0.038759708404541016
-0.02325582504272461 0.6924117803573608 -0.05426358804106712
-0.02325582690536976 0.7062832117080688 -0.13178294897079468
-0.02325582504272461 0.709652304649353 -0.06976741552352905
-0.02325582504272461 0.7335174679756165 -0.14728683233261108
-0.02325582504272461 0.7263014316558838 -0.08527129888534546
-0.02325582504272461 0.7428464889526367 -0.10077518224716187
-0.02325582504272461 0.7672938704490662 -0.1627907156944275
-0.02325582504272461 0.7594735622406006 -0.11627906560897827
-0.02325582504272461 0.7749506235122681 -0.13178294897079468
-0.02325582504272461 0.7933571338653564 -0.14728683233261108
-0.02325582504272461 0.8004720211029053 -0.1782945990562439
-0.02325582504272461 0.8219589591026306 -0.19379842281341553
-0.02325582504272461 0.8353261947631836 -0.1627907156944275
-0.02325582504272461 0.8526903390884399 -0.20930230617523193
-0.02325582504272461 0.8938277363777161 -0.1782945990562439
-0.02325582504272461 0.9309568405151367 -0.19379842281341553
-0.02325582504272461 0.9436839818954468 -0.20930230617523193
-0.007751941680908203 -0.9868555665016174 0.25581395626068115
-0.007751941680908203 -0.9893901944160461 0.27131783962249756
-0.007751941680908203 -0.9886476397514343 0.28682172298431396
-0.007751941680908203 -0.9779093265533447 0.24031007289886475
-0.007751941680908203 -0.9780399799346924 0.30232560634613037
-0.007751941680908203 -0.9545935988426208 0.20930230617523193
-0.00775194214656949 -0.9689396619796753 0.22480620443820953
-0.007751941680908203 -0.9548705816268921 0.3178294897079468
-0.007751941680908203 -0.9162876605987549 0.3333333730697632
-0.007751941680908203 -0.8827517032623291 0.3488372564315796
-0.007751941680908203 -0.8535853624343872 0.364341139793396
-0.007751941680908203 -0.8259498476982117 0.37984490394592285
-0.007751941680908203 -0.8049668669700623 0.20930230617523193
-0.007751941680908203 -0.8013737797737122 0.39534878730773926
-0.007751941680908203 -0.779090166091919 0.22480618953704834
-0.007751941680908203 -0.7615662813186646 0.24031007289886475
-0.007751941680908203 -0.7323392629623413 0.25581395626068115
-0.007751941680908203 -0.6982855796813965 0.25581395626068115
-0.007751941680908203 -0.6765009164810181 0.24031007289886475
-0.007751941680908203 -0.664810299873352 0.22480618953704834
-0.007751941680908203 -0.6688541173934937 0.39534878730773926
-0.007751941680908203 -0.6464493274688721 0.19379842281341553
-0.007751941680908203 -0.6549035906791687 0.20930230617523193
-0.007751941680908203 -0.6352902054786682 0.17829453945159912
-0.007751941680908203 -0.615822434425354 0.1472867727279663
-0.007751941680908203 -0.6245005130767822 0.16279065608978271
-0.007751941680908203 -0.6248961687088013 0.37984490394592285
-0.007751941680908203 -0.6039808392524719 0.1317828893661499
-0.007751941680908203 -0.5915260314941406 0.11627912521362305
-0.007751941680908203 -0.5770518779754639 0.10077524185180664
-0.007751941680908203 -0.5589722990989685 0.08527135848999023
-0.007751941680908203 -0.5394685864448547 0.06976747512817383
-0.007751941680908203 -0.5205600261688232 0.05426359176635742
-0.007751941680908203 -0.5309493541717529 0.364341139793396
-0.007751941680908203 -0.5061501860618591 0.364341139793396
-0.007751941680908203 -0.49948883056640625 0.038759708404541016
-0.007751941680908203 -0.48028093576431274 0.02325582504272461
-0.007751941680908203 -0.4604963958263397 0.007751941680908203
-0.007751941680908203 -0.4149847626686096 0.364341139793396
-0.00775194214656949 -0.33186790347099304 -0.00775194214656949
-0.00775194214656949 -0.3312242031097412 0.3488372564315796
-0.007751941680908203 -0.29567068815231323 -0.02325582504272461
-0.007751941680908203 -0.2759239673614502 -0.05426359176635742
-0.007751941215246916 -0.2841661274433136 -0.038759708404541016
-0.007751941680908203 -0.25635775923728943 -0.08527129888534546
-0.007751941680908203 -0.2680332064628601 -0.06976741552352905
-0.007751941680908203 -0.21242938935756683 -0.10077518224716187
-0.007751941680908203 -0.20815321803092957 -0.10077518224716187
-0.007751941680908203 -0.12610211968421936 -0.08527129888534546
-0.007751941215246916 -0.09830912947654724 0.3333333730697632
-0.007751941680908203 0.16287359595298767 -0.06976740807294846
-0.007751941680908203 0.2500762343406677 -0.05426359176635742
-0.007751941680908203 0.26959797739982605 -0.038759708404541016
-0.007751941680908203 0.27673494815826416 -0.02325582504272461
-0.007751941680908203 0.28171274065971375 -0.007751941680908203
-0.007751941680908203 0.29376253485679626 0.007751941680908203
-0.007751941680908203 0.31236326694488525 0.02325582504272461
-0.007751941680908203 0.3048552870750427 0.31782951951026917
-0.007751941680908203 0.32915550470352173 0.038759708404541016
-0.007751941680908203 0.34657683968544006 0.05426359176635742
-0.007751941680908203 0.3494775891304016 0.30232560634613037
-0.007751941680908203 0.36545780301094055 0.06976747512817383
-0.007751941680908203 0.3787398338317871 0.08527135848999023
-0.007751941680908203 0.3758874237537384 0.28682172298431396
-0.007751941680908203 0.3862583339214325 0.10077524185180664
-0.007751941680908203 0.39674556255340576 0.11627912521362305
-0.007751941680908203 0.4085626006126404 0.1317828893661499
-0.007751941680908203 0.4009403586387634 0.27131783962249756
-0.007751941680908203 0.4198745787143707 0.1472867727279663
-0.007751941680908203 0.42506852746009827 0.25581395626068115
-0.007751941680908203 0.4351687431335449 0.16279065608978271
-0.007751941680908203 0.45128726959228516 0.24031007289886475
-0.007751941680908203 0.4699570834636688 0.1472867727279663
-0.007751941680908203 0.4588407278060913 0.16279065608978271
-0.007751941680908203 0.4861186742782593 0.11627912521362305
-0.007751941680908203 0.47978731989860535 0.1317828893661499
-0.007751941680908203 0.47852885723114014 0.22480618953704834
-0.007751941680908203 0.5000795722007751 0.08527135848999023
-0.007751941680908203 0.4946138262748718 0.10077524185180664
-0.007751941680908203 0.49775397777557373 0.20930230617523193
-0.007751941680908203 0.5138232707977295 0.05426359176635742
-0.007751941680908203 0.5040964484214783 0.06976748257875443
-0.007751941680908203 0.5127232670783997 0.19379842281341553
-0.007751941680908203 0.5296103954315186 0.02325582504272461
-0.007751941680908203 0.5204265713691711 0.038759708404541016
-0.007751941680908203 0.5274820327758789 0.17829453945159912
-0.007751941680908203 0.5467255711555481 -0.007751941680908203
-0.007751941680908203 0.5379433035850525 0.007751941680908203
-0.007751941680908203 0.5419964790344238 0.16279065608978271
-0.007751941680908203 0.5575751662254333 -0.02325582504272461
-0.007751941680908203 0.5564779043197632 0.1472867727279663
-0.007751941680908203 0.5804035663604736 -0.05426359176635742
-0.007751941680908203 0.566007673740387 -0.038759708404541016
-0.007751941680908203 0.5705755949020386 0.1317828893661499
-0.007751941680908203 0.5940514206886292 0.10077524185180664
-0.007751941680908203 0.5832527875900269 0.11627912521362305
-0.007751941215246916 0.6004074811935425 -0.06976741552352905
-0.007751941680908203 0.6058163642883301 0.08527135848999023
-0.007751941680908203 0.6222431659698486 -0.08527129888534546
-0.007751941680908203 0.6253126859664917 0.05426359176635742
-0.007751941215246916 0.6167536973953247 0.06976747512817383
-0.007751941680908203 0.6424995064735413 -0.10077518224716187
-0.007751941680908203 0.6364560723304749 0.038759708404541016
-0.007751941680908203 0.6542267203330994 0.007751941680908203
-0.007751941680908203 0.6452364921569824 0.02325582504272461
-0.007751941680908203 0.6708989143371582 -0.11627906560897827
-0.007751941680908203 0.6648508310317993 -0.007751941680908203
-0.007751941680908203 0.676494300365448 -0.02325582318007946
-0.007751941680908203 0.7019855976104736 -0.13178294897079468
-0.007751941680908203 0.69025719165802 -0.038759708404541016
-0.007751941680908203 0.7060474753379822 -0.05426359549164772
-0.007751941680908203 0.727778434753418 -0.14728683233261108
-0.007751941680908203 0.7216819524765015 -0.06976741552352905
-0.007751941680908203 0.7514368891716003 -0.1627907156944275
-0.007751941680908203 0.7379621267318726 -0.08527129888534546
-0.007751941680908203 0.7544838786125183 -0.10077518224716187
-0.007751941680908203 0.7767812013626099 -0.1782945990562439
-0.007751941680908203 0.7704517841339111 -0.11627906560897827
-0.007751941680908203 0.7958081960678101 -0.19379842281341553
-0.007751941680908203 0.787656307220459 -0.13178294897079468
-0.007751941680908203 0.8274410367012024 -0.20930230617523193
-0.007751941215246916 0.8141232132911682 -0.14728683233261108
-0.00775194214656949 0.8618376851081848 -0.1627907156944275
-0.007751941680908203 0.9078882336616516 -0.1782945990562439
-0.007751941680908203 0.9542142152786255 -0.19379842281341553
-0.007751941680908203 0.9752093553543091 -0.20930232107639313
0.007751941680908203 -0.9865027070045471 0.25581395626068115
0.007751941680908203 -0.9890975952148438 0.27131783962249756
0.007751941680908203 -0.9882318377494812 0.28682172298431396
0.007751941680908203 -0.9772618412971497 0.24031007289886475
0.007751941680908203 -0.9769632816314697 0.30232560634613037
0.007751941680908203 -0.9544501900672913 0.20930230617523193
0.007751941680908203 -0.9686731100082397 0.22480618953704834
0.007751941680908203 -0.954054057598114 0.3178294897079468
0.007751941680908203 -0.915207028388977 0.3333333730697632
0.007751941680908203 -0.8815377950668335 0.3488372564315796
0.007751941680908203 -0.8528329133987427 0.364341139793396
0.007751941680908203 -0.8256505727767944 0.37984490394592285
0.007751941215246916 -0.8090403079986572 0.20930230617523193
0.007751941680908203 -0.8010451793670654 0.39534878730773926
0.007751941680908203 -0.7805095911026001 0.22480618953704834
0.007751941680908203 -0.762999951839447 0.24031007289886475
0.007751941680908203 -0.7366275191307068 0.25581395626068115
0.007751941680908203 -0.6951153874397278 0.25581395626068115
0.007751941680908203 -0.6750609874725342 0.24031007289886475
0.007751941680908203 -0.6638128757476807 0.22480618953704834
0.007751941680908203 -0.6698281764984131 0.39534878730773926
0.007751941680908203 -0.6452320218086243 0.19379842281341553
0.007751941680908203 -0.6535483002662659 0.20930230617523193
0.007751941680908203 -0.6339424848556519 0.17829453945159912
0.007751941680908203 -0.613899827003479 0.1472867727279663
0.007751941680908203 -0.6227282285690308 0.16279065608978271
0.007751941680908203 -0.6256889700889587 0.37984490394592285
0.007751941680908203 -0.6021587252616882 0.1317828893661499
0.007751941680908203 -0.5893410444259644 0.11627912521362305
0.007751941680908203 -0.5744059085845947 0.10077524185180664
0.007751941680908203 -0.5563046336174011 0.08527135848999023
0.007751941680908203 -0.5371934175491333 0.06976747512817383
0.007751941680908203 -0.5384262204170227 0.364341139793396
0.007751941680908203 -0.5177661180496216 0.05426359176635742
0.007751941680908203 -0.4966118335723877 0.038759708404541016
0.007751941680908203 -0.5022846460342407 0.364341139793396
0.007751941680908203 -0.47817227244377136 0.02325582504272461
0.007751941680908203 -0.45865821838378906 0.007751941680908203
0.007751941680908203 -0.4151274859905243 0.364341139793396
0.007751941680908203 -0.3318614065647125 0.3488372564315796
0.007751941680908203 -0.31644123792648315 -0.007751941680908203
0.007751941680908203 -0.2919124960899353 -0.02325582504272461
0.007751941680908203 -0.27427637577056885 -0.05426359176635742
0.007751941680908203 -0.2813287377357483 -0.038759708404541016
0.00775194214656949 -0.26550060510635376 -0.06976741552352905
0.007751941680908203 -0.2535387873649597 -0.08527129888534546
0.007751941680908203 -0.13290299475193024 -0.08527129888534546
0.007751941680908203 -0.09807241708040237 0.3333333730697632
0.007751941680908203 0.15942130982875824 -0.06976741552352905
0.007751941680908203 0.2453550100326538 -0.05426359176635742
0.007751941680908203 0.2658745348453522 -0.038759708404541016
0.007751941680908203 0.27305757999420166 -0.02325582504272461
0.007751941680908203 0.27848386764526367 -0.007751941680908203
0.007751941680908203 0.2894909977912903 0.007751941680908203
0.007751941680908203 0.3092876076698303 0.02325582504272461
0.007751941680908203 0.30329808592796326 0.3178294897079468
0.007751941680908203 0.326374888420105 0.038759708404541016
0.007751941680908203 0.343683660030365 0.05426359176635742
0.007751941680908203 0.3631262481212616 0.06976747512817383
0.007751941680908203 0.34894323348999023 0.30232560634613037
0.007751941680908203 0.3764379620552063 0.08527135848999023
0.007751941680908203 0.37556031346321106 0.28682172298431396
0.007751941680908203 0.3848780393600464 0.10077524185180664
0.007751941680908203 0.3951982855796814 0.11627912521362305
0.007751941680908203 0.4058305025100708 0.1317828893661499
0.007751941680908203 0.40056174993515015 0.27131783962249756
0.007751941680908203 0.4171310067176819 0.1472867727279663
0.007751941680908203 0.425081729888916 0.25581395626068115
0.007751941680908203 0.43129464983940125 0.16279065608978271
0.007751941680908203 0.45109695196151733 0.24031007289886475
0.007751941680908203 0.47257164120674133 0.1472867727279663
0.007751941680908203 0.46310070157051086 0.16279065608978271
0.007751941680908203 0.48732835054397583 0.11627912521362305
0.007751941680908203 0.4820406436920166 0.1317828893661499
0.007751941680908203 0.4775361716747284 0.22480618953704834
0.007751941680908203 0.5012232065200806 0.08527135848999023
0.007751941680908203 0.49663689732551575 0.10077524185180664
0.007751941680908203 0.49657464027404785 0.20930230617523193
0.007751941680908203 0.5154502987861633 0.05426359176635742
0.007751941680908203 0.5078966021537781 0.06976747512817383
0.007751941680908203 0.5118869543075562 0.19379842281341553
0.007751941680908203 0.5310407876968384 0.02325582504272461
0.007751941680908203 0.523758590221405 0.038759708404541016
0.007751941680908203 0.5267082452774048 0.17829453945159912
0.007751941680908203 0.5474924445152283 -0.007751941680908203
0.007751941680908203 0.5398838520050049 0.007751941680908203
0.007751941680908203 0.5412940979003906 0.16279065608978271
0.007751941680908203 0.5582445859909058 -0.02325582504272461
0.007751941680908203 0.555808961391449 0.1472867727279663
0.007751941680908203 0.5811914801597595 -0.05426359176635742
0.007751941680908203 0.5672388076782227 -0.038759708404541016
0.007751941680908203 0.5699409246444702 0.1317828893661499
0.007751941680908203 0.5934467911720276 0.10077524185180664
0.007751941680908203 0.5827111601829529 0.11627912521362305
0.007751941680908203 0.6022074222564697 -0.06976741552352905
0.007751941680908203 0.6053115725517273 0.08527135848999023
0.007751941680908203 0.6238469481468201 -0.08527129888534546
0.007751941680908203 0.6250856518745422 0.05426359176635742
0.00775194214656949 0.6163085103034973 0.06976747512817383
0.007751941680908203 0.6362527012825012 0.038759708404541016
0.007751941215246916 0.6451143026351929 -0.10077518224716187
0.007751941680908203 0.6539188623428345 0.007751941680908203
0.007751941680908203 0.6449021100997925 0.02325582504272461
0.007751941680908203 0.6736584901809692 -0.11627906560897827
0.007751941680908203 0.6642118692398071 -0.007751941680908203
0.007751941680908203 0.6888709664344788 -0.038759708404541016
0.007751941680908203 0.6754273176193237 -0.02325582504272461
0.007751941680908203 0.7039481401443481 -0.13178294897079468
0.007751941680908203 0.704559862613678 -0.05426359176635742
0.007751941680908203 0.7200005054473877 -0.06976741552352905
0.007751941680908203 0.7302843332290649 -0.14728683233261108
0.007751941680908203 0.7362046241760254 -0.08527129888534546
0.007751941680908203 0.7561237812042236 -0.1627907156944275
0.007751941680908203 0.7529048919677734 -0.10077518224716187
0.007751941680908203 0.780878484249115 -0.1782945990562439
0.007751941680908203 0.7691341638565063 -0.11627907305955887
0.007751941680908203 0.7861008048057556 -0.13178294897079468
0.007751941680908203 0.8011267185211182 -0.19379842281341553
0.007751941680908203 0.8112919926643372 -0.14728683233261108
0.007751941680908203 0.8334075212478638 -0.20930230617523193
0.007751941680908203 0.8615366220474243 -0.16279073059558868
0.007751941215246916 0.9076979160308838 -0.1782945990562439
0.007751941680908203 0.9535025358200073 -0.19379842281341553
0.007751941680908203 0.9738365411758423 -0.20930230617523193
0.02325582504272461 -0.9739261865615845 0.25581395626068115
0.02325582504272461 -0.9781256914138794 0.27131783962249756
0.02325582504272461 -0.9745171070098877 0.28682172298431396
0.02325582504272461 -0.9560345411300659 0.22480618953704834
0.02325582504272461 -0.9665250182151794 0.24031007289886475
0.02325582504272461 -0.9610766172409058 0.30232560634613037
0.02325582504272461 -0.9248379468917847 0.20930230617523193
0.02325582504272461 -0.9349583983421326 0.3178294897079468
0.02325582504272461 -0.9018147587776184 0.3333333730697632
0.02325582504272461 -0.8891417980194092 0.20930230617523193
0.02325582504272461 -0.875954806804657 0.3488372564315796
0.02325582504272461 -0.8505101799964905 0.364341139793396
0.02325582504272461 -0.8260563611984253 0.37984490394592285
0.02325582504272461 -0.8046619296073914 0.39534878730773926
0.02325582504272461 -0.7922195196151733 0.22480618953704834
0.02325582504272461 -0.7708322405815125 0.24031007289886475
0.02325582504272461 -0.7693210244178772 0.41085267066955566
0.02325582504272461 -0.7467857003211975 0.25581395626068115
0.02325582504272461 -0.7110945582389832 0.41085267066955566
0.02325582504272461 -0.6833890676498413 0.25581395626068115
0.02325582504272461 -0.6671634912490845 0.24031007289886475
0.02325582504272461 -0.6664251089096069 0.39534878730773926
0.02325582504272461 -0.6492937803268433 0.20930230617523193
0.02325582504272461 -0.6582143902778625 0.22480618953704834
0.02325582504272461 -0.6306363344192505 0.17829453945159912
0.02325582690536976 -0.6400448083877563 0.19379843771457672
0.02325582504272461 -0.6196203231811523 0.16279065608978271
0.02325582504272461 -0.6247202754020691 0.37984490394592285
0.02325582318007946 -0.6084684729576111 0.1472867727279663
0.02325582504272461 -0.5831038951873779 0.11627912521362305
0.02325582504272461 -0.5966551899909973 0.1317828893661499
0.02325582504272461 -0.5680826902389526 0.10077524185180664
0.02325582504272461 -0.5510976910591125 0.08527135848999023
0.02325582504272461 -0.5447583794593811 0.364341139793396
0.02325582504272461 -0.5328580141067505 0.06976747512817383
0.02325582504272461 -0.5137384533882141 0.05426359549164772
0.02325582504272461 -0.4950433671474457 0.038759708404541016
0.02325582504272461 -0.48944300413131714 0.364341139793396
0.02325582504272461 -0.47792792320251465 0.02325582504272461
0.02325582504272461 -0.45987555384635925 0.007751941680908203
0.02325582504272461 -0.4325987696647644 -0.007751941680908203
0.02325582504272461 -0.4327748417854309 0.364341139793396
0.02325582504272461 -0.34349071979522705 0.3488372564315796
0.02325582318007946 -0.3155915439128876 -0.02325582318007946
0.02325582504272461 -0.29180842638015747 -0.038759708404541016
0.02325582504272461 -0.27226296067237854 -0.06976741552352905
0.02325582504272461 -0.2802317440509796 -0.05426359176635742
0.02325582504272461 -0.2594442367553711 -0.08527129888534546
0.02325582504272461 -0.2261171042919159 -0.10077518224716187
0.02325582504272461 -0.21270667016506195 -0.10077518224716187
0.02325582504272461 -0.1395089328289032 -0.08527129888534546
0.02325582504272461 -0.13900020718574524 0.3333333730697632
0.02325582504272461 0.15257006883621216 -0.06976741552352905
0.02325582504272461 0.25274842977523804 -0.05426359176635742
0.02325582504272461 0.2816726565361023 -0.038759708404541016
0.02325582504272461 0.2851509749889374 0.3178294897079468
0.02325582504272461 0.2938153147697449 -0.02325582504272461
0.02325582504272461 0.30249345302581787 -0.007751941680908203
0.02325582504272461 0.3155665099620819 0.007751941680908203
0.02325582504272461 0.32916975021362305 0.02325582504272461
0.02325582504272461 0.34142330288887024 0.038759708404541016
0.02325582504272461 0.3383418917655945 0.30232560634613037
0.02325582504272461 0.35475170612335205 0.05426359176635742
0.02325582504272461 0.3673374652862549 0.06976747512817383
0.02325582504272461 0.3773440420627594 0.08527135848999023
0.02325582504272461 0.36665570735931396 0.28682172298431396
0.02325582504272461 0.38373851776123047 0.10077524185180664
0.02325582504272461 0.39100682735443115 0.11627912521362305
0.02325582504272461 0.3887718617916107 0.27131783962249756
0.02325582504272461 0.3999086916446686 0.1317828893661499
0.02325582504272461 0.4090365767478943 0.1472867727279663
0.02325582504272461 0.4167543351650238 0.16279065608978271
0.02325582690536976 0.41184544563293457 0.25581395626068115
0.02325582504272461 0.4267561435699463 0.17829453945159912
0.02325582504272461 0.4326770305633545 0.24031007289886475
0.02325582504272461 0.4421001076698303 0.19379842281341553
0.02325582504272461 0.45409101247787476 0.20930230617523193
0.02325582504272461 0.4486939311027527 0.22480618953704834
0.02325582504272461 0.5189984440803528 0.08527135848999023
0.02325582504272461 0.5156648755073547 0.10077524185180664
0.02325582504272461 0.5117565393447876 0.11627912521362305
0.02325582504272461 0.5078633427619934 0.1317828893661499
0.02325582504272461 0.5069722533226013 0.1472867727279663
0.02325582504272461 0.5346950888633728 0.05426359176635742
0.02325582504272461 0.5287019610404968 0.06976747512817383
0.02325582504272461 0.5460993647575378 0.02325582504272461
0.02325582504272461 0.5420807600021362 0.038759708404541016
0.02325582504272461 0.5390881896018982 0.1472867727279663
0.02325582504272461 0.5598469972610474 -0.007751941680908203
0.02325582504272461 0.5506191253662109 0.007751941680908203
0.02325582504272461 0.5634961128234863 0.11627912521362305
0.02325582504272461 0.5535264611244202 0.1317828893661499
0.02325582504272461 0.5694180130958557 -0.02325582504272461
0.02325582504272461 0.5714043974876404 0.10077524185180664
0.02325582504272461 0.5851713418960571 -0.038759708404541016
0.02325582504272461 0.5949530601501465 0.06976747512817383
0.02325582504272461 0.5816677212715149 0.08527135848999023
0.02325582504272461 0.609697699546814 -0.05426359176635742
0.02325582504272461 0.6083196401596069 0.05426359176635742
0.02325582504272461 0.6207247376441956 0.038759708404541016
0.02325582504272461 0.6279115080833435 -0.06976741552352905
0.02325582504272461 0.6374232172966003 0.007751941680908203
0.02325582504272461 0.6293936967849731 0.02325582504272461
0.02325582504272461 0.6436930298805237 -0.08527129888534546
0.02325582504272461 0.6536972522735596 -0.02325582504272461
0.02325582504272461 0.6445542573928833 -0.007751941680908203
0.02325582504272461 0.6652071475982666 -0.10077518224716187
0.02325582504272461 0.6672755479812622 -0.038759708404541016
0.02325582504272461 0.6888200640678406 -0.11627906560897827
0.02325582504272461 0.6846539378166199 -0.05426359176635742
0.02325582504272461 0.7012786865234375 -0.06976741552352905
0.02325582504272461 0.715641975402832 -0.13178294897079468
0.02325582504272461 0.7175897359848022 -0.08527129888534546
0.02325582504272461 0.7331967949867249 -0.10077518224716187
0.02325582504272461 0.7513510584831238 -0.14728683233261108
0.02325582504272461 0.747989296913147 -0.11627906560897827
0.02325582504272461 0.7530158162117004 -0.14728683233261108
0.02325582504272461 0.7578703165054321 -0.13178294897079468
0.038759708404541016 -0.9398525953292847 0.25581395626068115
0.038759708404541016 -0.9465969800949097 0.27131783962249756
0.038759708404541016 -0.940464198589325 0.28682172298431396
0.038759708404541016 -0.9239495396614075 0.30232560634613037
0.038759708404541016 -0.9183314442634583 0.24031007289886475
0.038759708404541016 -0.9013407230377197 0.3178294897079468
0.038759708404541016 -0.8819870948791504 0.3333333730697632
0.038759708404541016 -0.8651922941207886 0.3488372564315796
0.038759708404541016 -0.8446168303489685 0.364341139793396
0.038759708404541016 -0.8240472674369812 0.37984490394592285
0.038759708404541016 -0.8053354024887085 0.39534878730773926
0.038759708404541016 -0.7852165699005127 0.41085267066955566
0.038759708404541016 -0.779626727104187 0.24031007289886475
0.038759708404541016 -0.7555131912231445 0.25581395626068115
0.038759708404541016 -0.6959803104400635 0.41085267066955566
0.038759708404541016 -0.661766529083252 0.24031007289886475
0.038759708404541016 -0.674377977848053 0.25581395626068115
0.038759708404541016 -0.6711814403533936 0.39534878730773926
0.038759708404541016 -0.6447973251342773 0.20930230617523193
0.038759708404541016 -0.6516216993331909 0.22480618953704834
0.038759708404541016 -0.6357280015945435 0.19379842281341553
0.038759708404541016 -0.6383152008056641 0.37984493374824524
0.038759708404541016 -0.6140594482421875 0.16279065608978271
0.038759708404541016 -0.6247981190681458 0.17829453945159912
0.038759708404541016 -0.601513147354126 0.1472867727279663
0.038759708404541016 -0.585818886756897 0.1317828893661499
0.038759708404541016 -0.5717771053314209 0.11627912521362305
0.038759708404541016 -0.5799726247787476 0.364341139793396
0.038759708404541016 -0.557603120803833 0.10077524185180664
0.038759708404541016 -0.5422590374946594 0.08527135848999023
0.038759708404541016 -0.5265157222747803 0.06976747512817383
0.038759708404541016 -0.5101069211959839 0.05426359176635742
0.038759708404541016 -0.49408191442489624 0.038759708404541016
0.038759708404541016 -0.47874563932418823 0.02325582504272461
0.038759708404541016 -0.4626122713088989 0.007751941680908203
0.038759708404541016 -0.44304636120796204 -0.007751941680908203
0.038759708404541016 -0.39895063638687134 -0.02325582504272461
0.038759708404541016 -0.36433306336402893 0.3488372564315796
0.038759708404541016 -0.32056689262390137 -0.038759708404541016
0.038759708404541016 -0.29236283898353577 -0.05426359176635742
0.038759708404541016 -0.27873629331588745 -0.06976741552352905
0.03875970467925072 -0.2688215970993042 -0.08527129888534546
0.038759708404541016 -0.24416060745716095 -0.10077518224716187
0.038759708404541016 -0.21039539575576782 -0.10077518224716187
0.038759708404541016 -0.18667632341384888 0.3333333730697632
0.038759708404541016 -0.15288572013378143 -0.08527129888534546
0.038759708404541016 0.06870468705892563 0.3178294897079468
0.038759708404541016 0.07008318603038788 -0.06976741552352905
0.038759708404541016 0.13094812631607056 0.3178294897079468
0.038759708404541016 0.2669244408607483 -0.05426359176635742
0.038759708404541016 0.25625377893447876 0.3178294897079468
0.038759708404541016 0.29163599014282227 -0.05426359176635742
0.038759708404541016 0.3086470365524292 -0.05426359176635742
0.038759708404541016 0.32120782136917114 0.30232560634613037
0.038759708404541016 0.333536297082901 -0.038759708404541016
0.038759708404541016 0.34100091457366943 -0.02325582504272461
0.038759708404541016 0.35018450021743774 -0.007751941680908203
0.038759708404541016 0.356855571269989 0.007751941680908203
0.038759708404541016 0.3637855350971222 0.02325582504272461
0.038759708404541016 0.35409244894981384 0.28682172298431396
0.038759708404541016 0.3676917254924774 0.038759708404541016
0.038759708404541016 0.3722727596759796 0.05426359176635742
0.038759708404541016 0.3772434592247009 0.06976747512817383
0.038759708404541016 0.37623801827430725 0.27131783962249756
0.038759708404541016 0.3818112313747406 0.08527135848999023
0.038759708404541016 0.385702908039093 0.10077524185180664
0.038759708404541016 0.39083999395370483 0.11627912521362305
0.038759708404541016 0.3974740207195282 0.1317828893661499
0.038759708404541016 0.40358036756515503 0.1472867727279663
0.038759708404541016 0.410111665725708 0.16279065608978271
0.038759708404541016 0.3960740864276886 0.25581395626068115
0.038759708404541016 0.41593581438064575 0.17829453945159912
0.038759708404541016 0.4216098487377167 0.19379842281341553
0.038759708404541016 0.4238957464694977 0.20930230617523193
0.038759708404541016 0.42175358533859253 0.22480618953704834
0.038759708404541016 0.41194379329681396 0.24031007289886475
0.05426359176635742 -0.8828907012939453 0.27131783962249756
0.05426359176635742 -0.8854106664657593 0.28682172298431396
0.05426359176635742 -0.8817352056503296 0.30232560634613037
0.05426359176635742 -0.8650507926940918 0.25581395626068115
0.05426359176635742 -0.8740990161895752 0.3178294897079468
0.05426359176635742 -0.8663283586502075 0.3333333730697632
0.05426359176635742 -0.8535754084587097 0.3488372564315796
0.05426359176635742 -0.8357993960380554 0.364341139793396
0.05426359176635742 -0.8174571990966797 0.37984490394592285
0.05426359176635742 -0.8024202585220337 0.39534878730773926
0.05426359176635742 -0.7881495952606201 0.41085267066955566
0.05426359176635742 -0.7680525183677673 0.42635655403137207
