-0.4129009544849396 0.4418604373931885 -0.3643410801887512
-0.4235222041606903 0.4573643207550049 -0.7054263353347778
-0.41132867336273193 0.4573643207550049 -0.3643410801887512
-0.4249046742916107 0.4728682041168213 -0.7054263353347778
-0.42361536622047424 0.5038759708404541 -0.7054263353347778
-0.42050236463546753 0.5193798542022705 -0.7054263353347778
-0.41584888100624084 0.5348837375640869 -0.7054263353347778
-0.41159260272979736 0.5503876209259033 -0.7054263353347778
-0.4261302649974823 0.751937985420227 -0.643410861492157
-0.4032667279243469 -0.5348837375640869 -0.007751941680908203
-0.4073620140552521 -0.5193798542022705 -0.007751941680908203
-0.40896785259246826 -0.5038759708404541 -0.007751941215246916
-0.40168553590774536 -0.4883720874786377 -0.007751941680908203
-0.4037933945655823 -0.20930230617523193 -0.41085273027420044
-0.39958420395851135 -0.19379842281341553 -0.5503876209259033
-0.39701375365257263 -0.19379842281341553 -0.5348837375640869
-0.3990590572357178 -0.19379842281341553 -0.42635661363601685
-0.40705591440200806 -0.19379842281341553 -0.41085273027420044
-0.3966953158378601 -0.1782945990562439 -0.5503876209259033
-0.3965142071247101 -0.1782945990562439 -0.42635661363601685
-0.40413033962249756 -0.1782945990562439 -0.41085273027420044
-0.40970948338508606 -0.1782945990562439 -0.39534884691238403
-0.40092018246650696 -0.1627907156944275 -0.41085273027420044
-0.40890446305274963 -0.1627907007932663 -0.39534881711006165
-0.4045393168926239 -0.14728683233261108 -0.39534884691238403
-0.3982469439506531 -0.13178294897079468 -0.3488371968269348
-0.3980795443058014 -0.11627906560897827 -0.3488371968269348
-0.3997461199760437 -0.10077518224716187 -0.3488371968269348
-0.3955530524253845 -0.08527129888534546 -0.7054263353347778
-0.4066431522369385 -0.08527129888534546 -0.3488371968269348
-0.39764881134033203 -0.06976741552352905 -0.39534884691238403
-0.4040405750274658 -0.06976741552352905 -0.3488371968269348
-0.4007996916770935 -0.05426359176635742 -0.39534884691238403
-0.3959434926509857 -0.038759708404541016 -0.7054263353347778
-0.39606383442878723 -0.02325582504272461 -0.7054263353347778
-0.40961506962776184 -0.02325582504272461 -0.3643410801887512
-0.3958907425403595 -0.007751941680908203 -0.7054263353347778
-0.39786601066589355 -0.007751941680908203 -0.3643410801887512
-0.4001432955265045 0.007751941680908203 -0.7054263353347778
-0.39990073442459106 0.007751941680908203 -0.3798449635505676
-0.4102226197719574 0.007751941215246916 -0.3643410801887512
-0.405611515045166 0.02325582504272461 -0.7054263353347778
-0.4054860472679138 0.02325582504272461 -0.4418604373931885
-0.4069308340549469 0.038759708404541016 -0.7054263353347778
-0.3990592956542969 0.038759708404541016 -0.5503876209259033
-0.39919015765190125 0.038759708404541016 -0.5348837375640869
-0.3971506357192993 0.038759708404541016 -0.5193798542022705
-0.39920854568481445 0.038759708404541016 -0.5038759708404541
-0.3994729220867157 0.038759708404541016 -0.4883720874786377
-0.4005504250526428 0.038759708404541016 -0.4728682041168213
-0.40653854608535767 0.038759708404541016 -0.4573643207550049
-0.3963950574398041 0.05426359176635742 -0.5503876209259033
-0.3971744775772095 0.05426359176635742 -0.5348837375640869
-0.39619848132133484 0.05426359176635742 -0.5193798542022705
-0.39874398708343506 0.05426359176635742 -0.5038759708404541
-0.39962178468704224 0.05426359176635742 -0.4883720874786377
-0.4010242223739624 0.05426359176635742 -0.4728682041168213
-0.40809768438339233 0.05426359549164772 -0.45736435055732727
-0.39614906907081604 0.06976747512817383 -0.5503876209259033
-0.3974292576313019 0.06976747512817383 -0.5348837375640869
-0.39707139134407043 0.06976747512817383 -0.5193798542022705
-0.3997972905635834 0.06976747512817383 -0.5038759708404541
-0.401799738407135 0.06976747512817383 -0.4883720874786377
-0.40478843450546265 0.06976747512817383 -0.4728682339191437
-0.39690080285072327 0.08527135848999023 -0.5193798542022705
-0.4014328122138977 0.08527135848999023 -0.5038759708404541
-0.4057326316833496 0.08527135848999023 -0.4883720874786377
-0.3964073956012726 0.08527135848999023 -0.28682172298431396
-0.3957619369029999 0.10077524185180664 -0.5038759708404541
-0.4023488461971283 0.10077524185180664 -0.4883720874786377
-0.401672899723053 0.11627912521362305 -0.4728682041168213
-0.4067518413066864 0.1317828893661499 -0.4573643207550049
-0.39576977491378784 0.1472867727279663 -0.4573643207550049
-0.4026281237602234 0.16279065608978271 -0.4418604373931885
-0.401081919670105 0.17829453945159912 -0.4418604373931885
-0.40640950202941895 0.19379840791225433 -0.4418604373931885
-0.40006783604621887 0.20930230617523193 -0.4573643207550049
-0.40298110246658325 0.22480618953704834 -0.4573643207550049
-0.39670994877815247 0.24031007289886475 -0.4573643207550049
-0.39551910758018494 0.25581395626068115 -0.4418604373931885
-0.40992113947868347 0.27131783962249756 -0.41085273027420044
-0.4048318862915039 0.28682172298431396 -0.39534884691238403
-0.40669548511505127 0.30232560634613037 -0.3488371968269348
-0.4054533541202545 0.3178294897079468 -0.3798449635505676
-0.40962040424346924 0.3488372564315796 -0.7054263353347778
-0.3963913023471832 0.364341139793396 -0.7054263353347778
-0.4005492031574249 0.37984490394592285 -0.7054263353347778
-0.40501561760902405 0.5658915042877197 -0.7054263353347778
-0.40212252736091614 0.5813953876495361 -0.7054263353347778
-0.40279942750930786 0.5968992710113525 -0.7054263353347778
-0.40286827087402344 0.612403154373169 -0.7054263353347778
-0.40238308906555176 0.6279069185256958 -0.7054263353347778
-0.40218520164489746 0.6434108018875122 -0.7054263353347778
-0.4034034013748169 0.6589146852493286 -0.7054263353347778
-0.4022805094718933 0.674418568611145 -0.7054263353347778
-0.4019448757171631 0.6899224519729614 -0.7054263353347778
-0.395575612783432 0.7054263353347778 -0.7054263353347778
-0.40712857246398926 0.7364341020584106 -0.3643410801887512
-0.4100898206233978 0.7364341020584106 -0.3488371968269348
-0.3870668411254883 -0.4883720874786377 -0.007751941680908203
-0.38860076665878296 -0.317829430103302 -0.5813953876495361
-0.39012014865875244 -0.317829430103302 -0.5658915042877197
-0.3822760581970215 -0.317829430103302 -0.5503876209259033
-0.3799024522304535 -0.317829430103302 -0.5193798542022705
-0.3839077353477478 -0.317829430103302 -0.4728682041168213
-0.39312684535980225 -0.317829430103302 -0.4573643207550049
-0.3942878842353821 -0.317829430103302 -0.4418604373931885
-0.3841129243373871 -0.317829430103302 -0.42635661363601685
-0.38466688990592957 -0.22480618953704834 -0.3798449635505676
-0.38357633352279663 -0.20930230617523193 -0.41085273027420044
-0.38552284240722656 -0.19379842281341553 -0.4418604373931885
-0.3841482698917389 -0.1782945990562439 -0.5503876209259033
-0.3845440745353699 -0.14728683233261108 -0.39534884691238403
-0.38970160484313965 -0.13178294897079468 -0.3488371968269348
-0.382803350687027 -0.11627906560897827 -0.3798449635505676
-0.3916650414466858 -0.11627906560897827 -0.3488371968269348
-0.38577401638031006 -0.10077518224716187 -0.3798449635505676
-0.3910564184188843 -0.10077518224716187 -0.3488371968269348
-0.3950308859348297 -0.08527129888534546 -0.7054263353347778
-0.3811870813369751 -0.08527129888534546 -0.3798449635505676
-0.38580137491226196 -0.08527129888534546 -0.3488371968269348
-0.39398452639579773 -0.06976741552352905 -0.39534884691238403
-0.38712766766548157 -0.06976741552352905 -0.3488371968269348
-0.39234334230422974 -0.05426359176635742 -0.39534884691238403
-0.38074907660484314 -0.05426359176635742 -0.3798449635505676
-0.3939976692199707 -0.038759708404541016 -0.7054263353347778
-0.38622429966926575 -0.038759708404541016 -0.3798449635505676
-0.39354372024536133 -0.02325582504272461 -0.7054263353347778
-0.3852357566356659 -0.02325582504272461 -0.3643410801887512
-0.394223153591156 -0.007751941215246916 -0.7054263353347778
-0.3926529884338379 -0.007751941680908203 -0.3643410801887512
-0.3825448751449585 0.007751941680908203 -0.7054263353347778
-0.38771486282348633 0.007751941680908203 -0.3798449635505676
-0.3808698356151581 0.02325582504272461 -0.4883720874786377
-0.38207122683525085 0.02325582504272461 -0.4728682041168213
-0.3933911919593811 0.02325582504272461 -0.4573643207550049
-0.3886687159538269 0.06976747512817383 -0.5503876209259033
-0.38036632537841797 0.06976747512817383 -0.28682172298431396
-0.39372551441192627 0.10077524185180664 -0.28682172298431396
-0.39049002528190613 0.11627912521362305 -0.4883720874786377
-0.3883473873138428 0.1317828893661499 -0.4728682041168213
-0.3842637836933136 0.16279065608978271 -0.4573643207550049
-0.38220658898353577 0.17829453945159912 -0.4573643207550049
-0.39236998558044434 0.19379842281341553 -0.4573642909526825
-0.382605642080307 0.20930230617523193 -0.4728682041168213
-0.3865455985069275 0.22480618953704834 -0.4728682041168213
-0.38104355335235596 0.30232560634613037 -0.3798449635505676
-0.3872494101524353 0.30232560634613037 -0.3488371968269348
-0.390913188457489 0.3178294897079468 -0.3798449635505676
-0.38120099902153015 0.3333333730697632 -0.3643410801887512
-0.38838377594947815 0.3488372564315796 -0.3643410801887512
-0.3933506906032562 0.364341139793396 -0.7054263353347778
-0.3828066885471344 0.37984490394592285 -0.7054263353347778
-0.38962194323539734 0.39534878730773926 -0.3643410801887512
-0.3889317214488983 0.41085267066955566 -0.3643410801887512
-0.3905336558818817 0.42635655403137207 -0.36434105038642883
-0.39093974232673645 0.4418604373931885 -0.3643410801887512
-0.3930244445800781 0.4573642909526825 -0.3643410801887512
-0.38050705194473267 0.5348837375640869 -0.7054263353347778
-0.38491392135620117 0.5503876209259033 -0.7054263353347778
-0.3884962201118469 0.5658915042877197 -0.7054263353347778
-0.389670193195343 0.5813953876495361 -0.7054263353347778
-0.3880717158317566 0.5968992710113525 -0.7054263353347778
-0.38777339458465576 0.612403154373169 -0.7054263353347778
-0.3882855772972107 0.6279069185256958 -0.7054263353347778
-0.3884555399417877 0.6434108018875122 -0.7054263353347778
-0.38685542345046997 0.6589146852493286 -0.7054263353347778
-0.3875742554664612 0.674418568611145 -0.7054263353347778
-0.3880355656147003 0.6899224519729614 -0.7054263353347778
-0.3951720595359802 0.7054262757301331 -0.7054262757301331
-0.3763056993484497 -0.5348837375640869 -0.007751941680908203
-0.37376970052719116 -0.5193798542022705 -0.007751941680908203
-0.37394601106643677 -0.5038759708404541 -0.007751941680908203
-0.36576810479164124 -0.317829430103302 -0.9844961166381836
-0.36451900005340576 -0.317829430103302 -0.7674418687820435
-0.37205296754837036 -0.317829430103302 -0.5813953876495361
-0.36955946683883667 -0.317829430103302 -0.5658915042877197
-0.3769689202308655 -0.317829430103302 -0.5503876209259033
-0.3797890841960907 -0.317829430103302 -0.5193798542022705
-0.3755232095718384 -0.317829430103302 -0.4728682041168213
-0.3652508556842804 -0.317829430103302 -0.4573643207550049
-0.37542250752449036 -0.317829430103302 -0.42635661363601685
-0.3706085681915283 -0.30232560634613037 -0.9844961166381836
-0.3652171492576599 -0.30232560634613037 -0.9689922332763672
-0.364863783121109 -0.30232560634613037 -0.7674418687820435
-0.36906570196151733 -0.28682172298431396 -0.9844961166381836
-0.36797839403152466 -0.27131783962249756 -0.9844961166381836
-0.368564635515213 -0.25581395626068115 -0.9844961166381836
-0.36455950140953064 -0.25581395626068115 -0.7674418687820435
-0.3693099915981293 -0.24031007289886475 -0.9844961166381836
-0.3648650646209717 -0.24031007289886475 -0.9689922332763672
-0.36496347188949585 -0.24031007289886475 -0.7674418687820435
-0.36500728130340576 -0.24031007289886475 -0.751937985420227
-0.3698413074016571 -0.22480618953704834 -0.9844961166381836
-0.36521270871162415 -0.22480618953704834 -0.9689922332763672
-0.36450374126434326 -0.22480618953704834 -0.7829457521438599
-0.3653055727481842 -0.22480618953704834 -0.7674418687820435
-0.3657118082046509 -0.22480618953704834 -0.751937985420227
-0.36471277475357056 -0.22480618953704834 -0.7364341020584106
-0.3746037781238556 -0.22480617463588715 -0.3643410801887512
-0.3701654076576233 -0.20930230617523193 -0.9844961166381836
-0.3653842806816101 -0.20930230617523193 -0.9689922332763672
-0.3646659255027771 -0.20930230617523193 -0.7829457521438599
-0.3654542565345764 -0.20930230617523193 -0.7674418687820435
-0.3660697638988495 -0.20930230617523193 -0.751937985420227
-0.3654196858406067 -0.20930230617523193 -0.7364341020584106
-0.3795332908630371 -0.20930230617523193 -0.39534881711006165
-0.37600696086883545 -0.20930230617523193 -0.3798449635505676
-0.37269607186317444 -0.20930230617523193 -0.3643410801887512
-0.37034159898757935 -0.19379842281341553 -0.9844961166381836
-0.36542758345603943 -0.19379842281341553 -0.9689922332763672
-0.3647342920303345 -0.19379842281341553 -0.7829457521438599
-0.3654354512691498 -0.19379842281341553 -0.7674418687820435
-0.36613917350769043 -0.19379842281341553 -0.751937985420227
-0.3657626211643219 -0.19379842281341553 -0.7364341020584106
-0.3779771327972412 -0.19379842281341553 -0.5503876209259033
-0.37935638427734375 -0.19379842281341553 -0.5348837971687317
-0.37870925664901733 -0.19379842281341553 -0.4418604373931885
-0.37780776619911194 -0.19379842281341553 -0.42635661363601685
-0.377615362405777 -0.19379842281341553 -0.41085273027420044
-0.3790610730648041 -0.19379842281341553 -0.39534884691238403
-0.37723881006240845 -0.19379842281341553 -0.3798449635505676
-0.37529271841049194 -0.19379842281341553 -0.3643410801887512
-0.3704134225845337 -0.1782945990562439 -0.9844961166381836
-0.3654490113258362 -0.1782945990562439 -0.9689922332763672
-0.36475691199302673 -0.1782945990562439 -0.7829457521438599
-0.36541748046875 -0.1782945990562439 -0.7674418687820435
-0.36604052782058716 -0.1782945990562439 -0.751937985420227
-0.365697979927063 -0.1782945990562439 -0.7364341020584106
-0.37883859872817993 -0.1782945990562439 -0.42635661363601685
-0.37810248136520386 -0.1782945990562439 -0.41085270047187805
-0.3797745108604431 -0.1782945990562439 -0.39534884691238403
-0.37772828340530396 -0.1782945990562439 -0.37984499335289
-0.3761308491230011 -0.1782945990562439 -0.3643410801887512
-0.3704821467399597 -0.1627907156944275 -0.9844961166381836
-0.3654744327068329 -0.1627907156944275 -0.9689922332763672
-0.36470386385917664 -0.1627907156944275 -0.7829457521438599
-0.36541521549224854 -0.1627907156944275 -0.7674418687820435
-0.36587437987327576 -0.1627907156944275 -0.751937985420227
-0.36535486578941345 -0.1627907156944275 -0.7364341020584106
-0.3797571063041687 -0.1627907156944275 -0.41085273027420044
-0.3793860077857971 -0.1627907156944275 -0.39534884691238403
-0.3758928179740906 -0.1627907156944275 -0.3798449635505676
-0.3734620213508606 -0.1627907156944275 -0.3643410801887512
-0.3702468276023865 -0.14728683233261108 -0.9844961166381836
-0.3654073476791382 -0.14728683233261108 -0.9689922332763672
-0.36451685428619385 -0.14728683233261108 -0.7829457521438599
-0.3651118874549866 -0.14728683233261108 -0.7674418687820435
-0.3655036985874176 -0.14728683233261108 -0.751937985420227
-0.3648034930229187 -0.14728683233261108 -0.7364341020584106
-0.3750917911529541 -0.14728683233261108 -0.3798449635505676
-0.3702692687511444 -0.14728683233261108 -0.3643410801887512
-0.3696906566619873 -0.13178294897079468 -0.9844961166381836
-0.3652695119380951 -0.13178294897079468 -0.9689922332763672
-0.3644408881664276 -0.13178294897079468 -0.7829457521438599
-0.36496490240097046 -0.13178294897079468 -0.7674418687820435
-0.3652436435222626 -0.13178294897079468 -0.751937985420227
-0.36454880237579346 -0.13178294897079468 -0.7364341020584106
-0.37697434425354004 -0.13178294897079468 -0.3798449635505676
-0.36926424503326416 -0.13178294897079468 -0.3643410801887512
-0.3695060610771179 -0.11627906560897827 -0.9844961166381836
-0.36521005630493164 -0.11627906560897827 -0.9689922332763672
-0.36444103717803955 -0.11627906560897827 -0.7829457521438599
-0.36497896909713745 -0.11627906560897827 -0.7674418687820435
-0.3652322292327881 -0.11627906560897827 -0.751937985420227
-0.36457565426826477 -0.11627906560897827 -0.7364341020584106
-0.3723304271697998 -0.11627906560897827 -0.3643410801887512
-0.3697025179862976 -0.10077518224716187 -0.9844961166381836
-0.36530354619026184 -0.10077518224716187 -0.9689922332763672
-0.36449024081230164 -0.10077518224716187 -0.7829457521438599
-0.36509668827056885 -0.10077518224716187 -0.7674418687820435
-0.36541038751602173 -0.10077518224716187 -0.751937985420227
-0.3647606372833252 -0.10077518224716187 -0.7364341020584106
-0.37383949756622314 -0.10077518224716187 -0.3643410801887512
-0.3700752556324005 -0.08527129888534546 -0.9844961166381836
-0.3654709458351135 -0.08527129888534546 -0.9689922332763672
-0.36463671922683716 -0.08527129888534546 -0.7829457521438599
-0.3653465807437897 -0.08527129888534546 -0.7674418687820435
-0.3657468259334564 -0.08527129888534546 -0.751937985420227
-0.3652832806110382 -0.08527129888534546 -0.7364341020584106
-0.37303513288497925 -0.08527129888534546 -0.3643410801887512
-0.3704712986946106 -0.06976741552352905 -0.9844961166381836
-0.36573514342308044 -0.06976741552352905 -0.9689922332763672
-0.3645424544811249 -0.06976741552352905 -0.9534883499145508
-0.364474356174469 -0.06976741552352905 -0.9379844665527344
-0.36446166038513184 -0.06976741552352905 -0.9224806427955627
-0.36438584327697754 -0.06976741552352905 -0.8139535188674927
-0.3645222783088684 -0.06976741552352905 -0.7984496355056763
-0.3649122714996338 -0.06976741552352905 -0.7829457521438599
-0.3656785488128662 -0.06976741552352905 -0.7674418687820435
-0.3660936951637268 -0.06976741552352905 -0.751937985420227
-0.3659828007221222 -0.06976741552352905 -0.7364341020584106
-0.3794235587120056 -0.06976742297410965 -0.3798449635505676
-0.37369251251220703 -0.06976741552352905 -0.3643410801887512
-0.3708385229110718 -0.05426359176635742 -0.9844961166381836
-0.3660140633583069 -0.05426359176635742 -0.9689922332763672
-0.36477935314178467 -0.05426359176635742 -0.9534883499145508
-0.36472389101982117 -0.05426359176635742 -0.9379844665527344
-0.3647298514842987 -0.05426359176635742 -0.9224806427955627
-0.3646184206008911 -0.05426359176635742 -0.9069767594337463
-0.3645893335342407 -0.05426359176635742 -0.8914728760719299
-0.36459577083587646 -0.05426359176635742 -0.8759689927101135
-0.3645577132701874 -0.05426359176635742 -0.8604651093482971
-0.3645137548446655 -0.05426359176635742 -0.8449612259864807
-0.3645375967025757 -0.05426359176635742 -0.8294573426246643
-0.3646026849746704 -0.05426359176635742 -0.8139535188674927
-0.36475029587745667 -0.05426359176635742 -0.7984496355056763
-0.3652173578739166 -0.05426359176635742 -0.7829457521438599
-0.36601635813713074 -0.05426359176635742 -0.7674418687820435
-0.36639201641082764 -0.05426359176635742 -0.751937985420227
-0.36644020676612854 -0.05426359176635742 -0.7364341020584106
-0.3648880124092102 -0.05426359176635742 -0.7209302186965942
-0.37546655535697937 -0.05426359176635742 -0.3643410801887512
-0.3712427020072937 -0.038759708404541016 -0.9844961166381836
-0.3661637604236603 -0.038759708404541016 -0.9689922332763672
-0.3647909462451935 -0.038759708404541016 -0.9534883499145508
-0.3647388219833374 -0.038759708404541016 -0.9379844665527344
-0.364742636680603 -0.038759708404541016 -0.9224806427955627
-0.36461472511291504 -0.038759708404541016 -0.9069767594337463
-0.3645707070827484 -0.038759708404541016 -0.8914728760719299
-0.36457428336143494 -0.038759708404541016 -0.8759689927101135
-0.36453768610954285 -0.038759708404541016 -0.8604651093482971
-0.3644895851612091 -0.038759708404541016 -0.8449612259864807
-0.36450666189193726 -0.038759708404541016 -0.8294573426246643
-0.3645740747451782 -0.038759708404541016 -0.8139535188674927
-0.36473509669303894 -0.038759708404541016 -0.7984496355056763
-0.36523640155792236 -0.038759708404541016 -0.7829457521438599
-0.3660743534564972 -0.038759708404541016 -0.7674418687820435
-0.3665342628955841 -0.038759708404541016 -0.751937985420227
-0.36663684248924255 -0.038759708404541016 -0.7364341020584106
-0.36499395966529846 -0.038759708404541016 -0.7209302186965942
-0.3782678246498108 -0.038759708404541016 -0.3643410801887512
-0.3721938729286194 -0.02325582504272461 -0.9844961166381836
-0.3665691614151001 -0.02325582504272461 -0.9689922332763672
-0.3648841977119446 -0.02325582504272461 -0.9534883499145508
-0.36481979489326477 -0.02325582504272461 -0.9379844665527344
-0.3648092448711395 -0.02325582504272461 -0.9224806427955627
-0.3646290600299835 -0.02325582504272461 -0.9069767594337463
-0.36454451084136963 -0.02325582504272461 -0.8914728760719299
-0.3645303547382355 -0.02325582504272461 -0.8759689927101135
-0.3644872307777405 -0.02325582504272461 -0.8604651093482971
-0.3644450604915619 -0.02325582504272461 -0.8449612259864807
-0.3644912540912628 -0.02325582504272461 -0.8294572830200195
-0.3645934760570526 -0.02325582504272461 -0.8139535188674927
-0.36477789282798767 -0.02325582504272461 -0.7984496355056763
-0.3653671145439148 -0.02325582504272461 -0.7829457521438599
-0.36637353897094727 -0.02325582504272461 -0.7674418687820435
-0.3668292164802551 -0.02325582504272461 -0.751937985420227
-0.3671071529388428 -0.02325582504272461 -0.7364341020584106
-0.3653596341609955 -0.02325582504272461 -0.7209302186965942
-0.3727107048034668 -0.007751941680908203 -0.9844961166381836
-0.36697858572006226 -0.007751941680908203 -0.9689922332763672
-0.36516454815864563 -0.007751941680908203 -0.9534883499145508
-0.3650936484336853 -0.007751941680908203 -0.9379844665527344
-0.3650699555873871 -0.007751941680908203 -0.9224806427955627
-0.3648192286491394 -0.007751941680908203 -0.9069767594337463
-0.36470359563827515 -0.007751941680908203 -0.8914728760719299
-0.3646872043609619 -0.007751941680908203 -0.8759689927101135
-0.3646392226219177 -0.007751941680908203 -0.8604651093482971
-0.3645918369293213 -0.007751941680908203 -0.8449612259864807
-0.36465466022491455 -0.007751941680908203 -0.8294573426246643
-0.364770770072937 -0.007751941680908203 -0.8139535188674927
-0.3649614453315735 -0.007751941680908203 -0.7984496355056763
-0.36564022302627563 -0.007751941680908203 -0.7829457521438599
-0.36677107214927673 -0.007751941680908203 -0.7674418687820435
-0.3669007122516632 -0.007751941680908203 -0.751937985420227
-0.36680394411087036 -0.007751941680908203 -0.7364341020584106
-0.3646351397037506 -0.007751941680908203 -0.7209302186965942
-0.36998310685157776 0.007751941680908203 -0.9844961166381836
-0.3653815984725952 0.007751941680908203 -0.9689922332763672
-0.36463406682014465 0.007751941680908203 -0.9534883499145508
-0.36463645100593567 0.007751941680908203 -0.9379844665527344
-0.36452314257621765 0.007751941680908203 -0.9224806427955627
-0.3643605411052704 0.007751941680908203 -0.7984496355056763
-0.36477383971214294 0.007751941680908203 -0.7829457521438599
-0.3653080463409424 0.007751941680908203 -0.7674418687820435
-0.36448225378990173 0.007751941680908203 -0.751937985420227
-0.37651896476745605 0.007751941680908203 -0.3643410801887512
-0.3683096468448639 0.02325582504272461 -0.7054263353347778
-0.3786003291606903 0.02325582504272461 -0.5038759708404541
-0.36778485774993896 0.11627912521362305 -0.5038759708404541
-0.37528911232948303 0.1317828893661499 -0.4883720874786377
-0.36627641320228577 0.1472867727279663 -0.4883720874786377
-0.376233845949173 0.1472867727279663 -0.4728682041168213
-0.3697826564311981 0.16279065608978271 -0.4728682041168213
-0.36823326349258423 0.17829453945159912 -0.4728682041168213
-0.3749347925186157 0.19379842281341553 -0.4728682041168213
-0.3720252215862274 0.20930230617523193 -0.4883720874786377
-0.3746977150440216 0.22480618953704834 -0.4883720874786377
-0.36673206090927124 0.24031007289886475 -0.4883720874786377
-0.3770501911640167 0.24031007289886475 -0.4728682041168213
-0.3728709816932678 0.25581395626068115 -0.4573643207550049
-0.3767892122268677 0.27131783962249756 -0.42635661363601685
-0.3687731623649597 0.28682172298431396 -0.3488371968269348
-0.3660050630569458 0.30232560634613037 -0.3643410801887512
-0.3774013817310333 0.3178294897079468 -0.3643410801887512
-0.37463998794555664 0.3488372564315796 -0.7054263353347778
-0.36961859464645386 0.364341139793396 -0.9844961166381836
-0.3650249242782593 0.364341139793396 -0.9689922332763672
-0.3699994683265686 0.37984490394592285 -0.9844961166381836
-0.36514216661453247 0.37984490394592285 -0.9689922332763672
-0.36768871545791626 0.39534878730773926 -0.9844961166381836
-0.37273263931274414 0.39534878730773926 -0.7054263353347778
-0.3655616044998169 0.41085267066955566 -0.9844961166381836
-0.3717494010925293 0.41085267066955566 -0.7054263353347778
-0.36521878838539124 0.42635655403137207 -0.9844961166381836
-0.3722890615463257 0.42635655403137207 -0.7054263353347778
-0.3647559881210327 0.4418604373931885 -0.9844961166381836
-0.37290140986442566 0.4418604373931885 -0.7054263353347778
-0.37340086698532104 0.4573643207550049 -0.7054263353347778
-0.3737791180610657 0.4728682041168213 -0.7054263353347778
-0.3652650713920593 0.4883720874786377 -0.9844961166381836
-0.37361884117126465 0.4883720874786377 -0.7054263353347778
-0.36597198247909546 0.5038759708404541 -0.9844961166381836
-0.3749445676803589 0.5038759708404541 -0.7054263353347778
-0.3668842613697052 0.5193798542022705 -0.9844961166381836
-0.3769516944885254 0.5193798542022705 -0.7054263353347778
-0.368132621049881 0.5348837375640869 -0.9844961166381836
-0.36891359090805054 0.5503876209259033 -0.9844961166381836
-0.36447674036026 0.5503876209259033 -0.9689922332763672
-0.36917078495025635 0.5658915042877197 -0.9844961166381836
-0.3647318184375763 0.5658915042877197 -0.9689922332763672
-0.3693634271621704 0.5813953876495361 -0.9844961166381836
-0.3648987114429474 0.5813953876495361 -0.9689922332763672
-0.36945152282714844 0.5968992710113525 -0.9844961166381836
-0.36501163244247437 0.5968992710113525 -0.9689922332763672
-0.3693000376224518 0.612403154373169 -0.9844961166381836
-0.36495107412338257 0.612403154373169 -0.9689922332763672
-0.36910703778266907 0.6279069185256958 -0.9844961166381836
-0.36482980847358704 0.6279069185256958 -0.9689922332763672
-0.36891669034957886 0.6434108018875122 -0.9844961166381836
-0.3647089898586273 0.6434108018875122 -0.9689922332763672
-0.3687271475791931 0.6589146852493286 -0.9844961166381836
-0.3645923435688019 0.6589146852493286 -0.9689922332763672
-0.36862149834632874 0.674418568611145 -0.9844961166381836
-0.3644980192184448 0.674418568611145 -0.9689922332763672
-0.36864617466926575 0.6899224519729614 -0.9844961166381836
-0.36450889706611633 0.6899224519729614 -0.9689922332763672
-0.36932992935180664 0.7054263353347778 -0.9844961166381836
-0.36500370502471924 0.7054263353347778 -0.9689922332763672
-0.3710789084434509 0.7209302186965942 -0.9844961166381836
-0.366504043340683 0.7209302186965942 -0.9689922332763672
-0.36603543162345886 0.7209302186965942 -0.9534883499145508
-0.36583274602890015 0.7209302186965942 -0.9379844665527344
-0.36540892720222473 0.7209302186965942 -0.922480583190918
-0.36489781737327576 0.7209302186965942 -0.9069767594337463
-0.36449602246284485 0.7209302186965942 -0.8914728760719299
-0.36717939376831055 0.7364341020584106 -0.9844961166381836
-0.349322646856308 -0.5348837375640869 0.39534878730773926
-0.34967026114463806 -0.5348837375640869 0.41085267066955566
-0.3498707711696625 -0.5348837375640869 0.42635655403137207
-0.35009241104125977 -0.5348837375640869 0.4418604373931885
-0.350335955619812 -0.5348837375640869 0.4573643207550049
-0.35043027997016907 -0.5348837375640869 0.4728682041168213
-0.35023826360702515 -0.5348837375640869 0.4883720874786377
-0.3501160442829132 -0.5348837375640869 0.5038759708404541
-0.35015591979026794 -0.5348837375640869 0.5193798542022705
-0.35023221373558044 -0.5348837375640869 0.5348837375640869
-0.35040026903152466 -0.5348837375640869 0.5503876209259033
-0.35062864422798157 -0.5348837375640869 0.5658915042877197
-0.3510417640209198 -0.5348837375640869 0.5813953876495361
-0.3517971336841583 -0.5348837375640869 0.5968992710113525
-0.35249146819114685 -0.5348837375640869 0.612403154373169
-0.35305947065353394 -0.5348837375640869 0.6279069185256958
-0.3537111282348633 -0.5348837375640869 0.6434108018875122
-0.35417547821998596 -0.5348837375640869 0.6589146852493286
-0.3539491593837738 -0.5348837375640869 0.674418568611145
-0.35334670543670654 -0.5348837375640869 0.6899224519729614
-0.3525902330875397 -0.5348837375640869 0.7054263353347778
-0.35154104232788086 -0.5348837375640869 0.7209302186965942
-0.34966781735420227 -0.5193798542022705 0.3333333730697632
-0.35036930441856384 -0.5193798542022705 0.3488372564315796
-0.351192831993103 -0.5193798542022705 0.364341139793396
-0.3517551124095917 -0.5193798542022705 0.37984490394592285
-0.3519410789012909 -0.5193798542022705 0.39534878730773926
-0.352133184671402 -0.5193798542022705 0.41085267066955566
-0.3522705137729645 -0.5193798542022705 0.42635655403137207
-0.3524826169013977 -0.5193798542022705 0.4418604373931885
-0.35265469551086426 -0.5193798542022705 0.4573643207550049
-0.3527299165725708 -0.5193798542022705 0.4728682041168213
-0.3525228798389435 -0.5193798542022705 0.4883720874786377
-0.35221368074417114 -0.5193798542022705 0.5038759708404541
-0.3521171808242798 -0.5193798542022705 0.5193798542022705
-0.3520650267601013 -0.5193798542022705 0.5348837375640869
-0.35219061374664307 -0.5193798542022705 0.5503876209259033
-0.35222476720809937 -0.5193798542022705 0.5658915042877197
-0.3523663580417633 -0.5193798542022705 0.5813953876495361
-0.35274171829223633 -0.5193798542022705 0.5968992710113525
-0.35325443744659424 -0.5193798542022705 0.612403154373169
-0.35382717847824097 -0.5193798542022705 0.6279069185256958
-0.35414472222328186 -0.5193798542022705 0.6434108018875122
-0.35435783863067627 -0.5193798542022705 0.6589146852493286
-0.35448431968688965 -0.5193798542022705 0.674418568611145
-0.3547522723674774 -0.5193798542022705 0.6899224519729614
-0.3553922176361084 -0.5193798542022705 0.7054263353347778
-0.35632845759391785 -0.5193798542022705 0.7209302186965942
-0.35682040452957153 -0.5193798542022705 0.7364341020584106
-0.35666728019714355 -0.5193798542022705 0.751937985420227
-0.3565996587276459 -0.5193798542022705 0.7674418687820435
-0.35619157552719116 -0.5193798542022705 0.7829457521438599
-0.3556153178215027 -0.5193798542022705 0.7984496355056763
-0.3562655746936798 -0.5193798542022705 0.8139535188674927
-0.35620275139808655 -0.5193798542022705 0.8294574022293091
-0.34984931349754333 -0.5038759708404541 0.30232560634613037
-0.3506509065628052 -0.5038759708404541 0.3178294897079468
-0.35107728838920593 -0.5038759708404541 0.3333333730697632
-0.3513169288635254 -0.5038759708404541 0.3488372564315796
-0.3514123857021332 -0.5038759708404541 0.364341139793396
-0.3514396548271179 -0.5038759708404541 0.37984490394592285
-0.35141798853874207 -0.5038759708404541 0.39534878730773926
-0.3515819311141968 -0.5038759708404541 0.41085267066955566
-0.35167670249938965 -0.5038759708404541 0.42635655403137207
-0.35185763239860535 -0.5038759708404541 0.4418604373931885
-0.3518797755241394 -0.5038759708404541 0.4573643207550049
-0.3518346846103668 -0.5038759708404541 0.4728682041168213
-0.35169774293899536 -0.5038759708404541 0.4883720874786377
-0.3514157831668854 -0.5038759708404541 0.5038759708404541
-0.35126012563705444 -0.5038759708404541 0.5193798542022705
-0.3511364161968231 -0.5038759708404541 0.5348837375640869
-0.3511476516723633 -0.5038759708404541 0.5503876209259033
-0.3510821759700775 -0.5038759708404541 0.5658915042877197
-0.3511370122432709 -0.5038759708404541 0.5813953876495361
-0.3513537645339966 -0.5038759708404541 0.5968992710113525
-0.35165858268737793 -0.5038759708404541 0.612403154373169
-0.3521575331687927 -0.5038759708404541 0.6279069185256958
-0.3523483872413635 -0.5038759708404541 0.6434108018875122
-0.3523712158203125 -0.5038759708404541 0.6589146852493286
-0.35242781043052673 -0.5038759708404541 0.674418568611145
-0.35285302996635437 -0.5038759708404541 0.6899224519729614
-0.3535862863063812 -0.5038759708404541 0.7054263353347778
-0.354723185300827 -0.5038759708404541 0.7209302186965942
-0.35598528385162354 -0.5038759708404541 0.7364341020584106
-0.3568321764469147 -0.5038759708404541 0.751937985420227
-0.357219934463501 -0.5038759708404541 0.7674418687820435
-0.35656338930130005 -0.5038759708404541 0.7829457521438599
-0.35576313734054565 -0.5038759708404541 0.7984496355056763
-0.356537401676178 -0.5038759708404541 0.8139535188674927
-0.35788607597351074 -0.5038759708404541 0.8294574022293091
-0.34910354018211365 -0.4883720874786377 0.20930230617523193
-0.3497692942619324 -0.4883720874786377 0.22480618953704834
-0.34998947381973267 -0.4883720874786377 0.24031007289886475
-0.3501102030277252 -0.4883720874786377 0.25581395626068115
-0.35035648941993713 -0.4883720874786377 0.27131783962249756
-0.3504785895347595 -0.4883720874786377 0.28682172298431396
-0.3505973219871521 -0.4883720874786377 0.30232560634613037
-0.35066771507263184 -0.4883720874786377 0.3178294897079468
-0.3507821261882782 -0.4883720874786377 0.3333333730697632
-0.3508780002593994 -0.4883720874786377 0.3488372564315796
-0.35090962052345276 -0.4883720874786377 0.364341139793396
-0.3509231507778168 -0.4883720874786377 0.37984490394592285
-0.35091859102249146 -0.4883720874786377 0.39534878730773926
-0.35106152296066284 -0.4883720874786377 0.41085267066955566
-0.3511476516723633 -0.4883720874786377 0.42635655403137207
-0.3513253331184387 -0.4883720874786377 0.4418604373931885
-0.35134586691856384 -0.4883720874786377 0.4573643207550049
-0.35131019353866577 -0.4883720874786377 0.4728682041168213
-0.3512197434902191 -0.4883720874786377 0.4883720874786377
-0.3509838879108429 -0.4883720874786377 0.5038759708404541
-0.3508460223674774 -0.4883720874786377 0.5193798542022705
-0.35071125626564026 -0.4883720874786377 0.5348837375640869
-0.3506483733654022 -0.4883720874786377 0.5503876209259033
-0.3505309522151947 -0.4883720874786377 0.5658915042877197
-0.35054492950439453 -0.4883720874786377 0.5813953876495361
-0.3506854176521301 -0.4883720874786377 0.5968992710113525
-0.3508867919445038 -0.4883720874786377 0.612403154373169
-0.35127806663513184 -0.4883720874786377 0.6279069185256958
-0.3514014482498169 -0.4883720874786377 0.6434108018875122
-0.351310133934021 -0.4883720874786377 0.6589146852493286
-0.3511614203453064 -0.4883720874786377 0.674418568611145
-0.3513632118701935 -0.4883720874786377 0.6899224519729614
-0.3517003059387207 -0.4883720874786377 0.7054263353347778
-0.3523555397987366 -0.4883720874786377 0.7209302186965942
-0.35330209136009216 -0.4883720874786377 0.7364341020584106
-0.3540611267089844 -0.4883720874786377 0.751937985420227
-0.3544387221336365 -0.4883720874786377 0.7674418687820435
-0.3539446294307709 -0.4883720874786377 0.7829457521438599
-0.3536040186882019 -0.4883720874786377 0.7984496355056763
-0.355062335729599 -0.4883720874786377 0.8139535188674927
-0.357710599899292 -0.4883720874786377 0.8294574022293091
-0.34987980127334595 -0.4728682041168213 0.17829453945159912
-0.35017621517181396 -0.4728682041168213 0.19379842281341553
-0.35021913051605225 -0.4728682041168213 0.20930230617523193
-0.3502464294433594 -0.4728682041168213 0.22480618953704834
-0.3502708673477173 -0.4728682041168213 0.24031007289886475
-0.3503111004829407 -0.4728682041168213 0.25581395626068115
-0.3504256010055542 -0.4728682041168213 0.27131783962249756
-0.35042065382003784 -0.4728682041168213 0.28682172298431396
-0.3504357635974884 -0.4728682041168213 0.30232560634613037
-0.350401908159256 -0.4728682041168213 0.3178294897079468
-0.35044997930526733 -0.4728682041168213 0.3333333730697632
-0.3504951298236847 -0.4728682041168213 0.3488372564315796
-0.3504926860332489 -0.4728682041168213 0.364341139793396
-0.3504957854747772 -0.4728682041168213 0.37984490394592285
-0.3505089282989502 -0.4728682041168213 0.39534878730773926
-0.3506316542625427 -0.4728682041168213 0.41085267066955566
-0.3507252335548401 -0.4728682041168213 0.42635655403137207
-0.35088256001472473 -0.4728682041168213 0.4418604373931885
-0.3509089946746826 -0.4728682041168213 0.4573643207550049
-0.35091447830200195 -0.4728682041168213 0.4728682041168213
-0.3508196771144867 -0.4728682041168213 0.4883720874786377
-0.350591778755188 -0.4728682041168213 0.5038759708404541
-0.3504757285118103 -0.4728682041168213 0.5193798542022705
-0.3503513038158417 -0.4728682041168213 0.5348837375640869
-0.3502747714519501 -0.4728682041168213 0.5503876209259033
-0.3501855134963989 -0.4728682041168213 0.5658915042877197
-0.35026994347572327 -0.4728682041168213 0.5813953876495361
-0.3504965603351593 -0.4728682041168213 0.5968992710113525
-0.3507639765739441 -0.4728682041168213 0.612403154373169
-0.3510894477367401 -0.4728682041168213 0.6279069185256958
-0.35119181871414185 -0.4728682041168213 0.6434108018875122
-0.3511132597923279 -0.4728682041168213 0.6589146852493286
-0.3508475124835968 -0.4728682041168213 0.674418568611145
-0.35080960392951965 -0.4728682041168213 0.6899224519729614
-0.3508116602897644 -0.4728682041168213 0.7054263353347778
-0.35099920630455017 -0.4728682041168213 0.7209302186965942
-0.35133248567581177 -0.4728682041168213 0.7364341020584106
-0.3516273498535156 -0.4728682041168213 0.751937985420227
-0.35190045833587646 -0.4728682041168213 0.7674418687820435
-0.3517411947250366 -0.4728682041168213 0.7829457521438599
-0.3521330952644348 -0.4728682041168213 0.7984496355056763
-0.35457921028137207 -0.4728682041168213 0.8139535188674927
-0.35754555463790894 -0.4728682041168213 0.8294574022293091
-0.34982284903526306 -0.4573643207550049 0.16279065608978271
-0.35002976655960083 -0.4573643207550049 0.17829453945159912
-0.3501660227775574 -0.4573643207550049 0.19379842281341553
-0.3501475155353546 -0.4573643207550049 0.20930230617523193
-0.3501591086387634 -0.4573643207550049 0.22480618953704834
-0.3501391112804413 -0.4573643207550049 0.24031007289886475
-0.3501392602920532 -0.4573643207550049 0.25581395626068115
-0.35018593072891235 -0.4573643207550049 0.27131783962249756
-0.35015490651130676 -0.4573643207550049 0.28682172298431396
-0.3501543700695038 -0.4573643207550049 0.30232560634613037
-0.350111186504364 -0.4573643207550049 0.3178294897079468
-0.3501489758491516 -0.4573643207550049 0.3333333730697632
-0.3501906394958496 -0.4573643207550049 0.3488372564315796
-0.35019367933273315 -0.4573643207550049 0.364341139793396
-0.35022950172424316 -0.4573643207550049 0.37984490394592285
-0.35029664635658264 -0.4573643207550049 0.39534878730773926
-0.3504180610179901 -0.4573643207550049 0.41085267066955566
-0.3504998981952667 -0.4573643207550049 0.42635655403137207
-0.3505908250808716 -0.4573643207550049 0.4418604373931885
-0.3505171537399292 -0.4573643207550049 0.4573643207550049
-0.35044869780540466 -0.4573643207550049 0.4728682041168213
-0.35033366084098816 -0.4573643207550049 0.4883720874786377
-0.3501594066619873 -0.4573643207550049 0.5038759708404541
-0.3501150906085968 -0.4573643207550049 0.5193798542022705
-0.3500806987285614 -0.4573643207550049 0.5348837375640869
-0.3501419723033905 -0.4573643207550049 0.5503876209259033
-0.3502485454082489 -0.4573643207550049 0.5658915042877197
-0.3505398631095886 -0.4573643207550049 0.5813953876495361
-0.3509291708469391 -0.4573643207550049 0.5968992710113525
-0.3512769937515259 -0.4573643207550049 0.612403154373169
-0.3515896201133728 -0.4573643207550049 0.6279069185256958
-0.35167577862739563 -0.4573643207550049 0.6434108018875122
-0.35159432888031006 -0.4573643207550049 0.6589146852493286
-0.35132870078086853 -0.4573643207550049 0.674418568611145
-0.3512454926967621 -0.4573643207550049 0.6899224519729614
-0.35121384263038635 -0.4573643207550049 0.7054263353347778
-0.3513413667678833 -0.4573643207550049 0.7209302186965942
-0.3514893054962158 -0.4573643207550049 0.7364341020584106
-0.35160255432128906 -0.4573643207550049 0.751937985420227
-0.3518327474594116 -0.4573643207550049 0.7674418687820435
-0.3516656756401062 -0.4573643207550049 0.7829457521438599
-0.35190194845199585 -0.4573643207550049 0.7984496355056763
-0.3547612428665161 -0.4573643207550049 0.8139535188674927
-0.35750436782836914 -0.4573643207550049 0.8294574022293091
-0.3494100570678711 -0.4418604373931885 0.1472867727279663
-0.34964901208877563 -0.4418604373931885 0.16279065608978271
-0.3497863709926605 -0.4418604373931885 0.17829453945159912
-0.3499023914337158 -0.4418604373931885 0.19379842281341553
-0.3498896360397339 -0.4418604373931885 0.20930230617523193
-0.34990575909614563 -0.4418604373931885 0.22480618953704834
-0.3498733639717102 -0.4418604373931885 0.24031007289886475
-0.34986943006515503 -0.4418604373931885 0.25581395626068115
-0.3498842120170593 -0.4418604373931885 0.27131783962249756
-0.3498684763908386 -0.4418604373931885 0.28682172298431396
-0.34990137815475464 -0.4418604373931885 0.30232560634613037
-0.3498988747596741 -0.4418604373931885 0.3178294897079468
-0.3499700725078583 -0.4418604373931885 0.3333333730697632
-0.35003381967544556 -0.4418604373931885 0.3488372564315796
-0.3500753343105316 -0.4418604373931885 0.364341139793396
-0.3502020537853241 -0.4418604373931885 0.37984490394592285
-0.3503740727901459 -0.4418604373931885 0.39534878730773926
-0.3505166172981262 -0.4418604373931885 0.41085267066955566
-0.35056936740875244 -0.4418604373931885 0.42635655403137207
-0.3506227135658264 -0.4418604373931885 0.4418604373931885
-0.3505089282989502 -0.4418604373931885 0.4573643207550049
-0.3503473699092865 -0.4418604373931885 0.4728682041168213
-0.3501473069190979 -0.4418604373931885 0.4883720874786377
-0.3499939739704132 -0.4418604373931885 0.5038759708404541
-0.3500385582447052 -0.4418604373931885 0.5193798542022705
-0.3501249849796295 -0.4418604373931885 0.5348837375640869
-0.3503594398498535 -0.4418604373931885 0.5503876209259033
-0.350656121969223 -0.4418604373931885 0.5658915042877197
-0.3511211574077606 -0.4418604373931885 0.5813953876495361
-0.3516084849834442 -0.4418604373931885 0.5968992710113525
-0.351969838142395 -0.4418604373931885 0.612403154373169
-0.3522966504096985 -0.4418604373931885 0.6279069185256958
-0.3523940145969391 -0.4418604373931885 0.6434108018875122
-0.35232359170913696 -0.4418604373931885 0.6589146852493286
-0.3521130383014679 -0.4418604373931885 0.674418568611145
-0.352064311504364 -0.4418604373931885 0.6899224519729614
-0.35206952691078186 -0.4418604373931885 0.7054263353347778
-0.3522341549396515 -0.4418604373931885 0.7209302186965942
-0.35239705443382263 -0.4418604373931885 0.7364341020584106
-0.35247325897216797 -0.4418604373931885 0.751937985420227
-0.3526074290275574 -0.4418604373931885 0.7674418687820435
-0.352352112531662 -0.4418604373931885 0.7829457521438599
-0.3524286448955536 -0.4418604373931885 0.7984496355056763
-0.35524433851242065 -0.4418604373931885 0.8139535188674927
-0.35756391286849976 -0.4418604373931885 0.8294574022293091
-0.35022687911987305 -0.42635661363601685 0.1472867727279663
-0.34971389174461365 -0.42635661363601685 0.16279065608978271
-0.34965211153030396 -0.42635661363601685 0.17829453945159912
-0.3497732877731323 -0.42635661363601685 0.19379842281341553
-0.34977516531944275 -0.42635661363601685 0.20930230617523193
-0.3498196601867676 -0.42635661363601685 0.22480618953704834
-0.3498131334781647 -0.42635661363601685 0.24031007289886475
-0.3497982323169708 -0.42635661363601685 0.25581395626068115
-0.34977802634239197 -0.42635661363601685 0.27131783962249756
-0.3497564494609833 -0.42635661363601685 0.28682172298431396
-0.34981173276901245 -0.42635661363601685 0.30232560634613037
-0.34984055161476135 -0.42635661363601685 0.3178294897079468
-0.3499443829059601 -0.42635661363601685 0.3333333730697632
-0.3500296473503113 -0.42635661363601685 0.3488372564315796
-0.3501080870628357 -0.42635661363601685 0.364341139793396
-0.35033118724823 -0.42635661363601685 0.37984490394592285
-0.350623220205307 -0.42635661363601685 0.39534878730773926
-0.3508150577545166 -0.42635661363601685 0.41085267066955566
-0.350858211517334 -0.42635661363601685 0.42635655403137207
-0.35089489817619324 -0.42635661363601685 0.4418604373931885
-0.3507847785949707 -0.42635661363601685 0.4573643207550049
-0.3505711853504181 -0.42635661363601685 0.4728682041168213
-0.3502541184425354 -0.42635661363601685 0.4883720874786377
-0.3500518798828125 -0.42635661363601685 0.5038759708404541
-0.3501411974430084 -0.42635661363601685 0.5193798542022705
-0.35030949115753174 -0.42635661363601685 0.5348837375640869
-0.3506551682949066 -0.42635661363601685 0.5503876209259033
-0.3510545790195465 -0.42635661363601685 0.5658915042877197
-0.35159996151924133 -0.42635661363601685 0.5813953876495361
-0.35213732719421387 -0.42635661363601685 0.5968992710113525
-0.35251015424728394 -0.42635661363601685 0.612403154373169
-0.3528515100479126 -0.42635661363601685 0.6279069185256958
-0.35293227434158325 -0.42635661363601685 0.6434108018875122
-0.35282307863235474 -0.42635661363601685 0.6589146852493286
-0.3526194989681244 -0.42635661363601685 0.674418568611145
-0.3525872826576233 -0.42635661363601685 0.6899224519729614
-0.3526041805744171 -0.42635661363601685 0.7054263353347778
-0.35278335213661194 -0.42635661363601685 0.7209302186965942
-0.3529517650604248 -0.42635661363601685 0.7364341020584106
-0.35300642251968384 -0.42635661363601685 0.751937985420227
-0.35307490825653076 -0.42635661363601685 0.7674418687820435
-0.3527270555496216 -0.42635661363601685 0.7829457521438599
-0.35294270515441895 -0.42635661363601685 0.7984496355056763
-0.3557083010673523 -0.42635661363601685 0.8139535188674927
-0.3576925992965698 -0.42635661363601685 0.8294574022293091
-0.35095593333244324 -0.41085273027420044 0.1472867727279663
-0.34996578097343445 -0.41085273027420044 0.16279065608978271
-0.3496386706829071 -0.41085273027420044 0.17829453945159912
-0.34980544447898865 -0.41085273027420044 0.19379842281341553
-0.3498523235321045 -0.41085273027420044 0.20930230617523193
-0.3499392867088318 -0.41085273027420044 0.22480618953704834
-0.3499472439289093 -0.41085273027420044 0.24031007289886475
-0.34987306594848633 -0.41085273027420044 0.25581395626068115
-0.3497790992259979 -0.41085273027420044 0.27131783962249756
-0.34970423579216003 -0.41085273027420044 0.28682172298431396
-0.34974655508995056 -0.41085273027420044 0.30232560634613037
-0.34979939460754395 -0.41085273027420044 0.3178294897079468
-0.3499717712402344 -0.41085273027420044 0.3333333730697632
-0.3501241207122803 -0.41085273027420044 0.3488372564315796
-0.3502923250198364 -0.41085273027420044 0.364341139793396
-0.3506086468696594 -0.41085273027420044 0.37984490394592285
-0.35096246004104614 -0.41085273027420044 0.39534878730773926
-0.3511961102485657 -0.41085273027420044 0.41085267066955566
-0.3512570559978485 -0.41085273027420044 0.42635655403137207
-0.35129326581954956 -0.41085273027420044 0.4418604373931885
-0.3511792719364166 -0.41085273027420044 0.4573643207550049
-0.3509371280670166 -0.41085273027420044 0.4728682041168213
-0.35052794218063354 -0.41085273027420044 0.4883720874786377
-0.35026800632476807 -0.41085273027420044 0.5038759708404541
-0.3503950238227844 -0.41085273027420044 0.5193798542022705
-0.3506340980529785 -0.41085273027420044 0.5348837375640869
-0.3510468304157257 -0.41085273027420044 0.5503876209259033
-0.3514717221260071 -0.41085273027420044 0.5658915042877197
-0.35201072692871094 -0.41085273027420044 0.5813953876495361
-0.3525375723838806 -0.41085273027420044 0.5968992710113525
-0.35289525985717773 -0.41085273027420044 0.612403154373169
-0.353227823972702 -0.41085273027420044 0.6279069185256958
-0.35326799750328064 -0.41085273027420044 0.6434108018875122
-0.3531021177768707 -0.41085273027420044 0.6589146852493286
-0.3528844118118286 -0.41085273027420044 0.674418568611145
-0.352855384349823 -0.41085273027420044 0.6899224519729614
-0.3528808653354645 -0.41085273027420044 0.7054263353347778
-0.3530784249305725 -0.41085273027420044 0.7209302186965942
-0.35326921939849854 -0.41085273027420044 0.7364341020584106
