0.3488372564315796 -0.7209302186965942 -0.9635310173034668
0.3488372564315796 -0.7209302186965942 -0.9512864947319031
0.3488372564315796 -0.7054263353347778 -0.9637447595596313
0.3488372564315796 -0.7054263949394226 -0.9513072371482849
0.3488372564315796 -0.6899224519729614 -0.9639523029327393
0.3488372564315796 -0.6899224519729614 -0.9512834548950195
0.3488372564315796 -0.674418568611145 -0.9642691612243652
0.3488372564315796 -0.674418568611145 -0.9512412548065186
0.3488372564315796 -0.6589146852493286 -0.964574933052063
0.3488372564315796 -0.6589146852493286 -0.9511916637420654
0.3488372564315796 -0.643410861492157 -0.9646607637405396
0.3488372564315796 -0.643410861492157 -0.9511456489562988
0.3488372564315796 -0.6279069781303406 -0.9646511673927307
0.3488372564315796 -0.6279069781303406 -0.9510965347290039
0.3488372564315796 -0.6124030947685242 -0.9645871520042419
0.3488372564315796 -0.6124030947685242 -0.9510804414749146
0.3488372564315796 -0.5968992114067078 -0.9645538330078125
0.348837286233902 -0.5968992114067078 -0.9510976076126099
0.3488372564315796 -0.5813953876495361 -0.9645016193389893
0.3488372564315796 -0.5813953876495361 -0.9510751962661743
0.3488372564315796 -0.5658915042877197 -0.9643313884735107
0.3488372564315796 -0.5658915042877197 -0.9510893821716309
0.3488372564315796 -0.5503876209259033 -0.9643343687057495
0.3488372564315796 -0.5503876209259033 -0.9511731266975403
0.3488372564315796 -0.5348837375640869 -0.9642537832260132
0.3488372564315796 -0.5348837375640869 -0.9512981176376343
0.3488372564315796 -0.5193798542022705 -0.9642457365989685
0.3488372564315796 -0.5193798542022705 -0.9513826370239258
0.3488372564315796 -0.5038759708404541 -0.9644156098365784
0.3488372564315796 -0.5038759708404541 -0.9514006972312927
0.3488372564315796 -0.4883720874786377 -0.9645446538925171
0.3488372564315796 -0.4883720874786377 -0.9513811469078064
0.3488372564315796 -0.4728682041168213 -0.9647517204284668
0.3488372564315796 -0.4728681743144989 -0.9513681530952454
0.3488372564315796 -0.4573642909526825 -0.9648782014846802
0.3488372564315796 -0.4573643207550049 -0.9513355493545532
0.3488372266292572 -0.4418604075908661 -0.964914083480835
0.3488372564315796 -0.4418604075908661 -0.9512764811515808
0.3488372564315796 -0.42635661363601685 -0.9649277329444885
0.3488372564315796 -0.42635661363601685 -0.9512221813201904
0.3488372564315796 -0.41085273027420044 -0.965064287185669
0.3488372564315796 -0.41085273027420044 -0.951206386089325
0.3488372564315796 -0.39534884691238403 -0.9649455547332764
0.3488372564315796 -0.39534884691238403 -0.9511890411376953
0.3488372564315796 -0.3798449635505676 -0.9647557735443115
0.3488372564315796 -0.3798449635505676 -0.9512154459953308
0.3488372564315796 -0.3643410801887512 -0.9645717144012451
0.3488372266292572 -0.36434105038642883 -0.9512808322906494
0.3488372564315796 -0.3488371968269348 -0.9645556211471558
0.3488372564315796 -0.3488371968269348 -0.9513324499130249
0.3488372564315796 -0.3333333134651184 -0.9648401737213135
0.3488372564315796 -0.3333333134651184 -0.9513741731643677
0.3488372564315796 -0.317829430103302 -0.9649096727371216
0.3488372564315796 -0.3178294599056244 -0.9514069557189941
0.3488372564315796 -0.30232560634613037 -0.9649728536605835
0.3488372266292572 -0.30232560634613037 -0.9514144062995911
0.3488372564315796 -0.28682172298431396 -0.9652599096298218
0.3488372564315796 -0.28682172298431396 -0.9513833522796631
0.3488372564315796 -0.27131783962249756 -0.9655701518058777
0.3488372564315796 -0.27131783962249756 -0.9513551592826843
0.3488372564315796 -0.25581395626068115 -0.965521514415741
0.3488372564315796 -0.25581395626068115 -0.9512906670570374
0.3488372564315796 -0.24031007289886475 -0.9653677940368652
0.3488372564315796 -0.24031007289886475 -0.9512414932250977
0.3488372564315796 -0.22480618953704834 -0.9653527736663818
0.3488372266292572 -0.22480618953704834 -0.9512200355529785
0.3488372564315796 -0.20930230617523193 -0.9654507637023926
0.3488372564315796 -0.20930230617523193 -0.951201319694519
0.348837286233902 -0.19379843771457672 -0.9654600620269775
0.3488372564315796 -0.19379842281341553 -0.9511747360229492
0.3488372564315796 -0.1782945990562439 -0.9653623700141907
0.3488372564315796 -0.1782945990562439 -0.9511796236038208
0.3488372564315796 -0.1627907156944275 -0.9654549360275269
0.3488372564315796 -0.1627907156944275 -0.9512302875518799
0.3488372564315796 -0.14728683233261108 -0.9655868411064148
0.3488372564315796 -0.14728683233261108 -0.9512555599212646
0.3488372564315796 -0.13178294897079468 -0.9657769799232483
0.3488372564315796 -0.13178294897079468 -0.9512566924095154
0.3488372564315796 -0.11627906560897827 -0.965967059135437
0.3488372564315796 -0.11627906560897827 -0.9512408375740051
0.348837286233902 -0.10077518224716187 -0.965961217880249
0.3488372564315796 -0.10077518224716187 -0.951209545135498
0.3488372564315796 -0.10077518224716187 0.4261970818042755
0.3488372564315796 -0.10077518224716187 0.4588479697704315
0.3488372564315796 -0.08527129888534546 -0.9661111235618591
0.3488372266292572 -0.08527129888534546 -0.9511778354644775
0.3488372564315796 -0.08527129888534546 0.42556723952293396
0.3488372564315796 -0.08527129888534546 0.45967650413513184
0.3488372564315796 -0.06976741552352905 -0.9661329388618469
0.3488372564315796 -0.06976741552352905 -0.9511646628379822
0.3488372564315796 -0.05426359176635742 -0.9661262035369873
0.3488372564315796 -0.05426359176635742 -0.9511551856994629
0.3488372564315796 -0.038759712129831314 -0.9660930633544922
0.3488372564315796 -0.038759712129831314 -0.9511412382125854
0.3488372564315796 -0.02325582504272461 -0.9662590026855469
0.3488372564315796 -0.02325582504272461 -0.9511404633522034
0.3488372564315796 -0.007751941215246916 -0.9665950536727905
0.348837286233902 -0.007751941680908203 -0.9511370658874512
0.3488372564315796 0.00775194214656949 -0.9666048884391785
0.3488372564315796 0.007751941680908203 -0.9511433243751526
0.3488372564315796 0.02325582504272461 -0.966834306716919
0.3488372564315796 0.02325582504272461 -0.9511600732803345
0.3488372564315796 0.038759708404541016 -0.9667596817016602
0.3488372564315796 0.038759708404541016 -0.9511727690696716
0.3488372564315796 0.05426359176635742 -0.9669356346130371
0.3488372564315796 0.05426359176635742 -0.9512684941291809
0.3488372564315796 0.06976747512817383 -0.9667331576347351
0.3488372564315796 0.06976747512817383 -0.9513914585113525
0.3488372564315796 0.08527135848999023 -0.966578483581543
0.3488372564315796 0.08527135848999023 -0.9514824151992798
0.3488372266292572 0.10077524185180664 -0.9665275812149048
0.3488372564315796 0.10077524185180664 -0.9515392184257507
0.3488372564315796 0.11627911776304245 -0.9664767980575562
0.3488372564315796 0.11627912521362305 -0.9515984058380127
0.3488372564315796 0.1317828893661499 -0.9663881063461304
0.3488372564315796 0.1317828893661499 -0.95166015625
0.3488372564315796 0.1472867727279663 -0.966274619102478
0.3488372564315796 0.1472867727279663 -0.951727032661438
0.3488372564315796 0.16279064118862152 -0.9665143489837646
0.3488372564315796 0.16279065608978271 -0.9517796635627747
0.3488372564315796 0.17829453945159912 -0.9665404558181763
0.348837286233902 0.17829453945159912 -0.9517985582351685
0.3488372564315796 0.19379842281341553 -0.9663257598876953
0.3488372564315796 0.19379842281341553 -0.9518094062805176
0.3488372564315796 0.20930230617523193 -0.9661188125610352
0.3488372564315796 0.20930230617523193 -0.9518126845359802
0.3488372564315796 0.22480620443820953 -0.9659903049468994
0.348837286233902 0.22480618953704834 -0.9518367052078247
0.3488372564315796 0.24031007289886475 -0.965937077999115
0.3488372564315796 0.24031007289886475 -0.9518564939498901
0.348837286233902 0.25581395626068115 -0.9660500884056091
0.3488372564315796 0.25581395626068115 -0.9518617391586304
0.3488372564315796 0.27131783962249756 -0.9662885665893555
0.3488372564315796 0.27131783962249756 -0.9518634080886841
0.3488372564315796 0.28682172298431396 -0.9663524031639099
0.3488372564315796 0.28682172298431396 -0.9518489837646484
0.3488372564315796 0.30232560634613037 -0.9666228294372559
0.3488372564315796 0.30232560634613037 -0.9518364071846008
0.3488372564315796 0.3178294897079468 -0.9666742086410522
0.3488372564315796 0.3178294897079468 -0.9518154263496399
0.3488372564315796 0.3333333730697632 -0.9665073752403259
0.3488372564315796 0.3333333730697632 -0.951784074306488
0.3488372564315796 0.3488372564315796 -0.96645587682724
0.3488372564315796 0.3488372564315796 -0.9517562389373779
0.3488372564315796 0.364341139793396 -0.9664354920387268
0.3488372564315796 0.3643411695957184 -0.9517213106155396
0.3488372564315796 0.37984490394592285 -0.9665580987930298
0.3488372266292572 0.37984487414360046 -0.9516803026199341
0.3488372564315796 0.39534878730773926 -0.9662786722183228
0.3488372564315796 0.39534878730773926 -0.9516374468803406
0.3488372564315796 0.41085267066955566 -0.9661268591880798
0.3488372564315796 0.41085267066955566 -0.9516242146492004
0.3488372266292572 0.42635655403137207 -0.9657868146896362
0.3488372564315796 0.42635655403137207 -0.9515993595123291
0.3488372564315796 0.4418604373931885 -0.965607762336731
0.3488372564315796 0.4418604373931885 -0.9515979886054993
0.348837286233902 0.45736435055732727 -0.9656780958175659
0.3488372564315796 0.4573643207550049 -0.9516282677650452
0.3488372564315796 0.4728682041168213 -0.9656669497489929
0.3488372564315796 0.4728682041168213 -0.9516593813896179
0.3488372564315796 0.4883720874786377 -0.9659159779548645
0.3488372564315796 0.4883720874786377 -0.9517127871513367
0.3488372564315796 0.5038759708404541 -0.9659274816513062
0.3488372564315796 0.5038759708404541 -0.9517582058906555
0.3488372564315796 0.5193798542022705 -0.9656274914741516
0.3488372564315796 0.5193798542022705 -0.9518059492111206
0.3488372564315796 0.5348837375640869 -0.9653373956680298
0.3488372564315796 0.5348837375640869 -0.9518148303031921
0.3488372564315796 0.5503876209259033 -0.9651572704315186
0.3488372564315796 0.5503876209259033 -0.9518289566040039
0.3488372564315796 0.5658915042877197 -0.9649900794029236
0.3488372564315796 0.5658915042877197 -0.9518138766288757
0.3488372564315796 0.5813953876495361 -0.9647228717803955
0.3488372564315796 0.5813953876495361 -0.9517836570739746
0.3488372564315796 0.5968992710113525 -0.9645723104476929
0.3488372564315796 0.5968992710113525 -0.951750636100769
0.3488372564315796 0.612403154373169 -0.9642612934112549
0.3488372564315796 0.612403154373169 -0.9517138004302979
0.3488372564315796 0.6279069185256958 -0.9641329050064087
0.3488372564315796 0.6279069185256958 -0.9516783952713013
0.3488372564315796 0.6434108018875122 -0.9640190601348877
0.3488372564315796 0.6434108018875122 -0.9516322612762451
0.3488372564315796 0.6589146852493286 -0.9640034437179565
0.3488372564315796 0.6589146852493286 -0.9515964984893799
0.3488372564315796 0.674418568611145 -0.9640304446220398
0.3488372564315796 0.674418568611145 -0.9515501260757446
0.3488372564315796 0.6899224519729614 -0.9640442728996277
0.3488372266292572 0.6899224519729614 -0.9515394568443298
0.3488372564315796 0.7054263353347778 -0.9639343619346619
0.3488372564315796 0.7054263353347778 -0.9515336155891418
0.3488372564315796 0.7209302186965942 -0.9637186527252197
0.3488372564315796 0.7209301590919495 -0.9515255689620972
0.3488372564315796 0.7364341020584106 -0.9636927843093872
0.3488372564315796 0.7364341020584106 -0.951522707939148
0.3488372564315796 0.751937985420227 -0.9637434482574463
0.3488372564315796 0.751937985420227 -0.9515304565429688
0.3488372564315796 0.7674418687820435 -0.9637019634246826
0.3488372564315796 0.7674418091773987 -0.9515022039413452
0.3488372564315796 0.7829457521438599 -0.9634190797805786
0.3488372564315796 0.7829457521438599 -0.951468825340271
0.3488372564315796 0.7984496355056763 -0.9632092714309692
0.3488372564315796 0.7984496355056763 -0.9514443874359131
0.3488372564315796 0.8139535188674927 -0.9629917144775391
0.3488372564315796 0.8139535188674927 -0.9514294862747192
0.3488372564315796 0.8294574022293091 -0.9626764059066772
0.3488372266292572 0.8294574022293091 -0.9514297246932983
0.3488372564315796 0.8449612855911255 -0.9625852108001709
0.3488372564315796 0.8449612855911255 -0.9514611959457397
0.3488372564315796 0.8604651689529419 -0.9624336957931519
0.3488372564315796 0.8604651689529419 -0.9514721632003784
0.3488372564315796 0.8759689331054688 -0.9622765183448792
0.348837286233902 0.8759689331054688 -0.9514908790588379
0.3488372564315796 0.8914728164672852 -0.9621625542640686
0.3488372564315796 0.8914728164672852 -0.9514520764350891
0.3488372564315796 0.9069766998291016 -0.9638087749481201
0.3488372564315796 0.9069766998291016 -0.9511415958404541
0.3488372564315796 0.922480583190918 -0.9651864767074585
0.3488372564315796 0.9224805235862732 -0.9520426988601685
0.364341139793396 -0.922480583190918 -0.9624472260475159
0.364341139793396 -0.9224806427955627 -0.9518858790397644
0.364341139793396 -0.9069766998291016 -0.9627364277839661
0.364341139793396 -0.9069768190383911 -0.9512374401092529
0.364341139793396 -0.8914728760719299 -0.961463451385498
0.364341139793396 -0.8914728760719299 -0.9515465497970581
0.364341139793396 -0.8759689331054688 -0.9617965221405029
0.364341139793396 -0.8759690523147583 -0.9515604376792908
0.364341139793396 -0.8604650497436523 -0.9622496366500854
0.364341139793396 -0.8604651093482971 -0.9515180587768555
0.364341139793396 -0.8449612259864807 -0.9625295400619507
0.364341139793396 -0.8449612259864807 -0.9514907598495483
0.364341139793396 -0.8294573426246643 -0.9627206325531006
0.364341139793396 -0.8294572830200195 -0.9514416456222534
0.364341139793396 -0.8139535188674927 -0.9629126787185669
0.364341139793396 -0.8139535188674927 -0.9513934850692749
0.364341139793396 -0.7984496355056763 -0.9630921483039856
0.364341139793396 -0.7984496355056763 -0.9513760209083557
0.364341139793396 -0.7829457521438599 -0.9631913900375366
0.364341139793396 -0.7829457521438599 -0.951331615447998
0.364341139793396 -0.7674418687820435 -0.9633749723434448
0.364341139793396 -0.7674418687820435 -0.9513312578201294
0.364341139793396 -0.751937985420227 -0.9634232521057129
0.3643411099910736 -0.751937985420227 -0.9513058066368103
0.364341139793396 -0.7364341020584106 -0.9634538888931274
0.364341139793396 -0.7364341616630554 -0.9512979984283447
0.364341139793396 -0.7209302186965942 -0.9635258913040161
0.364341139793396 -0.7209302186965942 -0.951289176940918
0.364341139793396 -0.7054263353347778 -0.9637436270713806
0.364341139793396 -0.7054263353347778 -0.951306164264679
0.364341139793396 -0.6899224519729614 -0.963965892791748
0.364341139793396 -0.6899224519729614 -0.9512820839881897
0.364341139793396 -0.674418568611145 -0.9642969369888306
0.3643411695957184 -0.674418568611145 -0.9512425065040588
0.3643411695957184 -0.6589146852493286 -0.9646271467208862
0.364341139793396 -0.6589146852493286 -0.9511985778808594
0.364341139793396 -0.643410861492157 -0.964701771736145
0.364341139793396 -0.643410861492157 -0.9511573910713196
0.364341139793396 -0.6279069781303406 -0.9646931886672974
0.364341139793396 -0.6279069781303406 -0.9511171579360962
0.364341139793396 -0.6124030351638794 -0.9646439552307129
0.364341139793396 -0.6124030947685242 -0.951111376285553
0.364341139793396 -0.5968992114067078 -0.964606761932373
0.3643411099910736 -0.5968992114067078 -0.9511318206787109
0.364341139793396 -0.5813953876495361 -0.9645804166793823
0.364341139793396 -0.5813953876495361 -0.9511049389839172
0.364341139793396 -0.5658915042877197 -0.964442253112793
0.3643411695957184 -0.5658915042877197 -0.9511122703552246
0.364341139793396 -0.5503876209259033 -0.9644713401794434
0.3643411695957184 -0.5503876209259033 -0.951190710067749
0.364341139793396 -0.5348837375640869 -0.9643576145172119
0.364341139793396 -0.5348837375640869 -0.951309323310852
0.364341139793396 -0.5193798542022705 -0.9643455743789673
0.364341139793396 -0.5193798542022705 -0.9513894319534302
0.364341139793396 -0.5038759708404541 -0.9645446538925171
0.364341139793396 -0.5038759708404541 -0.951403021812439
0.364341139793396 -0.4883720874786377 -0.964698851108551
0.364341139793396 -0.4883720874786377 -0.9513766765594482
0.364341139793396 -0.4728682041168213 -0.9648967981338501
0.364341139793396 -0.4728682041168213 -0.9513568878173828
0.364341139793396 -0.4573643207550049 -0.964997410774231
0.364341139793396 -0.4573643207550049 -0.951321005821228
0.364341139793396 -0.4418604373931885 -0.9650116562843323
0.364341139793396 -0.4418604373931885 -0.9512636661529541
0.3643411099910736 -0.42635661363601685 -0.9649896621704102
0.364341139793396 -0.42635661363601685 -0.9512112736701965
0.3643411695957184 -0.41085273027420044 -0.9651134014129639
0.364341139793396 -0.41085273027420044 -0.9511942863464355
0.364341139793396 -0.39534884691238403 -0.9650049209594727
0.364341139793396 -0.39534884691238403 -0.9511747360229492
0.364341139793396 -0.3798449635505676 -0.9648542404174805
0.364341139793396 -0.3798449635505676 -0.951197624206543
0.364341139793396 -0.3643410801887512 -0.9647032022476196
0.364341139793396 -0.3643410801887512 -0.9512617588043213
0.364341139793396 -0.3488371968269348 -0.9646586775779724
0.364341139793396 -0.3488371968269348 -0.9513082504272461
0.364341139793396 -0.3333333134651184 -0.9649260640144348
0.364341139793396 -0.3333333134651184 -0.9513512253761292
0.364341139793396 -0.317829430103302 -0.9649954438209534
0.364341139793396 -0.317829430103302 -0.951384961605072
0.364341139793396 -0.30232560634613037 -0.9650779962539673
0.364341139793396 -0.30232560634613037 -0.9513936042785645
0.364341139793396 -0.28682172298431396 -0.9653676748275757
0.3643411099910736 -0.28682172298431396 -0.9513630270957947
0.364341139793396 -0.27131783962249756 -0.9656962752342224
0.364341139793396 -0.27131783962249756 -0.951335072517395
0.364341139793396 -0.25581395626068115 -0.9656317830085754
0.364341139793396 -0.25581395626068115 -0.951267659664154
0.364341139793396 -0.24031007289886475 -0.9654631614685059
0.364341139793396 -0.24031007289886475 -0.9512165784835815
0.364341139793396 -0.22480618953704834 -0.9654325246810913
0.3643411099910736 -0.22480618953704834 -0.9511961340904236
0.364341139793396 -0.20930230617523193 -0.9655047059059143
0.364341139793396 -0.20930229127407074 -0.951178252696991
0.364341139793396 -0.19379842281341553 -0.9655215740203857
0.3643411695957184 -0.19379842281341553 -0.9511535167694092
0.364341139793396 -0.1782945990562439 -0.965432345867157
0.3643411099910736 -0.1782945990562439 -0.9511606693267822
0.3643411099910736 -0.1627907156944275 -0.9654933214187622
0.364341139793396 -0.1627907156944275 -0.9512119293212891
0.364341139793396 -0.14728683233261108 -0.9655827283859253
0.364341139793396 -0.14728683233261108 -0.9512376189231873
0.364341139793396 -0.13178294897079468 -0.9657499194145203
0.364341139793396 -0.13178294897079468 -0.9512391090393066
0.364341139793396 -0.11627906560897827 -0.9659445285797119
0.364341139793396 -0.11627906560897827 -0.9512230157852173
0.364341139793396 -0.11627906560897827 0.43895184993743896
0.364341139793396 -0.11627906560897827 0.4532026946544647
0.364341139793396 -0.10077518224716187 -0.965940535068512
0.364341139793396 -0.10077518224716187 -0.951190173625946
0.364341139793396 -0.10077518224716187 0.42985787987709045
0.364341139793396 -0.10077518224716187 0.4586274325847626
0.364341139793396 -0.08527129888534546 -0.9660797715187073
0.364341139793396 -0.08527129888534546 -0.9511559009552002
0.364341139793396 -0.08527129888534546 0.4361061751842499
0.364341139793396 -0.08527129888534546 0.4567219913005829
0.364341139793396 -0.06976741552352905 -0.9660770297050476
0.364341139793396 -0.06976741552352905 -0.9511397480964661
0.3643411099910736 -0.05426359176635742 -0.9660430550575256
0.364341139793396 -0.05426359176635742 -0.9511264562606812
0.364341139793396 -0.038759708404541016 -0.9659897685050964
0.364341139793396 -0.038759708404541016 -0.9511078596115112
0.364341139793396 -0.02325582504272461 -0.9661329984664917
0.364341139793396 -0.02325582504272461 -0.9511013031005859
0.364341139793396 -0.007751941680908203 -0.9664630889892578
0.364341139793396 -0.007751941680908203 -0.9510922431945801
0.364341139793396 0.007751941680908203 -0.9664852023124695
0.3643411099910736 0.007751941680908203 -0.9510940313339233
0.364341139793396 0.02325582504272461 -0.9667432308197021
0.364341139793396 0.02325582504272461 -0.9511098861694336
0.364341139793396 0.038759708404541016 -0.9666415452957153
0.364341139793396 0.038759708404541016 -0.951125979423523
0.364341139793396 0.05426359176635742 -0.9668286442756653
0.364341139793396 0.05426359176635742 -0.9512251019477844
0.364341139793396 0.06976747512817383 -0.9666872024536133
0.364341139793396 0.06976747512817383 -0.9513497352600098
0.364341139793396 0.08527135848999023 -0.9666087627410889
0.364341139793396 0.08527136594057083 -0.9514437317848206
0.364341139793396 0.10077524185180664 -0.9665932655334473
0.364341139793396 0.10077523440122604 -0.9515035152435303
0.364341139793396 0.11627912521362305 -0.9665506482124329
0.364341139793396 0.11627912521362305 -0.9515622854232788
0.364341139793396 0.1317828893661499 -0.96644526720047
0.364341139793396 0.1317828893661499 -0.9516218900680542
0.364341139793396 0.1472867727279663 -0.9663159847259521
0.3643411099910736 0.1472867727279663 -0.9516902565956116
0.364341139793396 0.16279065608978271 -0.9665283560752869
0.3643411099910736 0.16279065608978271 -0.951743483543396
0.364341139793396 0.17829453945159912 -0.9665328860282898
0.364341139793396 0.17829453945159912 -0.9517605900764465
0.364341139793396 0.19379842281341553 -0.9663326740264893
0.364341139793396 0.19379842281341553 -0.9517697691917419
0.364341139793396 0.20930230617523193 -0.9661657810211182
0.3643411695957184 0.20930230617523193 -0.9517730474472046
0.364341139793396 0.22480618953704834 -0.9660193920135498
0.364341139793396 0.22480618953704834 -0.9517990946769714
0.364341139793396 0.24031007289886475 -0.965927004814148
0.364341139793396 0.24031008780002594 -0.951820969581604
0.364341139793396 0.25581395626068115 -0.9660277962684631
0.3643411099910736 0.25581395626068115 -0.9518263339996338
0.364341139793396 0.27131783962249756 -0.9662556052207947
0.364341139793396 0.27131783962249756 -0.9518266916275024
0.364341139793396 0.28682172298431396 -0.9663045406341553
0.364341139793396 0.28682172298431396 -0.9518108367919922
0.364341139793396 0.30232560634613037 -0.9665457010269165
0.364341139793396 0.30232560634613037 -0.9517983198165894
0.364341139793396 0.3178294897079468 -0.9665946960449219
0.364341139793396 0.3178294897079468 -0.9517763257026672
0.364341139793396 0.3333333730697632 -0.9664244651794434
0.364341139793396 0.3333333730697632 -0.9517428278923035
0.364341139793396 0.3488372564315796 -0.9663785696029663
0.364341139793396 0.3488372564315796 -0.9517118334770203
0.364341139793396 0.364341139793396 -0.966358482837677
0.364341139793396 0.364341139793396 -0.9516725540161133
0.364341139793396 0.37984490394592285 -0.9664990901947021
0.364341139793396 0.37984490394592285 -0.9516275525093079
0.364341139793396 0.39534878730773926 -0.9662312865257263
0.364341139793396 0.39534878730773926 -0.9515792727470398
0.3643411099910736 0.41085267066955566 -0.9660789370536804
0.364341139793396 0.41085267066955566 -0.9515657424926758
0.364341139793396 0.42635655403137207 -0.9657013416290283
0.364341139793396 0.42635655403137207 -0.9515416026115417
0.364341139793396 0.4418604075908661 -0.9655038714408875
0.364341139793396 0.4418604373931885 -0.9515427350997925
0.364341139793396 0.4573643207550049 -0.9655655026435852
0.364341139793396 0.4573643207550049 -0.9515784382820129
0.364341139793396 0.4728682041168213 -0.9655661582946777
0.364341139793396 0.4728682041168213 -0.9516156315803528
0.364341139793396 0.4883721172809601 -0.965828537940979
0.364341139793396 0.4883720874786377 -0.9516762495040894
0.364341139793396 0.5038759708404541 -0.9658421277999878
0.364341139793396 0.5038759708404541 -0.9517272114753723
0.364341139793396 0.5193798542022705 -0.9655616879463196
0.364341139793396 0.5193798542022705 -0.9517784118652344
0.364341139793396 0.5348837375640869 -0.9652926921844482
0.364341139793396 0.5348837375640869 -0.9517900347709656
0.364341139793396 0.5503876209259033 -0.9651416540145874
0.364341139793396 0.5503876209259033 -0.9518041610717773
0.364341139793396 0.5658915042877197 -0.9649838209152222
0.364341139793396 0.5658915042877197 -0.9517884850502014
0.3643411099910736 0.5813953876495361 -0.9647393226623535
0.3643411695957184 0.5813953876495361 -0.9517560005187988
0.364341139793396 0.5968992710113525 -0.9646287560462952
0.364341139793396 0.5968992710113525 -0.9517232775688171
0.3643411099910736 0.612403154373169 -0.9643006324768066
0.364341139793396 0.612403154373169 -0.9516859650611877
0.364341139793396 0.6279069185256958 -0.9641455411911011
0.364341139793396 0.6279069185256958 -0.9516516327857971
0.364341139793396 0.6434108018875122 -0.9640274047851562
0.364341139793396 0.6434108018875122 -0.951607882976532
0.364341139793396 0.6589146852493286 -0.9640113115310669
0.364341139793396 0.6589146852493286 -0.9515746235847473
0.364341139793396 0.674418568611145 -0.9640293121337891
0.364341139793396 0.674418568611145 -0.9515314102172852
0.364341139793396 0.6899224519729614 -0.9640363454818726
0.364341139793396 0.6899224519729614 -0.9515243768692017
0.364341139793396 0.7054263353347778 -0.9639346599578857
0.364341139793396 0.7054263353347778 -0.951520562171936
0.364341139793396 0.7209302186965942 -0.96372389793396
0.364341139793396 0.7209302186965942 -0.9515123963356018
0.364341139793396 0.7364341020584106 -0.9637000560760498
0.364341139793396 0.7364341020584106 -0.9515096545219421
0.364341139793396 0.751937985420227 -0.9637393951416016
0.364341139793396 0.751937985420227 -0.9515160918235779
0.364341139793396 0.7674418687820435 -0.963689923286438
0.364341139793396 0.7674418687820435 -0.9514864087104797
0.364341139793396 0.7829457521438599 -0.9634162187576294
0.364341139793396 0.7829457521438599 -0.951451301574707
0.364341139793396 0.7984496355056763 -0.963202714920044
0.364341139793396 0.7984496355056763 -0.9514251947402954
0.364341139793396 0.8139535188674927 -0.9629733562469482
0.364341139793396 0.8139535188674927 -0.9514086842536926
0.364341139793396 0.8294574022293091 -0.9626604318618774
0.364341139793396 0.8294574022293091 -0.9514080286026001
0.364341139793396 0.8449612855911255 -0.9625838994979858
0.364341139793396 0.8449612855911255 -0.9514428377151489
0.364341139793396 0.8604651689529419 -0.9624594449996948
0.364341139793396 0.8604652285575867 -0.9514604806900024
0.364341139793396 0.8759689331054688 -0.9623198509216309
0.364341139793396 0.8759689331054688 -0.9514858722686768
0.364341139793396 0.8914728164672852 -0.9621911644935608
0.364341139793396 0.8914727568626404 -0.9514577388763428
0.364341139793396 0.9069766998291016 -0.9637835025787354
0.364341139793396 0.9069766998291016 -0.9511662721633911
0.364341139793396 0.922480583190918 -0.9648809432983398
0.364341139793396 0.922480583190918 -0.9521097540855408
0.37984490394592285 -0.922480583190918 -0.962173581123352
0.37984490394592285 -0.9224806427955627 -0.9519571661949158
0.37984490394592285 -0.9069766998291016 -0.962710976600647
0.37984490394592285 -0.9069767594337463 -0.9512604475021362
0.37984490394592285 -0.8914729356765747 -0.9613394737243652
0.37984487414360046 -0.8914728760719299 -0.9515942931175232
0.37984490394592285 -0.8759689331054688 -0.961638331413269
0.37984490394592285 -0.8759689927101135 -0.951627254486084
0.37984490394592285 -0.8604651093482971 -0.962070882320404
0.37984493374824524 -0.8604651689529419 -0.9515902400016785
0.37984490394592285 -0.8449611663818359 -0.9623541235923767
0.37984490394592285 -0.8449612259864807 -0.951563835144043
0.37984490394592285 -0.8294572830200195 -0.962548017501831
0.37984487414360046 -0.8294573426246643 -0.9515151977539062
0.37984490394592285 -0.8139535188674927 -0.9627424478530884
0.37984490394592285 -0.8139535188674927 -0.9514683485031128
0.37984490394592285 -0.7984496355056763 -0.962931752204895
0.37984490394592285 -0.7984496355056763 -0.9514521360397339
0.37984490394592285 -0.7829457521438599 -0.9630390405654907
0.37984490394592285 -0.7829457521438599 -0.9514089822769165
0.37984490394592285 -0.7674418687820435 -0.9632547497749329
0.37984490394592285 -0.7674418687820435 -0.9514061808586121
0.37984490394592285 -0.751937985420227 -0.9633111357688904
0.37984490394592285 -0.751937985420227 -0.9513751864433289
0.37984490394592285 -0.7364341020584106 -0.9633235931396484
0.37984487414360046 -0.7364340424537659 -0.951360285282135
0.37984490394592285 -0.7209302186965942 -0.9633774161338806
0.37984490394592285 -0.7209302186965942 -0.9513449668884277
0.37984490394592285 -0.7054263353347778 -0.963610053062439
0.37984490394592285 -0.7054263353347778 -0.9513551592826843
0.37984490394592285 -0.6899224519729614 -0.9638423919677734
0.37984493374824524 -0.6899225115776062 -0.9513271450996399
0.37984490394592285 -0.674418568611145 -0.9641722440719604
0.37984490394592285 -0.674418568611145 -0.9512906074523926
0.37984490394592285 -0.6589146852493286 -0.9645004868507385
0.37984490394592285 -0.6589146852493286 -0.9512555599212646
0.37984490394592285 -0.643410861492157 -0.9645458459854126
0.37984490394592285 -0.643410861492157 -0.9512206315994263
0.37984490394592285 -0.6279069781303406 -0.9645532369613647
0.37984490394592285 -0.6279070377349854 -0.9511887431144714
0.37984490394592285 -0.612403154373169 -0.9645446538925171
0.37984490394592285 -0.6124030351638794 -0.9511896967887878
0.37984490394592285 -0.5968992114067078 -0.964564323425293
0.37984490394592285 -0.5968992114067078 -0.951216459274292
0.37984490394592285 -0.5813953876495361 -0.9645878672599792
0.37984490394592285 -0.5813953876495361 -0.9511940479278564
0.37984490394592285 -0.5658915042877197 -0.9644759893417358
0.37984490394592285 -0.5658915042877197 -0.9511972665786743
0.37984487414360046 -0.5503876209259033 -0.964532732963562
0.37984493374824524 -0.5503876209259033 -0.9512678384780884
0.37984490394592285 -0.5348837375640869 -0.9643951058387756
0.37984487414360046 -0.5348837375640869 -0.9513731598854065
0.37984490394592285 -0.5193798542022705 -0.9643769264221191
0.37984490394592285 -0.5193798542022705 -0.9514417052268982
0.37984490394592285 -0.5038759708404541 -0.964606523513794
0.37984490394592285 -0.5038759708404541 -0.9514487385749817
0.37984490394592285 -0.4883720874786377 -0.9648149609565735
0.37984490394592285 -0.4883720874786377 -0.9514179825782776
0.37984490394592285 -0.4728682041168213 -0.9650079011917114
0.37984490394592285 -0.4728682041168213 -0.9513932466506958
0.37984490394592285 -0.4573643207550049 -0.965061604976654
0.37984490394592285 -0.4573643207550049 -0.9513586759567261
0.37984490394592285 -0.4418604373931885 -0.96502685546875
0.37984490394592285 -0.4418604373931885 -0.9513106346130371
0.37984490394592285 -0.42635661363601685 -0.9649626016616821
0.37984490394592285 -0.42635661363601685 -0.9512670040130615
0.37984490394592285 -0.41085273027420044 -0.9651060104370117
0.37984490394592285 -0.41085273027420044 -0.9512588381767273
0.37984490394592285 -0.39534884691238403 -0.9650128483772278
0.37984490394592285 -0.39534884691238403 -0.9512402415275574
0.37984490394592285 -0.37984493374824524 -0.9648947715759277
0.37984490394592285 -0.3798449635505676 -0.9512605667114258
0.37984490394592285 -0.3643410801887512 -0.9647570848464966
0.37984490394592285 -0.3643410801887512 -0.9513195157051086
0.37984490394592285 -0.3488371968269348 -0.964676022529602
0.37984490394592285 -0.3488371968269348 -0.9513567686080933
0.37984490394592285 -0.3333333134651184 -0.9649097919464111
0.37984490394592285 -0.3333333134651184 -0.9513945579528809
0.37984490394592285 -0.317829430103302 -0.9649783372879028
0.37984490394592285 -0.317829430103302 -0.951423704624176
0.37984490394592285 -0.30232560634613037 -0.9650900363922119
0.37984490394592285 -0.30232560634613037 -0.9514299035072327
0.37984490394592285 -0.28682172298431396 -0.9653887152671814
0.37984490394592285 -0.28682172298431396 -0.9513965845108032
0.37984490394592285 -0.27131783962249756 -0.965728759765625
0.37984490394592285 -0.27131783962249756 -0.9513657689094543
0.37984490394592285 -0.25581395626068115 -0.9656394720077515
0.37984490394592285 -0.25581395626068115 -0.9512942433357239
0.37984490394592285 -0.24031007289886475 -0.9654778242111206
0.37984490394592285 -0.24031007289886475 -0.9512434005737305
0.37984490394592285 -0.22480618953704834 -0.965462327003479
0.37984493374824524 -0.22480620443820953 -0.9512248635292053
0.37984490394592285 -0.20930230617523193 -0.9655320048332214
0.37984490394592285 -0.20930230617523193 -0.9512096643447876
0.37984490394592285 -0.19379842281341553 -0.9655466079711914
0.37984490394592285 -0.19379842281341553 -0.9511908292770386
0.37984490394592285 -0.1782945990562439 -0.9654271006584167
0.37984490394592285 -0.1782945990562439 -0.9511997699737549
0.37984490394592285 -0.1627907156944275 -0.9654631614685059
0.37984490394592285 -0.1627907156944275 -0.9512465000152588
0.37984490394592285 -0.14728683233261108 -0.9654911756515503
0.37984490394592285 -0.14728683233261108 -0.951264500617981
0.37984490394592285 -0.13178294897079468 -0.9656075239181519
0.37984490394592285 -0.13178294897079468 -0.9512625932693481
0.37984487414360046 -0.11627906560897827 -0.9657922983169556
0.37984490394592285 -0.11627906560897827 -0.9512492418289185
0.37984490394592285 -0.11627906560897827 0.4373959004878998
0.37984490394592285 -0.11627906560897827 0.45765167474746704
0.37984490394592285 -0.10077518224716187 -0.9657989144325256
0.37984490394592285 -0.10077518224716187 -0.951219916343689
0.37984490394592285 -0.10077518224716187 0.4351203739643097
0.37984490394592285 -0.10077518224716187 0.457903653383255
0.37984490394592285 -0.08527129888534546 -0.9659305810928345
0.37984490394592285 -0.08527129888534546 -0.9511876702308655
0.37984490394592285 -0.06976741552352905 -0.9659152030944824
0.37984490394592285 -0.06976741552352905 -0.9511725902557373
0.37984490394592285 -0.05426359176635742 -0.9658694267272949
0.37984490394592285 -0.05426359176635742 -0.951160192489624
0.37984490394592285 -0.038759708404541016 -0.9657846689224243
0.37984490394592285 -0.03875970467925072 -0.9511477947235107
0.37984490394592285 -0.02325582504272461 -0.9659297466278076
0.37984490394592285 -0.02325582504272461 -0.951149582862854
0.37984490394592285 -0.007751941680908203 -0.9662692546844482
0.37984490394592285 -0.007751941215246916 -0.9511431455612183
0.37984490394592285 0.007751941680908203 -0.966291069984436
0.37984490394592285 0.007751941680908203 -0.9511401653289795
0.37984487414360046 0.02325582318007946 -0.9665607213973999
0.37984490394592285 0.02325582504272461 -0.9511412382125854
0.37984490394592285 0.038759708404541016 -0.9664437770843506
0.37984487414360046 0.038759708404541016 -0.9511345624923706
0.37984490394592285 0.05426359176635742 -0.9666500687599182
0.37984490394592285 0.05426358804106712 -0.9512152075767517
0.37984487414360046 0.06976747512817383 -0.9665590524673462
0.37984490394592285 0.06976747512817383 -0.9513380527496338
0.37984490394592285 0.08527135848999023 -0.966550350189209
0.37984493374824524 0.08527135848999023 -0.9514470100402832
0.37984490394592285 0.10077524185180664 -0.966588020324707
0.37984490394592285 0.10077524930238724 -0.9515235424041748
0.37984490394592285 0.11627913266420364 -0.9665472507476807
0.37984490394592285 0.11627911776304245 -0.9515855312347412
0.37984490394592285 0.1317828893661499 -0.966378390789032
0.37984490394592285 0.1317828893661499 -0.9516362547874451
0.37984490394592285 0.1472867727279663 -0.9661997556686401
0.37984490394592285 0.1472867727279663 -0.9516945481300354
0.37984490394592285 0.16279065608978271 -0.9664044976234436
0.37984490394592285 0.16279064118862152 -0.951740562915802
0.37984490394592285 0.17829453945159912 -0.9663816690444946
0.37984490394592285 0.17829453945159912 -0.9517508149147034
0.37984490394592285 0.19379842281341553 -0.9661942720413208
0.37984490394592285 0.19379842281341553 -0.9517574310302734
0.37984490394592285 0.20930230617523193 -0.9660342931747437
0.37984493374824524 0.20930230617523193 -0.9517613649368286
0.37984490394592285 0.22480620443820953 -0.9658772349357605
0.37984490394592285 0.22480618953704834 -0.9517902135848999
0.37984490394592285 0.24031007289886475 -0.9657375812530518
0.37984490394592285 0.24031007289886475 -0.9518155455589294
0.37984490394592285 0.25581395626068115 -0.965791642665863
0.37984490394592285 0.25581395626068115 -0.9518218040466309
0.37984490394592285 0.27131783962249756 -0.966026246547699
0.37984487414360046 0.27131783962249756 -0.9518216848373413
0.37984490394592285 0.28682172298431396 -0.9660823345184326
0.37984490394592285 0.28682172298431396 -0.951802670955658
0.37984490394592285 0.30232560634613037 -0.966301441192627
0.37984490394592285 0.30232560634613037 -0.9517850875854492
0.37984490394592285 0.3178294897079468 -0.9663399457931519
0.37984490394592285 0.3178294897079468 -0.9517590999603271
0.37984490394592285 0.3333333730697632 -0.9661900997161865
0.37984490394592285 0.3333333730697632 -0.9517263174057007
0.37984490394592285 0.3488372564315796 -0.9661731719970703
0.37984490394592285 0.348837286233902 -0.9517017602920532
0.37984490394592285 0.364341139793396 -0.9662021398544312
0.37984490394592285 0.3643411695957184 -0.9516705870628357
0.37984490394592285 0.37984490394592285 -0.966402530670166
0.37984490394592285 0.37984490394592285 -0.9516315460205078
0.37984490394592285 0.39534878730773926 -0.9661424160003662
0.37984487414360046 0.39534875750541687 -0.951583981513977
0.37984493374824524 0.41085267066955566 -0.9659961462020874
0.37984490394592285 0.4108526408672333 -0.951570451259613
0.37984487414360046 0.42635655403137207 -0.9655668139457703
0.37984490394592285 0.42635655403137207 -0.9515424370765686
0.37984490394592285 0.4418604075908661 -0.9653365015983582
0.37984490394592285 0.4418604373931885 -0.9515401124954224
0.37984490394592285 0.4573643207550049 -0.9653818607330322
0.37984490394592285 0.4573643207550049 -0.9515734910964966
0.37984490394592285 0.4728682041168213 -0.9653594493865967
0.37984490394592285 0.4728682041168213 -0.9516085386276245
0.37984490394592285 0.4883720874786377 -0.9656126499176025
0.37984490394592285 0.4883720874786377 -0.9516700506210327
0.37984490394592285 0.5038759708404541 -0.9655982255935669
0.37984490394592285 0.5038759708404541 -0.9517216682434082
0.37984490394592285 0.5193798542022705 -0.9653205275535583
0.37984490394592285 0.5193798542022705 -0.9517756700515747
0.37984490394592285 0.5348837375640869 -0.9650728702545166
0.37984490394592285 0.5348837375640869 -0.9517911672592163
0.37984490394592285 0.5503876209259033 -0.9649785757064819
0.37984490394592285 0.5503876209259033 -0.9518090486526489
0.37984490394592285 0.5658915042877197 -0.9648622274398804
0.37984490394592285 0.565891444683075 -0.9517965316772461
0.37984490394592285 0.5813953876495361 -0.9646620750427246
0.37984490394592285 0.5813953876495361 -0.9517664313316345
0.37984490394592285 0.5968992710113525 -0.9645769596099854
0.37984490394592285 0.5968992710113525 -0.9517366886138916
0.37984490394592285 0.612403154373169 -0.964221715927124
0.37984490394592285 0.6124030947685242 -0.951700747013092
0.37984490394592285 0.6279069185256958 -0.964034914970398
0.37984490394592285 0.6279069185256958 -0.9516681432723999
0.37984490394592285 0.6434108018875122 -0.9638857841491699
0.37984490394592285 0.6434108018875122 -0.9516251087188721
0.37984490394592285 0.6589146852493286 -0.9638638496398926
0.37984490394592285 0.6589146852493286 -0.9515948295593262
0.37984490394592285 0.674418568611145 -0.9638768434524536
0.37984490394592285 0.674418568611145 -0.9515563249588013
0.37984490394592285 0.6899224519729614 -0.9638797044754028
0.37984490394592285 0.6899224519729614 -0.9515544176101685
0.37984490394592285 0.7054263353347778 -0.9637793898582458
0.37984490394592285 0.7054263353347778 -0.9515542984008789
0.37984490394592285 0.7209302186965942 -0.9635616540908813
0.37984490394592285 0.7209302186965942 -0.9515477418899536
0.37984490394592285 0.7364341020584106 -0.96353679895401
0.37984490394592285 0.7364341616630554 -0.9515470862388611
0.37984490394592285 0.751937985420227 -0.963584303855896
0.37984490394592285 0.751937985420227 -0.9515556693077087
0.37984490394592285 0.7674418687820435 -0.9635406732559204
0.37984490394592285 0.7674418687820435 -0.9515284299850464
0.37984490394592285 0.7829457521438599 -0.9632476568222046
0.37984490394592285 0.7829457521438599 -0.9514933824539185
0.37984490394592285 0.7984496355056763 -0.9630200862884521
0.37984490394592285 0.7984496355056763 -0.9514672160148621
0.37984490394592285 0.8139535188674927 -0.9627763628959656
0.37984490394592285 0.8139535188674927 -0.9514479637145996
0.37984490394592285 0.8294574022293091 -0.9624537229537964
0.37984490394592285 0.8294574022293091 -0.9514427185058594
0.37984490394592285 0.8449612855911255 -0.9623884558677673
0.37984490394592285 0.8449612855911255 -0.9514763355255127
0.37984490394592285 0.8604651689529419 -0.9622780680656433
0.37984490394592285 0.8604651689529419 -0.9514964818954468
0.37984490394592285 0.8759689331054688 -0.9621537923812866
0.37984490394592285 0.8759689331054688 -0.9515228867530823
0.37984490394592285 0.8914728164672852 -0.9620158076286316
0.37984493374824524 0.8914728164672852 -0.9514920711517334
0.37984490394592285 0.9069766998291016 -0.9636133909225464
0.37984490394592285 0.9069766998291016 -0.9511959552764893
0.37984490394592285 0.922480583190918 -0.9643007516860962
0.37984493374824524 0.9224806427955627 -0.9521762132644653
0.39534878730773926 -0.9224806427955627 -0.9622305631637573
0.39534878730773926 -0.9224806427955627 -0.9519714713096619
0.39534878730773926 -0.9069766998291016 -0.9627953171730042
0.39534878730773926 -0.9069767594337463 -0.9512633085250854
0.39534878730773926 -0.8914728760719299 -0.9613874554634094
0.39534878730773926 -0.8914729356765747 -0.9515830874443054
0.39534878730773926 -0.8759690523147583 -0.9616513252258301
0.39534878730773926 -0.8759689927101135 -0.9516136050224304
0.39534878730773926 -0.8604651093482971 -0.9620668888092041
0.39534875750541687 -0.8604651093482971 -0.9515759944915771
0.39534878730773926 -0.8449612259864807 -0.9623478651046753
0.39534878730773926 -0.8449612855911255 -0.9515466094017029
0.39534878730773926 -0.8294573426246643 -0.9625381231307983
0.39534878730773926 -0.8294573426246643 -0.9514954686164856
0.39534878730773926 -0.8139535188674927 -0.9627257585525513
0.39534878730773926 -0.8139535188674927 -0.9514468312263489
0.39534878730773926 -0.7984496355056763 -0.962905764579773
0.39534878730773926 -0.7984496355056763 -0.9514303207397461
0.39534878730773926 -0.7829457521438599 -0.9630067348480225
0.39534878730773926 -0.7829457521438599 -0.9513859748840332
0.39534878730773926 -0.7674418687820435 -0.9632205963134766
0.39534878730773926 -0.7674418687820435 -0.9513802528381348
0.39534878730773926 -0.751937985420227 -0.963287353515625
0.39534878730773926 -0.751937985420227 -0.9513450264930725
0.39534878730773926 -0.7364341020584106 -0.9633110761642456
0.39534878730773926 -0.7364341020584106 -0.9513273239135742
0.39534878730773926 -0.7209302186965942 -0.9633686542510986
0.39534878730773926 -0.7209302186965942 -0.951309323310852
0.39534878730773926 -0.7054263353347778 -0.9636029005050659
0.39534878730773926 -0.7054263353347778 -0.9513149857521057
0.39534878730773926 -0.6899224519729614 -0.9638246297836304
0.39534878730773926 -0.6899224519729614 -0.9512827396392822
0.39534878730773926 -0.674418568611145 -0.9641211032867432
0.39534878730773926 -0.674418568611145 -0.9512478709220886
0.39534881711006165 -0.6589146852493286 -0.9644116163253784
0.39534878730773926 -0.6589146852493286 -0.9512203931808472
0.39534878730773926 -0.643410861492157 -0.964443564414978
0.39534878730773926 -0.643410861492157 -0.9511951804161072
0.39534878730773926 -0.6279069781303406 -0.9644713401794434
0.39534878730773926 -0.6279069781303406 -0.9511696100234985
0.39534878730773926 -0.6124030947685242 -0.9645015001296997
0.39534878730773926 -0.6124030947685242 -0.9511749148368835
0.39534878730773926 -0.5968992710113525 -0.9645609259605408
0.39534878730773926 -0.5968992114067078 -0.9512045383453369
0.39534878730773926 -0.5813953876495361 -0.9646201133728027
0.39534875750541687 -0.5813953876495361 -0.951181948184967
0.39534878730773926 -0.5658915042877197 -0.9645417928695679
0.39534878730773926 -0.5658915042877197 -0.9511831998825073
0.39534875750541687 -0.5503876209259033 -0.9646246433258057
0.39534881711006165 -0.5503876209259033 -0.9512506127357483
0.39534875750541687 -0.5348837375640869 -0.9645029306411743
0.39534878730773926 -0.5348837375640869 -0.9513515830039978
0.39534878730773926 -0.5193798542022705 -0.9644951820373535
0.39534878730773926 -0.5193798542022705 -0.9514140486717224
0.39534881711006165 -0.5038759708404541 -0.9647374749183655
0.39534878730773926 -0.5038759708404541 -0.9514141082763672
0.39534878730773926 -0.4883720874786377 -0.9649465680122375
0.39534878730773926 -0.4883720874786377 -0.9513756632804871
0.39534878730773926 -0.4728682041168213 -0.9651221632957458
0.39534875750541687 -0.4728681743144989 -0.9513482451438904
0.39534878730773926 -0.4573643207550049 -0.9651488065719604
0.39534878730773926 -0.4573643207550049 -0.9513174891471863
0.39534875750541687 -0.4418604373931885 -0.9650867581367493
0.39534878730773926 -0.4418604373931885 -0.9512772560119629
0.39534878730773926 -0.42635661363601685 -0.9650154113769531
0.39534881711006165 -0.42635661363601685 -0.9512413740158081
0.39534878730773926 -0.41085270047187805 -0.9651737809181213
0.39534875750541687 -0.41085273027420044 -0.9512357115745544
0.39534878730773926 -0.39534884691238403 -0.9650992155075073
0.39534878730773926 -0.39534884691238403 -0.9512145519256592
0.39534878730773926 -0.3798449635505676 -0.9649971127510071
0.39534878730773926 -0.3798449635505676 -0.951229453086853
0.39534878730773926 -0.3643410801887512 -0.9648649096488953
0.39534878730773926 -0.3643410801887512 -0.9512869119644165
0.39534878730773926 -0.3488371968269348 -0.9647843837738037
0.39534881711006165 -0.3488371968269348 -0.9513260126113892
0.39534878730773926 -0.3333333134651184 -0.9650140404701233
0.39534878730773926 -0.3333333134651184 -0.9513630867004395
0.39534878730773926 -0.317829430103302 -0.9650892615318298
0.39534878730773926 -0.317829430103302 -0.9513886570930481
0.39534875750541687 -0.30232560634613037 -0.9652062654495239
0.39534878730773926 -0.30232563614845276 -0.951388418674469
0.39534878730773926 -0.28682172298431396 -0.9655044078826904
0.39534875750541687 -0.28682172298431396 -0.951349675655365
0.39534878730773926 -0.27131783962249756 -0.9658603072166443
0.39534878730773926 -0.27131783962249756 -0.9513182044029236
0.39534878730773926 -0.25581395626068115 -0.9658021926879883
0.39534878730773926 -0.25581395626068115 -0.951248049736023
0.39534878730773926 -0.24031007289886475 -0.9656693935394287
0.39534878730773926 -0.24031007289886475 -0.951200544834137
0.39534878730773926 -0.22480618953704834 -0.9656665325164795
0.39534878730773926 -0.22480618953704834 -0.9511854648590088
0.39534878730773926 -0.20930230617523193 -0.9657310247421265
0.39534878730773926 -0.20930230617523193 -0.9511730074882507
0.39534878730773926 -0.19379842281341553 -0.9657235741615295
0.39534878730773926 -0.19379842281341553 -0.9511547684669495
0.39534878730773926 -0.1782945990562439 -0.9655777215957642
0.39534878730773926 -0.1782945990562439 -0.9511638879776001
0.39534878730773926 -0.1627907156944275 -0.9655988216400146
0.39534878730773926 -0.1627907156944275 -0.9512062072753906
0.39534878730773926 -0.14728683233261108 -0.9656052589416504
0.39534878730773926 -0.14728683233261108 -0.9512165784835815
0.39534878730773926 -0.13178294897079468 -0.9656929969787598
0.39534878730773926 -0.13178294897079468 -0.9512085914611816
0.39534878730773926 -0.13178294897079468 0.44020313024520874
0.39534878730773926 -0.13178294897079468 0.4497556686401367
0.39534875750541687 -0.11627906560897827 -0.9658485054969788
