0.3552452325820923 0.038759708404541016 -0.8604651093482971
0.3640008270740509 0.05426359176635742 -0.8914728760719299
0.3592885732650757 0.05426359176635742 -0.8759690523147583
0.3542310893535614 0.05426359176635742 -0.8604650497436523
0.36136728525161743 0.05426359176635742 -0.8139535188674927
0.3641112446784973 0.06976747512817383 -0.9069767594337463
0.35769879817962646 0.06976747512817383 -0.8914728164672852
0.35066816210746765 0.06976747512817383 -0.8759689927101135
0.3564606308937073 0.06976747512817383 -0.8139535188674927
0.3593207895755768 0.08527135848999023 -0.9069768190383911
0.35768261551856995 0.08527135848999023 -0.8139535188674927
0.35104742646217346 0.08527135848999023 -0.7984496355056763
0.3570283055305481 0.10077524185180664 -0.9069767594337463
0.36149805784225464 0.10077524185180664 -0.8294573426246643
0.35539326071739197 0.10077524185180664 -0.8139535188674927
0.3640877306461334 0.11627912521362305 -0.9534883499145508
0.3500382900238037 0.11627912521362305 -0.8914728760719299
0.3526940643787384 0.11627912521362305 -0.8759689927101135
0.3531486690044403 0.11627912521362305 -0.8604650497436523
0.35375669598579407 0.11627912521362305 -0.8449612259864807
0.3528565764427185 0.11627912521362305 -0.8294573426246643
0.34885260462760925 0.11627912521362305 -0.8139535188674927
0.3580731153488159 0.1317828893661499 -0.9534883499145508
0.37357479333877563 -0.22480618953704834 0.5348837375640869
0.3671460747718811 -0.20930230617523193 0.5193798542022705
0.3750651478767395 -0.20930230617523193 0.5503876209259033
0.3652783930301666 -0.19379842281341553 0.5193798542022705
0.3783057630062103 -0.1782945990562439 0.5348837375640869
0.36881348490715027 -0.1782945990562439 0.5503876209259033
0.3784579634666443 -0.10077518224716187 0.5813953876495361
0.37909406423568726 -0.08527129888534546 0.5813953876495361
0.37801292538642883 -0.08527129888534546 0.5968992710113525
0.3646569550037384 -0.038759708404541016 -0.7364341020584106
0.3651444911956787 -0.038759708404541016 -0.7209301590919495
0.3653428554534912 -0.038759708404541016 -0.7054263353347778
0.36530086398124695 -0.038759708404541016 -0.6899224519729614
0.3648958206176758 -0.038759708404541016 -0.674418568611145
0.3770211935043335 -0.02325582504272461 -0.8139535188674927
0.375779390335083 -0.02325582504272461 -0.751937985420227
0.3729345202445984 -0.02325582504272461 -0.7364341020584106
0.37123972177505493 -0.02325582504272461 -0.7209302186965942
0.36974066495895386 -0.02325582504272461 -0.7054263353347778
0.3677597939968109 -0.02325582690536976 -0.6899225115776062
0.3654199540615082 -0.02325582504272461 -0.674418568611145
0.3743586540222168 -0.007751941680908203 -0.8604651093482971
0.3646945357322693 -0.007751941680908203 -0.8449612259864807
0.3773375153541565 -0.007751941680908203 -0.7674418687820435
0.3725823163986206 -0.007751941680908203 -0.751937985420227
0.3706018328666687 -0.00775194214656949 -0.7364341020584106
0.3687151372432709 -0.007751941680908203 -0.7209302186965942
0.3662508726119995 -0.007751941680908203 -0.7054263353347778
0.3761427700519562 0.007751941680908203 -0.8914729356765747
0.37072157859802246 0.007751941680908203 -0.8759690523147583
0.3762933611869812 0.007751941680908203 -0.7829457521438599
0.3705006539821625 0.007751941680908203 -0.7674418687820435
0.36712735891342163 0.007751941680908203 -0.751937985420227
0.3645249009132385 0.007751941680908203 -0.7364341020584106
0.3776055574417114 0.02325582504272461 -0.9069768190383911
0.3721630871295929 0.02325582504272461 -0.8914728760719299
0.37439727783203125 0.02325582504272461 -0.7984496355056763
0.3684927821159363 0.02325582504272461 -0.7829457521438599
0.37554875016212463 0.038759708404541016 -0.9069768190383911
0.37014931440353394 0.038759708404541016 -0.8914728760719299
0.37227436900138855 0.038759708404541016 -0.8139535188674927
0.3661481738090515 0.038759708404541016 -0.7984496355056763
0.3788725733757019 0.05426359176635742 -0.9224806427955627
0.3724789619445801 0.05426359176635742 -0.9069767594337463
0.37188929319381714 0.05426359176635742 -0.8294573426246643
0.36481136083602905 0.05426359176635742 -0.8139535188674927
0.3758358359336853 0.06976747512817383 -0.9224807024002075
0.37541159987449646 0.06976747512817383 -0.8449612259864807
0.3684998154640198 0.06976747512817383 -0.8294573426246643
0.37864449620246887 0.08527135848999023 -0.9379844665527344
0.3719930648803711 0.08527135848999023 -0.9224806427955627
0.3775169551372528 0.08527135848999023 -0.8604651093482971
0.37146276235580444 0.08527135848999023 -0.8449611663818359
0.3666021525859833 0.08527135848999023 -0.8294573426246643
0.37761613726615906 0.10077524185180664 -0.9534883499145508
0.37685760855674744 0.10077524185180664 -0.9379844665527344
0.3733985126018524 0.10077524185180664 -0.922480583190918
0.3767341375350952 0.10077524185180664 -0.8914728760719299
0.37146449089050293 0.10077524185180664 -0.8759690523147583
0.3691449761390686 0.10077524185180664 -0.8604651689529419
0.36648350954055786 0.10077524185180664 -0.8449612855911255
0.377392441034317 0.1317828893661499 -0.9534883499145508
0.36984145641326904 0.1472867727279663 -0.9534883499145508
0.38996824622154236 -0.11627906560897827 0.5658915042877197
0.391356498003006 -0.11627906560897827 0.5813953876495361
0.3854336142539978 -0.10077518224716187 0.5658915042877197
0.38658422231674194 -0.10077518224716187 0.5968992710113525
0.39085280895233154 -0.08527129888534546 0.5658915042877197
0.384642630815506 -0.08527129888534546 0.612403154373169
0.3882034420967102 -0.06976741552352905 0.5968992710113525
0.38015568256378174 -0.06976741552352905 0.612403154373169
0.38088458776474 -0.02325582690536976 -0.8139535188674927
0.3810175359249115 -0.02325582504272461 -0.7984496355056763
0.38073673844337463 -0.02325582504272461 -0.7829458117485046
0.3800892233848572 -0.02325582504272461 -0.7674419283866882
0.3935524821281433 -0.007751941680908203 -0.9224806427955627
0.38943856954574585 -0.007751941680908203 -0.9069768190383911
0.3868545591831207 -0.007751941680908203 -0.8914728164672852
0.38264596462249756 -0.007751941680908203 -0.8759690523147583
0.3935950696468353 -0.007751941680908203 -0.8294573426246643
0.38870227336883545 -0.007751941680908203 -0.8139535188674927
0.38486289978027344 -0.007751941680908203 -0.7984496355056763
0.38139206171035767 -0.007751941680908203 -0.7829458117485046
0.3897123336791992 0.007751941680908203 -0.9224806427955627
0.3827279210090637 0.007751941680908203 -0.9069767594337463
0.39236971735954285 0.007751941680908203 -0.8294574022293091
0.3869432806968689 0.007751941680908203 -0.8139535188674927
0.38239386677742004 0.007751941680908203 -0.7984496355056763
0.38801151514053345 0.02325582504272461 -0.9224806427955627
0.39497479796409607 0.02325582504272461 -0.8449612259864807
0.3879067897796631 0.02325582504272461 -0.8294573426246643
0.382172167301178 0.02325582504272461 -0.8139535188674927
0.3940194249153137 0.038759708404541016 -0.9379844665527344
0.38618719577789307 0.038759708404541016 -0.9224807024002075
0.38798946142196655 0.038759708404541016 -0.8449612259864807
0.3815736174583435 0.038759708404541016 -0.8294573426246643
0.392550528049469 0.05426359176635742 -0.9379844665527344
0.3899106979370117 0.05426359176635742 -0.8604650497436523
0.3819478154182434 0.05426359176635742 -0.8449612259864807
0.389254093170166 0.06976747512817383 -0.9379844665527344
0.3915826976299286 0.06976747512817383 -0.8759689331054688
0.3844298720359802 0.06976747512817383 -0.8604650497436523
0.39305275678634644 0.08527135848999023 -0.9224806427955627
0.39149409532546997 0.08527135848999023 -0.9069767594337463
0.38792115449905396 0.08527135848999023 -0.8914728760719299
0.38372600078582764 0.08527135848999023 -0.8759689331054688
0.3875991404056549 0.10077524185180664 -0.9534883499145508
0.3840475380420685 0.10077524185180664 -0.9379844665527344
0.3814244866371155 0.10077524185180664 -0.9224806427955627
0.38107889890670776 0.10077524185180664 -0.9069767594337463
0.38530799746513367 0.11627912521362305 -0.9534883499145508
0.4070460796356201 -0.20930230617523193 0.5348837375640869
0.40356555581092834 -0.13178294897079468 0.5658915042877197
0.4050516188144684 -0.11627906560897827 0.5503876209259033
0.4088914692401886 -0.11627906560897827 0.5968992710113525
0.4107433557510376 -0.10077518224716187 -0.9689922332763672
0.4020777940750122 -0.10077518224716187 0.5503876209259033
0.4033859372138977 -0.10077518224716187 0.612403154373169
0.40881168842315674 -0.08527129888534546 -0.9689922332763672
0.40836143493652344 -0.06976741552352905 -0.9689922332763672
0.4020276665687561 -0.06976741552352905 0.5813953876495361
0.40825915336608887 -0.06976741552352905 0.612403154373169
0.40886861085891724 -0.05426359176635742 -0.9689922332763672
0.4103841185569763 -0.038759708404541016 -0.9689922332763672
0.40975531935691833 -0.02325582504272461 -0.9534883499145508
0.40747326612472534 -0.02325582504272461 -0.9379844665527344
0.40390729904174805 -0.02325582504272461 -0.9224806427955627
0.40260887145996094 -0.02325582504272461 -0.9069766998291016
0.40534883737564087 -0.02325582504272461 -0.8914728164672852
0.40915030241012573 -0.007751941680908203 -0.9534883499145508
0.4039503335952759 -0.007751941680908203 -0.9379844665527344
0.4057987928390503 -0.007751941680908203 -0.8604651093482971
0.3993237316608429 -0.007751941680908203 -0.8449612259864807
0.40906086564064026 0.007751941680908203 -0.9534883499145508
0.40020859241485596 0.007751941680908203 -0.9379844069480896
0.4063369631767273 0.007751941680908203 -0.8604651093482971
0.399594783782959 0.007751941680908203 -0.8449612259864807
0.4095692038536072 0.02325582504272461 -0.9534883499145508
0.39561450481414795 0.02325582504272461 -0.9379844665527344
0.40283823013305664 0.02325582504272461 -0.8604651093482971
0.40602925419807434 0.038759708404541016 -0.8759690523147583
0.39751699566841125 0.038759708404541016 -0.8604650497436523
0.40602895617485046 0.05426359176635742 -0.8914728760719299
0.39977478981018066 0.05426359176635742 -0.8759689927101135
0.4029926657676697 0.06976747512817383 -0.9379844665527344
0.40235209465026855 0.06976747512817383 -0.9224807024002075
0.4012763500213623 0.06976747512817383 -0.9069766998291016
0.3983426094055176 0.06976747512817383 -0.8914729356765747
0.39643874764442444 0.08527136594057083 -0.9379845261573792
0.41449910402297974 -0.19379842281341553 0.5348837375640869
0.41308483481407166 -0.19379842281341553 0.5503876209259033
0.4262998104095459 -0.14728683233261108 0.5658915042877197
0.41755959391593933 -0.13178294897079468 0.5503876209259033
0.4159068167209625 -0.13178294897079468 0.5813953876495361
0.4249078333377838 -0.11627906560897827 -0.9844961166381836
0.42485958337783813 -0.11627906560897827 -0.9689922332763672
0.4205664396286011 -0.10077518224716187 -0.9844961166381836
0.42274680733680725 -0.08527129888534546 -0.9844961166381836
0.41360709071159363 -0.08527130633592606 0.5503876209259033
0.4261217713356018 -0.06976741552352905 -0.9844961166381836
0.4159054160118103 -0.06976741552352905 0.5813953876495361
0.4165991246700287 -0.06976741552352905 0.5968992710113525
0.4216544032096863 -0.05426359176635742 -0.9534883499145508
0.4113844931125641 -0.038759708404541016 -0.9534884095191956
0.4187055826187134 -0.038759708404541016 -0.9379844665527344
0.4163365960121155 -0.02325582504272461 -0.9689922332763672
0.4166463017463684 -0.02325582504272461 -0.8914728164672852
0.42420828342437744 -0.007751941680908203 -0.9689922332763672
0.4227408766746521 -0.007751941680908203 -0.8914728760719299
0.41511058807373047 -0.007751941680908203 -0.8759689927101135
0.4215686023235321 0.007751941680908203 -0.8914729356765747
0.4154518246650696 0.007751941680908203 -0.8759689331054688
0.4247089922428131 0.02325582504272461 -0.9534883499145508
0.42320582270622253 0.02325582504272461 -0.9069767594337463
0.4185626804828644 0.02325582504272461 -0.8914728760719299
0.41199028491973877 0.02325582690536976 -0.8759689927101135
0.4200397729873657 0.038759708404541016 -0.9379844665527344
0.41954609751701355 0.038759708404541016 -0.9224806427955627
0.4178229868412018 0.038759708404541016 -0.9069767594337463
0.4138646423816681 0.038759708404541016 -0.8914728164672852
0.4138147234916687 0.05426359176635742 -0.9379844665527344
0.4131834805011749 0.05426359176635742 -0.9224807024002075
0.4114609956741333 0.05426359176635742 -0.9069767594337463
0.4283096194267273 -0.11627907305955887 -0.9844961166381836
0.430617094039917 -0.11627906560897827 -0.9689922332763672
0.42998766899108887 -0.10077518224716187 -0.9844961166381836
0.4348708987236023 -0.10077518224716187 0.612403154373169
0.427912175655365 -0.08527129888534546 -0.9844961166381836
0.43187934160232544 -0.08527129888534546 0.612403154373169
0.4265173077583313 -0.06976741552352905 -0.9844961166381836
0.43791040778160095 -0.05426359176635742 -0.9534883499145508
0.4393346607685089 -0.038759708404541016 -0.9534883499145508
0.42895054817199707 -0.038759708404541016 -0.9379844665527344
0.43755170702934265 -0.02325582504272461 -0.9689922332763672
0.4360109567642212 -0.02325582504272461 -0.9534883499145508
0.43288421630859375 -0.02325582504272461 -0.9379845261573792
0.4314769506454468 -0.02325582504272461 -0.9224806427955627
0.42796429991722107 -0.02325582504272461 -0.9069766998291016
0.42896997928619385 -0.007751941680908203 -0.9689922332763672
0.4345862865447998 -0.007751941680908203 -0.9534883499145508
0.4330376386642456 -0.007751941680908203 -0.9379844665527344
0.43236035108566284 -0.007751941680908203 -0.9224806427955627
0.42965221405029297 -0.007751941680908203 -0.9069767594337463
0.43218642473220825 0.007751941680908203 -0.9534883499145508
0.43222397565841675 0.007751941215246916 -0.9379844665527344
0.4313396215438843 0.007751941680908203 -0.9224807024002075
0.42834752798080444 0.007751941215246916 -0.9069767594337463
0.42854341864585876 0.02325582504272461 -0.9379844665527344
0.427412748336792 0.02325582504272461 -0.922480583190918
0.4501170516014099 -0.19379842281341553 0.5348837375640869
0.4458913803100586 -0.14728683233261108 0.5658915042877197
0.45174747705459595 -0.13178294897079468 0.5813953876495361
0.44772207736968994 -0.11627906560897827 0.5968992710113525
0.4461135268211365 -0.10077518224716187 -0.9689922332763672
0.4541933238506317 -0.10077518224716187 0.5968992710113525
0.4512157440185547 -0.08527129888534546 -0.9689922332763672
0.44394540786743164 -0.08527129888534546 0.5503876209259033
0.4554145038127899 -0.08527129888534546 0.5658915042877197
0.45260560512542725 -0.08527129888534546 0.5813953876495361
0.44505709409713745 -0.08527129888534546 0.5968992710113525
0.45187318325042725 -0.06976741552352905 -0.9689922332763672
0.44895458221435547 -0.05426359176635742 -0.9689922332763672
0.44361454248428345 -0.038759708404541016 -0.9689922332763672
0.46813318133354187 -0.20930230617523193 0.5348837375640869
0.46642255783081055 -0.1782945990562439 0.5348837375640869
0.46917885541915894 -0.11627906560897827 0.5813953876495361
0.47163286805152893 -0.10077518224716187 0.5503876209259033
0.4672248363494873 -0.10077518224716187 0.5813953876495361
0.4881024956703186 -0.20930230617523193 0.5193798542022705
0.4780568480491638 -0.19379842281341553 0.5193798542022705
0.4782610833644867 -0.1782945990562439 0.5193798542022705
0.4877447485923767 -0.1627907156944275 0.5193798542022705
0.48174548149108887 -0.1627907156944275 0.5348837375640869
0.4779336452484131 -0.13178294897079468 0.5503876209259033
0.47542935609817505 -0.13178294897079468 0.5658915042877197
0.48473119735717773 -0.11627906560897827 0.5503876209259033
0.48269087076187134 -0.11627906560897827 0.5658915042877197
0.4756132960319519 -0.10077518224716187 0.5658915042877197
0.49376344680786133 -0.20930230617523193 0.5348837375640869
0.5159329175949097 -0.19379842281341553 0.5348837375640869
0.5210621356964111 -0.20930230617523193 0.5193798542022705
0.5335401892662048 -0.19379842281341553 0.5193798542022705
0.5242307782173157 -0.1782945990562439 0.5348837375640869
0.5246590971946716 -0.1627907156944275 0.5348837375640869
0.5379928946495056 -0.1782945990562439 0.5193798542022705
0.5362781882286072 -0.1627907156944275 0.5193798542022705
-0.5658915042877197 -0.30907154083251953 0.6279069185256958
-0.5658915042877197 -0.26076191663742065 0.6279069185256958
-0.5503876209259033 -0.3515503406524658 0.6279069185256958
-0.5503876209259033 -0.31823819875717163 0.612403154373169
-0.5503876209259033 -0.26514801383018494 0.612403154373169
-0.5503876209259033 -0.24337363243103027 0.6279069185256958
-0.5348837375640869 -0.37623557448387146 0.6279069185256958
-0.5348837375640869 -0.34591296315193176 0.612403154373169
-0.5348837375640869 -0.33342868089675903 0.6434108018875122
-0.5348837375640869 -0.2552897036075592 0.612403154373169
-0.5348837375640869 -0.2513103485107422 0.6434108018875122
-0.5348837375640869 -0.23739659786224365 0.6279069185256958
-0.5193798542022705 -0.3649108409881592 0.612403154373169
-0.5193798542022705 -0.3785923421382904 0.627906858921051
-0.5193798542022705 -0.35036125779151917 0.6434108018875122
-0.5193798542022705 -0.25233304500579834 0.612403154373169
-0.5193798542022705 -0.23294104635715485 0.6279069185256958
-0.5193798542022705 -0.23123404383659363 0.6434108018875122
-0.5038759708404541 -0.3677220344543457 0.6279069185256958
-0.5038759708404541 -0.35838425159454346 0.612403154373169
-0.5038759708404541 -0.35010722279548645 0.6434108018875122
-0.5038759708404541 -0.24636228382587433 0.612403154373169
-0.5038759708404541 -0.21939381957054138 0.6279069185256958
-0.5038759708404541 -0.2039763629436493 0.6434108018875122
-0.4883720874786377 -0.35371044278144836 0.6279069185256958
-0.4883720576763153 -0.34844523668289185 0.612403154373169
-0.4883720874786377 -0.34318801760673523 0.6434108018875122
-0.4883720874786377 -0.2293500006198883 0.612403154373169
-0.4883720874786377 -0.1866750419139862 0.6279069185256958
-0.4883720874786377 -0.17167417705059052 0.6434108018875122
-0.4728682041168213 -0.3347116708755493 0.612403154373169
-0.4728682041168213 -0.34105759859085083 0.6279069185256958
-0.4728682041168213 -0.3320007920265198 0.6434108018875122
-0.4728682041168213 -0.24603641033172607 0.6589146852493286
-0.4728682041168213 -0.19051048159599304 0.612403154373169
-0.4728682041168213 -0.1793820559978485 0.6589146852493286
-0.4728682041168213 -0.15807050466537476 0.6279069185256958
-0.4728682041168213 -0.1494884490966797 0.6434108018875122
-0.4573643207550049 -0.3283173143863678 0.6279069185256958
-0.4573643207550049 -0.31916752457618713 0.6434108018875122
-0.4573643207550049 -0.31483450531959534 0.612403154373169
-0.4573643207550049 -0.2592543363571167 0.6589146852493286
-0.4573643207550049 -0.16739222407341003 0.612403154373169
-0.4573643207550049 -0.15383386611938477 0.6589146852493286
-0.4573643207550049 -0.14027255773544312 0.6279069185256958
-0.4573643207550049 -0.13324594497680664 0.6434108018875122
-0.4418604373931885 -0.3058735132217407 0.6279069185256958
-0.4418604373931885 -0.29974058270454407 0.6434107422828674
-0.4418604373931885 -0.2689051032066345 0.612403154373169
-0.4418604373931885 -0.25515109300613403 0.6589147448539734
-0.4418604373931885 -0.20190995931625366 0.5968992710113525
-0.4418604373931885 -0.19041875004768372 0.5968992710113525
-0.4418604373931885 -0.15633362531661987 0.612403154373169
-0.4418604373931885 -0.13936065137386322 0.6589146852493286
-0.4418604373931885 -0.1266491711139679 0.6279069185256958
-0.4418604373931885 -0.1199750304222107 0.6434108018875122
-0.42635661363601685 -0.27180588245391846 0.6279069185256958
-0.42635661363601685 -0.2769353687763214 0.6434108018875122
-0.42635661363601685 -0.24112267792224884 0.612403154373169
-0.42635661363601685 -0.246812641620636 0.6589146852493286
-0.42635661363601685 -0.1967494785785675 0.5968992710113525
-0.42635661363601685 -0.18897318840026855 0.5968992710113525
-0.42635661363601685 -0.14692018926143646 0.612403154373169
-0.42635661363601685 -0.12742482125759125 0.6589146852493286
-0.42635661363601685 -0.11371663957834244 0.6279069185256958
-0.42635661363601685 -0.10708369314670563 0.6434108018875122
-0.41085273027420044 -0.255896657705307 0.6434108018875122
-0.41085273027420044 -0.24289648234844208 0.6279069185256958
-0.41085273027420044 -0.2343692183494568 0.6589146852493286
-0.41085273027420044 -0.21635080873966217 0.612403154373169
-0.41085273027420044 -0.1375788152217865 0.612403154373169
-0.41085270047187805 -0.11392674595117569 0.6589146256446838
-0.41085273027420044 -0.10001319646835327 0.6279069781303406
-0.41085273027420044 -0.09318962693214417 0.6434108018875122
-0.39534884691238403 -0.22991740703582764 0.6434108018875122
-0.39534884691238403 -0.2194904088973999 0.6279069185256958
-0.39534884691238403 -0.21972903609275818 0.6589146852493286
-0.39534884691238403 -0.19942757487297058 0.612403154373169
-0.39534884691238403 -0.12051242589950562 0.612403154373169
-0.3953488767147064 -0.09747626632452011 0.6589146852493286
-0.39534881711006165 -0.08497577905654907 0.6279069185256958
-0.39534884691238403 -0.07832028716802597 0.6434108018875122
-0.3798449635505676 -0.2117888629436493 0.6434108018875122
-0.3798449635505676 -0.2030973732471466 0.6279069185256958
-0.3798449635505676 -0.2031075656414032 0.6589146852493286
-0.3798449635505676 -0.18558785319328308 0.612403154373169
-0.3798449635505676 -0.09985847771167755 0.612403154373169
-0.3798449635505676 -0.08211810141801834 0.6589146852493286
-0.3798449635505676 -0.0687643438577652 0.6279069185256958
-0.3798449635505676 -0.06306582689285278 0.6434108018875122
-0.3643410801887512 -0.19384174048900604 0.6434108018875122
-0.3643410801887512 -0.18582762777805328 0.6279069185256958
-0.3643410801887512 -0.181779146194458 0.6589146852493286
-0.3643410801887512 -0.16946116089820862 0.612403154373169
-0.3643410801887512 -0.08418279141187668 0.612403154373169
-0.3643410801887512 -0.06954672932624817 0.6589146852493286
-0.3643410801887512 -0.05350330471992493 0.6279069185256958
-0.3643410801887512 -0.048928797245025635 0.6434108018875122
-0.3488371968269348 -0.16300714015960693 0.6279069185256958
-0.3488371968269348 -0.16630402207374573 0.6434108018875122
-0.3488371968269348 -0.1340440958738327 0.612403154373169
-0.3488371968269348 -0.1405821144580841 0.6589146852493286
-0.3488371968269348 -0.07278287410736084 0.612403154373169
-0.3488371968269348 -0.0579863078892231 0.6589146852493286
-0.3488371968269348 -0.038736894726753235 0.6279069185256958
-0.3488371968269348 -0.0345388688147068 0.6434108018875122
-0.3333333134651184 -0.1122138723731041 0.6279069185256958
-0.3333333134651184 -0.11115339398384094 0.6434108018875122
-0.3333333134651184 -0.0756961852312088 0.612403154373169
-0.3333333134651184 -0.07310929894447327 0.6589146852493286
-0.3333333134651184 -0.053492117673158646 0.612403154373169
-0.3333333134651184 -0.036477379500865936 0.6589146852493286
-0.3333333134651184 -0.021592039614915848 0.6279069185256958
-0.3333333134651184 -0.01736079528927803 0.6434108018875122
-0.317829430103302 -0.07759349048137665 0.6279069185256958
-0.317829430103302 -0.07561570405960083 0.6434108018875122
-0.317829430103302 -0.06290285289287567 0.612403154373169
-0.317829430103302 -0.05755144730210304 0.6589146852493286
-0.317829430103302 -0.019176045432686806 0.612403154373169
-0.317829430103302 -0.0030148588120937347 0.6279069185256958
-0.317829430103302 0.00026129651814699173 0.6434108018875122
-0.317829430103302 -0.006880196742713451 0.6589146852493286
-0.30232560634613037 -0.05614401027560234 0.612403154373169
-0.30232560634613037 -0.0613279864192009 0.6279069185256958
-0.30232560634613037 -0.05871748924255371 0.6434108018875122
-0.30232560634613037 -0.04561883956193924 0.6589146852493286
-0.30232560634613037 0.00669967383146286 0.612403154373169
-0.30232560634613037 0.015038288198411465 0.6279069185256958
-0.30232560634613037 0.016797922551631927 0.6434108018875122
-0.30232560634613037 0.014135804958641529 0.6589146852493286
-0.28682172298431396 -0.044168442487716675 0.612403154373169
-0.28682172298431396 -0.0474042147397995 0.6279069185256958
-0.28682172298431396 -0.044371768832206726 0.6434108018875122
-0.28682172298431396 -0.034942466765642166 0.6589146852493286
-0.28682172298431396 -0.010152580216526985 0.5968992710113525
-0.28682172298431396 -0.005568666383624077 0.5968992710113525
-0.28682172298431396 0.02644624374806881 0.612403154373169
-0.28682172298431396 0.03225620836019516 0.6279069185256958
-0.28682172298431396 0.03345100209116936 0.6434108018875122
-0.28682172298431396 0.031086817383766174 0.6589146852493286
-0.27131783962249756 -0.029534922912716866 0.612403154373169
-0.27131783962249756 -0.032594114542007446 0.6279069185256958
-0.27131783962249756 -0.030036685988307 0.6434108018875122
-0.27131783962249756 -0.024303387850522995 0.6589146852493286
-0.27131783962249756 -0.010963263921439648 0.5968992710113525
-0.27131783962249756 0.0008115663658827543 0.674418568611145
-0.27131783962249756 0.02866221033036709 0.5968992710113525
-0.27131783962249756 0.03200887143611908 0.674418568611145
-0.27131783962249756 0.04287601634860039 0.612403154373169
-0.27131783962249756 0.04805776849389076 0.6279069185256958
-0.27131783962249756 0.04975602403283119 0.6434108018875122
-0.27131783962249756 0.047313421964645386 0.6589146852493286
-0.25581395626068115 -0.01283811591565609 0.612403154373169
-0.25581395626068115 -0.017391758039593697 0.6279069185256958
-0.25581395626068115 -0.016571905463933945 0.6434108018875122
-0.25581395626068115 -0.012803351506590843 0.6589146852493286
-0.25581395626068115 0.005501088686287403 0.5968992710113525
-0.25581395626068115 0.001328034559264779 0.674418568611145
-0.25581395626068115 0.04279670491814613 0.5968992710113525
-0.25581395626068115 0.0533188171684742 0.674418568611145
-0.25581395626068115 0.058060549199581146 0.612403154373169
-0.25581395626068115 0.06307748705148697 0.6279069185256958
-0.25581395626068115 0.0650702714920044 0.6434108018875122
-0.25581395626068115 0.06323353946208954 0.6589146852493286
-0.24031007289886475 0.007079564966261387 0.612403154373169
-0.24031007289886475 -0.00027567707002162933 0.6279069185256958
-0.24031007289886475 -0.0027372052427381277 0.6434108018875122
-0.24031007289886475 -0.0011583855375647545 0.6589146852493286
-0.24031007289886475 0.005264292471110821 0.674418568611145
-0.24031007289886475 0.034275248646736145 0.5968992710113525
-0.24031007289886475 0.06945599615573883 0.5968992710113525
-0.24031007289886475 0.0766805112361908 0.612403154373169
-0.24031007289886475 0.07997960597276688 0.6279069185256958
-0.24031007289886475 0.08138315379619598 0.6434108018875122
-0.24031007289886475 0.07948842644691467 0.6589146852493286
-0.24031005799770355 0.07101741433143616 0.674418568611145
-0.22480618953704834 0.01624973863363266 0.6279069185256958
-0.22480618953704834 0.009735775180161 0.6434108018875122
-0.22480618953704834 0.008565736003220081 0.6589146852493286
-0.22480618953704834 0.014673136174678802 0.674418568611145
-0.22480618953704834 0.037729114294052124 0.5968992710113525
-0.22480618953704834 0.024233166128396988 0.6124032139778137
-0.22480618953704834 0.05288121849298477 0.5813953876495361
-0.22480618953704834 0.0776619240641594 0.5813953876495361
-0.22480618953704834 0.08945521712303162 0.5968992710113525
-0.22480618953704834 0.09510748833417892 0.612403154373169
-0.22480618953704834 0.09756018221378326 0.6279069185256958
-0.22480618953704834 0.09801405668258667 0.6434108018875122
-0.22480618953704834 0.09539467841386795 0.6589146852493286
-0.22480618953704834 0.08708377182483673 0.674418568611145
-0.20930230617523193 0.022003173828125 0.6434108018875122
-0.20930230617523193 0.021561484783887863 0.6589146852493286
-0.20930230617523193 0.022333240136504173 0.674418568611145
-0.20930230617523193 0.03451096639037132 0.612403154373169
-0.20930230617523193 0.027383077889680862 0.6279069185256958
-0.20930230617523193 0.05086249113082886 0.5813953876495361
-0.20930230617523193 0.039340145885944366 0.5968992710113525
-0.20930230617523193 0.06339705735445023 0.5658915042877197
-0.20930230617523193 0.08575020730495453 0.5658915042877197
-0.20930230617523193 0.09705309569835663 0.5813953876495361
-0.20930230617523193 0.10013187676668167 0.674418568611145
-0.20930230617523193 0.10471808165311813 0.5968992710113525
-0.20930230617523193 0.10992752760648727 0.612403154373169
-0.20930230617523193 0.11238744854927063 0.6279069185256958
-0.20930230617523193 0.11245128512382507 0.6434108018875122
-0.20930230617523193 0.10919952392578125 0.6589146852493286
-0.19379842281341553 0.03820478171110153 0.612403154373169
-0.19379842281341553 0.03613341227173805 0.6279069185256958
-0.19379842281341553 0.03461495041847229 0.6434108018875122
-0.19379842281341553 0.034821536391973495 0.6589146852493286
-0.19379842281341553 0.03561300411820412 0.674418568611145
-0.19379842281341553 0.051524385809898376 0.5813953876495361
-0.19379842281341553 0.04607148468494415 0.5968992710113525
-0.19379842281341553 0.05147547274827957 0.6899224519729614
-0.19379842281341553 0.06759365648031235 0.5503876209259033
-0.19379842281341553 0.05805379897356033 0.5658915042877197
-0.19379842281341553 0.07383735477924347 0.6899224519729614
-0.19379842281341553 0.09381711483001709 0.5503876209259033
-0.19379842281341553 0.1045151799917221 0.5658915042877197
-0.19379842281341553 0.11180505156517029 0.5813953876495361
-0.19379842281341553 0.10668405890464783 0.674418568611145
-0.19379843771457672 0.11826358735561371 0.5968992710113525
-0.19379842281341553 0.12247397005558014 0.612403154373169
-0.19379842281341553 0.12450021505355835 0.6279069185256958
-0.19379842281341553 0.12375229597091675 0.6434108018875122
-0.19379842281341553 0.12048176676034927 0.6589146852493286
-0.1782945990562439 0.052619218826293945 0.5813953876495361
-0.1782945990562439 0.04928290843963623 0.5968992710113525
-0.1782945990562439 0.04586784541606903 0.612403154373169
-0.1782946139574051 0.04322725534439087 0.6279069185256958
-0.1782945990562439 0.04223833233118057 0.6434108018875122
-0.1782945990562439 0.0443708561360836 0.6589146852493286
-0.1782945990562439 0.047370001673698425 0.674418568611145
-0.1782945990562439 0.06485367566347122 0.5503876209259033
-0.1782945990562439 0.05786028876900673 0.5658915042877197
-0.1782945990562439 0.06406547129154205 0.6899224519729614
-0.1782945990562439 0.07253842055797577 0.5348837375640869
-0.1782945990562439 0.07466735690832138 0.6899224519729614
-0.1782945990562439 0.10329237580299377 0.5348837375640869
-0.1782945990562439 0.11382754892110825 0.5503876209259033
-0.1782945990562439 0.10889643430709839 0.674418568611145
-0.1782945990562439 0.11912514269351959 0.5658915042877197
-0.1782945990562439 0.12520521879196167 0.5813953876495361
-0.1782945990562439 0.1282416731119156 0.6589146852493286
-0.1782945990562439 0.13200776278972626 0.5968992710113525
-0.1782945990562439 0.13553963601589203 0.612403154373169
-0.1782945990562439 0.13722367584705353 0.6279069185256958
-0.1782945990562439 0.1360550820827484 0.6434108018875122
-0.1627907156944275 0.05225442349910736 0.5968992710113525
-0.1627907156944275 0.05053335428237915 0.612403154373169
-0.1627907156944275 0.05029674619436264 0.6279069185256958
-0.1627907156944275 0.051146455109119415 0.6434108018875122
-0.1627907156944275 0.05271013081073761 0.6589146852493286
-0.1627907156944275 0.06878113746643066 0.5348837375640869
-0.1627907156944275 0.06560784578323364 0.5503876209259033
-0.1627907156944275 0.061577655375003815 0.5658915042877197
-0.1627907156944275 0.05589594319462776 0.5813953876495361
-0.1627907156944275 0.05705051124095917 0.674418568611145
-0.1627907156944275 0.08442968130111694 0.5038759708404541
-0.1627907156944275 0.07438001036643982 0.5193798542022705
-0.1627907156944275 0.09176183491945267 0.5038759708404541
-0.1627907156944275 0.11307120323181152 0.5193798542022705
-0.1627907156944275 0.1021491289138794 0.6744185090065002
-0.1627907156944275 0.12289583683013916 0.5348837375640869
-0.1627907156944275 0.12951043248176575 0.5503876209259033
-0.1627907156944275 0.13322320580482483 0.5658915042877197
-0.1627907156944275 0.13916125893592834 0.5813953876495361
-0.1627907156944275 0.14124678075313568 0.6589146852493286
-0.1627907156944275 0.1474483162164688 0.5968992710113525
-0.1627907156944275 0.1530892252922058 0.612403154373169
-0.1627907156944275 0.15698733925819397 0.6279069185256958
-0.1627907156944275 0.15431520342826843 0.6434108018875122
-0.14728683233261108 -0.00887468084692955 -0.1782945990562439
-0.14728683233261108 -0.010696519166231155 -0.1627907156944275
-0.14728683233261108 -0.011764186434447765 -0.14728683233261108
-0.14728683233261108 -0.012677600607275963 -0.13178294897079468
-0.14728683233261108 -0.013256438076496124 -0.11627906560897827
-0.14728683233261108 -0.01313144713640213 -0.10077518224716187
-0.14728683233261108 -0.012133167125284672 -0.08527129888534546
-0.14728683233261108 -0.009133475832641125 -0.06976741552352905
-0.14728683233261108 0.0011489682365208864 -0.20930230617523193
-0.14728683233261108 -0.005381559021770954 -0.19379842281341553
-0.14728683233261108 -0.0046464018523693085 -0.05426359176635742
-0.14728683233261108 0.003077895613387227 -0.038759708404541016
-0.14728683233261108 0.012941444292664528 -0.02325582504272461
-0.14728683233261108 0.029923193156719208 -0.007751941680908203
-0.14728683233261108 0.05132775753736496 -0.4573643207550049
-0.14728683233261108 0.03895045444369316 -0.20930230617523193
-0.14728683233261108 0.04844118654727936 -0.19379842281341553
-0.14728683233261108 0.05467185750603676 -0.4728681743144989
-0.14728683233261108 0.056444279849529266 -0.1782945990562439
-0.14728683233261108 0.06403891742229462 -0.1627907156944275
-0.14728683233261108 0.05903393775224686 -0.007751941680908203
-0.14728683233261108 0.06892754882574081 0.5503876209259033
-0.14728683233261108 0.06748954951763153 0.5658915042877197
-0.14728683233261108 0.06535216420888901 0.5813953876495361
-0.14728683233261108 0.061104804277420044 0.5968992710113525
-0.14728683233261108 0.058247506618499756 0.612403154373169
-0.14728683233261108 0.06012847274541855 0.6279069185256958
-0.14728683233261108 0.06522803008556366 0.6434108018875122
-0.14728683233261108 0.0702575296163559 -0.4883721172809601
-0.14728683233261108 0.07362419366836548 -0.4573643207550049
-0.14728683233261108 0.06995082646608353 -0.14728683233261108
-0.14728683233261108 0.0718858614563942 -0.13178294897079468
-0.14728683233261108 0.07894743233919144 -0.11627906560897827
-0.14728683233261108 0.08458081632852554 -0.10077518224716187
-0.14728683233261108 0.08390747010707855 -0.05426359176635742
-0.14728683233261108 0.07877170294523239 -0.038759708404541016
-0.1472868174314499 0.07142611593008041 -0.02325582504272461
-0.14728683233261108 0.08291438221931458 0.5038759708404541
-0.14728683233261108 0.07792003452777863 0.5193798542022705
-0.14728683233261108 0.07351844757795334 0.5348837375640869
-0.14728683233261108 0.08905138075351715 -0.5038759708404541
-0.14728683233261108 0.0869569182395935 -0.08527129888534546
-0.14728683233261108 0.08645157516002655 -0.06976741552352905
-0.14728683233261108 0.11362665891647339 -0.4728682041168213
-0.14728683233261108 0.11348637193441391 0.5038759708404541
-0.14728683233261108 0.10542618483304977 0.6589146852493286
-0.14728683233261108 0.12808646261692047 -0.4883720874786377
-0.14728683233261108 0.13158413767814636 0.5193798542022705
-0.14728683233261108 0.13376526534557343 -0.5038759708404541
-0.14728683233261108 0.13979752361774445 0.5348837375640869
-0.14728683233261108 0.14642517268657684 0.5503876209259033
-0.14728683233261108 0.15119609236717224 0.5658915042877197
-0.14728683233261108 0.15905527770519257 0.5813953876495361
-0.14728683233261108 0.16841565072536469 0.5968992710113525
-0.14728683233261108 0.16637685894966125 0.6589146852493286
-0.14728683233261108 0.17853769659996033 0.612403154373169
-0.14728683233261108 0.18116971850395203 0.6279069185256958
-0.14728683233261108 0.178798645734787 0.6434108018875122
-0.13178294897079468 -0.040305208414793015 -0.24031007289886475
-0.13178294897079468 -0.042377617210149765 -0.22480618953704834
-0.13178294897079468 -0.0444442518055439 -0.20930230617523193
-0.13178294897079468 -0.04596300423145294 -0.19379842281341553
-0.13178294897079468 -0.0475286990404129 -0.1782945990562439
-0.13178294897079468 -0.048736847937107086 -0.1627907156944275
-0.13178294897079468 -0.04949574917554855 -0.14728683233261108
-0.13178294897079468 -0.0497710295021534 -0.13178294897079468
-0.13178294897079468 -0.048648033291101456 -0.11627906560897827
-0.13178294897079468 -0.045602474361658096 -0.10077518224716187
-0.13178294897079468 -0.04184844717383385 -0.08527129888534546
-0.13178294897079468 -0.030348040163517 -0.28682172298431396
-0.13178294897079468 -0.03497031331062317 -0.27131783962249756
-0.13178294897079468 -0.038086485117673874 -0.25581395626068115
-0.13178294897079468 -0.03844137862324715 -0.06976741552352905
-0.13178294897079468 -0.03362526744604111 -0.05426359176635742
-0.13178294897079468 -0.028161508962512016 -0.038759708404541016
-0.13178294897079468 -0.023323403671383858 -0.02325582504272461
-0.13178294897079468 -0.009075832553207874 -0.4418604373931885
-0.13178294897079468 -0.01681837998330593 -0.30232560634613037
-0.13178294897079468 -0.015697214752435684 -0.007751941680908203
-0.13178294897079468 -0.0010632937774062157 -0.4573643207550049
-0.13178294897079468 -0.00628296285867691 -0.30232560634613037
-0.13178294897079468 -0.006163736805319786 0.007751941680908203
-0.13178294897079468 0.007664788514375687 0.02325582504272461
-0.13178294897079468 0.018109431490302086 -0.4728682041168213
-0.13178294897079468 0.015800345689058304 -0.28682172298431396
-0.13178294897079468 0.031384654343128204 -0.4418604373931885
-0.13178294897079468 0.02733016200363636 -0.27131783962249756
-0.13178294897079468 0.03806662932038307 -0.25581395626068115
-0.13178294897079468 0.03177836909890175 0.038759708404541016
-0.13178294897079468 0.04129544645547867 -0.4883720874786377
-0.13178294897079468 0.04173954576253891 -0.24031005799770355
-0.13178294897079468 0.04903782159090042 -0.22480618953704834
-0.13178294897079468 0.061947330832481384 -0.5038759708404541
-0.13178294897079468 0.05588959902524948 -0.20930230617523193
-0.13178294897079468 0.06354735791683197 -0.19379842281341553
-0.13178294897079468 0.06965960562229156 0.612403154373169
-0.13178294897079468 0.08282219618558884 -0.5193798542022705
-0.13178294897079468 0.07088013738393784 -0.1782945990562439
-0.13178294897079468 0.07630158960819244 -0.1627907156944275
-0.13178294897079468 0.08407000452280045 -0.14728683233261108
-0.13178294897079468 0.07910921424627304 0.038759708404541016
-0.13178294897079468 0.08494240045547485 0.5193798542022705
-0.13178294897079468 0.08215859532356262 0.5348837375640869
-0.13178294897079468 0.08020774275064468 0.5503876209259033
-0.13178294897079468 0.07984460890293121 0.5658915042877197
-0.13178294897079468 0.0781930685043335 0.5813953876495361
-0.13178294897079468 0.07098841667175293 0.5968992710113525
-0.13178294897079468 0.07915480434894562 0.6279069185256958
-0.13178294897079468 0.08760601282119751 -0.4573643207550049
-0.13178294897079468 0.08797913044691086 -0.13178294897079468
-0.13178294897079468 0.09607525914907455 -0.11627906560897827
-0.13178294897079468 0.10004841536283493 -0.007751941680908203
-0.13178294897079468 0.09690453112125397 0.007751941680908203
-0.13178294897079468 0.090937539935112 0.02325582504272461
-0.13178294897079468 0.10069989413022995 0.5038759708404541
-0.13178294897079468 0.09642758965492249 0.6434108018875122
-0.13178294897079468 0.10900846868753433 -0.5348837375640869
-0.13178294897079468 0.10181238502264023 -0.10077518224716187
-0.13178294897079468 0.10504210740327835 -0.08527129888534546
-0.13178294897079468 0.1059512197971344 -0.06976741552352905
-0.13178294897079468 0.10534580051898956 -0.05426359176635742
-0.13178294897079468 0.10357628762722015 -0.038759708404541016
-0.13178294897079468 0.10180708020925522 -0.02325582504272461
-0.13178294897079468 0.11334313452243805 0.6589146852493286
-0.13178294897079468 0.12388817965984344 -0.4728682041168213
-0.13178294897079468 0.14079886674880981 -0.5503876209259033
-0.13178294897079468 0.1424466371536255 -0.4883720874786377
-0.13178294897079468 0.13932117819786072 0.674418568611145
-0.13178294897079468 0.16096985340118408 -0.5193798542022705
-0.13178294897079468 0.15265847742557526 -0.5038759708404541
-0.13178294897079468 0.15338090062141418 0.5038759708404541
-0.13178294897079468 0.1553008258342743 0.674418568611145
-0.13178294897079468 0.17296510934829712 -0.5503876209259033
-0.13178294897079468 0.1667349934577942 -0.5348837375640869
-0.13178294897079468 0.16279442608356476 0.5193798542022705
-0.13178294897079468 0.1674298197031021 0.5348837375640869
-0.13178294897079468 0.1734730303287506 0.5503876209259033
-0.13178294897079468 0.17955973744392395 0.5658915042877197
-0.13178294897079468 0.18777208030223846 0.5813953876495361
-0.13178294897079468 0.18554726243019104 0.6589146852493286
-0.13178294897079468 0.19594401121139526 0.5968992710113525
-0.13178294897079468 0.20121359825134277 0.612403154373169
-0.13178294897079468 0.20103660225868225 0.6279069185256958
-0.13178294897079468 0.1972804218530655 0.6434108018875122
-0.13178294897079468 0.23699264228343964 -0.6899224519729614
-0.13178294897079468 0.23341041803359985 -0.674418568611145
-0.13178294897079468 0.24938803911209106 -0.7054263353347778
-0.13178294897079468 0.2530514597892761 -0.674418568611145
-0.13178294897079468 0.26782551407814026 -0.6899224519729614
-0.13178294897079468 0.27972692251205444 -0.7054263353347778
-0.11627906560897827 -0.05494087561964989 -0.317829430103302
-0.11627906560897827 -0.056556813418865204 -0.30232560634613037
-0.11627906560897827 -0.057866185903549194 -0.28682172298431396
-0.11627906560897827 -0.058890201151371 -0.27131783962249756
-0.11627906560897827 -0.05967281013727188 -0.25581395626068115
-0.11627906560897827 -0.06052333861589432 -0.24031007289886475
-0.11627906560897827 -0.061379093676805496 -0.22480618953704834
-0.11627906560897827 -0.06236670911312103 -0.20930230617523193
-0.11627906560897827 -0.06308940052986145 -0.19379842281341553
-0.11627906560897827 -0.06404191255569458 -0.1782945990562439
-0.11627906560897827 -0.06482440233230591 -0.1627907156944275
-0.11627906560897827 -0.06502141803503036 -0.14728683233261108
-0.11627906560897827 -0.06414783000946045 -0.13178294897079468
-0.11627906560897827 -0.06154777109622955 -0.11627906560897827
-0.11627906560897827 -0.05823877081274986 -0.10077518224716187
-0.11627906560897827 -0.054924074560403824 -0.08527129888534546
-0.11627906560897827 -0.04752514511346817 -0.3488371968269348
-0.11627906560897827 -0.05241585150361061 -0.3333333134651184
-0.11627906560897827 -0.05090554058551788 -0.06976741552352905
-0.11627906560897827 -0.04672743380069733 -0.05426359176635742
-0.11627906560897827 -0.042704470455646515 -0.038759708404541016
-0.11627906560897827 -0.03983564302325249 -0.02325582504272461
-0.11627906560897827 -0.023605450987815857 -0.4418604373931885
-0.11627906560897827 -0.02925688587129116 -0.3488371968269348
-0.11627906560897827 -0.03582175821065903 -0.007751941680908203
-0.11627906560897827 -0.029513811692595482 0.007751941680908203
-0.11627906560897827 -0.011241499334573746 -0.4573643207550049
-0.11627906560897827 -0.014698981307446957 -0.3333333134651184
-0.11627906560897827 -0.021790552884340286 0.02325582504272461
-0.11627906560897827 -0.010120321996510029 0.038759708404541016
-0.11627906560897827 0.007503729313611984 -0.4728682041168213
-0.11627906560897827 0.0009178398177027702 -0.317829430103302
-0.11627906560897827 0.0050813304260373116 0.05426359176635742
-0.11627906560897827 0.015736129134893417 -0.30232560634613037
-0.11627906560897827 0.03198976814746857 -0.4883720874786377
-0.11627906560897827 0.027007531374692917 -0.28682172298431396
-0.11627906560897827 0.037446919828653336 -0.27131783962249756
-0.11627906560897827 0.028792541474103928 0.06976747512817383
-0.11627906560897827 0.05388892441987991 -0.5038759708404541
-0.11627906560897827 0.04254916310310364 -0.4418604373931885
-0.11627906560897827 0.04149759188294411 -0.25581395626068115
-0.11627906560897827 0.04674898833036423 -0.24031007289886475
-0.11627906560897827 0.05456291511654854 -0.22480620443820953
-0.11627906560897827 0.06003112718462944 -0.20930230617523193
-0.11627906560897827 0.06385412812232971 0.08527135848999023
-0.11627906560897827 0.07942093163728714 -0.5193798542022705
-0.11627907305955887 0.06993721425533295 -0.19379843771457672
-0.11627906560897827 0.07632362842559814 -0.1782945990562439
-0.11627906560897827 0.08440371602773666 0.5503876209259033
-0.11627906560897827 0.08441735804080963 0.5658915042877197
-0.11627906560897827 0.08418478816747665 0.5813953876495361
-0.11627906560897827 0.08214882016181946 0.5968992710113525
-0.11627906560897827 0.08228658139705658 0.612403154373169
-0.11627906560897827 0.08588626235723495 -0.4573643207550049
-0.11627906560897827 0.08589159697294235 -0.1627907156944275
-0.11627906560897827 0.09193777292966843 -0.14728683233261108
-0.11627906560897827 0.09622795879840851 0.08527135848999023
-0.11627906560897827 0.09842818975448608 0.5193798542022705
-0.11627906560897827 0.08879721909761429 0.5348837375640869
-0.11627906560897827 0.08669130504131317 0.6279069185256958
-0.11627906560897827 0.0987798348069191 0.6434108018875122
-0.11627906560897827 0.10713709145784378 -0.5348837375640869
-0.11627906560897827 0.10158612579107285 -0.13178294897079468
-0.11627906560897827 0.10791105777025223 -0.11627906560897827
-0.11627906560897827 0.11499255895614624 -0.10077518224716187
-0.11627906560897827 0.11087025701999664 0.06976747512817383
-0.11627906560897827 0.11325593292713165 0.5038759708404541
-0.11627906560897827 0.11273552477359772 0.6589146852493286
-0.11627906560897827 0.12127774953842163 -0.4728682041168213
-0.11627906560897827 0.11800242960453033 -0.08527129888534546
-0.11627906560897827 0.1198493093252182 -0.06976741552352905
-0.11627906560897827 0.12106674909591675 -0.05426359176635742
-0.11627906560897827 0.12145629525184631 -0.038759708404541016
-0.11627907305955887 0.12192696332931519 -0.02325582504272461
-0.11627906560897827 0.1226506158709526 -0.007751941680908203
-0.11627906560897827 0.1228991225361824 0.00775194214656949
-0.11627906560897827 0.12254242599010468 0.02325582504272461
-0.11627906560897827 0.12060986459255219 0.038759708404541016
-0.11627906560897827 0.11754053831100464 0.05426358804106712
-0.11627906560897827 0.12664595246315002 0.4883720874786377
-0.11627906560897827 0.1286482959985733 0.674418568611145
-0.11627906560897827 0.1429891735315323 -0.5503876209259033
-0.11627906560897827 0.14013946056365967 -0.4883720874786377
-0.11627906560897827 0.14012455940246582 0.4728682041168213
-0.11627906560897827 0.15931984782218933 -0.5193798542022705
-0.11627906560897827 0.15160588920116425 -0.5038759708404541
-0.11627906560897827 0.1692110002040863 -0.5503876209259033
-0.11627906560897827 0.16583816707134247 -0.5348837375640869
-0.11627906560897827 0.17901761829853058 0.4728682041168213
-0.11627906560897827 0.18685632944107056 0.4883720874786377
-0.11627906560897827 0.19164404273033142 0.5038759708404541
-0.11627906560897827 0.17946316301822662 0.674418568611145
-0.11627906560897827 0.20892910659313202 -0.6279069781303406
-0.11627906560897827 0.20684656500816345 -0.6124030947685242
-0.11627905815839767 0.19547896087169647 0.5193798542022705
-0.11627906560897827 0.19974654912948608 0.5348837375640869
-0.11627906560897827 0.20552389323711395 0.5503876209259033
-0.11627906560897827 0.20031729340553284 0.6589146852493286
-0.11627906560897827 0.2224608063697815 -0.6589146852493286
-0.11627906560897827 0.21708142757415771 -0.643410861492157
-0.11627905815839767 0.21022236347198486 0.5658915042877197
-0.11627906560897827 0.21464812755584717 0.5813953876495361
-0.11627906560897827 0.21875077486038208 0.5968992710113525
-0.11627906560897827 0.21932002902030945 0.612403154373169
