0.12379059195518494 -0.038759708404541016 -0.3643410801887512
0.12463333457708359 -0.038759708404541016 -0.3488371968269348
0.1220131665468216 -0.038759708404541016 -0.3333333134651184
0.11794322729110718 -0.038759708404541016 0.1317828893661499
0.12582144141197205 -0.02325582504272461 -0.28682172298431396
0.13025504350662231 -0.02325582504272461 0.1472867727279663
0.13071337342262268 -0.007751941680908203 -0.4728682041168213
0.13101144134998322 -0.007751941680908203 -0.4573643207550049
0.12356187403202057 -0.007751941680908203 -0.25581395626068115
0.11960843205451965 -0.007751941680908203 0.17829452455043793
0.13039366900920868 0.007751941680908203 -0.5038759708404541
0.12832659482955933 0.007751941680908203 -0.4883720874786377
0.12803076207637787 0.007751941680908203 -0.4728682041168213
0.1298912614583969 0.007751941680908203 -0.4573643207550049
0.1250237226486206 0.007751941680908203 0.19379842281341553
0.12294920533895493 0.007751941680908203 0.4573643207550049
0.1288769692182541 0.02325582504272461 -0.5193798542022705
0.1246553435921669 0.02325582504272461 -0.5038759708404541
0.1273893117904663 0.02325582504272461 -0.4883720874786377
0.13017147779464722 0.02325582504272461 -0.4728682041168213
0.1244477853178978 0.02325582504272461 -0.22480618953704834
0.11936260759830475 0.02325582504272461 0.20930230617523193
0.13077913224697113 0.038759708404541016 -0.5348837375640869
0.11825907230377197 0.038759708404541016 -0.5193798542022705
0.12140771001577377 0.038759708404541016 -0.5038759708404541
0.12939423322677612 0.038759708404541016 -0.4883720874786377
0.12556172907352448 0.038759708404541016 0.4418604373931885
0.11933857202529907 0.05426359176635742 -0.5348837375640869
0.1240517646074295 0.05426359176635742 -0.5038759708404541
0.1310623288154602 0.05426359176635742 0.17829453945159912
0.11661552637815475 0.05426359176635742 0.19379842281341553
0.1278746873140335 0.05426359176635742 0.39534878730773926
0.13112209737300873 0.06976747512817383 -0.5038759708404541
0.13176485896110535 0.06976747512817383 0.1472867727279663
0.12304897606372833 0.06976747512817383 0.16279065608978271
0.12415413558483124 0.06976747512817383 0.41085267066955566
0.12611274421215057 0.08527135848999023 -0.5193798542022705
0.1301201432943344 0.08527135848999023 -0.1627907156944275
0.12925226986408234 0.08527135848999023 0.11627912521362305
0.12285520136356354 0.08527135848999023 0.1317828893661499
0.1287611424922943 0.10077524185180664 0.08527135848999023
0.1215672567486763 0.10077524185180664 0.10077524185180664
0.12102945148944855 0.11627912521362305 -0.11627906560897827
0.13152942061424255 0.11627912521362305 -0.10077518224716187
0.13010026514530182 0.11627912521362305 0.05426359176635742
0.12088905274868011 0.11627912521362305 0.06976747512817383
0.12251414358615875 0.1317828893661499 -0.06976741552352905
0.12878820300102234 0.1317828893661499 -0.05426359176635742
0.12979936599731445 0.1317828893661499 0.02325582504272461
0.1224440187215805 0.1317828893661499 0.038759708404541016
0.1173269972205162 0.1472867876291275 -0.02325582504272461
0.11845646798610687 0.1472867727279663 -0.007751941680908203
0.11636766791343689 0.1472867727279663 0.007751941680908203
0.14693443477153778 -0.14728683233261108 0.5038759708404541
0.1353577822446823 -0.11627906560897827 -0.1782945990562439
0.1417803019285202 -0.11627906560897827 -0.14728683233261108
0.14013981819152832 -0.10077518224716187 -0.038759708404541016
0.13761752843856812 -0.10077518224716187 0.4418604373931885
0.146269753575325 -0.08527129888534546 -0.3798449635505676
0.13688364624977112 -0.08527129888534546 0.02325582504272461
0.14543622732162476 -0.08527129888534546 0.4418604373931885
0.13610175251960754 -0.08527129888534546 0.5193798542022705
0.13549122214317322 -0.06976741552352905 -0.41085273027420044
0.14679519832134247 -0.06976741552352905 0.05426359176635742
0.14165723323822021 -0.06976741552352905 0.4418604373931885
0.14411494135856628 -0.05426359176635742 0.08527135848999023
0.13663849234580994 -0.05426359549164772 0.44186046719551086
0.1456964761018753 -0.038759708404541016 -0.4573643207550049
0.1361859142780304 -0.038759708404541016 -0.4418604373931885
0.1390570104122162 -0.038759708404541016 0.11627912521362305
0.13906604051589966 -0.038759708404541016 0.4418604373931885
0.14409638941287994 -0.038759708404541016 0.4883720874786377
0.14157846570014954 -0.02325582504272461 -0.4728682041168213
0.13837799429893494 -0.02325582504272461 -0.4573643207550049
0.13767413794994354 -0.02325582504272461 -0.4418604373931885
0.13798655569553375 -0.02325582504272461 -0.42635661363601685
0.13857242465019226 -0.02325582504272461 -0.41085273027420044
0.14232495427131653 -0.02325582504272461 -0.39534884691238403
0.1430114209651947 -0.02325582504272461 0.1317828893661499
0.14671550691127777 -0.02325582504272461 0.42635655403137207
0.14368173480033875 -0.007751941680908203 -0.5038759708404541
0.13446728885173798 -0.007751941680908203 -0.4883720874786377
0.13517746329307556 -0.007751941680908203 -0.4418604373931885
0.1432083696126938 -0.007751941680908203 -0.42635661363601685
0.14370009303092957 -0.007751941680908203 0.1472867727279663
0.1345684975385666 -0.007751941680908203 0.16279065608978271
0.14270663261413574 0.007751941680908203 -0.5193798542022705
0.13691598176956177 0.007751941680908203 -0.4418604373931885
0.137127086520195 0.007751941680908203 -0.24031007289886475
0.1437326967716217 0.007751941680908203 0.16279065608978271
0.13628536462783813 0.007751941680908203 0.17829453945159912
0.14513297379016876 0.02325582504272461 -0.5348837375640869
0.13516458868980408 0.02325582504272461 -0.4573643207550049
0.14670081436634064 0.02325582504272461 0.16279065608978271
0.141818106174469 0.02325582504272461 0.17829453945159912
0.13378998637199402 0.02325582504272461 0.19379842281341553
0.1373501420021057 0.038759708404541016 -0.4728682041168213
0.14495933055877686 0.038759708404541016 0.16279065608978271
0.13963758945465088 0.038759708404541016 0.17829453945159912
0.1321520358324051 0.038759708404541016 0.19379842281341553
0.13575342297554016 0.038759708404541016 0.39534878730773926
0.1368829309940338 0.05426359176635742 -0.4883720874786377
0.14644755423069 0.05426359176635742 0.1317828893661499
0.14282405376434326 0.05426359176635742 0.1472867727279663
0.13767817616462708 0.05426359176635742 0.16279065608978271
0.14426875114440918 0.06976747512817383 -0.1782945990562439
0.14572328329086304 0.06976747512817383 0.10077524185180664
0.14120665192604065 0.06976747512817383 0.11627912521362305
0.13677330315113068 0.06976747512817383 0.1317828893661499
0.13188016414642334 0.06976747512817383 0.39534878730773926
0.13755780458450317 0.06976747512817383 0.42635658383369446
0.14556926488876343 0.08527135848999023 0.06976747512817383
0.14037670195102692 0.08527135848999023 0.08527135848999023
0.1345842182636261 0.08527135848999023 0.10077524185180664
0.14592796564102173 0.08527135848999023 0.41085267066955566
0.13534840941429138 0.10077524185180664 -0.13178294897079468
0.14509788155555725 0.10077524185180664 -0.11627906560897827
0.1422012746334076 0.10077524185180664 0.05426359176635742
0.134889617562294 0.10077524185180664 0.06976747512817383
0.13654612004756927 0.11627912521362305 -0.08527129888534546
0.14095184206962585 0.11627912521362305 -0.06976741552352905
0.14420533180236816 0.11627912521362305 -0.05426359176635742
0.14640842378139496 0.11627912521362305 -0.038759708404541016
0.14680586755275726 0.11627912521362305 0.007751941680908203
0.14330165088176727 0.11627912521362305 0.02325582504272461
0.13720591366291046 0.11627911776304245 0.038759708404541016
0.13243909180164337 0.1317828893661499 -0.038759708404541016
0.13506297767162323 0.1317828893661499 -0.02325582504272461
0.13607460260391235 0.1317828893661499 -0.007751941680908203
0.13419772684574127 0.1317828893661499 0.007751941680908203
0.158931165933609 -0.14728683233261108 0.5193798542022705
0.1507861316204071 -0.13178294897079468 0.4728682339191437
0.1473613828420639 -0.11627905815839767 -0.1627907156944275
0.1563393622636795 -0.11627906560897827 0.4573643207550049
0.162555992603302 -0.10077518224716187 -0.28682172298431396
0.15985919535160065 -0.10077518224716187 -0.05426359176635742
0.15793636441230774 -0.08527129888534546 -0.3798449635505676
0.15713432431221008 -0.08527129888534546 0.007751941680908203
0.16126695275306702 -0.06976741552352905 0.038759708404541016
0.1584250032901764 -0.05426359176635742 0.06976747512817383
0.16169856488704681 -0.038759708404541016 0.08527135848999023
0.1509958654642105 -0.038759708404541016 0.10077524185180664
0.1519940197467804 -0.02325582504272461 -0.4883720874786377
0.14921607077121735 -0.02325582318007946 -0.3798449635505676
0.14799927175045013 -0.02325582504272461 -0.30232560634613037
0.16014720499515533 -0.02325582504272461 0.10077524185180664
0.15198880434036255 -0.02325582504272461 0.11627912521362305
0.15706542134284973 -0.02325582504272461 0.4728682041168213
0.16151326894760132 -0.007751941680908203 -0.5193798542022705
0.15784607827663422 -0.007751941680908203 -0.41085273027420044
0.1622004508972168 -0.007751941680908203 0.10077524185180664
0.15692685544490814 -0.007751941680908203 0.11627912521362305
0.15068545937538147 -0.007751941680908203 0.1317828893661499
0.16192826628684998 0.007751941680908203 -0.5348837375640869
0.15243150293827057 0.007751941680908203 -0.42635661363601685
0.16274204850196838 0.007751941680908203 0.10077524185180664
0.15823133289813995 0.007751941680908203 0.11627912521362305
0.15381643176078796 0.007751941680908203 0.1317828893661499
0.14896294474601746 0.007751941680908203 0.1472867727279663
0.1484997719526291 0.02325582504272461 -0.4418604373931885
0.15501457452774048 0.02325582504272461 -0.22480618953704834
0.1623712182044983 0.02325582504272461 0.10077524185180664
0.1581554114818573 0.02325582504272461 0.11627912521362305
0.15437737107276917 0.02325582504272461 0.1317828893661499
0.15075930953025818 0.02325582504272461 0.1472867727279663
0.15803739428520203 0.02325582504272461 0.39534878730773926
0.15667253732681274 0.038759708404541016 -0.5503876209259033
0.15373115241527557 0.038759708404541016 -0.4573643207550049
0.15727002918720245 0.038759708404541016 -0.20930230617523193
0.16009218990802765 0.038759708404541016 0.10077524185180664
0.1559808850288391 0.038759708404541016 0.11627912521362305
0.15248921513557434 0.038759708404541016 0.1317828893661499
0.14846491813659668 0.038759708404541016 0.1472867727279663
0.15118007361888885 0.05426359176635742 -0.5503876209259033
0.15291644632816315 0.05426359176635742 -0.19379842281341553
0.1601635217666626 0.05426359176635742 0.08527135848999023
0.15524178743362427 0.05426359176635742 0.10077524185180664
0.15078505873680115 0.05426359176635742 0.11627912521362305
0.1586904525756836 0.05426359176635742 0.4418604373931885
0.16013242304325104 0.06976747512817383 -0.5503876209259033
0.16019566357135773 0.06976747512817383 -0.1627907156944275
0.1617942899465561 0.06976747512817383 0.05426359176635742
0.15682508051395416 0.06976747512817383 0.06976747512817383
0.15157803893089294 0.06976747512817383 0.08527135848999023
0.14801202714443207 0.08527135103940964 -0.14728683233261108
0.15471935272216797 0.08527135848999023 -0.13178294897079468
0.1606196165084839 0.08527135848999023 -0.11627906560897827
0.16221186518669128 0.08527135848999023 0.02325582504272461
0.15802857279777527 0.08527135848999023 0.038759708404541016
0.15221640467643738 0.08527135848999023 0.05426359549164772
0.14818760752677917 0.08527135848999023 0.39534878730773926
0.14883367717266083 0.10077524185180664 -0.10077518224716187
0.15153419971466064 0.10077523440122604 -0.08527129888534546
0.1538248360157013 0.10077524185180664 -0.06976741552352905
0.15608161687850952 0.10077524185180664 -0.05426359176635742
0.15794582664966583 0.10077524185180664 -0.038759708404541016
0.15910273790359497 0.10077524185180664 -0.02325582504272461
0.1592348963022232 0.10077524185180664 -0.007751941680908203
0.15747834742069244 0.10077524185180664 0.007751941680908203
0.15341702103614807 0.10077524185180664 0.02325582504272461
0.14760544896125793 0.10077524185180664 0.038759708404541016
0.14815372228622437 0.11627912521362305 -0.02325582504272461
0.148710235953331 0.11627912521362305 -0.007751941680908203
0.1730511635541916 -0.10077518224716187 -0.06976741552352905
0.173386812210083 -0.10077518224716187 0.4573643207550049
0.1735268533229828 -0.10077518224716187 0.5193798542022705
0.16991308331489563 -0.08527129888534546 -0.007751941680908203
0.17412962019443512 -0.06976741552352905 -0.41085273027420044
0.17293858528137207 -0.06976741552352905 0.02325582504272461
0.16591016948223114 -0.06976741552352905 0.5038759708404541
0.16930216550827026 -0.05426359176635742 0.05426359176635742
0.17194554209709167 -0.038759708404541016 0.06976747512817383
0.17526111006736755 -0.02325582504272461 -0.3798449635505676
0.16615618765354156 -0.02325582504272461 -0.30232560634613037
0.17701467871665955 -0.02325582504272461 0.06976747512817383
0.16813145577907562 -0.02325582504272461 0.08527135848999023
0.17685961723327637 -0.007751941680908203 -0.41085273027420044
0.17666926980018616 -0.007751941680908203 0.06976747512817383
0.16950173676013947 -0.007751941680908203 0.08527135848999023
0.1667417585849762 0.007751941215246916 -0.24031007289886475
0.1750933676958084 0.007751941680908203 0.06976747512817383
0.16909053921699524 0.007751941680908203 0.08527135848999023
0.16932103037834167 0.02325582504272461 -0.5503876209259033
0.17376044392585754 0.02325582504272461 0.06976747512817383
0.16839490830898285 0.02325582504272461 0.08527135848999023
0.1765901893377304 0.038759708404541016 0.05426359176635742
0.17148303985595703 0.038759708404541016 0.06976747512817383
0.16582868993282318 0.038759708404541016 0.08527135848999023
0.17670577764511108 0.05426359176635742 -0.5658915042877197
0.17141935229301453 0.05426359176635742 -0.1782945990562439
0.17680232226848602 0.05426359176635742 0.038759708404541016
0.17178183794021606 0.05426359176635742 0.05426359176635742
0.16610687971115112 0.05426359176635742 0.06976747512817383
0.16787712275981903 0.06976747512817383 -0.14728683233261108
0.1740356981754303 0.06976747512817383 -0.13178294897079468
0.17677578330039978 0.06976747512817383 -0.11627906560897827
0.17742694914340973 0.06976747512817383 -0.10077518224716187
0.1773149073123932 0.06976747512817383 -0.08527129888534546
0.17732858657836914 0.06976747512817383 -0.06976741552352905
0.17767195403575897 0.06976747512817383 -0.05426359176635742
0.1765367090702057 0.06976747512817383 0.007751941680908203
0.1732371300458908 0.06976747512817383 0.02325582504272461
0.16816233098506927 0.06976747512817383 0.038759708404541016
0.17430348694324493 0.08527135848999023 -0.5348837375640869
0.17400424182415009 0.08527135848999023 -0.5193798542022705
0.16289852559566498 0.08527136594057083 -0.10077518224716187
0.16388052701950073 0.08527135848999023 -0.08527129888534546
0.16494148969650269 0.08527135848999023 -0.06976741552352905
0.1663103699684143 0.08527135848999023 -0.05426359176635742
0.16778992116451263 0.08527135848999023 -0.038759708404541016
0.16873128712177277 0.08527135848999023 -0.02325582504272461
0.16860613226890564 0.08527135848999023 -0.007751941680908203
0.16650500893592834 0.08527135848999023 0.007751941680908203
0.1769796758890152 0.10077524185180664 0.39534878730773926
0.1817486733198166 -0.13178294897079468 0.4883720576763153
0.18489381670951843 -0.11627906560897827 0.4728682041168213
0.1854339987039566 -0.10077518224716187 -0.27131783962249756
0.18663588166236877 -0.10077518224716187 -0.08527129888534546
0.1894216239452362 -0.08527129888534546 -0.3643410801887512
0.1919488161802292 -0.08527129888534546 -0.038759708404541016
0.1800166666507721 -0.08527129888534546 -0.02325582504272461
0.18024864792823792 -0.08527129888534546 0.4573643207550049
0.18409571051597595 -0.06976741552352905 0.007751941680908203
0.18270902335643768 -0.06976741552352905 0.4573643207550049
0.19067706167697906 -0.05426359176635742 0.02325582504272461
0.1796611100435257 -0.05426359176635742 0.038759708404541016
0.18661096692085266 -0.05426359176635742 0.4883720874786377
0.1804967224597931 -0.03875970467925072 -0.4573643207550049
0.19304302334785461 -0.038759708404541016 -0.3333333134651184
0.19191189110279083 -0.038759708404541016 0.038759708404541016
0.1814803183078766 -0.038759708404541016 0.05426359176635742
0.1868336796760559 -0.02325582504272461 -0.4883720874786377
0.18374007940292358 -0.02325582504272461 -0.39534881711006165
0.18425284326076508 -0.02325582504272461 -0.28682172298431396
0.18610388040542603 -0.02325582504272461 0.05426359176635742
0.18493904173374176 -0.007751941680908203 -0.25581395626068115
0.1923498660326004 -0.007751941680908203 0.038759708404541016
0.1849917769432068 -0.007751941680908203 0.05426359176635742
0.18387460708618164 0.007751941680908203 -0.42635661363601685
0.1891668140888214 0.007751941680908203 0.038759708404541016
0.18233369290828705 0.007751941680908203 0.05426359176635742
0.19006004929542542 0.007751941680908203 0.39534878730773926
0.18684345483779907 0.02325582504272461 -0.4418604373931885
0.1863967925310135 0.02325582504272461 -0.20930230617523193
0.19364644587039948 0.02325582504272461 0.007751941680908203
0.190675288438797 0.02325582504272461 0.02325582504272461
0.18591228127479553 0.02325582504272461 0.038759708404541016
0.17951053380966187 0.02325582690536976 0.05426359176635742
0.18115562200546265 0.038759708404541016 -0.5658915042877197
0.1810888648033142 0.038759712129831314 -0.4573643207550049
0.18135932087898254 0.038759708404541016 -0.19379842281341553
0.1927027702331543 0.038759708404541016 -0.1782945990562439
0.1929914504289627 0.038759708404541016 -0.007751941680908203
0.19083954393863678 0.038759708404541016 0.007751941680908203
0.18749408423900604 0.038759708404541016 0.02325582504272461
0.18247529864311218 0.038759708404541016 0.038759708404541016
0.1936572641134262 0.05426359176635742 -0.5968992114067078
0.19037535786628723 0.05426359176635742 -0.5813953876495361
0.18197987973690033 0.05426359176635742 -0.1627907156944275
0.18888822197914124 0.05426359176635742 -0.14728683233261108
0.19187888503074646 0.05426359176635742 -0.13178294897079468
0.1923425793647766 0.05426359176635742 -0.11627906560897827
0.19168560206890106 0.05426359176635742 -0.10077518224716187
0.19079522788524628 0.05426359176635742 -0.08527129888534546
0.19014012813568115 0.05426359176635742 -0.06976741552352905
0.18970754742622375 0.05426359176635742 -0.05426359176635742
0.1895609200000763 0.05426359176635742 -0.038759708404541016
0.18919818103313446 0.05426359176635742 -0.02325582504272461
0.18832248449325562 0.05426359176635742 -0.007751941680908203
0.1857100874185562 0.05426359176635742 0.007751941680908203
0.18167231976985931 0.05426359176635742 0.02325582504272461
0.19332614541053772 0.06976747512817383 -0.5813953876495361
0.18857792019844055 0.06976747512817383 -0.5658915042877197
0.17838580906391144 0.06976747512817383 -0.038759708404541016
0.17882457375526428 0.06976747512817383 -0.02325582504272461
0.17838318645954132 0.06976747512817383 -0.007751941680908203
0.18414288759231567 0.06976747512817383 0.37984490394592285
0.18627160787582397 0.08527135848999023 0.37984490394592285
0.190933957695961 0.10077524185180664 0.37984490394592285
0.19384682178497314 -0.14728683233261108 0.5193798542022705
0.20073112845420837 -0.10077518224716187 -0.25581395626068115
0.20078358054161072 -0.10077518224716187 -0.10077518224716187
0.20238038897514343 -0.10077518224716187 0.4728682041168213
0.2012426257133484 -0.08527129888534546 -0.3488371968269348
0.2058115005493164 -0.08527129888534546 -0.05426359176635742
0.19608041644096375 -0.08527129888534546 0.5038759708404541
0.19968530535697937 -0.06976741552352905 -0.39534884691238403
0.2084627002477646 -0.06976741552352905 -0.3798449635505676
0.19613505899906158 -0.06976741552352905 -0.007751941680908203
0.19391748309135437 -0.05426359549164772 -0.42635661363601685
0.20495977997779846 -0.05426359176635742 -0.41085273027420044
0.2082592397928238 -0.05426359176635742 -0.39534884691238403
0.20703144371509552 -0.05426359176635742 -0.3798449635505676
0.20557156205177307 -0.05426359176635742 -0.3643410801887512
0.2047605812549591 -0.05426359176635742 -0.3488371968269348
0.2065039575099945 -0.05426359176635742 -0.3333333134651184
0.20253556966781616 -0.05426359176635742 0.007751941680908203
0.20652605593204498 -0.05426359176635742 0.4573643207550049
0.19665808975696564 -0.038759708404541016 -0.4418604373931885
0.20110037922859192 -0.038759708404541016 -0.42635661363601685
0.2019718885421753 -0.038759708404541016 -0.41085273027420044
0.20045414566993713 -0.038759708404541016 -0.39534884691238403
0.1978110373020172 -0.038759708404541016 -0.3798449635505676
0.1954624503850937 -0.038759708404541016 -0.3643410801887512
0.19381046295166016 -0.038759708404541016 -0.3488371968269348
0.19475838541984558 -0.038759708404541016 -0.317829430103302
0.1985926479101181 -0.038759708404541016 -0.30232560634613037
0.2069433182477951 -0.038759708404541016 -0.28682172298431396
0.20064663887023926 -0.038759708404541016 0.02325582504272461
0.2009439468383789 -0.02325582504272461 -0.4728682041168213
0.20677447319030762 -0.02325582504272461 -0.4573643207550049
0.2050168812274933 -0.02325582504272461 -0.4418604373931885
0.198797345161438 -0.02325582504272461 -0.42635661363601685
0.19395895302295685 -0.02325582690536976 -0.41085273027420044
0.19780230522155762 -0.02325582504272461 -0.27131783962249756
0.208266019821167 -0.02325582504272461 0.007751941680908203
0.20162180066108704 -0.02325582504272461 0.02325582504272461
0.19440852105617523 -0.02325582504272461 0.038759708404541016
0.19799913465976715 -0.02325582504272461 0.4728682041168213
0.1974196434020996 -0.007751941680908203 -0.5193798542022705
0.20578400790691376 -0.007751941680908203 -0.5038759708404541
0.19796298444271088 -0.007751941680908203 -0.42635661363601685
0.19991199672222137 -0.007751941680908203 -0.24031007289886475
0.20639967918395996 -0.007751941680908203 -0.007751941680908203
0.2024633288383484 -0.007751941680908203 0.007751941680908203
0.19806799292564392 -0.007751941680908203 0.02325582504272461
0.20555371046066284 -0.007751941680908203 0.41085267066955566
0.20700985193252563 0.007751941680908203 -0.4418604373931885
0.19473884999752045 0.007751941680908203 -0.22480620443820953
0.20260867476463318 0.007751941680908203 -0.20930230617523193
0.208741694688797 0.007751941680908203 -0.05426359176635742
0.2060721218585968 0.007751941680908203 -0.038759708404541016
0.20307651162147522 0.007751941680908203 -0.02325582504272461
0.20016548037528992 0.007751941680908203 -0.007751941680908203
0.19742216169834137 0.007751941680908203 0.007751941680908203
0.1939946562051773 0.007751941680908203 0.02325582504272461
0.19654425978660583 0.007751941680908203 0.39534878730773926
0.19540564715862274 0.007751941680908203 0.4573643207550049
0.20864050090312958 0.02325582504272461 -0.4573643207550049
0.19748790562152863 0.02325582504272461 -0.19379842281341553
0.2031019926071167 0.02325582504272461 -0.1782945990562439
0.207121342420578 0.02325582504272461 -0.1627907156944275
0.20790283381938934 0.02325582504272461 -0.10077518224716187
0.20622919499874115 0.02325582504272461 -0.08527129888534546
0.20454323291778564 0.02325582504272461 -0.06976741552352905
0.20265080034732819 0.02325582504272461 -0.05426359176635742
0.2004784345626831 0.02325582504272461 -0.038759708404541016
0.19822123646736145 0.02325582504272461 -0.02325582504272461
0.19612669944763184 0.02325582504272461 -0.007751941680908203
0.20863650739192963 0.038759708404541016 -0.6124030947685242
0.2065318375825882 0.038759708404541016 -0.5968992114067078
0.19898304343223572 0.038759708404541016 -0.5813953876495361
0.20219872891902924 0.038759708404541016 -0.4728682041168213
0.19732029736042023 0.038759708404541016 -0.1627907156944275
0.20104774832725525 0.038759708404541016 -0.14728683233261108
0.20258431136608124 0.038759708404541016 -0.13178294897079468
0.20232965052127838 0.038759708404541016 -0.11627906560897827
0.20097967982292175 0.038759708404541016 -0.10077518224716187
0.19946151971817017 0.038759708404541016 -0.08527129888534546
0.1981135904788971 0.038759708404541016 -0.06976741552352905
0.19685706496238708 0.038759708404541016 -0.05426358804106712
0.19577854871749878 0.038759708404541016 -0.038759708404541016
0.19445295631885529 0.038759708404541016 -0.02325582504272461
0.2080884575843811 0.05426359176635742 -0.6589146852493286
0.20578943192958832 0.05426359176635742 -0.643410861492157
0.20390453934669495 0.05426359176635742 -0.6279069781303406
0.20007182657718658 0.05426359176635742 -0.6124030947685242
0.20122776925563812 0.05426359176635742 -0.4883720874786377
0.20312318205833435 0.05426359176635742 0.4418604373931885
0.20854070782661438 0.06976747512817383 -0.6589146852493286
0.2061762809753418 0.06976747512817383 -0.643410861492157
0.204294815659523 0.06976747512817383 -0.6279069781303406
0.20034514367580414 0.06976747512817383 -0.6124030947685242
0.19590166211128235 0.06976747512817383 -0.5968992114067078
0.2061435580253601 0.06976747512817383 -0.5038759708404541
0.20760343968868256 0.08527135848999023 0.364341139793396
0.2061985284090042 0.10077524185180664 0.364341139793396
0.20368021726608276 0.11627912521362305 0.37984490394592285
0.21587923169136047 -0.14728683233261108 0.5348837375640869
0.21540623903274536 -0.13178294897079468 0.5348837375640869
0.22224821150302887 -0.11627906560897827 0.4883720874786377
0.2144615352153778 -0.10077518224716187 -0.24031007289886475
0.22214491665363312 -0.10077518224716187 -0.13178294897079468
0.2133338898420334 -0.10077518224716187 -0.11627905815839767
0.20988762378692627 -0.08527129888534546 -0.3333333134651184
0.21261027455329895 -0.08527129888534546 -0.317829430103302
0.21774613857269287 -0.08527129888534546 -0.30232560634613037
0.21890635788440704 -0.08527129888534546 -0.06976741552352905
0.21175993978977203 -0.08527130633592606 0.4728682041168213
0.2237395942211151 -0.08527129888534546 0.4883720874786377
0.21044693887233734 -0.06976741552352905 -0.3643410801887512
0.2112724483013153 -0.06976741552352905 -0.3488371968269348
0.21257157623767853 -0.06976741552352905 -0.3333333134651184
0.21446245908737183 -0.06976741552352905 -0.317829430103302
0.21766021847724915 -0.06976741552352905 -0.30232560634613037
0.22394156455993652 -0.06976741552352905 -0.28682172298431396
0.22369374334812164 -0.06976741552352905 -0.038759708404541016
0.20970052480697632 -0.06976741552352905 -0.02325582504272461
0.22005687654018402 -0.06976741552352905 0.4728682041168213
0.21886426210403442 -0.06976741552352905 0.4883720874786377
0.2097652703523636 -0.05426359176635742 -0.317829430103302
0.21211284399032593 -0.05426358804106712 -0.30232560634613037
0.21541699767112732 -0.05426359176635742 -0.28682172298431396
0.22140005230903625 -0.05426359176635742 -0.27131783962249756
0.21394771337509155 -0.05426359176635742 -0.007751941680908203
0.2127935290336609 -0.038759708404541016 -0.27131783962249756
0.21778471767902374 -0.038759708404541016 -0.25581395626068115
0.22412700951099396 -0.038759708404541016 -0.02325582504272461
0.21723672747612 -0.038759708404541016 -0.007751941680908203
0.2102362960577011 -0.038759708404541016 0.007751941680908203
0.20986118912696838 -0.02325582318007946 -0.25581395626068115
0.2146081030368805 -0.02325582504272461 -0.24031007289886475
0.220819354057312 -0.02325582504272461 -0.22480618953704834
0.22228583693504333 -0.02325582504272461 -0.038759708404541016
0.2175515592098236 -0.02325582504272461 -0.02325582504272461
0.21313628554344177 -0.02325582504272461 -0.007751941680908203
0.2122209370136261 -0.02325582504272461 0.4418604373931885
0.21080541610717773 -0.007751941680908203 -0.4883720874786377
0.2128850817680359 -0.007751941680908203 -0.4728682041168213
0.21266156435012817 -0.007751941680908203 -0.4573643207550049
0.2099371701478958 -0.007751941215246916 -0.4418604075908661
0.21042142808437347 -0.007751941680908203 -0.22480618953704834
0.2150355875492096 -0.007751941215246916 -0.20930230617523193
0.22008362412452698 -0.007751941680908203 -0.19379842281341553
0.2241637110710144 -0.007751941680908203 -0.1782945990562439
0.22265003621578217 -0.007751941680908203 -0.08527129888534546
0.2197909653186798 -0.007751941680908203 -0.06976741552352905
0.216537743806839 -0.007751941680908203 -0.05426359176635742
0.21334660053253174 -0.007751941680908203 -0.038759708404541016
0.2099262773990631 -0.007751941680908203 -0.02325582504272461
0.21871256828308105 -0.007751941680908203 0.42635655403137207
0.2098725140094757 0.007751941680908203 -0.5348837375640869
0.2141817808151245 0.007751941680908203 -0.5193798542022705
0.21573889255523682 0.007751941680908203 -0.5038759708404541
0.2157478630542755 0.007751941680908203 -0.4883720874786377
0.21539369225502014 0.007751941680908203 -0.4728682041168213
0.21347881853580475 0.007751941680908203 -0.4573643207550049
0.20963381230831146 0.007751941680908203 -0.19379842281341553
0.21314221620559692 0.00775194214656949 -0.1782945990562439
0.2158079445362091 0.007751941680908203 -0.1627907156944275
0.21785831451416016 0.007751941680908203 -0.14728683233261108
0.2179812639951706 0.007751941680908203 -0.13178294897079468
0.2169981598854065 0.007751941680908203 -0.11627906560897827
0.2150707244873047 0.007751941680908203 -0.10077518224716187
0.21303004026412964 0.007751941680908203 -0.08527129888534546
0.21101617813110352 0.007751941680908203 -0.06976741552352905
0.21356844902038574 0.02325582504272461 -0.5503876209259033
0.2181415557861328 0.02325582504272461 -0.5348837375640869
0.21920113265514374 0.02325582504272461 -0.5193798542022705
0.21851983666419983 0.02325582504272461 -0.5038759708404541
0.2164602428674698 0.02325582504272461 -0.4883720874786377
0.21320681273937225 0.02325582504272461 -0.4728682041168213
0.2095273733139038 0.02325582504272461 -0.14728683233261108
0.2100469470024109 0.02325582690536976 -0.13178294897079468
0.20942270755767822 0.02325582504272461 -0.11627907305955887
0.2172168493270874 0.02325582504272461 0.39534878730773926
0.21122121810913086 0.038759708404541016 -0.6124030947685242
0.21302810311317444 0.038759708404541016 -0.5968992114067078
0.21430703997612 0.038759708404541016 -0.5813953876495361
0.21661370992660522 0.038759708404541016 -0.5658915042877197
0.219476580619812 0.038759708404541016 -0.5503876209259033
0.22187595069408417 0.038759708404541016 -0.5348837375640869
0.22177273035049438 0.038759708404541016 -0.5193798542022705
0.21933495998382568 0.038759708404541016 -0.5038759708404541
0.21386206150054932 0.038759708404541016 -0.4883720874786377
0.2218986302614212 0.05426359176635742 -0.7054263353347778
0.2183837890625 0.05426359176635742 -0.6899224519729614
0.213222935795784 0.05426359176635742 -0.6744185090065002
0.22309118509292603 0.05426359176635742 -0.5813953876495361
0.22135215997695923 0.05426359176635742 -0.5658915042877197
0.22312988340854645 0.05426359176635742 -0.5503876209259033
0.2242661416530609 0.05426359176635742 -0.5193798542022705
0.21823185682296753 0.05426359176635742 -0.5038759708404541
0.2215844988822937 0.06976747512817383 -0.6899224519729614
0.21580341458320618 0.06976747512817383 -0.674418568611145
0.2225775122642517 0.06976747512817383 -0.5813953876495361
0.21814021468162537 0.06976747512817383 -0.5658915042877197
0.2191472053527832 0.06976747512817383 -0.5503876209259033
0.2226714938879013 0.06976747512817383 -0.5348837375640869
0.21972203254699707 0.06976747512817383 -0.5193798542022705
0.2094007283449173 0.11627912521362305 0.364341139793396
0.22115278244018555 0.1317828893661499 0.364341139793396
0.2248564064502716 -0.10077518224716187 -0.22480618953704834
0.22986847162246704 -0.10077518224716187 -0.20930230617523193
0.2338905930519104 -0.10077518224716187 -0.19379842281341553
0.23434185981750488 -0.10077518224716187 -0.1782945990562439
0.23235481977462769 -0.10077518224716187 -0.1627907156944275
0.22825127840042114 -0.10077518224716187 -0.14728683233261108
0.2256934642791748 -0.10077518224716187 0.4883720874786377
0.2312707006931305 -0.10077518224716187 0.5038759708404541
0.22502180933952332 -0.08527129888534546 -0.28682172298431396
0.22848841547966003 -0.08527129888534546 -0.27131783962249756
0.2317243069410324 -0.08527129888534546 -0.25581395626068115
0.23631256818771362 -0.08527129888534546 -0.24031007289886475
0.23777054250240326 -0.08527129888534546 -0.10077518224716187
0.22894300520420074 -0.08527129888534546 -0.08527129888534546
0.2269412875175476 -0.06976741552352905 -0.27131783962249756
0.22936254739761353 -0.06976741552352905 -0.25581395626068115
0.23280806839466095 -0.06976741552352905 -0.24031007289886475
0.23879271745681763 -0.06976741552352905 -0.22480618953704834
0.2382301539182663 -0.06976741552352905 -0.06976741552352905
0.2311915159225464 -0.06976741552352905 -0.05426359176635742
0.2261446714401245 -0.05426359176635742 -0.25581395626068115
0.22919826209545135 -0.05426359176635742 -0.24031008780002594
0.2329670786857605 -0.05426359176635742 -0.22480618953704834
0.23867496848106384 -0.05426359176635742 -0.20930230617523193
0.23991765081882477 -0.05426359176635742 -0.06976741552352905
0.23526480793952942 -0.05426359176635742 -0.05426359176635742
0.2302355170249939 -0.05426359176635742 -0.038759708404541016
0.22490184009075165 -0.05426359176635742 -0.02325582504272461
0.2282252311706543 -0.05426359176635742 0.4728682041168213
0.22524888813495636 -0.038759708404541016 -0.24031007289886475
0.22837720811367035 -0.038759708404541016 -0.22480620443820953
0.23210573196411133 -0.038759708404541016 -0.20930230617523193
0.2365117222070694 -0.038759708404541016 -0.19379842281341553
0.2385643869638443 -0.038759708404541016 -0.08527129888534546
0.23520880937576294 -0.038759708404541016 -0.06976741552352905
0.23190045356750488 -0.038759708404541016 -0.05426359176635742
0.22831134498119354 -0.038759708404541016 -0.038759708404541016
0.22538690268993378 -0.038759708404541016 0.4573643207550049
0.2327807992696762 -0.038759708404541016 0.4728682041168213
0.22603966295719147 -0.02325582504272461 -0.20930230617523193
0.22966726124286652 -0.02325582504272461 -0.19379843771457672
0.23269686102867126 -0.02325582504272461 -0.1782945990562439
0.2349729984998703 -0.02325582504272461 -0.1627907156944275
0.23636461794376373 -0.02325582504272461 -0.14728683233261108
0.23642615973949432 -0.02325582504272461 -0.13178294897079468
0.23556360602378845 -0.02325582504272461 -0.11627906560897827
0.23355835676193237 -0.02325582504272461 -0.10077518224716187
0.23119786381721497 -0.02325582504272461 -0.08527129888534546
0.22886791825294495 -0.02325582504272461 -0.06976741552352905
0.22585377097129822 -0.02325582504272461 -0.05426359176635742
0.2290283888578415 -0.02325582504272461 0.4573643207550049
0.22591403126716614 -0.02325582504272461 0.4728682041168213
0.22620196640491486 -0.007751941680908203 -0.1627907156944275
0.22750818729400635 -0.007751941680908203 -0.14728683233261108
0.22747279703617096 -0.007751941680908203 -0.13178294897079468
0.22668804228305817 -0.007751941680908203 -0.11627906560897827
0.22507718205451965 -0.007751941680908203 -0.10077517479658127
0.22560927271842957 -0.007751941680908203 0.4418604373931885
0.22706714272499084 -0.007751941215246916 0.4573643207550049
0.22584939002990723 0.007751941680908203 0.41085267066955566
0.23116151988506317 0.007751941680908203 0.42635655403137207
0.22867731750011444 0.007751941680908203 0.4418604373931885
0.23305514454841614 0.02325582504272461 0.41085267066955566
0.2386399656534195 0.02325582504272461 0.42635655403137207
0.2288847267627716 0.02325582504272461 0.4418604373931885
0.2401404082775116 0.038759708404541016 -0.8914728760719299
0.2264583706855774 0.038759708404541016 0.39534878730773926
0.22585812211036682 0.03875970467925072 0.4418604373931885
0.23897741734981537 0.05426359176635742 -0.9534883499145508
0.23790225386619568 0.05426359176635742 -0.9379844665527344
0.23726476728916168 0.05426359176635742 -0.9224806427955627
0.23596669733524323 0.05426359176635742 -0.9069767594337463
0.23519180715084076 0.05426359176635742 -0.8914729356765747
0.23530948162078857 0.05426359176635742 -0.8759690523147583
0.23563583195209503 0.05426359176635742 -0.8604650497436523
0.23683714866638184 0.05426359176635742 -0.8449612259864807
0.23816585540771484 0.05426359176635742 -0.8294573426246643
0.23939043283462524 0.05426359176635742 -0.8139535188674927
0.23720306158065796 0.05426359176635742 -0.7054263353347778
0.23657655715942383 0.05426359176635742 -0.6899224519729614
0.23489567637443542 0.05426359176635742 -0.674418568611145
0.23292681574821472 0.05426359176635742 -0.6589146852493286
0.2310582995414734 0.05426359176635742 -0.643410861492157
0.22900481522083282 0.05426359176635742 -0.6279069185256958
0.2271687388420105 0.05426359176635742 -0.6124030947685242
0.2254706770181656 0.05426359176635742 -0.5968992114067078
0.22495731711387634 0.05426359176635742 -0.5348837971687317
0.23571226000785828 0.06976747512817383 -0.7054263353347778
0.236817866563797 0.06976747512817383 -0.674418568611145
0.23353886604309082 0.06976747512817383 -0.6589146852493286
0.23148880898952484 0.06976747512817383 -0.643410861492157
0.22955837845802307 0.06976747512817383 -0.6279069185256958
0.22792121767997742 0.06976747512817383 -0.6124030947685242
0.22599394619464874 0.06976747512817383 -0.596899151802063
0.22949567437171936 0.06976747512817383 0.4263565242290497
0.22563423216342926 0.10077524185180664 0.3488372564315796
0.2296503484249115 0.11627912521362305 0.3488372564315796
0.23562400043010712 0.1317828893661499 0.3488372564315796
0.24011361598968506 0.1472867727279663 -0.5503876209259033
0.23946042358875275 0.1472867727279663 0.3488372564315796
0.239969402551651 0.16279065608978271 -0.5658915042877197
0.2536492645740509 -0.1627907156944275 0.5193798542022705
0.24587133526802063 -0.1627907156944275 0.5348837375640869
0.24616040289402008 -0.14728683233261108 0.5038759708404541
0.24826622009277344 -0.11627906560897827 0.5193798542022705
0.24180078506469727 -0.08527129888534546 -0.22480618953704834
0.2444343864917755 -0.08527129888534546 -0.20930230617523193
0.2471846342086792 -0.08527129888534546 -0.19379842281341553
0.2492901086807251 -0.08527129888534546 -0.1782945990562439
0.24986878037452698 -0.08527129888534546 -0.1627907156944275
0.2494213879108429 -0.08527129888534546 -0.14728683233261108
0.2472381889820099 -0.08527129888534546 -0.13178294897079468
0.24298804998397827 -0.08527129888534546 -0.11627906560897827
0.24269479513168335 -0.06976741552352905 -0.20930230617523193
0.24637073278427124 -0.06976741552352905 -0.19379842281341553
0.24898585677146912 -0.06976741552352905 -0.1782945990562439
0.25107693672180176 -0.06976741552352905 -0.1627907156944275
0.25198519229888916 -0.06976741552352905 -0.14728683233261108
0.25138038396835327 -0.06976741552352905 -0.13178294897079468
0.2494666874408722 -0.06976741552352905 -0.11627906560897827
0.24698424339294434 -0.06976741552352905 -0.10077518224716187
0.24245230853557587 -0.06976741552352905 -0.08527129888534546
0.242512047290802 -0.05426359176635742 -0.19379842281341553
0.246100515127182 -0.05426359176635742 -0.1782945990562439
0.2478443831205368 -0.05426359176635742 -0.1627907156944275
0.24910728633403778 -0.05426359176635742 -0.14728683233261108
0.24913108348846436 -0.05426359176635742 -0.13178294897079468
0.24820351600646973 -0.05426359176635742 -0.11627906560897827
0.24665984511375427 -0.05426359176635742 -0.10077518224716187
0.24317201972007751 -0.05426359176635742 -0.08527129143476486
0.24071070551872253 -0.038759708404541016 -0.1782945990562439
0.24298349022865295 -0.038759708404541016 -0.1627907156944275
0.24466732144355774 -0.038759708404541016 -0.14728683233261108
0.2447889894247055 -0.038759708404541016 -0.13178294897079468
0.24384185671806335 -0.038759708404541016 -0.11627906560897827
0.2415660321712494 -0.038759708404541016 -0.10077517479658127
0.2507284879684448 0.038759708404541016 -0.9689922332763672
0.24554485082626343 0.038759708404541016 -0.9534883499145508
0.24428963661193848 0.038759708404541016 -0.9379844665527344
0.2433117926120758 0.038759708404541016 -0.922480583190918
0.24093037843704224 0.038759708404541016 -0.9069767594337463
0.24086357653141022 0.03875970467925072 -0.8759689331054688
0.24329258501529694 0.038759708404541016 -0.8604650497436523
0.25060606002807617 0.038759708404541016 -0.8449612259864807
0.24160923063755035 0.038759708404541016 0.41085267066955566
0.24353735148906708 0.038759708404541016 0.42635655403137207
0.25078532099723816 0.05426359176635742 -0.9689922332763672
0.24150526523590088 0.05426359176635742 -0.7984496355056763
0.24637913703918457 0.05426359176635742 -0.7829457521438599
0.24350827932357788 0.05426359176635742 0.39534878730773926
0.2458462119102478 0.05426359176635742 0.42635655403137207
0.2516600489616394 0.06976747512817383 -0.9534883499145508
0.2490684986114502 0.06976747512817383 -0.9379844665527344
0.2485804259777069 0.06976747512817383 -0.9224806427955627
0.2466188669204712 0.06976747512817383 -0.9069766998291016
0.24542236328125 0.06976747512817383 -0.8914728760719299
0.24645286798477173 0.06976747512817383 -0.8759690523147583
0.24831625819206238 0.06976747512817383 -0.8604651093482971
0.2523175776004791 0.06976747512817383 -0.8449612259864807
0.24127955734729767 0.06976747512817383 -0.7054263353347778
0.24063387513160706 0.06976748257875443 -0.6899224519729614
0.24431997537612915 0.08527135848999023 0.41085267066955566
0.2548207938671112 0.10077524185180664 0.3488372564315796
0.25497758388519287 0.1472867727279663 -0.5813953876495361
0.2457827627658844 0.1472867727279663 -0.5658915042877197
0.24625763297080994 0.1472867727279663 -0.5348837375640869
0.2547459006309509 0.1472867727279663 0.3178294897079468
0.24672195315361023 0.1472867727279663 0.3333333730697632
0.2523624897003174 0.1472867727279663 0.364341139793396
0.25512874126434326 0.16279065608978271 -0.5968992114067078
0.24692875146865845 0.16279065608978271 -0.5813953876495361
0.2406577169895172 0.16279065608978271 -0.5503876209259033
0.2495516538619995 0.16279065608978271 -0.5348837375640869
0.2500659227371216 0.16279065608978271 0.3178294897079468
0.24097120761871338 0.16279065608978271 0.3333333432674408
0.24862846732139587 0.16279065608978271 0.3488372564315796
0.25057193636894226 0.17829453945159912 -0.5968992114067078
0.24154691398143768 0.17829453945159912 -0.5813953876495361
0.24130739271640778 0.17829452455043793 -0.565891444683075
0.2482723891735077 0.17829453945159912 -0.5503876209259033
0.2501734495162964 0.17829453945159912 0.3178294897079468
0.2489653080701828 0.17829453945159912 0.3333333730697632
0.25070202350616455 0.19379842281341553 -0.5968992114067078
0.24743811786174774 0.19379842281341553 -0.5813953876495361
0.251950204372406 0.19379842281341553 -0.5658915042877197
0.2601386308670044 -0.13178294897079468 0.5348837375640869
0.26083439588546753 -0.11627906560897827 0.5038759708404541
0.26103702187538147 0.038759708404541016 -0.8449612855911255
0.26525482535362244 0.05426359176635742 -0.7984496355056763
0.2592589259147644 0.05426359176635742 -0.7829458117485046
0.2577158510684967 0.05426359176635742 0.41085267066955566
0.26073846220970154 0.06976747512817383 -0.8294574022293091
0.26591017842292786 0.06976747512817383 0.41085267066955566
0.26527372002601624 0.11627912521362305 0.3488372564315796
0.26088353991508484 0.1472867727279663 -0.5813953876495361
0.2657736837863922 0.1472867727279663 -0.5193798542022705
0.268878698348999 0.16279065608978271 -0.5193798542022705
0.27019959688186646 0.16279065608978271 0.30232560634613037
0.25914254784584045 0.17829453945159912 -0.5348837375640869
0.2625039219856262 0.17829453945159912 0.30232560634613037
0.26969683170318604 0.17829453945159912 0.3488372564315796
0.26573964953422546 0.19379842281341553 -0.5503876209259033
0.26815497875213623 0.19379842281341553 0.30232560634613037
0.2571522295475006 0.19379842281341553 0.3178294897079468
0.26850640773773193 0.19379842281341553 0.3333333730697632
0.26959463953971863 0.20930230617523193 -0.5813953876495361
0.28388798236846924 -0.13178294897079468 0.5193798542022705
0.2835885286331177 0.038759708404541016 -0.9379844665527344
0.2807821035385132 0.038759708404541016 -0.922480583190918
0.279211163520813 0.038759708404541016 -0.9069767594337463
0.2774360477924347 0.038759708404541016 -0.8914728760719299
0.2746320068836212 0.038759708404541016 -0.8759689927101135
0.27196407318115234 0.038759708404541016 -0.8604651093482971
0.284498929977417 0.05426359176635742 -0.8914728760719299
0.28227677941322327 0.05426359176635742 -0.8759689927101135
0.27980196475982666 0.05426359176635742 -0.8604651093482971
0.27803555130958557 0.05426359176635742 -0.8449612259864807
0.2758755385875702 0.05426359176635742 -0.8294573426246643
0.2724588215351105 0.05426358804106712 -0.8139535188674927
0.28543421626091003 0.06976747512817383 -0.9224807024002075
0.2824857831001282 0.06976747512817383 -0.9069767594337463
0.2799919843673706 0.06976747512817383 -0.8914728760719299
0.27830713987350464 0.06976747512817383 -0.8759690523147583
0.27685409784317017 0.06976747512817383 -0.8604651093482971
0.2744729220867157 0.06976747512817383 -0.8449612259864807
0.2717277407646179 0.06976747512817383 -0.8294573426246643
0.27651870250701904 0.10077524185180664 0.39534878730773926
0.27910882234573364 0.1317828893661499 0.3488372564315796
0.2739945650100708 0.1472867727279663 -0.5658915042877197
0.2764815390110016 0.1472867727279663 -0.5503876209259033
0.2774015963077545 0.1472867727279663 -0.5348837375640869
0.27273938059806824 0.1472867727279663 -0.5193798542022705
0.2776583433151245 0.1472867727279663 0.364341139793396
0.27239033579826355 0.16279065608978271 -0.5968992114067078
0.277981162071228 0.16279065608978271 -0.5813953876495361
0.2802390158176422 0.16279065608978271 -0.5658915042877197
0.2815515995025635 0.16279065608978271 -0.5503876209259033
0.2819158732891083 0.16279065608978271 -0.5348837375640869
0.2742750942707062 0.16279065608978271 -0.5193798542022705
0.27511268854141235 0.16279065608978271 0.30232560634613037
0.27762889862060547 0.17829453945159912 -0.5968992710113525
0.281058132648468 0.17829453945159912 -0.5813953876495361
0.28307098150253296 0.17829453945159912 -0.5658915042877197
0.2852446138858795 0.17829453945159912 -0.5503876209259033
0.28510376811027527 0.17829453945159912 -0.5348837375640869
0.27809813618659973 0.19379842281341553 -0.5968992114067078
0.28172773122787476 0.19379842281341553 -0.5813953876495361
0.2826839089393616 0.19379842281341553 -0.5658915042877197
0.281418114900589 0.19379842281341553 -0.5503876209259033
0.27221864461898804 0.20930230617523193 -0.5813953876495361
0.2850554585456848 0.20930230617523193 0.3178294897079468
0.28869879245758057 -0.14728683233261108 0.5348837375640869
0.28810515999794006 -0.13178294897079468 0.5038759708404541
0.28975650668144226 0.03875970467925072 -0.9689921736717224
0.28714752197265625 0.038759708404541016 -0.9534883499145508
0.2935570180416107 0.05426359176635742 -0.9689922332763672
0.29241496324539185 0.05426359176635742 -0.9534883499145508
0.2904796004295349 0.05426359176635742 -0.9379844665527344
0.28851866722106934 0.05426359176635742 -0.9224806427955627
0.2869746685028076 0.05426359176635742 -0.9069767594337463
0.2884419560432434 0.06976747512817383 -0.9534883499145508
0.28793373703956604 0.06976747512817383 -0.9379844665527344
0.30030012130737305 0.08527135848999023 0.39534878730773926
0.29152220487594604 0.1472867727279663 0.3178294897079468
0.29579564929008484 0.17829453945159912 0.30232560634613037
0.29427722096443176 0.19379842281341553 0.30232560634613037
0.2893158495426178 0.20930230617523193 0.3178294897079468
0.31131941080093384 -0.1782945990562439 0.5193798542022705
0.3031746745109558 -0.1782945990562439 0.5348837375640869
0.3079414963722229 -0.1627907156944275 0.5348837375640869
0.3023655116558075 -0.14728683233261108 0.5038759708404541
