0.1312904804944992 0.06976747512817383 -0.10077518224716187
0.12992408871650696 0.06976747512817383 -0.05426359176635742
0.11824463307857513 0.06976747512817383 -0.038759708404541016
0.12214910984039307 0.06976747512817383 0.5968992710113525
0.11750179529190063 0.06976747512817383 0.6434107422828674
0.12169137597084045 0.06976747512817383 0.6589146852493286
0.12860584259033203 0.06976747512817383 0.674418568611145
0.1317465752363205 0.08527135848999023 -0.5503876209259033
0.11692972481250763 0.08527135103940964 -0.007751941215246916
0.1262674182653427 0.08527135848999023 0.612403154373169
0.12461753189563751 0.08527135848999023 0.6279069185256958
0.12634587287902832 0.08527135848999023 0.6434108018875122
0.12984536588191986 0.08527135848999023 0.6589146852493286
0.11797590553760529 0.10077524185180664 0.02325582504272461
0.12962928414344788 0.10077524185180664 0.6279069185256958
0.13087037205696106 0.10077524185180664 0.6434108018875122
0.1166122779250145 0.11627912521362305 -0.5968992114067078
0.11646221578121185 0.11627911776304245 0.1472867727279663
0.1275431215763092 0.11627912521362305 0.16279065608978271
0.12308719009160995 0.11627913266420364 0.28682172298431396
0.12447246164083481 0.11627912521362305 0.30232560634613037
0.13130177557468414 0.11627912521362305 0.3178294897079468
0.13073910772800446 0.11627912521362305 0.612403154373169
0.1284668892621994 0.11627912521362305 0.6279069185256958
0.12971231341362 0.11627912521362305 0.6434108018875122
0.11724630743265152 0.1317828893661499 -0.6124030947685242
0.12423266470432281 0.1317828893661499 0.612403154373169
0.12326125800609589 0.1317828893661499 0.6279069185256958
0.12510724365711212 0.1317828893661499 0.6434108018875122
0.1283630132675171 0.1317828893661499 0.6589146852493286
0.13142859935760498 0.1472867727279663 0.5813953876495361
0.11841198801994324 0.1472867727279663 0.5968992710113525
0.11830099672079086 0.1472867727279663 0.6434108018875122
0.12220980226993561 0.1472867727279663 0.6589146852493286
0.12973956763744354 0.1472867727279663 0.674418568611145
0.12334996461868286 0.16279065608978271 0.674418568611145
0.12837550044059753 0.17829453945159912 0.6899224519729614
0.12659387290477753 0.17829453945159912 0.7984496355056763
0.1315218061208725 0.19379842281341553 0.7054263353347778
0.11927574872970581 0.20930230617523193 0.7209302186965942
0.12090647965669632 0.20930229127407074 0.7674418091773987
0.1465633362531662 -0.05426359176635742 -0.10077518224716187
0.14369580149650574 -0.05426359176635742 -0.08527129888534546
0.14011329412460327 -0.05426359176635742 -0.06976741552352905
0.13649314641952515 -0.05426359176635742 -0.05426359176635742
0.13250067830085754 -0.05426359549164772 -0.038759708404541016
0.1341254860162735 -0.05426359176635742 0.06976747512817383
0.14716416597366333 -0.038759708404541016 -0.42635661363601685
0.1465098261833191 -0.038759708404541016 -0.13178294897079468
0.1434151977300644 -0.038759708404541016 -0.11627906560897827
0.13871999084949493 -0.038759708404541016 -0.10077518224716187
0.13282860815525055 -0.038759708404541016 -0.08527129888534546
0.14152351021766663 -0.02325582504272461 -0.4728682041168213
0.1408270299434662 -0.02325582504272461 -0.4573643207550049
0.14407475292682648 -0.02325582504272461 -0.4418604373931885
0.14582978188991547 -0.02325582504272461 -0.14728683233261108
0.14263367652893066 -0.02325582504272461 -0.13178294897079468
0.13821206986904144 -0.02325582504272461 -0.11627907305955887
0.13223795592784882 -0.02325582504272461 -0.10077518224716187
0.13752004504203796 -0.007751941680908203 -0.5038759708404541
0.135002002120018 -0.007751941680908203 -0.4573643207550049
0.14466089010238647 -0.007751941680908203 -0.4418604373931885
0.14714449644088745 -0.007751941680908203 -0.19379842281341553
0.14586147665977478 -0.007751941680908203 -0.1782945990562439
0.14456361532211304 -0.007751941680908203 -0.1627907156944275
0.1420343518257141 -0.007751941680908203 -0.14728683233261108
0.1386856585741043 -0.007751941680908203 -0.13178294897079468
0.13406342267990112 -0.007751941680908203 -0.11627906560897827
0.1428566873073578 0.007751941680908203 -0.4573643207550049
0.14680784940719604 0.007751941680908203 -0.20930230617523193
0.14505226910114288 0.007751941680908203 -0.19379842281341553
0.14306282997131348 0.007751941680908203 -0.1782945990562439
0.14068228006362915 0.007751941680908203 -0.1627907156944275
0.1371280550956726 0.007751941680908203 -0.14728683233261108
0.1403377205133438 0.007751941680908203 0.22480618953704834
0.13735556602478027 0.007751941680908203 0.42635658383369446
0.14251242578029633 0.007751941680908203 0.4418604373931885
0.1439773291349411 0.007751941680908203 0.4573643207550049
0.14165933430194855 0.007751941680908203 0.4728682041168213
0.1352016180753708 0.00775194214656949 0.4883720874786377
0.13352233171463013 0.02325582504272461 -0.4883720874786377
0.14557147026062012 0.02325582504272461 -0.20930230617523193
0.14336037635803223 0.02325582504272461 -0.19379842281341553
0.14067432284355164 0.02325582504272461 -0.1782945990562439
0.1375894993543625 0.02325582504272461 -0.1627907156944275
0.13368140161037445 0.02325582504272461 0.39534875750541687
0.14029809832572937 0.02325582504272461 0.41085267066955566
0.14110177755355835 0.02325582504272461 0.5038759708404541
0.1453121155500412 0.038759708404541016 -0.20930230617523193
0.14260782301425934 0.038759708404541016 -0.19379842281341553
0.13948723673820496 0.038759708404541016 -0.1782945990562439
0.13448116183280945 0.038759708404541016 -0.1627907156944275
0.14297041296958923 0.038759708404541016 0.25581395626068115
0.1318662464618683 0.038759708404541016 0.3333333730697632
0.1327604055404663 0.038759708404541016 0.3488372564315796
0.13441896438598633 0.038759712129831314 0.364341139793396
0.13691627979278564 0.038759708404541016 0.37984490394592285
0.14108765125274658 0.038759708404541016 0.39534878730773926
0.14299346506595612 0.038759708404541016 0.5193798542022705
0.1335984766483307 0.038759708404541016 0.5348837375640869
0.13743259012699127 0.038759708404541016 0.7209302186965942
0.14134420454502106 0.038759708404541016 0.7364341020584106
0.14404451847076416 0.038759708404541016 0.751937985420227
0.14657814800739288 0.038759708404541016 0.7674418687820435
0.14487379789352417 0.038759708404541016 0.7984496355056763
0.13211774826049805 0.038759712129831314 0.8139535188674927
0.14725691080093384 0.05426359176635742 -0.20930230617523193
0.1444387137889862 0.05426359176635742 -0.19379842281341553
0.14052239060401917 0.05426359176635742 -0.1782945990562439
0.13516908884048462 0.05426359176635742 -0.1627907156944275
0.13837149739265442 0.05426359176635742 0.27131783962249756
0.13362500071525574 0.05426359176635742 0.28682172298431396
0.13458232581615448 0.05426359176635742 0.30232560634613037
0.13722944259643555 0.05426359176635742 0.3178294897079468
0.13917973637580872 0.05426359176635742 0.3333333730697632
0.1408393532037735 0.05426359176635742 0.3488372564315796
0.14298559725284576 0.05426359176635742 0.364341139793396
0.1457541286945343 0.05426359176635742 0.37984490394592285
0.14114752411842346 0.05426359176635742 0.5503876209259033
0.1320527195930481 0.05426359549164772 0.5658915638923645
0.13978540897369385 0.05426359176635742 0.7054263353347778
0.14491456747055054 0.05426359176635742 0.7209302186965942
0.14123955368995667 0.06976747512817383 -0.5813953876495361
0.14713987708091736 0.06976747512817383 -0.1782945990562439
0.1414334774017334 0.06976747512817383 -0.1627907156944275
0.13511717319488525 0.06976747512817383 -0.14728683233261108
0.13442900776863098 0.06976747512817383 -0.08527129888534546
0.13439372181892395 0.06976747512817383 -0.06976741552352905
0.13908937573432922 0.06976747512817383 0.28682172298431396
0.14089328050613403 0.06976747512817383 0.30232560634613037
0.1454632431268692 0.06976747512817383 0.3178294897079468
0.14571696519851685 0.06976747512817383 0.5658915042877197
0.1341705173254013 0.06976747512817383 0.5813953876495361
0.1370507776737213 0.06976747512817383 0.6899224519729614
0.14460231363773346 0.06976747512817383 0.7054263353347778
0.1385555863380432 0.08527135848999023 -0.5813953876495361
0.14186783134937286 0.08527135848999023 -0.5658915042877197
0.13179636001586914 0.08527135848999023 -0.5503876209259033
0.14630933105945587 0.08527135848999023 -0.13178294897079468
0.14541293680667877 0.08527135848999023 -0.11627906560897827
0.13686424493789673 0.08527135848999023 -0.02325582504272461
0.14455226063728333 0.08527135848999023 0.28682172298431396
0.14615993201732635 0.08527135848999023 0.30232560634613037
0.14370907843112946 0.08527135848999023 0.5813953876495361
0.13378313183784485 0.08527135848999023 0.5968992710113525
0.13421832025051117 0.08527135848999023 0.674418568611145
0.14084845781326294 0.08527135848999023 0.6899224519729614
0.1442059874534607 0.10077524185180664 0.007751941680908203
0.14119119942188263 0.10077524185180664 0.28682172298431396
0.14149150252342224 0.10077524185180664 0.30232560634613037
0.14641474187374115 0.10077524185180664 0.3178294897079468
0.13784828782081604 0.10077524185180664 0.5968992710113525
0.131951704621315 0.10077524185180664 0.612403154373169
0.13291983306407928 0.10077524185180664 0.6589146256446838
0.13614530861377716 0.10077524185180664 0.674418568611145
0.14256136119365692 0.10077524185180664 0.6899224519729614
0.13418254256248474 0.11627912521362305 0.17829453945159912
0.13992932438850403 0.11627912521362305 0.19379842281341553
0.14472652971744537 0.11627912521362305 0.20930230617523193
0.1401669681072235 0.11627912521362305 0.25581395626068115
0.13308578729629517 0.11627912521362305 0.27131783962249756
0.1352243423461914 0.11627912521362305 0.3333333730697632
0.1416999101638794 0.11627912521362305 0.3488372564315796
0.13643401861190796 0.11627911776304245 0.5968992710113525
0.13232630491256714 0.11627912521362305 0.6589146852493286
0.1356496810913086 0.11627912521362305 0.674418568611145
0.14211627840995789 0.11627912521362305 0.6899224519729614
0.14023664593696594 0.11627912521362305 0.8294574022293091
0.13232731819152832 0.1317828893661499 0.364341139793396
0.1467374861240387 0.1317828893661499 0.37984490394592285
0.1447625607252121 0.1317828893661499 0.5813953876495361
0.13198769092559814 0.1317828893661499 0.5968992114067078
0.1337341070175171 0.1317828893661499 0.6744185090065002
0.1403511017560959 0.1317828893661499 0.6899224519729614
0.13747909665107727 0.1472867727279663 0.39534878730773926
0.13764333724975586 0.1472867727279663 0.6899224519729614
0.1447094827890396 0.1472867727279663 0.7054263353347778
0.13628162443637848 0.1472867727279663 0.8139535188674927
0.1406344324350357 0.16279065608978271 0.5503876209259033
0.1343688815832138 0.16279065608978271 0.6899224519729614
0.14165028929710388 0.16279065608978271 0.7054263353347778
0.14492282271385193 0.16279065608978271 0.7984496355056763
0.1380014419555664 0.17829453945159912 0.7054263353347778
0.14380978047847748 0.17829453945159912 0.7209302186965942
0.1387682855129242 0.19379842281341553 0.7209302186965942
0.14356869459152222 0.19379842281341553 0.7364341020584106
0.14651533961296082 0.19379842281341553 0.751937985420227
0.14592799544334412 0.19379842281341553 0.7674418687820435
0.13555808365345 0.19379842281341553 0.7829457521438599
0.13199107348918915 0.20930232107639313 0.7364341020584106
0.13414287567138672 0.20930230617523193 0.751937985420227
0.16250616312026978 -0.06976741552352905 -0.3798449635505676
0.16008812189102173 -0.06976741552352905 -0.3643410801887512
0.15924577414989471 -0.06976741552352905 -0.3488371968269348
0.1597578078508377 -0.06976741552352905 -0.3333333134651184
0.1606685370206833 -0.06976741552352905 -0.317829430103302
0.1620199829339981 -0.06976741552352905 -0.30232560634613037
0.1623542308807373 -0.06976741552352905 -0.13178294897079468
0.16163109242916107 -0.06976741552352905 -0.11627906560897827
0.16122913360595703 -0.06976741552352905 -0.10077518224716187
0.1610420048236847 -0.06976741552352905 -0.08527129888534546
0.16207891702651978 -0.06976741552352905 -0.06976741552352905
0.16065236926078796 -0.05426359176635742 -0.42635661363601685
0.15622031688690186 -0.05426359176635742 -0.41085273027420044
0.15402188897132874 -0.05426359176635742 -0.39534884691238403
0.15343032777309418 -0.05426358804106712 -0.3798449635505676
0.15329430997371674 -0.05426359176635742 -0.3643410801887512
0.15374912321567535 -0.05426359176635742 -0.3488371968269348
0.15441982448101044 -0.05426359176635742 -0.3333333134651184
0.1548217236995697 -0.05426359176635742 -0.317829430103302
0.1553044319152832 -0.05426359176635742 -0.30232560634613037
0.15559762716293335 -0.05426359176635742 -0.28682172298431396
0.1560477912425995 -0.05426359176635742 -0.27131783962249756
0.15652872622013092 -0.05426359176635742 -0.25581395626068115
0.1574486345052719 -0.05426359176635742 -0.24031007289886475
0.15875668823719025 -0.05426359176635742 -0.22480618953704834
0.15990643203258514 -0.05426359176635742 -0.20930230617523193
0.160615012049675 -0.05426359176635742 -0.19379842281341553
0.1607876718044281 -0.05426359176635742 -0.1782945990562439
0.16019147634506226 -0.05426359176635742 -0.1627907156944275
0.15765103697776794 -0.05426359176635742 -0.14728683233261108
0.15416841208934784 -0.05426359176635742 -0.13178294897079468
0.1501532644033432 -0.05426359176635742 -0.11627906560897827
0.15678547322750092 -0.038759708404541016 -0.4573643207550049
0.148311048746109 -0.038759708404541016 -0.4418604075908661
0.14885857701301575 -0.038759708404541016 -0.41085273027420044
0.1505742073059082 -0.038759708404541016 -0.39534884691238403
0.15197888016700745 -0.038759708404541016 -0.3798449635505676
0.15284335613250732 -0.038759708404541016 -0.3643410801887512
0.15370851755142212 -0.038759708404541016 -0.3488371968269348
0.15440016984939575 -0.038759708404541016 -0.3333333134651184
0.15477848052978516 -0.038759708404541016 -0.317829430103302
0.15516644716262817 -0.038759708404541016 -0.30232560634613037
0.1552201211452484 -0.038759708404541016 -0.28682172298431396
0.15530112385749817 -0.038759708404541016 -0.27131783962249756
0.1552695631980896 -0.038759708404541016 -0.25581395626068115
0.15545110404491425 -0.038759708404541016 -0.24031007289886475
0.15571874380111694 -0.038759708404541016 -0.22480618953704834
0.15609946846961975 -0.038759708404541016 -0.20930230617523193
0.15633925795555115 -0.038759708404541016 -0.19379842281341553
0.15605387091636658 -0.038759708404541016 -0.1782945990562439
0.15485809743404388 -0.038759708404541016 -0.1627907156944275
0.1510344296693802 -0.038759708404541016 -0.14728683233261108
0.14747266471385956 -0.02325582504272461 -0.42635661363601685
0.15437862277030945 -0.02325582504272461 -0.41085273027420044
0.1571045070886612 -0.02325582504272461 -0.39534884691238403
0.15823110938072205 -0.02325582504272461 -0.3798449635505676
0.15847338736057281 -0.02325582504272461 -0.3643410801887512
0.15887461602687836 -0.02325582504272461 -0.3488371968269348
0.15932685136795044 -0.02325582504272461 -0.3333333134651184
0.159648135304451 -0.02325582504272461 -0.317829430103302
0.15991033613681793 -0.02325582504272461 -0.30232560634613037
0.15958388149738312 -0.02325582504272461 -0.28682172298431396
0.15907733142375946 -0.02325582504272461 -0.27131783962249756
0.1581464558839798 -0.02325582504272461 -0.25581395626068115
0.1571575254201889 -0.02325582504272461 -0.24031007289886475
0.15616685152053833 -0.02325582504272461 -0.22480618953704834
0.15509063005447388 -0.02325582504272461 -0.20930230617523193
0.15366733074188232 -0.02325582504272461 -0.19379842281341553
0.1515771448612213 -0.02325582504272461 -0.1782945990562439
0.1484496295452118 -0.02325582504272461 -0.1627907156944275
0.1620885729789734 -0.02325582504272461 0.16279065608978271
0.16024166345596313 -0.007751941680908203 -0.5038759708404541
0.16250929236412048 -0.007751941680908203 -0.27131783962249756
0.1603703647851944 -0.007751941680908203 -0.25581395626068115
0.15796516835689545 -0.007751941680908203 -0.24031007289886475
0.15534383058547974 -0.007751941680908203 -0.22480618953704834
0.15170453488826752 -0.00775194214656949 -0.20930230617523193
0.15751613676548004 -0.007751941680908203 0.19379842281341553
0.16083873808383942 0.007751941680908203 -0.5193798542022705
0.15999366343021393 0.007751941680908203 -0.25581395626068115
0.1566581428050995 0.007751941680908203 -0.24031007289886475
0.15229934453964233 0.007751941680908203 -0.22480618953704834
0.15527215600013733 0.02325582504272461 -0.5348837375640869
0.15941618382930756 0.02325582504272461 -0.25581395626068115
0.15525250136852264 0.02325582504272461 -0.24031007289886475
0.14944851398468018 0.02325582504272461 -0.22480618953704834
0.1476454734802246 0.02325582504272461 0.24031007289886475
0.14733925461769104 0.02325582504272461 0.42635655403137207
0.15216082334518433 0.02325582504272461 0.4418604373931885
0.1548604667186737 0.02325582504272461 0.4573643207550049
0.1532159447669983 0.02325582504272461 0.4728682041168213
0.14877472817897797 0.02325582504272461 0.4883720874786377
0.1514027714729309 0.038759708404541016 -0.5503876209259033
0.15671603381633759 0.038759708404541016 -0.5348837375640869
0.15315118432044983 0.038759708404541016 -0.5193798542022705
0.16119025647640228 0.038759708404541016 -0.25581395626068115
0.15586552023887634 0.038759708404541016 -0.24031007289886475
0.1496976763010025 0.038759708404541016 -0.22480618953704834
0.14743946492671967 0.03875970467925072 0.41085267066955566
0.15308843553066254 0.038759708404541016 0.42635655403137207
0.15935112535953522 0.038759708404541016 0.4418604373931885
0.16249980032444 0.038759708404541016 0.4728682041168213
0.1585390269756317 0.038759708404541016 0.4883720874786377
0.151522696018219 0.038759708404541016 0.5038759708404541
0.14768844842910767 0.038759708404541016 0.7829457521438599
0.14939351379871368 0.05426359549164772 -0.5658915042877197
0.15406572818756104 0.05426359176635742 -0.5503876209259033
0.15205077826976776 0.05426359176635742 -0.5348837375640869
0.16051489114761353 0.05426359176635742 -0.24031007289886475
0.1537380814552307 0.05426359176635742 -0.22480618953704834
0.1487804502248764 0.05426359549164772 0.39534878730773926
0.15318840742111206 0.05426359176635742 0.41085267066955566
0.1599668562412262 0.05426359176635742 0.42635655403137207
0.15775594115257263 0.05426359176635742 0.5193798542022705
0.1498986929655075 0.05426359176635742 0.5348837375640869
0.1502126306295395 0.05426359176635742 0.7364341020584106
0.1540244221687317 0.05426359176635742 0.751937985420227
0.15683627128601074 0.05426359176635742 0.7674418687820435
0.15857966244220734 0.05426359176635742 0.7829457521438599
0.15762080252170563 0.05426359176635742 0.7984496355056763
0.15224406123161316 0.05426359549164772 0.8139535784721375
0.14918287098407745 0.06976747512817383 -0.5658915042877197
0.15091761946678162 0.06976747512817383 -0.5503876209259033
0.15993161499500275 0.06976747512817383 -0.20930230617523193
0.15416479110717773 0.06976747512817383 -0.19379842281341553
0.1499060094356537 0.06976747512817383 0.27131783962249756
0.14764441549777985 0.06976747512817383 0.33333340287208557
0.14838066697120667 0.06976747512817383 0.3488372564315796
0.14974340796470642 0.06976747512817383 0.364341139793396
0.15238018333911896 0.06976747512817383 0.37984490394592285
0.15691591799259186 0.06976747512817383 0.39534878730773926
0.15569403767585754 0.06976747512817383 0.5503876209259033
0.1512891948223114 0.06976747512817383 0.7209302186965942
0.15593597292900085 0.06976747512817383 0.7364341020584106
0.16003826260566711 0.06976747512817383 0.751937985420227
0.16249603033065796 0.06976747512817383 0.8139535188674927
0.14767232537269592 0.06976747512817383 0.8294574022293091
0.15887928009033203 0.08527135848999023 -0.1627907156944275
0.15106059610843658 0.08527135848999023 -0.14728683233261108
0.14874406158924103 0.08527135103940964 -0.10077518224716187
0.153268963098526 0.08527135848999023 -0.08527129888534546
0.15507429838180542 0.08527135848999023 -0.06976741552352905
0.15349853038787842 0.08527135848999023 -0.05426359176635742
0.147588312625885 0.08527135848999023 -0.03875970467925072
0.1526409387588501 0.08527135848999023 0.27131783962249756
0.14826160669326782 0.08527135848999023 0.3178294897079468
0.14932338893413544 0.08527135848999023 0.3333333730697632
0.15083768963813782 0.08527135848999023 0.3488372564315796
0.1539876013994217 0.08527135848999023 0.364341139793396
0.1597485989332199 0.08527135848999023 0.37984490394592285
0.15585464239120483 0.08527135848999023 0.5658915042877197
0.1490056961774826 0.08527135103940964 0.7054263353347778
0.15463067591190338 0.08527135848999023 0.7209302186965942
0.15950138866901398 0.08527135848999023 0.7364341020584106
0.15303918719291687 0.08527135848999023 0.8294573426246643
0.15955114364624023 0.10077524185180664 0.25581395626068115
0.148516446352005 0.10077524185180664 0.27131783962249756
0.14836564660072327 0.10077524185180664 0.3333333730697632
0.15014983713626862 0.10077524185180664 0.3488372564315796
0.1543172001838684 0.10077524185180664 0.364341139793396
0.14977477490901947 0.10077524185180664 0.5813953876495361
0.15052282810211182 0.10077524185180664 0.7054263353347778
0.15602263808250427 0.10077524185180664 0.7209302186965942
0.1621095985174179 0.10077524185180664 0.7364341020584106
0.15010689198970795 0.10077524185180664 0.8294574022293091
0.14824551343917847 0.11627912521362305 0.22480618953704834
0.14742283523082733 0.11627912521362305 0.24031007289886475
0.1486610323190689 0.11627912521362305 0.364341139793396
0.15670748054981232 0.11627912521362305 0.37984490394592285
0.1495751291513443 0.11627912521362305 0.5813953876495361
0.1499677151441574 0.11627912521362305 0.7054263353347778
0.15554499626159668 0.11627912521362305 0.7209302186965942
0.16120615601539612 0.11627912521362305 0.7364341020584106
0.1617891788482666 0.11627912521362305 0.8139535188674927
0.15784624218940735 0.1317828893661499 0.39534878730773926
0.14799660444259644 0.1317829042673111 0.7054263353347778
0.15377888083457947 0.1317828893661499 0.7209302186965942
0.1584002822637558 0.1317828893661499 0.7364341020584106
0.15276141464710236 0.1317828893661499 0.8139535188674927
0.1535050868988037 0.1472867727279663 0.41085267066955566
0.15424220263957977 0.1472867727279663 0.5658915042877197
0.1511916071176529 0.1472867727279663 0.7209302186965942
0.15517687797546387 0.1472867727279663 0.7364341020584106
0.15932640433311462 0.1472867727279663 0.751937985420227
0.1571769118309021 0.1472867727279663 0.7984496355056763
0.14878661930561066 0.1627906709909439 0.42635658383369446
0.1479530930519104 0.16279065608978271 0.7209302186965942
0.1525363028049469 0.16279065608978271 0.7364341020584106
0.15590524673461914 0.16279065608978271 0.751937985420227
0.15854866802692413 0.16279065608978271 0.7674418687820435
0.15726196765899658 0.16279065608978271 0.7829457521438599
0.1545911729335785 0.17829453945159912 0.4573643207550049
0.16215196251869202 0.17829453945159912 0.5038759708404541
0.1489076018333435 0.17829453945159912 0.7364341020584106
0.15263652801513672 0.17829453945159912 0.751937985420227
0.15401893854141235 0.17829453945159912 0.7674418687820435
0.14850422739982605 0.17829453945159912 0.7829457521438599
0.16573494672775269 -0.06976741552352905 -0.28682172298431396
0.17189502716064453 -0.06976741552352905 -0.27131783962249756
0.1756487935781479 -0.06976741552352905 -0.25581395626068115
0.17788910865783691 -0.06976741552352905 -0.24031007289886475
0.1775471270084381 -0.06976741552352905 -0.1627907156944275
0.17096969485282898 -0.06976741552352905 -0.14728683233261108
0.17184343934059143 -0.06976741552352905 -0.08527129888534546
0.16482338309288025 -0.06976741552352905 -0.06976741552352905
0.16672678291797638 -0.05426359176635742 0.06976747512817383
0.17165809869766235 -0.038759708404541016 0.11627912521362305
0.1777595728635788 -0.007751941680908203 -0.3333333134651184
0.1742197871208191 -0.007751941680908203 -0.317829430103302
0.17132028937339783 -0.007751941680908203 -0.30232560634613037
0.16736368834972382 -0.007751941680908203 -0.28682172298431396
0.17340457439422607 0.007751941680908203 -0.5038759708404541
0.16802002489566803 0.007751941215246916 -0.4573643207550049
0.1725895255804062 0.007751941680908203 -0.28682172298431396
0.16422832012176514 0.007751941680908203 -0.27131783962249756
0.1672063171863556 0.007751941680908203 0.20930230617523193
0.16721223294734955 0.02325582504272461 -0.5193798542022705
0.1687750220298767 0.02325582504272461 -0.5038759708404541
0.16480137407779694 0.02325582504272461 -0.4883720874786377
0.17541305720806122 0.02325582504272461 -0.28682172298431396
0.1653619408607483 0.02325582318007946 -0.27131783962249756
0.16951385140419006 0.02325582504272461 0.22480618953704834
0.17276373505592346 0.038759708404541016 -0.27131783962249756
0.16873528063297272 0.038759708404541016 0.24031007289886475
0.1629105806350708 0.038759708404541016 0.4573643207550049
0.17610949277877808 0.05426359176635742 -0.25581395626068115
0.16531120240688324 0.05426359176635742 0.25581395626068115
0.16557154059410095 0.05426359176635742 0.4418604373931885
0.16925880312919617 0.05426359176635742 0.4573643207550049
0.1696324348449707 0.05426359176635742 0.4728682041168213
0.1675921082496643 0.05426359176635742 0.4883720874786377
0.1644643396139145 0.05426359176635742 0.5038759708404541
0.17404641211032867 0.06976747512817383 -0.22480618953704834
0.16353771090507507 0.06976747512817383 0.41085267066955566
0.1682576686143875 0.06976747512817383 0.4263565242290497
0.17369230091571808 0.06976747512817383 0.4418604373931885
0.17330302298069 0.06976747512817383 0.5193798542022705
0.16520516574382782 0.06976747512817383 0.5348837375640869
0.16438795626163483 0.06976747512817383 0.7674418687820435
0.166859969496727 0.06976747512817383 0.7829457521438599
0.16655233502388 0.06976747512817383 0.7984496355056763
0.17783142626285553 0.08527135848999023 -0.1782945990562439
0.16574998199939728 0.08527135848999023 0.39534878730773926
0.1727805733680725 0.08527135848999023 0.41085267066955566
0.16824278235435486 0.08527135848999023 0.5503876209259033
0.1655845046043396 0.08527135848999023 0.751937985420227
0.16972872614860535 0.08527135848999023 0.7674418687820435
0.17223238945007324 0.08527135848999023 0.7829457521438599
0.17231635749340057 0.08527135848999023 0.7984496355056763
0.1670503318309784 0.08527135848999023 0.8139535188674927
0.16617463529109955 0.10077524185180664 -0.007751941680908203
0.16285277903079987 0.10077523440122604 0.37984487414360046
0.1708928495645523 0.10077524185180664 0.39534878730773926
0.1646256446838379 0.10077524185180664 0.5658915042877197
0.16831526160240173 0.10077524185180664 0.751937985420227
0.17216727137565613 0.10077524185180664 0.7674418687820435
0.17460665106773376 0.10077524185180664 0.7829457521438599
0.17425668239593506 0.10077524185180664 0.7984496355056763
0.16706448793411255 0.10077524185180664 0.8139535188674927
0.16867224872112274 0.11627912521362305 0.39534878730773926
0.16752292215824127 0.11627912521362305 0.5658915042877197
0.16779941320419312 0.11627912521362305 0.751937985420227
0.17210540175437927 0.11627912521362305 0.7674418687820435
0.17414802312850952 0.11627912521362305 0.7829457521438599
0.1721433699131012 0.11627912521362305 0.7984496355056763
0.17069727182388306 0.1317828893661499 0.41085267066955566
0.16591326892375946 0.1317828893661499 0.5658915042877197
0.16417822241783142 0.1317828893661499 0.751937985420227
0.16894547641277313 0.1317828893661499 0.7674418687820435
0.1704452782869339 0.1317828893661499 0.7829457521438599
0.1654292643070221 0.1317828893661499 0.7984496355056763
0.1664639711380005 0.1472867727279663 0.42635655403137207
0.1633131057024002 0.1472867727279663 0.7674418687820435
0.16351749002933502 0.1472867727279663 0.7829457521438599
0.16766320168972015 0.16279065608978271 0.4418604373931885
0.18818023800849915 -0.06976741552352905 -0.3798449635505676
0.1925029456615448 -0.06976741552352905 -0.30232560634613037
0.18736141920089722 -0.06976741552352905 -0.28682172298431396
0.18324561417102814 -0.06976741552352905 -0.27131783962249756
0.18042495846748352 -0.06976741552352905 -0.25581395626068115
0.17867514491081238 -0.06976741552352905 -0.24031007289886475
0.17902198433876038 -0.06976741552352905 -0.1627907156944275
0.1815108358860016 -0.06976741552352905 -0.14728683233261108
0.18228858709335327 -0.06976741552352905 -0.13178294897079468
0.18101716041564941 -0.06976741552352905 -0.11627906560897827
0.17878848314285278 -0.06976741552352905 -0.10077518224716187
0.18932925164699554 -0.05426359176635742 -0.42635661363601685
0.19276025891304016 -0.05426359176635742 0.02325582504272461
0.1863817274570465 -0.05426359176635742 0.038759708404541016
0.17969366908073425 -0.05426359176635742 0.05426359176635742
0.18299172818660736 -0.038759708404541016 -0.4573642909526825
0.1873866319656372 -0.038759708404541016 0.10077524185180664
0.18483130633831024 -0.02325582504272461 -0.4728682041168213
0.19368241727352142 -0.02325582504272461 -0.4573643207550049
0.19241450726985931 -0.02325582504272461 0.1317828893661499
0.1788107305765152 -0.02325582504272461 0.1472867727279663
0.18145345151424408 -0.007751941680908203 -0.4883720874786377
0.18727266788482666 -0.007751941680908203 -0.4728682041168213
0.18860292434692383 -0.007751941680908203 -0.4573643207550049
0.18569940328598022 -0.00775194214656949 -0.4418604373931885
0.1854332983493805 -0.007751941680908203 -0.3333333134651184
0.19293150305747986 -0.007751941680908203 0.16279065608978271
0.17854654788970947 -0.007751941680908203 0.17829453945159912
0.17947079241275787 0.007751941680908203 -0.4883720874786377
0.1795429140329361 0.007751941680908203 -0.4728682339191437
0.18818971514701843 0.007751941680908203 -0.30232560634613037
0.18477751314640045 0.007751941680908203 0.19379842281341553
0.18761026859283447 0.02325582504272461 0.20930230617523193
0.18645639717578888 0.038759708404541016 0.22480618953704834
0.18430103361606598 0.05426359176635742 0.24031007289886475
0.1783374547958374 0.06976747512817383 0.25581392645835876
0.17860792577266693 0.06976748257875443 0.45736435055732727
0.18011492490768433 0.06976747512817383 0.4728681743144989
0.18086472153663635 0.06976747512817383 0.4883720874786377
0.17947901785373688 0.06976746767759323 0.5038759708404541
0.1806982457637787 0.08527135848999023 0.25581395626068115
0.17917078733444214 0.08527135848999023 0.42635655403137207
0.18204066157341003 0.08527135103940964 0.4418604373931885
0.18776261806488037 0.08527135848999023 0.4573643207550049
0.19044475257396698 0.08527135848999023 0.5193798542022705
0.17993693053722382 0.08527135848999023 0.5348837375640869
0.18514642119407654 0.10077524185180664 -0.02325582504272461
0.17833960056304932 0.10077524185180664 0.24031007289886475
0.17976249754428864 0.10077524185180664 0.41085267066955566
0.18317830562591553 0.10077524185180664 0.42635655403137207
0.1885429471731186 0.10077524185180664 0.4418604373931885
0.18022434413433075 0.10077524185180664 0.5503876209259033
0.17960309982299805 0.11627912521362305 0.41085267066955566
0.18290753662586212 0.11627912521362305 0.42635655403137207
0.19302862882614136 0.11627912521362305 0.4418604373931885
0.18700113892555237 0.11627912521362305 0.5503876209259033
0.17848411202430725 0.1317828893661499 0.42635655403137207
0.1884232759475708 0.1317828893661499 0.5503876209259033
0.179763063788414 0.1472867727279663 0.5503876209259033
0.1802649199962616 0.16279065608978271 0.5348837375640869
0.18549218773841858 0.17829453945159912 0.4573643207550049
0.19432641565799713 -0.06976740807294846 -0.3643410801887512
0.19581566751003265 -0.06976741552352905 -0.3488372266292572
0.19621267914772034 -0.06976741552352905 -0.3333333134651184
0.19521191716194153 -0.06976741552352905 -0.317829430103302
0.19899600744247437 -0.05426359176635742 -0.41085273027420044
0.2030310183763504 -0.05426359176635742 -0.39534884691238403
0.20590835809707642 -0.05426359176635742 -0.3798449635505676
0.20837557315826416 -0.05426359176635742 -0.038759708404541016
0.20527218282222748 -0.05426359176635742 -0.02325582504272461
0.20187555253505707 -0.05426359176635742 -0.007751941680908203
0.19785583019256592 -0.05426359176635742 0.007751941680908203
0.19586578011512756 -0.038759708404541016 -0.4418604373931885
0.20178896188735962 -0.038759708404541016 -0.42635661363601685
0.20382437109947205 -0.038759708404541016 -0.41085273027420044
0.20691533386707306 -0.038759708404541016 -0.39534884691238403
0.20228996872901917 -0.038759708404541016 0.08527135848999023
0.19831354916095734 -0.02325582504272461 -0.4418604373931885
0.19972144067287445 -0.02325582504272461 -0.42635661363601685
0.19964006543159485 -0.02325582504272461 -0.41085273027420044
0.19998259842395782 -0.02325582504272461 -0.39534884691238403
0.20158624649047852 -0.02325582504272461 -0.3798449635505676
0.20611223578453064 -0.02325582504272461 -0.3643410801887512
0.20698300004005432 -0.02325582504272461 0.11627912521362305
0.20547354221343994 -0.007751941680908203 -0.317829430103302
0.2068122923374176 -0.007751941680908203 0.1472867727279663
0.19586281478405 0.007751941680908203 -0.30232560634613037
0.20118576288223267 0.00775194214656949 0.17829453945159912
0.20276731252670288 0.02325582504272461 -0.28682172298431396
0.20711298286914825 0.02325582504272461 0.19379842281341553
0.20676937699317932 0.038759708404541016 0.20930230617523193
0.20091867446899414 0.05426359176635742 -0.25581395626068115
0.2034231722354889 0.05426359176635742 0.22480618953704834
0.19811981916427612 0.06976747512817383 0.24031007289886475
0.20827576518058777 0.08527135848999023 -0.1782945990562439
0.2088620662689209 0.08527135848999023 0.24031007289886475
0.19634556770324707 0.08527135848999023 0.4728682041168213
0.20186148583889008 0.08527135848999023 0.4883720874786377
0.19887775182724 0.08527135848999023 0.5038759708404541
0.2042294442653656 0.10077524185180664 -0.05426359176635742
0.19638144969940186 0.10077524185180664 -0.038759708404541016
0.19554167985916138 0.10077524185180664 0.5348837375640869
0.19835180044174194 0.16279065608978271 0.4418604075908661
0.20420779287815094 0.17829453945159912 0.4418604373931885
0.2046942263841629 0.19379842281341553 0.4573643207550049
0.20693275332450867 0.19379842281341553 0.4728682041168213
0.20988911390304565 -0.05426359176635742 -0.3643410801887512
0.21212416887283325 -0.05426359176635742 -0.3488371968269348
0.21437972784042358 -0.05426359176635742 -0.3333333134651184
0.21604987978935242 -0.05426359176635742 -0.317829430103302
0.21705472469329834 -0.05426359176635742 -0.30232560634613037
0.21656320989131927 -0.05426359176635742 -0.28682172298431396
0.21572068333625793 -0.05426359176635742 -0.27131783962249756
0.21463826298713684 -0.05426359176635742 -0.25581395626068115
0.21375435590744019 -0.05426358804106712 -0.24031005799770355
0.21289923787117004 -0.05426359176635742 -0.22480618953704834
0.21236294507980347 -0.05426359549164772 -0.20930232107639313
0.21237504482269287 -0.05426359176635742 -0.19379842281341553
0.2125183641910553 -0.05426359176635742 -0.1782945990562439
0.21339404582977295 -0.05426358804106712 -0.1627907156944275
0.21439111232757568 -0.05426359176635742 -0.14728683233261108
0.21559089422225952 -0.05426359176635742 -0.13178294897079468
0.2157616913318634 -0.05426359176635742 -0.11627907305955887
0.21522055566310883 -0.05426359549164772 -0.10077518224716187
0.21428541839122772 -0.05426359176635742 -0.08527129888534546
0.21264350414276123 -0.05426359176635742 -0.06976741552352905
0.21114805340766907 -0.05426359176635742 -0.05426359176635742
0.21014165878295898 -0.038759708404541016 -0.3798449635505676
0.21330730617046356 -0.038759708404541016 -0.3643410801887512
0.21664303541183472 -0.038759708404541016 -0.3488371968269348
0.2197590470314026 -0.038759708404541016 -0.3333333134651184
0.22414779663085938 -0.038759708404541016 -0.317829430103302
0.221754252910614 -0.038759708404541016 0.05426359176635742
0.21437476575374603 -0.038759708404541016 0.06976747512817383
0.21146374940872192 -0.02325582504272461 -0.3488371968269348
0.2163795381784439 -0.02325582504272461 -0.3333333134651184
0.22156736254692078 -0.02325582504272461 -0.317829430103302
0.22065307199954987 -0.02325582504272461 0.10077524185180664
0.2156991958618164 -0.007751941680908203 -0.30232560634613037
0.21798716485500336 -0.007751941680908203 0.1317828893661499
0.2160029113292694 0.007751941680908203 -0.28682172298431396
0.2144167125225067 0.007751941215246916 0.16279065608978271
0.2213038206100464 0.02325582504272461 -0.27131783962249756
0.22272565960884094 0.02325582504272461 0.17829453945159912
0.21020877361297607 0.038759708404541016 -0.27131783962249756
0.22278785705566406 0.05426359176635742 0.20930230617523193
0.20956383645534515 0.06976747512817383 -0.22480618953704834
0.217533677816391 0.06976747512817383 0.22480618953704834
0.22345700860023499 0.08527135848999023 -0.1627907156944275
0.21418887376785278 0.10077524185180664 0.22480618953704834
0.21141350269317627 0.10077524185180664 0.4573643207550049
0.21374782919883728 0.10077524185180664 0.5193798542022705
0.21286717057228088 0.11627912521362305 0.5348837375640869
0.2109568566083908 0.1472867727279663 0.5348837375640869
0.22229963541030884 0.16279065608978271 0.42635655403137207
0.21775594353675842 0.16279065608978271 0.5193798542022705
0.2221023440361023 0.17829453945159912 0.42635655403137207
0.21263666450977325 0.19379842281341553 0.4418604373931885
0.2272980809211731 -0.038759708404541016 -0.30232560634613037
0.22926747798919678 -0.038759708404541016 -0.28682172298431396
0.23016908764839172 -0.038759708404541016 -0.27131783962249756
0.23007267713546753 -0.038759708404541016 -0.25581395626068115
0.22958095371723175 -0.038759708404541016 -0.24031005799770355
0.22884416580200195 -0.038759708404541016 -0.22480618953704834
0.2286219447851181 -0.038759708404541016 -0.20930230617523193
0.22930511832237244 -0.038759708404541016 -0.19379842281341553
0.23081755638122559 -0.038759708404541016 -0.1782945990562439
0.2328088879585266 -0.038759708404541016 -0.1627907156944275
0.23420962691307068 -0.038759708404541016 -0.14728683233261108
0.2355816662311554 -0.038759708404541016 -0.13178294897079468
0.23641519248485565 -0.038759708404541016 -0.11627906560897827
0.2368200719356537 -0.038759708404541016 -0.10077518224716187
0.23678115010261536 -0.038759708404541016 -0.08527129888534546
0.23614197969436646 -0.038759708404541016 -0.06976741552352905
0.23556265234947205 -0.038759708404541016 -0.05426359176635742
0.23424553871154785 -0.038759708404541016 -0.038759708404541016
0.23310454189777374 -0.038759708404541016 -0.02325582504272461
0.23175829648971558 -0.038759708404541016 -0.007751941680908203
0.23023360967636108 -0.038759708404541016 0.007751941680908203
0.22860732674598694 -0.038759708404541016 0.02325582504272461
0.22617508471012115 -0.038759708404541016 0.038759708404541016
0.2272692173719406 -0.02325582504272461 -0.30232560634613037
0.2315506637096405 -0.02325582504272461 -0.28682172298431396
0.23500919342041016 -0.02325582504272461 -0.27131783962249756
0.23770613968372345 -0.02325582504272461 -0.25581395626068115
0.23888380825519562 -0.02325582504272461 -0.24031007289886475
0.23909354209899902 -0.02325582504272461 -0.22480618953704834
0.2401682585477829 -0.02325582504272461 -0.20930230617523193
0.23647306859493256 -0.02325582504272461 0.06976747512817383
0.2304859161376953 -0.02325582504272461 0.08527135848999023
0.2265866994857788 -0.007751941680908203 -0.28682172298431396
0.23322953283786774 -0.007751941680908203 -0.27131783962249756
0.24027790129184723 -0.007751941680908203 -0.25581395626068115
0.23539401590824127 -0.007751941680908203 0.10077524185180664
0.2272571176290512 -0.00775194214656949 0.11627912521362305
0.2293846756219864 0.007751941680908203 -0.27131783962249756
0.23800596594810486 0.007751941680908203 -0.25581395626068115
0.23933331668376923 0.007751941680908203 0.11627912521362305
0.23202037811279297 0.007751941680908203 0.1317828893661499
0.2254820168018341 0.007751941680908203 0.1472867727279663
0.23227909207344055 0.02325582504272461 -0.25581395626068115
0.2391560673713684 0.02325582504272461 0.1472867727279663
0.23089700937271118 0.02325582504272461 0.16279065608978271
0.22690562903881073 0.038759708404541016 -0.25581395626068115
0.23582708835601807 0.038759708404541016 -0.24031007289886475
0.23645992577075958 0.038759708404541016 0.17829453945159912
0.22532901167869568 0.038759708404541016 0.19379842281341553
0.2264973521232605 0.05426359176635742 -0.24031007289886475
0.23510879278182983 0.05426359176635742 -0.22480618953704834
0.235746830701828 0.05426359176635742 0.19379842281341553
0.22659090161323547 0.06976747512817383 -0.20930230617523193
0.23289360105991364 0.06976747512817383 -0.19379842281341553
0.23958249390125275 0.06976747512817383 -0.1782945990562439
0.2306884080171585 0.06976747512817383 0.20930230617523193
0.23066461086273193 0.08527135848999023 -0.14728683233261108
0.23583471775054932 0.08527135848999023 -0.13178294897079468
0.23916073143482208 0.08527135848999023 -0.11627906560897827
0.2336060106754303 0.08527135848999023 0.20930230617523193
0.2254296839237213 0.08527135848999023 0.22480618953704834
0.22655072808265686 0.10077524185180664 -0.05426359176635742
0.23150081932544708 0.10077524185180664 -0.038759708404541016
0.23742574453353882 0.10077524185180664 -0.02325582504272461
0.23481598496437073 0.10077524185180664 0.19379842281341553
0.22765648365020752 0.10077524185180664 0.20930230617523193
0.23694412410259247 0.10077524185180664 0.5038759708404541
0.22502364218235016 0.1317828893661499 0.5348837375640869
0.2294663041830063 0.1472867727279663 0.42635655403137207
0.22648580372333527 0.19379842281341553 0.42635658383369446
0.24094553291797638 -0.02325582504272461 -0.19379843771457672
0.24193771183490753 -0.02325582504272461 -0.1782945990562439
0.2436092495918274 -0.02325582318007946 -0.1627907007932663
0.2454153299331665 -0.02325582504272461 -0.14728683233261108
0.24703767895698547 -0.02325582504272461 -0.13178294897079468
0.24790817499160767 -0.02325582504272461 -0.11627906560897827
0.24826931953430176 -0.02325582504272461 -0.10077518224716187
0.24828889966011047 -0.02325582504272461 -0.08527129888534546
0.2479420304298401 -0.02325582504272461 -0.06976741552352905
0.24771589040756226 -0.02325582504272461 -0.05426359176635742
0.24720996618270874 -0.02325582504272461 -0.038759708404541016
0.24681618809700012 -0.02325582504272461 -0.02325582504272461
0.2461768090724945 -0.02325582504272461 -0.007751941680908203
0.24537310004234314 -0.02325582504272461 0.007751941680908203
0.2444203495979309 -0.02325582504272461 0.02325582504272461
0.24279895424842834 -0.02325582504272461 0.038759708404541016
0.24071340262889862 -0.02325582504272461 0.05426359176635742
0.2430582046508789 -0.007751941680908203 -0.24031008780002594
0.24492408335208893 -0.007751941680908203 -0.22480618953704834
0.2468390315771103 -0.007751941680908203 -0.20930230617523193
0.2486107349395752 -0.007751941680908203 -0.19379842281341553
0.24972790479660034 -0.007751941680908203 -0.1782945990562439
0.2511553168296814 -0.007751941680908203 -0.1627907156944275
0.2521783411502838 -0.007751941680908203 -0.14728683233261108
0.253373384475708 -0.007751941680908203 -0.13178294897079468
0.2543454170227051 -0.007751941680908203 -0.11627906560897827
0.25480249524116516 -0.007751941680908203 -0.10077518224716187
0.25470393896102905 -0.007751941680908203 -0.08527129888534546
0.2541446387767792 -0.007751941680908203 -0.06976741552352905
0.253982812166214 -0.007751941680908203 -0.05426359176635742
0.25377383828163147 -0.007751941680908203 -0.038759708404541016
0.25374239683151245 -0.007751941680908203 -0.02325582504272461
0.2533021569252014 -0.007751941680908203 -0.007751941680908203
0.2527647614479065 -0.007751941680908203 0.007751941680908203
0.2521023750305176 -0.007751941680908203 0.02325582504272461
0.2510935068130493 -0.007751941680908203 0.038759708404541016
0.24945533275604248 -0.007751941680908203 0.05426359176635742
0.24671809375286102 -0.007751941680908203 0.06976747512817383
0.24198511242866516 -0.007751941680908203 0.08527136594057083
0.2450697124004364 0.007751941680908203 -0.24031007289886475
0.24844515323638916 0.007751941680908203 -0.22480618953704834
0.25118961930274963 0.007751941680908203 -0.20930230617523193
0.2528177499771118 0.007751941680908203 -0.19379842281341553
0.2545008659362793 0.007751941680908203 -0.1782945990562439
0.25352638959884644 0.007751941680908203 0.06976747512817383
0.25001370906829834 0.007751941680908203 0.08527135848999023
0.2450534999370575 0.007751941680908203 0.10077524185180664
0.2424863874912262 0.02325582504272461 -0.24031007289886475
0.2473679482936859 0.02325582504272461 -0.22480618953704834
0.25082510709762573 0.02325582504272461 -0.20930230617523193
0.25322163105010986 0.02325582504272461 -0.19379842281341553
0.25573787093162537 0.02325582504272461 -0.1782945990562439
0.25390881299972534 0.02325582504272461 0.10077524185180664
0.24882781505584717 0.02325582504272461 0.11627912521362305
0.24378108978271484 0.02325582504272461 0.1317828893661499
0.24410490691661835 0.038759708404541016 -0.22480618953704834
0.2478789985179901 0.038759708404541016 -0.20930230617523193
0.2505114674568176 0.038759708404541016 -0.19379842281341553
0.2527189254760742 0.038759708404541016 -0.1782945990562439
0.25475946068763733 0.038759708404541016 -0.1627907156944275
0.2543761432170868 0.038759708404541016 0.1317828893661499
0.24824702739715576 0.038759708404541016 0.1472867727279663
0.24351544678211212 0.038759708404541016 0.16279065608978271
0.24226966500282288 0.05426359176635742 -0.20930230617523193
0.24583613872528076 0.05426359176635742 -0.19379842281341553
0.24836230278015137 0.05426359176635742 -0.1782945990562439
0.2503746449947357 0.05426359176635742 -0.1627907156944275
0.2528440058231354 0.05426359176635742 -0.14728683233261108
0.2555811107158661 0.05426359176635742 -0.13178294897079468
0.2512889504432678 0.05426359176635742 0.16279065608978271
0.244759202003479 0.05426359176635742 0.17829453945159912
0.24255460500717163 0.06976747512817383 -0.1627907156944275
0.24627801775932312 0.06976747512817383 -0.14728683233261108
0.24881014227867126 0.06976747512817383 -0.13178294897079468
0.25001949071884155 0.06976747512817383 -0.11627906560897827
0.2509620189666748 0.06976747512817383 -0.10077518224716187
0.2517543435096741 0.06976747512817383 -0.08527129888534546
0.2527867257595062 0.06976747512817383 -0.06976741552352905
0.25407183170318604 0.06976747512817383 -0.05426359176635742
0.2554244101047516 0.06976747512817383 0.16279065608978271
0.24814337491989136 0.06976747512817383 0.17829453945159912
0.24185675382614136 0.06976747512817383 0.19379842281341553
0.24068179726600647 0.08527135848999023 -0.10077518224716187
0.24179023504257202 0.08527135848999023 -0.08527129888534546
0.24341079592704773 0.08527135848999023 -0.06976741552352905
0.2451954334974289 0.08527135848999023 -0.05426359176635742
0.24747955799102783 0.08527135848999023 -0.038759708404541016
0.24977147579193115 0.08527135848999023 -0.02325582504272461
0.2525862753391266 0.08527135848999023 -0.007751941680908203
0.25479719042778015 0.08527135848999023 0.007751941680908203
0.2552705407142639 0.08527135848999023 0.08527135848999023
0.25410473346710205 0.08527135848999023 0.10077524185180664
0.2529948055744171 0.08527135848999023 0.11627912521362305
0.2521655857563019 0.08527135848999023 0.1317828893661499
0.2514550983905792 0.08527135848999023 0.1472867727279663
0.2493973672389984 0.08527135848999023 0.16279065608978271
0.24564096331596375 0.08527135848999023 0.17829453945159912
0.24198614060878754 0.08527135848999023 0.19379842281341553
0.2407531887292862 0.10077524185180664 -0.007751941680908203
0.24163922667503357 0.10077524185180664 0.007751941680908203
0.24214708805084229 0.10077524185180664 0.02325582504272461
0.2421535849571228 0.10077524930238724 0.038759708404541016
0.2416190505027771 0.10077524185180664 0.05426359176635742
