0.25281548500061035 -0.42635661363601685 0.30232560634613037
0.25262024998664856 -0.42635661363601685 0.3178294897079468
0.25227344036102295 -0.42635661363601685 0.3333333730697632
0.25202491879463196 -0.42635661363601685 0.3488372564315796
0.2518874406814575 -0.42635661363601685 0.364341139793396
0.2518118619918823 -0.42635661363601685 0.37984490394592285
0.2517959177494049 -0.42635661363601685 0.39534878730773926
0.2517491579055786 -0.42635661363601685 0.41085267066955566
0.2520145773887634 -0.42635661363601685 0.42635655403137207
0.2522834539413452 -0.42635661363601685 0.4418604373931885
0.25248968601226807 -0.42635661363601685 0.4573643207550049
0.25202515721321106 -0.42635661363601685 0.4728682041168213
0.2509957551956177 -0.42635661363601685 0.4883720874786377
0.24914701282978058 -0.42635661363601685 0.5038759708404541
0.24696417152881622 -0.42635661363601685 0.5193798542022705
0.24179284274578094 -0.42635661363601685 0.5348837375640869
0.24712952971458435 -0.41085273027420044 -0.06976741552352905
0.2510359287261963 -0.41085273027420044 -0.05426359176635742
0.2532927989959717 -0.41085273027420044 -0.038759708404541016
0.25514093041419983 -0.41085273027420044 -0.02325582504272461
0.2551661431789398 -0.41085273027420044 0.3488372564315796
0.2544553279876709 -0.41085273027420044 0.364341139793396
0.25389277935028076 -0.41085273027420044 0.37984490394592285
0.25354450941085815 -0.41085273027420044 0.39534878730773926
0.25327715277671814 -0.41085273027420044 0.41085267066955566
0.2534470558166504 -0.41085273027420044 0.42635655403137207
0.2536861002445221 -0.41085273027420044 0.4418604373931885
0.2539239823818207 -0.41085273027420044 0.4573643207550049
0.2532733678817749 -0.41085273027420044 0.4728682041168213
0.25168943405151367 -0.41085273027420044 0.4883720874786377
0.2497101128101349 -0.41085273027420044 0.5038759708404541
0.24738472700119019 -0.41085273027420044 0.5193798542022705
0.24257776141166687 -0.41085273027420044 0.5348837375640869
0.24552959203720093 -0.39534884691238403 -0.11627906560897827
0.25196748971939087 -0.39534884691238403 -0.10077518224716187
0.2552848756313324 -0.39534884691238403 0.364341139793396
0.2542586624622345 -0.39534884691238403 0.37984490394592285
0.2536967694759369 -0.39534884691238403 0.39534878730773926
0.253339022397995 -0.39534884691238403 0.41085267066955566
0.25348809361457825 -0.39534884691238403 0.42635655403137207
0.2536763846874237 -0.39534884691238403 0.4418604373931885
0.25372374057769775 -0.39534884691238403 0.4573643207550049
0.25280481576919556 -0.39534884691238403 0.4728682041168213
0.2512291371822357 -0.39534884691238403 0.4883720874786377
0.24923567473888397 -0.39534884691238403 0.5038759708404541
0.24689802527427673 -0.39534884691238403 0.5193798542022705
0.2414427548646927 -0.39534884691238403 0.5348837375640869
0.2473779171705246 -0.3798449635505676 -0.14728683233261108
0.25393393635749817 -0.3798449635505676 -0.13178294897079468
0.255755215883255 -0.3798449635505676 0.3333333730697632
0.25421327352523804 -0.3798449635505676 0.3488372564315796
0.25296974182128906 -0.3798449635505676 0.364341139793396
0.2519809305667877 -0.3798449635505676 0.37984490394592285
0.25142377614974976 -0.3798449635505676 0.39534878730773926
0.25112441182136536 -0.3798449635505676 0.41085267066955566
0.25130346417427063 -0.3798449635505676 0.42635655403137207
0.2514860928058624 -0.3798449635505676 0.4418604373931885
0.2514779269695282 -0.3798449635505676 0.4573643207550049
0.25076955556869507 -0.3798449635505676 0.4728682041168213
0.2494535744190216 -0.3798449635505676 0.4883720874786377
0.2473861575126648 -0.3798449635505676 0.5038759708404541
0.2438134402036667 -0.3798449635505676 0.5193798542022705
0.24053990840911865 -0.3643410801887512 -0.19379840791225433
0.24897611141204834 -0.3643410801887512 -0.1782945990562439
0.25488927960395813 -0.3643410801887512 -0.1627907156944275
0.2546347379684448 -0.3643410801887512 0.24031007289886475
0.2540782690048218 -0.3643410801887512 0.25581395626068115
0.25372281670570374 -0.3643410801887512 0.27131783962249756
0.25334540009498596 -0.3643410801887512 0.28682172298431396
0.25262731313705444 -0.3643410801887512 0.30232560634613037
0.25206664204597473 -0.3643410801887512 0.3178294897079468
0.2510187327861786 -0.3643410801887512 0.3333333730697632
0.2499571144580841 -0.3643410801887512 0.3488372564315796
0.2487788200378418 -0.3643410801887512 0.364341139793396
0.24767032265663147 -0.3643410801887512 0.37984490394592285
0.24710136651992798 -0.3643410801887512 0.39534878730773926
0.24691718816757202 -0.3643410801887512 0.41085267066955566
0.24730773270130157 -0.3643410801887512 0.42635655403137207
0.247720867395401 -0.3643410801887512 0.4418604373931885
0.24785521626472473 -0.3643410801887512 0.4573643207550049
0.2471761703491211 -0.3643410801887512 0.4728682041168213
0.24587830901145935 -0.3643410801887512 0.4883720874786377
0.24241745471954346 -0.3643410801887512 0.5038759708404541
0.24949905276298523 -0.3488371968269348 -0.20930230617523193
0.25526443123817444 -0.3488371968269348 -0.19379842281341553
0.2558037340641022 -0.3488371968269348 0.17829453945159912
0.2533682882785797 -0.3488371968269348 0.19379842281341553
0.25153520703315735 -0.3488371968269348 0.20930230617523193
0.2501130700111389 -0.3488371968269348 0.22480618953704834
0.24907255172729492 -0.3488371968269348 0.24031007289886475
0.24853885173797607 -0.3488371968269348 0.25581395626068115
0.24816007912158966 -0.3488371968269348 0.27131783962249756
0.2477816343307495 -0.3488371968269348 0.28682172298431396
0.2470698058605194 -0.3488371968269348 0.30232560634613037
0.24648678302764893 -0.3488371968269348 0.3178294897079468
0.24534976482391357 -0.3488371968269348 0.3333333730697632
0.2438012659549713 -0.3488371968269348 0.3488372564315796
0.24205493927001953 -0.3488371968269348 0.364341139793396
0.2406938523054123 -0.3488371968269348 0.37984490394592285
0.24043390154838562 -0.3488371968269348 0.4418604373931885
0.24066177010536194 -0.3488371968269348 0.4573643207550049
0.2477080076932907 -0.3333333134651184 -0.24031007289886475
0.2547312080860138 -0.3333333134651184 -0.22480618953704834
0.25570714473724365 -0.3333333134651184 0.1317828893661499
0.25366461277008057 -0.3333333134651184 0.1472867727279663
0.2516345679759979 -0.3333333134651184 0.16279065608978271
0.24976062774658203 -0.3333333134651184 0.17829453945159912
0.24753177165985107 -0.3333333134651184 0.19379842281341553
0.24573269486427307 -0.3333333134651184 0.20930230617523193
0.24411168694496155 -0.3333333134651184 0.22480618953704834
0.24257197976112366 -0.3333333134651184 0.24031007289886475
0.24149948358535767 -0.3333333134651184 0.25581395626068115
0.24073967337608337 -0.3333333134651184 0.27131783962249756
0.2517038583755493 -0.317829430103302 -0.25581395626068115
0.25531676411628723 -0.317829430103302 0.10077524185180664
0.2523011267185211 -0.317829430103302 0.11627912521362305
0.24980638921260834 -0.317829430103302 0.1317828893661499
0.24745778739452362 -0.317829430103302 0.1472867727279663
0.24524196982383728 -0.317829430103302 0.16279065608978271
0.24288755655288696 -0.3178294599056244 0.17829453945159912
0.24207086861133575 -0.30232560634613037 -0.28682172298431396
0.2542840838432312 -0.30232560634613037 -0.27131783962249756
0.25309062004089355 -0.30232560634613037 0.08527135848999023
0.2488386332988739 -0.30232560634613037 0.10077524185180664
0.24535101652145386 -0.30232560634613037 0.11627912521362305
0.241837739944458 -0.30232560634613037 0.1317828893661499
0.24405749142169952 -0.28682172298431396 -0.30232560634613037
0.25240829586982727 -0.28682172298431396 0.06976747512817383
0.24577957391738892 -0.28682172298431396 0.08527135848999023
0.24462813138961792 -0.27131783962249756 -0.317829430103302
0.24677962064743042 -0.27131783962249756 0.06976747512817383
0.24665576219558716 -0.25581395626068115 -0.3333333134651184
0.2436191588640213 -0.25581395626068115 0.06976747512817383
0.2494318187236786 -0.24031007289886475 -0.3488371968269348
0.24214127659797668 -0.24031008780002594 0.06976747512817383
0.2521853446960449 -0.22480618953704834 -0.3643410801887512
0.24234691262245178 -0.22480618953704834 0.06976747512817383
0.24369019269943237 -0.20930230617523193 -0.39534884691238403
0.25504446029663086 -0.20930230617523193 -0.3798449635505676
0.24281136691570282 -0.20930230617523193 0.06976747512817383
0.24559569358825684 -0.19379842281341553 -0.41085273027420044
0.24301952123641968 -0.19379842281341553 0.06976747512817383
0.24301950633525848 -0.1782945990562439 -0.42635661363601685
0.243019700050354 -0.1782945990562439 0.06976747512817383
0.2536057233810425 -0.1627907156944275 -0.42635661363601685
0.24318647384643555 -0.1627907156944275 0.06976747512817383
0.24632292985916138 -0.14728683233261108 -0.4418604373931885
0.24467670917510986 -0.14728683233261108 0.06976747512817383
0.25279712677001953 -0.13178294897079468 -0.4418604373931885
0.2471783608198166 -0.13178294897079468 0.06976747512817383
0.24107913672924042 -0.11627905815839767 -0.4573643207550049
0.25040483474731445 -0.11627906560897827 0.06976747512817383
0.24792397022247314 -0.10077518224716187 -0.4573643207550049
0.2539100646972656 -0.10077518224716187 0.06976747512817383
0.25370490550994873 -0.08527129888534546 -0.4573643207550049
0.24077463150024414 -0.06976741552352905 -0.4728682041168213
0.24144574999809265 -0.06976741552352905 0.08527135848999023
0.24860315024852753 -0.05426359176635742 -0.4728682041168213
0.2432071566581726 -0.05426359176635742 0.08527135848999023
0.25526946783065796 -0.038759708404541016 -0.4728682041168213
0.24427573382854462 -0.038759708404541016 0.08527135848999023
0.24434426426887512 -0.02325582504272461 -0.4883721172809601
0.24400874972343445 -0.02325582504272461 0.08527135848999023
0.25036001205444336 -0.007751941680908203 -0.4883720874786377
0.24256210029125214 -0.007751941680908203 0.08527135848999023
0.25304746627807617 0.007751941680908203 -0.4883720874786377
0.255092978477478 0.02325582504272461 -0.4883720874786377
0.253602534532547 0.038759708404541016 0.06976747512817383
0.24984025955200195 0.05426359176635742 0.06976747512817383
0.24071447551250458 0.06976747512817383 -0.5038759708404541
0.24573133885860443 0.06976747512817383 0.06976747512817383
0.2442118227481842 0.08527135848999023 -0.5038759708404541
0.24166269600391388 0.08527135848999023 0.06976747512817383
0.24818404018878937 0.10077524185180664 -0.5038759708404541
0.25085169076919556 0.11627912521362305 -0.5038759708404541
0.25289034843444824 0.1317828893661499 -0.5038759708404541
0.25499409437179565 0.1472867727279663 -0.5038759708404541
0.25314265489578247 0.1472867727279663 0.05426359176635742
0.24873597919940948 0.16279065608978271 0.05426359176635742
0.2430238425731659 0.17829453945159912 0.05426359176635742
0.25380486249923706 0.19379842281341553 -0.5038759708404541
0.2507385015487671 0.20930230617523193 -0.5038759708404541
0.24658438563346863 0.22480618953704834 -0.5038759708404541
0.2546425759792328 0.22480618953704834 0.038759708404541016
0.2410755753517151 0.24031007289886475 0.038759708404541016
0.2518436312675476 0.25581395626068115 -0.4883720874786377
0.2483205497264862 0.27131783962249756 -0.4883720874786377
0.2437523603439331 0.28682172298431396 -0.4883721172809601
0.246177077293396 0.28682172298431396 0.02325582504272461
0.2521902918815613 0.3178294897079468 -0.4728682041168213
0.24897746741771698 0.3333333730697632 -0.4728682041168213
0.2441905438899994 0.3488372564315796 -0.4728682041168213
0.24437975883483887 0.3488372266292572 0.007751941680908203
0.25369659066200256 0.364341139793396 -0.4573643207550049
0.25005975365638733 0.37984490394592285 -0.4573643207550049
0.2457423061132431 0.37984490394592285 -0.007751941680908203
0.24486982822418213 0.39534878730773926 -0.4573643207550049
0.2515910267829895 0.39534878730773926 -0.02325582504272461
0.2509579658508301 0.41085267066955566 -0.4418604373931885
0.24611830711364746 0.41085270047187805 -0.038759708404541016
0.24663890898227692 0.42635655403137207 -0.4418604373931885
0.2424294352531433 0.42635655403137207 -0.05426359176635742
0.25063613057136536 0.4418604373931885 -0.42635661363601685
0.24458995461463928 0.4418604373931885 -0.06976741552352905
0.2460634708404541 0.4573643207550049 -0.42635661363601685
0.2533503770828247 0.4573643207550049 -0.41085273027420044
0.25309595465660095 0.4573643207550049 -0.08527129888534546
0.24948428571224213 0.4728682041168213 -0.41085273027420044
0.24416911602020264 0.4883720576763153 -0.41085270047187805
0.2516937553882599 0.4883720874786377 -0.39534884691238403
0.24755701422691345 0.5038759708404541 -0.39534884691238403
0.25553643703460693 0.5038759708404541 -0.3798449635505676
0.25253963470458984 0.5038759708404541 -0.11627906560897827
0.24047359824180603 0.5193798542022705 -0.39534884691238403
0.2496052384376526 0.5193798542022705 -0.3798449635505676
0.24431276321411133 0.5348837375640869 -0.3798449635505676
0.2517951428890228 0.5348837375640869 -0.3643410801887512
0.24882909655570984 0.5348837375640869 -0.13178294897079468
0.2474268227815628 0.5503876209259033 -0.3643410801887512
0.25377488136291504 0.5503876209259033 -0.3488371968269348
0.24070358276367188 0.5503876209259033 -0.13178294897079468
0.24107971787452698 0.5658915042877197 -0.3643410801887512
0.24845197796821594 0.5658915042877197 -0.3488371968269348
0.2537100315093994 0.5658915042877197 -0.3333333134651184
0.2471301108598709 0.5658915042877197 -0.14728683233261108
0.24267522990703583 0.5813953876495361 -0.3488371968269348
0.24811117351055145 0.5813953876495361 -0.3333333134651184
0.2519609332084656 0.5813953876495361 -0.317829430103302
0.2531994581222534 0.5813953876495361 -0.1782945990562439
0.24825496971607208 0.5813953876495361 -0.1627907156944275
0.2411348968744278 0.5813953876495361 -0.14728683233261108
0.2423781454563141 0.5968992710113525 -0.3333333134651184
0.2467600554227829 0.5968992710113525 -0.317829430103302
0.24917300045490265 0.5968992710113525 -0.30232560634613037
0.25115707516670227 0.5968992710113525 -0.28682172298431396
0.2521246373653412 0.5968992710113525 -0.27131783962249756
0.25197768211364746 0.5968992710113525 -0.25581395626068115
0.25154751539230347 0.5968992710113525 -0.24031007289886475
0.2507658004760742 0.5968992710113525 -0.22480618953704834
0.24954049289226532 0.5968992710113525 -0.20930230617523193
0.2479442059993744 0.5968992710113525 -0.19379842281341553
0.2457709014415741 0.5968992710113525 -0.1782945990562439
0.24218373000621796 0.5968992710113525 -0.1627907156944275
0.24352344870567322 0.612403154373169 -0.30232560634613037
0.24523785710334778 0.612403154373169 -0.28682172298431396
0.24566149711608887 0.612403154373169 -0.27131783962249756
0.24518024921417236 0.612403154373169 -0.25581395626068115
0.24448183178901672 0.612403154373169 -0.24031008780002594
0.2436618059873581 0.612403154373169 -0.22480617463588715
0.24262526631355286 0.612403154373169 -0.20930230617523193
0.24130281805992126 0.612403154373169 -0.19379842281341553
0.2561263144016266 -0.42635661363601685 0.06976747512817383
0.25726258754730225 -0.42635661363601685 0.08527135848999023
0.2580314874649048 -0.42635658383369446 0.10077524185180664
0.2584332227706909 -0.42635661363601685 0.11627912521362305
0.2581155002117157 -0.42635661363601685 0.1317828893661499
0.25771042704582214 -0.42635661363601685 0.1472867727279663
0.25720903277397156 -0.42635661363601685 0.16279064118862152
0.2565547227859497 -0.42635661363601685 0.17829453945159912
0.2558455467224121 -0.42635661363601685 0.19379842281341553
0.25746950507164 -0.41085273027420044 -0.007751941680908203
0.26024776697158813 -0.41085273027420044 0.007751941680908203
0.26322993636131287 -0.41085273027420044 0.02325582504272461
0.2653639316558838 -0.41085273027420044 0.038759708404541016
0.2664596736431122 -0.41085273027420044 0.05426359176635742
0.2669678330421448 -0.41085273027420044 0.06976747512817383
0.26698437333106995 -0.41085273027420044 0.08527135848999023
0.26665252447128296 -0.41085273027420044 0.10077524185180664
0.2661585807800293 -0.41085273027420044 0.11627912521362305
0.26539209485054016 -0.41085273027420044 0.1317828893661499
0.2646626830101013 -0.41085273027420044 0.1472867727279663
0.26387283205986023 -0.41085273027420044 0.16279065608978271
0.263112336397171 -0.41085273027420044 0.17829453945159912
0.26219433546066284 -0.41085273027420044 0.19379842281341553
0.26126059889793396 -0.41085273027420044 0.20930230617523193
0.26022326946258545 -0.41085273027420044 0.22480618953704834
0.25931572914123535 -0.41085273027420044 0.24031008780002594
0.2590124011039734 -0.41085273027420044 0.25581395626068115
0.2587054967880249 -0.41085273027420044 0.27131783962249756
0.25830307602882385 -0.41085273027420044 0.28682172298431396
0.257467657327652 -0.41085273027420044 0.30232560634613037
0.2569464445114136 -0.41085273027420044 0.3178294897079468
0.25605252385139465 -0.4108527600765228 0.33333340287208557
0.25770264863967896 -0.39534884691238403 -0.08527129888534546
0.2636064291000366 -0.39534884691238403 -0.06976741552352905
0.2661251127719879 -0.39534884691238403 -0.05426359176635742
0.26737600564956665 -0.39534884691238403 -0.038759708404541016
0.26822715997695923 -0.39534884691238403 -0.02325582504272461
0.26905912160873413 -0.39534884691238403 -0.007751941680908203
0.26987379789352417 -0.39534884691238403 0.007751941680908203
0.2705504596233368 -0.39534884691238403 0.02325582504272461
0.2709221839904785 -0.39534884691238403 0.038759708404541016
0.27100080251693726 -0.39534884691238403 0.05426359176635742
0.2707238793373108 -0.39534884691238403 0.06976747512817383
0.27004703879356384 -0.39534884691238403 0.08527135848999023
0.26916807889938354 -0.39534884691238403 0.10077524185180664
0.26827549934387207 -0.39534884691238403 0.11627912521362305
0.26735877990722656 -0.39534884691238403 0.1317828893661499
0.26658597588539124 -0.39534884691238403 0.1472867727279663
0.2656732201576233 -0.39534884691238403 0.16279065608978271
0.2645680904388428 -0.39534884691238403 0.17829453945159912
0.26323139667510986 -0.39534884691238403 0.19379842281341553
0.2622759938240051 -0.39534884691238403 0.20930230617523193
0.2615112066268921 -0.39534881711006165 0.22480618953704834
0.2608755826950073 -0.39534884691238403 0.24031007289886475
0.2606487274169922 -0.39534884691238403 0.25581395626068115
0.26047253608703613 -0.39534884691238403 0.27131783962249756
0.26020804047584534 -0.39534884691238403 0.28682172298431396
0.2595148980617523 -0.39534884691238403 0.30232560634613037
0.2589476704597473 -0.39534884691238403 0.3178294897079468
0.25770077109336853 -0.39534884691238403 0.33333340287208557
0.25645962357521057 -0.39534884691238403 0.3488372564315796
0.26186537742614746 -0.3798449635505676 -0.11627906560897827
0.26673588156700134 -0.3798449635505676 -0.10077518224716187
0.26994332671165466 -0.3798449635505676 -0.08527129888534546
0.2706334590911865 -0.3798449635505676 0.08527135848999023
0.26918894052505493 -0.3798449635505676 0.10077524185180664
0.2678814232349396 -0.3798449635505676 0.11627912521362305
0.26677608489990234 -0.3798449635505676 0.1317828893661499
0.2658872604370117 -0.3798449635505676 0.1472867727279663
0.26480337977409363 -0.3798449635505676 0.16279065608978271
0.26356327533721924 -0.3798449635505676 0.17829453945159912
0.2621957063674927 -0.3798449635505676 0.19379842281341553
0.2611825466156006 -0.3798449635505676 0.20930230617523193
0.2602270245552063 -0.3798449635505676 0.22480618953704834
0.2593268156051636 -0.3798449635505676 0.24031007289886475
0.2589840888977051 -0.3798449635505676 0.25581395626068115
0.25874435901641846 -0.3798449635505676 0.27131783962249756
0.2584311366081238 -0.3798449635505676 0.28682172298431396
0.25765177607536316 -0.3798449635505676 0.30232560634613037
0.25703054666519165 -0.37984493374824524 0.3178294599056244
0.26231181621551514 -0.3643410801887512 -0.14728683233261108
0.26726335287094116 -0.3643410801887512 -0.13178294897079468
0.2704627215862274 -0.3643410801887512 0.06976747512817383
0.26858291029930115 -0.3643410801887512 0.08527135848999023
0.2669828534126282 -0.3643410801887512 0.10077524185180664
0.26560717821121216 -0.3643410801887512 0.11627912521362305
0.2643279433250427 -0.3643410801887512 0.1317828893661499
0.26319780945777893 -0.3643410801887512 0.1472867727279663
0.2620558738708496 -0.3643410801887512 0.16279065608978271
0.26097458600997925 -0.3643410801887512 0.17829453945159912
0.2593096196651459 -0.3643410801887512 0.19379842281341553
0.2574893534183502 -0.36434105038642883 0.20930230617523193
0.2560093402862549 -0.3643410801887512 0.22480620443820953
0.26278257369995117 -0.3488371968269348 -0.1782945990562439
0.26751625537872314 -0.3488371968269348 -0.1627907156944275
0.27128610014915466 -0.3488371968269348 0.038759708404541016
0.26920145750045776 -0.3488371968269348 0.05426359176635742
0.26728755235671997 -0.3488371968269348 0.06976747512817383
0.2654104232788086 -0.3488371968269348 0.08527135848999023
0.26353928446769714 -0.3488371968269348 0.10077524185180664
0.26209598779678345 -0.3488371968269348 0.11627913266420364
0.2608681321144104 -0.3488371968269348 0.1317828893661499
0.2594716548919678 -0.3488372266292572 0.1472867727279663
0.2575705647468567 -0.3488371968269348 0.16279065608978271
0.2629585266113281 -0.3333333134651184 -0.20930230617523193
0.26773348450660706 -0.3333333134651184 -0.19379842281341553
0.27032792568206787 -0.3333333134651184 0.02325582504272461
0.2680487632751465 -0.3333333134651184 0.038759708404541016
0.26598501205444336 -0.3333333134651184 0.05426359176635742
0.2639268636703491 -0.3333333134651184 0.06976747512817383
0.2621052861213684 -0.3333333134651184 0.08527135848999023
0.260026216506958 -0.3333333134651184 0.10077524185180664
0.25762635469436646 -0.3333333134651184 0.11627913266420364
0.26054561138153076 -0.317829430103302 -0.24031007289886475
0.26715677976608276 -0.317829430103302 -0.22480618953704834
0.2682545483112335 -0.317829430103302 0.02325582504272461
0.2656407058238983 -0.317829430103302 0.038759708404541016
0.2633950114250183 -0.317829430103302 0.05426359176635742
0.2612636089324951 -0.317829430103302 0.06976747512817383
0.2581600844860077 -0.317829430103302 0.08527135848999023
0.2646241784095764 -0.30232560634613037 -0.25581395626068115
0.27073168754577637 -0.30232560634613037 -0.24031007289886475
0.27119481563568115 -0.30232560634613037 0.007751941680908203
0.2669338583946228 -0.30232560634613037 0.02325582504272461
0.2636287212371826 -0.30232560634613037 0.038759708404541016
0.26072341203689575 -0.30232560634613037 0.05426359176635742
0.2569815218448639 -0.30232560634613037 0.06976747512817383
0.25626838207244873 -0.28682172298431396 -0.28682172298431396
0.26729196310043335 -0.28682172298431396 -0.27131783962249756
0.26759159564971924 -0.28682172298431396 0.02325582504272461
0.26301082968711853 -0.28682172298431396 0.038759708404541016
0.25824204087257385 -0.28682172298431396 0.05426359176635742
0.2578390836715698 -0.27131783962249756 -0.30232560634613037
0.2690541744232178 -0.27131783962249756 -0.28682172298431396
0.2696341872215271 -0.27131783962249756 0.02325582504272461
0.2635750472545624 -0.27131783962249756 0.038759708404541016
0.2570768892765045 -0.27131783962249756 0.05426359176635742
0.2590929865837097 -0.25581395626068115 -0.317829430103302
0.27042752504348755 -0.25581395626068115 -0.30232560634613037
0.2648792564868927 -0.25581395626068115 0.038759708404541016
0.2568017840385437 -0.25581395626068115 0.05426359176635742
0.26143887639045715 -0.24031005799770355 -0.3333333134651184
0.2664642333984375 -0.24031007289886475 0.038759708404541016
0.25720924139022827 -0.24031008780002594 0.05426359549164772
0.2639719545841217 -0.22480618953704834 -0.3488371968269348
0.2688577175140381 -0.22480618953704834 0.038759708404541016
0.25864100456237793 -0.22480618953704834 0.05426359176635742
0.2664550542831421 -0.20930230617523193 -0.3643410801887512
0.2709962725639343 -0.20930230617523193 0.038759708404541016
0.2597423493862152 -0.20930230617523193 0.05426359176635742
0.257921040058136 -0.19379842281341553 -0.39534881711006165
0.26868095993995667 -0.19379842281341553 -0.3798449635505676
0.26031404733657837 -0.19379842281341553 0.05426359176635742
0.2576918303966522 -0.1782945841550827 -0.41085273027420044
0.2697041928768158 -0.1782945990562439 -0.39534884691238403
0.26055318117141724 -0.1782945990562439 0.05426359176635742
0.2687356173992157 -0.1627907156944275 -0.41085273027420044
0.26065945625305176 -0.1627907156944275 0.05426359176635742
0.26369279623031616 -0.14728683233261108 -0.42635661363601685
0.26162397861480713 -0.14728683233261108 0.05426359176635742
0.2633993923664093 -0.13178294897079468 0.05426359176635742
0.26057589054107666 -0.11627906560897827 -0.4418604373931885
0.26593464612960815 -0.11627906560897827 0.05426359176635742
0.2669035792350769 -0.10077518224716187 -0.4418604373931885
0.26909762620925903 -0.10077518224716187 0.05426359176635742
0.25674211978912354 -0.08527129888534546 0.06976747512817383
0.2615085244178772 -0.06976741552352905 -0.4573643207550049
0.2589018642902374 -0.06976741552352905 0.06976747512817383
0.26764342188835144 -0.05426359176635742 -0.4573643207550049
0.2605072259902954 -0.05426359176635742 0.06976747512817383
0.26159313321113586 -0.038759708404541016 0.06976747512817383
0.2632483243942261 -0.02325582504272461 -0.4728682041168213
0.2619476318359375 -0.02325582504272461 0.06976747512817383
0.26832690834999084 -0.007751941680908203 -0.4728682041168213
0.26128798723220825 -0.007751941680908203 0.06976747512817383
0.2698071300983429 0.007751941680908203 -0.7364341020584106
0.27121472358703613 0.007751941680908203 -0.4728682041168213
0.2594694495201111 0.007751941680908203 0.06976747512817383
0.2572862505912781 0.02325582504272461 0.06976747512817383
0.256087988615036 0.038759708404541016 -0.4883720874786377
0.25795719027519226 0.05426359176635742 -0.4883720874786377
0.26012974977493286 0.06976747512817383 -0.4883720874786377
0.2689913511276245 0.06976747512817383 0.05426359176635742
0.26315128803253174 0.08527135848999023 -0.4883720576763153
0.26559269428253174 0.08527135848999023 0.05426359176635742
0.2663835883140564 0.10077524185180664 -0.4883720874786377
0.2626267373561859 0.10077524185180664 0.05426359176635742
0.26923638582229614 0.11627912521362305 -0.4883720874786377
0.25975504517555237 0.11627912521362305 0.05426359176635742
0.25681930780410767 0.1317828893661499 0.05426359549164772
0.2567770481109619 0.16279065608978271 -0.5038759708404541
0.25637537240982056 0.17829453945159912 -0.5038759708404541
0.2686309814453125 0.20930230617523193 -0.4883720874786377
0.2647836208343506 0.20930230617523193 0.038759708404541016
0.26456767320632935 0.22480618953704834 -0.4883720874786377
0.25865498185157776 0.24031007289886475 -0.4883720874786377
0.2670362591743469 0.27131783962249756 -0.4728682041168213
0.259381502866745 0.27131783962249756 0.02325582504272461
0.26350611448287964 0.28682172298431396 -0.4728682041168213
0.25840747356414795 0.30232560634613037 -0.4728682339191437
0.26620760560035706 0.3333333730697632 -0.4573643207550049
0.26069334149360657 0.3333333730697632 0.007751941680908203
0.26207590103149414 0.3488372564315796 -0.4573643207550049
0.26857537031173706 0.364341139793396 -0.4418604373931885
0.2648240923881531 0.37984490394592285 -0.4418604373931885
0.25716543197631836 0.39534878730773926 -0.4418604373931885
0.26835352182388306 0.39534878730773926 -0.42635661363601685
0.2642529606819153 0.41085267066955566 -0.42635661363601685
0.2560879588127136 0.42635655403137207 -0.42635661363601685
0.2661786675453186 0.42635655403137207 -0.41085273027420044
0.26139888167381287 0.4418604373931885 -0.41085273027420044
0.2687486708164215 0.4418604373931885 -0.39534884691238403
0.2642877697944641 0.4573643207550049 -0.39534884691238403
0.25837886333465576 0.4728682041168213 -0.39534884691238403
0.2658645212650299 0.4728682041168213 -0.3798449635505676
0.2617557644844055 0.4728682041168213 -0.10077518224716187
0.26164793968200684 0.4883720874786377 -0.3798449635505676
0.268307626247406 0.4883720874786377 -0.3643410801887512
0.2675478458404541 0.4883720874786377 -0.11627906560897827
0.26376834511756897 0.5038759708404541 -0.3643410801887512
0.27054041624069214 0.5038759708404541 -0.3488371968269348
0.2702209949493408 0.5038759708404541 -0.13178294897079468
0.2581433653831482 0.5193798542022705 -0.3643410801887512
0.2647489309310913 0.5193798542022705 -0.3488371968269348
0.27117353677749634 0.5193798542022705 -0.3333333134651184
0.27070632576942444 0.5193798542022705 -0.14728683233261108
0.25906649231910706 0.5193798542022705 -0.13178294897079468
0.2600579559803009 0.5348837375640869 -0.3488371968269348
0.265051007270813 0.5348837375640869 -0.3333333134651184
0.27010226249694824 0.5348837375640869 -0.317829430103302
0.269203782081604 0.5348837375640869 -0.1627907156944275
0.2617347836494446 0.5348837375640869 -0.14728683233261108
0.2604612112045288 0.5503876209259033 -0.3333333134651184
0.26417210698127747 0.5503876209259033 -0.317829430103302
0.26768872141838074 0.5503876209259033 -0.30232560634613037
0.2703988552093506 0.5503876209259033 -0.28682172298431396
0.27110037207603455 0.5503876209259033 -0.20930230617523193
0.2694356441497803 0.5503876209259033 -0.19379842281341553
0.26584357023239136 0.5503876209259033 -0.1782945990562439
0.261969655752182 0.5503876209259033 -0.1627907156944275
0.256286084651947 0.5503876209259033 -0.14728683233261108
0.2590274214744568 0.5658915042877197 -0.317829430103302
0.26242896914482117 0.5658915042877197 -0.30232560634613037
0.26406118273735046 0.5658915042877197 -0.28682172298431396
0.2651204764842987 0.5658915042877197 -0.27131783962249756
0.2652041018009186 0.5658915042877197 -0.25581395626068115
0.2650403380393982 0.5658915042877197 -0.24031007289886475
0.2644392251968384 0.5658915042877197 -0.22480618953704834
0.26347440481185913 0.5658915042877197 -0.20930230617523193
0.262142151594162 0.5658915042877197 -0.19379842281341553
0.259685754776001 0.5658915042877197 -0.1782945990562439
0.25655293464660645 0.5658915042877197 -0.1627907156944275
0.2563704252243042 0.5813953876495361 -0.30232560634613037
0.2586287558078766 0.5813953876495361 -0.28682172298431396
0.2596685290336609 0.5813953876495361 -0.27131783962249756
0.25945767760276794 0.5813953876495361 -0.25581395626068115
0.25900816917419434 0.5813953876495361 -0.24031007289886475
0.25831201672554016 0.5813953876495361 -0.22480618953704834
0.25736895203590393 0.5813953876495361 -0.20930230617523193
0.2562030851840973 0.5813953876495361 -0.19379842281341553
0.2727167308330536 -0.3798449635505676 -0.06976741552352905
0.2751012146472931 -0.3798449635505676 -0.05426359176635742
0.27610188722610474 -0.37984499335289 -0.038759708404541016
0.2759970426559448 -0.3798449635505676 -0.02325582504272461
0.27551084756851196 -0.3798449635505676 -0.007751941215246916
0.27487248182296753 -0.3798449635505676 0.007751941680908203
0.2742549777030945 -0.3798449635505676 0.02325582504272461
0.2736198902130127 -0.3798449635505676 0.038759708404541016
0.2727884352207184 -0.3798449635505676 0.05426359176635742
0.2718755900859833 -0.3798449635505676 0.06976747512817383
0.2715020477771759 -0.3643410801887512 -0.11627906560897827
0.2765418291091919 -0.3643410801887512 -0.10077518224716187
0.28033894300460815 -0.3643410801887512 -0.08527129888534546
0.281787633895874 -0.3643410801887512 -0.06976741552352905
0.28191763162612915 -0.3643410801887512 -0.05426359176635742
0.2812652289867401 -0.3643410801887512 -0.038759708404541016
0.27987560629844666 -0.3643410801887512 -0.02325582504272461
0.27799373865127563 -0.3643410801887512 -0.007751941680908203
0.276043176651001 -0.3643410801887512 0.007751941680908203
0.27443140745162964 -0.3643410801887512 0.02325582504272461
0.2731776833534241 -0.3643411099910736 0.038759708404541016
0.27194729447364807 -0.3643410801887512 0.05426359176635742
0.2716783881187439 -0.3488372266292572 -0.14728683233261108
0.2771875858306885 -0.3488371968269348 -0.13178294897079468
0.28106483817100525 -0.3488371968269348 -0.11627906560897827
0.28281545639038086 -0.3488371968269348 -0.10077518224716187
0.28392690420150757 -0.3488371968269348 -0.08527129888534546
0.28415876626968384 -0.3488371968269348 -0.06976741552352905
0.2834728956222534 -0.3488371968269348 -0.05426359176635742
0.28187185525894165 -0.3488371968269348 -0.038759708404541016
0.27948126196861267 -0.3488371968269348 -0.02325582504272461
0.27700287103652954 -0.3488371968269348 -0.007751941680908203
0.2743702530860901 -0.3488371968269348 0.007751941680908203
0.27250877022743225 -0.3488371968269348 0.02325582504272461
0.27197393774986267 -0.3333333134651184 -0.1782945990562439
0.2776389718055725 -0.3333333134651184 -0.1627907156944275
0.28127121925354004 -0.3333333134651184 -0.14728683233261108
0.2833547294139862 -0.3333333134651184 -0.13178294897079468
0.28521043062210083 -0.3333333134651184 -0.11627906560897827
0.28632304072380066 -0.3333333134651184 -0.10077518224716187
0.2863999307155609 -0.3333333134651184 -0.08527129888534546
0.28561726212501526 -0.3333333134651184 -0.06976741552352905
0.28387075662612915 -0.3333333134651184 -0.05426359176635742
0.2815156579017639 -0.3333333134651184 -0.038759708404541016
0.27850520610809326 -0.3333333134651184 -0.02325582504272461
0.2755310535430908 -0.3333333134651184 -0.007751941680908203
0.27256909012794495 -0.3333333134651184 0.007751941680908203
0.272025465965271 -0.317829430103302 -0.20930230617523193
0.27836668491363525 -0.317829430103302 -0.19379842281341553
0.2817856967449188 -0.317829430103302 -0.1782945990562439
0.28431591391563416 -0.317829430103302 -0.1627907156944275
0.2864462435245514 -0.317829430103302 -0.14728683233261108
0.2847532033920288 -0.317829430103302 -0.05426359176635742
0.28168296813964844 -0.317829430103302 -0.038759708404541016
0.2782626152038574 -0.317829430103302 -0.02325582504272461
0.27483928203582764 -0.317829430103302 -0.007751941680908203
0.2716062068939209 -0.317829430103302 0.007751941680908203
0.2781941890716553 -0.30232560634613037 -0.22480618953704834
0.2824585437774658 -0.30232560634613037 -0.20930230617523193
0.2855601906776428 -0.30232560634613037 -0.19379842281341553
0.2827339768409729 -0.30232560634613037 -0.038759708404541016
0.2788392901420593 -0.30232560634613037 -0.02325582504272461
0.27502959966659546 -0.30232560634613037 -0.007751941680908203
0.27539268136024475 -0.28682172298431396 -0.25581395626068115
0.2820057272911072 -0.28682172298431396 -0.24031007289886475
0.2859175205230713 -0.28682172298431396 -0.22480618953704834
0.28570303320884705 -0.28682172298431396 -0.038759708404541016
0.2810128629207611 -0.28682172298431396 -0.02325582504272461
0.2767874300479889 -0.28682172298431396 -0.007751941680908203
0.27238041162490845 -0.28682172298431396 0.00775194214656949
0.27891987562179565 -0.27131783962249756 -0.27131783962249756
0.2848488390445709 -0.27131783962249756 -0.25581395626068115
0.28429853916168213 -0.27131783962249756 -0.02325582504272461
0.27937155961990356 -0.27131783962249756 -0.007751941680908203
0.2749478816986084 -0.27131783962249756 0.007751941680908203
0.2809200584888458 -0.25581395626068115 -0.28682172298431396
0.2827520966529846 -0.25581395626068115 -0.007751941680908203
0.27764469385147095 -0.25581395626068115 0.007751941680908203
0.27207863330841064 -0.25581395626068115 0.02325582504272461
0.2713230848312378 -0.24031007289886475 -0.317829430103302
0.28258514404296875 -0.24031007289886475 -0.30232560634613037
0.2866443693637848 -0.24031007289886475 -0.007751941680908203
0.28017404675483704 -0.24031007289886475 0.007751941680908203
0.274360328912735 -0.24031007289886475 0.02325582504272461
0.2734173536300659 -0.22480618953704834 -0.3333333432674408
0.28350692987442017 -0.22480618953704834 -0.317829430103302
0.28328776359558105 -0.22480618953704834 0.007751941680908203
0.2769181728363037 -0.22480618953704834 0.02325582504272461
0.2765210270881653 -0.20930230617523193 -0.3488371968269348
0.2849183976650238 -0.20930230617523193 -0.3333333134651184
0.2864301800727844 -0.20930230617523193 0.007751941680908203
0.2788603901863098 -0.20930230617523193 0.02325582504272461
0.27937236428260803 -0.19379842281341553 -0.3643410801887512
0.2865777909755707 -0.19379842281341553 -0.3488371968269348
0.28068268299102783 -0.19379842281341553 0.02325582504272461
0.27239713072776794 -0.19379840791225433 0.038759708404541016
0.2808179259300232 -0.1782945990562439 -0.3798449635505676
0.2825623154640198 -0.1782945990562439 0.02325582504272461
0.273459255695343 -0.1782945990562439 0.038759708404541016
0.28134554624557495 -0.1627907156944275 -0.39534884691238403
0.28438183665275574 -0.1627907156944275 0.02325582504272461
0.2742541432380676 -0.1627907156944275 0.038759708404541016
0.27937620878219604 -0.14728683233261108 -0.41085273027420044
0.286637544631958 -0.14728683233261108 0.02325582504272461
0.2755345106124878 -0.14728683233261108 0.038759708404541016
0.2714625597000122 -0.13178294897079468 -0.42635661363601685
0.277209609746933 -0.13178294897079468 0.038759708404541016
0.27981775999069214 -0.11627906560897827 -0.42635661363601685
0.27923834323883057 -0.11627906560897827 0.038759708404541016
0.28623533248901367 -0.10077518224716187 -0.42635661363601685
0.28213974833488464 -0.10077518224716187 0.038759708404541016
0.2744479775428772 -0.08527129888534546 -0.4418604373931885
0.28547537326812744 -0.08527129888534546 0.038759708404541016
0.2719559073448181 -0.08527129888534546 0.05426359176635742
0.2803848385810852 -0.06976741552352905 -0.4418604373931885
0.2742571532726288 -0.06976741552352905 0.05426359176635742
0.2852644622325897 -0.05426359176635742 -0.4418604373931885
0.276197612285614 -0.05426359176635742 0.05426359176635742
0.2853640615940094 -0.038759708404541016 -0.7364341020584106
0.27441859245300293 -0.038759708404541016 -0.4573643207550049
0.27760276198387146 -0.038759708404541016 0.05426359176635742
0.28050073981285095 -0.02325582504272461 -0.7364341020584106
0.2803293466567993 -0.02325582504272461 -0.4573643207550049
0.2783814072608948 -0.02325582504272461 0.05426359176635742
0.27615293860435486 -0.007751941680908203 -0.7364341020584106
0.2844284176826477 -0.007751941680908203 -0.4573643207550049
0.2780449390411377 -0.007751941680908203 0.05426359176635742
0.2768326699733734 0.007751941680908203 0.05426359176635742
0.27345529198646545 0.02325582318007946 -0.7364341020584106
0.27389875054359436 0.02325582504272461 -0.4728682041168213
0.2755984961986542 0.02325582504272461 0.05426358804106712
0.27735698223114014 0.038759708404541016 -0.7364341020584106
0.2749958634376526 0.038759708404541016 -0.4728682041168213
0.27399706840515137 0.038759708404541016 0.05426359176635742
0.2787933051586151 0.05426359176635742 -0.7364341020584106
0.2767881155014038 0.05426359176635742 -0.4728682041168213
0.27210453152656555 0.05426359176635742 0.05426359176635742
0.2801399827003479 0.06976747512817383 -0.7364341020584106
0.2786718010902405 0.06976747512817383 -0.4728682041168213
0.2815171182155609 0.08527135848999023 -0.7364341020584106
0.28093644976615906 0.08527135848999023 -0.4728682041168213
0.2831237018108368 0.10077524185180664 -0.7364341020584106
0.2834455072879791 0.10077524185180664 -0.4728682041168213
0.2860482633113861 0.10077524185180664 0.038759708404541016
0.28485578298568726 0.11627912521362305 -0.7364341020584106
0.2858271598815918 0.11627912521362305 -0.4728682041168213
0.28394967317581177 0.11627912521362305 0.038759708404541016
0.271769255399704 0.1317828893661499 -0.4883721172809601
0.28269729018211365 0.1317828893661499 0.038759708404541016
0.2745662331581116 0.1472867727279663 -0.4883720874786377
0.28193211555480957 0.1472867727279663 0.038759708404541016
0.2760070562362671 0.16279065608978271 -0.4883721172809601
0.2804465591907501 0.16279065608978271 0.038759708404541016
0.2756340503692627 0.17829453945159912 -0.4883720874786377
0.27753162384033203 0.17829453945159912 0.038759708404541016
0.2727363407611847 0.19379842281341553 -0.4883720874786377
0.2731572985649109 0.19379842281341553 0.038759708404541016
0.28511613607406616 0.20930230617523193 -0.4728682041168213
0.28196048736572266 0.22480618953704834 -0.4728682041168213
0.2785881757736206 0.24031007289886475 -0.4728682041168213
0.28443431854248047 0.24031007289886475 0.02325582504272461
0.27258726954460144 0.25581395626068115 -0.4728682041168213
0.2726826071739197 0.25581395626068115 0.02325582318007946
0.2851354479789734 0.27131783962249756 -0.4573643207550049
0.28154686093330383 0.28682172298431396 -0.4573643207550049
0.2783866822719574 0.30232560634613037 -0.4573643207550049
0.2836723029613495 0.30232560634613037 0.007751941680908203
0.27139589190483093 0.31782951951026917 -0.4573643207550049
0.286101371049881 0.3178294897079468 -0.4418604373931885
0.27386268973350525 0.3178294897079468 0.007751941680908203
0.28195804357528687 0.3333333730697632 -0.4418604373931885
0.2777175307273865 0.3488372564315796 -0.4418604373931885
0.2818863093852997 0.364341139793396 -0.42635661363601685
0.27181825041770935 0.364341139793396 -0.007751941680908203
0.2773159146308899 0.37984490394592285 -0.42635658383369446
0.28429916501045227 0.37984490394592285 -0.41085273027420044
0.2795378565788269 0.37984490394592285 -0.02325582504272461
0.2802640199661255 0.39534878730773926 -0.41085273027420044
0.27720946073532104 0.39534878730773926 -0.038759708404541016
0.2728796601295471 0.41085267066955566 -0.41085273027420044
0.28151214122772217 0.41085267066955566 -0.39534884691238403
0.27413228154182434 0.41085267066955566 -0.05426359176635742
0.2764255702495575 0.42635655403137207 -0.39534884691238403
0.2825116515159607 0.42635655403137207 -0.3798449635505676
0.27459660172462463 0.42635655403137207 -0.06976741552352905
0.27823060750961304 0.4418604373931885 -0.3798449635505676
0.2845302224159241 0.4418604373931885 -0.3643410801887512
0.27655142545700073 0.4418604373931885 -0.08527129888534546
0.2719676196575165 0.4573643207550049 -0.3798449635505676
0.27943170070648193 0.4573643207550049 -0.3643410801887512
0.28664326667785645 0.4573643207550049 -0.3488371968269348
0.27925652265548706 0.4573643207550049 -0.10077518224716187
0.2742702066898346 0.4728682041168213 -0.3643410801887512
0.2806139290332794 0.4728682041168213 -0.3488371968269348
0.27978646755218506 0.4728682041168213 -0.11627906560897827
0.27617907524108887 0.4883720576763153 -0.3488371968269348
0.2814270555973053 0.4883720874786377 -0.3333333134651184
0.28624242544174194 0.4883720874786377 -0.14728683233261108
0.2786855101585388 0.4883720874786377 -0.13178294897079468
0.27687621116638184 0.5038759708404541 -0.3333333134651184
0.2809191048145294 0.5038759708404541 -0.317829430103302
0.2853904962539673 0.5038759708404541 -0.30232560634613037
0.2864088714122772 0.5038759708404541 -0.1782945990562439
0.28183937072753906 0.5038759708404541 -0.1627907156944275
0.2772097587585449 0.5038759708404541 -0.14728683233261108
0.2761096656322479 0.5193798542022705 -0.317829430103302
0.2793462872505188 0.5193798542022705 -0.30232560634613037
0.2818180322647095 0.5193798542022705 -0.28682172298431396
0.2836434841156006 0.5193798542022705 -0.27131783962249756
0.2843916714191437 0.5193798542022705 -0.25581395626068115
0.28484493494033813 0.5193798542022705 -0.24031007289886475
0.284560889005661 0.5193798542022705 -0.22480618953704834
0.2835526466369629 0.5193798542022705 -0.20930230617523193
0.2816585600376129 0.5193798542022705 -0.19379842281341553
0.2787010371685028 0.5193798542022705 -0.1782945990562439
0.27528128027915955 0.5193798542022705 -0.1627907156944275
0.2741527557373047 0.5348837375640869 -0.30232560634613037
0.27672046422958374 0.5348837375640869 -0.28682172298431396
0.2778385877609253 0.5348837375640869 -0.27131783962249756
0.27814680337905884 0.5348837375640869 -0.25581395626068115
0.27830806374549866 0.5348837375640869 -0.24031007289886475
0.27794793248176575 0.5348837375640869 -0.22480618953704834
0.2770835757255554 0.5348837375640869 -0.20930230617523193
0.2755543291568756 0.5348837375640869 -0.19379842281341553
0.2729441821575165 0.5348837375640869 -0.1782945990562439
0.2718595266342163 0.5503876209259033 -0.27131783962249756
0.27212220430374146 0.5503876209259033 -0.25581395626068115
0.27223533391952515 0.5503876805305481 -0.24031007289886475
0.2718937397003174 0.5503876209259033 -0.22480618953704834
0.2880821228027344 -0.317829430103302 -0.13178294897079468
0.28934231400489807 -0.317829430103302 -0.11627906560897827
0.28990787267684937 -0.317829430103302 -0.10077518224716187
0.28909730911254883 -0.317829430103302 -0.08527129888534546
0.28752386569976807 -0.317829430103302 -0.06976741552352905
0.2882307171821594 -0.30232560634613037 -0.1782945990562439
0.2911369800567627 -0.30232560634613037 -0.1627907156944275
0.29323503375053406 -0.30232560634613037 -0.14728683233261108
0.29405322670936584 -0.30232560634613037 -0.13178294897079468
0.29415661096572876 -0.30232560634613037 -0.11627906560897827
0.29378199577331543 -0.30232560634613037 -0.10077518224716187
0.29240289330482483 -0.30232560634613037 -0.08527129888534546
0.29008036851882935 -0.30232560634613037 -0.06976741552352905
0.28691625595092773 -0.302325576543808 -0.05426359176635742
0.2904924750328064 -0.28682172298431396 -0.20930230617523193
0.29463061690330505 -0.28682172298431396 -0.19379842281341553
0.29655346274375916 -0.28682172298431396 -0.1782945990562439
0.29746752977371216 -0.28682172298431396 -0.1627907156944275
0.2982066869735718 -0.28682172298431396 -0.14728683233261108
0.29840022325515747 -0.28682172298431396 -0.13178294897079468
0.29813945293426514 -0.28682172298431396 -0.11627906560897827
0.2973920404911041 -0.28682172298431396 -0.10077518224716187
0.29560142755508423 -0.28682172298431396 -0.08527129888534546
0.2932729125022888 -0.28682172298431396 -0.06976741552352905
0.28996706008911133 -0.28682172298431396 -0.05426359549164772
0.29039835929870605 -0.27131783962249756 -0.24031007289886475
0.2957804501056671 -0.27131783962249756 -0.22480618953704834
0.29796072840690613 -0.27131783962249756 -0.20930230617523193
0.29975393414497375 -0.27131783962249756 -0.19379842281341553
0.30110880732536316 -0.27131783962249756 -0.1782945990562439
0.30207565426826477 -0.27131783962249756 -0.1627907156944275
0.30225813388824463 -0.27131783962249756 -0.11627906560897827
0.3011229336261749 -0.27131783962249756 -0.10077518224716187
0.2990238666534424 -0.27131783962249756 -0.08527129888534546
0.2965531349182129 -0.27131783962249756 -0.06976741552352905
0.29320505261421204 -0.27131783962249756 -0.05426359176635742
0.2893560230731964 -0.27131783962249756 -0.038759708404541016
0.2872650623321533 -0.25581395626068115 -0.27131783962249756
0.2951897382736206 -0.25581395626068115 -0.25581395626068115
0.2984836995601654 -0.25581395626068115 -0.24031007289886475
0.3011627793312073 -0.25581395626068115 -0.22480618953704834
0.30076220631599426 -0.25581395626068115 -0.06976741552352905
0.2968127131462097 -0.25581395626068115 -0.05426359176635742
0.2929198145866394 -0.25581395626068115 -0.038759708404541016
0.28847792744636536 -0.25581395626068115 -0.02325582504272461
0.29042500257492065 -0.24031005799770355 -0.28682172298431396
0.29736754298210144 -0.24031007289886475 -0.27131783962249756
0.30116787552833557 -0.24031007289886475 -0.25581395626068115
0.30142560601234436 -0.24031007289886475 -0.05426359176635742
0.2964581549167633 -0.24031007289886475 -0.038759708404541016
0.29195284843444824 -0.24031005799770355 -0.02325582504272461
0.2928403913974762 -0.22480618953704834 -0.30232560634613037
0.2990286648273468 -0.22480618953704834 -0.28682172298431396
0.3009360432624817 -0.22480618953704834 -0.038759708404541016
0.29530417919158936 -0.22480618953704834 -0.02325582504272461
0.2900238633155823 -0.22480618953704834 -0.007751941680908203
0.2945159077644348 -0.20930230617523193 -0.317829430103302
0.3003690242767334 -0.20930230617523193 -0.30232560634613037
0.29895147681236267 -0.20930230617523193 -0.02325582504272461
0.2928069531917572 -0.20930230617523193 -0.00775194214656949
