0.5615478754043579 -0.02325582504272461 -0.42635661363601685
0.5639808773994446 -0.02325582504272461 -0.41085273027420044
0.5628342032432556 -0.02325582504272461 -0.22480618953704834
0.5583593845367432 -0.02325582504272461 -0.20930230617523193
0.5524747371673584 -0.02325582504272461 -0.19379842281341553
0.5530551075935364 -0.007751941215246916 -0.4573642909526825
0.5593426823616028 -0.007751941680908203 -0.4418604373931885
0.5626410841941833 -0.007751941680908203 -0.42635661363601685
0.5656242966651917 -0.007751941680908203 -0.41085273027420044
0.5651840567588806 -0.007751941680908203 -0.22480618953704834
0.5596820116043091 -0.007751941680908203 -0.20930230617523193
0.554226279258728 -0.007751941680908203 -0.19379842281341553
0.5546176433563232 0.007751941680908203 -0.4573643207550049
0.5609565377235413 0.007751941680908203 -0.4418604373931885
0.5636835098266602 0.007751941680908203 -0.42635661363601685
0.5607738494873047 0.007751941680908203 -0.20930230617523193
0.5555167198181152 0.007751941680908203 -0.19379842281341553
0.5552965998649597 0.02325582504272461 -0.4573643207550049
0.5614088177680969 0.02325582504272461 -0.4418604373931885
0.5642175078392029 0.02325582504272461 -0.42635661363601685
0.5613649487495422 0.02325582504272461 -0.20930230617523193
0.5559901595115662 0.02325582504272461 -0.19379842281341553
0.5554096102714539 0.038759708404541016 -0.4573642909526825
0.561509370803833 0.038759708404541016 -0.4418604373931885
0.5644381046295166 0.038759708404541016 -0.42635661363601685
0.5619820952415466 0.038759708404541016 -0.20930230617523193
0.556532621383667 0.038759708404541016 -0.19379842281341553
0.5550858378410339 0.05426359176635742 -0.4573643207550049
0.5613070726394653 0.05426359176635742 -0.4418604373931885
0.5643299221992493 0.05426359176635742 -0.42635661363601685
0.5620156526565552 0.05426359176635742 -0.20930230617523193
0.5564745664596558 0.05426359176635742 -0.19379842281341553
0.5543885231018066 0.06976747512817383 -0.4573643207550049
0.5608112812042236 0.06976747512817383 -0.4418604373931885
0.5638976097106934 0.06976747512817383 -0.42635661363601685
0.5619239211082458 0.06976747512817383 -0.20930230617523193
0.5563890337944031 0.06976747512817383 -0.19379842281341553
0.5535882115364075 0.08527135848999023 -0.4573643207550049
0.5600991249084473 0.08527135848999023 -0.4418604373931885
0.5633096098899841 0.08527135848999023 -0.42635661363601685
0.5615233182907104 0.08527135848999023 -0.20930230617523193
0.5559378266334534 0.08527135848999023 -0.19379842281341553
0.5526456236839294 0.10077524185180664 -0.4573643207550049
0.5590670108795166 0.10077524185180664 -0.4418604373931885
0.5625457167625427 0.10077524185180664 -0.42635661363601685
0.5608636140823364 0.10077524185180664 -0.20930230617523193
0.5549479722976685 0.10077524185180664 -0.19379842281341553
0.5511167645454407 0.11627913266420364 -0.4573643207550049
0.5571978092193604 0.11627912521362305 -0.4418604373931885
0.5615440011024475 0.11627912521362305 -0.42635661363601685
0.5650246143341064 0.11627912521362305 -0.41085273027420044
0.5651785135269165 0.11627912521362305 -0.22480618953704834
0.5600429773330688 0.11627912521362305 -0.20930230617523193
0.5532931089401245 0.11627912521362305 -0.19379842281341553
0.5546319484710693 0.1317828893661499 -0.4418604075908661
0.5601590275764465 0.1317828893661499 -0.42635661363601685
0.5630945563316345 0.1317828893661499 -0.41085273027420044
0.5632662773132324 0.1317828893661499 -0.22480618953704834
0.5588098764419556 0.1317828893661499 -0.20930230617523193
0.5512082576751709 0.1317828893661499 -0.19379842281341553
0.5522416234016418 0.1472867727279663 -0.4418604373931885
0.557600736618042 0.1472867727279663 -0.42635661363601685
0.5611264109611511 0.1472867727279663 -0.41085273027420044
0.564547598361969 0.1472867727279663 -0.39534884691238403
0.5611215829849243 0.1472867727279663 -0.22480618953704834
0.5563725233078003 0.1472867727279663 -0.20930230617523193
0.5541404485702515 0.16279065608978271 -0.42635661363601685
0.5590333938598633 0.16279065608978271 -0.41085273027420044
0.5619540214538574 0.16279065608978271 -0.39534884691238403
0.5651348233222961 0.16279065608978271 -0.3798449635505676
0.5633320808410645 0.16279065608978271 -0.24031007289886475
0.5593679547309875 0.16279065608978271 -0.22480618953704834
0.5527567267417908 0.16279065608978271 -0.20930230617523193
0.5509365200996399 0.17829453945159912 -0.42635661363601685
0.5550693273544312 0.17829453945159912 -0.41085273027420044
0.5593149662017822 0.17829453945159912 -0.39534884691238403
0.562139630317688 0.17829453945159912 -0.3798449635505676
0.5651143193244934 0.17829453945159912 -0.3643410801887512
0.5642241835594177 0.17829453945159912 -0.25581395626068115
0.5605888962745667 0.17829453945159912 -0.24031007289886475
0.5557741522789001 0.17829453945159912 -0.22480618953704834
0.5511360168457031 0.19379842281341553 -0.41085273027420044
0.555030882358551 0.19379842281341553 -0.39534884691238403
0.5588557124137878 0.19379842281341553 -0.3798449635505676
0.5615897178649902 0.19379842281341553 -0.3643410801887512
0.5644075870513916 0.19379842281341553 -0.3488371968269348
0.5637822151184082 0.19379842281341553 -0.27131783962249756
0.5608590245246887 0.19379842281341553 -0.25581395626068115
0.5574105978012085 0.19379842281341553 -0.24031007289886475
0.5513290762901306 0.19379842281341553 -0.22480617463588715
0.5507991313934326 0.20930232107639313 -0.3953488767147064
0.5542058348655701 0.20930232107639313 -0.3798449635505676
0.5579817295074463 0.20930230617523193 -0.3643410801887512
0.5603967308998108 0.20930230617523193 -0.3488371968269348
0.5624744892120361 0.20930230617523193 -0.3333333134651184
0.5635595321655273 0.20930230617523193 -0.317829430103302
0.5634139776229858 0.20930230617523193 -0.30232560634613037
0.5622424483299255 0.20930230617523193 -0.28682172298431396
0.5603028535842896 0.20930230617523193 -0.27131783962249756
0.5574246644973755 0.20930230617523193 -0.25581395626068115
0.5522361993789673 0.20930230617523193 -0.24031007289886475
0.5529157519340515 0.22480618953704834 -0.3643410801887512
0.5561661720275879 0.22480617463588715 -0.3488371968269348
0.5583768486976624 0.22480618953704834 -0.3333333134651184
0.5594173073768616 0.22480618953704834 -0.317829430103302
0.5594608783721924 0.22480618953704834 -0.30232560634613037
0.5585165023803711 0.22480618953704834 -0.28682172298431396
0.5557385683059692 0.22480618953704834 -0.27131783962249756
0.5519534349441528 0.22480620443820953 -0.25581395626068115
0.5513861775398254 0.24031007289886475 -0.3488371968269348
0.5531796216964722 0.24031008780002594 -0.3333333134651184
0.5543539524078369 0.24031007289886475 -0.317829430103302
0.5542683601379395 0.24031007289886475 -0.30232560634613037
0.5529339909553528 0.24031007289886475 -0.28682172298431396
0.5508884191513062 0.24031007289886475 -0.27131783962249756
0.5668702721595764 -0.06976741552352905 -0.333333283662796
0.5677471160888672 -0.06976741552352905 -0.317829430103302
0.5674770474433899 -0.06976741552352905 -0.30232560634613037
0.5662917494773865 -0.06976741552352905 -0.28682172298431396
0.5667766332626343 -0.05426359176635742 -0.3643410801887512
0.569210410118103 -0.05426359176635742 -0.3488371968269348
0.5714552402496338 -0.05426359176635742 -0.3333333134651184
0.5727845430374146 -0.05426359176635742 -0.317829430103302
0.5722842812538147 -0.05426359176635742 -0.30232560634613037
0.5705058574676514 -0.05426359176635742 -0.28682172298431396
0.5679545402526855 -0.05426359549164772 -0.27131783962249756
0.5669525861740112 -0.038759708404541016 -0.3798449635505676
0.5700595378875732 -0.038759708404541016 -0.3643410801887512
0.5737520456314087 -0.038759708404541016 -0.3488371968269348
0.5751872062683105 -0.038759708404541016 -0.3333333134651184
0.5757353901863098 -0.038759708404541016 -0.317829430103302
0.5752978324890137 -0.038759708404541016 -0.30232560634613037
0.574120283126831 -0.038759708404541016 -0.28682172298431396
0.5717592835426331 -0.038759708404541016 -0.27131783962249756
0.5685823559761047 -0.038759708404541016 -0.25581395626068115
0.5666154623031616 -0.02325582504272461 -0.39534884691238403
0.5697424411773682 -0.02325582504272461 -0.3798449635505676
0.5741297006607056 -0.02325582504272461 -0.3643410801887512
0.5761269330978394 -0.02325582504272461 -0.3488371968269348
0.5773599743843079 -0.02325582504272461 -0.3333333134651184
0.5781595706939697 -0.02325582504272461 -0.317829430103302
0.5777908563613892 -0.02325582504272461 -0.30232560634613037
0.5764653086662292 -0.02325582504272461 -0.28682172298431396
0.5744396448135376 -0.02325582504272461 -0.27131783962249756
0.5717683434486389 -0.02325582504272461 -0.25581395626068115
0.567772626876831 -0.02325582504272461 -0.24031007289886475
0.5685285329818726 -0.007751941680908203 -0.3953488767147064
0.573028564453125 -0.007751941680908203 -0.3798449635505676
0.5760245323181152 -0.007751941680908203 -0.3643410801887512
0.577847421169281 -0.007751941680908203 -0.3488371968269348
0.5791029930114746 -0.007751941680908203 -0.3333333134651184
0.5798882842063904 -0.007751941680908203 -0.317829430103302
0.5796957015991211 -0.007751941680908203 -0.30232560634613037
0.5786673426628113 -0.007751941680908203 -0.28682172298431396
0.5763291120529175 -0.007751941680908203 -0.27131783962249756
0.5739482641220093 -0.007751941680908203 -0.25581395626068115
0.5697824954986572 -0.007751941680908203 -0.24031005799770355
0.5667660236358643 0.007751941680908203 -0.41085273027420044
0.5703970193862915 0.007751941680908203 -0.39534884691238403
0.5749927759170532 0.007751941680908203 -0.3798449635505676
0.5770283937454224 0.007751941680908203 -0.3643410801887512
0.5790175199508667 0.007751941680908203 -0.3488371968269348
0.5802956223487854 0.007751941680908203 -0.3333333134651184
0.5804775953292847 0.007751941680908203 -0.28682172298431396
0.5781341791152954 0.007751941680908203 -0.27131783962249756
0.5750328302383423 0.007751941680908203 -0.25581395626068115
0.5714716911315918 0.007751941680908203 -0.24031007289886475
0.5665555000305176 0.007751941680908203 -0.22480620443820953
0.5673902630805969 0.02325582504272461 -0.41085273027420044
0.5715302228927612 0.02325582504272461 -0.39534884691238403
0.5756202936172485 0.02325582504272461 -0.3798449635505676
0.5776519775390625 0.02325582504272461 -0.3643410801887512
0.5795861482620239 0.02325582504272461 -0.3488371968269348
0.5810921788215637 0.02325582504272461 -0.3333333134651184
0.5792347192764282 0.02325582504272461 -0.27131783962249756
0.5756922364234924 0.02325582504272461 -0.25581395626068115
0.5723390579223633 0.02325582504272461 -0.24031007289886475
0.5670855045318604 0.02325582504272461 -0.22480618953704834
0.5677435398101807 0.038759708404541016 -0.41085273027420044
0.572200357913971 0.038759708404541016 -0.39534884691238403
0.5759228467941284 0.038759708404541016 -0.3798449635505676
0.5780460238456726 0.038759708404541016 -0.3643410801887512
0.5799703001976013 0.038759708404541016 -0.3488371968269348
0.5800245404243469 0.038759708404541016 -0.27131783962249756
0.5763319730758667 0.038759708404541016 -0.25581395626068115
0.5730443000793457 0.038759708404541016 -0.24031007289886475
0.5676095485687256 0.038759708404541016 -0.22480618953704834
0.5677781105041504 0.05426359176635742 -0.41085273027420044
0.5723036527633667 0.05426359176635742 -0.39534884691238403
0.5759264826774597 0.05426359176635742 -0.3798449635505676
0.5781136155128479 0.05426359176635742 -0.3643410801887512
0.5800782442092896 0.05426359176635742 -0.3488371968269348
0.5802602767944336 0.05426359176635742 -0.27131783962249756
0.5765519738197327 0.05426359176635742 -0.25581395626068115
0.5732278227806091 0.05426359176635742 -0.24031007289886475
0.5676635503768921 0.05426359176635742 -0.22480617463588715
0.5675042271614075 0.06976747512817383 -0.41085273027420044
0.5719028115272522 0.06976747512817383 -0.39534884691238403
0.5757209658622742 0.06976747512817383 -0.3798449635505676
0.5778852105140686 0.06976747512817383 -0.3643410801887512
0.579899251461029 0.06976747512817383 -0.3488371968269348
0.5801077485084534 0.06976747512817383 -0.27131783962249756
0.5764930844306946 0.06976747512817383 -0.25581395626068115
0.5732109546661377 0.06976747512817383 -0.24031008780002594
0.5675523281097412 0.06976747512817383 -0.22480618953704834
0.5670797228813171 0.08527135848999023 -0.41085273027420044
0.5712453126907349 0.08527135848999023 -0.39534884691238403
0.575340211391449 0.08527135848999023 -0.3798449635505676
0.5774699449539185 0.08527135848999023 -0.3643410801887512
0.5795673131942749 0.08527135848999023 -0.3488371968269348
0.5796598792076111 0.08527135848999023 -0.27131783962249756
0.5761741399765015 0.08527135848999023 -0.25581395626068115
0.5728515386581421 0.08527135848999023 -0.24031007289886475
0.567146897315979 0.08527135103940964 -0.22480617463588715
0.5663591027259827 0.10077523440122604 -0.41085273027420044
0.5701876878738403 0.10077524185180664 -0.39534881711006165
0.5745906829833984 0.10077524185180664 -0.3798449635505676
0.5766956806182861 0.10077524185180664 -0.3643410801887512
0.57890385389328 0.10077524185180664 -0.3488371968269348
0.5806050896644592 0.10077524185180664 -0.3333333134651184
0.5813733339309692 0.10077524185180664 -0.28682172298431396
0.5787868499755859 0.10077524185180664 -0.27131783962249756
0.575626015663147 0.10077524185180664 -0.25581395626068115
0.5719976425170898 0.10077524185180664 -0.24031007289886475
0.5664311051368713 0.10077524930238724 -0.22480618953704834
0.568598747253418 0.11627911776304245 -0.39534881711006165
0.5729448795318604 0.11627912521362305 -0.3798449635505676
0.575611412525177 0.11627912521362305 -0.3643410801887512
0.5777561664581299 0.11627912521362305 -0.3488371968269348
0.5794060826301575 0.11627912521362305 -0.3333333134651184
0.5808219909667969 0.11627912521362305 -0.317829430103302
0.580906093120575 0.11627912521362305 -0.30232560634613037
0.5798023343086243 0.11627912521362305 -0.28682172298431396
0.5773712992668152 0.11627912521362305 -0.27131783962249756
0.5748399496078491 0.11627912521362305 -0.25581395626068115
0.5703149437904358 0.11627912521362305 -0.24031007289886475
0.5667082667350769 0.1317828893661499 -0.39534881711006165
0.5702664852142334 0.1317828893661499 -0.3798449635505676
0.5741317272186279 0.1317828893661499 -0.3643410801887512
0.5759941339492798 0.1317828893661499 -0.3488371968269348
0.5778042078018188 0.1317828893661499 -0.3333333134651184
0.5790409445762634 0.1317828893661499 -0.317829430103302
0.5789895057678223 0.1317828893661499 -0.30232560634613037
0.5778828263282776 0.1317828893661499 -0.28682172298431396
0.5757098197937012 0.1317828893661499 -0.27131783962249756
0.5731549263000488 0.1317828893661499 -0.25581395626068115
0.5681012868881226 0.1317828893661499 -0.24031007289886475
0.5677517652511597 0.1472867727279663 -0.3798449635505676
0.571407675743103 0.1472867727279663 -0.3643410801887512
0.5743907690048218 0.1472867727279663 -0.3488371968269348
0.5757453441619873 0.1472867727279663 -0.3333333134651184
0.5768469572067261 0.1472867727279663 -0.317829430103302
0.5767405033111572 0.1472867727279663 -0.30232560634613037
0.5757766962051392 0.1472867727279663 -0.28682172298431396
0.5741370916366577 0.1472867727279663 -0.27131783962249756
0.5702061653137207 0.1472867727279663 -0.25581395626068115
0.5660375952720642 0.1472867727279663 -0.24031007289886475
0.5681367516517639 0.16279065608978271 -0.3643410801887512
0.5714810490608215 0.16279065608978271 -0.3488371968269348
0.573796272277832 0.16279065608978271 -0.3333333134651184
0.5747740268707275 0.16279065608978271 -0.317829430103302
0.5747126936912537 0.16279065608978271 -0.30232560634613037
0.5737127065658569 0.16279065608978271 -0.28682172298431396
0.570741593837738 0.16279065608978271 -0.27131783962249756
0.567205548286438 0.16279065608978271 -0.25581395626068115
0.5678948760032654 0.17829453945159912 -0.3488371968269348
0.5700278282165527 0.17829453945159912 -0.3333333134651184
0.5713966488838196 0.17829453945159912 -0.317829430103302
0.5711624622344971 0.17829453945159912 -0.30232560634613037
0.5696094632148743 0.17829453945159912 -0.28682172298431396
0.567197322845459 0.17829453945159912 -0.27131783962249756
0.566377580165863 0.19379842281341553 -0.3333333134651184
0.5673213601112366 0.19379842281341553 -0.317829430103302
0.567104697227478 0.19379842281341553 -0.30232560634613037
0.5659909844398499 0.19379842281341553 -0.28682172298431396
0.5814037322998047 0.007751941680908203 -0.3178294003009796
0.5814055800437927 0.007751941680908203 -0.30232560634613037
0.5823692083358765 0.02325582504272461 -0.317829430103302
0.5825068354606628 0.02325582504272461 -0.30232560634613037
0.5817588567733765 0.02325582504272461 -0.28682172298431396
0.5816611647605896 0.038759708404541016 -0.333333283662796
0.583057165145874 0.038759708404541016 -0.317829430103302
0.5833137631416321 0.038759708404541016 -0.30232560634613037
0.5825805068016052 0.038759708404541016 -0.28682172298431396
0.581870436668396 0.05426359176635742 -0.3333333134651184
0.5833680629730225 0.05426359176635742 -0.317829430103302
0.5837011337280273 0.05426359176635742 -0.30232560634613037
0.5828836560249329 0.05426358804106712 -0.2868216931819916
0.5817266702651978 0.06976747512817383 -0.333333283662796
0.5832884907722473 0.06976747512817383 -0.317829430103302
0.5836483240127563 0.06976747512817383 -0.30232560634613037
0.5827402472496033 0.06976747512817383 -0.28682172298431396
0.5814177989959717 0.08527135848999023 -0.3333333134651184
0.5830137729644775 0.08527135848999023 -0.3178294003009796
0.5833185315132141 0.08527135848999023 -0.30232560634613037
0.5823046565055847 0.08527135848999023 -0.28682172298431396
0.5822086334228516 0.10077524930238724 -0.317829430103302
0.582405149936676 0.10077524185180664 -0.30232560634613037
-0.5813953876495361 0.03838447853922844 -0.317829430103302
-0.5813953876495361 0.07315382361412048 -0.317829430103302
-0.5658915042877197 -0.07131409645080566 -0.317829430103302
-0.5658915042877197 -0.05902525782585144 -0.3488371968269348
-0.5658915042877197 -0.06752442568540573 -0.3333333134651184
-0.5658915638923645 -0.069741390645504 -0.30232560634613037
-0.5658915042877197 -0.06132935732603073 -0.28682172298431396
-0.5658915042877197 -0.044593386352062225 -0.3643410801887512
-0.5658915042877197 -0.046786677092313766 -0.27131783962249756
-0.5658915042877197 -0.024683697149157524 -0.3798449635505676
-0.5658915042877197 -0.027117256075143814 -0.25581395626068115
-0.5658915042877197 0.003085755044594407 -0.39534884691238403
-0.5658915042877197 0.014541633427143097 -0.24031005799770355
-0.5658915042877197 0.08757196366786957 -0.24031007289886475
-0.5658915042877197 0.10719914734363556 -0.39534884691238403
-0.5658915042877197 0.12968268990516663 -0.25581395626068115
-0.5658915042877197 0.13541726768016815 -0.3798449635505676
-0.5658915042877197 0.15396928787231445 -0.3643410801887512
-0.5658915042877197 0.1505761444568634 -0.27131783962249756
-0.5658915042877197 0.1673518568277359 -0.3488371968269348
-0.5658915042877197 0.17509521543979645 -0.3333333134651184
-0.5658915042877197 0.1780811846256256 -0.317829430103302
-0.5658915042877197 0.17472656071186066 -0.30232560634613037
-0.5658915042877197 0.16592150926589966 -0.28682172298431396
-0.5503876209259033 -0.11728771030902863 -0.3333333134651184
-0.5503876209259033 -0.11819964647293091 -0.317829430103302
-0.5503876209259033 -0.11687707155942917 -0.30232560634613037
-0.5503876209259033 -0.10526282340288162 -0.3643410801887512
-0.5503876209259033 -0.11289218813180923 -0.3488372266292572
-0.5503876209259033 -0.11206930875778198 -0.28682172298431396
-0.5503876209259033 -0.10441713780164719 -0.27131783962249756
-0.5503876209259033 -0.09498625248670578 -0.3798449635505676
-0.5503876209259033 -0.094190813601017 -0.25581395626068115
-0.5503876209259033 -0.08236420899629593 -0.39534884691238403
-0.5503876209259033 -0.08168923854827881 -0.24031007289886475
-0.5503876209259033 -0.0638824999332428 -0.41085273027420044
-0.5503876209259033 -0.06478044390678406 -0.22480618953704834
-0.5503876209259033 -0.04318486154079437 -0.42635661363601685
-0.5503876209259033 -0.04295085370540619 -0.20930230617523193
-0.5503876209259033 -0.011150868609547615 -0.4418604373931885
-0.5503876209259033 0.0053850747644901276 -0.19379842281341553
-0.5503876209259033 0.07093782722949982 -0.19379842281341553
-0.5503876209259033 0.10781359672546387 -0.4418604373931885
-0.5503876209259033 0.14716792106628418 -0.42635661363601685
-0.5503876209259033 0.13675683736801147 -0.20930230617523193
-0.5503876209259033 0.17276674509048462 -0.41085273027420044
-0.5503876209259033 0.16645364463329315 -0.22480618953704834
-0.5503876209259033 0.1933930218219757 -0.39534884691238403
-0.5503876209259033 0.1886395514011383 -0.24031007289886475
-0.5503876209259033 0.20736031234264374 -0.3798449635505676
-0.5503876209259033 0.20546376705169678 -0.25581395626068115
-0.5503876209259033 0.2187756896018982 -0.3643410801887512
-0.5503876209259033 0.21845504641532898 -0.27131783962249756
-0.5503876209259033 0.22824835777282715 -0.3488371968269348
-0.5503876209259033 0.2342715710401535 -0.3333333134651184
-0.5503876209259033 0.23676586151123047 -0.317829430103302
-0.5503876209259033 0.2346341907978058 -0.30232560634613037
-0.5503876209259033 0.22809690237045288 -0.28682172298431396
-0.5348837375640869 -0.14863207936286926 -0.3488371968269348
-0.5348837375640869 -0.15049868822097778 -0.3333333134651184
-0.5348837375640869 -0.15052750706672668 -0.317829430103302
-0.5348837375640869 -0.14908894896507263 -0.30232560634613037
-0.5348837375640869 -0.13191944360733032 -0.39534884691238403
-0.5348837375640869 -0.13813328742980957 -0.3798449635505676
-0.5348837375640869 -0.14406640827655792 -0.3643410801887512
-0.5348837375640869 -0.14550060033798218 -0.28682172298431396
-0.5348837375640869 -0.13945060968399048 -0.27131783962249756
-0.5348837375640869 -0.13368353247642517 -0.25581395626068115
-0.5348837375640869 -0.12135913968086243 -0.41085273027420044
-0.5348837375640869 -0.1242702305316925 -0.24031007289886475
-0.5348837375640869 -0.10846228152513504 -0.42635661363601685
-0.5348837375640869 -0.11515014618635178 -0.22480618953704834
-0.5348837375640869 -0.10245475172996521 -0.20930230617523193
-0.5348837375640869 -0.09103133529424667 -0.4418604373931885
-0.5348837375640869 -0.0872504860162735 -0.19379842281341553
-0.5348837375640869 -0.06955479085445404 -0.4573643207550049
-0.5348837375640869 -0.06462772190570831 -0.1782945990562439
-0.5348837375640869 -0.04194071516394615 -0.4728682041168213
-0.5348837375640869 -0.02335274964570999 -0.1627907156944275
-0.5348837375640869 0.10333055257797241 -0.1627907156944275
-0.5348837375640869 0.13561014831066132 -0.4728682041168213
-0.5348837375640869 0.15756118297576904 -0.1782945990562439
-0.5348837375640869 0.1753760129213333 -0.4573643207550049
-0.5348837375640869 0.18833696842193604 -0.19379842281341553
-0.5348837375640869 0.20172256231307983 -0.4418604373931885
-0.5348837375640869 0.22218213975429535 -0.42635661363601685
-0.5348837375640869 0.21150603890419006 -0.20930229127407074
-0.5348837375640869 0.23763248324394226 -0.41085273027420044
-0.5348837375640869 0.2322271168231964 -0.22480618953704834
-0.5348837375640869 0.250761479139328 -0.39534884691238403
-0.5348837375640869 0.25024062395095825 -0.24031007289886475
-0.5348837375640869 0.2614877223968506 -0.3798449635505676
-0.5348837375640869 0.26380273699760437 -0.25581395626068115
-0.5348837971687317 0.271578311920166 -0.3643410801887512
-0.5348837375640869 0.27891045808792114 -0.3488371968269348
-0.5348837375640869 0.28448486328125 -0.3333333134651184
-0.5348837375640869 0.2867249846458435 -0.317829430103302
-0.5348837375640869 0.28603482246398926 -0.30232560634613037
-0.5348837375640869 0.2818753123283386 -0.28682172298431396
-0.5348837375640869 0.2744286060333252 -0.27131783962249756
-0.5193798542022705 -0.18082332611083984 -0.3488371968269348
-0.5193798542022705 -0.18187855184078217 -0.3333333134651184
-0.5193798542022705 -0.1815202832221985 -0.317829430103302
-0.5193798542022705 -0.18003582954406738 -0.30232560634613037
-0.5193798542022705 -0.1688210666179657 -0.39534884691238403
-0.5193798542022705 -0.17398037016391754 -0.3798449635505676
-0.5193797945976257 -0.17782120406627655 -0.36434105038642883
-0.5193798542022705 -0.17692823708057404 -0.28682172298431396
-0.5193798542022705 -0.17193660140037537 -0.27131783962249756
-0.5193798542022705 -0.16648773849010468 -0.25581395626068115
-0.5193798542022705 -0.1529891937971115 -0.42635661363601685
-0.5193798542022705 -0.16220541298389435 -0.41085273027420044
-0.5193798542022705 -0.15940244495868683 -0.24031007289886475
-0.5193798542022705 -0.1498158872127533 -0.22480618953704834
-0.5193798542022705 -0.14094826579093933 -0.4418604373931885
-0.5193798542022705 -0.1385411024093628 -0.20930230617523193
-0.5193798542022705 -0.1274050921201706 -0.4573643207550049
-0.5193798542022705 -0.12810736894607544 -0.19379842281341553
-0.5193798542022705 -0.10835668444633484 -0.4728682041168213
-0.5193798542022705 -0.11403483152389526 -0.1782945990562439
-0.5193798542022705 -0.09375764429569244 -0.1627907156944275
-0.5193798542022705 -0.08282449096441269 -0.4883720874786377
-0.5193798542022705 -0.06326935440301895 -0.14728683233261108
-0.5193798542022705 -0.05196529999375343 -0.5038759708404541
-0.5193798542022705 0.14578618109226227 -0.5038759708404541
-0.5193798542022705 0.15619561076164246 -0.14728683233261108
-0.5193798542022705 0.19015958905220032 -0.4883720874786377
-0.5193798542022705 0.19315558671951294 -0.1627907156944275
-0.5193798542022705 0.21839594841003418 -0.4728682041168213
-0.5193798542022705 0.22158454358577728 -0.1782945990562439
-0.5193798542022705 0.2416040301322937 -0.4573643207550049
-0.5193798542022705 0.24807345867156982 -0.19379842281341553
-0.5193798542022705 0.25897055864334106 -0.4418604373931885
-0.5193798542022705 0.2713119089603424 -0.20930230617523193
-0.5193798542022705 0.2734270393848419 -0.42635661363601685
-0.5193798542022705 0.28540048003196716 -0.41085273027420044
-0.5193798542022705 0.29563719034194946 -0.39534884691238403
-0.5193798542022705 0.30219972133636475 -0.24031007289886475
-0.5193798542022705 0.288975328207016 -0.22480618953704834
-0.5193798542022705 0.30505281686782837 -0.3798449635505676
-0.5193798542022705 0.312602698802948 -0.3643410801887512
-0.5193798542022705 0.31076377630233765 -0.25581395626068115
-0.5193798542022705 0.3189833164215088 -0.3488371968269348
-0.5193798542022705 0.3227955102920532 -0.3333333134651184
-0.5193798542022705 0.32488611340522766 -0.317829430103302
-0.5193798542022705 0.32468247413635254 -0.30232560634613037
-0.5193798542022705 0.32213008403778076 -0.28682172298431396
-0.5193798542022705 0.31820279359817505 -0.27131783962249756
-0.5038759708404541 -0.20981067419052124 -0.3488371968269348
-0.5038759708404541 -0.21066251397132874 -0.3333333134651184
-0.5038759708404541 -0.20992612838745117 -0.317829430103302
-0.5038759708404541 -0.1960606575012207 -0.41085273027420044
-0.5038759708404541 -0.20118415355682373 -0.39534884691238403
-0.5038759708404541 -0.20496325194835663 -0.3798449635505676
-0.5038759708404541 -0.20767150819301605 -0.3643411099910736
-0.5038759708404541 -0.20824764668941498 -0.302325576543808
-0.5038759708404541 -0.20517891645431519 -0.28682172298431396
-0.5038759708404541 -0.2007017731666565 -0.27131783962249756
-0.5038759708404541 -0.19584472477436066 -0.25581395626068115
-0.5038759708404541 -0.1801522672176361 -0.4418604373931885
-0.5038759708404541 -0.18815165758132935 -0.42635661363601685
-0.5038759708404541 -0.18888536095619202 -0.24031007289886475
-0.5038759708404541 -0.1811107099056244 -0.22480618953704834
-0.5038759708404541 -0.16878952085971832 -0.4573643207550049
-0.5038759708404541 -0.1705663502216339 -0.20930230617523193
-0.5038759708404541 -0.15415433049201965 -0.4728682041168213
-0.5038759708404541 -0.16028156876564026 -0.19379842281341553
-0.5038759708404541 -0.13795021176338196 -0.4883720874786377
-0.5038759708404541 -0.14663925766944885 -0.1782945990562439
-0.5038759708404541 -0.13057811558246613 -0.1627907156944275
-0.5038759708404541 -0.11582215130329132 -0.5038759708404541
-0.5038759708404541 -0.10928414762020111 -0.14728683233261108
-0.5038759708404541 -0.0843280628323555 -0.5193798542022705
-0.5038759708404541 -0.07708339393138885 -0.13178294897079468
-0.5038759708404541 -0.04369343817234039 -0.5348837375640869
-0.5038759708404541 0.12150241434574127 -0.5348837375640869
-0.5038759708404541 0.17427116632461548 -0.13178294897079468
-0.5038759708404541 0.18556831777095795 -0.5193798542022705
-0.5038759708404541 0.22079549729824066 -0.5038759708404541
-0.5038759708404541 0.21276865899562836 -0.14728683233261108
-0.5038759708404541 0.2471647709608078 -0.4883720874786377
-0.5038759708404541 0.24520564079284668 -0.1627907156944275
-0.5038759708404541 0.26677489280700684 -0.4728682041168213
-0.5038759708404541 0.284404993057251 -0.4573643207550049
-0.5038759708404541 0.2746524512767792 -0.1782945990562439
-0.5038759708404541 0.29817426204681396 -0.4418604373931885
-0.5038759708404541 0.2988159656524658 -0.19379842281341553
-0.5038759708404541 0.3102201819419861 -0.42635661363601685
-0.5038759708404541 0.3159812390804291 -0.20930230617523193
-0.5038759708404541 0.32146114110946655 -0.41085273027420044
-0.5038759708404541 0.33096587657928467 -0.39534884691238403
-0.5038759708404541 0.329132080078125 -0.22480618953704834
-0.5038759708404541 0.3387991189956665 -0.3798449635505676
-0.5038759708404541 0.3459407687187195 -0.3643410801887512
-0.5038759708404541 0.3463895916938782 -0.25581395626068115
-0.5038759708404541 0.33856043219566345 -0.24031007289886475
-0.5038759708404541 0.35135769844055176 -0.3488371968269348
-0.5038759708404541 0.35489314794540405 -0.3333333134651184
-0.5038759708404541 0.35693514347076416 -0.317829430103302
-0.5038759708404541 0.35699015855789185 -0.30232560634613037
-0.5038759708404541 0.35495415329933167 -0.28682172298431396
-0.5038759708404541 0.3518369793891907 -0.27131783962249756
-0.4883720874786377 -0.22602316737174988 -0.41085273027420044
-0.4883720874786377 -0.23116791248321533 -0.39534884691238403
-0.4883720874786377 -0.23368161916732788 -0.3798449635505676
-0.4883720874786377 -0.23538221418857574 -0.3643410801887512
-0.4883720874786377 -0.2370937019586563 -0.3488371670246124
-0.4883721172809601 -0.23734845221042633 -0.3333333134651184
-0.4883720576763153 -0.23636296391487122 -0.317829430103302
-0.4883720874786377 -0.23440420627593994 -0.30232560634613037
-0.4883720874786377 -0.23174849152565002 -0.28682172298431396
-0.4883720874786377 -0.22828100621700287 -0.27131783962249756
-0.4883720874786377 -0.21250298619270325 -0.4418604373931885
-0.4883720874786377 -0.21950089931488037 -0.42635661363601685
-0.4883720874786377 -0.2228875607252121 -0.25581395626068115
-0.4883720874786377 -0.21593278646469116 -0.24031007289886475
-0.4883720874786377 -0.20229831337928772 -0.4573643207550049
-0.4883720874786377 -0.20898470282554626 -0.22480618953704834
-0.4883720874786377 -0.198808491230011 -0.20930230617523193
-0.4883721172809601 -0.1902180314064026 -0.4728682041168213
-0.4883720874786377 -0.1880180388689041 -0.19379842281341553
-0.4883720874786377 -0.1766076385974884 -0.4883720874786377
-0.4883720874786377 -0.17560479044914246 -0.1782945990562439
-0.4883720874786377 -0.15931405127048492 -0.5038759708404541
-0.4883720874786377 -0.16010841727256775 -0.1627907156944275
-0.4883720874786377 -0.13912168145179749 -0.5193798542022705
-0.4883720874786377 -0.1407267451286316 -0.14728683233261108
-0.4883720874786377 -0.11663985997438431 -0.13178294897079468
-0.4883720874786377 -0.11011619865894318 -0.5348837375640869
-0.4883720874786377 -0.080130435526371 -0.11627906560897827
-0.4883720874786377 -0.06761957705020905 -0.5503876209259033
-0.4883720874786377 0.15580329298973083 -0.5503876209259033
-0.4883720874786377 0.17949530482292175 -0.11627906560897827
-0.4883720874786377 0.20662850141525269 -0.5348837375640869
-0.4883720874786377 0.22142590582370758 -0.13178294897079468
-0.4883720874786377 0.23910988867282867 -0.5193798542022705
-0.4883720874786377 0.2654607892036438 -0.5038759708404541
-0.4883720874786377 0.25988900661468506 -0.14728683233261108
-0.4883720874786377 0.2858792841434479 -0.4883720874786377
-0.4883720874786377 0.29279443621635437 -0.1627907156944275
-0.4883720874786377 0.3038386404514313 -0.4728682041168213
-0.4883720874786377 0.3166864216327667 -0.1782945990562439
-0.4883720874786377 0.3195168077945709 -0.4573643207550049
-0.4883720874786377 0.3316953182220459 -0.4418604373931885
-0.4883720874786377 0.3428581655025482 -0.42635661363601685
-0.4883720874786377 0.3355717360973358 -0.19379840791225433
-0.4883720874786377 0.35328376293182373 -0.41085273027420044
-0.4883720874786377 0.36211448907852173 -0.39534884691238403
-0.4883720874786377 0.36199936270713806 -0.22480618953704834
-0.4883721172809601 0.3502550721168518 -0.20930230617523193
-0.4883721172809601 0.36963751912117004 -0.3798449635505676
-0.4883720874786377 0.3759627342224121 -0.3643410801887512
-0.4883720874786377 0.3769646883010864 -0.25581395626068115
-0.4883720874786377 0.3701987862586975 -0.24031007289886475
-0.4883720874786377 0.3805668354034424 -0.3488371968269348
-0.4883720874786377 0.38408157229423523 -0.3333333134651184
-0.4883720874786377 0.3858547508716583 -0.317829430103302
-0.4883721172809601 0.3859618902206421 -0.30232560634613037
-0.4883720874786377 0.38442015647888184 -0.28682172298431396
-0.4883720874786377 0.38155749440193176 -0.27131783962249756
-0.4728682041168213 -0.2577497065067291 -0.39534884691238403
-0.4728682041168213 -0.2610267102718353 -0.3798449635505676
-0.4728682041168213 -0.2623772919178009 -0.3643410801887512
-0.4728682041168213 -0.26325488090515137 -0.3488371968269348
-0.4728682041168213 -0.263019859790802 -0.3333333134651184
-0.4728682041168213 -0.26200586557388306 -0.317829430103302
-0.4728682041168213 -0.26016825437545776 -0.30232560634613037
-0.4728682041168213 -0.2572380304336548 -0.28682172298431396
-0.4728682041168213 -0.24058569967746735 -0.4418604373931885
-0.4728682041168213 -0.2483089119195938 -0.42635661363601685
-0.4728682041168213 -0.253115177154541 -0.41085273027420044
-0.4728682041168213 -0.25263452529907227 -0.27131783962249756
-0.4728682041168213 -0.24694374203681946 -0.25581395626068115
-0.4728682041168213 -0.24124515056610107 -0.24031007289886475
-0.4728682041168213 -0.23284631967544556 -0.4573643207550049
-0.4728682041168213 -0.23325638473033905 -0.22480618953704834
-0.4728682041168213 -0.22579477727413177 -0.20930230617523193
-0.4728682041168213 -0.21046525239944458 -0.4883720874786377
-0.4728682041168213 -0.22193045914173126 -0.4728682041168213
-0.4728682041168213 -0.21448934078216553 -0.19379842281341553
-0.4728682041168213 -0.19671039283275604 -0.5038759708404541
-0.4728682041168213 -0.20134443044662476 -0.1782945990562439
-0.4728682041168213 -0.1798246055841446 -0.5193798542022705
-0.4728682339191437 -0.1867409199476242 -0.1627907156944275
-0.4728682041168213 -0.16907496750354767 -0.14728683233261108
-0.4728682339191437 -0.15786615014076233 -0.5348837375640869
-0.4728682041168213 -0.14667445421218872 -0.13178294897079468
-0.4728682041168213 -0.12723442912101746 -0.5503876209259033
-0.4728682041168213 -0.1180807426571846 -0.11627906560897827
-0.4728682041168213 -0.08081669360399246 -0.5658915042877197
-0.4728682041168213 -0.07941395789384842 -0.10077518224716187
-0.4728682041168213 -0.017148049548268318 -0.5813953876495361
-0.4728682041168213 0.047581128776073456 -0.5813953876495361
-0.4728682041168213 0.17286530137062073 -0.5658915042877197
-0.4728681743144989 0.18247583508491516 -0.10077517479658127
-0.4728682041168213 0.22059869766235352 -0.5503876209259033
-0.4728682339191437 0.22716601192951202 -0.11627906560897827
-0.4728682041168213 0.25215086340904236 -0.5348837375640869
-0.4728682041168213 0.27009108662605286 -0.13178294897079468
-0.4728682041168213 0.2797333002090454 -0.5193798542022705
-0.4728682041168213 0.3004239797592163 -0.5038759708404541
-0.4728682041168213 0.30589404702186584 -0.14728683233261108
-0.4728682041168213 0.3209969997406006 -0.4883720874786377
-0.4728682041168213 0.3315407335758209 -0.1627907156944275
-0.4728682041168213 0.3373037874698639 -0.4728682041168213
-0.4728682041168213 0.35118329524993896 -0.4573643207550049
-0.4728682041168213 0.36249738931655884 -0.4418604373931885
-0.4728682041168213 0.3514891266822815 -0.1782945990562439
-0.4728682041168213 0.37321537733078003 -0.42635661363601685
-0.4728682041168213 0.36760780215263367 -0.19379842281341553
-0.4728682041168213 0.38287243247032166 -0.41085273027420044
-0.4728682041168213 0.39098361134529114 -0.39534884691238403
-0.4728682041168213 0.39073967933654785 -0.22480618953704834
-0.4728682041168213 0.38036099076271057 -0.20930232107639313
-0.4728682041168213 0.3979817032814026 -0.3798449635505676
-0.4728682041168213 0.4035356640815735 -0.3643410801887512
-0.4728682041168213 0.4080938994884491 -0.3488371968269348
-0.4728682041168213 0.41051822900772095 -0.3333333134651184
-0.4728682041168213 0.4107936918735504 -0.28682172298431396
-0.4728682041168213 0.40862205624580383 -0.27131783962249756
-0.4728682041168213 0.40400367975234985 -0.25581395626068115
-0.4728682041168213 0.39822104573249817 -0.24031007289886475
-0.4728682041168213 0.4121890962123871 -0.317829430103302
-0.4728682041168213 0.4123087525367737 -0.30232560634613037
-0.4573643207550049 -0.2767776846885681 -0.41085273027420044
-0.4573643207550049 -0.28042542934417725 -0.39534884691238403
-0.4573643207550049 -0.2829144299030304 -0.3798449635505676
-0.4573643207550049 -0.2844628393650055 -0.3643410801887512
-0.4573643207550049 -0.28573811054229736 -0.3488371968269348
-0.4573643207550049 -0.28546372056007385 -0.3333333134651184
-0.4573643207550049 -0.2839934229850769 -0.317829430103302
-0.4573643207550049 -0.2812912166118622 -0.30232560634613037
-0.4573643207550049 -0.2781738042831421 -0.28682172298431396
-0.4573643207550049 -0.27429670095443726 -0.27131783962249756
-0.4573643207550049 -0.2568000853061676 -0.4573643207550049
-0.4573643207550049 -0.2648097276687622 -0.4418604373931885
-0.4573643207550049 -0.2707477807998657 -0.42635661363601685
-0.4573643207550049 -0.26865336298942566 -0.25581395626068115
-0.4573643207550049 -0.26193323731422424 -0.24031007289886475
-0.4573643207550049 -0.2478603720664978 -0.4728682041168213
-0.4573643207550049 -0.25505658984184265 -0.22480618953704834
-0.4573643207550049 -0.2460969090461731 -0.20930230617523193
-0.4573643207550049 -0.23697103559970856 -0.4883720874786377
-0.4573642909526825 -0.23611843585968018 -0.19379842281341553
-0.4573643207550049 -0.21056988835334778 -0.5193798542022705
-0.4573643207550049 -0.22441399097442627 -0.5038759708404541
-0.4573643207550049 -0.22399967908859253 -0.1782945990562439
-0.4573643207550049 -0.20942510664463043 -0.1627907156944275
-0.45736435055732727 -0.1931047886610031 -0.5348837375640869
-0.4573643207550049 -0.19285807013511658 -0.14728683233261108
-0.4573643207550049 -0.16999675333499908 -0.5503876209259033
-0.4573643207550049 -0.17275658249855042 -0.13178294897079468
-0.4573643207550049 -0.13341374695301056 -0.5658915042877197
-0.4573643207550049 -0.14660058915615082 -0.11627906560897827
-0.4573643207550049 -0.11665087938308716 -0.10077518224716187
-0.4573643207550049 -0.07801801711320877 -0.5813953876495361
-0.4573643207550049 -0.0732765793800354 -0.08527129888534546
-0.4573643207550049 -0.02862449362874031 -0.5968992114067078
-0.4573643207550049 0.0690828412771225 -0.5968992114067078
-0.4573643207550049 0.17761412262916565 -0.5813953876495361
-0.4573643207550049 0.18107017874717712 -0.08527129888534546
-0.4573643207550049 0.22341763973236084 -0.5658915042877197
-0.4573643207550049 0.22908934950828552 -0.10077518224716187
-0.4573643207550049 0.2583916187286377 -0.5503876209259033
-0.4573643207550049 0.28507861495018005 -0.5348837375640869
-0.4573642909526825 0.2760189473628998 -0.11627906560897827
-0.4573643207550049 0.31171998381614685 -0.5193798542022705
-0.4573643207550049 0.3135925233364105 -0.13178294897079468
-0.4573643207550049 0.3316468298435211 -0.5038759708404541
-0.4573643207550049 0.342040091753006 -0.14728683233261108
-0.4573643207550049 0.3515421152114868 -0.4883720874786377
-0.4573643207550049 0.3634909987449646 -0.1627907156944275
-0.4573643207550049 0.3664523661136627 -0.4728682041168213
-0.4573643207550049 0.37902888655662537 -0.4573643207550049
-0.4573643207550049 0.3903747498989105 -0.4418604373931885
-0.4573643207550049 0.3947824537754059 -0.19379842281341553
-0.4573643207550049 0.3806675970554352 -0.1782945990562439
-0.4573643207550049 0.4008101522922516 -0.42635661363601685
-0.4573643207550049 0.4090293049812317 -0.41085273027420044
-0.4573643207550049 0.40667250752449036 -0.20930230617523193
-0.4573643207550049 0.41714659333229065 -0.39534884691238403
-0.4573643207550049 0.42343294620513916 -0.3798449635505676
-0.4573643207550049 0.42307689785957336 -0.24031007289886475
-0.4573643207550049 0.41524243354797363 -0.22480618953704834
-0.4573643207550049 0.4285113215446472 -0.3643410801887512
-0.4573643207550049 0.43260782957077026 -0.3488371968269348
-0.4573643207550049 0.4349902272224426 -0.3333333134651184
-0.4573643207550049 0.4363904595375061 -0.317829430103302
-0.4573643207550049 0.43638551235198975 -0.30232560634613037
-0.4573643207550049 0.43493056297302246 -0.28682172298431396
-0.4573643207550049 0.4323318600654602 -0.27131783962249756
-0.4573643207550049 0.4282722771167755 -0.25581395626068115
-0.4418604373931885 -0.3025403320789337 -0.3798449635505676
-0.4418604373931885 -0.30480167269706726 -0.3643410801887512
-0.4418604373931885 -0.3062545657157898 -0.3488371968269348
-0.4418604373931885 -0.3058983087539673 -0.3333333134651184
-0.4418604373931885 -0.30437788367271423 -0.317829430103302
-0.4418604373931885 -0.29113471508026123 -0.42635661363601685
-0.4418604373931885 -0.2961167097091675 -0.41085273027420044
-0.44186046719551086 -0.2996092140674591 -0.39534884691238403
-0.4418604373931885 -0.30157986283302307 -0.30232560634613037
-0.4418604373931885 -0.297687292098999 -0.28682172298431396
-0.4418604373931885 -0.29318952560424805 -0.27131783962249756
-0.4418604373931885 -0.2882124185562134 -0.25581395626068115
-0.4418604373931885 -0.27774205803871155 -0.4573643207550049
-0.4418604373931885 -0.28438958525657654 -0.4418604373931885
-0.4418604373931885 -0.2809525728225708 -0.24031007289886475
-0.4418604373931885 -0.27363094687461853 -0.22480618953704834
-0.4418604373931885 -0.2596524655818939 -0.4883720874786377
-0.4418604373931885 -0.26857906579971313 -0.4728682041168213
-0.4418604373931885 -0.264721155166626 -0.20930230617523193
-0.4418604373931885 -0.2487863302230835 -0.5038759708404541
-0.4418604373931885 -0.25502726435661316 -0.19379842281341553
-0.4418604373931885 -0.24281390011310577 -0.1782945990562439
-0.4418604373931885 -0.23665228486061096 -0.5193798542022705
-0.4418604373931885 -0.22976990044116974 -0.1627907156944275
-0.4418604373931885 -0.2221064418554306 -0.5348837375640869
-0.4418604373931885 -0.21408498287200928 -0.14728683233261108
-0.4418604373931885 -0.20445191860198975 -0.5503876209259033
-0.4418604373931885 -0.19530126452445984 -0.13178294897079468
-0.4418604373931885 -0.17900454998016357 -0.5658915042877197
-0.4418604373931885 -0.17309248447418213 -0.11627906560897827
-0.4418604373931885 -0.13448333740234375 -0.5813953876495361
-0.4418604075908661 -0.14632722735404968 -0.10077518224716187
-0.4418604373931885 -0.11298197507858276 -0.08527129888534546
-0.4418604075908661 -0.067713163793087 -0.5968992114067078
-0.4418604373931885 -0.06305400282144547 -0.06976741552352905
-0.4418604373931885 -0.022846253588795662 -0.6124030947685242
-0.4418604373931885 0.06153639405965805 -0.6124030947685242
-0.4418604373931885 0.17525507509708405 -0.06976741552352905
-0.4418604373931885 0.1806873381137848 -0.5968992114067078
-0.4418604373931885 0.22323651611804962 -0.5813953876495361
-0.4418604373931885 0.22649332880973816 -0.08527129888534546
-0.4418604373931885 0.2590290307998657 -0.5658915042877197
-0.4418604373931885 0.2756608724594116 -0.10077518224716187
-0.4418604373931885 0.28866881132125854 -0.5503876209259033
-0.4418604373931885 0.3148763179779053 -0.5348837375640869
-0.4418604373931885 0.31643298268318176 -0.11627906560897827
-0.4418604373931885 0.34130147099494934 -0.5193798542022705
-0.4418604373931885 0.34755733609199524 -0.13178294897079468
-0.4418604373931885 0.36162951588630676 -0.5038759708404541
-0.4418604373931885 0.3793047070503235 -0.4883720874786377
-0.4418604373931885 0.3720344603061676 -0.14728683233261108
-0.4418604373931885 0.39357447624206543 -0.4728682041168213
-0.4418604373931885 0.3908821940422058 -0.1627907156944275
-0.4418604373931885 0.4060044586658478 -0.4573643207550049
-0.4418604373931885 0.4062560200691223 -0.1782945990562439
-0.4418604373931885 0.4168466329574585 -0.4418604373931885
-0.4418604373931885 0.4254262447357178 -0.42635661363601685
-0.4418604373931885 0.4188002049922943 -0.19379842281341553
-0.4418604373931885 0.4339078366756439 -0.41085273027420044
-0.4418604373931885 0.4403626620769501 -0.39534884691238403
-0.4418604373931885 0.4380606412887573 -0.22480618953704834
-0.4418604075908661 0.42898571491241455 -0.20930230617523193
-0.4418604373931885 0.4468851089477539 -0.3798449635505676
-0.4418604373931885 0.4512820541858673 -0.3643410801887512
-0.4418604373931885 0.454941987991333 -0.3488371968269348
-0.4418604373931885 0.4571310877799988 -0.3333333134651184
-0.4418604373931885 0.4570781886577606 -0.28682172298431396
-0.4418604373931885 0.45458972454071045 -0.27131783962249756
-0.4418604373931885 0.45023438334465027 -0.25581395626068115
-0.4418604373931885 0.44489169120788574 -0.24031007289886475
-0.4418604373931885 0.45865437388420105 -0.317829430103302
-0.4418604075908661 0.4585645794868469 -0.30232560634613037
-0.42635661363601685 -0.321663498878479 -0.3798449635505676
-0.42635661363601685 -0.3239181637763977 -0.3643410801887512
-0.42635661363601685 -0.3251531720161438 -0.3488371968269348
-0.42635661363601685 -0.3246793746948242 -0.3333333134651184
-0.42635661363601685 -0.32315298914909363 -0.317829430103302
-0.42635661363601685 -0.320470929145813 -0.30232560634613037
-0.42635661363601685 -0.3091452717781067 -0.42635661363601685
-0.42635661363601685 -0.31387341022491455 -0.41085273027420044
-0.42635661363601685 -0.31767117977142334 -0.39534884691238403
-0.42635661363601685 -0.316447377204895 -0.2868216931819916
-0.42635661363601685 -0.3110511004924774 -0.27131783962249756
-0.42635661363601685 -0.30595287680625916 -0.25581395626068115
-0.42635661363601685 -0.2872459292411804 -0.4728682041168213
-0.42635661363601685 -0.29585912823677063 -0.4573643207550049
-0.42635661363601685 -0.3020729720592499 -0.4418604373931885
-0.42635661363601685 -0.29939860105514526 -0.24031008780002594
-0.42635661363601685 -0.29155388474464417 -0.22480618953704834
-0.42635661363601685 -0.2793583273887634 -0.4883720874786377
-0.42635661363601685 -0.2833119034767151 -0.20930230617523193
-0.42635661363601685 -0.27347326278686523 -0.19379842281341553
-0.42635661363601685 -0.2589203715324402 -0.5193798542022705
-0.42635664343833923 -0.26914477348327637 -0.5038759708404541
-0.42635661363601685 -0.26201972365379333 -0.1782945990562439
-0.42635661363601685 -0.24720437824726105 -0.5348837375640869
-0.42635661363601685 -0.24902431666851044 -0.1627907156944275
-0.42635661363601685 -0.2329273670911789 -0.5503876209259033
-0.42635661363601685 -0.2345612645149231 -0.14728683233261108
-0.42635661363601685 -0.21448832750320435 -0.5658915042877197
-0.42635661363601685 -0.21765078604221344 -0.13178294897079468
-0.42635661363601685 -0.19741562008857727 -0.11627906560897827
-0.42635661363601685 -0.18489301204681396 -0.5813953876495361
-0.42635661363601685 -0.17551250755786896 -0.10077518969774246
-0.42635661363601685 -0.14642849564552307 -0.08527129888534546
