-0.057197753340005875 0.20930230617523193 0.007751941680908203
-0.056742168962955475 0.5038759708404541 -0.007751941680908203
-0.06078045815229416 0.5193798542022705 -0.02325582504272461
-0.05928343906998634 0.5193798542022705 -0.007751941680908203
-0.059491872787475586 0.5348837375640869 -0.038759708404541016
-0.06584774702787399 0.5348837375640869 -0.02325582690536976
-0.06149590015411377 0.5348837375640869 -0.007751941680908203
-0.055090513080358505 0.5348837375640869 0.007751941680908203
-0.06582128256559372 0.5503876209259033 -0.038759708404541016
-0.0649472326040268 0.5503876209259033 -0.007751941680908203
-0.05758779123425484 0.5503876209259033 0.007751941680908203
-0.06962992250919342 0.5658915042877197 -0.007751941215246916
-0.06030706688761711 0.5658915042877197 0.007751941680908203
-0.06383352726697922 0.5813953876495361 0.007751941680908203
-0.055587951093912125 0.5813953876495361 0.02325582504272461
-0.06596210598945618 0.5968992710113525 0.007751941215246916
-0.05841698870062828 0.5968992710113525 0.02325582504272461
-0.06710217148065567 0.612403154373169 0.007751941215246916
-0.059758324176073074 0.612403154373169 0.02325582504272461
-0.0680142343044281 0.6279069185256958 0.007751941680908203
-0.06076333671808243 0.6279069185256958 0.02325582504272461
-0.056824326515197754 0.6434108018875122 -0.05426359176635742
-0.062101446092128754 0.6434108018875122 0.02325582504272461
-0.06306105852127075 0.6589146852493286 0.02325582504272461
-0.054425518959760666 0.6589146852493286 0.038759708404541016
-0.0625298023223877 0.674418568611145 0.02325582504272461
-0.06050291657447815 0.6899224519729614 0.02325582504272461
-0.0646728053689003 0.7054263353347778 0.007751941680908203
-0.0575055368244648 0.7054263353347778 0.02325582504272461
-0.0690096989274025 0.7209302186965942 -0.007751941680908203
-0.06060744449496269 0.7209302186965942 0.007751941680908203
-0.06211298704147339 0.7364341020584106 -0.007751941680908203
-0.05768878757953644 0.7364341020584106 0.007751941680908203
-0.06298069655895233 0.751937985420227 -0.02325582504272461
-0.05943756923079491 0.751937985420227 -0.007751941680908203
-0.0587724894285202 0.7674418687820435 -0.05426359176635742
-0.06205614656209946 0.7674418687820435 -0.038759708404541016
-0.06000378355383873 0.7674418687820435 -0.02325582504272461
-0.05530807375907898 0.7674418687820435 -0.007751941680908203
-0.05472802370786667 0.7829457521438599 -0.05426359176635742
-0.058142464607954025 0.7829457521438599 -0.038759708404541016
-0.05657710134983063 0.7829457521438599 -0.02325582504272461
-0.05534268170595169 0.7984496355056763 -0.038759708404541016
-0.05445569008588791 0.7984496355056763 -0.02325582504272461
-0.052345406264066696 -0.674418568611145 -0.08527129888534546
-0.05182287096977234 -0.27131783962249756 -0.007751941680908203
-0.040396422147750854 -0.27131783962249756 0.007751941680908203
-0.05264811962842941 -0.20930230617523193 -0.007751941680908203
-0.04050534963607788 -0.20930230617523193 0.007751941680908203
-0.04965963959693909 -0.1782945990562439 -0.038759708404541016
-0.04658189415931702 -0.1782945990562439 0.02325582504272461
-0.04304193705320358 -0.1627907156944275 -0.038759708404541016
-0.04545355215668678 -0.14728683233261108 -0.038759708404541016
-0.047150254249572754 -0.10077518224716187 0.038759708404541016
-0.04113319516181946 -0.06976741552352905 -0.06976741552352905
-0.04164908453822136 -0.05426359176635742 -0.06976741552352905
-0.04049418494105339 -0.038759708404541016 -0.06976741552352905
-0.03952183201909065 -0.02325582504272461 -0.06976741552352905
-0.050977304577827454 0.06976747512817383 -0.06976741552352905
-0.04572129249572754 0.1317828893661499 -0.08527129888534546
-0.04091966152191162 0.1472867727279663 -0.08527129888534546
-0.04904340207576752 0.20930230617523193 0.007751941680908203
-0.043735627084970474 0.20930230617523193 0.02325582504272461
-0.04057738929986954 0.4883720874786377 0.007751941680908203
-0.04514593631029129 0.5038759708404541 -0.02325582504272461
-0.05105695128440857 0.5038759708404541 0.007751941680908203
-0.03923487290740013 0.5038759708404541 0.02325582504272461
-0.050850339233875275 0.5193798542022705 -0.038759708404541016
-0.05308019369840622 0.5193798542022705 0.007751941215246916
-0.04213526472449303 0.5193798542022705 0.02325582504272461
-0.04267217963933945 0.5348837375640869 -0.05426359176635742
-0.044248729944229126 0.5348837375640869 0.02325582504272461
-0.04733964800834656 0.5503876209259033 -0.05426359176635742
-0.04682854935526848 0.5503876209259033 0.02325582504272461
-0.04499506950378418 0.5658915042877197 -0.05426359176635742
-0.050219446420669556 0.5658915042877197 0.02325582504272461
-0.040467411279678345 0.5658915042877197 0.038759708404541016
-0.04480251297354698 0.5813953876495361 -0.05426359176635742
-0.04382002353668213 0.5813953876495361 0.038759708404541016
-0.04565013200044632 0.5968992710113525 -0.05426359176635742
-0.046024564653635025 0.5968992710113525 0.038759708404541016
-0.04706409201025963 0.612403154373169 -0.05426359176635742
-0.047866206616163254 0.612403154373169 0.038759708404541016
-0.049104124307632446 0.6279069185256958 -0.05426359176635742
-0.049931205809116364 0.6279069185256958 0.038759708404541016
-0.05285973846912384 0.6434108018875122 0.038759708404541016
-0.04075072705745697 0.674418568611145 -0.06976741552352905
-0.053104959428310394 0.6744186282157898 0.038759712129831314
-0.0510731115937233 0.6899224519729614 -0.06976741552352905
-0.04907888174057007 0.6899224519729614 0.038759708404541016
-0.05335528776049614 0.7054263353347778 -0.06976741552352905
-0.04414665699005127 0.7054263353347778 0.038759708404541016
-0.04720156639814377 0.7209302186965942 -0.06976741552352905
-0.05314968153834343 0.7209302186965942 0.02325582504272461
-0.03891408443450928 0.7209302186965942 0.038759708404541016
-0.0393160916864872 0.7364341020584106 -0.06976741552352905
-0.04577133432030678 0.7364341020584106 0.02325582504272461
-0.0516948401927948 0.751937985420227 0.007751941680908203
-0.040944654494524 0.751937985420227 0.02325582504272461
-0.045510053634643555 0.7674418687820435 0.007751941680908203
-0.04973955824971199 0.7829457521438599 -0.007751941680908203
-0.04193636775016785 0.7829457521438599 0.007751941680908203
-0.047679394483566284 0.7984496355056763 -0.05426359176635742
-0.04619535803794861 0.7984496355056763 -0.007751941680908203
-0.04227560758590698 0.8139535188674927 -0.05426359176635742
-0.04962075129151344 0.8139535188674927 -0.038759708404541016
-0.048594534397125244 0.8139535784721375 -0.02325582504272461
-0.042874932289123535 0.8139535188674927 -0.007751941680908203
-0.04128159582614899 0.8294574022293091 -0.05426359176635742
-0.045668113976716995 0.8294574022293091 -0.038759708404541016
-0.045326292514801025 0.8294574022293091 -0.02325582504272461
-0.041502758860588074 0.8449612855911255 -0.05426359176635742
-0.04359356686472893 0.8449612855911255 -0.038759708404541016
-0.04111706465482712 0.8449612855911255 -0.02325582504272461
-0.03951595723628998 0.8604651689529419 -0.06976741552352905
-0.040944576263427734 0.8604651689529419 -0.05426359176635742
-0.04078090935945511 0.8604651689529419 -0.038759708404541016
-0.03935154527425766 0.8759689331054688 -0.06976741552352905
-0.03590484336018562 -0.6124030947685242 -0.06976741552352905
-0.025284601375460625 -0.28682172298431396 -0.007751941680908203
-0.023383693769574165 -0.27131783962249756 -0.02325582504272461
-0.024021277204155922 -0.25581395626068115 -0.02325582504272461
-0.035240329802036285 -0.25581395626068115 -0.007751941680908203
-0.03488370031118393 -0.25581395626068115 0.007751941680908203
-0.023453867062926292 -0.24031007289886475 -0.02325582504272461
-0.026767250150442123 -0.24031007289886475 -0.007751941680908203
-0.02621728926897049 -0.24031007289886475 0.007751941680908203
-0.0237461905926466 -0.22480618953704834 -0.02325582504272461
-0.03072035312652588 -0.22480618953704834 -0.007751941680908203
-0.028866713866591454 -0.22480618953704834 0.007751941680908203
-0.03515676036477089 -0.20930230617523193 -0.02325582504272461
-0.025248996913433075 -0.20930230617523193 0.02325582504272461
-0.036714740097522736 -0.19379842281341553 0.02325582504272461
-0.029698964208364487 -0.13178294897079468 -0.05426359176635742
-0.029707804322242737 -0.11627906560897827 0.038759708404541016
-0.030097123235464096 -0.10077518224716187 -0.06976741552352905
-0.03818584233522415 -0.08527129888534546 -0.06976741552352905
-0.037695229053497314 -0.007751941680908203 -0.06976742297410965
-0.03301987051963806 0.007751941680908203 -0.06976741552352905
-0.028871864080429077 0.02325582504272461 -0.06976741552352905
-0.026987813413143158 0.038759708404541016 -0.06976741552352905
-0.031729236245155334 0.05426359176635742 -0.06976741552352905
-0.02411363460123539 0.11627912521362305 -0.08527129888534546
-0.03509999066591263 0.19379842281341553 0.038759708404541016
-0.03230630233883858 0.20930230617523193 -0.007751941680908203
-0.034324515610933304 0.3333333730697632 -0.02325582690536976
-0.026318220421671867 0.3333333730697632 -0.007751941680908203
-0.024446234107017517 0.3488372564315796 -0.038759708404541016
-0.026480741798877716 0.3488372564315796 -0.02325582504272461
-0.023672232404351234 0.4573643207550049 -0.007751941680908203
-0.023325718939304352 0.4573643207550049 0.007751941680908203
-0.028026539832353592 0.4728682041168213 -0.007751941680908203
-0.02989928424358368 0.4728682041168213 0.007751941680908203
-0.024932311847805977 0.4728682041168213 0.02325582504272461
-0.038726769387722015 0.4883720874786377 -0.007751941680908203
-0.03130913898348808 0.4883720874786377 0.02325582504272461
-0.02507004514336586 0.5038759708404541 0.038759708404541016
-0.030994072556495667 0.5193798542022705 0.038759708404541016
-0.034667495638132095 0.5348837375640869 0.038759708404541016
-0.02532638981938362 0.5348837375640869 0.05426359176635742
-0.0380769707262516 0.5503876209259033 0.038759708404541016
-0.027311421930789948 0.5503876209259033 0.05426359176635742
-0.029204845428466797 0.5658915042877197 0.05426359176635742
-0.03228864446282387 0.5813953876495361 0.05426358804106712
-0.03433933109045029 0.5968992710113525 0.05426359176635742
-0.03583957999944687 0.612403154373169 0.05426359176635742
-0.03640693053603172 0.6279069185256958 0.05426359176635742
-0.0359184555709362 0.6434108018875122 0.05426359176635742
-0.0247110016644001 0.6589146852493286 -0.06976741552352905
-0.0335051603615284 0.6589146852493286 0.05426359176635742
-0.029957888647913933 0.674418568611145 0.05426359176635742
-0.02471461333334446 0.6899224519729614 0.05426359176635742
-0.027883201837539673 0.7364341020584106 0.038759708404541016
-0.025752084329724312 0.751937985420227 -0.06976741552352905
-0.031019169837236404 0.7674418687820435 0.02325582504272461
-0.03397725895047188 0.7984495759010315 0.007751941680908203
-0.023557396605610847 0.8139535188674927 -0.06976741552352905
-0.025264566764235497 0.8139535188674927 0.007751941680908203
-0.027801435440778732 0.8294574022293091 -0.06976741552352905
-0.03807735815644264 0.8294573426246643 -0.007751941680908203
-0.03583701699972153 0.8449612855911255 -0.06976741552352905
-0.03053181618452072 0.8449612855911255 -0.007751941680908203
-0.03515728935599327 0.8604651689529419 -0.02325582504272461
-0.02582889050245285 0.8759689331054688 -0.08527129888534546
-0.038502879440784454 0.8759689331054688 -0.05426359176635742
-0.03356792777776718 0.8759689331054688 -0.038759708404541016
-0.027400847524404526 0.8759689331054688 -0.02325582504272461
-0.026655029505491257 0.8914728164672852 -0.08527129888534546
-0.03458044305443764 0.8914728164672852 -0.06976741552352905
-0.02942672371864319 0.8914728164672852 -0.05426359176635742
-0.025503743439912796 0.8914728164672852 -0.038759708404541016
-0.024256158620119095 0.9069766998291016 -0.06976741552352905
-0.00821808073669672 -0.28682172298431396 -0.02325582504272461
-0.014832910150289536 -0.22480618953704834 0.02325582504272461
-0.011211920529603958 -0.20930230617523193 -0.038759708404541016
-0.022050580009818077 -0.19379842281341553 -0.038759708404541016
-0.009058551862835884 -0.1627907156944275 -0.05426359176635742
-0.013452683575451374 -0.14728683233261108 -0.05426359176635742
-0.011927495710551739 -0.13178294897079468 0.038759708404541016
-0.014828470535576344 -0.11627906560897827 -0.06976741552352905
-0.012162098661065102 0.10077524185180664 -0.08527129888534546
-0.02224920131266117 0.1317828893661499 0.05426359176635742
-0.021001314744353294 0.1472867727279663 0.05426359176635742
-0.008790094405412674 0.16279065608978271 -0.08527129888534546
-0.009187856689095497 0.20930230617523193 -0.038759708404541016
-0.01969432458281517 0.20930230617523193 -0.02325582504272461
-0.007859411649405956 0.25581395626068115 0.007751941680908203
-0.009812554344534874 0.3178294897079468 -0.007751941680908203
-0.008260565809905529 0.3333333730697632 -0.038759708404541016
-0.010700363665819168 0.3333333730697632 0.007751941680908203
-0.02248111553490162 0.3488372266292572 -0.007751941215246916
-0.008534449152648449 0.3488372564315796 0.007751941680908203
-0.010561983101069927 0.4418604373931885 -0.02325582504272461
-0.011001454666256905 0.4418604373931885 -0.007751941680908203
-0.00937152374535799 0.4418604373931885 0.007751941680908203
-0.013809248805046082 0.4573643207550049 -0.02325582504272461
-0.013018086552619934 0.4573643207550049 0.02325582504272461
-0.012447118759155273 0.4728682041168213 0.038759708404541016
-0.02019735798239708 0.4883720874786377 0.038759708404541016
-0.012161601334810257 0.5038759708404541 0.05426359176635742
-0.022966371849179268 0.5193798542022705 0.05426359176635742
-0.007911608554422855 0.5193798542022705 0.06976747512817383
-0.010320466943085194 0.5348837375640869 0.06976747512817383
-0.012046316638588905 0.5503876209259033 0.06976747512817383
-0.012074624188244343 0.5658915042877197 0.06976747512817383
-0.011212543584406376 0.5813953876495361 0.06976747512817383
-0.009088028222322464 0.5968992710113525 0.06976747512817383
-0.014462880790233612 0.7054263353347778 0.05426359176635742
-0.013123944401741028 0.751937985420227 0.038759708404541016
-0.016838155686855316 0.7674418687820435 -0.06976741552352905
-0.015843525528907776 0.7829457521438599 -0.06976741552352905
-0.019512644037604332 0.7829457521438599 0.02325582504272461
-0.017803920432925224 0.7984496355056763 -0.06976741552352905
-0.013865703716874123 0.8294574022293091 0.007751941680908203
-0.008586647920310497 0.8449612855911255 -0.08527129888534546
-0.020773258060216904 0.8604651093482971 -0.08527129888534546
-0.022922299802303314 0.8604651689529419 -0.007751941680908203
-0.01291808020323515 0.8759689331054688 -0.007751941680908203
-0.015909818932414055 0.8914728164672852 -0.02325582504272461
-0.016849471256136894 0.9069766998291016 -0.05426359176635742
-0.01207665167748928 0.9069766998291016 -0.038759708404541016
0.0033989911898970604 -0.25581395626068115 -0.038759708404541016
0.0018995453137904406 -0.24031007289886475 -0.038759708404541016
-0.003041096730157733 -0.22480620443820953 -0.038759708404541016
0.004950228147208691 -0.19379842281341553 -0.05426359176635742
-0.0014663077890872955 -0.1782945990562439 -0.05426359176635742
-0.005787176080048084 0.16279065608978271 0.05426359176635742
0.004626519978046417 0.19379842281341553 -0.06976741552352905
0.005997771397233009 0.20930230617523193 -0.05426359176635742
0.004149262793362141 0.22480618953704834 -0.007751941680908203
-0.0030775389168411493 0.22480618953704834 0.007751941680908203
-0.003583924612030387 0.22480618953704834 0.02325582504272461
0.0053458064794540405 0.24031007289886475 -0.007751941680908203
-0.0021386451553553343 0.24031008780002594 0.007751941680908203
0.0034574205055832863 0.24031007289886475 0.02325582504272461
-0.0019550540018826723 0.25581395626068115 -0.007751941680908203
-0.0016211280599236488 0.3178294897079468 -0.02325582504272461
-0.0005050997715443373 0.364341139793396 -0.02325582504272461
0.0020886126440018415 0.364341139793396 -0.007751941680908203
0.007247577421367168 0.41085267066955566 -0.05426359176635742
0.0024807732552289963 0.41085267066955566 -0.038759708404541016
0.007291529327630997 0.41085267066955566 -0.02325582504272461
0.007151495665311813 0.42635655403137207 -0.05426359176635742
-0.006159971002489328 0.42635655403137207 -0.038759712129831314
-0.0035105268470942974 0.42635655403137207 -0.02325582504272461
0.002330027287825942 0.42635655403137207 -0.007751941680908203
0.007134902290999889 0.42635655403137207 0.007751941680908203
-0.004237010143697262 0.4418604373931885 -0.038759708404541016
-0.00024584028869867325 0.4418604373931885 0.02325582504272461
-0.0024063221644610167 0.4573643207550049 0.038759708404541016
6.737280637025833e-05 0.4728682041168213 -0.02325582504272461
0.003688960103318095 0.4728682041168213 0.05426359176635742
0.0057767052203416824 0.4883720874786377 -0.02325582504272461
-0.0053104134276509285 0.4883720874786377 0.05426359176635742
0.0069764843210577965 0.5038759708404541 0.06976747512817383
0.006774480454623699 0.5503876209259033 -0.06976741552352905
-0.003548125736415386 0.612403154373169 0.06976747512817383
0.004372149705886841 0.6279069185256958 -0.06976741552352905
0.006459559313952923 0.6279069185256958 0.06976747512817383
-0.007694209925830364 0.6434108018875122 -0.06976741552352905
0.004204482771456242 0.7054263353347778 -0.08527129888534546
0.0042015789076685905 0.7209302186965942 -0.08527129888534546
0.00039561628364026546 0.7209302186965942 0.05426359176635742
0.006411789916455746 0.7674418687820435 0.038759708404541016
-0.0013877502642571926 0.7984496355056763 0.02325582504272461
0.0070384833961725235 0.8294574022293091 -0.08527129888534546
-0.003968788310885429 0.8449612855911255 0.007751941680908203
0.004265483468770981 0.8604651689529419 0.007751941680908203
-0.0010673170909285545 0.8914728164672852 -0.007751941680908203
-0.0023996157106012106 0.9069766998291016 -0.02325582504272461
0.007649560458958149 0.922480583190918 -0.038759708404541016
0.011838115751743317 -0.28682172298431396 -0.02325582318007946
0.011001372709870338 -0.27131783962249756 0.007751941680908203
0.019957726821303368 -0.20930230617523193 -0.05426359176635742
0.020934203639626503 -0.1782945990562439 0.038759708404541016
0.009484460577368736 -0.13178294897079468 0.038759708404541016
0.01977408118546009 0.10077524185180664 -0.08527129888534546
0.017530648037791252 0.16279065608978271 -0.08527129888534546
0.015346722677350044 0.22480618953704834 -0.02325582504272461
0.013599750585854053 0.364341139793396 0.007751941680908203
0.021792588755488396 0.39534878730773926 -0.038759708404541016
0.022993335500359535 0.41085267066955566 -0.007751941680908203
0.019026340916752815 0.4418604373931885 0.038759708404541016
0.022916525602340698 0.5193798542022705 -0.05426359176635742
0.0098404660820961 0.5658915042877197 -0.06976741552352905
0.01427374966442585 0.5813953876495361 -0.06976741552352905
0.01728513091802597 0.5968992710113525 -0.06976741552352905
0.015085388906300068 0.612403154373169 -0.06976741552352905
0.013810260221362114 0.7364341020584106 -0.08527129888534546
0.01820807345211506 0.8139535188674927 0.02325582504272461
0.015570774674415588 0.8759689331054688 0.007751941680908203
0.009439581073820591 0.8914727568626404 -0.08527129888534546
0.017064392566680908 0.9069766998291016 -0.06976741552352905
0.011508014984428883 0.9069766998291016 -0.007751941215246916
0.021188635379076004 0.922480583190918 -0.02325582504272461
0.0240499135106802 -0.28682172298431396 -0.007751941680908203
0.03841976448893547 -0.25581395626068115 0.007751941680908203
0.03399654105305672 -0.20930230617523193 -0.05426359176635742
0.03168163448572159 -0.1627907156944275 0.038759708404541016
0.034206315875053406 -0.14728683233261108 0.038759708404541016
0.024633759632706642 -0.13178294897079468 0.038759708404541016
0.03517148271203041 -0.11627906560897827 -0.06976741552352905
0.03633453696966171 -0.05426359176635742 -0.06976741552352905
0.03594028949737549 -0.038759708404541016 -0.06976741552352905
0.036685679107904434 0.02325582504272461 -0.06976741552352905
0.03579021990299225 0.038759708404541016 -0.06976741552352905
0.025556914508342743 0.11627912521362305 -0.08527129888534546
0.026901785284280777 0.1317828893661499 -0.08527129888534546
0.03477732837200165 0.1317828893661499 0.05426359176635742
0.02833382412791252 0.1472867727279663 -0.08527129888534546
0.025415359064936638 0.16279065608978271 0.05426359176635742
0.02563510648906231 0.19379842281341553 -0.06976741552352905
0.03845067322254181 0.24031007289886475 0.02325582504272461
0.03079373948276043 0.25581395626068115 -0.00775194214656949
0.03169852867722511 0.25581395626068115 0.007751941680908203
0.03844383731484413 0.364341139793396 0.007751941680908203
0.035746585577726364 0.41085267066955566 -0.05426359176635742
0.03452053666114807 0.4883720874786377 0.06976747512817383
0.03275182098150253 0.5038759708404541 -0.038759708404541016
0.026929162442684174 0.5348837375640869 -0.06976741552352905
0.027458099648356438 0.6434108018875122 0.06976747512817383
0.025807145982980728 0.6899224519729614 -0.08527129888534546
0.027099572122097015 0.7364340424537659 0.05426359176635742
0.036866191774606705 0.751937985420227 -0.08527129888534546
0.03545558825135231 0.8294574022293091 0.02325582504272461
0.02492705173790455 0.8914728164672852 0.007751941680908203
0.0370466373860836 0.922480583190918 -0.007751941680908203
0.04936457425355911 -0.27131783962249756 -0.02325582504272461
0.04090609401464462 -0.25581395626068115 -0.038759708404541016
0.040941476821899414 -0.24031007289886475 -0.038759708404541016
0.05172652378678322 -0.19379842281341553 -0.05426359176635742
0.051722507923841476 -0.1782945990562439 -0.05426359176635742
0.043832920491695404 -0.1627907156944275 -0.05426359176635742
0.04748069494962692 -0.14728683233261108 -0.05426359176635742
0.04210589826107025 -0.10077518224716187 -0.06976741552352905
0.04438271373510361 -0.08527129888534546 -0.06976741552352905
0.04212404042482376 -0.06976741552352905 -0.06976741552352905
0.04079895466566086 -0.02325582504272461 -0.06976741552352905
0.04362228512763977 -0.00775194214656949 -0.06976741552352905
0.04145653545856476 0.007751941680908203 -0.06976741552352905
0.04187825322151184 0.05426359176635742 -0.06976741552352905
0.05156572163105011 0.06976747512817383 -0.06976741552352905
0.046629033982753754 0.1472867727279663 0.05426359176635742
0.04488769546151161 0.20930230617523193 -0.05426359176635742
0.049014583230018616 0.22480618953704834 -0.02325582504272461
0.03979271650314331 0.24031008780002594 -0.007751941680908203
0.04815369099378586 0.24031007289886475 0.007751941680908203
0.05193854123353958 0.364341139793396 -0.02325582504272461
0.05032559484243393 0.39534878730773926 -0.038759708404541016
0.04413054883480072 0.42635655403137207 -0.05426359176635742
0.04067860171198845 0.4418604373931885 0.038759708404541016
0.03919491171836853 0.7829457521438599 0.038759708404541016
0.047819897532463074 0.8139535188674927 -0.08527129888534546
0.05118284374475479 0.9069766998291016 -0.06976741552352905
0.04067828133702278 0.9069766998291016 0.007751941680908203
0.05151576176285744 0.922480583190918 -0.05426359176635742
0.06041970103979111 -0.27131783962249756 -0.02325582504272461
0.06887364387512207 -0.24031007289886475 0.007751941680908203
0.05513869598507881 -0.22480620443820953 -0.038759708404541016
0.05538041889667511 -0.22480618953704834 0.02325582504272461
0.05456231161952019 -0.1782945990562439 0.038759708404541016
0.05951416492462158 -0.13178294897079468 -0.05426359176635742
0.06899095326662064 0.08527135848999023 -0.06976741552352905
0.0678880363702774 0.22480618953704834 -0.007751941680908203
0.06179061532020569 0.3178294897079468 -0.02325582504272461
0.05990442633628845 0.3178294897079468 -0.007751941680908203
0.05728284269571304 0.3333333730697632 0.007751941680908203
0.06732859462499619 0.3488372564315796 0.007751941680908203
0.05868341773748398 0.364341139793396 -0.007751941680908203
0.06807558238506317 0.41085267066955566 -0.007751941680908203
0.06828134506940842 0.42635655403137207 0.007751941680908203
0.06738244742155075 0.5348837375640869 -0.06976741552352905
0.06485365331172943 0.612403154373169 -0.06976741552352905
0.06485991925001144 0.8914728164672852 -0.08527129888534546
0.06967060267925262 0.922480583190918 -0.06976741552352905
0.06827693432569504 0.9379844665527344 -0.05426359176635742
0.06314069032669067 0.9379844665527344 -0.038759708404541016
0.06483446806669235 0.9379844665527344 -0.02325582504272461
0.07736976444721222 -0.27131783962249756 -0.02325582504272461
0.07996992021799088 -0.25581395626068115 -0.02325582504272461
0.0802547037601471 -0.25581395626068115 -0.007751941680908203
0.07030943781137466 -0.24031007289886475 -0.02325582504272461
0.07136503607034683 -0.24031007289886475 -0.007751941680908203
0.07217927277088165 -0.22480618953704834 -0.02325582504272461
0.07556208223104477 -0.22480618953704834 -0.007751941680908203
0.0720561146736145 -0.22480618953704834 0.007751941680908203
0.07299310714006424 -0.20930229127407074 -0.038759708404541016
0.07070186734199524 -0.20930230617523193 0.02325582504272461
0.08330384641885757 -0.19379842281341553 -0.038759708404541016
0.08012145757675171 -0.1782945990562439 -0.038759708404541016
0.07460034638643265 -0.1627907156944275 -0.038759708404541016
0.07092990726232529 -0.1627907156944275 0.038759708404541016
0.07475250214338303 -0.14728683233261108 -0.038759708404541016
0.0709470584988594 -0.14728683233261108 0.038759708404541016
0.08269977569580078 -0.13178294897079468 -0.038759708404541016
0.07121764123439789 -0.13178294897079468 0.038759708404541016
0.07141284644603729 -0.11627906560897827 -0.05426359176635742
0.08041959255933762 -0.11627906560897827 0.038759708404541016
0.08118988573551178 -0.10077518224716187 -0.05426359176635742
0.0797402560710907 0.007751941680908203 -0.05426359176635742
0.0704231783747673 0.02325582504272461 -0.05426359176635742
0.0705697238445282 0.038759708404541016 -0.05426359176635742
0.0846557542681694 0.05426359176635742 -0.05426359176635742
0.07230912894010544 0.17829455435276031 -0.06976741552352905
0.08273828029632568 0.19379842281341553 -0.05426359176635742
0.07863662391901016 0.19379842281341553 0.038759708404541016
0.0741661936044693 0.20930230617523193 -0.038759708404541016
0.0733112245798111 0.22480620443820953 0.007751941680908203
0.07082489877939224 0.22480618953704834 0.02325582504272461
0.0709557831287384 0.3333333730697632 -0.038759708404541016
0.0727895200252533 0.3488372564315796 -0.038759708404541016
0.07983113080263138 0.42635655403137207 -0.007751941680908203
0.07196012139320374 0.4418604373931885 -0.038759708404541016
0.08225911110639572 0.4418604373931885 0.007751941680908203
0.07072047889232635 0.4418604373931885 0.02325582504272461
0.07504033297300339 0.4573643207550049 0.038759708404541016
0.0842752680182457 0.4728682041168213 0.05426359176635742
0.07013202458620071 0.4883720874786377 0.06976747512817383
0.071306973695755 0.5968992710113525 -0.06976741552352905
0.07643495500087738 0.6279069185256958 -0.06976741552352905
0.07906444370746613 0.6279069185256958 0.06976747512817383
0.07038746774196625 0.6434108018875122 0.06976747512817383
0.07301434129476547 0.6899224519729614 -0.08527129888534546
0.07179231941699982 0.7674418687820435 -0.08527129888534546
0.08261050283908844 0.7829457521438599 0.038759708404541016
0.08436306565999985 0.8294574022293091 0.02325582504272461
0.08462092280387878 0.9069766998291016 -0.08527129888534546
0.07731813192367554 0.9069766998291016 0.007751941680908203
0.08221060782670975 0.9379844665527344 -0.06976741552352905
0.08382268995046616 0.9379844665527344 -0.02325582504272461
0.08633743226528168 -0.27131783962249756 -0.007751941680908203
0.08691922575235367 -0.20930230617523193 -0.02325582504272461
0.0882822796702385 -0.20930230617523193 -0.007751941680908203
0.08568757772445679 -0.20930230617523193 0.007751941215246916
0.09797420352697372 -0.19379842281341553 -0.02325582504272461
0.09665726125240326 -0.19379842281341553 0.007751941680908203
0.08540688455104828 -0.19379843771457672 0.02325582504272461
0.09536945074796677 -0.1782945990562439 -0.02325582504272461
0.09296604245901108 -0.1782945990562439 0.02325582504272461
0.09010732173919678 -0.1627907156944275 -0.02325582504272461
0.09996860474348068 -0.1627907156944275 0.02325582504272461
0.08996278047561646 -0.14728683233261108 -0.02325582504272461
0.10020575672388077 -0.14728683233261108 0.02325582504272461
0.09438255429267883 -0.13178294897079468 -0.02325582504272461
0.09214960038661957 -0.11627906560897827 -0.038759708404541016
0.09176236391067505 -0.10077518224716187 0.038759708404541016
0.09130959212779999 -0.08527129888534546 -0.05426359176635742
0.09611651301383972 -0.06976741552352905 -0.05426359176635742
0.09231238067150116 -0.05426359176635742 -0.05426359176635742
0.08880921453237534 -0.038759708404541016 -0.05426359176635742
0.09094005078077316 -0.02325582504272461 -0.05426359176635742
0.09120580554008484 -0.00775194214656949 -0.05426359549164772
0.0894131064414978 0.10077524185180664 -0.06976741552352905
0.09644761681556702 0.11627912521362305 -0.06976741552352905
0.09775935113430023 0.1317828893661499 -0.06976741552352905
0.09538482129573822 0.1472867727279663 -0.06976741552352905
0.08871021121740341 0.16279065608978271 -0.06976741552352905
0.09249222278594971 0.17829453945159912 0.038759708404541016
0.09366469830274582 0.20930230617523193 -0.02325582504272461
0.09499668329954147 0.20930230617523193 0.02325582504272461
0.09573771804571152 0.3333333730697632 -0.007751941680908203
0.08779463171958923 0.41085267066955566 -0.038759708404541016
0.08880621194839478 0.41085270047187805 -0.02325582504272461
0.0857667550444603 0.4263565242290497 -0.03875970467925072
0.08761432766914368 0.42635655403137207 -0.02325582504272461
0.08580845594406128 0.4418604373931885 -0.02325582504272461
0.08692367374897003 0.4418604373931885 -0.007751941680908203
0.0912700667977333 0.4573643207550049 -0.02325582504272461
0.09178232401609421 0.4573643207550049 0.02325582504272461
0.10031642764806747 0.4883720874786377 -0.02325582504272461
0.0982540026307106 0.4883720874786377 0.05426359176635742
0.09913435578346252 0.5038759708404541 -0.038759708404541016
0.0854603573679924 0.5038759708404541 0.06976747512817383
0.09437619149684906 0.5193798542022705 -0.05426359176635742
0.0932246595621109 0.5193798542022705 0.06976747512817383
0.09783049672842026 0.5348837375640869 0.06976747512817383
0.09591691195964813 0.5503876209259033 -0.06976741552352905
0.09897839277982712 0.5503876209259033 0.06976747512817383
0.09731367230415344 0.5658915042877197 0.06976747512817383
0.09156352281570435 0.5813953876495361 -0.06976741552352905
0.09484770894050598 0.5813953876495361 0.06976747512817383
0.09106937795877457 0.5968992710113525 0.06976747512817383
0.08668887615203857 0.612403154373169 0.06976747512817383
0.09164528548717499 0.6434108018875122 -0.06976741552352905
0.08709979057312012 0.7364341020584106 0.05426359176635742
0.09802865982055664 0.7674418687820435 0.038759708404541016
0.09862291812896729 0.7984496355056763 -0.08527129888534546
0.09201674163341522 0.8139535188674927 0.02325582504272461
0.09922859817743301 0.8759689331054688 0.007751941680908203
0.09292943775653839 0.8914728164672852 0.007751941680908203
0.09036469459533691 0.9224806427955627 -0.007751941680908203
0.09391490370035172 0.9379844665527344 -0.06976741552352905
0.09965351969003677 0.9379844665527344 -0.05426359176635742
0.09921719133853912 0.9379844665527344 -0.038759708404541016
0.09728382527828217 0.9689922332763672 -0.08527129888534546
0.09876157343387604 0.9844961166381836 -0.08527129888534546
0.11280157417058945 -0.28682172298431396 -0.007751941680908203
0.1138310357928276 -0.27131783962249756 -0.007751941680908203
0.10243245214223862 -0.19379842281341553 -0.007751941680908203
0.10300312936306 -0.1782945990562439 -0.007751941680908203
0.10293486714363098 -0.1782945990562439 0.007751941680908203
0.10137713700532913 -0.1627907156944275 -0.007751941680908203
0.10230954736471176 -0.1627907156944275 0.007751941680908203
0.10120527446269989 -0.14728684723377228 -0.007751941680908203
0.10253337025642395 -0.14728683233261108 0.007751941680908203
0.10317370295524597 -0.13178294897079468 -0.00775194214656949
0.10512416809797287 -0.13178294897079468 0.007751941680908203
0.10156550258398056 -0.13178294897079468 0.02325582504272461
0.10641404241323471 -0.11627906560897827 -0.02325582504272461
0.1104135662317276 -0.11627906560897827 0.02325582504272461
0.10907533764839172 -0.10077518224716187 -0.038759708404541016
0.10227520018815994 -0.08527129888534546 0.038759708404541016
0.10666605085134506 -0.06976741552352905 0.038759708404541016
0.11070014536380768 -0.05426359176635742 0.038759708404541016
0.1145753264427185 -0.038759708404541016 0.038759708404541016
0.10174699872732162 0.02325582504272461 -0.038759708404541016
0.10162132233381271 0.038759708404541016 -0.038759708404541016
0.11406239867210388 0.05426359176635742 -0.038759708404541016
0.1015990823507309 0.06976747512817383 -0.05426359176635742
0.11547127366065979 0.08527135848999023 -0.05426359176635742
0.11099609732627869 0.1472867727279663 0.038759708404541016
0.10338553786277771 0.16279065608978271 0.038759708404541016
0.11009025573730469 0.17829453945159912 -0.05426359176635742
0.11222990602254868 0.19379842281341553 -0.038759708404541016
0.11024338006973267 0.19379842281341553 0.02325582504272461
0.11106051504611969 0.20930230617523193 -0.007751941680908203
0.11000795662403107 0.20930230617523193 0.007751941680908203
0.10394483804702759 0.3333333730697632 -0.02325582504272461
0.11410839110612869 0.364341139793396 -0.02325582504272461
0.1141044944524765 0.364341139793396 -0.007751941680908203
0.1062576174736023 0.4573643207550049 -0.007751941680908203
0.10385414958000183 0.4573643207550049 0.007751941215246916
0.10255783051252365 0.4728682041168213 -0.02325582504272461
0.10823314636945724 0.4728682041168213 0.02325582504272461
0.10077936202287674 0.4728682041168213 0.038759708404541016
0.10897903144359589 0.4883720874786377 0.038759708404541016
0.1067659854888916 0.5038759708404541 0.05426359176635742
0.11569065600633621 0.5193798542022705 0.05426359176635742
0.10301363468170166 0.5658915042877197 -0.06976741552352905
0.11359592527151108 0.5968992710113525 0.05426359176635742
0.1095474511384964 0.612403154373169 0.05426359176635742
0.10676661878824234 0.6279069185256958 0.05426359176635742
0.10560877621173859 0.6434108018875122 0.05426359176635742
0.109095498919487 0.6589146852493286 -0.06976741552352905
0.10534510016441345 0.6589146852493286 0.05426359176635742
0.10560794174671173 0.674418568611145 0.05426359176635742
0.10547327995300293 0.6899224519729614 0.05426359176635742
0.10374949872493744 0.7054263353347778 -0.08527129888534546
0.10427404195070267 0.7054263353347778 0.05426359176635742
0.10775206983089447 0.7209302186965942 -0.08527129888534546
0.10110247880220413 0.7209302186965942 0.05426359176635742
0.10971584916114807 0.7364341020584106 -0.08527129888534546
0.11302068084478378 0.7364341020584106 0.038759708404541016
0.10602673888206482 0.751937985420227 -0.08527129888534546
0.10566429793834686 0.751937985420227 0.038759708404541016
0.10323762148618698 0.7674418687820435 -0.08527129888534546
0.10726446658372879 0.7829457521438599 0.02325582504272461
0.10182657837867737 0.7984496355056763 -0.08527129888534546
0.10143844783306122 0.7984496355056763 0.02325582504272461
0.1113024652004242 0.8139535188674927 0.007751941680908203
0.1087266355752945 0.8294574022293091 0.007751941680908203
0.10659686475992203 0.8449612855911255 0.007751941680908203
0.10402955114841461 0.8604651689529419 0.007751941680908203
0.11139243841171265 0.8759689331054688 -0.08527129888534546
0.10646134614944458 0.8914728164672852 -0.08527129888534546
0.11331864446401596 0.8914728164672852 -0.007751941680908203
0.10107060521841049 0.9069766998291016 -0.08527129888534546
0.10635828971862793 0.9069766998291016 -0.007751941680908203
0.1057174801826477 0.922480583190918 -0.06976741552352905
0.11037704348564148 0.922480583190918 -0.05426359176635742
0.11199671030044556 0.922480583190918 -0.038759708404541016
0.10558846592903137 0.9224806427955627 -0.02325582504272461
0.10246095061302185 0.9689922332763672 -0.08527129143476486
0.10111893713474274 0.9844961166381836 -0.08527129888534546
0.12107059359550476 -0.30232560634613037 -0.007751941680908203
0.12624549865722656 -0.28682172298431396 -0.02325582504272461
0.13068343698978424 -0.27131783962249756 -0.02325582504272461
0.11835652589797974 -0.11627906560897827 -0.007751941680908203
0.12101411074399948 -0.11627906560897827 0.007751941680908203
0.12383804470300674 -0.10077518224716187 0.02325582504272461
0.13171064853668213 -0.08527129888534546 0.02325582504272461
0.11654794961214066 -0.02325582504272461 0.03875970467925072
0.11855615675449371 -0.007751941680908203 0.038759708404541016
0.11782829463481903 0.007751941680908203 -0.038759708404541016
0.11959777772426605 0.007751941680908203 0.038759708404541016
0.12261245399713516 0.02325582504272461 -0.02325582504272461
0.12037665396928787 0.02325582504272461 0.038759708404541016
0.12483984231948853 0.038759708404541016 -0.02325582504272461
0.12084411084651947 0.038759708404541016 0.038759708404541016
0.12010028213262558 0.05426359176635742 0.038759708404541016
0.12426702678203583 0.06976747512817383 -0.038759708404541016
0.12042907625436783 0.06976747512817383 0.038759708404541016
0.12101484835147858 0.08527135848999023 0.038759708404541016
0.13035695254802704 0.10077524185180664 -0.05426359176635742
0.12017853558063507 0.10077524185180664 0.038759708404541016
0.11843158304691315 0.11627912521362305 0.038759708404541016
0.11645356565713882 0.1317828893661499 0.03875970467925072
0.13072700798511505 0.1472867727279663 -0.05426359176635742
0.13130229711532593 0.1472867727279663 0.02325582504272461
0.12444452941417694 0.16279065608978271 -0.05426359176635742
0.1251160055398941 0.16279065608978271 0.02325582504272461
0.11862532049417496 0.17829453945159912 0.02325582504272461
0.12603680789470673 0.4728682041168213 0.007751941680908203
0.11784853041172028 0.4883721172809601 0.02325582504272461
0.12003368139266968 0.5038759708404541 0.038759708404541016
0.128914475440979 0.5193798542022705 0.038759708404541016
0.1182500496506691 0.5348837375640869 0.05426358804106712
0.11885929107666016 0.5503876209259033 0.05426358804106712
0.11814870685338974 0.5658915042877197 0.05426359176635742
0.13085483014583588 0.5813953876495361 0.038759708404541016
0.11686986684799194 0.5813953876495361 0.05426359176635742
0.12636606395244598 0.5968992710113525 0.038759708404541016
0.12309367954730988 0.612403154373169 0.038759708404541016
0.11970531940460205 0.6279069185256958 0.038759708404541016
0.13099366426467896 0.6434108018875122 0.02325582504272461
0.11746509373188019 0.643410861492157 0.038759708404541016
0.13011297583580017 0.6589146852493286 0.02325582504272461
0.11725475639104843 0.6589146852493286 0.038759708404541016
0.1282951980829239 0.674418568611145 -0.06976741552352905
0.11808618903160095 0.6744186282157898 0.038759708404541016
0.1193222925066948 0.6899223923683167 0.038759708404541016
0.11964207887649536 0.7054262757301331 0.038759708404541016
0.11781167984008789 0.7209302186965942 0.038759708404541016
0.12746557593345642 0.7364341020584106 0.02325582504272461
0.12197151780128479 0.751937985420227 0.02325582504272461
0.13129699230194092 0.7674418687820435 0.007751941680908203
0.11701570451259613 0.7674418687820435 0.02325582504272461
0.12259165942668915 0.7829457521438599 0.007751941680908203
0.13037890195846558 0.7984496355056763 -0.007751941680908203
0.11751589924097061 0.7984496355056763 0.007751941215246916
0.11685213446617126 0.8139535188674927 -0.08527129143476486
0.12523511052131653 0.8139535188674927 -0.007751941680908203
0.1188461109995842 0.8294574022293091 -0.08527129888534546
0.12802350521087646 0.8294574022293091 -0.06976741552352905
0.12356939911842346 0.8294574022293091 -0.007751941680908203
0.11776827275753021 0.8449612855911255 -0.08527129888534546
0.12412948906421661 0.8449612855911255 -0.06976741552352905
0.12233559787273407 0.8449612855911255 -0.007751941680908203
0.11658673733472824 0.8604651689529419 -0.08527129888534546
0.12149116396903992 0.8604651689529419 -0.06976741552352905
0.12051327526569366 0.8604651689529419 -0.007751941680908203
0.12007655948400497 0.8759689331054688 -0.06976741552352905
0.13095401227474213 0.8759689331054688 -0.02325582504272461
0.11749511957168579 0.8759689927101135 -0.00775194214656949
0.12095644325017929 0.8914728164672852 -0.06976741552352905
0.1277380734682083 0.8914728164672852 -0.02325582504272461
0.11765330284833908 0.9069766998291016 -0.06976741552352905
0.126265287399292 0.9069766998291016 -0.05426359176635742
0.1284017562866211 0.9069766998291016 -0.038759708404541016
0.11992994695901871 0.9069766998291016 -0.02325582504272461
0.13352373242378235 -0.30232560634613037 -0.007751941680908203
0.13576757907867432 -0.10077518224716187 -0.02325582504272461
0.14112628996372223 -0.10077518224716187 0.007751941680908203
0.1410515457391739 -0.08527129888534546 -0.038759708404541016
0.13304337859153748 -0.06976741552352905 0.02325582504272461
0.13978734612464905 -0.05426359176635742 -0.038759708404541016
0.13418027758598328 -0.05426359549164772 0.02325582504272461
0.13208113610744476 -0.038759708404541016 -0.038759708404541016
0.13597680628299713 -0.038759708404541016 0.02325582504272461
0.13641367852687836 -0.02325582504272461 -0.038759708404541016
0.13623198866844177 -0.02325582504272461 0.02325582504272461
0.1394881308078766 -0.007751941680908203 -0.038759708404541016
0.13595478236675262 -0.007751941680908203 0.02325582504272461
0.1392359435558319 0.007751941680908203 -0.02325582504272461
0.13665132224559784 0.007751941680908203 0.02325582504272461
0.13512733578681946 0.02325582504272461 -0.00775194214656949
0.1420912742614746 0.02325582504272461 0.007751941680908203
0.13698595762252808 0.02325582504272461 0.02325582504272461
0.1374073326587677 0.038759708404541016 -0.007751941215246916
0.14636512100696564 0.038759708404541016 0.007751941680908203
0.13783396780490875 0.038759708404541016 0.02325582504272461
0.1336849480867386 0.05426359176635742 -0.02325582504272461
0.1383209526538849 0.05426359176635742 0.02325582504272461
0.14027024805545807 0.06976747512817383 -0.02325582504272461
0.14043548703193665 0.06976747512817383 0.02325582504272461
0.13808470964431763 0.08527135848999023 -0.038759708404541016
0.1411779820919037 0.08527135848999023 0.02325582504272461
0.14027437567710876 0.10077524185180664 0.02325582504272461
0.1390874683856964 0.11627912521362305 -0.05426359176635742
0.13767749071121216 0.11627913266420364 0.02325582504272461
0.13605321943759918 0.1317828893661499 -0.05426359176635742
0.13479657471179962 0.1317828893661499 0.02325582504272461
0.14567941427230835 0.17829453945159912 -0.038759708404541016
0.1405600756406784 0.19379842281341553 0.007751941680908203
0.14312225580215454 0.20930230617523193 -0.007751941680908203
0.13857166469097137 0.3488372564315796 -0.007751941680908203
0.13390538096427917 0.364341139793396 -0.02325582504272461
0.1335306465625763 0.364341139793396 -0.007751941680908203
0.13226088881492615 0.5038759708404541 0.02325582504272461
0.14383451640605927 0.5193798542022705 -0.038759708404541016
0.14459915459156036 0.5193798542022705 0.02325582504272461
0.13633237779140472 0.5348837375640869 -0.05426359176635742
0.13281558454036713 0.5348837375640869 0.038759708404541016
0.1336309313774109 0.5503876209259033 0.038759708404541016
0.132905513048172 0.5658915042877197 0.038759712129831314
0.14727520942687988 0.5813953876495361 0.02325582504272461
0.14229607582092285 0.5968992710113525 0.02325582504272461
0.13821710646152496 0.612403154373169 0.02325582504272461
0.14054851233959198 0.6279069185256958 -0.05426359176635742
0.13420388102531433 0.6279069185256958 0.02325582504272461
0.13539427518844604 0.6434108018875122 -0.05426359176635742
0.14121699333190918 0.6589146852493286 -0.05426359176635742
0.13213296234607697 0.674418568611145 0.02325582504272461
0.13828030228614807 0.6899224519729614 -0.06976741552352905
0.13393722474575043 0.6899224519729614 0.02325582690536976
0.1341114640235901 0.7054263353347778 0.02325582504272461
0.1320808082818985 0.7209301590919495 0.02325582504272461
0.14314869046211243 0.7364341020584106 0.007751941680908203
0.13759386539459229 0.751937985420227 0.007751941680908203
0.14392606914043427 0.7674418687820435 -0.06976741552352905
0.14201103150844574 0.7674418687820435 -0.007751941680908203
0.14435742795467377 0.7829457521438599 -0.06976741552352905
0.14444902539253235 0.7829457521438599 -0.02325582504272461
0.1354302614927292 0.7829457521438599 -0.00775194214656949
0.13560613989830017 0.7984496355056763 -0.06976741552352905
0.1428646445274353 0.7984496355056763 -0.05426359176635742
0.14331813156604767 0.7984496355056763 -0.038759708404541016
0.13836845755577087 0.7984496355056763 -0.02325582504272461
0.13217949867248535 0.8139535784721375 -0.06976741552352905
0.13453218340873718 0.8139535188674927 -0.05426359176635742
0.13807907700538635 0.8139535188674927 -0.038759708404541016
0.13551092147827148 0.8139535188674927 -0.02325582504272461
0.13318291306495667 0.8294574022293091 -0.05426359176635742
0.13712789118289948 0.8294574022293091 -0.038759708404541016
0.1350165456533432 0.8294574022293091 -0.02325582504272461
0.13320526480674744 0.8449612855911255 -0.05426359176635742
0.13944599032402039 0.8449612855911255 -0.038759708404541016
0.13531145453453064 0.8449612855911255 -0.02325582504272461
0.13274675607681274 0.8604651689529419 -0.05426359176635742
0.13967415690422058 0.8604651689529419 -0.038759708404541016
0.1339704692363739 0.8604651689529419 -0.02325582504272461
0.13266493380069733 0.875968873500824 -0.05426359176635742
0.14040973782539368 0.8759689331054688 -0.038759708404541016
0.14539308845996857 0.8914728164672852 -0.05426359176635742
0.1417635679244995 0.8914728164672852 -0.038759708404541016
0.14253248274326324 0.9069766998291016 -0.08527129888534546
0.16248087584972382 -0.751937985420227 -0.08527129888534546
0.14835309982299805 -0.28682172298431396 -0.007751941215246916
0.14938300848007202 -0.27131783962249756 -0.007751941215246916
0.16251206398010254 -0.13178294897079468 -0.007751941680908203
0.14740592241287231 -0.10077518224716187 -0.007751941680908203
0.15052030980587006 -0.08527129888534546 0.007751941680908203
0.15475912392139435 -0.06976741552352905 -0.038759708404541016
0.1517021209001541 -0.06976741552352905 0.007751941680908203
0.157396599650383 -0.05426359176635742 -0.02325582504272461
0.15041504800319672 -0.05426359176635742 0.007751941680908203
0.1486373245716095 -0.038759708404541016 -0.02325582504272461
0.1568809151649475 -0.038759708404541016 -0.007751941680908203
0.15090203285217285 -0.038759708404541016 0.007751941680908203
0.15137481689453125 -0.02325582504272461 -0.02325582504272461
0.15381810069084167 -0.02325582504272461 0.007751941680908203
0.15284299850463867 -0.007751941680908203 -0.02325582504272461
0.15999774634838104 -0.007751941680908203 -0.007751941680908203
0.1522882580757141 -0.007751941680908203 0.007751941680908203
0.1488308310508728 0.007751941680908203 -0.007751941680908203
0.14832213521003723 0.007751941680908203 0.007751941680908203
0.14735901355743408 0.05426359176635742 -0.007751941680908203
0.1492154896259308 0.05426359549164772 0.007751941680908203
0.1495458334684372 0.06976747512817383 -0.007751941680908203
0.15136577188968658 0.06976747512817383 0.007751941680908203
0.15444016456604004 0.08527135848999023 -0.02325582504272461
0.16201113164424896 0.08527135848999023 0.007751941680908203
0.15757763385772705 0.11627912521362305 0.007751941680908203
0.15322288870811462 0.1317828893661499 0.007751941680908203
0.1514485627412796 0.1472867727279663 0.007751941680908203
