-0.007751941680908203 -0.5813953876495361 -0.05726572871208191
-0.007751941680908203 -0.5813953876495361 0.07847140729427338
-0.007751941680908203 -0.5658915042877197 -0.05871408432722092
-0.007751941680908203 -0.5658915042877197 0.07974827289581299
-0.007751941680908203 -0.5503876209259033 -0.05909934639930725
-0.007751941680908203 -0.5503876209259033 0.08228389173746109
-0.007751941680908203 -0.5348837375640869 -0.05916295200586319
-0.00775194214656949 -0.5348837375640869 0.08548138290643692
-0.007751941680908203 -0.5193798542022705 -0.05868875980377197
-0.007751941680908203 -0.5193798542022705 0.08746850490570068
-0.007751941680908203 -0.5038759708404541 -0.05585627630352974
-0.007751941215246916 -0.5038759708404541 0.09033583104610443
-0.007751941215246916 -0.4883720874786377 -0.051658183336257935
-0.007751941680908203 -0.4883720874786377 0.09328268468379974
-0.007751941680908203 -0.4728682041168213 -0.05196068435907364
-0.007751941680908203 -0.4728682041168213 0.09670959413051605
-0.007751941680908203 -0.4573643207550049 -0.055080000311136246
-0.007751941680908203 -0.4573643207550049 0.09929482638835907
-0.007751941680908203 -0.4418604373931885 -0.05612502247095108
-0.007751941680908203 -0.4418604373931885 0.10091625154018402
-0.007751941680908203 -0.42635661363601685 -0.056820377707481384
-0.007751941680908203 -0.42635664343833923 0.10135261714458466
-0.007751941680908203 -0.41085273027420044 -0.05830809473991394
-0.007751941215246916 -0.41085273027420044 0.10168644040822983
-0.007751941680908203 -0.39534884691238403 -0.06043194234371185
-0.00775194214656949 -0.39534884691238403 0.10186685621738434
-0.007751941680908203 -0.3798449635505676 -0.06415554136037827
-0.007751941680908203 -0.3798449635505676 0.10210967063903809
-0.007751941680908203 -0.3643410801887512 -0.06844636797904968
-0.007751941680908203 -0.3643410801887512 0.10237422585487366
-0.007751941680908203 -0.3488371968269348 -0.06991796940565109
-0.007751941680908203 -0.3488371968269348 0.10263121873140335
-0.007751941680908203 -0.3333333134651184 -0.07097592204809189
-0.007751941680908203 -0.3333333134651184 0.1029614582657814
-0.007751941680908203 -0.317829430103302 -0.07268072664737701
-0.007751941680908203 -0.317829430103302 0.10340538620948792
-0.007751941680908203 -0.30232560634613037 -0.07462316751480103
-0.007751941680908203 -0.30232560634613037 0.10383076965808868
-0.007751941680908203 -0.28682172298431396 -0.07746951282024384
-0.007751941680908203 -0.28682172298431396 0.10415049642324448
-0.007751941680908203 -0.27131783962249756 -0.079941026866436
-0.007751941680908203 -0.27131783962249756 0.10420715063810349
-0.007751941680908203 -0.25581395626068115 -0.08173678070306778
-0.007751941680908203 -0.25581395626068115 0.10409165173768997
-0.007751941680908203 -0.24031007289886475 -0.08264850080013275
-0.007751941680908203 -0.24031007289886475 0.10378348082304001
-0.00775194214656949 -0.22480618953704834 -0.0825132429599762
-0.00775194214656949 -0.22480618953704834 0.10322247445583344
-0.007751941680908203 -0.20930230617523193 -0.08211350440979004
-0.007751941680908203 -0.20930230617523193 0.1023574098944664
-0.007751941680908203 -0.19379842281341553 -0.08217302709817886
-0.007751941680908203 -0.19379842281341553 0.10151072591543198
-0.007751941680908203 -0.1782945990562439 -0.08247128874063492
-0.007751941680908203 -0.1782945990562439 0.10060907155275345
-0.007751941680908203 -0.1627907156944275 -0.0828041136264801
-0.007751941680908203 -0.1627907156944275 0.09868062287569046
-0.007751941215246916 -0.14728683233261108 -0.08335473388433456
-0.007751941680908203 -0.14728683233261108 0.09743711352348328
-0.007751941680908203 -0.13178294897079468 -0.08423469215631485
-0.007751941680908203 -0.13178294897079468 0.09678993374109268
-0.007751941680908203 -0.11627906560897827 -0.08530884981155396
-0.007751941680908203 -0.11627906560897827 0.09666774421930313
-0.007751941680908203 -0.10077518224716187 -0.08594129979610443
-0.007751941680908203 -0.10077518224716187 0.09653232246637344
-0.007751941680908203 -0.08527129888534546 -0.08661474287509918
-0.007751941680908203 -0.08527129888534546 0.09591636061668396
-0.007751941680908203 -0.06976741552352905 -0.08734569698572159
-0.007751941680908203 -0.06976741552352905 0.0944586992263794
-0.007751941680908203 -0.05426359176635742 -0.08822287619113922
-0.00775194214656949 -0.05426359176635742 0.09253184497356415
-0.007751941680908203 -0.038759708404541016 -0.08868823945522308
-0.007751941680908203 -0.038759708404541016 0.09008581191301346
-0.007751941680908203 -0.02325582504272461 -0.08877734839916229
-0.007751941215246916 -0.02325582318007946 0.0870693102478981
-0.007751941680908203 -0.007751941680908203 -0.08856932073831558
-0.007751941680908203 -0.007751941680908203 0.08247304707765579
-0.007751941680908203 0.007751941680908203 -0.08842635154724121
-0.007751941680908203 0.007751941680908203 0.07809902727603912
-0.007751941680908203 0.02325582504272461 -0.08822698146104813
-0.007751941680908203 0.02325582504272461 0.0758214145898819
-0.007751941680908203 0.038759708404541016 -0.08831864595413208
-0.007751941680908203 0.038759708404541016 0.07427215576171875
-0.007751941680908203 0.05426359176635742 -0.08854922652244568
-0.007751941680908203 0.05426359176635742 0.07355373352766037
-0.007751941680908203 0.06976747512817383 -0.08867435157299042
-0.007751941680908203 0.06976747512817383 0.07333420217037201
-0.007751941680908203 0.08527135848999023 -0.08864995837211609
-0.007751941680908203 0.08527135848999023 0.07311481237411499
-0.007751941680908203 0.10077524185180664 -0.08840533345937729
-0.007751941680908203 0.10077524185180664 0.07246305048465729
-0.007751941680908203 0.11627912521362305 -0.08816026896238327
-0.007751941680908203 0.11627912521362305 0.07102891057729721
-0.007751941680908203 0.1317828893661499 -0.08835921436548233
-0.007751941680908203 0.1317828893661499 0.06763522326946259
-0.007751941680908203 0.1472867727279663 -0.08852293342351913
-0.007751941680908203 0.1472867727279663 0.06254409998655319
-0.007751941680908203 0.16279065608978271 -0.08804506063461304
-0.007751941680908203 0.16279065608978271 0.058320313692092896
-0.007751941680908203 0.17829453945159912 -0.08680599182844162
-0.007751941680908203 0.17829453945159912 0.05114038288593292
-0.007751941680908203 0.19379842281341553 -0.08448894321918488
-0.007751941680908203 0.19379842281341553 0.04082474112510681
-0.007751941680908203 0.20930230617523193 -0.08120650798082352
-0.007751941680908203 0.20930230617523193 0.02616272121667862
-0.007751941680908203 0.22480618953704834 -0.07675999402999878
-0.007751941680908203 0.22480618953704834 0.013923106715083122
-0.007751941680908203 0.24031007289886475 -0.07372206449508667
-0.007751941680908203 0.24031007289886475 0.006631476804614067
-0.007751941680908203 0.25581395626068115 -0.07375772297382355
-0.007751941680908203 0.25581395626068115 0.0014964062720537186
-0.007751941680908203 0.27131783962249756 -0.07545149326324463
-0.007751941680908203 0.27131783962249756 0.0017331968992948532
-0.007751941680908203 0.28682172298431396 -0.07591637969017029
-0.007751941680908203 0.28682172298431396 0.008175182156264782
-0.007751941680908203 0.30232560634613037 -0.07570286840200424
-0.00775194214656949 0.30232560634613037 0.012316113337874413
-0.007751941680908203 0.3178294897079468 -0.0750650018453598
-0.007751941680908203 0.3178294897079468 0.018153663724660873
-0.007751941680908203 0.3333333730697632 -0.07439996302127838
-0.007751941680908203 0.3333333730697632 0.024671267718076706
-0.007751941680908203 0.3488372564315796 -0.07301683723926544
-0.007751941215246916 0.3488372564315796 0.028384795412421227
-0.007751941680908203 0.364341139793396 -0.07095897942781448
-0.007751941680908203 0.364341139793396 0.03117619827389717
-0.007751941680908203 0.37984490394592285 -0.06746286153793335
-0.007751941680908203 0.37984490394592285 0.03352139890193939
-0.007751941680908203 0.39534878730773926 -0.06392057985067368
-0.007751941680908203 0.39534878730773926 0.03608596697449684
-0.007751941680908203 0.41085267066955566 -0.062342993915081024
-0.007751941680908203 0.4108526408672333 0.03933609277009964
-0.007751941680908203 0.42635655403137207 -0.0620247945189476
-0.007751941680908203 0.42635655403137207 0.04182599112391472
-0.007751941680908203 0.4418604373931885 -0.06288497149944305
-0.007751941680908203 0.4418604373931885 0.04525613784790039
-0.007751941680908203 0.4573643207550049 -0.06510871648788452
-0.007751941680908203 0.4573643207550049 0.04967177286744118
-0.007751941680908203 0.4728682041168213 -0.07005690038204193
-0.007751941680908203 0.4728682041168213 0.054593753069639206
-0.007751941680908203 0.4883720874786377 -0.0716535821557045
-0.007751941680908203 0.4883720874786377 0.057179298251867294
-0.007751941680908203 0.5038759708404541 -0.0726635679602623
-0.007751941680908203 0.5038759708404541 0.059396833181381226
-0.007751941680908203 0.5193798542022705 -0.07339353859424591
-0.007751941680908203 0.5193798542022705 0.061835795640945435
-0.007751941680908203 0.5348837375640869 -0.07336485385894775
-0.007751941680908203 0.5348837375640869 0.06487753242254257
-0.007751941680908203 0.5503876209259033 -0.07218651473522186
-0.007751941680908203 0.5503876209259033 0.06798328459262848
-0.007751941680908203 0.5658915042877197 -0.07038472592830658
-0.007751941680908203 0.5658915638923645 0.0700029656291008
-0.007751941680908203 0.5813953876495361 -0.06573159247636795
-0.007751941680908203 0.5813954472541809 0.07035334408283234
-0.007751941680908203 0.5968992710113525 -0.061592794954776764
-0.007751941680908203 0.5968992710113525 0.07037496566772461
-0.007751941680908203 0.612403154373169 -0.05881286412477493
-0.007751941680908203 0.612403154373169 0.07056738436222076
-0.007751941680908203 0.6279069185256958 -0.056237298995256424
-0.007751941680908203 0.6279069185256958 0.07072839140892029
-0.007751941680908203 0.6434108018875122 -0.05432627350091934
-0.007751941215246916 0.6434108018875122 0.07091092318296432
-0.007751941680908203 0.6589146852493286 -0.048295870423316956
-0.007751941680908203 0.6589146852493286 0.07107363641262054
-0.007751941680908203 0.674418568611145 -0.04543227702379227
-0.007751941680908203 0.674418568611145 0.07108642905950546
-0.007751941680908203 0.6899224519729614 -0.0438222661614418
-0.007751941680908203 0.6899224519729614 0.07103968411684036
-0.007751941680908203 0.7054263353347778 -0.042385414242744446
-0.007751941680908203 0.7054263353347778 0.07096333801746368
-0.007751941680908203 0.7209302186965942 -0.0417570061981678
-0.007751941680908203 0.720930278301239 0.07083354890346527
-0.007751941680908203 0.7364341020584106 -0.04179858788847923
-0.007751941680908203 0.7364341020584106 0.0706954300403595
-0.007751941680908203 0.751937985420227 -0.04149141162633896
-0.007751941680908203 0.751937985420227 0.07034191489219666
-0.007751941680908203 0.7674418687820435 -0.040655966848134995
-0.007751941680908203 0.7674418687820435 0.06988387554883957
-0.007751941680908203 0.7829457521438599 -0.04014894738793373
-0.007751941680908203 0.7829457521438599 0.06848675012588501
-0.007751941680908203 0.7984496355056763 -0.04030540585517883
-0.007751941680908203 0.7984496355056763 0.06666609644889832
-0.007751941680908203 0.8139535188674927 -0.0413786917924881
-0.007751941680908203 0.8139535188674927 0.06433799862861633
-0.007751941680908203 0.8294574022293091 -0.04363534227013588
-0.007751941680908203 0.8294574022293091 0.05964919924736023
-0.007751941680908203 0.8449612855911255 -0.04667474329471588
-0.007751941680908203 0.8449612855911255 0.05241710692644119
-0.007751941680908203 0.8604651689529419 -0.05430116876959801
-0.007751941680908203 0.8604651689529419 0.040907733142375946
-0.007751941680908203 0.8759689331054688 -0.055966489017009735
-0.007751941680908203 0.8759689331054688 0.027434226125478745
-0.007751941680908203 0.8914728164672852 -0.05673789232969284
-0.007751941680908203 0.8914728164672852 0.013124704360961914
-0.007751941680908203 0.9069766998291016 -0.05778712406754494
-0.007751941215246916 0.9069766402244568 -0.0035836161114275455
-0.007751941680908203 0.922480583190918 -0.05861731618642807
-0.007751941680908203 0.922480583190918 -0.021214287728071213
-0.007751941680908203 0.9379844665527344 -0.057921793311834335
-0.007751941680908203 0.9379844665527344 -0.03590802848339081
-0.007751941680908203 0.9534883499145508 -0.05762183666229248
-0.007751941680908203 0.9534883499145508 -0.05018986761569977
-0.007751941680908203 0.9689922332763672 -0.05954995006322861
-0.007751941680908203 0.9689922332763672 -0.05165847763419151
-0.007751941680908203 0.9844961166381836 -0.056490007787942886
-0.00775194214656949 0.9844961166381836 -0.05363617092370987
0.007751941680908203 -0.8604651093482971 -0.00959731824696064
0.007751941680908203 -0.8604651093482971 -0.007531994022428989
0.007751941680908203 -0.8449611663818359 -0.01800946332514286
0.007751941680908203 -0.8449612259864807 -0.004013797268271446
0.007751941215246916 -0.8294573426246643 -0.017933953553438187
0.007751941680908203 -0.8294573426246643 0.0011163048911839724
0.007751941680908203 -0.8139535188674927 -0.012803992256522179
0.007751941680908203 -0.8139535188674927 0.009460557252168655
0.007751941680908203 -0.7984496355056763 -0.009048711508512497
0.007751941680908203 -0.7984496355056763 0.01359499804675579
0.007751941215246916 -0.7829456925392151 -0.007634127978235483
0.007751941680908203 -0.7829457521438599 0.024681080132722855
0.007751941680908203 -0.7674418687820435 -0.009430883452296257
0.007751941680908203 -0.7674418687820435 0.0299178808927536
0.007751941680908203 -0.751937985420227 -0.023518620058894157
0.007751941680908203 -0.751937985420227 0.040551863610744476
0.007751941680908203 -0.7364341020584106 -0.04045773670077324
0.007751941680908203 -0.7364341020584106 0.04676894471049309
0.007751941680908203 -0.7209302186965942 -0.04629726707935333
0.007751941680908203 -0.7209302186965942 0.056043464690446854
0.007751941680908203 -0.7054263353347778 -0.050400249660015106
0.007751941680908203 -0.7054263353347778 0.06193883344531059
0.007751941680908203 -0.6899224519729614 -0.05231113359332085
0.007751941680908203 -0.6899224519729614 0.07003147900104523
0.007751941680908203 -0.674418568611145 -0.05681617185473442
0.007751941680908203 -0.674418568611145 0.07355974614620209
0.007751941680908203 -0.6589146852493286 -0.0628456175327301
0.007751941680908203 -0.6589146852493286 0.07667851448059082
0.007751941680908203 -0.643410861492157 -0.06571842730045319
0.007751941680908203 -0.643410861492157 0.07964034378528595
0.007751941680908203 -0.6279069781303406 -0.06421596556901932
0.007751941680908203 -0.6279069781303406 0.08179375529289246
0.007751941680908203 -0.6124030947685242 -0.06045638769865036
0.007751941680908203 -0.6124030947685242 0.08225560933351517
0.007751941680908203 -0.596899151802063 -0.056237705051898956
0.007751941680908203 -0.5968992114067078 0.08166690915822983
0.007751941680908203 -0.5813953876495361 -0.05693244934082031
0.007751941680908203 -0.5813953876495361 0.08133513480424881
0.007751941680908203 -0.5658915042877197 -0.058620817959308624
0.007751941680908203 -0.5658915042877197 0.08225767314434052
0.007751941680908203 -0.5503876209259033 -0.05919438600540161
0.007751941680908203 -0.5503876209259033 0.08467186987400055
0.007751941680908203 -0.5348837375640869 -0.059342872351408005
0.007751941680908203 -0.5348837375640869 0.08638876676559448
0.007751941680908203 -0.5193798542022705 -0.05897142365574837
0.007751941680908203 -0.5193798542022705 0.08868534117937088
0.007751941680908203 -0.5038759708404541 -0.05610354244709015
0.007751941680908203 -0.5038759708404541 0.09129637479782104
0.00775194214656949 -0.4883720874786377 -0.05307826027274132
0.007751941680908203 -0.4883720874786377 0.09453779458999634
0.007751941215246916 -0.4728682041168213 -0.052654705941677094
0.007751941680908203 -0.4728682041168213 0.09785039722919464
0.007751941680908203 -0.4573643207550049 -0.05512729287147522
0.007751941680908203 -0.4573643207550049 0.10039585828781128
0.007751941680908203 -0.4418604373931885 -0.05607689917087555
0.007751941680908203 -0.4418604373931885 0.10131921619176865
0.007751941680908203 -0.42635661363601685 -0.0567290335893631
0.007751941680908203 -0.42635661363601685 0.10180962830781937
0.007751941680908203 -0.41085273027420044 -0.05826917663216591
0.007751941680908203 -0.41085273027420044 0.10218352824449539
0.007751941680908203 -0.39534884691238403 -0.06063240393996239
0.007751941680908203 -0.39534884691238403 0.1023983359336853
0.007751941680908203 -0.3798449635505676 -0.06457743793725967
0.00775194214656949 -0.3798449635505676 0.10265202820301056
0.007751941680908203 -0.3643410801887512 -0.06893299520015717
0.007751941680908203 -0.3643410801887512 0.1028832271695137
0.007751941680908203 -0.3488371968269348 -0.07031930983066559
0.007751941680908203 -0.3488372266292572 0.10310737043619156
0.007751941680908203 -0.3333333134651184 -0.07160322368144989
0.007751941680908203 -0.333333283662796 0.10339854657649994
0.007751941680908203 -0.317829430103302 -0.0732678472995758
0.007751941680908203 -0.317829430103302 0.10378482937812805
0.007751941680908203 -0.30232560634613037 -0.07513540238142014
0.007751941680908203 -0.30232560634613037 0.10414443910121918
0.007751941215246916 -0.28682172298431396 -0.07797174900770187
0.007751941680908203 -0.28682172298431396 0.1044432669878006
0.007751941680908203 -0.27131783962249756 -0.0802176371216774
0.007751941680908203 -0.27131783962249756 0.104544997215271
0.007751941680908203 -0.25581395626068115 -0.08168003708124161
0.007751941680908203 -0.25581395626068115 0.10450965166091919
0.007751941680908203 -0.24031008780002594 -0.082288458943367
0.007751941680908203 -0.24031007289886475 0.10424058139324188
0.007751941680908203 -0.22480618953704834 -0.08202464133501053
0.007751941680908203 -0.22480618953704834 0.10365036129951477
0.007751941680908203 -0.20930230617523193 -0.08175565302371979
0.007751941680908203 -0.20930230617523193 0.1027117520570755
0.00775194214656949 -0.19379842281341553 -0.08198525011539459
0.007751941680908203 -0.19379842281341553 0.10179425776004791
0.007751941680908203 -0.1782945990562439 -0.08233257383108139
0.007751941680908203 -0.1782945990562439 0.10094919800758362
0.007751941680908203 -0.1627907156944275 -0.08271182328462601
0.007751941680908203 -0.1627907156944275 0.09915892034769058
0.007751941680908203 -0.1472868174314499 -0.08318214118480682
0.007751941680908203 -0.14728683233261108 0.09775416553020477
0.007751941680908203 -0.13178294897079468 -0.08392894268035889
0.007751941680908203 -0.13178294897079468 0.09698505699634552
0.007751941680908203 -0.11627906560897827 -0.08517925441265106
0.007751941680908203 -0.11627906560897827 0.09680633246898651
0.007751941680908203 -0.10077518224716187 -0.08597645908594131
0.007751941680908203 -0.10077518224716187 0.09670152515172958
0.007751941680908203 -0.08527129888534546 -0.08665531128644943
0.007751941680908203 -0.08527129888534546 0.09607283771038055
0.007751941680908203 -0.06976741552352905 -0.08724679052829742
0.007751941680908203 -0.06976741552352905 0.09456592798233032
0.007751941680908203 -0.05426359176635742 -0.08800303936004639
0.00775194214656949 -0.05426359176635742 0.0925554484128952
0.007751941680908203 -0.038759708404541016 -0.08841317892074585
0.007751941680908203 -0.038759708404541016 0.09010107815265656
0.007751941680908203 -0.02325582504272461 -0.08850281685590744
0.007751941680908203 -0.02325582504272461 0.08706259727478027
0.007751941680908203 -0.007751941680908203 -0.08832645416259766
0.007751941680908203 -0.007751941680908203 0.0824315994977951
0.007751941680908203 0.007751941680908203 -0.08818140625953674
0.007751941680908203 0.007751941680908203 0.0780324637889862
0.007751941680908203 0.02325582504272461 -0.08803533017635345
0.007751941680908203 0.02325582504272461 0.07575029134750366
0.007751941680908203 0.038759708404541016 -0.08817418664693832
0.007751941680908203 0.038759708404541016 0.07419103384017944
0.007751941680908203 0.05426359176635742 -0.08839548379182816
0.007751941680908203 0.05426359176635742 0.0734274759888649
0.007751941680908203 0.06976747512817383 -0.08849284052848816
0.007751941215246916 0.06976747512817383 0.07315076887607574
0.007751941680908203 0.08527135848999023 -0.08822335302829742
0.007751941680908203 0.08527135848999023 0.07289478927850723
0.007751941680908203 0.10077524185180664 -0.08778390288352966
0.007751941680908203 0.10077524185180664 0.07219113409519196
0.007751941680908203 0.11627912521362305 -0.08757617324590683
0.00775194214656949 0.11627912521362305 0.07069529592990875
0.007751941680908203 0.1317828893661499 -0.08791172504425049
0.007751941680908203 0.1317828893661499 0.06664271652698517
0.007751941680908203 0.1472867727279663 -0.08843495696783066
0.007751941680908203 0.1472867727279663 0.06198738515377045
0.007751941680908203 0.16279065608978271 -0.08834005892276764
0.007751941680908203 0.16279065608978271 0.05780778080224991
0.007751941680908203 0.17829453945159912 -0.08728010952472687
0.007751941680908203 0.17829453945159912 0.049939338117837906
0.007751941680908203 0.19379842281341553 -0.08509331941604614
0.007751941680908203 0.19379842281341553 0.0402761772274971
0.007751941680908203 0.20930230617523193 -0.08177074790000916
0.007751941680908203 0.20930230617523193 0.025728590786457062
0.007751941680908203 0.22480618953704834 -0.07772170007228851
0.007751941680908203 0.22480618953704834 0.013377068564295769
0.007751941680908203 0.24031007289886475 -0.07510735094547272
0.007751941680908203 0.24031007289886475 0.005798647180199623
0.007751941680908203 0.25581395626068115 -0.07572689652442932
0.007751941680908203 0.25581395626068115 -0.0002901724074035883
0.007751941680908203 0.27131783962249756 -0.0773194432258606
0.007751941680908203 0.27131783962249756 -0.0021091753151267767
0.007751941680908203 0.28682172298431396 -0.07800896465778351
0.007751941680908203 0.28682172298431396 0.003317260881885886
0.007751941680908203 0.30232560634613037 -0.07774660736322403
0.007751941215246916 0.30232560634613037 0.010707366280257702
0.007751941680908203 0.3178294897079468 -0.07692851126194
0.007751941680908203 0.3178294897079468 0.017213569954037666
0.007751941680908203 0.3333333730697632 -0.07617615908384323
0.007751941680908203 0.33333340287208557 0.024630043655633926
0.007751941680908203 0.3488372564315796 -0.07516096532344818
0.007751941680908203 0.3488372564315796 0.028548218309879303
0.007751941680908203 0.364341139793396 -0.07349170744419098
0.007751941680908203 0.364341139793396 0.03158799558877945
0.007751941680908203 0.37984490394592285 -0.07152508199214935
0.007751941680908203 0.37984490394592285 0.03460027277469635
0.007751941680908203 0.39534878730773926 -0.06993896514177322
0.007751941680908203 0.39534878730773926 0.03776024654507637
0.007751941680908203 0.41085267066955566 -0.06724540889263153
0.007751941680908203 0.41085267066955566 0.04012608528137207
0.007751941680908203 0.42635655403137207 -0.06671442836523056
0.007751941680908203 0.42635655403137207 0.042670849710702896
0.007751941680908203 0.44186046719551086 -0.06839080899953842
0.007751941680908203 0.4418604373931885 0.045727819204330444
0.007751941680908203 0.4573643207550049 -0.07060040533542633
0.007751941680908203 0.4573643207550049 0.049787115305662155
0.007751941680908203 0.4728682041168213 -0.07263417541980743
0.007751941680908203 0.4728682339191437 0.054713379591703415
0.007751941680908203 0.4883720874786377 -0.07428787648677826
0.007751941680908203 0.4883720874786377 0.057297233492136
0.007751941680908203 0.5038759708404541 -0.07514946162700653
0.007751941680908203 0.5038759708404541 0.05952741205692291
0.007751941680908203 0.5193798542022705 -0.07579457759857178
0.007751941680908203 0.5193798542022705 0.06202870234847069
0.007751941680908203 0.5348837375640869 -0.0759071409702301
0.007751941680908203 0.5348837375640869 0.06524347513914108
0.007751941680908203 0.5503876209259033 -0.07501715421676636
0.007751941680908203 0.5503876209259033 0.06858066469430923
0.007751941680908203 0.5658915042877197 -0.07317821681499481
0.007751941680908203 0.565891444683075 0.07030843198299408
0.007751941680908203 0.5813953876495361 -0.0707528293132782
0.007751941680908203 0.5813953876495361 0.07079599797725677
0.007751941680908203 0.5968992710113525 -0.06589657813310623
0.007751941215246916 0.5968992710113525 0.07084072381258011
0.007751941680908203 0.612403154373169 -0.06161538138985634
0.007751941680908203 0.612403154373169 0.07087806612253189
0.007751941680908203 0.6279069185256958 -0.05912622809410095
0.007751941680908203 0.6279069185256958 0.0708710104227066
0.007751941680908203 0.6434108018875122 -0.056655384600162506
0.007751941680908203 0.6434108018875122 0.07095798850059509
0.007751941680908203 0.6589146852493286 -0.05487678945064545
0.007751941680908203 0.6589146852493286 0.07113174349069595
0.007751941680908203 0.674418568611145 -0.05059446021914482
0.007751941680908203 0.674418568611145 0.07124537229537964
0.007751941680908203 0.6899224519729614 -0.046794191002845764
0.007751941680908203 0.6899224519729614 0.07130827009677887
0.007751941680908203 0.7054263353347778 -0.04554926976561546
0.007751941680908203 0.7054263353347778 0.07138016819953918
0.007751941680908203 0.7209302186965942 -0.04499384015798569
0.007751941680908203 0.7209302186965942 0.07144930213689804
0.007751941680908203 0.7364341020584106 -0.044941723346710205
0.007751941680908203 0.7364341020584106 0.07149100303649902
0.007751941680908203 0.751937985420227 -0.04466960206627846
0.007751941680908203 0.751937985420227 0.07125105708837509
0.007751941680908203 0.7674418687820435 -0.04398185387253761
0.007751941680908203 0.7674418687820435 0.0708063393831253
0.007751941680908203 0.7829457521438599 -0.04361691325902939
0.007751941680908203 0.7829457521438599 0.07036259770393372
0.007751941680908203 0.7984496355056763 -0.044276900589466095
0.00775194214656949 0.798449695110321 0.06981666386127472
0.007751941680908203 0.8139535188674927 -0.0462198406457901
0.007751941680908203 0.8139535188674927 0.06702744960784912
0.007751941680908203 0.8294574022293091 -0.05096452310681343
0.00775194214656949 0.8294574022293091 0.06132330745458603
0.007751941680908203 0.8449612855911255 -0.05493844300508499
0.007751941680908203 0.8449612855911255 0.05570244789123535
0.007751941680908203 0.8604651689529419 -0.05710942670702934
0.007751941680908203 0.8604651689529419 0.04423953592777252
0.007751941680908203 0.8759689331054688 -0.0591576024889946
0.007751941680908203 0.8759689331054688 0.0332304909825325
0.007751941680908203 0.8914728164672852 -0.05920872092247009
0.007751941680908203 0.8914728164672852 0.023429837077856064
0.007751941680908203 0.9069766998291016 -0.05953248590230942
0.007751941680908203 0.9069766998291016 0.0052980463951826096
0.007751941680908203 0.922480583190918 -0.059404660016298294
0.007751941680908203 0.922480583190918 -0.01890631765127182
0.007751941680908203 0.9379844665527344 -0.057656429708004
0.007751941680908203 0.9379844665527344 -0.035423483699560165
0.007751941680908203 0.9534883499145508 -0.0559450127184391
0.007751941680908203 0.9534883499145508 -0.05115320160984993
0.007751941680908203 0.9844961166381836 -0.05488038435578346
0.007751941680908203 0.9844961166381836 -0.05385545268654823
0.02325582504272461 -0.8759689927101135 -0.023859215900301933
0.02325582504272461 -0.8759689927101135 -0.02179054543375969
0.02325582504272461 -0.8604651093482971 -0.024499479681253433
0.02325582504272461 -0.8604651093482971 -0.006882443092763424
0.02325582504272461 -0.8449612259864807 -0.02375393733382225
0.02325582504272461 -0.8449611663818359 -0.002462641568854451
0.02325582504272461 -0.8294573426246643 -0.02347804605960846
0.02325582504272461 -0.8294573426246643 0.005858804099261761
0.02325582318007946 -0.8139535188674927 -0.02266133576631546
0.02325582504272461 -0.8139535188674927 0.01129661314189434
0.02325582504272461 -0.7984496355056763 -0.02059881202876568
0.02325582504272461 -0.7984496355056763 0.017619388177990913
0.02325582504272461 -0.7829457521438599 -0.019967133179306984
0.02325582504272461 -0.7829457521438599 0.026126403361558914
0.02325582318007946 -0.7674418091773987 -0.02051996812224388
0.02325582504272461 -0.7674418687820435 0.03191698342561722
0.02325582504272461 -0.751937985420227 -0.025243137031793594
0.02325582504272461 -0.751937985420227 0.040887150913476944
0.02325582504272461 -0.7364341020584106 -0.04195450618863106
0.02325582504272461 -0.7364341020584106 0.04672927409410477
0.02325582504272461 -0.7209302186965942 -0.04767731577157974
0.02325582504272461 -0.7209302186965942 0.05569160357117653
0.02325582504272461 -0.7054262757301331 -0.050153933465480804
0.02325582504272461 -0.7054263353347778 0.06116223335266113
0.02325582504272461 -0.6899224519729614 -0.047916579991579056
0.02325582504272461 -0.6899224519729614 0.0679284930229187
0.02325582504272461 -0.674418568611145 -0.05457550659775734
0.02325582504272461 -0.674418568611145 0.07194174826145172
0.02325582504272461 -0.6589146852493286 -0.05963810533285141
0.02325582504272461 -0.6589146852493286 0.07520073652267456
0.02325582504272461 -0.643410861492157 -0.06210647150874138
0.02325582504272461 -0.643410861492157 0.07742869853973389
0.02325582504272461 -0.6279069781303406 -0.061036668717861176
0.02325582504272461 -0.6279069781303406 0.07906023412942886
0.02325582504272461 -0.6124030947685242 -0.056991927325725555
0.02325582504272461 -0.6124030947685242 0.07906760275363922
0.02325582504272461 -0.5968992114067078 -0.05175746604800224
0.02325582504272461 -0.5968992114067078 0.07806892693042755
0.02325582504272461 -0.5813953876495361 -0.05462244153022766
0.02325582504272461 -0.5813953876495361 0.07739347964525223
0.02325582504272461 -0.5658915042877197 -0.056388936936855316
0.02325582504272461 -0.5658915042877197 0.0778559073805809
0.02325582504272461 -0.5503876209259033 -0.057751305401325226
0.02325582504272461 -0.5503876209259033 0.08017373085021973
0.02325582504272461 -0.5348837375640869 -0.057939719408750534
0.02325582504272461 -0.5348837375640869 0.08386462181806564
0.02325582504272461 -0.5193798542022705 -0.05652985721826553
0.02325582504272461 -0.5193798542022705 0.08651275187730789
0.02325582504272461 -0.5038759708404541 -0.05146969109773636
0.02325582504272461 -0.5038759708404541 0.08921551704406738
0.02325582504272461 -0.4883720874786377 -0.04537416249513626
0.02325582504272461 -0.4883720576763153 0.09212666004896164
0.02325582504272461 -0.4728682041168213 -0.04530983418226242
0.02325582504272461 -0.4728682041168213 0.09535162150859833
0.02325582504272461 -0.4573643207550049 -0.048349134624004364
0.02325582504272461 -0.4573643207550049 0.09826016426086426
0.02325582690536976 -0.4418604373931885 -0.05151180550456047
0.02325582504272461 -0.4418604373931885 0.10038687288761139
0.02325582504272461 -0.42635661363601685 -0.054056473076343536
0.02325582504272461 -0.42635658383369446 0.10109324753284454
0.02325582504272461 -0.41085273027420044 -0.055322904139757156
0.02325582504272461 -0.41085273027420044 0.10146141797304153
0.02325582504272461 -0.39534884691238403 -0.05701557919383049
0.02325582504272461 -0.3953488767147064 0.10171405971050262
0.02325582504272461 -0.3798449635505676 -0.06046377122402191
0.02325582504272461 -0.3798449635505676 0.10203151404857635
0.02325582504272461 -0.3643410801887512 -0.0640549436211586
0.02325582504272461 -0.3643410801887512 0.10232692956924438
0.02325582504272461 -0.3488371968269348 -0.06652598083019257
0.02325582504272461 -0.3488371968269348 0.10257265716791153
0.02325582504272461 -0.3333333134651184 -0.0697925016283989
0.02325582504272461 -0.3333333134651184 0.10286759585142136
0.02325582504272461 -0.317829430103302 -0.0707785040140152
0.02325582504272461 -0.317829430103302 0.10320834815502167
0.02325582504272461 -0.30232560634613037 -0.07219474017620087
0.02325582504272461 -0.30232560634613037 0.1034955084323883
0.02325582504272461 -0.28682172298431396 -0.07514476776123047
0.02325582504272461 -0.28682172298431396 0.10371885448694229
0.02325582504272461 -0.27131783962249756 -0.07839325815439224
0.02325582504272461 -0.27131783962249756 0.10376641154289246
0.02325582504272461 -0.25581395626068115 -0.08057747781276703
0.02325582504272461 -0.25581395626068115 0.10371489822864532
0.02325582504272461 -0.24031007289886475 -0.08129201829433441
0.02325582504272461 -0.24031007289886475 0.10339721292257309
0.02325582504272461 -0.22480620443820953 -0.08098975569009781
0.02325582504272461 -0.22480618953704834 0.10266129672527313
0.02325582504272461 -0.20930230617523193 -0.080763079226017
0.02325582504272461 -0.20930230617523193 0.10171423107385635
0.02325582318007946 -0.19379842281341553 -0.08095121383666992
0.02325582504272461 -0.19379842281341553 0.10092459619045258
0.02325582504272461 -0.1782945990562439 -0.08106280863285065
0.02325582504272461 -0.1782945990562439 0.09914111346006393
0.02325582504272461 -0.1627907156944275 -0.08129279315471649
0.02325582504272461 -0.1627907156944275 0.09705711901187897
0.02325582504272461 -0.14728683233261108 -0.081490658223629
0.02325582504272461 -0.14728683233261108 0.0953579694032669
0.02325582504272461 -0.13178294897079468 -0.08201035112142563
0.02325582504272461 -0.13178294897079468 0.09431778639554977
0.02325582504272461 -0.11627906560897827 -0.08346842229366302
0.02325582504272461 -0.11627906560897827 0.09405912458896637
0.02325582504272461 -0.10077518224716187 -0.08510790020227432
0.02325582504272461 -0.10077518224716187 0.09393666684627533
0.02325582504272461 -0.08527129888534546 -0.08585969358682632
0.02325582504272461 -0.08527129888534546 0.09340730309486389
0.02325582504272461 -0.06976741552352905 -0.0864248126745224
0.02325582504272461 -0.06976741552352905 0.09223887324333191
0.02325582504272461 -0.05426359176635742 -0.08712734282016754
0.02325582504272461 -0.05426359176635742 0.09062814712524414
0.02325582504272461 -0.038759708404541016 -0.08745120465755463
0.02325582504272461 -0.038759708404541016 0.08787213265895844
0.02325582504272461 -0.02325582504272461 -0.08751188963651657
0.02325582504272461 -0.02325582504272461 0.08465655893087387
0.02325582504272461 -0.007751941680908203 -0.0872887521982193
0.02325582504272461 -0.007751941680908203 0.07903166115283966
0.02325582504272461 0.007751941680908203 -0.08709363639354706
0.02325582504272461 0.007751941680908203 0.07568198442459106
0.02325582504272461 0.02325582504272461 -0.08705803006887436
0.02325582504272461 0.02325582504272461 0.07351537048816681
0.02325582504272461 0.038759708404541016 -0.08727748692035675
0.02325582504272461 0.038759708404541016 0.07190587371587753
0.02325582504272461 0.05426359176635742 -0.08756847679615021
0.02325582504272461 0.05426359549164772 0.07122921943664551
0.02325582504272461 0.06976747512817383 -0.08756273984909058
0.02325582504272461 0.06976747512817383 0.07100032269954681
0.02325582504272461 0.08527135848999023 -0.0871400535106659
0.02325582504272461 0.08527135848999023 0.0708259865641594
0.02325582504272461 0.10077524185180664 -0.08665752410888672
0.02325582504272461 0.10077524185180664 0.07020000368356705
0.02325582504272461 0.11627912521362305 -0.08646266162395477
0.02325582504272461 0.11627912521362305 0.06739981472492218
0.02325582504272461 0.1317828893661499 -0.08678487688302994
0.02325582504272461 0.1317828893661499 0.06303839385509491
0.02325582504272461 0.1472867727279663 -0.08749770373106003
0.02325582504272461 0.1472867727279663 0.0596584752202034
0.02325582504272461 0.16279065608978271 -0.08772925287485123
0.02325582504272461 0.16279065608978271 0.05535215511918068
0.02325582504272461 0.17829453945159912 -0.08658348023891449
0.02325582504272461 0.17829453945159912 0.04630569368600845
0.02325582504272461 0.19379842281341553 -0.08398653566837311
0.02325582504272461 0.19379842281341553 0.03573312610387802
0.02325582504272461 0.20930230617523193 -0.08034765720367432
0.02325582504272461 0.20930230617523193 0.021790023893117905
0.02325582504272461 0.22480618953704834 -0.07498227804899216
0.02325582318007946 0.22480618953704834 0.009493961930274963
0.02325582504272461 0.24031007289886475 -0.0715017095208168
0.02325582504272461 0.24031007289886475 0.0001319174189120531
0.02325582504272461 0.25581395626068115 -0.0724547952413559
0.02325582504272461 0.25581395626068115 -0.0034425801131874323
0.02325582504272461 0.27131783962249756 -0.07526622712612152
0.02325582504272461 0.27131783962249756 -0.0036343501415103674
0.02325582504272461 0.28682172298431396 -0.07590045034885406
0.02325582504272461 0.28682172298431396 0.0007449218537658453
0.02325582504272461 0.30232560634613037 -0.07556410133838654
0.02325582318007946 0.302325576543808 0.009330276399850845
0.02325582504272461 0.3178294897079468 -0.07421451061964035
0.02325582504272461 0.3178294897079468 0.013864134438335896
0.02325582504272461 0.3333333730697632 -0.07335832715034485
0.02325582504272461 0.3333333730697632 0.019507693126797676
0.02325582504272461 0.3488372564315796 -0.07246655225753784
0.02325582504272461 0.3488372564315796 0.02467057853937149
0.02325582504272461 0.364341139793396 -0.07110066711902618
0.02325582504272461 0.364341139793396 0.027362678200006485
0.02325582504272461 0.37984490394592285 -0.06954609602689743
0.02325582504272461 0.37984490394592285 0.028980612754821777
0.02325582504272461 0.39534878730773926 -0.06582488864660263
0.02325582504272461 0.39534878730773926 0.03096240758895874
0.02325582504272461 0.41085267066955566 -0.06415709853172302
0.02325582504272461 0.41085267066955566 0.035108309239149094
0.02325582504272461 0.42635655403137207 -0.0640888512134552
0.02325582504272461 0.42635655403137207 0.039342883974313736
0.02325582504272461 0.4418604373931885 -0.06532132625579834
0.02325582504272461 0.4418604373931885 0.04221381992101669
0.02325582504272461 0.4573643207550049 -0.06844441592693329
0.02325582504272461 0.4573643207550049 0.045174550265073776
0.02325582504272461 0.4728682041168213 -0.071286141872406
0.02325582504272461 0.4728682041168213 0.04940266162157059
0.02325582504272461 0.4883720874786377 -0.07288332283496857
0.02325582504272461 0.4883720874786377 0.054483164101839066
0.02325582504272461 0.5038759708404541 -0.07329525053501129
0.02325582504272461 0.5038759708404541 0.05658550560474396
0.02325582504272461 0.5193798542022705 -0.07398135215044022
0.02325582504272461 0.5193798542022705 0.05924589931964874
0.02325582504272461 0.5348837375640869 -0.07414399832487106
0.02325582504272461 0.5348837375640869 0.061491675674915314
0.02325582504272461 0.5503876209259033 -0.07315608859062195
0.02325582504272461 0.5503876209259033 0.06404942274093628
0.02325582504272461 0.5658915042877197 -0.07159510254859924
0.02325582504272461 0.5658915042877197 0.06593677401542664
0.02325582504272461 0.5813953876495361 -0.07005441188812256
0.02325582504272461 0.5813953876495361 0.06662662327289581
0.02325582504272461 0.5968992710113525 -0.06556105613708496
0.02325582504272461 0.5968992710113525 0.0665864571928978
0.02325582504272461 0.612403154373169 -0.061442211270332336
0.02325582504272461 0.612403154373169 0.06673131138086319
0.02325582504272461 0.6279069185256958 -0.058722272515296936
0.02325582504272461 0.6279069185256958 0.06693137437105179
0.02325582504272461 0.6434108018875122 -0.05602814629673958
0.02325582504272461 0.6434108018875122 0.0672454833984375
0.02325582504272461 0.6589146852493286 -0.05442303791642189
0.02325582504272461 0.6589146852493286 0.06775757670402527
0.02325582504272461 0.674418568611145 -0.049877990037202835
0.02325582504272461 0.674418568611145 0.06819109618663788
0.02325582504272461 0.6899224519729614 -0.04646658897399902
0.02325582504272461 0.6899224519729614 0.0684620812535286
0.02325582504272461 0.7054263353347778 -0.04514176398515701
0.02325582504272461 0.7054263353347778 0.06857208162546158
0.02325582504272461 0.7209302186965942 -0.04460487514734268
0.02325582504272461 0.7209302186965942 0.06863150745630264
0.02325582504272461 0.7364341020584106 -0.04443516582250595
0.02325582504272461 0.7364341020584106 0.06886257976293564
0.02325582504272461 0.751937985420227 -0.04407207667827606
0.02325582504272461 0.751937985420227 0.0687076598405838
0.02325582504272461 0.7674418687820435 -0.04362047463655472
0.02325582504272461 0.7674418687820435 0.06786084175109863
0.02325582504272461 0.7829457521438599 -0.04374535381793976
0.02325582504272461 0.7829457521438599 0.06664089113473892
0.02325582504272461 0.7984496355056763 -0.044752269983291626
0.02325582504272461 0.7984496355056763 0.06486642360687256
0.02325582504272461 0.8139535188674927 -0.04703646898269653
0.02325582504272461 0.8139535188674927 0.06231348216533661
0.02325582318007946 0.8294574022293091 -0.05091499164700508
0.02325582504272461 0.8294574022293091 0.05846375226974487
0.02325582504272461 0.8449612855911255 -0.05335090309381485
0.02325582504272461 0.8449612855911255 0.052761394530534744
0.02325582504272461 0.8604651689529419 -0.054307762533426285
0.02325582504272461 0.8604651689529419 0.04157250374555588
0.02325582504272461 0.8759689331054688 -0.053300805389881134
0.02325582504272461 0.8759689331054688 0.02892053872346878
0.02325582504272461 0.8914728164672852 -0.049891792237758636
0.02325582504272461 0.8914728164672852 0.011320563033223152
0.02325582504272461 0.9069766998291016 -0.04063000530004501
0.02325582504272461 0.9069766402244568 -0.03669056296348572
0.038759708404541016 -0.8449612259864807 -0.022891102358698845
0.038759708404541016 -0.8449611663818359 -0.005602686200290918
0.038759708404541016 -0.8294573426246643 -0.02234034426510334
0.038759708404541016 -0.8294573426246643 0.001544010592624545
0.038759708404541016 -0.8139535188674927 -0.023626985028386116
0.038759708404541016 -0.8139535188674927 0.009870100766420364
0.038759708404541016 -0.7984496355056763 -0.02411280758678913
0.038759708404541016 -0.7984496355056763 0.014491377398371696
0.038759708404541016 -0.7829457521438599 -0.024354025721549988
0.038759708404541016 -0.7829457521438599 0.023626819252967834
0.038759708404541016 -0.7674418687820435 -0.02407987415790558
0.038759708404541016 -0.7674419283866882 0.027334176003932953
0.038759708404541016 -0.751937985420227 -0.02374039590358734
0.038759708404541016 -0.751937985420227 0.035559870302677155
0.038759708404541016 -0.7364341020584106 -0.025909479707479477
0.038759708404541016 -0.7364341020584106 0.042593032121658325
0.038759708404541016 -0.7209302186965942 -0.040209800004959106
0.038759708404541016 -0.7209302186965942 0.05040706321597099
0.038759708404541016 -0.7054263353347778 -0.03936001658439636
0.038759708404541016 -0.7054263949394226 0.05714838579297066
0.038759708404541016 -0.6899224519729614 -0.02786988392472267
0.038759708404541016 -0.6899224519729614 0.06151847913861275
0.038759708404541016 -0.674418568611145 -0.04037069156765938
0.038759708404541016 -0.674418568611145 0.06735536456108093
0.038759708404541016 -0.6589146852493286 -0.05536399036645889
0.038759712129831314 -0.6589146852493286 0.07092023640871048
0.038759708404541016 -0.643410861492157 -0.05776454508304596
0.038759708404541016 -0.643410861492157 0.0725746899843216
0.038759708404541016 -0.6279069781303406 -0.057737745344638824
0.038759708404541016 -0.6279069781303406 0.0731828510761261
0.038759708404541016 -0.6124030351638794 -0.055398128926754
0.038759708404541016 -0.612403154373169 0.07240903377532959
0.038759708404541016 -0.5968992114067078 -0.04282974451780319
0.038759708404541016 -0.5968992114067078 0.07108698040246964
0.038759708404541016 -0.5813953876495361 -0.04119562357664108
0.038759708404541016 -0.5813953876495361 0.0701703131198883
0.038759708404541016 -0.5658915042877197 -0.047178760170936584
0.038759708404541016 -0.5658915042877197 0.0702471137046814
0.038759708404541016 -0.5503876209259033 -0.05432562902569771
0.038759708404541016 -0.5503876209259033 0.07146959751844406
0.038759708404541016 -0.5348837375640869 -0.05430839955806732
0.038759708404541016 -0.5348837375640869 0.07364118844270706
0.038759708404541016 -0.5193798542022705 -0.04563196748495102
0.038759708404541016 -0.5193798542022705 0.07654273509979248
0.038759708404541016 -0.5038759708404541 -0.039556846022605896
0.038759708404541016 -0.5038759708404541 0.08127978444099426
0.038759708404541016 -0.4883720874786377 -0.039126742631196976
0.038759708404541016 -0.4883720874786377 0.08566032350063324
0.038759708404541016 -0.4728682041168213 -0.040532056242227554
0.038759708404541016 -0.4728682041168213 0.0876050516963005
0.038759708404541016 -0.4573643207550049 -0.041849348694086075
0.038759708404541016 -0.4573643207550049 0.08942211419343948
0.038759708404541016 -0.4418604373931885 -0.04333177208900452
0.038759708404541016 -0.4418604373931885 0.09069468080997467
0.038759708404541016 -0.42635661363601685 -0.04500700533390045
0.038759708404541016 -0.42635661363601685 0.09158755838871002
0.038759708404541016 -0.41085273027420044 -0.04746019467711449
0.038759708404541016 -0.41085273027420044 0.09258540719747543
0.038759708404541016 -0.39534884691238403 -0.050869476050138474
0.038759708404541016 -0.39534884691238403 0.09363365173339844
0.038759708404541016 -0.3798449635505676 -0.05499299615621567
0.038759708404541016 -0.3798449635505676 0.09553584456443787
0.038759708404541016 -0.3643410801887512 -0.05709272250533104
0.038759708404541016 -0.3643410801887512 0.0976177379488945
0.038759708404541016 -0.3488371968269348 -0.05889778584241867
0.038759708404541016 -0.3488371968269348 0.09914664924144745
0.038759708404541016 -0.3333333134651184 -0.061058688908815384
0.038759708404541016 -0.3333333134651184 0.10044417530298233
0.038759708404541016 -0.317829430103302 -0.0632016584277153
0.038759708404541016 -0.317829430103302 0.10098768770694733
0.038759708404541016 -0.30232560634613037 -0.06688269227743149
0.03875970467925072 -0.30232560634613037 0.10121377557516098
0.038759708404541016 -0.28682172298431396 -0.07179155945777893
0.038759708404541016 -0.28682172298431396 0.10129421949386597
0.038759708404541016 -0.27131783962249756 -0.07566124200820923
0.038759708404541016 -0.27131783962249756 0.10122143477201462
0.038759708404541016 -0.25581395626068115 -0.0785643458366394
0.038759708404541016 -0.25581395626068115 0.10115671157836914
0.038759708404541016 -0.24031007289886475 -0.07967060804367065
0.038759708404541016 -0.24031007289886475 0.10077839344739914
0.038759708404541016 -0.22480618953704834 -0.07921938598155975
0.038759708404541016 -0.22480618953704834 0.0986168310046196
0.038759708404541016 -0.20930230617523193 -0.07849191874265671
0.038759708404541016 -0.20930230617523193 0.09639956802129745
0.038759708404541016 -0.19379842281341553 -0.0783105343580246
0.038759708404541016 -0.19379842281341553 0.09418998658657074
0.038759708404541016 -0.1782945990562439 -0.07824569940567017
0.038759708404541016 -0.1782945990562439 0.09183590114116669
0.038759708404541016 -0.1627907156944275 -0.07852247357368469
0.038759708404541016 -0.1627907156944275 0.08982525020837784
0.038759708404541016 -0.14728683233261108 -0.0787544772028923
0.038759708404541016 -0.14728683233261108 0.08856578916311264
0.038759708404541016 -0.13178294897079468 -0.0794355571269989
0.038759708404541016 -0.13178294897079468 0.08796823769807816
0.038759708404541016 -0.11627906560897827 -0.08136127889156342
0.038759708404541016 -0.11627906560897827 0.08799635618925095
0.038759708404541016 -0.10077518224716187 -0.08294154703617096
0.038759708404541016 -0.10077518969774246 0.08809059113264084
0.038759708404541016 -0.08527129888534546 -0.08384298533201218
0.038759708404541016 -0.08527129888534546 0.08795507997274399
0.038759712129831314 -0.06976742297410965 -0.08484535664319992
0.038759708404541016 -0.06976741552352905 0.08725177496671677
0.038759708404541016 -0.05426359176635742 -0.08575218915939331
0.038759708404541016 -0.05426359176635742 0.08583428710699081
0.038759708404541016 -0.038759708404541016 -0.0860382616519928
0.038759708404541016 -0.038759708404541016 0.08235384523868561
0.038759708404541016 -0.02325582504272461 -0.08611311763525009
