-0.1782945990562439 -0.05426359176635742 -0.004496965557336807
-0.1782945990562439 -0.038759708404541016 -0.04202286899089813
-0.1782945990562439 -0.038759708404541016 -0.00262517761439085
-0.1782945990562439 -0.02325582504272461 -0.04586637765169144
-0.1782945990562439 -0.02325582504272461 -0.001949569210410118
-0.1782945990562439 -0.007751941680908203 -0.043323807418346405
-0.1782945990562439 -0.007751941680908203 -0.00182271096855402
-0.1782945990562439 0.007751941680908203 -0.027253933250904083
-0.1782945990562439 0.007751941680908203 -0.003317189635708928
-0.1782945990562439 0.08527135848999023 -0.07187586277723312
-0.1782945990562439 0.08527135848999023 -0.018959591165184975
-0.1782945990562439 0.10077524185180664 -0.07107782363891602
-0.1782945990562439 0.10077524185180664 -0.007924776524305344
-0.1782945990562439 0.11627912521362305 -0.043382905423641205
-0.1782945990562439 0.11627912521362305 -0.0064338818192481995
-0.1782945990562439 0.1317828893661499 -0.03480091691017151
-0.1782945990562439 0.1317828893661499 -0.005339787807315588
-0.1782945990562439 0.1472867727279663 -0.04145140200853348
-0.1782945990562439 0.1472867727279663 -0.003008649917319417
-0.1782945990562439 0.16279065608978271 -0.05428658053278923
-0.1782945990562439 0.16279065608978271 0.0028127897530794144
-0.1782945990562439 0.17829453945159912 -0.040545880794525146
-0.1782945990562439 0.17829453945159912 0.009212912991642952
-0.1782945990562439 0.19379842281341553 -0.03362840786576271
-0.1782945990562439 0.19379842281341553 0.01152136828750372
-0.1782945990562439 0.20930230617523193 -0.02305562235414982
-0.1782945990562439 0.20930229127407074 0.01085984893143177
-0.1782945990562439 0.30232560634613037 -0.008926729671657085
-0.1782945990562439 0.30232560634613037 -0.006659486331045628
-0.1782945990562439 0.3178294897079468 -0.015282012522220612
-0.1782945990562439 0.3178294897079468 0.004732576198875904
-0.1782945990562439 0.3333333730697632 -0.009806658141314983
-0.1782945990562439 0.3333333730697632 0.008037932217121124
-0.1782945990562439 0.37984490394592285 -0.0319417305290699
-0.1782945990562439 0.37984490394592285 0.00308953202329576
-0.1782945990562439 0.39534878730773926 -0.0508691743016243
-0.1782945990562439 0.39534878730773926 0.005173780024051666
-0.1782945990562439 0.41085267066955566 -0.05732281133532524
-0.1782945990562439 0.41085267066955566 0.0027973654214292765
-0.1782945990562439 0.42635655403137207 -0.055603981018066406
-0.1782945990562439 0.42635655403137207 -0.006482983008027077
-0.1782945990562439 0.6434108018875122 -0.0865427553653717
-0.1782945990562439 0.643410861492157 -0.08317817747592926
-0.1782945990562439 0.6589146852493286 -0.08840466290712357
-0.1782945990562439 0.6589146852493286 -0.0681631788611412
-0.1782945990562439 0.6899224519729614 -0.05954529717564583
-0.1782945990562439 0.6899224519729614 -0.03757103905081749
-0.1782945990562439 0.7054263353347778 -0.059130825102329254
-0.1782945990562439 0.7054263353347778 -0.042596910148859024
-0.1627907156944275 -0.5038759708404541 -0.08612076193094254
-0.1627907156944275 -0.5038759708404541 -0.06933599710464478
-0.1627907156944275 -0.4883720874786377 -0.08528979867696762
-0.1627907156944275 -0.4883720874786377 -0.0690094456076622
-0.1627907156944275 -0.3798449635505676 -0.07153944671154022
-0.1627907156944275 -0.3798449635505676 -0.056647785007953644
-0.1627907156944275 -0.08527129888534546 -0.03401268646121025
-0.1627907156944275 -0.08527129888534546 -0.004538815468549728
-0.1627907156944275 -0.06976741552352905 -0.041136857122182846
-0.1627907156944275 -0.06976741552352905 0.0007286425679922104
-0.1627907156944275 -0.05426359176635742 -0.041927121579647064
-0.1627907156944275 -0.05426359176635742 0.006157027557492256
-0.1627907156944275 -0.038759708404541016 -0.04595595598220825
-0.1627907156944275 -0.038759708404541016 0.008494247682392597
-0.1627907156944275 -0.02325582504272461 -0.054699793457984924
-0.1627907156944275 -0.02325582504272461 0.009176896885037422
-0.1627907156944275 -0.007751941680908203 -0.05466707423329353
-0.1627907156944275 -0.007751941680908203 0.009341370314359665
-0.1627907156944275 0.007751941680908203 -0.0410732664167881
-0.16279073059558868 0.007751941680908203 0.009043974801898003
-0.1627907156944275 0.02325582504272461 -0.03192837908864021
-0.1627907156944275 0.02325582504272461 0.008280804380774498
-0.1627907156944275 0.038759708404541016 -0.03019626811146736
-0.1627907156944275 0.038759708404541016 0.004194565117359161
-0.1627907156944275 0.05426359549164772 -0.03590305522084236
-0.1627907156944275 0.05426359176635742 0.001394013874232769
-0.1627907156944275 0.06976747512817383 -0.0456298366189003
-0.1627907156944275 0.06976747512817383 0.0022258528042584658
-0.1627907156944275 0.08527135848999023 -0.07054470479488373
-0.1627907156944275 0.08527135848999023 0.004508619196712971
-0.1627907156944275 0.10077524185180664 -0.07003413140773773
-0.1627907156944275 0.10077524185180664 0.00731269083917141
-0.1627907156944275 0.11627912521362305 -0.05648043751716614
-0.1627907156944275 0.11627912521362305 0.008389108814299107
-0.1627907156944275 0.1317828893661499 -0.05257385969161987
-0.1627907156944275 0.1317828893661499 0.009465067647397518
-0.1627907156944275 0.1472867727279663 -0.055305734276771545
-0.1627907156944275 0.1472867727279663 0.011414999142289162
-0.1627907156944275 0.16279065608978271 -0.06263253092765808
-0.1627907156944275 0.16279065608978271 0.0147909726947546
-0.1627907156944275 0.17829453945159912 -0.05806461349129677
-0.1627907156944275 0.17829453945159912 0.02217346616089344
-0.1627907156944275 0.19379842281341553 -0.04583059623837471
-0.1627907156944275 0.19379842281341553 0.025897977873682976
-0.1627907156944275 0.20930230617523193 -0.03216029331088066
-0.16279073059558868 0.20930230617523193 0.026570554822683334
-0.1627907156944275 0.22480618953704834 -0.021627921611070633
-0.1627907156944275 0.22480618953704834 0.024999646469950676
-0.1627907156944275 0.24031007289886475 -0.01683652400970459
-0.1627907156944275 0.24031007289886475 0.02368612214922905
-0.1627907156944275 0.25581395626068115 -0.01987011730670929
-0.1627907156944275 0.25581395626068115 0.02244056947529316
-0.1627907156944275 0.27131783962249756 -0.024770870804786682
-0.1627907156944275 0.27131783962249756 0.023632697761058807
-0.1627907156944275 0.28682172298431396 -0.026634838432073593
-0.1627907156944275 0.28682172298431396 0.02472054585814476
-0.1627907156944275 0.30232560634613037 -0.027190877124667168
-0.1627907156944275 0.30232560634613037 0.02517848275601864
-0.1627907156944275 0.3178294897079468 -0.02669564262032509
-0.1627907156944275 0.3178294897079468 0.025847846642136574
-0.1627907156944275 0.3333333730697632 -0.024350080639123917
-0.1627907156944275 0.3333333730697632 0.026312517002224922
-0.1627907156944275 0.3488372564315796 -0.019354570657014847
-0.1627907156944275 0.3488372564315796 0.025888096541166306
-0.1627907156944275 0.364341139793396 -0.015193326398730278
-0.1627907156944275 0.364341139793396 0.024497898295521736
-0.1627907156944275 0.37984490394592285 -0.02412368543446064
-0.1627907156944275 0.37984490394592285 0.023001473397016525
-0.1627907156944275 0.39534878730773926 -0.04121989756822586
-0.1627907156944275 0.39534878730773926 0.020793648436665535
-0.1627907156944275 0.41085267066955566 -0.0521719865500927
-0.1627907156944275 0.41085267066955566 0.01871257834136486
-0.1627907156944275 0.42635655403137207 -0.042165517807006836
-0.1627907156944275 0.42635655403137207 0.012975052930414677
-0.1627907156944275 0.5038759708404541 -0.024021826684474945
-0.1627907156944275 0.5038759708404541 -0.0035618313122540712
-0.1627907156944275 0.5193798542022705 -0.025971397757530212
-0.1627907156944275 0.5193798542022705 0.006904778070747852
-0.1627907156944275 0.5348837375640869 -0.02518223226070404
-0.1627907156944275 0.5348837375640869 0.009206474758684635
-0.1627907156944275 0.5503876209259033 -0.024664387106895447
-0.1627907156944275 0.5503876209259033 0.009192467667162418
-0.1627907156944275 0.5658915042877197 -0.021359644830226898
-0.1627907156944275 0.5658915042877197 0.005327832885086536
-0.1627907156944275 0.6899224519729614 -0.05462811887264252
-0.1627907156944275 0.6899224519729614 -0.028231492266058922
-0.1627907156944275 0.7054263353347778 -0.055881887674331665
-0.1627907156944275 0.7054263353347778 -0.031038258224725723
-0.14728683233261108 -0.19379842281341553 -0.02490372769534588
-0.14728683233261108 -0.19379842281341553 -0.021750062704086304
-0.14728683233261108 -0.1782945990562439 -0.03526873141527176
-0.14728683233261108 -0.1782945990562439 -0.01904929056763649
-0.14728683233261108 -0.1627907156944275 -0.027530645951628685
-0.14728683233261108 -0.1627907156944275 -0.01867786981165409
-0.14728683233261108 -0.14728683233261108 -0.024041607975959778
-0.14728683233261108 -0.14728683233261108 -0.020281923934817314
-0.14728683233261108 -0.13178294897079468 -0.03331982344388962
-0.14728683233261108 -0.13178294897079468 -0.01272704266011715
-0.14728683233261108 -0.11627906560897827 -0.03991756960749626
-0.14728683233261108 -0.11627906560897827 -0.006786412559449673
-0.14728683233261108 -0.10077518224716187 -0.03789211064577103
-0.14728683233261108 -0.10077518224716187 -0.003818053752183914
-0.14728683233261108 -0.08527129888534546 -0.042341701686382294
-0.14728683233261108 -0.08527129888534546 0.00306635070592165
-0.14728683233261108 -0.06976741552352905 -0.04656364023685455
-0.14728683233261108 -0.06976741552352905 0.009389587678015232
-0.14728683233261108 -0.05426359176635742 -0.05264470353722572
-0.14728683233261108 -0.05426359176635742 0.012594090774655342
-0.14728683233261108 -0.038759708404541016 -0.05580773204565048
-0.14728683233261108 -0.038759708404541016 0.015015358105301857
-0.14728683233261108 -0.02325582504272461 -0.06011706218123436
-0.14728683233261108 -0.02325582504272461 0.01661527156829834
-0.14728683233261108 -0.007751941680908203 -0.06498973071575165
-0.14728683233261108 -0.007751941680908203 0.017791520804166794
-0.14728683233261108 0.007751941680908203 -0.06419309973716736
-0.14728683233261108 0.007751941680908203 0.018380364403128624
-0.14728683233261108 0.02325582504272461 -0.05853179097175598
-0.14728683233261108 0.02325582504272461 0.018318237736821175
-0.14728683233261108 0.038759708404541016 -0.055420488119125366
-0.14728683233261108 0.038759708404541016 0.016561994329094887
-0.14728683233261108 0.05426359176635742 -0.055796314030885696
-0.14728683233261108 0.05426359176635742 0.01538931019604206
-0.14728683233261108 0.06976747512817383 -0.06047062575817108
-0.14728683233261108 0.06976747512817383 0.016175031661987305
-0.14728683233261108 0.08527135848999023 -0.07041151821613312
-0.14728683233261108 0.08527135848999023 0.017938166856765747
-0.14728683233261108 0.10077524185180664 -0.07119181007146835
-0.14728683233261108 0.10077524185180664 0.020003542304039
-0.14728683233261108 0.11627912521362305 -0.07098506391048431
-0.14728683233261108 0.11627912521362305 0.022130029276013374
-0.14728683233261108 0.1317828893661499 -0.07243435084819794
-0.14728683233261108 0.1317828893661499 0.024087313562631607
-0.14728683233261108 0.1472867727279663 -0.07606995105743408
-0.14728683233261108 0.1472867727279663 0.026281576603651047
-0.14728683233261108 0.16279065608978271 -0.08474620431661606
-0.14728683233261108 0.16279065608978271 0.029241595417261124
-0.14728683233261108 0.17829453945159912 -0.08312289416790009
-0.14728683233261108 0.17829453945159912 0.035082101821899414
-0.14728683233261108 0.19379842281341553 -0.07232999056577682
-0.14728683233261108 0.19379840791225433 0.040199484676122665
-0.14728683233261108 0.20930230617523193 -0.0564163513481617
-0.14728683233261108 0.20930230617523193 0.041450515389442444
-0.14728683233261108 0.22480618953704834 -0.04476039856672287
-0.14728683233261108 0.22480618953704834 0.04098542779684067
-0.14728683233261108 0.24031007289886475 -0.03887297585606575
-0.14728683233261108 0.24031007289886475 0.040248990058898926
-0.1472868174314499 0.25581395626068115 -0.03773125261068344
-0.14728684723377228 0.25581395626068115 0.039746083319187164
-0.14728683233261108 0.27131783962249756 -0.03907228633761406
-0.14728683233261108 0.27131783962249756 0.03980019688606262
-0.14728683233261108 0.28682172298431396 -0.03918732702732086
-0.14728683233261108 0.28682172298431396 0.03977784886956215
-0.14728683233261108 0.30232560634613037 -0.03922780603170395
-0.1472868174314499 0.30232560634613037 0.03917013481259346
-0.14728683233261108 0.3178294897079468 -0.039435774087905884
-0.1472868174314499 0.3178294599056244 0.03908514976501465
-0.14728683233261108 0.3333333730697632 -0.03891698643565178
-0.14728683233261108 0.3333333730697632 0.03936385363340378
-0.14728683233261108 0.3488372564315796 -0.03422856703400612
-0.14728683233261108 0.3488372564315796 0.03933686017990112
-0.14728683233261108 0.364341139793396 -0.030317120254039764
-0.14728683233261108 0.364341139793396 0.038550425320863724
-0.14728683233261108 0.37984490394592285 -0.0296735018491745
-0.14728683233261108 0.37984490394592285 0.0364285409450531
-0.14728683233261108 0.39534878730773926 -0.035270970314741135
-0.14728683233261108 0.39534878730773926 0.0341654047369957
-0.14728683233261108 0.41085267066955566 -0.038853950798511505
-0.14728683233261108 0.41085267066955566 0.03204154968261719
-0.14728683233261108 0.42635655403137207 -0.029156193137168884
-0.14728683233261108 0.42635655403137207 0.029827415943145752
-0.14728683233261108 0.4418604373931885 -0.0227208212018013
-0.14728683233261108 0.4418604373931885 0.027995262295007706
-0.14728683233261108 0.4573642909526825 -0.020525136962532997
-0.14728683233261108 0.4573643207550049 0.026236027479171753
-0.14728683233261108 0.4728682041168213 -0.024395767599344254
-0.14728683233261108 0.4728682041168213 0.02548033930361271
-0.14728683233261108 0.4883720874786377 -0.030286841094493866
-0.14728683233261108 0.4883720874786377 0.026430180296301842
-0.14728683233261108 0.5038759708404541 -0.037536293268203735
-0.14728683233261108 0.5038759708404541 0.028405815362930298
-0.14728683233261108 0.5193798542022705 -0.03892730176448822
-0.14728683233261108 0.5193798542022705 0.02992408350110054
-0.14728683233261108 0.5348837375640869 -0.03690187260508537
-0.14728683233261108 0.5348837375640869 0.030200595036149025
-0.1472868174314499 0.5503876209259033 -0.03708941116929054
-0.14728683233261108 0.5503876209259033 0.029820799827575684
-0.14728683233261108 0.5658915042877197 -0.03463668003678322
-0.14728683233261108 0.5658915042877197 0.02816178649663925
-0.14728683233261108 0.5813953876495361 -0.029164006933569908
-0.14728683233261108 0.5813953876495361 0.025709589943289757
-0.14728683233261108 0.5968992710113525 -0.02156604826450348
-0.14728683233261108 0.5968992710113525 0.021550828590989113
-0.14728683233261108 0.612403154373169 -0.009218242950737476
-0.14728683233261108 0.612403154373169 0.012440158054232597
-0.14728683233261108 0.6589146852493286 -0.011354314163327217
-0.14728683233261108 0.6589146852493286 -0.006668278016149998
-0.14728683233261108 0.674418568611145 -0.030706170946359634
-0.14728683233261108 0.6744185090065002 -0.0068063437938690186
-0.14728683233261108 0.6899224519729614 -0.0424068383872509
-0.14728683233261108 0.6899225115776062 -0.007520771585404873
-0.14728683233261108 0.7054263353347778 -0.04733679071068764
-0.14728683233261108 0.7054263353347778 -0.012034518644213676
-0.14728683233261108 0.7209302186965942 -0.041529349982738495
-0.14728683233261108 0.7209302186965942 -0.021384406834840775
-0.13178294897079468 -0.24031007289886475 -0.04212431609630585
-0.13178294897079468 -0.24031007289886475 -0.028939539566636086
-0.13178294897079468 -0.22480618953704834 -0.03968038782477379
-0.13178294897079468 -0.22480618953704834 -0.022362424060702324
-0.13178294897079468 -0.20930230617523193 -0.03196350485086441
-0.13178294897079468 -0.20930230617523193 -0.017040017992258072
-0.13178294897079468 -0.19379842281341553 -0.04121674597263336
-0.13178294897079468 -0.19379843771457672 -0.007452291436493397
-0.13178294897079468 -0.1782945990562439 -0.041956573724746704
-0.13178294897079468 -0.1782945990562439 -0.005344056524336338
-0.13178294897079468 -0.1627907156944275 -0.040927954018116
-0.13178294897079468 -0.1627907156944275 -0.0032309431117028
-0.13178294897079468 -0.14728683233261108 -0.042641639709472656
-0.13178294897079468 -0.14728683233261108 -0.00021264515817165375
-0.13178294897079468 -0.13178294897079468 -0.07668760418891907
-0.13178294897079468 -0.13178294897079468 0.002911400981247425
-0.13178294897079468 -0.11627906560897827 -0.07140098512172699
-0.13178294897079468 -0.11627906560897827 0.005211282521486282
-0.13178294897079468 -0.10077518224716187 -0.05462758615612984
-0.13178294897079468 -0.10077518969774246 0.008225510828197002
-0.13178294897079468 -0.08527129888534546 -0.05732862651348114
-0.13178294897079468 -0.08527129888534546 0.011382943019270897
-0.13178294897079468 -0.06976741552352905 -0.061488159000873566
-0.13178294897079468 -0.06976741552352905 0.016329724341630936
-0.13178294897079468 -0.05426359176635742 -0.0689445212483406
-0.13178294897079468 -0.05426359176635742 0.023645848035812378
-0.13178294897079468 -0.038759708404541016 -0.07240892201662064
-0.13178294897079468 -0.038759708404541016 0.02632235921919346
-0.13178294897079468 -0.02325582504272461 -0.07717885076999664
-0.13178294897079468 -0.02325582504272461 0.0279809832572937
-0.13178294897079468 -0.007751941680908203 -0.07907155156135559
-0.13178294897079468 -0.007751941215246916 0.028862036764621735
-0.13178294897079468 0.007751941680908203 -0.07695232331752777
-0.13178294897079468 0.007751941680908203 0.029596947133541107
-0.13178294897079468 0.02325582504272461 -0.07365120202302933
-0.13178294897079468 0.02325582504272461 0.02999705821275711
-0.13178294897079468 0.038759708404541016 -0.0709105134010315
-0.13178294897079468 0.038759708404541016 0.02941514551639557
-0.13178294897079468 0.05426359176635742 -0.07041705399751663
-0.13178294897079468 0.05426359176635742 0.029097221791744232
-0.13178294897079468 0.06976747512817383 -0.07216104865074158
-0.13178294897079468 0.06976747512817383 0.03001154214143753
-0.13178294897079468 0.08527135848999023 -0.07512868195772171
-0.13178294897079468 0.08527135848999023 0.03186663240194321
-0.13178294897079468 0.10077524185180664 -0.0780714899301529
-0.13178294897079468 0.10077524185180664 0.03419576212763786
-0.13178294897079468 0.11627912521362305 -0.08223526179790497
-0.13178294897079468 0.11627912521362305 0.03645605966448784
-0.13178294897079468 0.1317828893661499 -0.08560538291931152
-0.13178294897079468 0.1317828893661499 0.03913027048110962
-0.13178294897079468 0.1472867727279663 -0.08652698248624802
-0.13178294897079468 0.1472867727279663 0.04168985038995743
-0.13178294897079468 0.16279065608978271 -0.08731123805046082
-0.13178294897079468 0.16279065608978271 0.04528439790010452
-0.13178294897079468 0.17829453945159912 -0.08713362365961075
-0.13178294897079468 0.17829453945159912 0.05080852657556534
-0.13178294897079468 0.19379842281341553 -0.08604047447443008
-0.13178294897079468 0.19379840791225433 0.05490340292453766
-0.13178294897079468 0.20930230617523193 -0.0767262801527977
-0.13178294897079468 0.20930230617523193 0.05573991686105728
-0.13178294897079468 0.22480618953704834 -0.06407854706048965
-0.13178294897079468 0.22480617463588715 0.055440619587898254
-0.13178294897079468 0.24031007289886475 -0.054512109607458115
-0.13178294897079468 0.24031007289886475 0.054860033094882965
-0.13178294897079468 0.25581395626068115 -0.0481266975402832
-0.13178294897079468 0.25581395626068115 0.05438018590211868
-0.13178294897079468 0.27131783962249756 -0.0463932529091835
-0.13178294897079468 0.27131783962249756 0.05423811078071594
-0.13178294897079468 0.28682172298431396 -0.04463854432106018
-0.13178294897079468 0.28682172298431396 0.05325932055711746
-0.13178294897079468 0.30232560634613037 -0.044133055955171585
-0.13178294897079468 0.30232560634613037 0.05094936862587929
-0.13178294897079468 0.3178294897079468 -0.04543706029653549
-0.13178294897079468 0.3178294897079468 0.0502375029027462
-0.13178294897079468 0.3333333730697632 -0.04525764286518097
-0.13178294897079468 0.3333333730697632 0.05083686113357544
-0.13178294897079468 0.3488372564315796 -0.04401080310344696
-0.13178294897079468 0.3488372564315796 0.051056742668151855
-0.13178294897079468 0.364341139793396 -0.04260711744427681
-0.13178294897079468 0.364341139793396 0.050174303352832794
-0.13178294897079468 0.37984490394592285 -0.040901411324739456
-0.13178294897079468 0.37984490394592285 0.04871111363172531
-0.13178294897079468 0.39534878730773926 -0.039428289979696274
-0.13178294897079468 0.39534878730773926 0.04683800786733627
-0.13178294897079468 0.41085267066955566 -0.03583090752363205
-0.13178294897079468 0.41085267066955566 0.04518232122063637
-0.13178294897079468 0.42635655403137207 -0.031463295221328735
-0.13178294897079468 0.42635655403137207 0.044042155146598816
-0.13178294897079468 0.4418604373931885 -0.03080560639500618
-0.13178294897079468 0.4418604373931885 0.04369466006755829
-0.13178294897079468 0.4573643207550049 -0.03319313004612923
-0.13178294897079468 0.4573643207550049 0.04367702826857567
-0.13178294897079468 0.4728682041168213 -0.03872830048203468
-0.13178294897079468 0.4728682041168213 0.04406915605068207
-0.13178294897079468 0.4883720874786377 -0.04286317899823189
-0.13178294897079468 0.4883721172809601 0.044967278838157654
-0.13178294897079468 0.5038759708404541 -0.05639316886663437
-0.13178294897079468 0.5038759708404541 0.04591231048107147
-0.13178294897079468 0.5193798542022705 -0.054522108286619186
-0.13178294897079468 0.5193798542022705 0.04655073583126068
-0.13178294897079468 0.5348837375640869 -0.044608280062675476
-0.13178294897079468 0.5348837375640869 0.046567291021347046
-0.13178294897079468 0.5503876209259033 -0.04434974491596222
-0.13178294897079468 0.5503876209259033 0.04646967351436615
-0.13178294897079468 0.5658915042877197 -0.04454532265663147
-0.13178294897079468 0.5658915042877197 0.045657929033041
-0.13178294897079468 0.5813953876495361 -0.043092094361782074
-0.13178294897079468 0.5813953876495361 0.04464884102344513
-0.13178294897079468 0.5968992710113525 -0.03985196352005005
-0.13178294897079468 0.5968992710113525 0.04345804452896118
-0.13178294897079468 0.612403154373169 -0.03413262590765953
-0.13178294897079468 0.612403154373169 0.041936688125133514
-0.13178294897079468 0.6279069185256958 -0.03233693540096283
-0.13178294897079468 0.6279069185256958 0.04006997123360634
-0.13178294897079468 0.6434108018875122 -0.03333647549152374
-0.13178294897079468 0.6434108018875122 0.03810374438762665
-0.13178293406963348 0.6589146852493286 -0.038308240473270416
-0.13178294897079468 0.6589146852493286 0.03501822426915169
-0.13178294897079468 0.674418568611145 -0.039715539664030075
-0.13178294897079468 0.674418568611145 0.031066972762346268
-0.13178294897079468 0.6899224519729614 -0.041697002947330475
-0.13178294897079468 0.6899224519729614 0.027261704206466675
-0.13178294897079468 0.7054263353347778 -0.04449040815234184
-0.13178294897079468 0.7054263353347778 0.022968588396906853
-0.13178294897079468 0.7209302186965942 -0.043206922709941864
-0.13178294897079468 0.7209302186965942 0.013525599613785744
-0.13178294897079468 0.7364341020584106 -0.04316381365060806
-0.13178294897079468 0.7364341020584106 0.0013836950529366732
-0.13178294897079468 0.751937985420227 -0.04748436063528061
-0.13178294897079468 0.751937985420227 -0.008031202480196953
-0.13178294897079468 0.7674418687820435 -0.04920842498540878
-0.13178294897079468 0.7674418687820435 -0.015088244341313839
-0.13178294897079468 0.7829457521438599 -0.04818449541926384
-0.13178294897079468 0.7829456925392151 -0.02180294133722782
-0.13178294897079468 0.7984496355056763 -0.05078880488872528
-0.13178294897079468 0.7984495759010315 -0.0352257639169693
-0.13178294897079468 0.8759689331054688 -0.06959758698940277
-0.13178294897079468 0.8759689331054688 -0.050619564950466156
-0.13178294897079468 0.8914728164672852 -0.0779617428779602
-0.13178294897079468 0.8914728164672852 -0.04992043226957321
-0.13178294897079468 0.9069766998291016 -0.07805128395557404
-0.13178294897079468 0.9069766998291016 -0.053531207144260406
-0.11627906560897827 -0.28682172298431396 -0.07009664922952652
-0.11627906560897827 -0.28682172298431396 -0.06956097483634949
-0.11627906560897827 -0.27131783962249756 -0.08687009662389755
-0.11627906560897827 -0.27131783962249756 -0.029807977378368378
-0.11627906560897827 -0.25581395626068115 -0.08623465895652771
-0.11627906560897827 -0.25581395626068115 -0.015864122658967972
-0.11627906560897827 -0.24031007289886475 -0.07074152678251266
-0.11627906560897827 -0.24031007289886475 -0.006952901370823383
-0.11627906560897827 -0.22480618953704834 -0.05966400355100632
-0.11627906560897827 -0.22480618953704834 -0.004495927132666111
-0.11627907305955887 -0.20930230617523193 -0.04969998821616173
-0.11627905815839767 -0.20930230617523193 -0.0009680131915956736
-0.11627906560897827 -0.19379842281341553 -0.04508736729621887
-0.11627906560897827 -0.19379842281341553 0.005014389753341675
-0.11627906560897827 -0.1782945990562439 -0.04536416381597519
-0.11627906560897827 -0.1782945990562439 0.008386088535189629
-0.11627906560897827 -0.1627907156944275 -0.04547946900129318
-0.11627906560897827 -0.1627907156944275 0.00997087825089693
-0.11627906560897827 -0.1472868174314499 -0.05391671136021614
-0.11627906560897827 -0.14728683233261108 0.011897461488842964
-0.11627906560897827 -0.13178294897079468 -0.07128782570362091
-0.11627906560897827 -0.13178294897079468 0.0133581031113863
-0.11627906560897827 -0.11627906560897827 -0.07428649067878723
-0.11627906560897827 -0.11627906560897827 0.014433509670197964
-0.11627906560897827 -0.10077518224716187 -0.07009293884038925
-0.11627906560897827 -0.10077518224716187 0.01678469032049179
-0.11627906560897827 -0.08527129888534546 -0.07362626492977142
-0.11627906560897827 -0.08527129888534546 0.02227335050702095
-0.11627906560897827 -0.06976741552352905 -0.07648508250713348
-0.11627906560897827 -0.06976741552352905 0.025936225429177284
-0.11627906560897827 -0.05426359176635742 -0.08021896332502365
-0.11627906560897827 -0.05426359176635742 0.02948903478682041
-0.11627906560897827 -0.038759708404541016 -0.08530852198600769
-0.11627906560897827 -0.038759708404541016 0.03311698138713837
-0.11627906560897827 -0.02325582504272461 -0.08631115406751633
-0.11627906560897827 -0.02325582504272461 0.03750132769346237
-0.11627906560897827 -0.007751941680908203 -0.08629041910171509
-0.11627905815839767 -0.007751941215246916 0.039557911455631256
-0.11627906560897827 0.007751941680908203 -0.0854361280798912
-0.11627906560897827 0.007751941680908203 0.04075539857149124
-0.11627906560897827 0.02325582504272461 -0.08192195743322372
-0.11627906560897827 0.02325582504272461 0.042060818523168564
-0.11627906560897827 0.038759708404541016 -0.07823818176984787
-0.11627906560897827 0.038759708404541016 0.04290512204170227
-0.11627906560897827 0.05426359176635742 -0.07742278277873993
-0.11627906560897827 0.05426359176635742 0.043737102299928665
-0.11627906560897827 0.06976747512817383 -0.07954598218202591
-0.11627906560897827 0.06976747512817383 0.04520920291543007
-0.11627906560897827 0.08527135848999023 -0.0825016051530838
-0.11627906560897827 0.08527135848999023 0.04762836918234825
-0.11627906560897827 0.10077524185180664 -0.08563805371522903
-0.11627906560897827 0.10077524185180664 0.0503435954451561
-0.11627906560897827 0.11627912521362305 -0.08672870695590973
-0.11627906560897827 0.11627912521362305 0.052929800003767014
-0.11627906560897827 0.1317828893661499 -0.08750452846288681
-0.11627906560897827 0.1317828893661499 0.0555589385330677
-0.11627906560897827 0.1472867727279663 -0.08811303228139877
-0.11627905815839767 0.1472867727279663 0.0584799200296402
-0.11627906560897827 0.16279065608978271 -0.08847407251596451
-0.11627906560897827 0.16279065608978271 0.06303808093070984
-0.11627906560897827 0.17829453945159912 -0.0884329304099083
-0.11627906560897827 0.17829453945159912 0.06718043982982635
-0.11627906560897827 0.19379842281341553 -0.0878584012389183
-0.11627906560897827 0.19379842281341553 0.0697685182094574
-0.11627906560897827 0.20930230617523193 -0.08567484468221664
-0.11627906560897827 0.20930230617523193 0.06995232403278351
-0.11627906560897827 0.22480618953704834 -0.07338912785053253
-0.11627906560897827 0.22480618953704834 0.06920242309570312
-0.11627906560897827 0.24031007289886475 -0.06237473338842392
-0.11627906560897827 0.24031007289886475 0.06785246729850769
-0.11627906560897827 0.25581395626068115 -0.05742519348859787
-0.11627906560897827 0.25581395626068115 0.0665564015507698
-0.11627906560897827 0.27131783962249756 -0.055669791996479034
-0.11627906560897827 0.27131783962249756 0.0659421905875206
-0.11627906560897827 0.28682172298431396 -0.05474289879202843
-0.11627906560897827 0.28682172298431396 0.06500767171382904
-0.11627906560897827 0.30232560634613037 -0.054594557732343674
-0.11627906560897827 0.30232560634613037 0.06293928623199463
-0.11627906560897827 0.3178294897079468 -0.05491109937429428
-0.11627906560897827 0.3178294897079468 0.06195487454533577
-0.11627906560897827 0.3333333730697632 -0.054697323590517044
-0.11627906560897827 0.3333333730697632 0.062052495777606964
-0.11627906560897827 0.3488372564315796 -0.054343074560165405
-0.11627906560897827 0.3488372564315796 0.06201472505927086
-0.11627906560897827 0.364341139793396 -0.052431732416152954
-0.11627906560897827 0.364341139793396 0.06109553575515747
-0.11627906560897827 0.37984490394592285 -0.047343820333480835
-0.11627906560897827 0.37984490394592285 0.059891119599342346
-0.11627906560897827 0.39534878730773926 -0.04229391738772392
-0.11627906560897827 0.39534878730773926 0.058796919882297516
-0.11627906560897827 0.41085267066955566 -0.039847809821367264
-0.11627906560897827 0.41085267066955566 0.057918939739465714
-0.11627906560897827 0.42635655403137207 -0.03886574134230614
-0.11627906560897827 0.42635655403137207 0.05727261304855347
-0.11627906560897827 0.4418604373931885 -0.03902502357959747
-0.11627905815839767 0.4418604075908661 0.057401616126298904
-0.11627906560897827 0.4573643207550049 -0.04000700265169144
-0.11627906560897827 0.4573643207550049 0.05793950706720352
-0.11627906560897827 0.4728682041168213 -0.04402054473757744
-0.11627906560897827 0.4728682041168213 0.05877583846449852
-0.11627907305955887 0.4883720874786377 -0.0672684907913208
-0.11627906560897827 0.4883720874786377 0.05968085303902626
-0.11627906560897827 0.5038759708404541 -0.08292168378829956
-0.11627905815839767 0.5038759708404541 0.06025141105055809
-0.11627906560897827 0.5193798542022705 -0.08563778549432755
-0.11627906560897827 0.5193798542022705 0.060476548969745636
-0.11627906560897827 0.5348837375640869 -0.06112309917807579
-0.11627906560897827 0.5348837375640869 0.06038982793688774
-0.11627906560897827 0.5503876209259033 -0.054804328829050064
-0.11627905815839767 0.5503876209259033 0.06035974621772766
-0.11627906560897827 0.5658915042877197 -0.05461997911334038
-0.11627906560897827 0.5658915042877197 0.05995990335941315
-0.11627906560897827 0.5813953876495361 -0.05299815908074379
-0.11627906560897827 0.5813953876495361 0.05958222225308418
-0.11627906560897827 0.5968992710113525 -0.04729485511779785
-0.11627906560897827 0.5968992710113525 0.05886640027165413
-0.11627906560897827 0.612403154373169 -0.04315333813428879
-0.11627907305955887 0.612403154373169 0.05805474892258644
-0.11627906560897827 0.6279069185256958 -0.04164543002843857
-0.11627906560897827 0.6279069185256958 0.057296864688396454
-0.11627906560897827 0.6434108018875122 -0.041128918528556824
-0.11627906560897827 0.6434108018875122 0.056743741035461426
-0.11627906560897827 0.6589146852493286 -0.041712045669555664
-0.11627906560897827 0.6589146852493286 0.05591011047363281
-0.11627906560897827 0.674418568611145 -0.04236689954996109
-0.11627906560897827 0.674418568611145 0.05460630729794502
-0.11627906560897827 0.6899224519729614 -0.0445212721824646
-0.11627906560897827 0.6899224519729614 0.05180314928293228
-0.11627906560897827 0.7054263353347778 -0.048262178897857666
-0.11627906560897827 0.7054263353347778 0.04762456566095352
-0.11627906560897827 0.7209302186965942 -0.05106532201170921
-0.11627906560897827 0.7209302186965942 0.04224296659231186
-0.11627906560897827 0.7364341020584106 -0.05512754246592522
-0.11627906560897827 0.7364341020584106 0.03503541648387909
-0.11627906560897827 0.751937985420227 -0.05741044878959656
-0.11627906560897827 0.751937985420227 0.025862189009785652
-0.11627906560897827 0.7674418687820435 -0.058140307664871216
-0.11627906560897827 0.7674418687820435 0.01688663847744465
-0.11627906560897827 0.7829457521438599 -0.05659344047307968
-0.11627906560897827 0.7829457521438599 0.008709457702934742
-0.11627906560897827 0.7984496355056763 -0.05616551637649536
-0.11627906560897827 0.7984496355056763 -0.0011434534098953009
-0.11627906560897827 0.8139535188674927 -0.05078426003456116
-0.11627906560897827 0.8139535188674927 -0.015089264139533043
-0.11627906560897827 0.8759689331054688 -0.07042308151721954
-0.11627906560897827 0.8759689331054688 -0.03398294374346733
-0.11627906560897827 0.8914728164672852 -0.07516869902610779
-0.11627906560897827 0.8914727568626404 -0.03807518631219864
-0.11627906560897827 0.9069766998291016 -0.07302793860435486
-0.11627906560897827 0.9069766998291016 -0.04910227656364441
-0.10077518224716187 -0.28682172298431396 -0.07974183559417725
-0.10077518224716187 -0.28682172298431396 -0.0422401949763298
-0.10077518224716187 -0.27131783962249756 -0.08645707368850708
-0.10077518224716187 -0.27131783962249756 -0.01182651799172163
-0.10077518224716187 -0.25581395626068115 -0.08656046539545059
-0.10077518224716187 -0.25581395626068115 -0.0019943946972489357
-0.10077518224716187 -0.24031007289886475 -0.07620367407798767
-0.10077518224716187 -0.24031007289886475 0.0052406806498765945
-0.10077518224716187 -0.22480618953704834 -0.07021205127239227
-0.10077518969774246 -0.22480618953704834 0.008653190918266773
-0.10077518224716187 -0.20930230617523193 -0.06001023203134537
-0.10077518224716187 -0.20930230617523193 0.010764649137854576
-0.10077518224716187 -0.19379842281341553 -0.05612894892692566
-0.10077518224716187 -0.19379842281341553 0.013597164303064346
-0.10077518224716187 -0.1782945990562439 -0.0549774169921875
-0.10077518224716187 -0.1782945990562439 0.015637153759598732
-0.10077518224716187 -0.1627907156944275 -0.05500338226556778
-0.10077518224716187 -0.1627907156944275 0.01779811456799507
-0.10077518224716187 -0.14728683233261108 -0.05805422365665436
-0.10077518224716187 -0.14728683233261108 0.020250359550118446
-0.10077518224716187 -0.13178294897079468 -0.07218386232852936
-0.10077518224716187 -0.13178294897079468 0.022704508155584335
-0.10077518224716187 -0.11627906560897827 -0.07934729754924774
-0.10077518224716187 -0.11627907305955887 0.02387397363781929
-0.10077518224716187 -0.10077518224716187 -0.08234748244285583
-0.10077518224716187 -0.10077518224716187 0.02518676221370697
-0.10077518224716187 -0.08527129888534546 -0.08532620221376419
-0.10077518224716187 -0.08527129888534546 0.02758369967341423
-0.10077518224716187 -0.06976741552352905 -0.08567517250776291
-0.10077518224716187 -0.06976741552352905 0.030520962551236153
-0.10077518224716187 -0.05426359176635742 -0.08630429953336716
-0.10077518224716187 -0.05426359176635742 0.034785591065883636
-0.10077518224716187 -0.038759708404541016 -0.08716151863336563
-0.10077518224716187 -0.038759708404541016 0.03941214829683304
-0.10077518224716187 -0.02325582504272461 -0.08782066404819489
-0.10077518224716187 -0.02325582504272461 0.04143207520246506
-0.10077518224716187 -0.007751941680908203 -0.08784657716751099
-0.10077518224716187 -0.007751941680908203 0.04338078200817108
-0.10077518224716187 0.007751941680908203 -0.08731386810541153
-0.10077518224716187 0.007751941680908203 0.045432139188051224
-0.10077518224716187 0.02325582504272461 -0.08661361783742905
-0.10077518224716187 0.02325582504272461 0.04843119531869888
-0.10077518224716187 0.038759708404541016 -0.08591992408037186
-0.10077518224716187 0.038759708404541016 0.05237593874335289
-0.10077518224716187 0.05426359176635742 -0.08569182455539703
-0.10077517479658127 0.05426359176635742 0.05536918342113495
-0.10077518224716187 0.06976747512817383 -0.0861121341586113
-0.10077518224716187 0.06976747512817383 0.058150067925453186
-0.10077518224716187 0.08527135848999023 -0.08676132559776306
-0.10077518224716187 0.08527135848999023 0.061600565910339355
-0.10077518224716187 0.10077524185180664 -0.0876045972108841
-0.10077518224716187 0.10077524185180664 0.06563091278076172
-0.10077518224716187 0.11627912521362305 -0.08822759985923767
-0.10077518224716187 0.11627912521362305 0.06986729800701141
-0.10077518224716187 0.1317828893661499 -0.08860689401626587
-0.10077518224716187 0.1317828893661499 0.07256095856428146
-0.10077518224716187 0.1472867727279663 -0.08869742602109909
-0.10077518224716187 0.1472867727279663 0.07557429373264313
-0.10077518224716187 0.16279065608978271 -0.08879248797893524
-0.10077518224716187 0.16279065608978271 0.07855791598558426
-0.10077518224716187 0.17829453945159912 -0.08881703019142151
-0.10077518224716187 0.17829453945159912 0.08032528311014175
-0.10077518224716187 0.19379842281341553 -0.08875451982021332
-0.10077518224716187 0.19379842281341553 0.08074282109737396
-0.10077518224716187 0.20930230617523193 -0.08805763721466064
-0.10077518224716187 0.20930230617523193 0.08025771379470825
-0.10077518224716187 0.22480618953704834 -0.08619879931211472
-0.10077518224716187 0.22480618953704834 0.0791199803352356
-0.10077518969774246 0.24031008780002594 -0.08047332614660263
-0.10077518224716187 0.24031007289886475 0.07811141014099121
-0.10077518224716187 0.25581395626068115 -0.0746571272611618
-0.10077518224716187 0.25581395626068115 0.07715560495853424
-0.10077518224716187 0.27131783962249756 -0.07086605578660965
-0.10077518224716187 0.27131783962249756 0.07643633335828781
-0.10077518224716187 0.28682172298431396 -0.06759334355592728
-0.10077518224716187 0.28682172298431396 0.07580675184726715
-0.10077518224716187 0.30232560634613037 -0.06591382622718811
-0.10077518224716187 0.30232560634613037 0.07490334659814835
-0.10077518224716187 0.3178294897079468 -0.06562258303165436
-0.10077518969774246 0.3178294897079468 0.07408647239208221
-0.10077518224716187 0.3333333730697632 -0.06322387605905533
-0.10077518224716187 0.3333333730697632 0.07342709600925446
-0.10077518224716187 0.3488372564315796 -0.060774944722652435
-0.10077518969774246 0.3488372564315796 0.07293850183486938
-0.10077518224716187 0.364341139793396 -0.05829590559005737
-0.10077518224716187 0.364341139793396 0.07224418967962265
-0.10077518224716187 0.37984490394592285 -0.05529782921075821
-0.10077518224716187 0.37984490394592285 0.07153090089559555
-0.10077518224716187 0.39534878730773926 -0.05051402747631073
-0.10077518224716187 0.39534878730773926 0.07093502581119537
-0.10077518224716187 0.41085267066955566 -0.04566679522395134
-0.10077517479658127 0.41085267066955566 0.07046474516391754
-0.10077518224716187 0.42635655403137207 -0.04350534826517105
-0.10077518969774246 0.42635655403137207 0.0702277272939682
-0.10077518224716187 0.4418604373931885 -0.043523117899894714
-0.10077518224716187 0.4418604373931885 0.07050251960754395
-0.10077518224716187 0.4573643207550049 -0.04521200433373451
-0.10077518224716187 0.4573643207550049 0.07104486972093582
-0.10077518224716187 0.4728682041168213 -0.05475125461816788
-0.10077518224716187 0.4728682041168213 0.07187562435865402
-0.10077518224716187 0.4883720874786377 -0.0795978307723999
-0.10077518224716187 0.4883720874786377 0.07287688553333282
-0.10077518224716187 0.5038759708404541 -0.08688919991254807
-0.10077518224716187 0.5038759708404541 0.07315866649150848
-0.10077518224716187 0.5193798542022705 -0.08773944526910782
-0.10077518224716187 0.5193798542022705 0.07303101569414139
-0.10077518224716187 0.5348837375640869 -0.08032058924436569
-0.10077517479658127 0.5348837375640869 0.07261121273040771
-0.10077518224716187 0.5503876209259033 -0.06169497221708298
-0.10077518224716187 0.5503876209259033 0.07231669872999191
-0.10077518224716187 0.5658915042877197 -0.058936260640621185
-0.10077518224716187 0.5658915042877197 0.07166604697704315
-0.10077518224716187 0.5813953876495361 -0.055787716060876846
-0.10077518224716187 0.5813953876495361 0.07104433327913284
-0.10077518224716187 0.5968992710113525 -0.05017195641994476
-0.10077518224716187 0.5968993306159973 0.0702616423368454
-0.10077518224716187 0.612403154373169 -0.04377201944589615
-0.10077517479658127 0.612403154373169 0.06978192180395126
-0.10077518224716187 0.6279069185256958 -0.041177645325660706
-0.10077518224716187 0.6279069185256958 0.06902863085269928
-0.10077518224716187 0.6434108018875122 -0.040780190378427505
-0.10077518224716187 0.6434108018875122 0.06850537657737732
-0.10077518224716187 0.6589146852493286 -0.042256519198417664
-0.10077518224716187 0.6589146852493286 0.0674363523721695
-0.10077518224716187 0.674418568611145 -0.0441763773560524
-0.10077518224716187 0.674418568611145 0.06560672074556351
-0.10077518224716187 0.6899224519729614 -0.04725833237171173
-0.10077518224716187 0.6899224519729614 0.06307089328765869
-0.10077518224716187 0.7054263353347778 -0.05368512123823166
-0.10077518224716187 0.7054263353347778 0.05997615307569504
-0.10077518224716187 0.7209302186965942 -0.055912576615810394
-0.10077518224716187 0.7209302186965942 0.05612831935286522
-0.10077518224716187 0.7364341020584106 -0.06029624491930008
-0.10077518224716187 0.7364341020584106 0.04995611310005188
-0.10077518224716187 0.751937985420227 -0.07008828222751617
-0.10077518224716187 0.7519380450248718 0.04297221079468727
-0.10077518224716187 0.7674418687820435 -0.07089245319366455
-0.10077518224716187 0.7674418687820435 0.03626475855708122
-0.10077518224716187 0.7829457521438599 -0.06458600610494614
-0.10077518224716187 0.7829457521438599 0.030013512820005417
-0.10077518224716187 0.7984496355056763 -0.05666843056678772
-0.10077517479658127 0.7984496355056763 0.023917509242892265
-0.10077518224716187 0.8139535188674927 -0.046821147203445435
-0.10077518224716187 0.8139535188674927 0.015390375629067421
-0.10077518224716187 0.8294574022293091 -0.03646751865744591
-0.10077518224716187 0.8294574022293091 0.007297489792108536
-0.10077518224716187 0.8449612855911255 -0.028152471408247948
-0.10077518224716187 0.8449612855911255 -0.0018099166918545961
-0.10077518224716187 0.8604651689529419 -0.03025658056139946
-0.10077518224716187 0.8604651689529419 -0.01265195943415165
-0.10077518224716187 0.8759689331054688 -0.046804144978523254
-0.10077518224716187 0.8759689331054688 -0.020748713985085487
-0.10077518224716187 0.8914728164672852 -0.06954710185527802
-0.10077518224716187 0.8914728164672852 -0.030396824702620506
-0.10077518224716187 0.9069766998291016 -0.05991974100470543
-0.10077518224716187 0.9069766998291016 -0.038656000047922134
-0.08527129888534546 -0.28682172298431396 -0.07952957600355148
-0.08527129888534546 -0.28682175278663635 -0.02190055511891842
-0.08527129888534546 -0.27131783962249756 -0.08560774475336075
-0.08527129888534546 -0.27131783962249756 -0.001907488564029336
-0.08527129888534546 -0.25581395626068115 -0.08568084239959717
-0.08527129888534546 -0.25581395626068115 0.00868880096822977
-0.08527129888534546 -0.24031007289886475 -0.07916581630706787
-0.08527129888534546 -0.24031007289886475 0.011521130800247192
-0.08527129888534546 -0.22480618953704834 -0.07882824540138245
-0.08527129888534546 -0.22480620443820953 0.01385992020368576
-0.08527129888534546 -0.20930230617523193 -0.07684376090765
-0.08527129888534546 -0.20930230617523193 0.017227400094270706
-0.08527129888534546 -0.19379842281341553 -0.07216332107782364
-0.08527129888534546 -0.19379842281341553 0.020414499565958977
-0.08527129888534546 -0.1782945990562439 -0.06550177186727524
-0.08527129888534546 -0.1782945990562439 0.022302992641925812
-0.08527129888534546 -0.1627907156944275 -0.06341217458248138
-0.08527129888534546 -0.1627907156944275 0.02356729470193386
-0.08527129888534546 -0.14728683233261108 -0.0677775964140892
-0.08527129888534546 -0.14728683233261108 0.02440446801483631
-0.08527129888534546 -0.13178294897079468 -0.07644112408161163
-0.08527129888534546 -0.13178294897079468 0.02542979270219803
-0.08527129143476486 -0.11627906560897827 -0.08427317440509796
-0.08527129888534546 -0.11627906560897827 0.0266805961728096
-0.08527129888534546 -0.10077518224716187 -0.08593978732824326
-0.08527129888534546 -0.10077518224716187 0.02832629345357418
-0.08527129888534546 -0.08527129888534546 -0.08649061620235443
-0.08527129888534546 -0.08527129888534546 0.03063511848449707
-0.08527129888534546 -0.06976741552352905 -0.08675438165664673
-0.08527129888534546 -0.06976741552352905 0.03432409092783928
-0.08527129888534546 -0.05426359176635742 -0.08736499398946762
-0.08527129888534546 -0.05426359176635742 0.03923502564430237
-0.08527129888534546 -0.038759708404541016 -0.08798131346702576
-0.08527129888534546 -0.038759708404541016 0.04114360362291336
-0.08527129888534546 -0.02325582504272461 -0.08847492933273315
-0.08527129888534546 -0.02325582504272461 0.043452680110931396
-0.08527129888534546 -0.007751941680908203 -0.08864101767539978
-0.08527129888534546 -0.007751941680908203 0.045741334557533264
-0.08527129888534546 0.007751941680908203 -0.08841521292924881
-0.08527129888534546 0.007751941680908203 0.049087874591350555
-0.08527129888534546 0.02325582504272461 -0.08804485946893692
-0.08527129888534546 0.02325582690536976 0.05440245196223259
-0.08527129888534546 0.038759708404541016 -0.08767259120941162
-0.08527129888534546 0.038759708404541016 0.05729016289114952
-0.08527129888534546 0.05426359176635742 -0.08763986080884933
-0.08527129888534546 0.05426359176635742 0.061178743839263916
-0.08527129888534546 0.06976747512817383 -0.08786524832248688
-0.08527129888534546 0.06976747512817383 0.06678617000579834
-0.08527129888534546 0.08527135848999023 -0.08823567628860474
-0.08527129888534546 0.08527135848999023 0.0718044862151146
-0.08527129888534546 0.10077524185180664 -0.08880503475666046
-0.08527129888534546 0.10077523440122604 0.07552080601453781
-0.08527129888534546 0.11627912521362305 -0.08938352018594742
-0.08527129888534546 0.11627912521362305 0.07911884784698486
-0.08527129888534546 0.1317828893661499 -0.08982466161251068
-0.08527129888534546 0.1317828893661499 0.08349871635437012
-0.08527129888534546 0.1472867727279663 -0.08988337218761444
-0.08527129888534546 0.1472867727279663 0.08634230494499207
-0.08527129888534546 0.16279065608978271 -0.08979026973247528
-0.08527129888534546 0.16279065608978271 0.08754889667034149
-0.08527129888534546 0.17829453945159912 -0.08956807106733322
-0.08527129888534546 0.17829453945159912 0.0880243256688118
-0.08527129888534546 0.19379842281341553 -0.08943115174770355
-0.08527129888534546 0.19379842281341553 0.08791815489530563
-0.08527129888534546 0.20930230617523193 -0.08921723067760468
-0.08527129888534546 0.20930230617523193 0.0875004231929779
-0.08527129888534546 0.22480618953704834 -0.0887148380279541
-0.08527129888534546 0.22480620443820953 0.08674872666597366
-0.08527129888534546 0.24031007289886475 -0.08765478432178497
-0.08527129888534546 0.24031007289886475 0.08625256270170212
-0.08527129888534546 0.25581395626068115 -0.08620046824216843
-0.08527129888534546 0.25581395626068115 0.08581190556287766
-0.08527129888534546 0.27131783962249756 -0.08444533497095108
-0.08527129888534546 0.27131783962249756 0.08548615872859955
-0.08527129888534546 0.28682172298431396 -0.08223478496074677
-0.08527129888534546 0.28682172298431396 0.08529062569141388
-0.08527129888534546 0.30232560634613037 -0.0803937017917633
-0.08527129888534546 0.30232560634613037 0.08475594967603683
