-0.11627906560897827 0.06976747512817383 0.054343968629837036
-0.11627906560897827 0.08527135848999023 -0.05997667461633682
-0.11627906560897827 0.08527135848999023 0.0568387545645237
-0.11627906560897827 0.10077524185180664 -0.05986589938402176
-0.11627906560897827 0.10077524930238724 0.05894245579838753
-0.11627906560897827 0.11627912521362305 -0.060348398983478546
-0.11627906560897827 0.11627912521362305 0.06018533557653427
-0.11627906560897827 0.1317828893661499 -0.06108001247048378
-0.11627906560897827 0.1317828893661499 0.06079315021634102
-0.11627906560897827 0.1472867727279663 -0.061175063252449036
-0.11627906560897827 0.1472867727279663 0.06037101522088051
-0.11627906560897827 0.16279065608978271 -0.06053441762924194
-0.11627906560897827 0.16279065608978271 0.059421733021736145
-0.11627906560897827 0.17829453945159912 -0.059850990772247314
-0.11627906560897827 0.17829453945159912 0.05814133584499359
-0.11627906560897827 0.19379842281341553 -0.05957811325788498
-0.11627906560897827 0.19379842281341553 0.05621558055281639
-0.11627906560897827 0.20930230617523193 -0.05865801125764847
-0.11627906560897827 0.20930230617523193 0.053514447063207626
-0.11627906560897827 0.22480618953704834 -0.05538836494088173
-0.11627906560897827 0.22480618953704834 0.04730051010847092
-0.11627906560897827 0.24031007289886475 -0.03676503524184227
-0.11627906560897827 0.24031007289886475 0.046775441616773605
-0.11627906560897827 0.25581395626068115 -0.029617439955472946
-0.11627906560897827 0.25581395626068115 0.04353412613272667
-0.11627907305955887 0.27131783962249756 -0.03554080054163933
-0.11627906560897827 0.27131783962249756 0.037364691495895386
-0.11627906560897827 0.28682172298431396 -0.028010142967104912
-0.11627906560897827 0.28682172298431396 0.028106965124607086
-0.11627906560897827 0.30232560634613037 -0.011626213788986206
-0.11627906560897827 0.30232560634613037 0.018447494134306908
-0.11627906560897827 0.3488372564315796 -0.03926708176732063
-0.11627906560897827 0.3488372564315796 0.004259445704519749
-0.11627906560897827 0.364341139793396 -0.039754901081323624
-0.11627906560897827 0.364341139793396 0.009645383805036545
-0.11627906560897827 0.37984490394592285 -0.023331111297011375
-0.11627905815839767 0.37984490394592285 -0.022062057629227638
-0.11627906560897827 0.41085267066955566 -0.017308596521615982
-0.11627906560897827 0.41085267066955566 -0.001524215331301093
-0.11627906560897827 0.4728682041168213 -0.010485571809113026
-0.11627906560897827 0.4728682041168213 0.026601605117321014
-0.11627906560897827 0.4883720874786377 -0.021879276260733604
-0.11627906560897827 0.4883720874786377 0.03605210408568382
-0.11627906560897827 0.5038759708404541 -0.02712192013859749
-0.11627906560897827 0.5038759708404541 0.03988754376769066
-0.11627906560897827 0.5193798542022705 -0.03246069326996803
-0.11627906560897827 0.5193798542022705 0.042204465717077255
-0.11627906560897827 0.5348837375640869 -0.036806948482990265
-0.11627906560897827 0.5348837375640869 0.04352105036377907
-0.11627906560897827 0.5503876209259033 -0.03923790529370308
-0.11627906560897827 0.5503876209259033 0.043475277721881866
-0.11627906560897827 0.5658915042877197 -0.0384630486369133
-0.11627907305955887 0.5658915042877197 0.04154297336935997
-0.11627906560897827 0.5813953876495361 -0.03147318959236145
-0.11627906560897827 0.5813953876495361 0.03719982132315636
-0.11627906560897827 0.5968992710113525 -0.025902830064296722
-0.11627906560897827 0.5968992710113525 0.029587892815470695
-0.11627906560897827 0.612403154373169 -0.023381032049655914
-0.11627906560897827 0.612403154373169 0.025342125445604324
-0.11627906560897827 0.6279069185256958 -0.022464202716946602
-0.11627906560897827 0.6279069185256958 0.02394372597336769
-0.11627906560897827 0.6434108018875122 -0.02932383120059967
-0.11627906560897827 0.6434108018875122 0.02570338360965252
-0.11627906560897827 0.6589146852493286 -0.03223069757223129
-0.11627906560897827 0.6589146852493286 0.028684675693511963
-0.11627906560897827 0.674418568611145 -0.023315194994211197
-0.11627906560897827 0.674418568611145 0.030803872272372246
-0.11627906560897827 0.6899224519729614 0.0010135993361473083
-0.11627906560897827 0.6899224519729614 0.026354819536209106
-0.10077518224716187 -0.6899224519729614 -0.008361289277672768
-0.10077517479658127 -0.6899224519729614 0.023723851889371872
-0.10077518224716187 -0.674418568611145 -3.592716529965401e-05
-0.10077518224716187 -0.674418568611145 0.03263799101114273
-0.10077518224716187 -0.6589146852493286 0.0019546172115951777
-0.10077518224716187 -0.6589146852493286 0.04186316952109337
-0.10077518224716187 -0.643410861492157 -0.009506099857389927
-0.10077518224716187 -0.643410861492157 0.04917820543050766
-0.10077518224716187 -0.6279069781303406 -0.01883445866405964
-0.10077518224716187 -0.6279069781303406 0.04594343900680542
-0.10077518224716187 -0.6124030947685242 -0.024165794253349304
-0.10077518224716187 -0.6124030947685242 0.037111859768629074
-0.10077518224716187 -0.5968992114067078 -0.025720864534378052
-0.10077518224716187 -0.5968992114067078 0.026367079466581345
-0.10077518224716187 -0.5813953876495361 -0.03325285762548447
-0.10077518224716187 -0.5813953876495361 0.024914512410759926
-0.10077518224716187 -0.5658915042877197 -0.03383411467075348
-0.10077518224716187 -0.5658915042877197 0.01546428818255663
-0.10077518224716187 -0.3643410801887512 -0.03963007777929306
-0.10077518224716187 -0.3643410801887512 -0.0309307761490345
-0.10077518224716187 -0.3488371968269348 -0.049244433641433716
-0.10077518224716187 -0.3488371968269348 0.012138709425926208
-0.10077518224716187 -0.3333333134651184 -0.045183293521404266
-0.10077518224716187 -0.3333333134651184 0.026653671637177467
-0.10077518224716187 -0.317829430103302 -0.0409284383058548
-0.10077517479658127 -0.317829430103302 0.028664689511060715
-0.10077518224716187 -0.30232560634613037 -0.039722077548503876
-0.10077517479658127 -0.30232560634613037 0.027997350320219994
-0.10077518224716187 -0.28682172298431396 -0.039129164069890976
-0.10077518969774246 -0.28682172298431396 0.027668876573443413
-0.10077518224716187 -0.27131783962249756 -0.0332205630838871
-0.10077518224716187 -0.27131783962249756 0.029912009835243225
-0.10077518224716187 -0.25581395626068115 -0.03021499142050743
-0.10077518224716187 -0.25581395626068115 0.03847377747297287
-0.10077518224716187 -0.24031007289886475 -0.03399182856082916
-0.10077518224716187 -0.24031007289886475 0.04464816302061081
-0.10077518224716187 -0.22480618953704834 -0.04020306095480919
-0.10077518224716187 -0.22480618953704834 0.05161299929022789
-0.10077517479658127 -0.20930230617523193 -0.05105485022068024
-0.10077518224716187 -0.20930230617523193 0.05553451180458069
-0.10077518224716187 -0.19379842281341553 -0.05760722979903221
-0.10077518224716187 -0.19379842281341553 0.05744142457842827
-0.10077518224716187 -0.1782945990562439 -0.05964008718729019
-0.10077518224716187 -0.1782945990562439 0.0575999990105629
-0.10077518224716187 -0.1627907156944275 -0.05925171077251434
-0.10077518224716187 -0.1627907156944275 0.05576134845614433
-0.10077518224716187 -0.14728683233261108 -0.05797281116247177
-0.10077518224716187 -0.14728683233261108 0.055726028978824615
-0.10077518224716187 -0.13178294897079468 -0.05705253779888153
-0.10077518224716187 -0.13178294897079468 0.05889985337853432
-0.10077518224716187 -0.11627906560897827 -0.05622314661741257
-0.10077518224716187 -0.11627907305955887 0.06089910864830017
-0.10077518224716187 -0.10077518224716187 -0.0553911030292511
-0.10077518224716187 -0.10077518224716187 0.061505842953920364
-0.10077518224716187 -0.08527129888534546 -0.05516141280531883
-0.10077518224716187 -0.08527129888534546 0.06162107735872269
-0.10077518224716187 -0.06976741552352905 -0.05596325546503067
-0.10077518224716187 -0.06976741552352905 0.06168057397007942
-0.10077518224716187 -0.05426359176635742 -0.057324204593896866
-0.10077518224716187 -0.05426359176635742 0.06224360316991806
-0.10077518224716187 -0.038759708404541016 -0.058530911803245544
-0.10077518224716187 -0.038759708404541016 0.06312669813632965
-0.10077518224716187 -0.02325582504272461 -0.05971911922097206
-0.10077518224716187 -0.02325582504272461 0.06348061561584473
-0.10077518224716187 -0.007751941680908203 -0.06239628419280052
-0.10077518224716187 -0.007751941680908203 0.06213784217834473
-0.10077518224716187 0.007751941680908203 -0.0638711154460907
-0.10077518224716187 0.007751941680908203 0.060257263481616974
-0.10077518224716187 0.02325582504272461 -0.06244247779250145
-0.10077518224716187 0.02325582504272461 0.05899597704410553
-0.10077518224716187 0.038759708404541016 -0.06054547801613808
-0.10077518224716187 0.038759708404541016 0.05925857275724411
-0.10077518224716187 0.05426359176635742 -0.05894004553556442
-0.10077518224716187 0.05426359176635742 0.06081555783748627
-0.10077518224716187 0.06976747512817383 -0.057405319064855576
-0.10077518224716187 0.06976747512817383 0.06299635767936707
-0.10077518224716187 0.08527135848999023 -0.05661199241876602
-0.10077518224716187 0.08527135848999023 0.06512627005577087
-0.10077518224716187 0.10077524185180664 -0.056726958602666855
-0.10077518224716187 0.10077524185180664 0.06717684119939804
-0.10077518224716187 0.11627912521362305 -0.05751858651638031
-0.10077518224716187 0.11627912521362305 0.06871602684259415
-0.10077518224716187 0.1317828893661499 -0.05899825319647789
-0.10077518224716187 0.1317828893661499 0.06930788606405258
-0.10077518224716187 0.1472867727279663 -0.06022767350077629
-0.10077518224716187 0.1472867727279663 0.06889345496892929
-0.10077518224716187 0.16279065608978271 -0.06064387410879135
-0.10077518224716187 0.16279065608978271 0.06780021637678146
-0.10077518224716187 0.17829453945159912 -0.060947876423597336
-0.10077518224716187 0.17829453945159912 0.06622981280088425
-0.10077518224716187 0.19379842281341553 -0.06125354766845703
-0.10077518224716187 0.19379842281341553 0.06405923515558243
-0.10077518224716187 0.20930230617523193 -0.060858581215143204
-0.10077518224716187 0.20930230617523193 0.0609247162938118
-0.10077518224716187 0.22480618953704834 -0.05906963348388672
-0.10077518224716187 0.22480618953704834 0.05801615118980408
-0.10077518224716187 0.24031007289886475 -0.05605347082018852
-0.10077518224716187 0.24031007289886475 0.05660600587725639
-0.10077518224716187 0.25581395626068115 -0.05046629160642624
-0.10077517479658127 0.25581395626068115 0.054715029895305634
-0.10077518224716187 0.27131783962249756 -0.04075714945793152
-0.10077518224716187 0.27131783962249756 0.04688204079866409
-0.10077518224716187 0.28682172298431396 -0.02555711939930916
-0.10077518224716187 0.28682172298431396 0.03821557015180588
-0.10077518224716187 0.30232560634613037 -0.00848727859556675
-0.10077518224716187 0.30232560634613037 0.025599855929613113
-0.10077518224716187 0.3488372564315796 -0.002518109744414687
-0.10077518224716187 0.3488372564315796 0.025728067383170128
-0.10077518224716187 0.364341139793396 -0.025734685361385345
-0.10077518224716187 0.364341139793396 0.02404087409377098
-0.10077518224716187 0.4728681743144989 -0.023132849484682083
-0.10077518224716187 0.4728682041168213 0.033149030059576035
-0.10077518224716187 0.4883720874786377 -0.0372198224067688
-0.10077518224716187 0.4883721172809601 0.04558534547686577
-0.10077518224716187 0.5038759708404541 -0.04209580644965172
-0.10077518224716187 0.5038759708404541 0.05100073665380478
-0.10077518224716187 0.5193798542022705 -0.044934775680303574
-0.10077518224716187 0.5193798542022705 0.05452270433306694
-0.10077518224716187 0.5348837375640869 -0.045610684901475906
-0.10077518224716187 0.5348837375640869 0.05569455772638321
-0.10077518224716187 0.5503876209259033 -0.044230565428733826
-0.10077518224716187 0.5503876209259033 0.055998239666223526
-0.10077518224716187 0.5658915042877197 -0.043217651546001434
-0.10077518224716187 0.5658915042877197 0.05503392592072487
-0.10077518224716187 0.5813953876495361 -0.041509564965963364
-0.10077518224716187 0.5813953876495361 0.05212490260601044
-0.10077518224716187 0.5968992710113525 -0.039169616997241974
-0.10077518224716187 0.5968992710113525 0.04573545604944229
-0.10077518224716187 0.612403154373169 -0.034987159073352814
-0.10077518224716187 0.612403154373169 0.041779160499572754
-0.10077518224716187 0.6279069185256958 -0.033870477229356766
-0.10077518224716187 0.6279069185256958 0.03994889557361603
-0.10077518224716187 0.6434108018875122 -0.03880782797932625
-0.10077518224716187 0.6434108018875122 0.040748171508312225
-0.10077518224716187 0.6589146852493286 -0.03950374945998192
-0.10077518224716187 0.6589146852493286 0.04298656806349754
-0.10077518224716187 0.674418568611145 -0.0353843979537487
-0.10077518224716187 0.674418568611145 0.04430628567934036
-0.10077518224716187 0.6899224519729614 -0.03163055703043938
-0.10077518224716187 0.6899224519729614 0.04275242239236832
-0.10077518224716187 0.7054263353347778 -0.02838432975113392
-0.10077518224716187 0.7054263353347778 0.03805961832404137
-0.10077518224716187 0.7209302186965942 -0.032853804528713226
-0.10077518224716187 0.7209302186965942 0.0285574309527874
-0.10077518224716187 0.7364341020584106 -0.04230751469731331
-0.10077518224716187 0.7364341020584106 0.015233946964144707
-0.10077518224716187 0.751937985420227 -0.04288298264145851
-0.10077518224716187 0.751937985420227 0.0014831647276878357
-0.10077518224716187 0.7674419283866882 -0.03606915473937988
-0.10077518224716187 0.7674418687820435 -0.013508513569831848
-0.08527129888534546 -0.7829457521438599 -0.040107306092977524
-0.08527129888534546 -0.7829457521438599 -0.029987536370754242
-0.08527129888534546 -0.7674418687820435 -0.03879823908209801
-0.08527129888534546 -0.7674418687820435 -0.01407260075211525
-0.08527129888534546 -0.751937985420227 -0.02763655036687851
-0.08527129888534546 -0.751937985420227 -0.006097819656133652
-0.08527129888534546 -0.7364341020584106 -0.024610746651887894
-0.08527129888534546 -0.7364341020584106 -0.0022142648231238127
-0.08527129888534546 -0.7209302186965942 -0.02359822578728199
-0.08527129888534546 -0.7209302186965942 0.009639037773013115
-0.08527129888534546 -0.7054263949394226 -0.022328047081828117
-0.08527129888534546 -0.7054263353347778 0.026434049010276794
-0.08527129888534546 -0.6899224519729614 -0.015689946711063385
-0.08527129888534546 -0.6899224519729614 0.04241913557052612
-0.08527129888534546 -0.674418568611145 -0.010337580926716328
-0.08527129888534546 -0.674418568611145 0.05344188213348389
-0.08527129888534546 -0.6589146852493286 -0.008952678181231022
-0.08527129143476486 -0.6589146852493286 0.05660659074783325
-0.08527129888534546 -0.643410861492157 -0.012484455481171608
-0.08527129888534546 -0.6434108018875122 0.059163499623537064
-0.08527129888534546 -0.6279069781303406 -0.02298910729587078
-0.08527129888534546 -0.6279070377349854 0.05838143825531006
-0.08527129888534546 -0.6124030947685242 -0.025494679808616638
-0.08527130633592606 -0.6124030947685242 0.05450807511806488
-0.08527129888534546 -0.5968992114067078 -0.032938435673713684
-0.08527129888534546 -0.5968992114067078 0.04641249030828476
-0.08527129888534546 -0.5813953876495361 -0.0406034030020237
-0.08527129888534546 -0.5813953876495361 0.04449617117643356
-0.08527129888534546 -0.5658915042877197 -0.040894001722335815
-0.08527129888534546 -0.5658915042877197 0.040336064994335175
-0.08527129143476486 -0.4418604075908661 -0.006763448938727379
-0.08527129888534546 -0.4418604373931885 0.010462326928973198
-0.08527129888534546 -0.42635661363601685 -0.011116640642285347
-0.08527129888534546 -0.42635661363601685 0.011421022936701775
-0.08527129888534546 -0.3643410801887512 -0.03927188739180565
-0.08527129888534546 -0.3643410801887512 -0.019833099097013474
-0.08527129888534546 -0.3488371968269348 -0.04398617893457413
-0.08527129888534546 -0.3488371968269348 0.019039463251829147
-0.08527129888534546 -0.3333333134651184 -0.0417916439473629
-0.08527129888534546 -0.3333333134651184 0.03325366973876953
-0.08527129143476486 -0.317829430103302 -0.037529923021793365
-0.08527129888534546 -0.317829430103302 0.03531750664114952
-0.08527129888534546 -0.30232560634613037 -0.03270742669701576
-0.08527129888534546 -0.30232560634613037 0.034049492329359055
-0.08527129888534546 -0.28682172298431396 -0.03235236555337906
-0.08527129888534546 -0.28682172298431396 0.03398381173610687
-0.08527129888534546 -0.27131783962249756 -0.030286163091659546
-0.08527129888534546 -0.27131783962249756 0.03837861865758896
-0.08527129888534546 -0.25581395626068115 -0.030757207423448563
-0.08527129888534546 -0.25581395626068115 0.04456331953406334
-0.08527129888534546 -0.24031007289886475 -0.03920360654592514
-0.08527129888534546 -0.24031007289886475 0.054347507655620575
-0.08527129888534546 -0.22480618953704834 -0.04318507760763168
-0.08527129888534546 -0.22480618953704834 0.05831620469689369
-0.08527129888534546 -0.20930230617523193 -0.05238020420074463
-0.08527129888534546 -0.20930230617523193 0.06083579733967781
-0.08527129888534546 -0.19379842281341553 -0.056475065648555756
-0.08527129888534546 -0.19379842281341553 0.06242646276950836
-0.08527129888534546 -0.1782945990562439 -0.05788461118936539
-0.08527129888534546 -0.1782945990562439 0.062175147235393524
-0.08527129888534546 -0.1627907156944275 -0.057628147304058075
-0.08527129888534546 -0.1627907156944275 0.0605037584900856
-0.08527129888534546 -0.14728683233261108 -0.05659794807434082
-0.08527129888534546 -0.14728683233261108 0.06102953478693962
-0.08527129888534546 -0.13178294897079468 -0.055471744388341904
-0.08527129888534546 -0.13178294897079468 0.06421634554862976
-0.08527129888534546 -0.11627907305955887 -0.05395013093948364
-0.08527129888534546 -0.11627906560897827 0.06613929569721222
-0.08527129888534546 -0.10077518224716187 -0.05077511817216873
-0.08527129888534546 -0.10077518224716187 0.0667550340294838
-0.08527129888534546 -0.08527129888534546 -0.05002253130078316
-0.08527129888534546 -0.08527129888534546 0.06699922680854797
-0.08527129888534546 -0.06976741552352905 -0.05136803537607193
-0.08527129888534546 -0.06976741552352905 0.06742620468139648
-0.08527129888534546 -0.05426359176635742 -0.0543975830078125
-0.08527129888534546 -0.05426359176635742 0.06858102232217789
-0.08527129888534546 -0.038759708404541016 -0.05597108229994774
-0.08527129888534546 -0.038759708404541016 0.06985340267419815
-0.08527129888534546 -0.02325582504272461 -0.05746878311038017
-0.08527129888534546 -0.02325582318007946 0.06994982063770294
-0.08527129888534546 -0.007751941680908203 -0.05980578064918518
-0.08527129888534546 -0.007751941680908203 0.0679718628525734
-0.08527129888534546 0.007751941680908203 -0.06082340329885483
-0.08527129888534546 0.007751941680908203 0.06584270298480988
-0.08527129888534546 0.02325582504272461 -0.05965087562799454
-0.08527129888534546 0.02325582504272461 0.06496813893318176
-0.08527129888534546 0.038759708404541016 -0.05782590061426163
-0.08527129888534546 0.038759708404541016 0.06579610705375671
-0.08527129888534546 0.05426359176635742 -0.05656338483095169
-0.08527129888534546 0.05426359176635742 0.06858622282743454
-0.08527129888534546 0.06976747512817383 -0.05530378594994545
-0.08527129888534546 0.06976747512817383 0.07127359509468079
-0.08527129888534546 0.08527135848999023 -0.054328709840774536
-0.08527129888534546 0.08527135848999023 0.07287224382162094
-0.08527129888534546 0.10077524185180664 -0.05383053794503212
-0.08527129888534546 0.10077524185180664 0.07378634810447693
-0.08527129888534546 0.11627912521362305 -0.054961636662483215
-0.08527129888534546 0.11627911776304245 0.07417479157447815
-0.08527129888534546 0.1317828893661499 -0.05663973465561867
-0.08527129888534546 0.1317828893661499 0.0741686001420021
-0.08527129888534546 0.1472867727279663 -0.05828411877155304
-0.08527129888534546 0.1472867727279663 0.07385507225990295
-0.08527129888534546 0.16279065608978271 -0.05940272659063339
-0.08527129888534546 0.16279065608978271 0.07307460159063339
-0.08527129888534546 0.17829453945159912 -0.060152579098939896
-0.08527129888534546 0.17829453945159912 0.07164814323186874
-0.08527129888534546 0.19379842281341553 -0.06079584360122681
-0.08527129888534546 0.19379842281341553 0.07003457844257355
-0.08527129888534546 0.20930230617523193 -0.06080877035856247
-0.08527129888534546 0.20930230617523193 0.0673711746931076
-0.08527129888534546 0.22480618953704834 -0.05975714325904846
-0.08527129888534546 0.22480618953704834 0.06482715159654617
-0.08527129888534546 0.24031007289886475 -0.0581846684217453
-0.08527129888534546 0.24031007289886475 0.0633450597524643
-0.08527129888534546 0.25581395626068115 -0.05616568773984909
-0.08527129888534546 0.25581395626068115 0.06090468913316727
-0.08527129888534546 0.27131783962249756 -0.05133787542581558
-0.08527129888534546 0.27131783962249756 0.055971451103687286
-0.08527129888534546 0.28682172298431396 -0.0401422493159771
-0.08527129888534546 0.28682172298431396 0.04502422362565994
-0.08527129888534546 0.30232560634613037 -0.009696152061223984
-0.08527129888534546 0.30232560634613037 0.030860088765621185
-0.08527129888534546 0.3178294897079468 0.01666233502328396
-0.08527129888534546 0.3178294897079468 0.024934951215982437
-0.08527129888534546 0.3333333730697632 0.0009751159232109785
-0.08527129888534546 0.3333333730697632 0.039548609405756
-0.08527129888534546 0.3488372564315796 -0.01681237854063511
-0.08527129888534546 0.3488372564315796 0.04267945885658264
-0.08527129888534546 0.364341139793396 -0.021412452682852745
-0.08527129888534546 0.364341139793396 0.04147723317146301
-0.08527129888534546 0.37984490394592285 0.02105032652616501
-0.08527129888534546 0.37984487414360046 0.024099241942167282
-0.08527129888534546 0.4573643207550049 0.007289859466254711
-0.08527129888534546 0.4573643207550049 0.007920726202428341
-0.08527129888534546 0.4728682041168213 -0.034660108387470245
-0.08527129888534546 0.4728682041168213 0.03720931336283684
-0.08527129888534546 0.4883720874786377 -0.04249820113182068
-0.08527129888534546 0.4883720874786377 0.051806893199682236
-0.08527129888534546 0.5038759708404541 -0.04712992161512375
-0.08527129888534546 0.5038759708404541 0.05725810304284096
-0.08527129888534546 0.5193798542022705 -0.05179185792803764
-0.08527129888534546 0.5193798542022705 0.05981777608394623
-0.08527129888534546 0.5348837375640869 -0.05358368530869484
-0.08527129888534546 0.5348837375640869 0.06136453151702881
-0.08527129888534546 0.5503876209259033 -0.0511375367641449
-0.08527129888534546 0.5503876209259033 0.062338899821043015
-0.08527129888534546 0.5658915042877197 -0.04717346653342247
-0.08527129888534546 0.5658915042877197 0.062102146446704865
-0.08527129888534546 0.5813953876495361 -0.04460946470499039
-0.08527129888534546 0.5813953876495361 0.060593463480472565
-0.08527129888534546 0.5968992710113525 -0.042083270847797394
-0.08527129888534546 0.5968992710113525 0.057832732796669006
-0.08527129888534546 0.612403154373169 -0.04144662991166115
-0.08527129888534546 0.612403154373169 0.05581195652484894
-0.08527129888534546 0.6279069185256958 -0.04228520765900612
-0.08527129888534546 0.6279069185256958 0.05466771870851517
-0.08527129888534546 0.6434108018875122 -0.043986931443214417
-0.08527129888534546 0.6434108018875122 0.054589275270700455
-0.08527129888534546 0.6589146852493286 -0.044779449701309204
-0.08527129888534546 0.6589146852493286 0.05470721423625946
-0.08527129888534546 0.674418568611145 -0.043290913105010986
-0.08527129888534546 0.674418568611145 0.05325678363442421
-0.08527129888534546 0.6899224519729614 -0.04242092743515968
-0.08527129888534546 0.6899224519729614 0.048438139259815216
-0.08527129888534546 0.7054263353347778 -0.044242456555366516
-0.08527129888534546 0.7054263353347778 0.04379204660654068
-0.08527129888534546 0.7209302186965942 -0.054388370364904404
-0.08527129888534546 0.7209302186965942 0.03897945210337639
-0.08527129888534546 0.7364341020584106 -0.05794339254498482
-0.08527129888534546 0.7364341020584106 0.02932719513773918
-0.08527129888534546 0.751937985420227 -0.05689869076013565
-0.08527129888534546 0.751937985420227 0.01716773957014084
-0.08527129888534546 0.7674418687820435 -0.04851499944925308
-0.08527129888534546 0.7674418687820435 0.0020044681150466204
-0.08527129888534546 0.7829457521438599 -0.0405111238360405
-0.08527129888534546 0.7829457521438599 -0.01586141437292099
-0.08527129888534546 0.7984496355056763 -0.039654821157455444
-0.08527129888534546 0.7984495759010315 -0.03718452528119087
-0.08527129888534546 0.8294574022293091 -0.05488016828894615
-0.08527129143476486 0.8294574022293091 -0.05322733521461487
-0.06976741552352905 -0.7984496355056763 -0.04536909610033035
-0.06976741552352905 -0.7984496355056763 -0.015864839777350426
-0.06976741552352905 -0.7829457521438599 -0.049087196588516235
-0.06976741552352905 -0.7829457521438599 -0.0019521985668689013
-0.06976741552352905 -0.7674418687820435 -0.04569844901561737
-0.06976741552352905 -0.7674418687820435 0.008480684831738472
-0.06976741552352905 -0.751937985420227 -0.040462858974933624
-0.06976741552352905 -0.751937985420227 0.013104518875479698
-0.06976741552352905 -0.7364341020584106 -0.036328986287117004
-0.06976741552352905 -0.7364341020584106 0.02417149767279625
-0.06976741552352905 -0.7209302186965942 -0.03308163583278656
-0.06976741552352905 -0.7209302186965942 0.03397085517644882
-0.06976741552352905 -0.7054263353347778 -0.031345829367637634
-0.06976741552352905 -0.7054263353347778 0.04551093280315399
-0.06976741552352905 -0.6899224519729614 -0.028321601450443268
-0.06976741552352905 -0.6899224519729614 0.056679047644138336
-0.06976741552352905 -0.674418568611145 -0.02521442249417305
-0.06976741552352905 -0.674418568611145 0.060980893671512604
-0.06976741552352905 -0.6589146852493286 -0.02447391301393509
-0.06976741552352905 -0.6589146852493286 0.06612291932106018
-0.06976741552352905 -0.643410861492157 -0.026569537818431854
-0.06976741552352905 -0.6434108018875122 0.06895209103822708
-0.06976741552352905 -0.6279069781303406 -0.031185414642095566
-0.06976741552352905 -0.6279069781303406 0.06866124272346497
-0.06976741552352905 -0.6124030947685242 -0.03863376006484032
-0.06976741552352905 -0.6124030947685242 0.06619949638843536
-0.06976741552352905 -0.5968992114067078 -0.041604965925216675
-0.06976741552352905 -0.5968992114067078 0.0628458559513092
-0.06976741552352905 -0.5813953876495361 -0.045712895691394806
-0.06976741552352905 -0.5813953876495361 0.06163538247346878
-0.06976741552352905 -0.5658915042877197 -0.04625710844993591
-0.06976741552352905 -0.5658915042877197 0.0594441182911396
-0.06976741552352905 -0.5503876209259033 -0.04240185022354126
-0.06976741552352905 -0.5503876209259033 0.05353489890694618
-0.06976741552352905 -0.4418604373931885 -0.010979137383401394
-0.06976741552352905 -0.4418604373931885 0.02357621304690838
-0.06976741552352905 -0.42635661363601685 -0.013003088533878326
-0.06976741552352905 -0.42635661363601685 0.019122706726193428
-0.06976741552352905 -0.3488371968269348 -0.03882386162877083
-0.06976741552352905 -0.3488371968269348 0.02162066288292408
-0.06976741552352905 -0.3333333134651184 -0.03391757979989052
-0.06976741552352905 -0.3333333134651184 0.038094792515039444
-0.06976741552352905 -0.317829430103302 -0.02757909893989563
-0.06976741552352905 -0.317829430103302 0.038980815559625626
-0.06976741552352905 -0.30232560634613037 -0.026043768972158432
-0.06976741552352905 -0.30232560634613037 0.037803828716278076
-0.06976741552352905 -0.28682172298431396 -0.0261786300688982
-0.06976741552352905 -0.28682172298431396 0.03805868700146675
-0.06976741552352905 -0.27131783962249756 -0.02652653306722641
-0.06976741552352905 -0.27131783962249756 0.04140367731451988
-0.06976741552352905 -0.25581395626068115 -0.031178666278719902
-0.06976741552352905 -0.25581395626068115 0.05063238367438316
-0.06976741552352905 -0.24031007289886475 -0.04008778929710388
-0.06976741552352905 -0.24031007289886475 0.05876525491476059
-0.06976741552352905 -0.22480618953704834 -0.04458323493599892
-0.06976741552352905 -0.22480618953704834 0.06374923884868622
-0.06976741552352905 -0.20930230617523193 -0.05264550819993019
-0.06976741552352905 -0.20930230617523193 0.06620533764362335
-0.06976741552352905 -0.19379842281341553 -0.056009918451309204
-0.06976741552352905 -0.19379842281341553 0.06731254607439041
-0.06976741552352905 -0.1782945990562439 -0.05712496489286423
-0.06976741552352905 -0.1782945990562439 0.06689447164535522
-0.06976741552352905 -0.1627907156944275 -0.056836050003767014
-0.06976741552352905 -0.1627907156944275 0.06572211533784866
-0.06976741552352905 -0.14728683233261108 -0.055645670741796494
-0.06976741552352905 -0.14728683233261108 0.06640087068080902
-0.06976740807294846 -0.13178294897079468 -0.053992751985788345
-0.06976741552352905 -0.13178294897079468 0.06950737535953522
-0.06976741552352905 -0.11627906560897827 -0.05043470859527588
-0.06976741552352905 -0.11627906560897827 0.07094067335128784
-0.06976741552352905 -0.10077518224716187 -0.04785589873790741
-0.06976741552352905 -0.10077518969774246 0.07118124514818192
-0.06976741552352905 -0.08527129888534546 -0.04720165580511093
-0.06976741552352905 -0.08527129888534546 0.07136783003807068
-0.06976741552352905 -0.06976741552352905 -0.04835369437932968
-0.06976741552352905 -0.06976741552352905 0.071865975856781
-0.06976741552352905 -0.05426359176635742 -0.05082302913069725
-0.06976741552352905 -0.05426359176635742 0.07253878563642502
-0.06976741552352905 -0.038759708404541016 -0.05459911748766899
-0.06976741552352905 -0.038759708404541016 0.07299238443374634
-0.06976741552352905 -0.02325582504272461 -0.0565495565533638
-0.06976741552352905 -0.02325582504272461 0.07295341789722443
-0.06976741552352905 -0.007751941680908203 -0.05864596739411354
-0.06976741552352905 -0.007751941680908203 0.07193614542484283
-0.06976741552352905 0.007751941680908203 -0.05937977880239487
-0.06976741552352905 0.00775194214656949 0.07083237916231155
-0.06976741552352905 0.02325582504272461 -0.05820950120687485
-0.06976741552352905 0.02325582690536976 0.07044260203838348
-0.06976741552352905 0.038759708404541016 -0.05647508427500725
-0.06976741552352905 0.038759708404541016 0.07160714268684387
-0.06976741552352905 0.05426359176635742 -0.05548899620771408
-0.06976741552352905 0.05426359176635742 0.0739932432770729
-0.06976741552352905 0.06976747512817383 -0.054278962314128876
-0.06976741552352905 0.06976747512817383 0.07570759207010269
-0.06976741552352905 0.08527135848999023 -0.05082361400127411
-0.06976741552352905 0.08527135848999023 0.07663516700267792
-0.06976741552352905 0.10077524930238724 -0.049950648099184036
-0.06976741552352905 0.10077524185180664 0.07710497826337814
-0.06976741552352905 0.11627912521362305 -0.05181054025888443
-0.06976741552352905 0.11627912521362305 0.07720792293548584
-0.06976741552352905 0.1317828893661499 -0.05508289858698845
-0.06976741552352905 0.1317828893661499 0.07704906165599823
-0.06976741552352905 0.1472867727279663 -0.05683840811252594
-0.06976741552352905 0.1472867727279663 0.07659554481506348
-0.06976741552352905 0.16279065608978271 -0.058312952518463135
-0.06976741552352905 0.16279065608978271 0.07555674016475677
-0.06976741552352905 0.17829453945159912 -0.05950954928994179
-0.06976741552352905 0.17829453945159912 0.07402218878269196
-0.06976741552352905 0.19379842281341553 -0.06028623878955841
-0.06976741552352905 0.19379840791225433 0.07244522869586945
-0.06976741552352905 0.20930230617523193 -0.06056790053844452
-0.06976741552352905 0.20930230617523193 0.07086211442947388
-0.06976741552352905 0.22480618953704834 -0.05996917933225632
-0.06976741552352905 0.22480618953704834 0.06991269439458847
-0.06976741552352905 0.24031007289886475 -0.05883137136697769
-0.06976741552352905 0.24031007289886475 0.06901872903108597
-0.06976741552352905 0.25581395626068115 -0.05729377269744873
-0.06976741552352905 0.25581395626068115 0.0666307806968689
-0.06976741552352905 0.27131783962249756 -0.05468443036079407
-0.06976741552352905 0.27131783962249756 0.06079735979437828
-0.06976741552352905 0.28682172298431396 -0.04399680718779564
-0.06976741552352905 0.28682172298431396 0.051770567893981934
-0.06976741552352905 0.30232560634613037 -0.0242205411195755
-0.06976741552352905 0.30232560634613037 0.035426508635282516
-0.06976741552352905 0.3178294897079468 0.0030918624252080917
-0.06976741552352905 0.3178294897079468 0.03647731989622116
-0.06976741552352905 0.3333333730697632 -0.011952271685004234
-0.06976741552352905 0.3333333730697632 0.04745439067482948
-0.06976741552352905 0.3488372564315796 -0.023725155740976334
-0.06976741552352905 0.3488372564315796 0.04993158206343651
-0.06976741552352905 0.364341139793396 -0.022171681746840477
-0.06976741552352905 0.364341139793396 0.047951389104127884
-0.06976741552352905 0.37984490394592285 0.003274348797276616
-0.06976741552352905 0.37984490394592285 0.04117840528488159
-0.06976741552352905 0.4573643207550049 -0.025062065571546555
-0.06976742297410965 0.4573643207550049 0.0241754949092865
-0.06976741552352905 0.4728682041168213 -0.0399966798722744
-0.06976741552352905 0.4728682041168213 0.042257629334926605
-0.06976741552352905 0.4883720874786377 -0.04440140724182129
-0.06976741552352905 0.4883721172809601 0.05534094572067261
-0.06976741552352905 0.5038759708404541 -0.05084820091724396
-0.06976741552352905 0.5038759708404541 0.060686998069286346
-0.06976741552352905 0.5193798542022705 -0.05517164245247841
-0.06976741552352905 0.5193798542022705 0.06391163170337677
-0.06976741552352905 0.5348837375640869 -0.05547531694173813
-0.06976741552352905 0.5348837375640869 0.06593894213438034
-0.06976741552352905 0.5503876209259033 -0.05457638204097748
-0.06976741552352905 0.5503876209259033 0.06732124835252762
-0.06976741552352905 0.5658915042877197 -0.0501495897769928
-0.06976741552352905 0.5658915042877197 0.06743723899126053
-0.06976741552352905 0.5813953876495361 -0.04562532156705856
-0.06976741552352905 0.5813953876495361 0.06672336161136627
-0.06976741552352905 0.5968992710113525 -0.0434381365776062
-0.06976741552352905 0.5968992710113525 0.0639713779091835
-0.06976741552352905 0.612403154373169 -0.043597061187028885
-0.06976741552352905 0.612403154373169 0.06200677528977394
-0.06976741552352905 0.6279069185256958 -0.045299895107746124
-0.06976741552352905 0.6279069185256958 0.06153203547000885
-0.06976741552352905 0.6434108018875122 -0.04875027388334274
-0.06976741552352905 0.6434108018875122 0.06051318347454071
-0.06976741552352905 0.6589146852493286 -0.05206446349620819
-0.06976741552352905 0.6589146852493286 0.05880103260278702
-0.06976741552352905 0.674418568611145 -0.05090826749801636
-0.06976741552352905 0.674418568611145 0.05636788159608841
-0.06976741552352905 0.6899224519729614 -0.04974180832505226
-0.06976741552352905 0.6899224519729614 0.05294443666934967
-0.06976741552352905 0.7054263353347778 -0.05462348461151123
-0.06976741552352905 0.7054263353347778 0.04707272723317146
-0.06976741552352905 0.7209302186965942 -0.05915956199169159
-0.06976741552352905 0.7209302186965942 0.04265638068318367
-0.06976741552352905 0.7364341020584106 -0.06463257968425751
-0.06976741552352905 0.7364341020584106 0.03356616571545601
-0.06976741552352905 0.751937985420227 -0.06205358728766441
-0.06976741552352905 0.751937985420227 0.02501591667532921
-0.06976741552352905 0.7674418687820435 -0.05544168874621391
-0.06976741552352905 0.7674418687820435 0.010968632996082306
-0.06976741552352905 0.7829457521438599 -0.045152951031923294
-0.06976741552352905 0.7829458117485046 -0.0058832732029259205
-0.06976741552352905 0.7984496355056763 -0.04271683469414711
-0.06976741552352905 0.7984496355056763 -0.024277232587337494
-0.06976741552352905 0.8139535188674927 -0.04366659000515938
-0.06976741552352905 0.8139535188674927 -0.03685637563467026
-0.06976741552352905 0.8294574022293091 -0.05480087921023369
-0.06976741552352905 0.8294574022293091 -0.05147973820567131
-0.05426359176635742 -0.8604651093482971 -0.06984905153512955
-0.05426359176635742 -0.8604651689529419 -0.06920519471168518
-0.05426359176635742 -0.8449612259864807 -0.059618424624204636
-0.05426358804106712 -0.8449611663818359 -0.047710563987493515
-0.05426359176635742 -0.8294573426246643 -0.05631031095981598
-0.05426359176635742 -0.8294572830200195 -0.031617701053619385
-0.05426359176635742 -0.8139535188674927 -0.04897928237915039
-0.05426359176635742 -0.8139535188674927 -0.01543368585407734
-0.05426359176635742 -0.7984496355056763 -0.04664820432662964
-0.05426359176635742 -0.7984496355056763 -4.952237941324711e-05
-0.05426359549164772 -0.7829458117485046 -0.051004696637392044
-0.05426359176635742 -0.7829456925392151 0.011975938454270363
-0.05426359176635742 -0.7674418687820435 -0.05004056915640831
-0.05426359176635742 -0.7674418687820435 0.02132594771683216
-0.05426359176635742 -0.751937985420227 -0.04420064389705658
-0.05426359176635742 -0.751937985420227 0.02813979610800743
-0.05426359176635742 -0.7364341020584106 -0.04185718297958374
-0.05426359549164772 -0.7364341020584106 0.03909342363476753
-0.05426359176635742 -0.7209302186965942 -0.042009878903627396
-0.05426359176635742 -0.7209302186965942 0.04492996633052826
-0.05426359176635742 -0.7054263353347778 -0.042252540588378906
-0.05426359176635742 -0.7054263353347778 0.05476948246359825
-0.05426359176635742 -0.6899224519729614 -0.04106786474585533
-0.05426359176635742 -0.6899224519729614 0.05869997665286064
-0.05426359176635742 -0.674418568611145 -0.03959885239601135
-0.05426359176635742 -0.674418568611145 0.06421013176441193
-0.05426359176635742 -0.6589146852493286 -0.03933773189783096
-0.05426359176635742 -0.6589146852493286 0.06922397762537003
-0.05426359176635742 -0.643410861492157 -0.04077330231666565
-0.05426359176635742 -0.643410861492157 0.07091280072927475
-0.05426359176635742 -0.6279069781303406 -0.04343826696276665
-0.05426359176635742 -0.6279069781303406 0.07199052721261978
-0.05426359176635742 -0.6124030947685242 -0.04627489298582077
-0.05426359176635742 -0.6124030947685242 0.07179567217826843
-0.05426359176635742 -0.5968992114067078 -0.04876409471035004
-0.05426359176635742 -0.5968992114067078 0.0710386112332344
-0.05426359549164772 -0.5813953876495361 -0.05121941119432449
-0.05426359549164772 -0.5813953876495361 0.07065828144550323
-0.05426359176635742 -0.5658915042877197 -0.05152158811688423
-0.05426359176635742 -0.5658915042877197 0.06952977925539017
-0.05426359176635742 -0.5503876209259033 -0.04984484612941742
-0.05426359176635742 -0.5503876209259033 0.0655156821012497
-0.05426359176635742 -0.5348837375640869 -0.04124792292714119
-0.05426358804106712 -0.5348837375640869 0.055254995822906494
-0.05426359176635742 -0.4573643207550049 -0.02330399677157402
-0.05426359176635742 -0.4573643207550049 0.028359796851873398
-0.05426359176635742 -0.4418604373931885 -0.025000344961881638
-0.05426359176635742 -0.4418604373931885 0.026757391169667244
-0.05426359549164772 -0.42635661363601685 -0.022709183394908905
-0.05426359176635742 -0.42635661363601685 0.024636080488562584
-0.05426359176635742 -0.41085273027420044 -0.003732547163963318
-0.05426359176635742 -0.41085273027420044 0.01239904947578907
-0.05426359176635742 -0.3333333134651184 -0.018435422331094742
-0.05426359176635742 -0.3333333134651184 0.032065145671367645
-0.05426359176635742 -0.317829430103302 -0.017296668142080307
-0.05426359176635742 -0.317829430103302 0.036177802830934525
-0.05426359176635742 -0.30232560634613037 -0.017419278621673584
-0.05426359176635742 -0.30232560634613037 0.03503848612308502
-0.05426359176635742 -0.28682172298431396 -0.020562956109642982
-0.05426359176635742 -0.28682172298431396 0.03718346357345581
-0.05426359176635742 -0.27131783962249756 -0.024663101881742477
-0.05426359176635742 -0.27131783962249756 0.04324118047952652
-0.05426359176635742 -0.25581395626068115 -0.032335296273231506
-0.05426359176635742 -0.25581395626068115 0.05451711639761925
-0.05426359176635742 -0.24031007289886475 -0.04068011790513992
-0.05426359176635742 -0.24031007289886475 0.062027327716350555
-0.05426359176635742 -0.22480618953704834 -0.04502411559224129
-0.05426359176635742 -0.22480618953704834 0.06665421277284622
-0.05426359549164772 -0.20930230617523193 -0.05271422117948532
-0.05426359176635742 -0.20930230617523193 0.06855522096157074
-0.05426359176635742 -0.19379842281341553 -0.05595901235938072
-0.05426359176635742 -0.19379840791225433 0.06979747861623764
-0.05426359176635742 -0.1782945990562439 -0.057072799652814865
-0.05426359176635742 -0.1782945990562439 0.0697755217552185
-0.05426359176635742 -0.1627907156944275 -0.056674957275390625
-0.05426359176635742 -0.1627907156944275 0.06900694221258163
-0.05426359176635742 -0.14728683233261108 -0.05520743504166603
-0.05426359176635742 -0.14728683233261108 0.06984928250312805
-0.05426359176635742 -0.13178294897079468 -0.05226852744817734
-0.05426359176635742 -0.13178294897079468 0.07153130322694778
-0.05426358804106712 -0.11627906560897827 -0.049054767936468124
-0.05426359176635742 -0.11627906560897827 0.0726994052529335
-0.05426359176635742 -0.10077518224716187 -0.046634241938591
-0.05426359176635742 -0.10077518224716187 0.07299218326807022
-0.05426359176635742 -0.08527129888534546 -0.045990124344825745
-0.05426359176635742 -0.08527129888534546 0.07331755757331848
-0.05426359176635742 -0.06976741552352905 -0.04718949645757675
-0.05426359176635742 -0.06976741552352905 0.07395344227552414
-0.05426359176635742 -0.05426359176635742 -0.04951580613851547
-0.05426359176635742 -0.05426359176635742 0.07455861568450928
-0.05426358804106712 -0.038759708404541016 -0.05376918241381645
-0.05426359176635742 -0.038759708404541016 0.07478973269462585
-0.05426359176635742 -0.02325582504272461 -0.056383442133665085
-0.05426359176635742 -0.02325582504272461 0.07459425926208496
-0.05426359176635742 -0.007751941680908203 -0.05837325006723404
-0.05426359176635742 -0.007751941680908203 0.07371432334184647
-0.05426359176635742 0.007751941680908203 -0.05893528461456299
-0.05426359176635742 0.007751941215246916 0.07282567024230957
-0.05426359176635742 0.02325582504272461 -0.057823218405246735
-0.05426359176635742 0.02325582504272461 0.07264012843370438
-0.05426359176635742 0.038759708404541016 -0.05618508905172348
-0.05426359176635742 0.038759708404541016 0.07390832901000977
-0.05426359176635742 0.05426359176635742 -0.055288054049015045
-0.05426359176635742 0.05426359176635742 0.07597418129444122
-0.05426359549164772 0.06976747512817383 -0.05328589305281639
-0.05426359176635742 0.06976747512817383 0.07765911519527435
-0.05426359176635742 0.08527135848999023 -0.049520064145326614
-0.05426359176635742 0.08527135848999023 0.07848360389471054
-0.05426359176635742 0.10077524185180664 -0.04846714437007904
-0.05426359176635742 0.10077524185180664 0.07889168709516525
-0.05426358804106712 0.11627912521362305 -0.04991729184985161
-0.05426359176635742 0.11627912521362305 0.07896215468645096
-0.05426359176635742 0.1317828893661499 -0.054242849349975586
-0.05426359176635742 0.1317828893661499 0.07877518981695175
-0.05426359176635742 0.1472867727279663 -0.05619007721543312
-0.05426359176635742 0.1472867727279663 0.0782020092010498
-0.05426359176635742 0.16279065608978271 -0.057838112115859985
-0.05426359176635742 0.16279065608978271 0.07702389359474182
-0.05426359176635742 0.17829453945159912 -0.05929969996213913
-0.05426359549164772 0.17829453945159912 0.07530897855758667
-0.05426359176635742 0.19379842281341553 -0.06024681031703949
-0.05426359176635742 0.19379842281341553 0.07344143837690353
-0.05426359176635742 0.20930230617523193 -0.06062972545623779
-0.05426359176635742 0.20930230617523193 0.07196203619241714
-0.05426359176635742 0.22480618953704834 -0.060124680399894714
-0.05426359176635742 0.22480618953704834 0.07100099325180054
-0.05426359176635742 0.24031007289886475 -0.05900941789150238
-0.05426359176635742 0.24031008780002594 0.07053431868553162
-0.05426359176635742 0.25581395626068115 -0.05728180706501007
-0.05426359176635742 0.25581395626068115 0.06902498006820679
-0.05426359176635742 0.27131783962249756 -0.054757505655288696
-0.05426359176635742 0.27131783962249756 0.06308040022850037
-0.05426359176635742 0.28682172298431396 -0.04374322295188904
-0.05426359176635742 0.28682172298431396 0.053442444652318954
-0.05426359176635742 0.30232560634613037 -0.025640875101089478
-0.05426359176635742 0.30232560634613037 0.03406072035431862
-0.05426359176635742 0.3178294897079468 -0.00805053859949112
-0.05426359176635742 0.3178294897079468 0.04321298748254776
-0.05426359176635742 0.3333333730697632 -0.017544200643897057
-0.05426359176635742 0.3333333730697632 0.05295516550540924
-0.05426359176635742 0.3488372564315796 -0.023298170417547226
-0.05426359176635742 0.3488372564315796 0.053559061139822006
-0.05426359176635742 0.364341139793396 -0.016217712312936783
-0.05426359176635742 0.364341139793396 0.05128021538257599
-0.05426359176635742 0.37984490394592285 0.0020952990744262934
-0.05426358804106712 0.37984490394592285 0.044513486325740814
-0.05426359176635742 0.4573643207550049 -0.029825467616319656
-0.05426359176635742 0.4573643207550049 0.02976335771381855
-0.05426359176635742 0.4728682041168213 -0.04040595889091492
-0.05426359176635742 0.4728682041168213 0.046061888337135315
-0.05426359176635742 0.4883720874786377 -0.04495374858379364
-0.05426359176635742 0.4883720874786377 0.057000428438186646
-0.05426359176635742 0.5038759708404541 -0.05378538742661476
-0.05426359176635742 0.5038759708404541 0.06312590837478638
-0.05426359176635742 0.5193798542022705 -0.055951863527297974
-0.05426359176635742 0.5193798542022705 0.06678720563650131
-0.05426359176635742 0.5348837375640869 -0.05634113401174545
-0.05426359176635742 0.5348837375640869 0.06916984170675278
-0.05426359176635742 0.5503876209259033 -0.055279023945331573
-0.05426359176635742 0.5503876209259033 0.07022269815206528
-0.05426359176635742 0.5658915042877197 -0.052318282425403595
-0.05426359176635742 0.5658915042877197 0.07017137855291367
-0.05426359176635742 0.5813953876495361 -0.046224988996982574
-0.05426359176635742 0.5813953876495361 0.06985680013895035
-0.05426359176635742 0.5968992710113525 -0.04389609023928642
-0.05426359176635742 0.5968992710113525 0.06857474893331528
-0.05426359176635742 0.612403154373169 -0.04406844079494476
-0.05426359176635742 0.612403154373169 0.0664052665233612
-0.05426359176635742 0.6279069185256958 -0.04607086628675461
-0.05426359176635742 0.6279069185256958 0.065264031291008
-0.05426358804106712 0.6434107422828674 -0.05126229673624039
-0.05426359176635742 0.6434108018875122 0.06336493790149689
-0.05426359176635742 0.6589146852493286 -0.05479945242404938
-0.05426359176635742 0.6589146852493286 0.06020630523562431
-0.05426359176635742 0.674418568611145 -0.054972920566797256
-0.05426359176635742 0.674418568611145 0.05712130665779114
-0.05426359176635742 0.6899224519729614 -0.054951444268226624
-0.05426358804106712 0.6899224519729614 0.05469886213541031
-0.05426359176635742 0.7054263353347778 -0.05717352032661438
-0.05426359176635742 0.7054263353347778 0.050174176692962646
-0.05426359176635742 0.7209302186965942 -0.06280504167079926
-0.05426359176635742 0.7209302186965942 0.045624781399965286
-0.05426359176635742 0.7364341616630554 -0.06597273051738739
-0.05426359176635742 0.7364341020584106 0.03958781808614731
-0.05426359176635742 0.751937985420227 -0.06234147399663925
-0.05426359176635742 0.751937985420227 0.028590332716703415
-0.05426359176635742 0.7674418687820435 -0.055880945175886154
-0.05426359176635742 0.7674418687820435 0.015914395451545715
-0.05426359176635742 0.7829457521438599 -0.04788375645875931
-0.05426359176635742 0.7829457521438599 0.0001777957659214735
-0.05426359176635742 0.7984496355056763 -0.0439152717590332
-0.05426359176635742 0.7984496355056763 -0.01880876161158085
-0.05426359176635742 0.8139535188674927 -0.045409124344587326
-0.05426359176635742 0.8139535188674927 -0.034406259655952454
-0.038759708404541016 -0.8449612259864807 -0.05853632092475891
-0.038759708404541016 -0.8449612259864807 -0.038258135318756104
