0.21297290921211243 0.37984487414360046 0.9379844665527344
0.22053693234920502 0.39534878730773926 -0.24031007289886475
0.21336454153060913 0.39534878730773926 0.9379844665527344
0.22288234531879425 0.4573643207550049 0.8914728164672852
0.22200414538383484 0.4573643207550049 0.9069766998291016
0.22909784317016602 -0.4728682041168213 0.8449613451957703
0.23963932693004608 -0.4728682041168213 0.8914728164672852
0.2304285764694214 -0.4573643207550049 0.8914728164672852
0.2263454794883728 -0.4418604075908661 0.8294574022293091
0.2390478253364563 -0.42635661363601685 0.9069766998291016
0.22633162140846252 -0.41085273027420044 0.9069766998291016
0.2337266504764557 -0.39534884691238403 0.8139535188674927
0.2250591665506363 -0.3798449635505676 0.9224805235862732
0.22727835178375244 -0.3488371968269348 0.7984496355056763
0.22797472774982452 -0.3488371968269348 0.9379844665527344
0.22697283327579498 -0.317829430103302 0.9379844665527344
0.23157858848571777 -0.30232560634613037 0.9379844665527344
0.23913981020450592 -0.28682172298431396 0.7829457521438599
0.23525866866111755 -0.28682172298431396 0.9379844665527344
0.2390410453081131 -0.27131783962249756 0.9379844665527344
0.24028922617435455 -0.24031007289886475 0.9379844665527344
0.2402118742465973 -0.22480618953704834 0.9379844665527344
0.22698232531547546 -0.19379840791225433 0.922480583190918
0.23487234115600586 -0.1782945990562439 0.922480583190918
0.2262437492609024 -0.1627907156944275 0.9069766998291016
0.23939752578735352 -0.1627907156944275 0.922480583190918
0.23594194650650024 -0.14728683233261108 0.9069766998291016
0.2346537709236145 -0.13178294897079468 0.8914728164672852
0.22506268322467804 -0.11627906560897827 0.8759689331054688
0.23108461499214172 -0.10077518224716187 0.8759689331054688
0.22953149676322937 -0.08527129888534546 0.8759689331054688
0.22922515869140625 -0.06976741552352905 0.875968873500824
0.240300714969635 -0.06976741552352905 0.8914728164672852
0.22668319940567017 -0.05426359176635742 0.8759689331054688
0.2367846518754959 -0.05426359176635742 0.8914728164672852
0.23188161849975586 -0.038759708404541016 0.8914728164672852
0.237819105386734 -0.038759708404541016 0.9069766998291016
0.22590114176273346 -0.02325582504272461 0.8914728164672852
0.2330460399389267 -0.02325582504272461 0.9069766998291016
0.22892123460769653 -0.007751941680908203 0.9069766998291016
0.23888105154037476 -0.007751941680908203 0.922480583190918
0.2319820523262024 0.007751941680908203 0.922480583190918
0.22538843750953674 0.02325582504272461 0.9379844069480896
0.22588196396827698 0.038759712129831314 -0.317829430103302
0.23323512077331543 0.038759708404541016 -0.30232560634613037
0.22664575278759003 0.05426359176635742 -0.317829430103302
0.2371399998664856 0.05426359176635742 -0.30232560634613037
0.23367992043495178 0.05426359176635742 0.9379844665527344
0.22705605626106262 0.06976747512817383 -0.317829430103302
0.23911896347999573 0.06976747512817383 -0.30232560634613037
0.22782811522483826 0.06976747512817383 0.922480583190918
0.2274894416332245 0.08527135848999023 -0.317829430103302
0.2401452213525772 0.08527135848999023 -0.30232560634613037
0.23372139036655426 0.08527135848999023 0.9069766998291016
0.2281959354877472 0.10077524185180664 -0.317829430103302
0.2303752303123474 0.10077524185180664 0.8914728164672852
0.22960323095321655 0.11627912521362305 -0.317829430103302
0.23111237585544586 0.11627912521362305 0.8914728164672852
0.23467499017715454 0.1317828893661499 -0.317829430103302
0.23622122406959534 0.16279065608978271 -0.317829430103302
0.23887181282043457 0.16279065608978271 -0.30232560634613037
0.23229828476905823 0.17829453945159912 -0.317829430103302
0.2357252985239029 0.17829453945159912 -0.30232560634613037
0.23975560069084167 0.17829453945159912 0.9069766998291016
0.23035693168640137 0.19379842281341553 -0.317829430103302
0.2290850281715393 0.19379842281341553 -0.30232560634613037
0.2311524599790573 0.19379842281341553 0.7364341020584106
0.22715333104133606 0.20930230617523193 -0.317829430103302
0.2324560135602951 0.20930230617523193 0.922480583190918
0.23479732871055603 0.22480618953704834 -0.28682172298431396
0.23369604349136353 0.22480618953704834 0.922480583190918
0.23332223296165466 0.24031007289886475 -0.30232560634613037
0.22629009187221527 0.24031007289886475 -0.28682172298431396
0.2291049361228943 0.24031007289886475 0.9069766998291016
0.2294929027557373 0.25581395626068115 -0.30232560634613037
0.22637656331062317 0.25581395626068115 0.7674418687820435
0.23443391919136047 0.25581395626068115 0.8914728164672852
0.2385769784450531 0.27131783962249756 -0.27131783962249756
0.23328247666358948 0.27131783962249756 0.8759689331054688
0.2347901165485382 0.28682172298431396 -0.28682172298431396
0.2330455332994461 0.28682172298431396 -0.27131783962249756
0.2295338213443756 0.30232560634613037 -0.28682172298431396
0.2346220314502716 0.3178294897079468 -0.25581395626068115
0.23122191429138184 0.3333333730697632 -0.27131783962249756
0.22708265483379364 0.3333333730697632 0.922480583190918
0.2256208062171936 0.3333333730697632 0.9379844665527344
0.23573154211044312 0.3488372564315796 -0.24031007289886475
0.22876758873462677 0.3488372564315796 0.8914728164672852
0.22662939131259918 0.3488372266292572 0.9069766998291016
0.22876860201358795 0.3488372564315796 0.922480583190918
0.22671934962272644 0.3488372564315796 0.9379844665527344
0.23041823506355286 0.364341139793396 -0.25581395626068115
0.22489215433597565 0.364341139793396 -0.24031007289886475
0.2260359823703766 0.3643411695957184 0.922480583190918
0.22544871270656586 0.37984490394592285 0.8914728164672852
0.23352158069610596 0.39534878730773926 -0.24031007289886475
0.2334560751914978 0.41085267066955566 0.8449612855911255
0.2312546968460083 0.41085267066955566 0.9379844665527344
0.22980225086212158 0.42635658383369446 0.9379844665527344
0.24361702799797058 -0.4883720874786377 0.8604651689529419
0.25020724534988403 -0.4883720874786377 0.8914728164672852
0.24246399104595184 -0.4573643207550049 0.8449612855911255
0.25457778573036194 -0.4573643207550049 0.9069766998291016
0.2540890574455261 -0.4418604373931885 0.8449612855911255
0.2479756474494934 -0.4418604373931885 0.9069766998291016
0.24055247008800507 -0.42635661363601685 0.8294574022293091
0.25504380464553833 -0.41085273027420044 0.8294574022293091
0.2470763921737671 -0.39534884691238403 0.922480583190918
0.24627070128917694 -0.3798449635505676 0.8139535188674927
0.24540923535823822 -0.3643410801887512 0.9379844665527344
0.2441290020942688 -0.3333333134651184 0.7984496355056763
0.24040399491786957 -0.25581395626068115 0.9379844069480896
0.25487661361694336 -0.20930230617523193 0.751937985420227
0.24143323302268982 -0.20930230617523193 0.9379844665527344
0.24569272994995117 -0.19379842281341553 0.9379844665527344
0.2511786222457886 -0.1782945990562439 0.9379844665527344
0.2555609345436096 -0.1627907156944275 0.7364341020584106
0.25484499335289 -0.1627907156944275 0.9379844665527344
0.24833182990550995 -0.14728683233261108 0.922480583190918
0.24453967809677124 -0.13178294897079468 0.9069766998291016
0.2544342279434204 -0.13178294897079468 0.922480583190918
0.24229352176189423 -0.11627906560897827 0.8914728164672852
0.2529812157154083 -0.11627906560897827 0.9069766998291016
0.2485807240009308 -0.10077518224716187 0.8914728164672852
0.24055343866348267 -0.08527129888534546 0.7209302186965942
0.24625828862190247 -0.08527129888534546 0.8914728164672852
0.24703752994537354 -0.06976741552352905 0.7209302186965942
0.25392645597457886 -0.06976741552352905 0.9069766998291016
0.24844488501548767 -0.05426359176635742 0.7209302186965942
0.24809090793132782 -0.05426359176635742 0.9069766998291016
0.25084519386291504 -0.038759708404541016 0.7209302186965942
0.25014805793762207 -0.02325582504272461 0.7209302186965942
0.2452419102191925 -0.02325582504272461 0.922480583190918
0.240980863571167 -0.007751941680908203 0.7209302186965942
0.24787136912345886 0.007751941680908203 0.9379844665527344
0.2414061725139618 0.02325582504272461 -0.30232560634613037
0.24324671924114227 0.02325582504272461 -0.28682172298431396
0.24765637516975403 0.02325582504272461 0.9534883499145508
0.2424139678478241 0.038759708404541016 -0.30232560634613037
0.25209206342697144 0.038759708404541016 -0.28682172298431396
0.2461705505847931 0.038759708404541016 0.9534883499145508
0.2426626980304718 0.05426359176635742 -0.30232560634613037
0.2554347515106201 0.05426359176635742 -0.28682172298431396
0.2556799650192261 0.05426359176635742 0.9534883499145508
0.24303461611270905 0.06976747512817383 -0.30232560634613037
0.24856550991535187 0.06976747512817383 0.9379844665527344
0.24303989112377167 0.08527135103940964 -0.30232560634613037
0.24848496913909912 0.08527135848999023 0.922480583190918
0.24468496441841125 0.10077524185180664 -0.30232560634613037
0.24473097920417786 0.10077524185180664 0.9069766998291016
0.24405694007873535 0.11627912521362305 -0.30232560634613037
0.24262142181396484 0.1317828893661499 -0.30232560634613037
0.2404959350824356 0.1472867727279663 -0.317829430103302
0.24062170088291168 0.1472867727279663 -0.30232560634613037
0.25171881914138794 0.17829453945159912 0.7364341020584106
0.2513602674007416 0.19379842281341553 -0.30232560634613037
0.25169649720191956 0.19379842281341553 -0.28682172298431396
0.24157388508319855 0.19379842281341553 0.922480583190918
0.24666297435760498 0.20930230617523193 -0.30232560634613037
0.24234233796596527 0.20930232107639313 -0.28682172298431396
0.2515893578529358 0.20930230617523193 0.9379844665527344
0.24268344044685364 0.22480618953704834 -0.30232560634613037
0.25441548228263855 0.22480618953704834 0.9379844665527344
0.25146323442459106 0.24031007289886475 -0.27131783962249756
0.24632585048675537 0.24031008780002594 0.922480583190918
0.24877358973026276 0.25581395626068115 -0.28682172298431396
0.24436768889427185 0.25581395626068115 -0.27131783962249756
0.2547188401222229 0.25581395626068115 0.9069766998291016
0.2447902411222458 0.27131783962249756 -0.28682172298431396
0.2472512423992157 0.27131783962249756 0.7674418687820435
0.25196605920791626 0.27131783962249756 0.8914728164672852
0.25414562225341797 0.28682172298431396 -0.25581395626068115
0.24792930483818054 0.30232560634613037 -0.27131783962249756
0.24370579421520233 0.30232560634613037 -0.25581395626068115
0.2425716519355774 0.31782951951026917 -0.27131783962249756
0.2540179193019867 0.3178294897079468 -0.24031007289886475
0.24887749552726746 0.3333333730697632 -0.25581395626068115
0.24293947219848633 0.3333333730697632 -0.24031007289886475
0.2432316094636917 0.3488372564315796 -0.25581395626068115
0.253047376871109 0.3488372564315796 -0.22480618953704834
0.2521623373031616 0.364341139793396 -0.24031007289886475
0.248792827129364 0.364341139793396 -0.22480618953704834
0.24507203698158264 0.37984490394592285 -0.24031007289886475
0.25014394521713257 0.37984490394592285 -0.22480618953704834
0.25490134954452515 0.39534878730773926 0.9069766998291016
0.24100367724895477 0.39534878730773926 0.922480583190918
0.25223299860954285 0.41085267066955566 0.922480583190918
0.25568887591362 0.42635655403137207 0.922480583190918
0.25058507919311523 0.4728682041168213 0.9069766998291016
0.25817927718162537 -0.4728682041168213 0.8604651689529419
0.2704266607761383 -0.4728682041168213 0.9069766998291016
0.2654537558555603 -0.42635661363601685 0.8449612855911255
0.2679139971733093 -0.39534884691238403 0.8294574022293091
0.26000434160232544 -0.3643410801887512 0.8139535188674927
0.2608346939086914 -0.317829430103302 0.7984496355056763
0.27040916681289673 -0.28682172298431396 0.9534883499145508
0.2627113163471222 -0.27131783962249756 0.7829457521438599
0.2703282833099365 -0.27131783962249756 0.9534883499145508
0.26928919553756714 -0.25581395626068115 0.9534883499145508
0.25609394907951355 -0.24031005799770355 0.7674418091773987
0.2673415541648865 -0.24031007289886475 0.9534883499145508
0.26482686400413513 -0.22480618953704834 0.9534883499145508
0.2631913721561432 -0.20930230617523193 0.9534883499145508
0.2640395760536194 -0.19379842281341553 0.9534883499145508
0.26695674657821655 -0.1782945990562439 0.9534883499145508
0.2695995271205902 -0.1627907156944275 0.9534883499145508
0.26251500844955444 -0.14728683233261108 0.9379844665527344
0.27060678601264954 -0.13178294897079468 0.9379844665527344
0.26830172538757324 -0.11627906560897827 0.922480583190918
0.2621636390686035 -0.10077518224716187 0.9069766402244568
0.2620636224746704 -0.08527129888534546 0.9069766998291016
0.25723516941070557 -0.038759708404541016 0.922480583190918
0.2577306628227234 0.02325582504272461 -0.28682172298431396
0.26590511202812195 0.02325582504272461 -0.27131783962249756
0.25904130935668945 0.038759708404541016 -0.28682172298431396
0.25814110040664673 0.05426359176635742 -0.28682172298431396
0.2673972249031067 0.06976747512817383 -0.28682172298431396
0.2679787576198578 0.08527135848999023 -0.28682172298431396
0.2569039463996887 0.10077524185180664 -0.30232560634613037
0.26828157901763916 0.10077524185180664 -0.28682172298431396
0.25804391503334045 0.11627912521362305 -0.30232563614845276
0.26768219470977783 0.11627912521362305 -0.28682172298431396
0.25918087363243103 0.1317828893661499 -0.30232560634613037
0.2663814425468445 0.1317828893661499 -0.28682172298431396
0.2673279345035553 0.1317828893661499 0.8914728164672852
0.2600538730621338 0.1472867727279663 -0.30232560634613037
0.2647944986820221 0.1472867727279663 -0.28682172298431396
0.2666884958744049 0.1472867727279663 0.8914728164672852
0.25999367237091064 0.16279065608978271 -0.30232560634613037
0.2620842754840851 0.16279065608978271 -0.28682172298431396
0.26314717531204224 0.16279065608978271 0.7364341020584106
0.25849637389183044 0.17829453945159912 -0.30232560634613037
0.256952166557312 0.17829453945159912 -0.28682172298431396
0.2712979018688202 0.19379842281341553 0.9379844665527344
0.26861971616744995 0.20930230617523193 -0.27131783962249756
0.2632976472377777 0.22480618953704834 -0.28682172298431396
0.25877687335014343 0.22480618953704834 -0.27131783962249756
0.25872159004211426 0.24031007289886475 -0.28682172298431396
0.26472777128219604 0.27131783962249756 -0.27131783962249756
0.265654593706131 0.27131783962249756 -0.25581395626068115
0.2595190107822418 0.28682172298431396 -0.27131783962249756
0.2650316059589386 0.28682172298431396 0.7674418687820435
0.2648874521255493 0.28682172298431396 0.8914728164672852
0.2679881751537323 0.30232560634613037 -0.24031007289886475
0.2674604058265686 0.30232560634613037 0.8914728164672852
0.260453462600708 0.3178294897079468 -0.25581395626068115
0.26493677496910095 0.3178294897079468 0.8914728164672852
0.2667044997215271 0.3333333730697632 -0.24031007289886475
0.264850914478302 0.3333333730697632 -0.22480618953704834
0.264803409576416 0.3333333730697632 0.8914728164672852
0.259555459022522 0.3488372564315796 -0.24031007289886475
0.2704254984855652 0.3488372564315796 -0.22480618953704834
0.26099318265914917 0.3488372564315796 0.798449695110321
0.2693263292312622 0.3488372564315796 0.8914728164672852
0.26302284002304077 0.364341139793396 -0.22480618953704834
0.2576698064804077 0.37984490394592285 -0.22480618953704834
0.2674165964126587 0.39534878730773926 0.8914728164672852
0.26565995812416077 0.41085267066955566 0.9069766998291016
0.2585228681564331 0.42635655403137207 0.8604651689529419
0.2616923153400421 0.4418604373931885 0.8759689331054688
0.25692376494407654 0.4418604373931885 0.9224805235862732
0.26655635237693787 0.4573643207550049 0.8914728164672852
0.27184534072875977 -0.4883720874786377 0.8759689331054688
0.2813035845756531 -0.4883720874786377 0.8914728164672852
0.28153157234191895 -0.4728682041168213 0.8759689331054688
0.2780700623989105 -0.4728682041168213 0.9069766998291016
0.2717210054397583 -0.4573643207550049 0.8604651689529419
0.2780311405658722 -0.4418604373931885 0.8604651689529419
0.28161466121673584 -0.41085273027420044 0.8449612855911255
0.2809426784515381 -0.3798449635505676 0.8294574022293091
0.28336524963378906 -0.3643410801887512 0.9379844665527344
0.27366286516189575 -0.3488371968269348 0.8139535188674927
0.2867659330368042 -0.3333333134651184 0.8139535188674927
0.27631428837776184 -0.30232560634613037 0.7984496355056763
0.27661609649658203 -0.30232560634613037 0.9534883499145508
0.28310415148735046 -0.19379842281341553 0.751937985420227
0.28650563955307007 -0.1782945990562439 0.9689922332763672
0.2867441475391388 -0.1627907156944275 0.9689922332763672
0.27582916617393494 -0.14728683233261108 0.7364341020584106
0.2760266363620758 -0.14728683233261108 0.9534884095191956
0.28670695424079895 -0.08527129888534546 0.9069766998291016
0.27307814359664917 -0.038759708404541016 0.922480583190918
0.28034061193466187 0.007751941680908203 0.9379844665527344
0.2745141386985779 0.02325582504272461 -0.27131783962249756
0.2715071439743042 0.038759708404541016 -0.27131783962249756
0.2855827212333679 0.05426359176635742 -0.27131783962249756
0.271707147359848 0.06976747512817383 -0.2868216931819916
0.2723845839500427 0.08527135848999023 -0.28682172298431396
0.27334094047546387 0.10077524185180664 -0.28682172298431396
0.28576162457466125 0.10077524185180664 0.7364341020584106
0.2755221724510193 0.11627911776304245 -0.28682172298431396
0.281930148601532 0.11627912521362305 0.7364341020584106
0.275163471698761 0.11627912521362305 0.8914728164672852
0.2804885506629944 0.1317828893661499 -0.28682172298431396
0.2778475880622864 0.1317828893661499 0.7364341020584106
0.28560587763786316 0.1472867727279663 -0.28682172298431396
0.27238255739212036 0.1472867727279663 0.7364341020584106
0.2823284864425659 0.16279065608978271 -0.28682172298431396
0.2752249538898468 0.16279065608978271 0.8914728164672852
0.27883586287498474 0.17829453945159912 -0.28682172298431396
0.28341978788375854 0.17829453945159912 -0.27131783962249756
0.2767980396747589 0.19379842281341553 -0.28682172298431396
0.27677270770072937 0.19379842281341553 -0.27131783962249756
0.2728269398212433 0.20930230617523193 -0.28682172298431396
0.2715381979942322 0.22480618953704834 0.9379844665527344
0.28052687644958496 0.24031007289886475 -0.27131783962249756
0.2824338674545288 0.24031007289886475 -0.25581395626068115
0.2726321816444397 0.24031007289886475 0.922480583190918
0.27557462453842163 0.25581395626068115 -0.27131783962249756
0.2728780508041382 0.25581395626068115 -0.25581395626068115
0.2756839394569397 0.25581395626068115 0.9069767594337463
0.27793851494789124 0.28682172298431396 -0.25581395626068115
0.28236037492752075 0.28682172298431396 -0.24031007289886475
0.2719583511352539 0.30232560634613037 -0.25581395626068115
0.27624085545539856 0.3178294897079468 -0.24031007289886475
0.2751109004020691 0.3333333730697632 -0.22480618953704834
0.2814406454563141 0.364341139793396 0.8139535188674927
0.2796449661254883 0.4728682041168213 0.9069766998291016
0.2919601500034332 -0.4573643207550049 0.8759689331054688
0.29173049330711365 -0.42635658383369446 0.8604651093482971
0.29899969696998596 -0.39534884691238403 0.8449612855911255
0.29507067799568176 -0.3643410801887512 0.8294574022293091
0.2985227108001709 -0.317829430103302 0.8139535188674927
0.2877570688724518 -0.302325576543808 0.9534883499145508
0.2909590005874634 -0.28682172298431396 0.7984496355056763
0.28791412711143494 -0.25581395626068115 0.7829456925392151
0.2880755662918091 -0.22480618953704834 0.7674418687820435
0.2999173700809479 -0.20930230617523193 0.9689922332763672
0.2901954650878906 -0.19379842281341553 0.9689922332763672
0.29828569293022156 -0.1782945990562439 0.751937985420227
0.29520338773727417 -0.14728683233261108 0.9689922332763672
0.29169178009033203 -0.13178294897079468 0.7364341020584106
0.30109092593193054 -0.13178294897079468 0.9534883499145508
0.28746652603149414 -0.06976741552352905 0.9069766998291016
0.29077866673469543 -0.05426358804106712 0.9069766998291016
0.29548439383506775 -0.038759708404541016 0.9069766998291016
0.28826820850372314 -0.02325582504272461 0.922480583190918
0.2957535982131958 -0.007751941680908203 0.922480583190918
0.28775614500045776 0.038759708404541016 -0.27131783962249756
0.29917681217193604 0.038759708404541016 -0.25581395626068115
0.29653608798980713 0.038759708404541016 0.7364341020584106
0.287443071603775 0.05426359176635742 -0.27131783962249756
0.2940642833709717 0.05426359176635742 0.7364341020584106
0.2916603982448578 0.06976747512817383 0.7364341020584106
0.28843003511428833 0.08527135848999023 0.7364341020584106
0.29759398102760315 0.10077524185180664 -0.27131783962249756
0.2918460965156555 0.10077524185180664 0.8914728164672852
0.2881353795528412 0.10077524185180664 0.9069766998291016
0.2956642806529999 0.11627912521362305 -0.27131783962249756
0.29369598627090454 0.1317828893661499 -0.27131783962249756
0.2916475832462311 0.1472867727279663 -0.27131783962249756
0.2881501019001007 0.16279065608978271 -0.27131783962249756
0.30146124958992004 0.19379842281341553 -0.25581395626068115
0.29385900497436523 0.20930230617523193 -0.27131783962249756
0.2948260009288788 0.20930230617523193 -0.25581395626068115
0.2903202176094055 0.22480618953704834 -0.27131783962249756
0.28698912262916565 0.22480618953704834 -0.25581395626068115
0.2954692840576172 0.22480618953704834 0.751937985420227
0.2943981885910034 0.25581395626068115 -0.25581395626068115
0.3004312515258789 0.25581395626068115 -0.24031007289886475
0.2904311716556549 0.27131783962249756 -0.25581395626068115
0.2943822741508484 0.27131783962249756 -0.24031007289886475
0.2976419925689697 0.28682172298431396 -0.24031007289886475
0.29970115423202515 0.28682172298431396 0.7674418687820435
0.2893909215927124 0.30232560634613037 -0.24031007289886475
0.2883608043193817 0.3178294897079468 0.7829457521438599
0.2874191701412201 0.364341139793396 0.8914728164672852
0.291887491941452 0.37984490394592285 0.8294574022293091
0.29469120502471924 0.39534878730773926 0.8449612855911255
0.2919524908065796 0.41085267066955566 0.8604651689529419
0.29566022753715515 0.41085267066955566 0.8914728164672852
0.2905273735523224 0.42635655403137207 0.8759689331054688
0.2913743853569031 0.42635655403137207 0.9069766998291016
0.2917894124984741 0.44186046719551086 0.8914728760719299
0.2960566580295563 0.4573643207550049 0.9069766998291016
0.30313223600387573 -0.4728682041168213 0.8914728164672852
0.3158542215824127 -0.4573643207550049 0.8914728164672852
0.3080274760723114 -0.4573643207550049 0.9069766998291016
0.30393534898757935 -0.44186046719551086 0.8759689331054688
0.31228911876678467 -0.4418604373931885 0.9069766998291016
0.3127743601799011 -0.42635661363601685 0.8759689331054688
0.30966368317604065 -0.42635661363601685 0.9069766998291016
0.3095807135105133 -0.41085273027420044 0.8604651689529419
0.31663352251052856 -0.3798449635505676 0.8449612855911255
0.30894196033477783 -0.3488371968269348 0.8294574022293091
0.3124932646751404 -0.30232560634613037 0.8139535188674927
0.3047874867916107 -0.28682172298431396 0.9534883499145508
0.3086559772491455 -0.27131783962249756 0.7984496355056763
0.3087064027786255 -0.24031007289886475 0.7829457521438599
0.3082508146762848 -0.20930230617523193 0.7674418687820435
0.31066596508026123 -0.1627907156944275 0.751937985420227
0.30380845069885254 -0.11627906560897827 0.7364341020584106
0.30973076820373535 -0.10077518224716187 0.7364341020584106
0.3137691617012024 -0.08527129888534546 0.7364341020584106
0.31564146280288696 -0.06976741552352905 0.7364341020584106
0.31623825430870056 -0.05426359176635742 0.7364341020584106
0.3117535412311554 -0.05426359176635742 0.8914728164672852
0.3072521984577179 -0.038759708404541016 0.8914728760719299
0.30724793672561646 -0.02325582504272461 0.8914728164672852
0.30328407883644104 -0.02325582504272461 0.9069766998291016
0.31678837537765503 -0.007751941680908203 0.7364341020584106
0.30901187658309937 -0.007751941680908203 0.8914728164672852
0.30709946155548096 -0.007751941680908203 0.9069766998291016
0.3097131848335266 0.007751941680908203 0.7364341020584106
0.3134509325027466 0.007751941680908203 0.922480583190918
0.30284547805786133 0.02325582690536976 0.7364341616630554
0.30721691250801086 0.038759708404541016 -0.25581395626068115
0.3125612735748291 0.05426359176635742 -0.25581395626068115
0.3058781027793884 0.05426359176635742 0.9534883499145508
0.3169447183609009 0.06976747512817383 -0.25581395626068115
0.31540876626968384 0.06976747512817383 0.9379844665527344
0.31298694014549255 0.08527135848999023 0.922480583190918
0.3033936321735382 0.10077524185180664 -0.27131783962249756
0.3043864965438843 0.11627912521362305 -0.27131783962249756
0.3054863512516022 0.1317828893661499 -0.27131783962249756
0.3063783049583435 0.1472867727279663 -0.27131783962249756
0.3165859282016754 0.1472867727279663 -0.25581395626068115
0.3065895140171051 0.16279065608978271 -0.27131783962249756
0.3137592673301697 0.16279065608978271 -0.25581395626068115
0.30582842230796814 0.17829453945159912 -0.27131783962249756
0.30940258502960205 0.17829453945159912 -0.25581395626068115
0.3027503490447998 0.19379843771457672 -0.27131783962249756
0.31536009907722473 0.19379842281341553 0.751937985420227
0.30422812700271606 0.19379842281341553 0.9379844665527344
0.3062065839767456 0.20930230617523193 0.751937985420227
0.30732983350753784 0.20930230617523193 0.9379844665527344
0.30899184942245483 0.22480618953704834 -0.25581395626068115
0.31369805335998535 0.22480618953704834 -0.24031007289886475
0.31537726521492004 0.22480618953704834 0.922480583190918
0.30600881576538086 0.24031007289886475 -0.25581395626068115
0.3084832429885864 0.24031007289886475 -0.24031007289886475
0.3074128329753876 0.25581395626068115 0.9069766998291016
0.3073781132698059 0.27131783962249756 -0.24031007289886475
0.31606483459472656 0.27131783962249756 0.7674418687820435
0.3072297275066376 0.27131783962249756 0.9069766998291016
0.3040929138660431 0.28682172298431396 0.9069767594337463
0.312022864818573 0.30232560634613037 0.7829457521438599
0.3035576641559601 0.30232560634613037 0.9069766998291016
0.3055114448070526 0.3178294897079468 0.9069766998291016
0.3026904761791229 0.3333333730697632 0.7984496355056763
0.3125203549861908 0.3333333730697632 0.9069766998291016
0.3141210377216339 0.3488372564315796 0.8139535188674927
0.3131929934024811 0.37984490394592285 0.8914728164672852
0.31459173560142517 0.41085267066955566 0.8759689331054688
0.3044937551021576 0.42635655403137207 0.8914728164672852
0.3043845593929291 0.4418604373931885 0.9069766402244568
0.3209907114505768 -0.4418604373931885 0.8914728164672852
0.32536497712135315 -0.42635661363601685 0.8914728164672852
0.32887348532676697 -0.39534884691238403 0.8604651689529419
0.3225140869617462 -0.39534884691238403 0.922480583190918
0.33169370889663696 -0.3643410801887512 0.8449612855911255
0.3198089003562927 -0.3488371968269348 0.9379844665527344
0.3218923807144165 -0.3333333134651184 0.8294574022293091
0.3230806589126587 -0.3333333134651184 0.9379845261573792
0.32625555992126465 -0.317829430103302 0.9379844665527344
0.3321309983730316 -0.30232560634613037 0.9379844665527344
0.33204594254493713 -0.28682172298431396 0.8139535188674927
0.3179507553577423 -0.27131780982017517 0.9534883499145508
0.33189499378204346 -0.25581395626068115 0.7984496355056763
0.32560044527053833 -0.25581395626068115 0.9534883499145508
0.32792046666145325 -0.22480618953704834 0.7829457521438599
0.31953075528144836 -0.20930230617523193 0.9689921736717224
0.3239705264568329 -0.19379842281341553 0.7674418687820435
0.3324460983276367 -0.19379842281341553 0.9689922332763672
0.3329470753669739 -0.1627907156944275 0.9689922332763672
0.32281404733657837 -0.14728683233261108 0.751937985420227
0.32229849696159363 -0.14728683233261108 0.9689922332763672
0.320367693901062 -0.13178294897079468 0.9534883499145508
0.3209419548511505 -0.10077518224716187 0.9069766998291016
0.3256566524505615 -0.08527129888534546 0.8914728164672852
0.31958484649658203 -0.06976741552352905 0.8914728164672852
0.318613737821579 -0.038759708404541016 0.7364341020584106
0.3197360634803772 -0.02325582504272461 0.7364341020584106
0.3286791741847992 -0.02325582504272461 0.8759689331054688
0.31793412566185 -0.007751941680908203 0.8759689927101135
0.32167503237724304 0.007751941680908203 0.8914728164672852
0.321073055267334 0.007751941680908203 0.9069766998291016
0.31854966282844543 0.02325582504272461 0.9534883499145508
0.3201371729373932 0.038759708404541016 0.9534883499145508
0.3192336857318878 0.05426359176635742 -0.25581395626068115
0.3326023817062378 0.05426359176635742 -0.24031007289886475
0.3289794325828552 0.05426359176635742 0.9379844665527344
0.3186759054660797 0.06976747512817383 -0.25581395626068115
0.3327781558036804 0.06976747512817383 0.922480583190918
0.32811781764030457 0.08527135848999023 0.8759689331054688
0.3198286294937134 0.08527135848999023 0.8914728164672852
0.3197843134403229 0.08527135848999023 0.9069767594337463
0.3182874917984009 0.10077524185180664 0.8759689331054688
0.3288136124610901 0.11627912521362305 -0.25581395626068115
0.3203352093696594 0.11627912521362305 0.8759689331054688
0.32156461477279663 0.1317828893661499 -0.25581395626068115
0.3323032557964325 0.1317828893661499 0.751937985420227
0.3209984302520752 0.1317828893661499 0.8759689927101135
0.3290972411632538 0.1472867727279663 0.751937985420227
0.3212360143661499 0.1472867727279663 0.8759689331054688
0.33168330788612366 0.16279065608978271 -0.25581395626068115
0.325372576713562 0.16279065608978271 0.751937985420227
0.3242926001548767 0.17829453945159912 -0.25581395626068115
0.3322986364364624 0.17829453945159912 -0.24031007289886475
0.32163676619529724 0.17829453945159912 0.751937985420227
0.3325473666191101 0.17829453945159912 0.9069766998291016
0.3227825164794922 0.19379842281341553 -0.25581395626068115
0.3277304768562317 0.19379842281341553 -0.24031007289886475
0.33204230666160583 0.19379842281341553 0.922480583190918
0.3196314573287964 0.20930230617523193 -0.25581395626068115
0.31914645433425903 0.20930230617523193 -0.24031007289886475
0.33214738965034485 0.22480618953704834 -0.22480618953704834
0.3235148787498474 0.24031007289886475 -0.24031007289886475
0.33110812306404114 0.24031007289886475 -0.22480618953704834
0.3198900818824768 0.25581395626068115 -0.24031007289886475
0.32603007555007935 0.25581395626068115 0.7674418687820435
0.3291472792625427 0.28682172298431396 0.7829457521438599
0.3225739002227783 0.3178294897079468 0.7984496355056763
0.32792800664901733 0.3488372564315796 0.9069766998291016
0.32346591353416443 0.364341139793396 0.8294574022293091
0.3275088965892792 0.37984490394592285 0.8449612855911255
0.3260079026222229 0.39534878730773926 0.8604651689529419
0.3277071714401245 0.39534878730773926 0.8914728164672852
0.3339306116104126 -0.41085273027420044 0.8759689331054688
0.34803351759910583 -0.3798449635505676 0.8604651689529419
0.34387195110321045 -0.3488371968269348 0.8449612855911255
0.335563600063324 -0.317829430103302 0.8294574022293091
0.34804677963256836 -0.317829430103302 0.922480583190918
0.33515065908432007 -0.28682172298431396 0.9379844665527344
0.3394091725349426 -0.27131783962249756 0.9379844665527344
0.33790576457977295 -0.24031007289886475 0.9534883499145508
0.34336963295936584 -0.20930230617523193 0.7829457521438599
0.33578023314476013 -0.1782945990562439 0.7674418687820435
0.3351610004901886 -0.1782945990562439 0.9689922332763672
0.34528613090515137 -0.1627907156944275 0.7674418687820435
0.3394571542739868 -0.14728683233261108 0.9534883499145508
0.3337773382663727 -0.13178294897079468 0.751937985420227
0.33858296275138855 -0.13178294897079468 0.9379845261573792
0.3411319851875305 -0.11627906560897827 0.751937985420227
0.3415723443031311 -0.11627906560897827 0.9069766998291016
0.3347126841545105 -0.11627905815839767 0.922480583190918
0.34750688076019287 -0.10077518224716187 0.751937985420227
0.3368030786514282 -0.10077518224716187 0.8914728164672852
0.34771838784217834 -0.038759708404541016 0.8759689331054688
0.34724104404449463 -0.007751941680908203 0.8759689331054688
0.34849563241004944 0.02325582504272461 0.751937985420227
0.33539488911628723 0.02325582504272461 0.9379844069480896
0.34452515840530396 0.038759708404541016 0.751937985420227
0.3384719491004944 0.038759708404541016 0.9379844665527344
0.34199488162994385 0.05426359176635742 0.751937985420227
0.3434489369392395 0.06976747512817383 -0.24031007289886475
0.3391997814178467 0.06976747512817383 0.751937985420227
0.3422507643699646 0.06976747512817383 0.9069766998291016
0.3463512063026428 0.08527135848999023 -0.24031007289886475
0.3369434177875519 0.08527135848999023 0.751937985420227
0.3475991487503052 0.10077524185180664 -0.24031007289886475
0.3357093334197998 0.10077523440122604 0.751937985420227
0.3467237055301666 0.10077524185180664 0.8604651689529419
0.3336968421936035 0.11627912521362305 -0.25581395626068115
0.34759554266929626 0.11627912521362305 -0.24031007289886475
0.3343520760536194 0.11627912521362305 0.751937985420227
0.34760960936546326 0.11627912521362305 0.8604651689529419
0.33434227108955383 0.1317828893661499 -0.25581395626068115
0.3462887108325958 0.1317828893661499 -0.24031007289886475
0.34772852063179016 0.1317828893661499 0.8604651689529419
0.33445027470588684 0.1472867876291275 -0.25581395626068115
0.3439435064792633 0.1472867727279663 -0.24031007289886475
0.34012311697006226 0.16279065608978271 -0.24031008780002594
0.3400548994541168 0.19379842281341553 -0.24031007289886475
0.34615445137023926 0.19379842281341553 -0.22480618953704834
0.3375759720802307 0.20930230617523193 -0.24031007289886475
0.3416357636451721 0.20930230617523193 -0.22480618953704834
0.34791022539138794 0.20930230617523193 0.7674418687820435
0.3358707129955292 0.20930230617523193 0.922480583190918
0.33416837453842163 0.22480618953704834 -0.24031007289886475
0.3417954742908478 0.22480618953704834 0.7674418687820435
0.3367389440536499 0.24031007289886475 -0.22480618953704834
0.335936963558197 0.24031007289886475 0.7674418687820435
0.34458062052726746 0.27131783962249756 0.7829457521438599
0.3393164873123169 0.30232560634613037 0.7984496355056763
0.33492380380630493 0.3333333730697632 0.8139535784721375
0.34115302562713623 0.3488372564315796 0.8294574022293091
0.3481885492801666 0.364341139793396 0.8449612855911255
0.3420718312263489 0.39534878730773926 0.8759689331054688
0.356666624546051 -0.41085273027420044 0.8914728164672852
0.3548181653022766 -0.41085273027420044 0.9069766998291016
0.3530043065547943 -0.39534884691238403 0.8759689331054688
0.35558730363845825 -0.3333333134651184 0.8449612855911255
0.3553560972213745 -0.3333333134651184 0.922480583190918
0.352179616689682 -0.30232560634613037 0.8294574022293091
0.34889960289001465 -0.30232560634613037 0.922480583190918
0.35228317975997925 -0.28682172298431396 0.922480583190918
0.3522726893424988 -0.27131783962249756 0.8139535188674927
0.3618001341819763 -0.27131783962249756 0.922480583190918
0.3520185053348541 -0.25581395626068115 0.9379844665527344
0.3513818383216858 -0.24031007289886475 0.7984495759010315
0.35219794511795044 -0.22480618953704834 0.953488290309906
0.36063194274902344 -0.20930230617523193 0.9534883499145508
0.35605552792549133 -0.19379842281341553 0.7829457521438599
0.3622092604637146 -0.19379842281341553 0.9534883499145508
0.35737425088882446 -0.1782945990562439 0.9534883499145508
0.3639504909515381 -0.1627907156944275 0.9379844665527344
0.35062164068222046 -0.1627907156944275 0.953488290309906
0.35467880964279175 -0.14728683233261108 0.7674418687820435
0.35258668661117554 -0.14728683233261108 0.9379844665527344
0.36371755599975586 -0.13178294897079468 0.7674418687820435
0.3567802309989929 -0.13178294897079468 0.9069766998291016
0.3516329526901245 -0.13178294897079468 0.922480583190918
0.3531098961830139 -0.11627906560897827 0.8914728164672852
0.35149478912353516 -0.08527129888534546 0.751937985420227
0.3535917401313782 -0.06976741552352905 0.751937985420227
0.3548925518989563 -0.05426359176635742 0.751937985420227
0.36040014028549194 -0.05426359176635742 0.8759689331054688
0.35750216245651245 -0.038759708404541016 0.751937985420227
0.3596944212913513 -0.02325582504272461 0.751937985420227
0.35875093936920166 -0.02325582504272461 0.8759689331054688
0.35842618346214294 -0.007751941680908203 0.751937985420227
0.35433393716812134 0.00775194214656949 0.751937985420227
0.3575385808944702 0.007751941680908203 0.8914728164672852
0.3496084213256836 0.02325582504272461 0.922480583190918
0.3610755205154419 0.038759708404541016 0.922480583190918
0.3498716354370117 0.05426359176635742 -0.24031007289886475
0.348906010389328 0.05426359176635742 0.922480583190918
0.35293734073638916 0.06976747512817383 -0.24031007289886475
0.3513754606246948 0.06976747512817383 0.8914728164672852
0.3526639938354492 0.08527135848999023 -0.24031007289886475
0.3510056734085083 0.10077523440122604 -0.24031007289886475
0.3506929874420166 0.11627912521362305 -0.24031007289886475
0.3516613841056824 0.1317828893661499 -0.24031007289886475
0.35246267914772034 0.1472867727279663 -0.24031007289886475
0.36288267374038696 0.1472867727279663 -0.22480618953704834
0.3600090742111206 0.1472867727279663 0.8604651689529419
0.35222315788269043 0.16279065608978271 -0.24031007289886475
0.36034053564071655 0.16279065608978271 -0.22480618953704834
0.36078035831451416 0.16279065608978271 0.7674418687820435
0.35053256154060364 0.17829453945159912 -0.24031007289886475
0.3532383441925049 0.17829453945159912 -0.22480618953704834
0.35689061880111694 0.17829453945159912 0.7674418687820435
0.35290852189064026 0.19379842281341553 0.7674418687820435
0.3546818792819977 0.20930230617523193 -0.22480618953704834
0.35064226388931274 0.22480617463588715 -0.22480617463588715
0.35588526725769043 0.25581395626068115 0.7829457521438599
0.3543742299079895 0.28682172298431396 0.7984496355056763
0.35009950399398804 0.3178294897079468 0.8139535784721375
0.3560863137245178 0.3333333730697632 0.8294574022293091
0.3625510632991791 0.3488372564315796 0.8449612855911255
0.357218861579895 0.364341139793396 0.9069766998291016
0.3501541018486023 0.37984490394592285 0.8604651689529419
0.3638014495372772 0.37984490394592285 0.8759689331054688
0.3493320643901825 0.39534878730773926 0.8914728164672852
0.3757229149341583 -0.39534884691238403 0.8914728164672852
0.3717758059501648 -0.3798449635505676 0.8759689331054688
0.364670068025589 -0.37984493374824524 0.9224805235862732
0.36456039547920227 -0.3643410801887512 0.8604651689529419
0.37568771839141846 -0.3488371968269348 0.8604651689529419
0.36936402320861816 -0.317829430103302 0.8449612259864807
0.36979442834854126 -0.28682172298431396 0.8294574022293091
0.3693965673446655 -0.25581395626068115 0.8139535188674927
0.3758004605770111 -0.24031007289886475 0.9379844665527344
0.36613884568214417 -0.22480618953704834 0.7984496355056763
0.377706378698349 -0.20930230617523193 0.7984496355056763
0.3727627694606781 -0.19379842281341553 0.9379844665527344
0.3660460412502289 -0.1782945990562439 0.7829457521438599
0.37648817896842957 -0.1782945990562439 0.922480583190918
0.36843064427375793 -0.1782945990562439 0.9379844665527344
0.37306147813796997 -0.1627907156944275 0.7829457521438599
0.37246957421302795 -0.1627907156944275 0.9069766998291016
0.3685877025127411 -0.1627907156944275 0.922480583190918
0.3753432333469391 -0.14728683233261108 0.8914728164672852
0.3673408329486847 -0.14728683233261108 0.9069766998291016
0.3645021319389343 -0.14728683233261108 0.922480583190918
0.3672234117984772 -0.13178294897079468 0.8914728164672852
0.36988499760627747 -0.11627906560897827 0.7674418687820435
0.3756881356239319 -0.10077518224716187 0.7674418687820435
0.3773252069950104 -0.08527129888534546 0.8759689331054688
0.3708055317401886 -0.06976741552352905 0.8759689331054688
0.37869226932525635 0.05426359176635742 0.9069766998291016
0.37785977125167847 0.06976747512817383 0.7674418687820435
0.3691787123680115 0.06976747512817383 0.8759689331054688
0.3740871250629425 0.08527135848999023 -0.22480618953704834
0.37481850385665894 0.08527135848999023 0.7674418687820435
0.37590131163597107 0.08527135848999023 0.8604651689529419
0.37485045194625854 0.10077524185180664 -0.22480618953704834
0.37367069721221924 0.10077524185180664 0.7674418687820435
0.37574702501296997 0.11627912521362305 -0.22480618953704834
0.3714895248413086 0.11627912521362305 0.7674418687820435
0.3772653043270111 0.1317828893661499 -0.22480618953704834
0.3790771961212158 0.1317828893661499 -0.20930230617523193
0.36873650550842285 0.1317828893661499 0.7674418687820435
0.37237218022346497 0.1472867727279663 -0.22480618953704834
0.377718448638916 0.1472867727279663 -0.20930230617523193
0.36556267738342285 0.1472867727279663 0.7674418687820435
0.3702734708786011 0.16279065608978271 -0.22480618953704834
0.37611889839172363 0.16279065608978271 -0.20930230617523193
0.3683701753616333 0.17829453945159912 -0.22480618953704834
0.3740372061729431 0.17829453945159912 0.9069766998291016
0.36549800634384155 0.19379842281341553 -0.22480618953704834
0.378783643245697 0.19379842281341553 0.7829457521438599
0.37297189235687256 0.20930230617523193 0.7829457521438599
0.36927616596221924 0.22480618953704834 0.7829457521438599
0.3655366599559784 0.24031008780002594 0.7829457521438599
0.37799274921417236 0.25581395626068115 0.7984496355056763
0.3681010901927948 0.27131783962249756 0.7984496355056763
0.37542814016342163 0.28682172298431396 0.8139535188674927
0.3644990921020508 0.302325576543808 0.8139535188674927
0.36995190382003784 0.3178294897079468 0.8294574022293091
0.37453359365463257 0.3333333730697632 0.8449612855911255
0.3667561411857605 0.364341139793396 0.8604651689529419
0.37014055252075195 0.37984490394592285 0.8914728164672852
0.3851165771484375 -0.39534884691238403 0.9069766998291016
0.3886992335319519 -0.3643410801887512 0.8759689331054688
0.38307511806488037 -0.3643410801887512 0.922480583190918
0.3812546133995056 -0.3488371968269348 0.922480583190918
0.38503068685531616 -0.3333333134651184 0.8604651689529419
0.38528507947921753 -0.317829430103302 0.9069766998291016
0.3852367699146271 -0.30232560634613037 0.8449612855911255
0.38352376222610474 -0.30232560634613037 0.9069766998291016
0.3857969045639038 -0.28682172298431396 0.9069766998291016
0.38416731357574463 -0.27131783962249756 0.8294573426246643
0.39172571897506714 -0.25581395626068115 0.922480583190918
0.3832915127277374 -0.24031007289886475 0.8139535188674927
0.39478033781051636 -0.22480618953704834 0.8139535188674927
0.39267343282699585 -0.22480618953704834 0.9379844665527344
0.3834105134010315 -0.20930229127407074 0.9379844665527344
0.38788849115371704 -0.19379842281341553 0.7984496355056763
0.3925471603870392 -0.19379842281341553 0.9069766998291016
0.38445428013801575 -0.19379842281341553 0.922480583190918
0.38242289423942566 -0.1782945990562439 0.9069766998291016
0.38498204946517944 -0.1627907156944275 0.8914728760719299
0.3807947039604187 -0.14728683233261108 0.7829457521438599
0.3850868344306946 -0.13178294897079468 0.7829457521438599
0.3903697431087494 -0.11627906560897827 0.7829457521438599
0.3806133270263672 -0.08527129888534546 0.7674418687820435
0.38235610723495483 -0.08527129888534546 0.8759689331054688
0.3829129934310913 -0.06976741552352905 0.7674418687820435
0.391934871673584 -0.06976741552352905 0.8759689331054688
0.38438552618026733 -0.05426359176635742 0.7674419283866882
0.3866052031517029 -0.038759708404541016 0.7674418687820435
0.38868820667266846 -0.02325582504272461 0.7674418687820435
0.383260577917099 -0.02325582318007946 0.8759689331054688
0.38883113861083984 -0.007751941680908203 0.7674418687820435
0.3953178822994232 -0.007751941680908203 0.8759689331054688
0.3872140049934387 0.00775194214656949 0.7674418687820435
0.38615334033966064 0.00775194214656949 0.8914728164672852
0.3842398524284363 0.02325582504272461 0.7674418687820435
0.3854752779006958 0.02325582504272461 0.9069766998291016
0.3831915855407715 0.038759708404541016 0.7674418687820435
0.38123977184295654 0.05426359176635742 0.7674418687820435
0.3822537660598755 0.08527135848999023 -0.22480618953704834
0.38453251123428345 0.08527135848999023 0.8604651689529419
0.3815145492553711 0.10077524185180664 -0.22480618953704834
0.390603244304657 0.10077524185180664 -0.20930230617523193
0.38059332966804504 0.11627912521362305 -0.22480618953704834
0.3857879340648651 0.11627912521362305 -0.20930230617523193
0.37995389103889465 0.1317828744649887 -0.22480617463588715
0.3885386884212494 0.1472867727279663 -0.20930230617523193
0.3908906579017639 0.1472867727279663 0.7829457521438599
0.3846665620803833 0.1472867727279663 0.8449612855911255
0.384746253490448 0.16279065608978271 -0.20930230617523193
0.3861634135246277 0.16279065608978271 0.7829457521438599
0.3942282795906067 0.16279065608978271 0.8449612855911255
0.3827987611293793 0.17829453945159912 0.7829457521438599
0.38448262214660645 0.17829453945159912 0.9069767594337463
0.3887920379638672 0.22480618953704834 0.7984496355056763
0.38467007875442505 0.24031007289886475 0.7984496355056763
0.3871728181838989 0.27131783962249756 0.8139535188674927
0.38412684202194214 0.30232560634613037 0.8294574022293091
0.387747198343277 0.3178294897079468 0.8449612855911255
0.3934324085712433 0.3333333730697632 0.8604651689529419
0.38086000084877014 0.3488372564315796 0.8604651689529419
0.3932732939720154 0.3488372564315796 0.8759689331054688
0.3798595070838928 0.364341139793396 0.8759689331054688
0.38830476999282837 0.364341139793396 0.8914728164672852
0.3963656425476074 -0.3798449635505676 0.8914728164672852
0.4018644690513611 -0.3488371968269348 0.875968873500824
0.40067195892333984 -0.3333333134651184 0.9069766998291016
0.3967043161392212 -0.317829430103302 0.8604651689529419
0.4004715383052826 -0.317829430103302 0.8914727568626404
0.4101516008377075 -0.30232560634613037 0.8759689331054688
0.39627501368522644 -0.30232560634613037 0.8914728164672852
0.3992663025856018 -0.28682172298431396 0.8449612855911255
0.39813825488090515 -0.28682172298431396 0.8914728164672852
0.4104136526584625 -0.27131783962249756 0.8449612855911255
0.4043487012386322 -0.27131783962249756 0.8914728164672852
0.39560824632644653 -0.27131783962249756 0.9069766998291016
0.3965916633605957 -0.25581395626068115 0.8294574022293091
0.4085804224014282 -0.25581395626068115 0.9069766998291016
0.4069141149520874 -0.24031007289886475 0.8294574022293091
0.40482646226882935 -0.20930230617523193 0.8139535188674927
0.40570372343063354 -0.20930230617523193 0.922480583190918
0.39737755060195923 -0.1782945990562439 0.798449695110321
0.40343189239501953 -0.1627907156944275 0.7984496355056763
0.4099424481391907 -0.14728683233261108 0.7984496355056763
0.39655211567878723 -0.10077518969774246 0.7829457521438599
0.3998052775859833 -0.08527129888534546 0.7829457521438599
0.4024679660797119 -0.06976741552352905 0.7829457521438599
0.4045199155807495 -0.05426359176635742 0.7829457521438599
0.40705904364585876 -0.038759708404541016 0.7829457521438599
0.4098912477493286 -0.02325582504272461 0.7829457521438599
0.3989437222480774 0.007751941680908203 0.8759689331054688
0.40458494424819946 0.02325582504272461 0.8759689331054688
0.39560025930404663 0.02325582504272461 0.8914728164672852
0.40601015090942383 0.038759708404541016 0.8914728164672852
0.40291827917099 0.038759708404541016 0.9069766998291016
0.41026052832603455 0.05426359176635742 0.7829457521438599
0.40062594413757324 0.05426359176635742 0.8914728164672852
0.409032940864563 0.06976747512817383 0.7829457521438599
0.407664030790329 0.08527135848999023 0.7829457521438599
0.3981471359729767 0.10077524185180664 -0.20930230617523193
0.4052618443965912 0.10077524185180664 0.7829457521438599
0.39764243364334106 0.11627912521362305 -0.20930230617523193
0.4015839397907257 0.11627913266420364 0.7829457521438599
0.39668184518814087 0.1317828893661499 -0.20930230617523193
0.3972778022289276 0.1317828893661499 0.7829457521438599
0.40283212065696716 0.1317828893661499 0.8449612855911255
0.409525990486145 0.16279065608978271 0.7984496355056763
0.3979145884513855 0.16279065608978271 0.8449612855911255
0.40552258491516113 0.16279065608978271 0.8604651689529419
