-0.549547016620636 0.22480618953704834 0.7829457521438599
-0.5410513281822205 0.42635655403137207 0.8139535188674927
-0.5461124777793884 0.5038759708404541 0.8294574022293091
-0.5487699508666992 0.5813953876495361 0.8449612855911255
-0.5350350141525269 0.5968992710113525 0.8449612855911255
-0.5383037328720093 0.6434108018875122 0.8604651689529419
-0.5443100333213806 0.6899224519729614 0.875968873500824
-0.5347970128059387 -0.6899225115776062 0.8914728164672852
-0.524377703666687 -0.6589146852493286 0.8604651689529419
-0.5243116617202759 -0.5968992114067078 0.8294574022293091
-0.5284224152565002 -0.5503876209259033 0.8139535188674927
-0.5264551639556885 -0.5348837375640869 0.8604651689529419
-0.5200099349021912 -0.5038759708404541 0.7984496355056763
-0.5211196541786194 -0.3643410801887512 0.7829457521438599
-0.5250930786132812 -0.3488371968269348 0.7829457521438599
-0.5292054414749146 -0.3333333134651184 0.7829457521438599
-0.5268078446388245 -0.20930230617523193 0.7674418687820435
-0.5195662379264832 -0.14728683233261108 0.751937985420227
-0.5215054750442505 -0.08527129888534546 0.8294574022293091
-0.5194761157035828 0.11627912521362305 0.8294574022293091
-0.5200205445289612 0.1317828893661499 0.8294574022293091
-0.5332063436508179 0.16279064118862152 0.7674418687820435
-0.5309132933616638 0.17829453945159912 0.7674418687820435
-0.5247392654418945 0.19379842281341553 0.7674418687820435
-0.5271787643432617 0.24031007289886475 0.7829457521438599
-0.5310854911804199 0.364341139793396 0.7984495759010315
-0.5293581485748291 0.4883720874786377 0.8604651689529419
-0.5331432819366455 0.5193798542022705 0.8294574022293091
-0.521763801574707 0.5348837375640869 0.8294574022293091
-0.5230321884155273 0.612403154373169 0.8449612855911255
-0.5251938700675964 0.6589146852493286 0.8604651689529419
-0.5332004427909851 0.7054263353347778 0.8759689331054688
-0.5229790210723877 0.7209302186965942 0.8759689331054688
-0.5193948745727539 0.7209302186965942 0.8914728164672852
-0.5078686475753784 -0.6899224519729614 0.8759689331054688
-0.5074802041053772 -0.643410861492157 0.8449612855911255
-0.50675368309021 -0.6279069781303406 0.8759689331054688
-0.5069952607154846 -0.41085273027420044 0.7829457521438599
-0.5138809084892273 -0.39534884691238403 0.7829457521438599
-0.5175027251243591 -0.3798449635505676 0.7829457521438599
-0.5041376352310181 -0.24031007289886475 0.7674418687820435
-0.5139710307121277 -0.22480618953704834 0.7674418687820435
-0.5095552206039429 -0.1782945990562439 0.751937985420227
-0.5174437761306763 -0.1627907156944275 0.751937985420227
-0.5180690884590149 -0.13178294897079468 0.751937985420227
-0.5146284103393555 -0.11627905815839767 0.751937985420227
-0.5107824206352234 -0.10077518224716187 0.751937985420227
-0.5089149475097656 -0.08527129888534546 0.751937985420227
-0.5099968314170837 -0.06976741552352905 0.751937985420227
-0.512413501739502 -0.05426359176635742 0.751937985420227
-0.5150140523910522 -0.038759708404541016 0.7519379258155823
-0.5162726640701294 -0.02325582504272461 0.751937985420227
-0.5168731212615967 -0.007751941680908203 0.751937985420227
-0.5177834630012512 0.007751941680908203 0.751937985420227
-0.5187026858329773 0.02325582504272461 0.751937985420227
-0.5186262726783752 0.038759712129831314 0.751937985420227
-0.5167023539543152 0.05426359176635742 0.751937985420227
-0.5150647163391113 0.06976747512817383 0.751937985420227
-0.5125183463096619 0.08527135848999023 0.751937985420227
-0.5098116993904114 0.10077524185180664 0.751937985420227
-0.5118325352668762 0.10077524185180664 0.8294574022293091
-0.5066030621528625 0.11627912521362305 0.751937985420227
-0.5193673968315125 0.1472867727279663 0.8294574022293091
-0.515537679195404 0.16279065608978271 0.8294574022293091
-0.5059173107147217 0.17829453945159912 0.8294574022293091
-0.5081395506858826 0.20930230617523193 0.7674418687820435
-0.5096392631530762 0.28682172298431396 0.8294574022293091
-0.5143349170684814 0.5503876209259033 0.8294574022293091
-0.5083392262458801 0.5658915042877197 0.8294574022293091
-0.5042341351509094 0.5813953876495361 0.8294574022293091
-0.5149978995323181 0.6279069185256958 0.8449612855911255
-0.5068237781524658 0.6434108018875122 0.8449612855911255
-0.5170849561691284 0.674418568611145 0.8604651689529419
-0.5065603256225586 0.6899224519729614 0.8604651689529419
-0.5192943811416626 0.7209302186965942 0.8914728164672852
-0.5126398205757141 0.7364341020584106 0.8759689331054688
-0.5107434988021851 0.7364341020584106 0.8914728164672852
-0.5047829151153564 0.751937985420227 0.8759689331054688
-0.5080858469009399 0.751937985420227 0.8914728164672852
-0.49384433031082153 -0.7054263353347778 0.8914728164672852
-0.49031323194503784 -0.674418568611145 0.8604651689529419
-0.49071261286735535 -0.674418568611145 0.8914728164672852
-0.4978083074092865 -0.6124030947685242 0.8294574022293091
-0.49045440554618835 -0.5658915042877197 0.8139535188674927
-0.4934263229370117 -0.5193798542022705 0.7984496355056763
-0.4949771761894226 -0.42635661363601685 0.7829457521438599
-0.49377137422561646 -0.317829430103302 0.7674418687820435
-0.49975067377090454 -0.30232560634613037 0.7674418687820435
-0.5022560954093933 -0.28682172298431396 0.7674418687820435
-0.5017377734184265 -0.27131783962249756 0.7674418091773987
-0.49276769161224365 -0.27131783962249756 0.8294574022293091
-0.5017281770706177 -0.25581395626068115 0.7674418687820435
-0.49670839309692383 -0.19379842281341553 0.751937985420227
-0.4910898804664612 -0.06976741552352905 0.8294574022293091
-0.5026415586471558 0.1317828893661499 0.7519379258155823
-0.4986814856529236 0.1472867727279663 0.751937985420227
-0.49506181478500366 0.16279065608978271 0.751937985420227
-0.4909179210662842 0.17829453945159912 0.751937985420227
-0.4938128590583801 0.25581395626068115 0.7829457521438599
-0.4943772554397583 0.5038759708404541 0.8604651689529419
-0.4971003830432892 0.5968992710113525 0.8294574022293091
-0.49085524678230286 0.612403154373169 0.8294574022293091
-0.49826502799987793 0.6589146852493286 0.8449612855911255
-0.49017828702926636 0.674418568611145 0.8449612855911255
-0.49591541290283203 0.7054263353347778 0.8604651689529419
-0.4892234206199646 0.7209302186965942 0.8604651689529419
-0.497839093208313 0.7364341020584106 0.8914728164672852
-0.49511420726776123 0.7674418687820435 0.8759689331054688
-0.503278374671936 0.7674418687820435 0.8914728164672852
-0.4891422688961029 0.7829457521438599 0.8759689331054688
-0.49508512020111084 0.7829457521438599 0.8914728164672852
-0.4904865324497223 0.7984496355056763 0.8914728164672852
-0.47412770986557007 -0.6589146852493286 0.8449612855911255
-0.4759935736656189 -0.4573643207550049 0.7829457521438599
-0.48387324810028076 -0.44186046719551086 0.7829457521438599
-0.4756019711494446 -0.3643410801887512 0.7674418687820435
-0.4813814163208008 -0.3488371968269348 0.7674418687820435
-0.48653939366340637 -0.3333333134651184 0.7674418687820435
-0.4747837781906128 -0.22480618953704834 0.751937985420227
-0.48439064621925354 -0.20930230617523193 0.751937985420227
-0.4743976891040802 -0.1782945990562439 0.7364341020584106
-0.48056554794311523 -0.1627907156944275 0.7364341020584106
-0.4818671941757202 -0.14728683233261108 0.7364341020584106
-0.48057296872138977 -0.13178294897079468 0.7364341020584106
-0.4776294529438019 -0.11627906560897827 0.7364341020584106
-0.4735592305660248 -0.10077518224716187 0.7364341020584106
-0.4747775197029114 -0.05426359176635742 0.7364341020584106
-0.47703391313552856 -0.038759708404541016 0.7364341020584106
-0.47711634635925293 -0.02325582504272461 0.7364341020584106
-0.47668346762657166 -0.007751941680908203 0.7364341020584106
-0.4776115119457245 0.007751941680908203 0.7364341020584106
-0.4795374274253845 0.02325582504272461 0.7364341020584106
-0.48090261220932007 0.038759708404541016 0.7364341020584106
-0.48077505826950073 0.05426359176635742 0.7364341020584106
-0.48046863079071045 0.06976747512817383 0.7364341020584106
-0.47873252630233765 0.08527135848999023 0.7364341020584106
-0.4764989912509918 0.10077524185180664 0.7364341020584106
-0.47319668531417847 0.11627912521362305 0.7364341020584106
-0.4826987683773041 0.17829453945159912 0.8294574618339539
-0.48194772005081177 0.19379842281341553 0.751937985420227
-0.48021119832992554 0.22480618953704834 0.7674418687820435
-0.48242467641830444 0.27131783962249756 0.7829457521438599
-0.4818350076675415 0.28682172298431396 0.7829457521438599
-0.4807451069355011 0.28682172298431396 0.8294574022293091
-0.48227429389953613 0.30232560634613037 0.7829457521438599
-0.4783950448036194 0.3178294897079468 0.7829457521438599
-0.485232949256897 0.37984490394592285 0.7984496355056763
-0.4881564974784851 0.37984490394592285 0.8449612855911255
-0.48292630910873413 0.39534878730773926 0.8449612855911255
-0.48293536901474 0.41085267066955566 0.8449612855911255
-0.4855520725250244 0.42635655403137207 0.8449613451957703
-0.48142504692077637 0.4418604373931885 0.8139535188674927
-0.48460114002227783 0.4418604373931885 0.8449612855911255
-0.47837769985198975 0.5968992710113525 0.8759689331054688
-0.4835028648376465 0.6279069185256958 0.8294574022293091
-0.47650229930877686 0.6434108018875122 0.8294574022293091
-0.4799940586090088 0.6899224519729614 0.8449612855911255
-0.4729524254798889 0.7054263353347778 0.8449612855911255
-0.4773147702217102 0.7364341020584106 0.8604651689529419
-0.4861568808555603 0.751937985420227 0.8914728164672852
-0.47644007205963135 0.7674418687820435 0.8914728164672852
-0.4811439514160156 0.7984496355056763 0.8759689331054688
-0.47593891620635986 0.8139535188674927 0.8759689331054688
-0.4842354655265808 0.8139535188674927 0.8914728164672852
-0.4797564148902893 0.8294574022293091 0.8914728164672852
-0.47576895356178284 0.8449612855911255 0.8914728164672852
-0.46611547470092773 -0.7054263353347778 0.8759689331054688
-0.47104841470718384 -0.6279069781303406 0.8294574022293091
-0.4640483260154724 -0.5813953876495361 0.8139535188674927
-0.46504950523376465 -0.5348837375640869 0.7984496355056763
-0.4641773998737335 -0.4728682041168213 0.7829457521438599
-0.46327969431877136 -0.39534884691238403 0.7674418687820435
-0.45974200963974 -0.39534884691238403 0.8449612855911255
-0.46921706199645996 -0.3798449635505676 0.7674418687820435
-0.4602218568325043 -0.317829430103302 0.751937985420227
-0.4651382267475128 -0.30232560634613037 0.751937985420227
-0.4667700529098511 -0.28682172298431396 0.751937985420227
-0.46606892347335815 -0.27131783962249756 0.751937985420227
-0.46600809693336487 -0.25581395626068115 0.751937985420227
-0.4674745798110962 -0.24031007289886475 0.751937985420227
-0.4642314016819 -0.19379842281341553 0.7364341020584106
-0.4712717831134796 -0.08527129888534546 0.7364341020584106
-0.47235894203186035 -0.06976742297410965 0.7364341616630554
-0.4701540768146515 -0.05426359176635742 0.8294574022293091
-0.46341896057128906 -0.038759708404541016 0.8294574022293091
-0.46076029539108276 -0.02325582504272461 0.8294574022293091
-0.45748794078826904 0.02325582504272461 0.17829453945159912
-0.46886318922042847 0.1317828893661499 0.7364341020584106
-0.4641776978969574 0.1472867727279663 0.7364341020584106
-0.4602952003479004 0.16279065608978271 0.7364341020584106
-0.46544528007507324 0.20930230617523193 0.751937985420227
-0.46718674898147583 0.3333333730697632 0.7829457521438599
-0.470505028963089 0.45736435055732727 0.8139535784721375
-0.47257736325263977 0.4573643207550049 0.8449613451957703
-0.4643263518810272 0.4728682041168213 0.8139535188674927
-0.45820093154907227 0.4883720874786377 0.8139535188674927
-0.4634236693382263 0.5193798542022705 0.8604651689529419
-0.46532759070396423 0.612403154373169 0.8759689331054688
-0.4680600166320801 0.6589146852493286 0.8294574022293091
-0.45891955494880676 0.674418568611145 0.8294574022293091
-0.4606488347053528 0.7209302186965942 0.8449612855911255
-0.46977680921554565 0.7519379258155823 0.8604651689529419
-0.46024876832962036 0.7674418687820435 0.8604651689529419
-0.46770861744880676 0.7829457521438599 0.8914728164672852
-0.46051648259162903 0.7984496355056763 0.8914728164672852
-0.468336820602417 0.8294574022293091 0.8759689927101135
-0.46233898401260376 0.8449612855911255 0.8759689331054688
-0.46993446350097656 0.8604651689529419 0.8914728164672852
-0.46266788244247437 0.8759689331054688 0.8914728164672852
-0.45559000968933105 -0.7209302186965942 0.8914728164672852
-0.4431079030036926 -0.7209302186965942 0.9069766998291016
-0.4550851285457611 -0.6899224519729614 0.8604651689529419
-0.44317615032196045 -0.674418568611145 0.8449612855911255
-0.44348978996276855 -0.643410861492157 0.8294574022293091
-0.44987601041793823 -0.643410861492157 0.8759689331054688
-0.44814324378967285 -0.5503876209259033 0.8604651689529419
-0.4457799196243286 -0.4883720874786377 0.7829457521438599
-0.45427405834198 -0.41085273027420044 0.7674418687820435
-0.4452039301395416 -0.3488371968269348 0.751937985420227
-0.45262575149536133 -0.3333333134651184 0.751937985420227
-0.44685396552085876 -0.22480618953704834 0.7364341020584106
-0.4543886184692383 -0.20930230617523193 0.7364341020584106
-0.4454262852668762 -0.1627907156944275 0.7209302186965942
-0.4449317753314972 -0.14728683233261108 0.7209302186965942
-0.45666414499282837 -0.007751941680908203 0.8294574022293091
-0.4491579532623291 0.007751941680908203 0.8294574022293091
-0.45666447281837463 0.02325582504272461 0.17829453945159912
-0.4487837553024292 0.10077524185180664 0.8294574022293091
-0.4563826024532318 0.17829453945159912 0.7364341020584106
-0.4489954113960266 0.19379842281341553 0.7364341020584106
-0.444754958152771 0.30232560634613037 0.8294574022293091
-0.45233866572380066 0.3488372564315796 0.7829457521438599
-0.45402395725250244 0.39534878730773926 0.7984496355056763
-0.45133912563323975 0.4728682041168213 0.8449612855911255
-0.45094025135040283 0.5038759708404541 0.8139535188674927
-0.4442320466041565 0.5193798542022705 0.8139535188674927
-0.44528746604919434 0.5658915042877197 0.8139535188674927
-0.4463774561882019 0.5813953876495361 0.8139535188674927
-0.4426499903202057 0.5968992710113525 0.8139535188674927
-0.44898489117622375 0.6279069185256958 0.8759689331054688
-0.44665101170539856 0.6899224519729614 0.8294574022293091
-0.4497418999671936 0.7364341020584106 0.8449612855911255
-0.45161348581314087 0.7829457521438599 0.8604651689529419
-0.4441717565059662 0.7984496355056763 0.8604651689529419
-0.452655553817749 0.8139535188674927 0.8914728164672852
-0.44486334919929504 0.8294574022293091 0.8914728164672852
-0.4545237421989441 0.8604651689529419 0.8759689331054688
-0.4467325508594513 0.8759689331054688 0.8759689331054688
-0.4511909484863281 0.8914728164672852 0.8914728164672852
-0.4341046214103699 -0.6899224519729614 0.8914728164672852
-0.4388989508152008 -0.5968992114067078 0.8139535188674927
-0.4314560294151306 -0.5503876209259033 0.7984496355056763
-0.4390227794647217 -0.42635661363601685 0.7674418687820435
-0.43595582246780396 -0.3643410801887512 0.751937985420227
-0.43312573432922363 -0.30232560634613037 0.7364341020584106
-0.43728551268577576 -0.28682172298431396 0.7364341020584106
-0.43831855058670044 -0.27131783962249756 0.7364341020584106
-0.43572932481765747 -0.27131783962249756 0.8294573426246643
-0.4390449821949005 -0.25581395626068115 0.7364341020584106
-0.44061440229415894 -0.24031007289886475 0.7364341616630554
-0.43289828300476074 -0.19379842281341553 0.7209302186965942
-0.4407319724559784 -0.1782945990562439 0.7209302186965942
-0.4415323734283447 -0.13178294897079468 0.720930278301239
-0.436696320772171 -0.11627906560897827 0.7209302186965942
-0.43068182468414307 -0.10077518224716187 0.7209302186965942
-0.4347219467163086 0.007751941680908203 0.16279065608978271
-0.432558536529541 0.02325582504272461 0.16279065608978271
-0.4306836426258087 0.038759708404541016 0.16279065608978271
-0.43109750747680664 0.05426359176635742 0.16279065608978271
-0.4314558804035187 0.05426359176635742 0.7209302186965942
-0.43143871426582336 0.06976747512817383 0.16279065608978271
-0.43548744916915894 0.06976747512817383 0.7209302186965942
-0.43543651700019836 0.08527135848999023 0.7209302186965942
-0.4344370663166046 0.10077524185180664 0.7209302186965942
-0.4317397475242615 0.11627912521362305 0.7209302186965942
-0.42894455790519714 0.11627912521362305 0.8294574022293091
-0.42796623706817627 0.1317828893661499 0.7209302186965942
-0.4265340268611908 0.1317828893661499 0.8294574022293091
-0.43158337473869324 0.1472867727279663 0.8294574022293091
-0.440296471118927 0.16279065608978271 0.8294574618339539
-0.434897780418396 0.20930230617523193 0.7364341020584106
-0.43819454312324524 0.22480618953704834 0.751937985420227
-0.441134512424469 0.24031007289886475 0.7674418687820435
-0.4345088601112366 0.24031007289886475 0.8139535188674927
-0.43616849184036255 0.25581395626068115 0.8139535188674927
-0.43056076765060425 0.27131783962249756 0.8139535188674927
-0.42767268419265747 0.3178294897079468 0.8294574022293091
-0.4301561415195465 0.364341139793396 0.7829457521438599
-0.42775970697402954 0.41085267066955566 0.7984496355056763
-0.4298674464225769 0.4883720874786377 0.8449612855911255
-0.43901416659355164 0.5348837375640869 0.8139535188674927
-0.43681567907333374 0.5348837375640869 0.8604651689529419
-0.44120967388153076 0.5503876209259033 0.8139534592628479
-0.4358159899711609 0.612403154373169 0.8139535188674927
-0.4286598563194275 0.6279069185256958 0.8139535188674927
-0.43928492069244385 0.6434108018875122 0.8759689331054688
-0.42863747477531433 0.6589146852493286 0.8759689331054688
-0.43200045824050903 0.7054263353347778 0.8294574022293091
-0.4411381185054779 0.7519379258155823 0.8449612855911255
-0.4283908009529114 0.7674418687820435 0.8449612855911255
-0.4349130392074585 0.8139535188674927 0.8604651689529419
-0.4276280403137207 0.8294574022293091 0.8604651689529419
-0.4363487660884857 0.8449612855911255 0.8914728164672852
-0.43454909324645996 0.8914728164672852 0.8759689331054688
-0.4175565838813782 -0.7364341020584106 0.8914728164672852
-0.42604273557662964 -0.7209302186965942 0.8759689331054688
-0.413177490234375 -0.7054263353347778 0.8604651689529419
-0.42084771394729614 -0.5658915042877197 0.8604651689529419
-0.4238227605819702 -0.5038759708404541 0.7829457521438599
-0.42270705103874207 -0.4418604373931885 0.7674418687820435
-0.41489264369010925 -0.39534884691238403 0.751937985420227
-0.4231846034526825 -0.39534884691238403 0.8449612855911255
-0.42499539256095886 -0.37984499335289 0.7519380450248718
-0.4248545467853546 -0.3178294003009796 0.7364340424537659
-0.4151573181152344 -0.25581395626068115 0.8294574022293091
-0.4110493063926697 -0.24031007289886475 0.7209302186965942
-0.41687482595443726 -0.22480618953704834 0.7209302186965942
-0.424599826335907 -0.20930230617523193 0.7209301590919495
-0.42494210600852966 -0.08527129888534546 0.7209302186965942
-0.4218439757823944 -0.06976741552352905 0.7209302186965942
-0.418163001537323 -0.05426359176635742 0.7209302186965942
-0.4120174050331116 -0.038759708404541016 0.7209302186965942
-0.411864697933197 -0.007751941680908203 0.1472867727279663
-0.41470110416412354 0.007751941680908203 0.1472867727279663
-0.4246329367160797 0.007751941680908203 0.1627906709909439
-0.4144977331161499 0.02325582504272461 0.1472867727279663
-0.4247479736804962 0.02325582504272461 0.16279065608978271
-0.4141523241996765 0.038759708404541016 0.1472867727279663
-0.42477139830589294 0.038759708404541016 0.16279065608978271
-0.4232011139392853 0.038759708404541016 0.7209302186965942
-0.4147005081176758 0.05426359176635742 0.1472867727279663
-0.4249265193939209 0.05426359176635742 0.16279065608978271
-0.41592228412628174 0.06976747512817383 0.1472867727279663
-0.4255567789077759 0.06976747512817383 0.16279065608978271
-0.4147834777832031 0.08527135848999023 0.1472867727279663
-0.42357391119003296 0.1472867727279663 0.7209302186965942
-0.42096418142318726 0.16279065608978271 0.7209302186965942
-0.4184502065181732 0.17829453945159912 0.7209302186965942
-0.4113515019416809 0.19379842281341553 0.7209302186965942
-0.4243573546409607 0.22480618953704834 0.8139535784721375
-0.41205689311027527 0.25581395626068115 0.7674418687820435
-0.42282426357269287 0.28682172298431396 0.8139535188674927
-0.41319867968559265 0.3333333730697632 0.8294574022293091
-0.41143369674682617 0.41085267066955566 0.8294574022293091
-0.42317700386047363 0.42635655403137207 0.8294574022293091
-0.424961656332016 0.4418604373931885 0.8294574618339539
-0.41933491826057434 0.4573643207550049 0.8294574022293091
-0.4118715822696686 0.5503876209259033 0.8604651689529419
-0.41925883293151855 0.6434108018875122 0.8139535188674927
-0.41240087151527405 0.674418568611145 0.8759689331054688
-0.4137142300605774 0.7209302186965942 0.8294574022293091
-0.4142151176929474 0.7829457521438599 0.8449612855911255
-0.4157326817512512 0.8449612855911255 0.8604651689529419
-0.42433521151542664 0.8604651689529419 0.8914727568626404
-0.41253647208213806 0.9069766998291016 0.8759689331054688
-0.4249688684940338 0.9069766402244568 0.8914728164672852
-0.4044250547885895 -0.7209302186965942 0.9069766998291016
-0.40125519037246704 -0.6589146852493286 0.8294574022293091
-0.40141594409942627 -0.6589146852493286 0.8759689331054688
-0.398786336183548 -0.6124030947685242 0.8139535188674927
-0.4035000205039978 -0.5813953876495361 0.8604651689529419
-0.4081847071647644 -0.4573643207550049 0.7674418687820435
-0.40061861276626587 -0.41085273027420044 0.751937985420227
-0.39723658561706543 -0.41085273027420044 0.8449612855911255
-0.4091458320617676 -0.3643410801887512 0.8294574618339539
-0.41054412722587585 -0.3333333134651184 0.7364341020584106
-0.40271157026290894 -0.3333333134651184 0.8139535188674927
-0.40754252672195435 -0.317829430103302 0.8139535188674927
-0.40190064907073975 -0.30232560634613037 0.8139535188674927
-0.39864134788513184 -0.28682172298431396 0.7209302186965942
-0.40520697832107544 -0.27131783962249756 0.7209302186965942
-0.40866637229919434 -0.25581395626068115 0.7209302186965942
-0.40086767077445984 -0.24031007289886475 0.8294574022293091
-0.39790743589401245 -0.1627907156944275 0.7054263353347778
-0.39616042375564575 -0.14728683233261108 0.7054263353347778
-0.39822331070899963 -0.02325582504272461 0.7209302186965942
-0.40716150403022766 -0.007751941680908203 0.1472867727279663
-0.396077424287796 0.007751941680908203 0.1317828893661499
-0.3973432779312134 0.007751941680908203 0.1472867727279663
-0.3963976502418518 0.02325582504272461 0.1317828893661499
-0.39962488412857056 0.02325582504272461 0.1472867727279663
-0.40578651428222656 0.02325582504272461 0.7209302186965942
-0.39657366275787354 0.038759708404541016 0.1317828893661499
-0.40183520317077637 0.038759708404541016 0.1472867727279663
-0.397180438041687 0.05426359176635742 0.1317828893661499
-0.4044077694416046 0.05426359176635742 0.1472867727279663
-0.39824846386909485 0.06976747512817383 0.1317828893661499
-0.4074956476688385 0.06976747512817383 0.1472867727279663
-0.3991943299770355 0.08527135848999023 0.1317828893661499
-0.40966591238975525 0.08527135848999023 0.1472867727279663
-0.39972737431526184 0.10077524185180664 0.1317828893661499
-0.39860060811042786 0.11627912521362305 0.1317828893661499
-0.39827242493629456 0.20930230617523193 0.7209302186965942
-0.4093589186668396 0.20930230617523193 0.8139535188674927
-0.4072769284248352 0.22480618953704834 0.7364341020584106
-0.3968115746974945 0.24031007289886475 0.7984496355056763
-0.4085083603858948 0.25581395626068115 0.7984496355056763
-0.40448880195617676 0.27131783962249756 0.7674418687820435
-0.40779295563697815 0.27131783962249756 0.7984496355056763
-0.40167486667633057 0.28682172298431396 0.7674418687820435
-0.40060704946517944 0.28682172298431396 0.7984496355056763
-0.4038965702056885 0.30232560634613037 0.7674418687820435
-0.4103003740310669 0.30232563614845276 0.8139535784721375
-0.40343087911605835 0.3178294897079468 0.7674418687820435
-0.40389472246170044 0.4728682041168213 0.8294574022293091
-0.40471869707107544 0.5038759708404541 0.8449612855911255
-0.4043675363063812 0.6589146852493286 0.8139535188674927
-0.39794015884399414 0.7984496355056763 0.8449612855911255
-0.4033289849758148 0.8604651689529419 0.8604651689529419
-0.38034552335739136 -0.7054263353347778 0.8914728164672852
-0.3945452570915222 -0.6899224519729614 0.8449612855911255
-0.3890497088432312 -0.5968992114067078 0.8604651093482971
-0.3822450339794159 -0.5658915042877197 0.7984496355056763
-0.3895893692970276 -0.5193798542022705 0.7829457521438599
-0.3865243196487427 -0.5193798542022705 0.8449612855911255
-0.3922903537750244 -0.5038759708404541 0.8449612855911255
-0.3935737907886505 -0.4883720874786377 0.8449612855911255
-0.3897247016429901 -0.4728682041168213 0.7674418687820435
-0.3912169337272644 -0.4728682041168213 0.8449612855911255
-0.3851567506790161 -0.4573643207550049 0.8449612855911255
-0.38199377059936523 -0.4418604373931885 0.8449612855911255
-0.3807712495326996 -0.42635661363601685 0.751937985420227
-0.3842729330062866 -0.42635661363601685 0.8449612855911255
-0.3929831087589264 -0.3488371968269348 0.7364341020584106
-0.3838922679424286 -0.30232560634613037 0.7209302186965942
-0.38312214612960815 -0.22480618953704834 0.8294574022293091
-0.38265261054039 -0.19379842281341553 0.7054263353347778
-0.39190542697906494 -0.1782945990562439 0.7054263353347778
-0.384583979845047 -0.1627907156944275 0.8294574022293091
-0.3898090720176697 -0.13178294897079468 0.7054263353347778
-0.3810964524745941 -0.11627906560897827 0.7054263353347778
-0.38481658697128296 -0.007751941680908203 0.1317828893661499
-0.38768354058265686 -0.007751941680908203 0.7209302186965942
-0.38989895582199097 0.007751941680908203 0.7209302186965942
-0.3898790180683136 0.02325582504272461 0.8294574022293091
-0.38152775168418884 0.06976747512817383 0.1317828893661499
-0.38052240014076233 0.08527135848999023 0.11627912521362305
-0.38630741834640503 0.08527135848999023 0.1317828893661499
-0.3816477060317993 0.10077524185180664 0.11627912521362305
-0.39036354422569275 0.10077524185180664 0.1317828893661499
-0.3827136754989624 0.11627912521362305 0.11627912521362305
-0.3936680853366852 0.11627912521362305 0.1317828893661499
-0.38373368978500366 0.1317828893661499 0.11627912521362305
-0.38390052318573 0.1472867727279663 0.11627912521362305
-0.3806399405002594 0.22480618953704834 0.7209302186965942
-0.3867368698120117 0.24031007289886475 0.751937985420227
-0.3810688257217407 0.3333333730697632 0.7674418687820435
-0.3798847198486328 0.3488372564315796 0.8294574022293091
-0.39311060309410095 0.39534878730773926 0.8294574022293091
-0.3934378921985626 0.42635655403137207 0.8139535188674927
-0.3946441411972046 0.4418604373931885 0.8139535188674927
-0.38218173384666443 0.4573643207550049 0.8139535188674927
-0.38672810792922974 0.7364341020584106 0.8294574022293091
-0.383779376745224 0.8759689331054688 0.8604651689529419
-0.38634783029556274 0.922480583190918 0.8914728164672852
-0.3734878599643707 -0.7364341020584106 0.8759689331054688
-0.36441025137901306 -0.674418568611145 0.8759689331054688
-0.37340664863586426 -0.6124030947685242 0.8604651689529419
-0.37231799960136414 -0.5348837375640869 0.8449612855911255
-0.3708491623401642 -0.4883720874786377 0.7674418687820435
-0.3742498755455017 -0.3643410801887512 0.7364341020584106
-0.3670245409011841 -0.22480618953704834 0.7054263353347778
-0.3746747374534607 -0.20930232107639313 0.7054263353347778
-0.3765018880367279 -0.1782945990562439 0.8294574022293091
-0.36692991852760315 -0.10077518224716187 0.7054263353347778
-0.36453181505203247 -0.007751941680908203 0.11627912521362305
-0.3763430118560791 -0.007751941680908203 0.1317828893661499
-0.36553430557250977 0.007751941680908203 0.11627912521362305
-0.3768226206302643 0.007751941680908203 0.1317828893661499
-0.36736512184143066 0.02325582504272461 0.11627912521362305
-0.3774755299091339 0.02325582504272461 0.1317828893661499
-0.36837536096572876 0.038759708404541016 0.11627912521362305
-0.37844371795654297 0.038759708404541016 0.1317828893661499
-0.36935436725616455 0.05426359176635742 0.11627912521362305
-0.37928342819213867 0.05426358804106712 0.1317828893661499
-0.3729034960269928 0.06976747512817383 0.11627912521362305
-0.3680659532546997 0.10077524185180664 0.7054263353347778
-0.37077078223228455 0.11627912521362305 0.7054263353347778
-0.364421546459198 0.1317828893661499 0.10077524185180664
-0.36796820163726807 0.1317828893661499 0.11627912521362305
-0.3704395890235901 0.1317828893661499 0.7054263353347778
-0.3661804497241974 0.1472867727279663 0.10077524185180664
-0.3758053183555603 0.1472867727279663 0.11627912521362305
-0.368757426738739 0.1472867727279663 0.7054263353347778
-0.3648391664028168 0.16279065608978271 0.10077524185180664
-0.36928120255470276 0.16279065608978271 0.7054263353347778
-0.36986225843429565 0.17829453945159912 0.7054263353347778
-0.3674716055393219 0.19379842281341553 0.7054263353347778
-0.36791563034057617 0.20930230617523193 0.8139535188674927
-0.36444056034088135 0.24031007289886475 0.7209302186965942
-0.3774074912071228 0.24031005799770355 0.7364341020584106
-0.37705621123313904 0.24031008780002594 0.7984496355056763
-0.36503276228904724 0.25581395626068115 0.7364341020584106
-0.37285226583480835 0.25581395626068115 0.751937985420227
-0.3676215708255768 0.27131783962249756 0.751937985420227
-0.3646221458911896 0.28682172298431396 0.751937985420227
-0.3648276627063751 0.3178294897079468 0.8139535188674927
-0.36506879329681396 0.3488372564315796 0.7674418687820435
-0.37031617760658264 0.37984490394592285 0.7829457521438599
-0.3711014986038208 0.41085267066955566 0.8139535188674927
-0.37670618295669556 0.674418568611145 0.8139535188674927
-0.3682668209075928 0.8139535188674927 0.8449612855911255
-0.3489827513694763 -0.6279069781303406 0.8139535188674927
-0.3540854752063751 -0.6279069781303406 0.8604651689529419
-0.35386377573013306 -0.5813953876495361 0.7984496355056763
-0.35581260919570923 -0.5348837375640869 0.7829457521438599
-0.35178953409194946 -0.5038759708404541 0.7674418687820435
-0.3626725971698761 -0.4418604373931885 0.751937985420227
-0.357235848903656 -0.3798449635505676 0.7364341020584106
-0.36345356702804565 -0.317829430103302 0.7209302186965942
-0.35530388355255127 -0.25581395626068115 0.7054263353347778
-0.360254168510437 -0.24031007289886475 0.7054263353347778
-0.360103964805603 -0.1782945990562439 0.8294574022293091
-0.35786184668540955 -0.1627907156944275 0.8294574022293091
-0.3517845869064331 -0.10077518224716187 0.8449612855911255
-0.3551626205444336 -0.08527129888534546 0.7054263353347778
-0.35793718695640564 -0.08527129888534546 0.8449612855911255
-0.358872652053833 -0.06976741552352905 0.8449612855911255
-0.3562315106391907 -0.05426359176635742 0.8449612855911255
-0.3544715642929077 -0.038759708404541016 0.8449612855911255
-0.35478657484054565 -0.02325582504272461 0.8449612855911255
-0.3593355119228363 -0.007751941680908203 0.11627912521362305
-0.35267478227615356 -0.007751941680908203 0.8449612855911255
-0.3564301133155823 0.007751941680908203 0.11627912521362305
-0.35325074195861816 0.02325582504272461 0.11627912521362305
-0.3493606448173523 0.038759708404541016 0.10077524185180664
-0.35392338037490845 0.038759708404541016 0.11627912521362305
-0.3614306151866913 0.038759708404541016 0.8294574022293091
-0.3497597873210907 0.05426359176635742 0.10077524185180664
-0.3567635416984558 0.05426359176635742 0.11627912521362305
-0.3504834771156311 0.06976747512817383 0.10077524185180664
-0.3603748679161072 0.06976747512817383 0.11627913266420364
-0.352368026971817 0.06976747512817383 0.7054263353347778
-0.35134443640708923 0.08527135848999023 0.10077524185180664
-0.36236679553985596 0.08527135848999023 0.11627912521362305
-0.360763818025589 0.08527135848999023 0.7054263949394226
-0.3522883355617523 0.10077524185180664 0.10077524185180664
-0.36319124698638916 0.10077524930238724 0.11627912521362305
-0.34907400608062744 0.10077524185180664 0.8294574022293091
-0.35436803102493286 0.11627912521362305 0.10077524185180664
-0.36395928263664246 0.11627912521362305 0.11627912521362305
-0.3584100604057312 0.11627912521362305 0.8294574022293091
-0.3612692356109619 0.1317828893661499 0.8294574022293091
-0.3590731620788574 0.1472867727279663 0.8294574022293091
-0.3624332845211029 0.16279065608978271 0.10077524185180664
-0.3551393747329712 0.16279065608978271 0.8294574022293091
-0.3509405851364136 0.17829453945159912 0.8294574022293091
-0.3626236915588379 0.20930230617523193 0.7054262757301331
-0.35509371757507324 0.22480618953704834 0.7054263353347778
-0.3491934537887573 0.22480618953704834 0.8139535188674927
-0.35474181175231934 0.25581395626068115 0.7209302186965942
-0.35804396867752075 0.25581395626068115 0.7984496355056763
-0.3491842448711395 0.27131783962249756 0.7209302186965942
-0.35952308773994446 0.27131783962249756 0.7364341020584106
-0.3539615273475647 0.27131783962249756 0.7984496355056763
-0.3554900884628296 0.28682172298431396 0.7364341020584106
-0.35846734046936035 0.28682172298431396 0.7984496355056763
-0.3520624041557312 0.30232560634613037 0.7364341020584106
-0.36265450716018677 0.30232560634613037 0.751937985420227
-0.3584180474281311 0.3178294897079468 0.751937985420227
-0.36427822709083557 0.3178294897079468 0.8139535188674927
-0.3489817678928375 0.3333333730697632 0.751937985420227
-0.3604964017868042 0.3488372564315796 0.8294574022293091
-0.3496847152709961 0.364341139793396 0.7674418687820435
-0.34917715191841125 0.4883720874786377 0.7984496355056763
-0.36039167642593384 0.5503876209259033 0.8604651689529419
-0.35288310050964355 0.674418568611145 0.8759689331054688
-0.3576570153236389 0.8604651689529419 0.8914728760719299
-0.353640079498291 0.8759689331054688 0.8604651689529419
-0.335087388753891 -0.7209302186965942 0.8604651689529419
-0.3338540494441986 -0.5503876209259033 0.7829457521438599
-0.33698588609695435 -0.5503876209259033 0.8449612855911255
-0.3469650447368622 -0.45736435055732727 0.7519380450248718
-0.34519514441490173 -0.39534884691238403 0.7364341020584106
-0.34031569957733154 -0.3333333134651184 0.7209302186965942
-0.33417725563049316 -0.3333333134651184 0.8139535188674927
-0.333896279335022 -0.28682172298431396 0.7054263353347778
-0.3468678295612335 -0.27131783962249756 0.7054263353347778
-0.33837416768074036 -0.22480618953704834 0.8294574022293091
-0.34010499715805054 -0.11627906560897827 0.8449612855911255
-0.34033480286598206 -0.08527129888534546 0.8604651689529419
-0.33473944664001465 -0.08527129888534546 0.8759689331054688
-0.34568682312965393 -0.06976741552352905 0.7054263353347778
-0.3433385193347931 -0.06976741552352905 0.8604651689529419
-0.33702561259269714 -0.06976741552352905 0.8759689331054688
-0.33444082736968994 -0.06976741552352905 0.8914728164672852
-0.3358960449695587 -0.05426359176635742 0.7054263353347778
-0.3398929536342621 -0.05426359176635742 0.8604651689529419
-0.3355984687805176 -0.05426359176635742 0.8759689331054688
-0.3357231616973877 -0.038759708404541016 0.8604651689529419
-0.3358645439147949 -0.02325582504272461 0.10077524185180664
-0.3338603377342224 -0.007751941680908203 0.10077524185180664
-0.3376406133174896 0.007751941680908203 0.10077524185180664
-0.3451385200023651 0.00775194214656949 0.8449613451957703
-0.3487682640552521 0.02325582504272461 0.10077524185180664
-0.33372101187705994 0.02325582504272461 0.8449612855911255
-0.34210094809532166 0.05426359176635742 0.7054263353347778
-0.3456578850746155 0.05426359176635742 0.8294574022293091
-0.33830949664115906 0.06976747512817383 0.8294574022293091
-0.3381148874759674 0.08527135848999023 0.10077524185180664
-0.3390410542488098 0.08527135848999023 0.8294574022293091
-0.33355459570884705 0.10077524185180664 0.08527135848999023
-0.3400059938430786 0.10077524185180664 0.10077524185180664
-0.334050714969635 0.11627912521362305 0.08527135848999023
-0.34178462624549866 0.11627912521362305 0.10077524185180664
-0.3347483277320862 0.1317828893661499 0.08527135848999023
-0.3442693054676056 0.1317828893661499 0.10077524185180664
-0.33602145314216614 0.1472867727279663 0.08527135848999023
-0.34700676798820496 0.14728675782680511 0.10077524185180664
-0.33542129397392273 0.16279065608978271 0.08527135848999023
-0.3422573506832123 0.19379842281341553 0.8294574022293091
-0.34550490975379944 0.24031007289886475 0.7054263353347778
-0.3384726345539093 0.25581395626068115 0.7054263353347778
-0.33369338512420654 0.27131783962249756 0.7054263353347778
-0.3441150188446045 0.28682172298431396 0.7209302186965942
-0.3397367596626282 0.30232560634613037 0.7209302186965942
-0.3458382785320282 0.3178294897079468 0.7364341020584106
-0.3363620638847351 0.3333333730697632 0.7364341020584106
-0.33951032161712646 0.3488372564315796 0.751937985420227
-0.33411628007888794 0.37984490394592285 0.7674418687820435
-0.34789714217185974 0.39534878730773926 0.7829457521438599
-0.3422324061393738 0.39534878730773926 0.8294574022293091
-0.33373260498046875 0.41085267066955566 0.7829457521438599
-0.3446568250656128 0.41085267066955566 0.8139535784721375
-0.3406844735145569 0.42635655403137207 0.7984496355056763
-0.33617329597473145 0.4728682041168213 0.7984496355056763
-0.3471077084541321 0.5038759708404541 0.7984496355056763
-0.33745819330215454 0.5193798542022705 0.7984496355056763
-0.3357302248477936 0.6899224519729614 0.8139535188674927
-0.34071534872055054 0.8139535188674927 0.8449612855911255
-0.3486842215061188 0.8449612855911255 0.8914728164672852
-0.3406449556350708 0.9069766998291016 0.8759689331054688
-0.34442612528800964 0.9224805235862732 0.8914728164672852
-0.3264411985874176 -0.7209302186965942 0.8914728164672852
-0.32866793870925903 -0.5968992710113525 0.7984496355056763
-0.3309396803379059 -0.5193798542022705 0.7674418687820435
-0.31810128688812256 -0.4883720874786377 0.751937985420227
-0.3328946828842163 -0.4728682041168213 0.751937985420227
-0.31920310854911804 -0.42635661363601685 0.7364341020584106
-0.33219096064567566 -0.4108527600765228 0.7364341020584106
-0.3235841393470764 -0.3488371968269348 0.7209302186965942
-0.32316577434539795 -0.317829430103302 0.8139535188674927
-0.3178632855415344 -0.30232560634613037 0.7054263353347778
-0.33224740624427795 -0.30232560634613037 0.8139535188674927
-0.32033976912498474 -0.24031007289886475 0.8294574022293091
-0.32356199622154236 -0.1782945990562439 0.6899224519729614
-0.3292209804058075 -0.1627907156944275 0.6899224519729614
-0.3294793963432312 -0.14728683233261108 0.6899224519729614
-0.3270106613636017 -0.13178294897079468 0.6899224519729614
-0.3187336325645447 -0.13178294897079468 0.8449612855911255
-0.3229861557483673 -0.11627906560897827 0.6899224519729614
-0.3333011865615845 -0.10077518224716187 0.8604651689529419
-0.3213050365447998 -0.10077518224716187 0.8759689331054688
-0.31853625178337097 -0.10077518224716187 0.9379844665527344
-0.32991787791252136 -0.08527129888534546 0.8914728164672852
-0.3263801038265228 -0.08527129888534546 0.9069766998291016
-0.32757070660591125 -0.08527129888534546 0.922480583190918
-0.3277779519557953 -0.08527129888534546 0.9379844665527344
-0.32220277190208435 -0.08527129888534546 0.9534883499145508
-0.3320395350456238 -0.06976741552352905 0.9069766998291016
-0.333321750164032 -0.06976741552352905 0.9224806427955627
-0.3316953182220459 -0.06976741552352905 0.9379844665527344
-0.321333110332489 -0.06976741552352905 0.9534883499145508
-0.3331312835216522 -0.05426359176635742 0.8914728760719299
-0.32948750257492065 -0.05426359176635742 0.9069766998291016
-0.3307919204235077 -0.05426359176635742 0.922480583190918
-0.32721203565597534 -0.05426359176635742 0.9379844665527344
-0.3271865248680115 -0.038759708404541016 0.7054263353347778
-0.330208420753479 -0.038759708404541016 0.8759689331054688
-0.32607609033584595 -0.038759708404541016 0.8914728164672852
-0.32512572407722473 -0.038759708404541016 0.9069766998291016
-0.32597413659095764 -0.038759708404541016 0.922480583190918
-0.3221532106399536 -0.038759708404541016 0.9379844665527344
-0.31984326243400574 -0.02325582504272461 0.08527135848999023
-0.32870185375213623 -0.02325582318007946 0.10077524185180664
-0.3210740387439728 -0.02325582504272461 0.7054263353347778
-0.3305481970310211 -0.02325582504272461 0.8604651689529419
-0.32207053899765015 -0.02325582504272461 0.8759689331054688
-0.32051464915275574 -0.02325582504272461 0.8914728164672852
-0.32139211893081665 -0.02325582504272461 0.9069766998291016
-0.32235491275787354 -0.02325582504272461 0.922480583190918
-0.31882819533348083 -0.02325582504272461 0.9379844665527344
-0.3184223473072052 -0.007751941680908203 0.08527135848999023
-0.3325752913951874 -0.007751941680908203 0.10077524185180664
-0.31830543279647827 -0.007751941680908203 0.7054263353347778
-0.3243081867694855 -0.007751941680908203 0.8604651689529419
-0.3178846836090088 -0.007751941680908203 0.8759689331054688
-0.31868991255760193 -0.007751941680908203 0.922480583190918
-0.32011187076568604 0.007751941680908203 0.08527135848999023
-0.3297468423843384 0.00775194214656949 0.10077524185180664
-0.3207283914089203 0.007751941680908203 0.7054263353347778
-0.32037869095802307 0.007751941680908203 0.8604651689529419
-0.3218597173690796 0.02325582504272461 0.08527135848999023
-0.32750192284584045 0.02325582504272461 0.10077524930238724
-0.3263324499130249 0.02325582504272461 0.7054263353347778
-0.32292377948760986 0.038759708404541016 0.08527135848999023
-0.32888686656951904 0.038759708404541016 0.10077523440122604
-0.33285975456237793 0.038759708404541016 0.7054263949394226
-0.319682240486145 0.038759708404541016 0.8449612855911255
-0.3240199685096741 0.05426359176635742 0.08527135848999023
-0.3311671018600464 0.05426359176635742 0.10077524185180664
-0.32657480239868164 0.06976747512817383 0.08527135848999023
-0.3331623077392578 0.06976747512817383 0.10077524185180664
-0.33083152770996094 0.08527135848999023 0.08527135848999023
-0.32195550203323364 0.10077524185180664 0.6899224519729614
-0.3251127600669861 0.11627912521362305 0.6899224519729614
-0.3260590136051178 0.1317828893661499 0.6899224519729614
-0.319765567779541 0.1472867727279663 0.08527135848999023
-0.3257051110267639 0.1472867727279663 0.6899224519729614
-0.31950268149375916 0.1472867727279663 0.8449612855911255
-0.3291130065917969 0.16279065608978271 0.08527135848999023
-0.3267923593521118 0.16279065608978271 0.6899224519729614
-0.322368323802948 0.16279065608978271 0.8449612855911255
-0.32843416929244995 0.17829453945159912 0.6899224519729614
-0.3236587643623352 0.17829453945159912 0.8449612855911255
-0.3301762640476227 0.19379840791225433 0.6899223923683167
-0.32008495926856995 0.19379842281341553 0.8449612855911255
-0.3312268555164337 0.20930230617523193 0.6899224519729614
-0.3325314521789551 0.20930232107639313 0.8294574022293091
-0.3286988139152527 0.22480618953704834 0.6899224519729614
-0.3198447525501251 0.22480618953704834 0.8294574022293091
-0.32273563742637634 0.24031007289886475 0.6899224519729614
-0.33298131823539734 0.24031007289886475 0.8139535188674927
-0.3199855089187622 0.25581395626068115 0.8139535188674927
-0.3283967971801758 0.28682172298431396 0.7054263353347778
-0.32391780614852905 0.30232560634613037 0.7054263353347778
-0.3235854506492615 0.30232560634613037 0.8139535188674927
-0.31792375445365906 0.3178294897079468 0.7054263353347778
-0.33318960666656494 0.3178294897079468 0.720930278301239
-0.32349514961242676 0.3333333730697632 0.7209302186965942
-0.3184899389743805 0.3333333730697632 0.8294574022293091
-0.32711362838745117 0.3488372564315796 0.7364341020584106
-0.3186020255088806 0.364341139793396 0.7364341020584106
-0.329388827085495 0.364341139793396 0.751937985420227
-0.3182004690170288 0.37984490394592285 0.8449612855911255
-0.322385311126709 0.39534878730773926 0.7674418687820435
-0.32079648971557617 0.42635655403137207 0.7829457521438599
-0.3223169445991516 0.4418604373931885 0.7984496355056763
-0.32205426692962646 0.4728682041168213 0.8139535188674927
-0.32670825719833374 0.5348837375640869 0.7984496355056763
-0.3209724426269531 0.5503876209259033 0.7984496355056763
-0.3206709325313568 0.6589146852493286 0.8759689331054688
-0.33203691244125366 0.8604651689529419 0.8604651689529419
-0.32124409079551697 0.8914728164672852 0.8759689331054688
-0.3138670325279236 -0.6899224519729614 0.8759689331054688
-0.31599199771881104 -0.5658915042877197 0.7829457521438599
-0.3093099594116211 -0.5348837375640869 0.7674418687820435
-0.3062615394592285 -0.4418604373931885 0.7364341020584106
-0.30352699756622314 -0.4418604373931885 0.8449612855911255
-0.3054881989955902 -0.42635661363601685 0.8449612855911255
-0.3102644085884094 -0.3643410801887512 0.7209302186965942
-0.30872422456741333 -0.3643410801887512 0.8294574022293091
-0.30552226305007935 -0.25581395626068115 0.8294574022293091
-0.30671703815460205 -0.22480618953704834 0.6899224519729614
-0.3116636276245117 -0.20930230617523193 0.6899224519729614
-0.31685835123062134 -0.19379843771457672 0.6899224519729614
-0.3023725152015686 -0.11627906560897827 0.8604651689529419
-0.31594133377075195 -0.10077518224716187 0.6899224519729614
-0.314895898103714 -0.10077518224716187 0.8914728164672852
-0.31188663840293884 -0.10077518224716187 0.9069766998291016
-0.31631922721862793 -0.10077518224716187 0.922480583190918
-0.3155098259449005 -0.10077518224716187 0.9534883499145508
-0.30767521262168884 -0.08527129888534546 0.6899224519729614
-0.3113524913787842 -0.05426359176635742 0.9534883499145508
-0.30262261629104614 -0.02325582504272461 0.06976747512817383
-0.3136798143386841 -0.00775194214656949 0.8914728164672852
-0.31617677211761475 -0.007751941680908203 0.9069766998291016
-0.3123142719268799 -0.007751941680908203 0.9379844665527344
-0.30907684564590454 0.007751941680908203 0.8759689331054688
-0.3045699894428253 0.007751941680908203 0.8914728164672852
-0.3056677281856537 0.007751941680908203 0.9069766998291016
-0.3085182309150696 0.007751941680908203 0.922480583190918
-0.3047385513782501 0.007751941680908203 0.9379844665527344
-0.30301016569137573 0.02325582504272461 0.06976747512817383
-0.31160712242126465 0.02325582504272461 0.8604651689529419
-0.3027121424674988 0.02325582504272461 0.8759689331054688
-0.3035453259944916 0.038759708404541016 0.06976747512817383
-0.3028644025325775 0.038759708404541016 0.8604651689529419
-0.3039162755012512 0.05426359176635742 0.06976747512817383
-0.3079778850078583 0.05426359176635742 0.08527135848999023
-0.3038867115974426 0.05426359176635742 0.6899224519729614
-0.3070670962333679 0.05426359176635742 0.8449612855911255
-0.30439305305480957 0.06976747512817383 0.06976747512817383
-0.3117910325527191 0.06976747512817383 0.08527135848999023
-0.31029075384140015 0.06976747512817383 0.6899224519729614
-0.3048888146877289 0.08527135848999023 0.06976747512817383
-0.31344154477119446 0.08527135848999023 0.08527135848999023
-0.3160366714000702 0.08527135848999023 0.6899224519729614
-0.30539971590042114 0.10077524185180664 0.06976747512817383
-0.31411659717559814 0.10077524185180664 0.08527135848999023
-0.3060901165008545 0.10077524185180664 0.8449612855911255
-0.30616626143455505 0.11627912521362305 0.06976747512817383
-0.3151002526283264 0.11627912521362305 0.08527135848999023
-0.3114912211894989 0.11627912521362305 0.8449612855911255
-0.3067276179790497 0.1317828893661499 0.06976747512817383
-0.3169470727443695 0.1317828893661499 0.08527135848999023
-0.31581151485443115 0.1317828893661499 0.8449612855911255
-0.3075322210788727 0.1472867727279663 0.06976747512817383
-0.3023647367954254 0.16279065608978271 0.8604651689529419
-0.30306872725486755 0.17829453945159912 0.8604651689529419
-0.3103524446487427 0.20930230617523193 0.8449612855911255
-0.3035871088504791 0.24031007289886475 0.8294574022293091
-0.3161951005458832 0.25581395626068115 0.6899224519729614
-0.3104349672794342 0.27131783962249756 0.6899224519729614
-0.3128010630607605 0.27131783962249756 0.8139535188674927
-0.3051205277442932 0.28682172298431396 0.6899224519729614
-0.31143298745155334 0.28682172298431396 0.8139535188674927
-0.3077801465988159 0.3333333730697632 0.7054263353347778
