-0.13178294897079468 0.1472867727279663 0.8867504596710205
-0.13178294897079468 0.16279065608978271 0.7984709143638611
-0.13178294897079468 0.16279065608978271 0.8920701146125793
-0.13178294897079468 0.17829453945159912 0.7987256646156311
-0.13178294897079468 0.17829453945159912 0.8957948684692383
-0.13178294897079468 0.19379840791225433 0.7997431755065918
-0.13178294897079468 0.19379842281341553 0.9009676575660706
-0.13178294897079468 0.20930230617523193 0.8010624647140503
-0.13178294897079468 0.20930230617523193 0.907498836517334
-0.13178294897079468 0.22480618953704834 0.8024057745933533
-0.13178294897079468 0.22480618953704834 0.91309654712677
-0.13178294897079468 0.24031007289886475 0.8032040596008301
-0.13178294897079468 0.24031007289886475 0.9224064946174622
-0.13178294897079468 0.25581395626068115 0.8034298419952393
-0.13178294897079468 0.25581395626068115 0.925864577293396
-0.13178294897079468 0.27131783962249756 0.8034032583236694
-0.13178294897079468 0.27131783962249756 0.9292812347412109
-0.13178294897079468 0.28682172298431396 0.8033360242843628
-0.13178294897079468 0.28682172298431396 0.9329369068145752
-0.13178294897079468 0.30232560634613037 0.8037109971046448
-0.13178294897079468 0.30232560634613037 0.9380337595939636
-0.13178294897079468 0.3178294897079468 0.8045589327812195
-0.13178294897079468 0.3178294897079468 0.9388243556022644
-0.13178294897079468 0.3333333730697632 0.8059769868850708
-0.13178294897079468 0.3333333730697632 0.9392724633216858
-0.13178294897079468 0.3488372564315796 0.807907223701477
-0.13178294897079468 0.348837286233902 0.939739465713501
-0.13178294897079468 0.364341139793396 0.8102267384529114
-0.13178294897079468 0.364341139793396 0.9400737881660461
-0.13178294897079468 0.37984490394592285 0.8129027485847473
-0.13178294897079468 0.37984490394592285 0.9398666024208069
-0.13178294897079468 0.39534878730773926 0.815872073173523
-0.13178294897079468 0.39534878730773926 0.9392992258071899
-0.13178294897079468 0.41085267066955566 0.8189865350723267
-0.13178294897079468 0.41085267066955566 0.938742458820343
-0.13178294897079468 0.42635655403137207 0.8209700584411621
-0.13178294897079468 0.42635655403137207 0.9385697841644287
-0.13178294897079468 0.4418604373931885 0.8224760293960571
-0.13178294897079468 0.4418604373931885 0.9387655258178711
-0.13178294897079468 0.4573643207550049 0.8236639499664307
-0.13178294897079468 0.4573643207550049 0.9393154978752136
-0.13178294897079468 0.4728682041168213 0.8247729539871216
-0.13178294897079468 0.4728682041168213 0.9400811791419983
-0.13178294897079468 0.4883720874786377 0.8263784646987915
-0.13178294897079468 0.4883720874786377 0.9410512447357178
-0.13178294897079468 0.5038759708404541 0.8276767730712891
-0.13178294897079468 0.5038759708404541 0.9417304396629333
-0.13178294897079468 0.5193798542022705 0.8285000920295715
-0.13178294897079468 0.5193798542022705 0.941851019859314
-0.13178294897079468 0.5348837375640869 0.8303124308586121
-0.13178294897079468 0.5348837375640869 0.9416700005531311
-0.13178294897079468 0.5503876209259033 0.8355310559272766
-0.13178294897079468 0.5503876209259033 0.9411614537239075
-0.13178294897079468 0.5658915042877197 0.8415391445159912
-0.13178294897079468 0.5658915042877197 0.9404647350311279
-0.13178294897079468 0.5813953876495361 0.8517377376556396
-0.13178294897079468 0.5813953876495361 0.9390696287155151
-0.13178294897079468 0.5968992710113525 0.8736190795898438
-0.13178294897079468 0.5968992710113525 0.9320917129516602
-0.13178294897079468 0.612403154373169 0.8993443250656128
-0.13178294897079468 0.612403154373169 0.9269130229949951
-0.13178294897079468 0.6279069185256958 0.9030170440673828
-0.13178294897079468 0.6279069185256958 0.9166501760482788
-0.13178294897079468 0.6434108018875122 0.8966923952102661
-0.13178294897079468 0.6434107422828674 0.9099503755569458
-0.13178294897079468 0.6589146852493286 0.8843615651130676
-0.13178294897079468 0.6589146852493286 0.9103986024856567
-0.13178294897079468 0.674418568611145 0.8742674589157104
-0.13178294897079468 0.674418568611145 0.9103948473930359
-0.13178294897079468 0.6899224519729614 0.8688846230506897
-0.13178294897079468 0.6899224519729614 0.91010582447052
-0.13178294897079468 0.7054263353347778 0.8624213337898254
-0.13178294897079468 0.7054263353347778 0.9096635580062866
-0.13178294897079468 0.7209302186965942 0.8591820001602173
-0.13178294897079468 0.7209301590919495 0.9088015556335449
-0.13178294897079468 0.7364341020584106 0.8576383590698242
-0.13178294897079468 0.7364341020584106 0.9075256586074829
-0.13178294897079468 0.751937985420227 0.8561778664588928
-0.13178294897079468 0.751937985420227 0.9029588103294373
-0.13178294897079468 0.7674418687820435 0.8540334701538086
-0.13178294897079468 0.7674418687820435 0.8990598917007446
-0.13178294897079468 0.7829457521438599 0.8513959646224976
-0.13178294897079468 0.7829457521438599 0.8972271680831909
-0.13178294897079468 0.7984495759010315 0.8476786017417908
-0.13178294897079468 0.7984496355056763 0.896174430847168
-0.13178294897079468 0.8139535188674927 0.8446038365364075
-0.13178294897079468 0.8139535188674927 0.8956486582756042
-0.13178294897079468 0.8294574022293091 0.8433471322059631
-0.13178294897079468 0.8294574022293091 0.8954504728317261
-0.13178294897079468 0.8449612855911255 0.8410345315933228
-0.13178294897079468 0.8449612855911255 0.8956611156463623
-0.13178294897079468 0.8604651689529419 0.8356994986534119
-0.13178294897079468 0.8604651689529419 0.8966516852378845
-0.13178294897079468 0.8759689331054688 0.8276868462562561
-0.13178294897079468 0.8759689331054688 0.8968024253845215
-0.13178294897079468 0.8914728164672852 0.823737621307373
-0.13178294897079468 0.8914728164672852 0.894482433795929
-0.13178294897079468 0.9069766998291016 0.8211634159088135
-0.13178294897079468 0.9069766998291016 0.889275848865509
-0.13178294897079468 0.9224805235862732 0.8173433542251587
-0.13178294897079468 0.922480583190918 0.8780425190925598
-0.13178294897079468 0.9379844665527344 0.8119053840637207
-0.13178294897079468 0.9379844665527344 0.8595135807991028
-0.11627906560897827 -0.8914729356765747 0.8277369737625122
-0.11627906560897827 -0.8914728164672852 0.8325271010398865
-0.11627906560897827 -0.8759689927101135 0.8271709084510803
-0.11627906560897827 -0.8759690523147583 0.8366608619689941
-0.11627906560897827 -0.8604651093482971 0.8272103071212769
-0.11627907305955887 -0.8604651093482971 0.8456454873085022
-0.11627906560897827 -0.8449612259864807 0.8269479870796204
-0.11627907305955887 -0.8449612259864807 0.8483731746673584
-0.11627906560897827 -0.8294573426246643 0.8262804746627808
-0.11627906560897827 -0.8294572830200195 0.8511940240859985
-0.11627906560897827 -0.8139535188674927 0.8255882263183594
-0.11627906560897827 -0.8139535188674927 0.859275221824646
-0.11627906560897827 -0.7984496355056763 0.8252655267715454
-0.11627906560897827 -0.7984496355056763 0.8631625175476074
-0.11627906560897827 -0.7829457521438599 0.8255333304405212
-0.11627906560897827 -0.7829457521438599 0.8658809065818787
-0.11627906560897827 -0.7674418687820435 0.8264029026031494
-0.11627906560897827 -0.7674418687820435 0.8715918660163879
-0.11627906560897827 -0.751937985420227 0.8271477222442627
-0.11627907305955887 -0.751937985420227 0.8791974782943726
-0.11627906560897827 -0.7364341020584106 0.8279465436935425
-0.11627906560897827 -0.7364341020584106 0.8843176364898682
-0.11627906560897827 -0.7209302186965942 0.8289730548858643
-0.11627907305955887 -0.7209302186965942 0.8956475853919983
-0.11627906560897827 -0.7054263353347778 0.8312655687332153
-0.11627905815839767 -0.7054263353347778 0.9075109958648682
-0.11627906560897827 -0.6899224519729614 0.8330016732215881
-0.11627905815839767 -0.6899224519729614 0.9118961095809937
-0.11627906560897827 -0.674418568611145 0.8338642716407776
-0.11627906560897827 -0.674418568611145 0.9178417921066284
-0.11627906560897827 -0.6589146852493286 0.8333004713058472
-0.11627906560897827 -0.6589146852493286 0.9231288433074951
-0.11627906560897827 -0.643410861492157 0.832363486289978
-0.11627905815839767 -0.6434108018875122 0.9241748452186584
-0.11627906560897827 -0.6279069185256958 0.831940770149231
-0.11627906560897827 -0.6279069781303406 0.9250714182853699
-0.11627906560897827 -0.6124030947685242 0.8327566981315613
-0.11627906560897827 -0.6124030947685242 0.9258460998535156
-0.11627906560897827 -0.5968992114067078 0.8339614272117615
-0.11627906560897827 -0.5968992114067078 0.9265825152397156
-0.11627906560897827 -0.5813953876495361 0.8362219333648682
-0.11627906560897827 -0.5813953876495361 0.927153468132019
-0.11627906560897827 -0.5658915042877197 0.8390005826950073
-0.11627906560897827 -0.5658915042877197 0.9275721311569214
-0.11627906560897827 -0.5503876209259033 0.8421564102172852
-0.11627906560897827 -0.5503876209259033 0.9282945990562439
-0.11627906560897827 -0.5348837375640869 0.8445854783058167
-0.11627906560897827 -0.5348837375640869 0.9295556545257568
-0.11627906560897827 -0.5193798542022705 0.850270688533783
-0.11627906560897827 -0.5193798542022705 0.9314149618148804
-0.11627906560897827 -0.5038759708404541 0.8543615341186523
-0.11627906560897827 -0.5038759708404541 0.9349486231803894
-0.11627906560897827 -0.4883720874786377 0.8555381298065186
-0.11627906560897827 -0.4883720874786377 0.9381608963012695
-0.11627906560897827 -0.4728682041168213 0.8547347784042358
-0.11627906560897827 -0.4728682041168213 0.9385151863098145
-0.11627906560897827 -0.4573643207550049 0.8537654876708984
-0.11627907305955887 -0.4573643207550049 0.9387028813362122
-0.11627906560897827 -0.4418604373931885 0.8524473905563354
-0.11627906560897827 -0.4418604373931885 0.9387282729148865
-0.11627905815839767 -0.42635661363601685 0.8475731611251831
-0.11627906560897827 -0.42635661363601685 0.9386426210403442
-0.11627906560897827 -0.41085273027420044 0.8430155515670776
-0.11627906560897827 -0.41085273027420044 0.9381417036056519
-0.11627906560897827 -0.39534884691238403 0.8390376567840576
-0.11627906560897827 -0.39534884691238403 0.936363160610199
-0.11627906560897827 -0.3798449635505676 0.8358233571052551
-0.11627906560897827 -0.3798449635505676 0.9339101314544678
-0.11627906560897827 -0.3643410801887512 0.8347641229629517
-0.11627906560897827 -0.3643410801887512 0.9316071271896362
-0.11627906560897827 -0.3488371968269348 0.8356584310531616
-0.11627906560897827 -0.3488371968269348 0.9295099973678589
-0.11627906560897827 -0.3333333134651184 0.8371604681015015
-0.11627906560897827 -0.3333333134651184 0.9276903867721558
-0.11627906560897827 -0.317829430103302 0.837569534778595
-0.11627906560897827 -0.317829430103302 0.9253570437431335
-0.11627906560897827 -0.30232560634613037 0.8362312316894531
-0.11627906560897827 -0.30232560634613037 0.9230287671089172
-0.11627906560897827 -0.28682172298431396 0.8357349634170532
-0.11627906560897827 -0.28682172298431396 0.920237123966217
-0.11627906560897827 -0.27131783962249756 0.8365241885185242
-0.11627906560897827 -0.27131783962249756 0.9153436422348022
-0.11627906560897827 -0.25581395626068115 0.836610734462738
-0.11627906560897827 -0.25581395626068115 0.9098026752471924
-0.11627906560897827 -0.24031007289886475 0.8363986015319824
-0.11627906560897827 -0.24031007289886475 0.902773380279541
-0.11627906560897827 -0.22480618953704834 0.8351290225982666
-0.11627906560897827 -0.22480617463588715 0.8949165940284729
-0.11627906560897827 -0.20930230617523193 0.832709550857544
-0.11627906560897827 -0.20930230617523193 0.8886796832084656
-0.11627906560897827 -0.19379842281341553 0.8294543027877808
-0.11627906560897827 -0.19379842281341553 0.8834848403930664
-0.11627906560897827 -0.1782945990562439 0.8275204300880432
-0.11627906560897827 -0.1782945990562439 0.8797661066055298
-0.11627906560897827 -0.1627907156944275 0.8267823457717896
-0.11627906560897827 -0.1627907156944275 0.8775510191917419
-0.11627906560897827 -0.14728683233261108 0.8260886669158936
-0.11627906560897827 -0.14728683233261108 0.8758348226547241
-0.11627906560897827 -0.13178294897079468 0.8245388865470886
-0.11627906560897827 -0.13178294897079468 0.8731094002723694
-0.11627906560897827 -0.11627906560897827 0.8217018246650696
-0.11627906560897827 -0.11627906560897827 0.8713507652282715
-0.11627906560897827 -0.10077518224716187 0.8170031905174255
-0.11627906560897827 -0.10077518224716187 0.8703890442848206
-0.11627906560897827 -0.08527129888534546 0.8119767308235168
-0.11627906560897827 -0.08527129888534546 0.8696093559265137
-0.11627906560897827 -0.06976741552352905 0.8057522773742676
-0.11627906560897827 -0.06976741552352905 0.8689614534378052
-0.11627906560897827 -0.05426359176635742 0.7981666326522827
-0.11627906560897827 -0.05426359176635742 0.8679214715957642
-0.11627906560897827 -0.038759708404541016 0.7928179502487183
-0.11627906560897827 -0.038759708404541016 0.8667933940887451
-0.11627906560897827 -0.02325582504272461 0.7863870859146118
-0.11627906560897827 -0.02325582504272461 0.8657128214836121
-0.11627906560897827 -0.007751941680908203 -0.6938318610191345
-0.11627906560897827 -0.007751941680908203 -0.601179301738739
-0.11627906560897827 -0.007751941680908203 0.7818868160247803
-0.11627906560897827 -0.007751941215246916 0.8646407127380371
-0.11627906560897827 0.007751941680908203 -0.745160698890686
-0.11627906560897827 0.007751941680908203 -0.5309572815895081
-0.11627906560897827 0.007751941680908203 0.7808448672294617
-0.11627906560897827 0.007751941680908203 0.8639768958091736
-0.11627906560897827 0.02325582504272461 -0.7509975433349609
-0.11627906560897827 0.02325582504272461 -0.5323435068130493
-0.11627906560897827 0.02325582504272461 0.7815245985984802
-0.11627906560897827 0.02325582504272461 0.8636852502822876
-0.11627906560897827 0.038759708404541016 -0.678338885307312
-0.11627906560897827 0.038759708404541016 -0.6641607284545898
-0.11627906560897827 0.038759708404541016 0.7827379107475281
-0.11627906560897827 0.038759708404541016 0.8641659617424011
-0.11627906560897827 0.05426359176635742 0.14422738552093506
-0.11627907305955887 0.05426359176635742 0.22777371108531952
-0.11627906560897827 0.05426359176635742 0.7874305844306946
-0.11627906560897827 0.05426359176635742 0.8655393123626709
-0.11627906560897827 0.06976747512817383 0.14538224041461945
-0.11627906560897827 0.06976747512817383 0.24342530965805054
-0.11627906560897827 0.06976747512817383 0.7915066480636597
-0.11627906560897827 0.06976747512817383 0.8677640557289124
-0.11627906560897827 0.08527135848999023 0.16150826215744019
-0.11627906560897827 0.08527135848999023 0.2366490364074707
-0.11627906560897827 0.08527135848999023 0.7941361665725708
-0.11627906560897827 0.08527135848999023 0.8711597919464111
-0.11627906560897827 0.10077524185180664 0.7953492999076843
-0.11627907305955887 0.10077524185180664 0.8765094876289368
-0.11627906560897827 0.11627912521362305 0.7956893444061279
-0.11627906560897827 0.11627912521362305 0.8789290189743042
-0.11627906560897827 0.1317828893661499 0.7953457832336426
-0.11627906560897827 0.1317828893661499 0.881691575050354
-0.11627906560897827 0.1472867727279663 0.795232892036438
-0.11627906560897827 0.1472867727279663 0.8853782415390015
-0.11627906560897827 0.16279065608978271 0.7953663468360901
-0.11627906560897827 0.16279065608978271 0.8908936381340027
-0.11627906560897827 0.17829453945159912 0.7957324981689453
-0.11627906560897827 0.17829453945159912 0.8947820067405701
-0.11627906560897827 0.19379842281341553 0.7965617179870605
-0.11627906560897827 0.19379842281341553 0.899607241153717
-0.11627906560897827 0.20930230617523193 0.7974369525909424
-0.11627906560897827 0.20930230617523193 0.9065225720405579
-0.11627906560897827 0.22480618953704834 0.7981473803520203
-0.11627906560897827 0.22480618953704834 0.9118214249610901
-0.11627906560897827 0.24031007289886475 0.7987671494483948
-0.11627906560897827 0.24031007289886475 0.919853150844574
-0.11627906560897827 0.25581395626068115 0.7992991209030151
-0.11627906560897827 0.25581395626068115 0.924445390701294
-0.11627906560897827 0.27131783962249756 0.7996523380279541
-0.11627906560897827 0.27131783962249756 0.9270079731941223
-0.11627906560897827 0.28682172298431396 0.7999571561813354
-0.11627906560897827 0.28682172298431396 0.9296106696128845
-0.11627906560897827 0.30232560634613037 0.8008567094802856
-0.11627906560897827 0.30232560634613037 0.9330316781997681
-0.11627906560897827 0.3178294897079468 0.8022350072860718
-0.11627906560897827 0.3178294897079468 0.9370980858802795
-0.11627906560897827 0.3333333730697632 0.8041588068008423
-0.11627905815839767 0.3333333432674408 0.9383289813995361
-0.11627906560897827 0.3488372564315796 0.8063797950744629
-0.11627906560897827 0.3488372564315796 0.9387220740318298
-0.11627906560897827 0.364341139793396 0.8088647127151489
-0.11627906560897827 0.364341139793396 0.9389662146568298
-0.11627906560897827 0.37984490394592285 0.8117382526397705
-0.11627905815839767 0.37984490394592285 0.938705563545227
-0.11627906560897827 0.39534878730773926 0.8138377666473389
-0.11627906560897827 0.39534878730773926 0.9381061792373657
-0.11627905815839767 0.41085267066955566 0.8174442052841187
-0.11627906560897827 0.41085267066955566 0.9355016946792603
-0.11627906560897827 0.42635655403137207 0.8197814226150513
-0.11627906560897827 0.42635655403137207 0.9350196123123169
-0.11627906560897827 0.4418604373931885 0.8214923143386841
-0.11627906560897827 0.4418604373931885 0.9364258050918579
-0.11627906560897827 0.4573643207550049 0.8227729797363281
-0.11627906560897827 0.4573643207550049 0.9383435249328613
-0.11627906560897827 0.4728682041168213 0.8238629102706909
-0.11627906560897827 0.4728682041168213 0.939115047454834
-0.11627906560897827 0.4883720874786377 0.825413703918457
-0.11627906560897827 0.4883720874786377 0.940075159072876
-0.11627906560897827 0.5038759708404541 0.8266616463661194
-0.11627906560897827 0.5038759708404541 0.940770149230957
-0.11627906560897827 0.5193798542022705 0.8275033831596375
-0.11627906560897827 0.5193798542022705 0.9409406781196594
-0.11627906560897827 0.5348837375640869 0.8289584517478943
-0.11627906560897827 0.5348837375640869 0.940909743309021
-0.11627906560897827 0.5503876209259033 0.8340234756469727
-0.11627906560897827 0.5503876209259033 0.9405442476272583
-0.11627906560897827 0.5658915042877197 0.8402450084686279
-0.11627905815839767 0.5658915042877197 0.9396899342536926
-0.11627907305955887 0.5813953876495361 0.8485995531082153
-0.11627906560897827 0.5813954472541809 0.9380267858505249
-0.11627906560897827 0.5968992710113525 0.8667128086090088
-0.11627906560897827 0.5968992710113525 0.9289274215698242
-0.11627906560897827 0.612403154373169 0.8984019160270691
-0.11627907305955887 0.612403154373169 0.9256770014762878
-0.11627906560897827 0.6279069185256958 0.9037425518035889
-0.11627907305955887 0.6279069185256958 0.9089646935462952
-0.11627906560897827 0.6434108018875122 0.8981057405471802
-0.11627906560897827 0.6434108018875122 0.9084435105323792
-0.11627906560897827 0.6589146852493286 0.8839643001556396
-0.11627906560897827 0.6589146852493286 0.909473180770874
-0.11627906560897827 0.674418568611145 0.8741368055343628
-0.11627906560897827 0.674418568611145 0.9098442196846008
-0.11627906560897827 0.6899224519729614 0.8684773445129395
-0.11627906560897827 0.6899224519729614 0.9097482562065125
-0.11627906560897827 0.7054262757301331 0.8614295721054077
-0.11627906560897827 0.7054263353347778 0.9091397523880005
-0.11627906560897827 0.7209302186965942 0.8588871955871582
-0.11627905815839767 0.7209302186965942 0.9080053567886353
-0.11627906560897827 0.7364341020584106 0.8573024272918701
-0.11627906560897827 0.7364341020584106 0.9045917391777039
-0.11627906560897827 0.751937985420227 0.8559091091156006
-0.11627906560897827 0.751937985420227 0.8999191522598267
-0.11627906560897827 0.7674418687820435 0.8539843559265137
-0.11627906560897827 0.7674418687820435 0.897445797920227
-0.11627906560897827 0.7829457521438599 0.8516378402709961
-0.11627906560897827 0.7829458117485046 0.8961218595504761
-0.11627906560897827 0.7984496355056763 0.848204493522644
-0.11627905815839767 0.7984496355056763 0.8952296376228333
-0.11627906560897827 0.8139535188674927 0.8446928262710571
-0.11627907305955887 0.8139535188674927 0.8947020769119263
-0.11627906560897827 0.8294574022293091 0.8434053659439087
-0.11627906560897827 0.8294574618339539 0.894427478313446
-0.11627906560897827 0.8449612855911255 0.841204047203064
-0.11627906560897827 0.8449612855911255 0.8945155143737793
-0.11627906560897827 0.8604651689529419 0.8363807201385498
-0.11627906560897827 0.8604651689529419 0.8953627943992615
-0.11627906560897827 0.8759689331054688 0.8284724354743958
-0.11627906560897827 0.8759689331054688 0.8957638144493103
-0.11627906560897827 0.8914728164672852 0.8256571292877197
-0.11627906560897827 0.8914728164672852 0.8937901258468628
-0.11627906560897827 0.9069766998291016 0.823694109916687
-0.11627906560897827 0.9069766998291016 0.8879306316375732
-0.11627906560897827 0.922480583190918 0.8206809163093567
-0.11627906560897827 0.922480583190918 0.877119243144989
-0.11627906560897827 0.9379844665527344 0.8128483295440674
-0.11627906560897827 0.9379844665527344 0.8572206497192383
-0.10077518224716187 -0.8759689927101135 0.8279504776000977
-0.10077518224716187 -0.8759689927101135 0.835547685623169
-0.10077518224716187 -0.8604651093482971 0.8270033597946167
-0.10077518224716187 -0.8604651093482971 0.8459106087684631
-0.10077518224716187 -0.8449612259864807 0.8260471820831299
-0.10077517479658127 -0.8449611663818359 0.8485033512115479
-0.10077518224716187 -0.8294572830200195 0.8241739273071289
-0.10077518224716187 -0.8294573426246643 0.8513280153274536
-0.10077518224716187 -0.8139535188674927 0.8218835592269897
-0.10077518224716187 -0.8139535188674927 0.8598855137825012
-0.10077518224716187 -0.7984496355056763 0.8199989795684814
-0.10077518224716187 -0.7984496355056763 0.8630094528198242
-0.10077518224716187 -0.7829457521438599 0.8192304372787476
-0.10077518224716187 -0.7829458117485046 0.8658722043037415
-0.10077518224716187 -0.7674418687820435 0.8198864459991455
-0.10077518224716187 -0.7674418687820435 0.8729985952377319
-0.10077518224716187 -0.751937985420227 0.8208800554275513
-0.10077518224716187 -0.751937985420227 0.8792442679405212
-0.10077518224716187 -0.7364341020584106 0.8223413228988647
-0.10077518224716187 -0.7364341020584106 0.8841732144355774
-0.10077518224716187 -0.7209302186965942 0.8242042064666748
-0.10077518224716187 -0.7209302186965942 0.8951429128646851
-0.10077518224716187 -0.7054263353347778 0.8256950378417969
-0.10077518224716187 -0.7054263353347778 0.9070931673049927
-0.10077518224716187 -0.6899224519729614 0.8264728784561157
-0.10077518224716187 -0.6899224519729614 0.9113456606864929
-0.10077518224716187 -0.674418568611145 0.8269978165626526
-0.10077518224716187 -0.674418568611145 0.916581392288208
-0.10077518224716187 -0.6589146852493286 0.8270660042762756
-0.10077518224716187 -0.6589146852493286 0.9229875802993774
-0.10077518224716187 -0.643410861492157 0.8269705176353455
-0.10077518969774246 -0.6434109210968018 0.9241036772727966
-0.10077518224716187 -0.6279069781303406 0.8269952535629272
-0.10077518224716187 -0.6279069781303406 0.924929141998291
-0.10077518224716187 -0.6124030351638794 0.8273617029190063
-0.10077518224716187 -0.6124030947685242 0.9255163669586182
-0.10077518224716187 -0.5968992114067078 0.8278428912162781
-0.10077518224716187 -0.5968992114067078 0.9261122345924377
-0.10077518224716187 -0.5813953876495361 0.8285511136054993
-0.10077518224716187 -0.5813953876495361 0.926649272441864
-0.10077518224716187 -0.5658915042877197 0.829404354095459
-0.10077518224716187 -0.5658915042877197 0.9270792007446289
-0.10077518224716187 -0.5503876209259033 0.8349142074584961
-0.10077518224716187 -0.5503876209259033 0.927741527557373
-0.10077518224716187 -0.5348837375640869 0.8392909169197083
-0.10077518224716187 -0.5348837375640869 0.9287939667701721
-0.10077518224716187 -0.5193798542022705 0.8418027758598328
-0.10077518224716187 -0.5193798542022705 0.9302799701690674
-0.10077518224716187 -0.5038759708404541 0.8431838154792786
-0.10077518224716187 -0.5038759708404541 0.9334658980369568
-0.10077518224716187 -0.4883720874786377 0.8436260223388672
-0.10077518224716187 -0.4883720874786377 0.9381123185157776
-0.10077518224716187 -0.4728682041168213 0.8433066010475159
-0.10077518224716187 -0.4728682041168213 0.9386811256408691
-0.10077518224716187 -0.4573643207550049 0.8428571820259094
-0.10077518224716187 -0.4573643207550049 0.9389435052871704
-0.10077518224716187 -0.4418604373931885 0.8424310684204102
-0.10077518224716187 -0.4418604373931885 0.9389513731002808
-0.10077518224716187 -0.42635661363601685 0.8409790992736816
-0.10077518969774246 -0.42635661363601685 0.938825786113739
-0.10077518224716187 -0.41085273027420044 0.838172972202301
-0.10077518224716187 -0.41085273027420044 0.9382766485214233
-0.10077518224716187 -0.3953488767147064 0.8344224691390991
-0.10077518224716187 -0.39534884691238403 0.9365214109420776
-0.10077518224716187 -0.3798449635505676 0.8317295908927917
-0.10077518224716187 -0.3798449635505676 0.9335460662841797
-0.10077518224716187 -0.3643410801887512 0.8310835361480713
-0.10077518224716187 -0.3643410801887512 0.9308668375015259
-0.10077518224716187 -0.3488371968269348 0.8322333693504333
-0.10077518224716187 -0.3488371968269348 0.9285422563552856
-0.10077518224716187 -0.3333333134651184 0.8338746428489685
-0.10077518224716187 -0.3333333134651184 0.9267714023590088
-0.10077518224716187 -0.317829430103302 0.8343506455421448
-0.10077518224716187 -0.317829430103302 0.9248267412185669
-0.10077518224716187 -0.30232560634613037 0.8330821990966797
-0.10077518224716187 -0.30232560634613037 0.922933042049408
-0.10077518969774246 -0.28682172298431396 0.8325352072715759
-0.10077518224716187 -0.28682172298431396 0.919536292552948
-0.10077518224716187 -0.27131783962249756 0.8332909345626831
-0.10077518224716187 -0.27131783962249756 0.9136896729469299
-0.10077518224716187 -0.25581395626068115 0.8331820964813232
-0.10077518224716187 -0.25581395626068115 0.9078840017318726
-0.10077518224716187 -0.24031007289886475 0.8328592777252197
-0.10077518224716187 -0.24031007289886475 0.8994405269622803
-0.10077518224716187 -0.22480617463588715 0.831559956073761
-0.10077518224716187 -0.22480618953704834 0.8922327756881714
-0.10077518224716187 -0.20930230617523193 0.8291833996772766
-0.10077518224716187 -0.20930230617523193 0.8858485221862793
-0.10077518224716187 -0.19379842281341553 0.8269777894020081
-0.10077518224716187 -0.19379842281341553 0.8814256191253662
-0.10077518224716187 -0.1782945990562439 0.8248241543769836
-0.10077518224716187 -0.1782945990562439 0.8781449794769287
-0.10077518224716187 -0.1627907156944275 0.8241599798202515
-0.10077518224716187 -0.1627907156944275 0.8761077523231506
-0.10077518224716187 -0.14728683233261108 0.8234528303146362
-0.10077518224716187 -0.14728683233261108 0.8733237385749817
-0.10077518224716187 -0.13178294897079468 0.8219554424285889
-0.10077518224716187 -0.13178294897079468 0.871276319026947
-0.10077518224716187 -0.11627906560897827 0.819466769695282
-0.10077518224716187 -0.11627906560897827 0.8698962330818176
-0.10077518224716187 -0.10077518224716187 0.8151705861091614
-0.10077518224716187 -0.10077518224716187 0.869044840335846
-0.10077518224716187 -0.08527129888534546 0.8111822605133057
-0.10077518224716187 -0.08527129888534546 0.8682408332824707
-0.10077518224716187 -0.06976741552352905 0.8050036430358887
-0.10077518224716187 -0.06976741552352905 0.8675446510314941
-0.10077518224716187 -0.05426359176635742 0.7975170016288757
-0.10077518224716187 -0.05426359176635742 0.8665691614151001
-0.10077518224716187 -0.038759708404541016 0.7907952070236206
-0.10077518224716187 -0.038759708404541016 0.8655390739440918
-0.10077518224716187 -0.02325582504272461 0.7827125787734985
-0.10077518224716187 -0.02325582504272461 0.8645067811012268
-0.10077518224716187 -0.007751941680908203 -0.6094149351119995
-0.10077518224716187 -0.007751941680908203 -0.507013201713562
-0.10077518224716187 -0.007751941680908203 0.7789841890335083
-0.10077518224716187 -0.007751941680908203 0.8634659051895142
-0.10077518224716187 0.007751941680908203 -0.6627070903778076
-0.10077517479658127 0.007751941215246916 -0.49828264117240906
-0.10077518224716187 0.007751941680908203 0.7761609554290771
-0.10077518224716187 0.007751941680908203 0.8628703355789185
-0.10077518224716187 0.02325582504272461 -0.6622248888015747
-0.10077518224716187 0.02325582504272461 -0.5019060373306274
-0.10077518224716187 0.02325582504272461 0.7770841121673584
-0.10077518224716187 0.02325582504272461 0.862674355506897
-0.10077518224716187 0.038759708404541016 0.7794893980026245
-0.10077518224716187 0.038759708404541016 0.8632047772407532
-0.10077518224716187 0.05426359176635742 0.16185492277145386
-0.10077518224716187 0.05426359176635742 0.23553185164928436
-0.10077518224716187 0.05426359176635742 0.7816400527954102
-0.10077518224716187 0.05426359549164772 0.8644775152206421
-0.10077518224716187 0.06976747512817383 0.1586376577615738
-0.10077518224716187 0.06976747512817383 0.25836628675460815
-0.10077518224716187 0.06976748257875443 0.7831303477287292
-0.10077518224716187 0.06976747512817383 0.8664264678955078
-0.10077518224716187 0.08527135848999023 0.1677258163690567
-0.10077518224716187 0.08527135848999023 0.25950685143470764
-0.10077518224716187 0.08527135848999023 0.7872980833053589
-0.10077518224716187 0.08527135848999023 0.8693258762359619
-0.10077518224716187 0.10077524185180664 0.19296471774578094
-0.10077518224716187 0.10077524185180664 0.24283480644226074
-0.10077518224716187 0.10077524185180664 0.7897182703018188
-0.10077518224716187 0.10077524185180664 0.8747105598449707
-0.10077518224716187 0.11627912521362305 0.7905462980270386
-0.10077518224716187 0.11627912521362305 0.8779332041740417
-0.10077518224716187 0.1317828893661499 0.7903091907501221
-0.10077518224716187 0.1317828893661499 0.8804724812507629
-0.10077518224716187 0.1472867727279663 0.7905139923095703
-0.10077518224716187 0.1472867727279663 0.8836472034454346
-0.10077518224716187 0.16279065608978271 0.7911432981491089
-0.10077518224716187 0.16279065608978271 0.8884191513061523
-0.10077518224716187 0.17829453945159912 0.7920122742652893
-0.10077518224716187 0.17829453945159912 0.8935442566871643
-0.10077518224716187 0.19379842281341553 0.7933940887451172
-0.10077518224716187 0.19379842281341553 0.8978977203369141
-0.10077518224716187 0.20930230617523193 0.7949230670928955
-0.10077518224716187 0.20930230617523193 0.9044065475463867
-0.10077518224716187 0.22480618953704834 0.7961854934692383
-0.10077518224716187 0.22480618953704834 0.9103183746337891
-0.10077518224716187 0.24031007289886475 0.7968526482582092
-0.10077518224716187 0.24031007289886475 0.9166179895401001
-0.10077518224716187 0.25581395626068115 0.7970844507217407
-0.10077518969774246 0.25581395626068115 0.9231928586959839
-0.10077518224716187 0.27131783962249756 0.7972519993782043
-0.10077518224716187 0.27131783962249756 0.9252718687057495
-0.10077518224716187 0.28682172298431396 0.7974148392677307
-0.10077518224716187 0.28682172298431396 0.9271420240402222
-0.10077518224716187 0.30232560634613037 0.7979065775871277
-0.10077518224716187 0.30232560634613037 0.929352879524231
-0.10077518969774246 0.31782951951026917 0.7990175485610962
-0.10077518224716187 0.3178294897079468 0.9321508407592773
-0.10077518224716187 0.3333333730697632 0.8016494512557983
-0.10077518224716187 0.3333333730697632 0.934421718120575
-0.10077518224716187 0.3488372564315796 0.8043698668479919
-0.10077518224716187 0.3488372564315796 0.9359943270683289
-0.10077518224716187 0.364341139793396 0.8070393800735474
-0.10077518224716187 0.364341139793396 0.936834454536438
-0.10077518224716187 0.37984490394592285 0.8100990056991577
-0.10077518224716187 0.37984490394592285 0.9349889159202576
-0.10077518224716187 0.39534878730773926 0.8124085664749146
-0.10077518224716187 0.39534878730773926 0.9324139356613159
-0.10077518224716187 0.41085267066955566 0.8148166537284851
-0.10077518224716187 0.41085267066955566 0.9308143258094788
-0.10077518224716187 0.42635655403137207 0.8177309036254883
-0.10077518224716187 0.42635655403137207 0.9306116104125977
-0.10077518224716187 0.4418604373931885 0.8197330236434937
-0.10077518224716187 0.4418604373931885 0.9313147068023682
-0.10077518224716187 0.4573643207550049 0.8210999369621277
-0.10077518224716187 0.4573643207550049 0.9334518909454346
-0.10077518224716187 0.4728682041168213 0.8222031593322754
-0.10077518224716187 0.4728682041168213 0.9380409717559814
-0.10077518224716187 0.4883720874786377 0.8237391114234924
-0.10077517479658127 0.4883720874786377 0.939071774482727
-0.10077518224716187 0.5038759708404541 0.8249714374542236
-0.10077518969774246 0.5038759708404541 0.9397911429405212
-0.10077518224716187 0.5193798542022705 0.8259458541870117
-0.10077518224716187 0.5193798542022705 0.9400187134742737
-0.10077518224716187 0.5348837375640869 0.8277021050453186
-0.10077518224716187 0.5348837375640869 0.9400754570960999
-0.10077518224716187 0.5503876209259033 0.8318081498146057
-0.10077518224716187 0.5503876209259033 0.9397163987159729
-0.10077518224716187 0.5658915042877197 0.838333249092102
-0.10077518969774246 0.5658915042877197 0.9387909770011902
-0.10077518224716187 0.5813953876495361 0.8446455597877502
-0.10077518224716187 0.5813953876495361 0.9322865605354309
-0.10077518224716187 0.5968992710113525 0.858530580997467
-0.10077518224716187 0.5968992710113525 0.9272112846374512
-0.10077518224716187 0.612403154373169 0.8956012725830078
-0.10077518224716187 0.612403154373169 0.923999547958374
-0.10077518224716187 0.6279069185256958 0.9033623337745667
-0.10077518224716187 0.6279069185256958 0.9079328775405884
-0.10077518224716187 0.6434108018875122 0.894196093082428
-0.10077518969774246 0.6434108018875122 0.9083240032196045
-0.10077518224716187 0.6589146852493286 0.8787974715232849
-0.10077517479658127 0.6589146852493286 0.9095845222473145
-0.10077518224716187 0.674418568611145 0.8723775148391724
-0.10077518224716187 0.674418568611145 0.9101043939590454
-0.10077518224716187 0.6899224519729614 0.8659800291061401
-0.10077518224716187 0.6899224519729614 0.9099874496459961
-0.10077518224716187 0.7054263353347778 0.8598669767379761
-0.10077518224716187 0.7054263353347778 0.9093106985092163
-0.10077518224716187 0.7209302186965942 0.8580302596092224
-0.10077518224716187 0.7209302186965942 0.90814608335495
-0.10077518224716187 0.7364341020584106 0.8563864231109619
-0.10077518224716187 0.7364341020584106 0.9052839279174805
-0.10077518224716187 0.751937985420227 0.8551005125045776
-0.10077518224716187 0.751937985420227 0.9003063440322876
-0.10077518224716187 0.7674418687820435 0.8534399271011353
-0.10077518224716187 0.7674418687820435 0.8975882530212402
-0.10077518224716187 0.7829457521438599 0.8513113260269165
-0.10077518969774246 0.7829458117485046 0.8961434364318848
-0.10077518224716187 0.7984495759010315 0.8478379249572754
-0.10077518224716187 0.7984496355056763 0.8951877355575562
-0.10077518224716187 0.8139535188674927 0.8445502519607544
-0.10077518224716187 0.8139535188674927 0.8946516513824463
-0.10077518224716187 0.8294574022293091 0.8432074785232544
-0.10077518224716187 0.8294574022293091 0.8943767547607422
-0.10077518224716187 0.8449612855911255 0.8411232233047485
-0.10077518224716187 0.8449612855911255 0.8944487571716309
-0.10077518224716187 0.8604651689529419 0.8368622064590454
-0.10077518224716187 0.8604651093482971 0.8952796459197998
-0.10077518224716187 0.8759689331054688 0.8291627168655396
-0.10077518224716187 0.8759689927101135 0.8956574201583862
-0.10077518224716187 0.8914728164672852 0.8269810080528259
-0.10077518224716187 0.8914728164672852 0.8934684991836548
-0.10077518224716187 0.9069766998291016 0.8254095315933228
-0.10077518224716187 0.9069766998291016 0.8864345550537109
-0.10077518224716187 0.922480583190918 0.8231396675109863
-0.10077518224716187 0.922480583190918 0.8752375841140747
-0.10077518224716187 0.9379844665527344 0.8165940642356873
-0.10077518224716187 0.9379844665527344 0.8525450229644775
-0.08527129888534546 -0.8604651093482971 0.8282558917999268
-0.08527129888534546 -0.8604651093482971 0.8467462658882141
-0.08527129888534546 -0.8449612259864807 0.8267455101013184
-0.08527129888534546 -0.8449612259864807 0.8497112989425659
-0.08527129888534546 -0.8294573426246643 0.8243009448051453
-0.08527129888534546 -0.8294573426246643 0.853901743888855
-0.08527129888534546 -0.8139535188674927 0.8204823732376099
-0.08527129888534546 -0.8139535188674927 0.861416220664978
-0.08527129888534546 -0.7984496355056763 0.815498948097229
-0.08527129888534546 -0.7984496355056763 0.8639147877693176
-0.08527129888534546 -0.7829457521438599 0.8135486245155334
-0.08527129888534546 -0.7829457521438599 0.8680292367935181
-0.08527129888534546 -0.7674418687820435 0.8133499026298523
-0.08527129888534546 -0.7674418687820435 0.8770446181297302
-0.08527129888534546 -0.751937985420227 0.8133837580680847
-0.08527129888534546 -0.751937985420227 0.8807787895202637
-0.08527129888534546 -0.7364341020584106 0.8137387633323669
-0.08527129888534546 -0.7364341020584106 0.8887124061584473
-0.08527129888534546 -0.7209302186965942 0.816541314125061
-0.08527129888534546 -0.7209302186965942 0.897453248500824
-0.08527129888534546 -0.7054263353347778 0.8195607662200928
-0.08527129888534546 -0.7054263353347778 0.9077476263046265
-0.08527129888534546 -0.6899224519729614 0.8213040828704834
-0.08527129888534546 -0.6899224519729614 0.9111856818199158
-0.08527129888534546 -0.674418568611145 0.8225003480911255
-0.08527129888534546 -0.674418568611145 0.9156245589256287
-0.08527129888534546 -0.6589146852493286 0.822769045829773
-0.08527129888534546 -0.6589147448539734 0.9227812886238098
-0.08527129888534546 -0.643410861492157 0.8226898908615112
-0.08527129888534546 -0.643410861492157 0.9239405393600464
-0.08527129888534546 -0.6279069781303406 0.8227531909942627
-0.08527129888534546 -0.6279069781303406 0.9247544407844543
-0.08527129888534546 -0.6124030947685242 0.823382556438446
-0.08527129888534546 -0.6124030947685242 0.9252271056175232
-0.08527129888534546 -0.5968992114067078 0.8242126703262329
-0.08527129888534546 -0.5968992114067078 0.9256374835968018
-0.08527129888534546 -0.5813953876495361 0.8254868388175964
-0.08527129888534546 -0.5813953876495361 0.9260092973709106
-0.08527129888534546 -0.5658915042877197 0.8268963098526001
-0.08527129888534546 -0.5658915042877197 0.9263194799423218
-0.08527129888534546 -0.5503876209259033 0.8283092975616455
-0.08527129888534546 -0.5503876209259033 0.9267746210098267
-0.08527129888534546 -0.5348837375640869 0.8294394612312317
-0.08527129888534546 -0.5348837375640869 0.9274150729179382
-0.08527129888534546 -0.5193798542022705 0.833706259727478
-0.08527129888534546 -0.5193798542022705 0.9282606840133667
-0.08527129888534546 -0.5038759708404541 0.836087703704834
-0.08527129888534546 -0.5038759708404541 0.9301530122756958
-0.08527129888534546 -0.4883720874786377 0.836740255355835
-0.08527129888534546 -0.4883720874786377 0.9339820146560669
-0.08527129888534546 -0.4728682041168213 0.8362483978271484
-0.08527129143476486 -0.4728682041168213 0.9382755160331726
-0.08527129888534546 -0.4573643207550049 0.8355793356895447
-0.08527129888534546 -0.4573643207550049 0.9387624263763428
-0.08527129888534546 -0.4418604373931885 0.8350931406021118
-0.08527129888534546 -0.4418604373931885 0.938814103603363
-0.08527129888534546 -0.42635661363601685 0.833579421043396
-0.08527129143476486 -0.42635661363601685 0.9386687874794006
-0.08527129888534546 -0.41085273027420044 0.8308343291282654
-0.08527129888534546 -0.41085273027420044 0.9380398988723755
-0.08527129888534546 -0.39534884691238403 0.8286114931106567
-0.08527129888534546 -0.39534884691238403 0.935103178024292
-0.08527129888534546 -0.3798449635505676 0.8274524807929993
-0.08527129888534546 -0.3798449635505676 0.9319363236427307
-0.08527129888534546 -0.3643410801887512 0.8272110223770142
-0.08527129888534546 -0.3643410801887512 0.9290605783462524
-0.08527129888534546 -0.3488371968269348 0.8279455900192261
-0.08527129888534546 -0.3488371968269348 0.9268264174461365
-0.08527129888534546 -0.3333333134651184 0.8289541006088257
-0.08527129888534546 -0.333333283662796 0.9253852963447571
-0.08527129888534546 -0.317829430103302 0.8292710781097412
-0.08527129888534546 -0.3178294003009796 0.9238936305046082
-0.08527129888534546 -0.30232560634613037 0.8285027742385864
-0.08527129888534546 -0.30232560634613037 0.9220154285430908
-0.08527129888534546 -0.28682172298431396 0.8281866908073425
-0.08527129888534546 -0.28682172298431396 0.917307436466217
-0.08527129888534546 -0.27131783962249756 0.8286406397819519
-0.08527129888534546 -0.27131783962249756 0.9112783074378967
-0.08527129888534546 -0.25581395626068115 0.8285974860191345
-0.08527129888534546 -0.25581395626068115 0.9048888683319092
-0.08527129888534546 -0.24031007289886475 0.8283877968788147
-0.08527129888534546 -0.24031007289886475 0.8964890241622925
-0.08527129888534546 -0.22480618953704834 0.8274279832839966
-0.08527129888534546 -0.22480618953704834 0.8895915746688843
-0.08527129888534546 -0.20930230617523193 0.8254923820495605
-0.08527129888534546 -0.20930230617523193 0.8836705684661865
-0.08527129888534546 -0.19379842281341553 0.8231616616249084
-0.08527129888534546 -0.19379842281341553 0.8798452019691467
-0.08527129888534546 -0.1782945990562439 0.821313738822937
-0.08527129888534546 -0.1782945990562439 0.8768132925033569
-0.08527129888534546 -0.1627907156944275 0.8209254741668701
-0.08527129888534546 -0.1627907156944275 0.8739728927612305
-0.08527129888534546 -0.14728683233261108 0.8204776048660278
-0.08527129888534546 -0.14728683233261108 0.8715884685516357
-0.08527129888534546 -0.13178294897079468 0.8191542625427246
-0.08527129888534546 -0.13178294897079468 0.8699573278427124
-0.08527129888534546 -0.11627906560897827 0.8168209195137024
-0.08527129888534546 -0.11627906560897827 0.8688145279884338
-0.08527129888534546 -0.10077518224716187 0.8133968114852905
-0.08527129888534546 -0.10077518224716187 0.8680143356323242
-0.08527129888534546 -0.08527129888534546 0.8100768327713013
-0.08527129888534546 -0.08527129888534546 0.8671789169311523
-0.08527129888534546 -0.06976741552352905 0.8042348623275757
-0.08527129888534546 -0.06976741552352905 0.8664110898971558
-0.08527129888534546 -0.05426359176635742 0.7969838380813599
-0.08527129888534546 -0.05426359176635742 0.8654187321662903
-0.08527129888534546 -0.038759708404541016 0.7895810604095459
-0.08527129888534546 -0.038759708404541016 0.8643860220909119
-0.08527129888534546 -0.02325582504272461 -0.5626987218856812
-0.08527129888534546 -0.02325582504272461 -0.45724040269851685
-0.08527129888534546 -0.02325582504272461 0.7814456224441528
-0.08527129888534546 -0.02325582504272461 0.8633385896682739
-0.08527129888534546 -0.007751941680908203 -0.6021437644958496
-0.08527129888534546 -0.007751941680908203 -0.45622745156288147
-0.08527129888534546 -0.007751941680908203 0.7757582068443298
-0.08527129888534546 -0.007751941680908203 0.8623059391975403
-0.08527129888534546 0.007751941680908203 -0.6149186491966248
-0.08527129888534546 0.007751941680908203 -0.4583023190498352
-0.08527129143476486 0.007751941680908203 0.7708576321601868
-0.08527129888534546 0.007751941680908203 0.8617881536483765
-0.08527129888534546 0.02325582504272461 -0.6079414486885071
-0.08527129888534546 0.02325582318007946 -0.46792367100715637
-0.08527129888534546 0.02325582504272461 0.77082759141922
-0.08527129888534546 0.02325582504272461 0.861700713634491
-0.08527129888534546 0.038759708404541016 -0.5252199172973633
-0.08527129888534546 0.038759708404541016 -0.49800971150398254
-0.08527129888534546 0.038759708404541016 0.7736226320266724
-0.08527129888534546 0.038759708404541016 0.8622859716415405
-0.08527129888534546 0.05426359176635742 0.1915074586868286
-0.08527129888534546 0.05426359176635742 0.23665688931941986
-0.08527129888534546 0.05426359176635742 0.7775503396987915
-0.08527129888534546 0.05426359176635742 0.8634793162345886
-0.08527129888534546 0.06976747512817383 0.174122154712677
-0.08527129888534546 0.06976747512817383 0.27183592319488525
-0.08527129888534546 0.06976747512817383 0.7801526784896851
-0.08527129888534546 0.06976747512817383 0.8652337789535522
-0.08527129888534546 0.08527135848999023 0.17720149457454681
-0.08527129888534546 0.08527135848999023 0.2765282988548279
-0.08527129888534546 0.08527135848999023 0.7818584442138672
-0.08527129888534546 0.08527135848999023 0.8677579760551453
-0.08527129888534546 0.10077524185180664 0.19272197782993317
-0.08527129888534546 0.10077524185180664 0.271686315536499
-0.08527129888534546 0.10077524185180664 0.7832213044166565
-0.08527129888534546 0.10077524185180664 0.8722320199012756
-0.08527129888534546 0.11627912521362305 0.7851192355155945
-0.08527130633592606 0.11627912521362305 0.8769107460975647
-0.08527129888534546 0.1317828893661499 0.7856322526931763
-0.08527129888534546 0.1317828893661499 0.8793544769287109
-0.08527129888534546 0.1472867727279663 0.7866643071174622
-0.08527129888534546 0.1472867727279663 0.8821930885314941
-0.08527129888534546 0.16279065608978271 0.7878713607788086
-0.08527129888534546 0.16279065608978271 0.8863515257835388
-0.08527129888534546 0.17829453945159912 0.7892720103263855
-0.08527129143476486 0.17829453945159912 0.8924962878227234
-0.08527129888534546 0.19379842281341553 0.790962815284729
-0.08527129888534546 0.19379842281341553 0.8964585065841675
-0.08527129888534546 0.20930230617523193 0.7927826642990112
-0.08527129888534546 0.20930230617523193 0.9021239876747131
-0.08527129888534546 0.22480618953704834 0.7943035364151001
-0.08527129888534546 0.22480618953704834 0.9089712500572205
-0.08527129888534546 0.24031007289886475 0.7951054573059082
-0.08527129888534546 0.24031007289886475 0.913864254951477
-0.08527129888534546 0.25581395626068115 0.7951858043670654
-0.08527129888534546 0.25581395626068115 0.920648455619812
-0.08527129888534546 0.27131783962249756 0.7951574325561523
-0.08527129888534546 0.27131783962249756 0.924084484577179
-0.08527129888534546 0.28682172298431396 0.7952499389648438
-0.08527129888534546 0.28682172298431396 0.9256317615509033
-0.08527129888534546 0.30232560634613037 0.7958910465240479
-0.08527129888534546 0.30232560634613037 0.9272280931472778
-0.08527129888534546 0.3178294897079468 0.7969477772712708
-0.08527129888534546 0.3178294897079468 0.9291906356811523
-0.08527129888534546 0.3333333730697632 0.7984839677810669
-0.08527129888534546 0.3333333730697632 0.9310728311538696
-0.08527129888534546 0.3488372564315796 0.8019888401031494
-0.08527129888534546 0.3488372564315796 0.9323490858078003
-0.08527129888534546 0.364341139793396 0.8050259947776794
-0.08527129888534546 0.364341139793396 0.9329129457473755
-0.08527129888534546 0.37984490394592285 0.8082103729248047
-0.08527129888534546 0.37984490394592285 0.9316205978393555
-0.08527129888534546 0.39534878730773926 0.8106421828269958
-0.08527129888534546 0.39534878730773926 0.9298098087310791
-0.08527129888534546 0.41085267066955566 0.8128040432929993
-0.08527129888534546 0.41085267066955566 0.9286483526229858
-0.08527129888534546 0.42635655403137207 0.814891517162323
-0.08527129888534546 0.42635655403137207 0.9283747673034668
-0.08527129888534546 0.4418604373931885 0.8173908591270447
-0.08527129888534546 0.4418604373931885 0.9286758899688721
-0.08527129888534546 0.4573643207550049 0.8189694881439209
-0.08527129888534546 0.4573643207550049 0.9297665953636169
-0.08527129888534546 0.4728682041168213 0.8201751708984375
-0.08527129888534546 0.4728682041168213 0.9321856498718262
-0.08527129888534546 0.4883720874786377 0.8217806816101074
-0.08527129888534546 0.4883720874786377 0.9380418062210083
-0.08527129888534546 0.5038759708404541 0.8230408430099487
-0.08527129888534546 0.5038759708404541 0.9388555884361267
-0.08527129888534546 0.5193798542022705 0.824142575263977
-0.08527129143476486 0.5193798542022705 0.9390906095504761
