-0.30232560634613037 0.18302243947982788 0.8759689331054688
-0.30232560634613037 0.1954978108406067 -0.22480618953704834
-0.30232560634613037 0.20712193846702576 0.8449612855911255
-0.30232560634613037 0.1971368044614792 0.8604651689529419
-0.30232560634613037 0.21175739169120789 -0.4418604373931885
-0.30232560634613037 0.21251991391181946 0.8139535188674927
-0.30232560634613037 0.22944030165672302 -0.42635661363601685
-0.30232560634613037 0.2270243614912033 0.8294573426246643
-0.30232560634613037 0.24423986673355103 -0.41085273027420044
-0.30232560634613037 0.2545830011367798 0.7984496355056763
-0.30232560634613037 0.2578304708003998 -0.39534884691238403
-0.30232560634613037 0.2699398994445801 -0.3798449635505676
-0.30232560634613037 0.25934991240501404 0.8139535188674927
-0.30232560634613037 0.2821657657623291 -0.3643410801887512
-0.30232560634613037 0.27305877208709717 -0.20930230617523193
-0.30232560634613037 0.2757095694541931 -0.19379842281341553
-0.30232560634613037 0.27687934041023254 -0.1782945990562439
-0.30232560634613037 0.2867123484611511 -0.1627907156944275
-0.30232560634613037 0.29440489411354065 -0.3488371968269348
-0.30232560634613037 0.2959798276424408 0.7829457521438599
-0.30232560634613037 0.3060506582260132 -0.3333333134651184
-0.30232560634613037 0.3180167078971863 -0.317829430103302
-0.30232560634613037 0.32966190576553345 -0.30232560634613037
-0.30232560634613037 0.34345969557762146 -0.28682172298431396
-0.30232560634613037 0.3612958788871765 -0.27131783962249756
-0.30232560634613037 0.36527276039123535 0.8139535188674927
-0.30232560634613037 0.3801339566707611 -0.25581395626068115
-0.30232560634613037 0.393222451210022 -0.24031007289886475
-0.30232560634613037 0.4027653932571411 -0.22480618953704834
-0.30232560634613037 0.41555511951446533 -0.20930230617523193
-0.30232560634613037 0.4129347503185272 -0.1627907156944275
-0.30232560634613037 0.4301510453224182 -0.19379842281341553
-0.30232560634613037 0.4445965886116028 -0.1782945990562439
-0.30232560634613037 0.4463229179382324 0.7829457521438599
-0.30232560634613037 0.47590067982673645 0.8294574022293091
-0.30232560634613037 0.5057944059371948 0.7984496355056763
-0.30232560634613037 0.5041517615318298 0.8449612259864807
-0.30232560634613037 0.5641584396362305 0.8294574022293091
-0.30232560634613037 0.5513031482696533 0.8449612855911255
-0.30232560634613037 0.56775963306427 0.8139535188674927
-0.28682172298431396 -0.7141523957252502 -0.11627906560897827
-0.28682172298431396 -0.702400803565979 -0.13178294897079468
-0.28682172298431396 -0.669183611869812 -0.14728683233261108
-0.28682172298431396 -0.6244884133338928 -0.1627907156944275
-0.28682172298431396 -0.607494056224823 -0.11627906560897827
-0.28682172298431396 -0.5845139622688293 -0.13178294897079468
-0.28682172298431396 -0.5657232403755188 -0.1782945841550827
-0.28682172298431396 -0.5574934482574463 -0.14728683233261108
-0.28682172298431396 -0.5023305416107178 -0.1627907156944275
-0.28682172298431396 -0.46899378299713135 -0.19379842281341553
-0.28682172298431396 -0.4498339295387268 -0.1782945990562439
-0.28682172298431396 -0.41698741912841797 -0.19379842281341553
-0.28682172298431396 -0.36834219098091125 0.7674418687820435
-0.28682172298431396 -0.3608814477920532 0.7829457521438599
-0.28682172298431396 -0.32769858837127686 0.7984496355056763
-0.28682172298431396 -0.30264905095100403 -0.27131783962249756
-0.28682172298431396 -0.3130096197128296 -0.25581395626068115
-0.28682172298431396 -0.3103029131889343 0.7674418687820435
-0.28682172298431396 -0.2899753451347351 -0.28682172298431396
-0.28682172298431396 -0.2782057523727417 -0.30232560634613037
-0.28682172298431396 -0.2791794538497925 0.8139535188674927
-0.28682172298431396 -0.27134308218955994 0.8294574022293091
-0.28682172298431396 -0.26600128412246704 -0.317829430103302
-0.28682172298431396 -0.27027422189712524 -0.25581395626068115
-0.28682172298431396 -0.26320743560791016 0.8449612855911255
-0.28682172298431396 -0.24296924471855164 -0.3488371968269348
-0.28682172298431396 -0.25503256916999817 -0.3333333134651184
-0.28682172298431396 -0.24106788635253906 -0.27131783962249756
-0.28682172298431396 -0.24770990014076233 0.7829457521438599
-0.28682172298431396 -0.2312268316745758 -0.3643410801887512
-0.28682172298431396 -0.2301802933216095 0.8604651689529419
-0.28682172298431396 -0.21200911700725555 -0.39534884691238403
-0.28682172298431396 -0.2205280363559723 -0.37984493374824524
-0.28682172298431396 -0.2125856876373291 -0.28682172298431396
-0.28682172298431396 -0.1968316286802292 -0.42635661363601685
-0.28682172298431396 -0.20413586497306824 -0.41085273027420044
-0.28682172298431396 -0.19792750477790833 0.8604651689529419
-0.28682172298431396 -0.17848755419254303 -0.4573643207550049
-0.28682172298431396 -0.1882699429988861 -0.4418604373931885
-0.28682172298431396 -0.1878201961517334 -0.30232560634613037
-0.28682172298431396 -0.1782963126897812 0.8449612855911255
-0.28682172298431396 -0.16872838139533997 -0.4728682041168213
-0.28682172298431396 -0.16644924879074097 0.8294574022293091
-0.28682172298431396 -0.15584084391593933 -0.4883720874786377
-0.28682172298431396 -0.1429925411939621 -0.5038759708404541
-0.28682172298431396 -0.12935654819011688 -0.5193798542022705
-0.28682172298431396 -0.11921532452106476 -0.30232560634613037
-0.28682172298431396 -0.11463741958141327 -0.5348837375640869
-0.28682172298431396 -0.11258590221405029 0.8294574022293091
-0.28682172298431396 -0.09661488980054855 -0.5503876209259033
-0.28682172298431396 -0.09617041051387787 -0.28682172298431396
-0.28682172298431396 -0.09286350011825562 0.7829457521438599
-0.28682172298431396 -0.09323547780513763 0.8449612855911255
-0.28682172298431396 -0.0768556296825409 -0.5658915042877197
-0.28682172298431396 -0.07667087018489838 0.8604651689529419
-0.28682172298431396 -0.06976619362831116 -0.27131783962249756
-0.28682172298431396 -0.04897536337375641 -0.5813953876495361
-0.28682172298431396 -0.041243135929107666 0.7674418687820435
-0.28682172298431396 -0.05066043883562088 0.8759689331054688
-0.28682172298431396 -0.013438640162348747 -0.5968992114067078
-0.28682172298431396 -0.015924155712127686 -0.27131783962249756
-0.2868216931819916 -0.006657085381448269 0.7674418687820435
-0.28682172298431396 0.02196716144680977 -0.5968992114067078
-0.28682175278663635 0.009669729508459568 -0.28682175278663635
-0.28682172298431396 0.022265003994107246 0.8759689331054688
-0.28682172298431396 0.03240901976823807 0.7829457521438599
-0.28682172298431396 0.052160825580358505 -0.5813953876495361
-0.28682172298431396 0.04245036095380783 -0.30232560634613037
-0.28682172298431396 0.0570603683590889 -0.30232560634613037
-0.28682172298431396 0.07548923790454865 -0.5658915042877197
-0.28682172298431396 0.09498423337936401 -0.5503876209259033
-0.28682172298431396 0.08623018115758896 -0.28682172298431396
-0.28682172298431396 0.10827302932739258 -0.27131783962249756
-0.28682172298431396 0.10772062093019485 0.8759689331054688
-0.28682172298431396 0.11666890978813171 -0.5348837375640869
-0.28682172298431396 0.13889355957508087 -0.5193798542022705
-0.28682172298431396 0.1347416490316391 -0.25581395626068115
-0.28682172298431396 0.1395701915025711 0.7984496355056763
-0.28682172298431396 0.16434183716773987 -0.5038759708404541
-0.28682172298431396 0.1690853387117386 -0.24031007289886475
-0.28682172298431396 0.1866818070411682 -0.4883720874786377
-0.28682172298431396 0.18877461552619934 0.8139535188674927
-0.28682172298431396 0.19279494881629944 0.8759689331054688
-0.28682172298431396 0.20579645037651062 -0.4728682041168213
-0.28682172298431396 0.20256724953651428 -0.22480618953704834
-0.28682172298431396 0.20283038914203644 0.8604651689529419
-0.28682172298431396 0.2215941697359085 -0.4573643207550049
-0.28682172298431396 0.21738293766975403 0.8139535188674927
-0.28682172298431396 0.21625882387161255 0.8449612855911255
-0.28682172298431396 0.23581331968307495 -0.4418604373931885
-0.28682172298431396 0.24931657314300537 -0.42635661363601685
-0.28682172298431396 0.24251887202262878 0.8294574022293091
-0.28682172298431396 0.2606705129146576 -0.41085273027420044
-0.28682172298431396 0.26033467054367065 0.7984496355056763
-0.28682172298431396 0.2718193829059601 -0.39534884691238403
-0.28682172298431396 0.28266528248786926 -0.3798449635505676
-0.28682172298431396 0.2781001925468445 0.8139535188674927
-0.28682172298431396 0.295065313577652 -0.3643410801887512
-0.28682172298431396 0.28725922107696533 -0.20930229127407074
-0.28682172298431396 0.2912527918815613 -0.19379842281341553
-0.28682172298431396 0.29491984844207764 -0.1782945990562439
-0.28682172298431396 0.30029597878456116 0.7829457521438599
-0.28682172298431396 0.30717551708221436 -0.3488371968269348
-0.28682172298431396 0.3030666410923004 -0.1627907156944275
-0.28682172298431396 0.31935063004493713 -0.3333333134651184
-0.28682172298431396 0.3327212333679199 -0.317829430103302
-0.28682172298431396 0.3467516005039215 -0.30232560634613037
-0.28682172298431396 0.3355743885040283 0.8139535188674927
-0.28682172298431396 0.36170923709869385 -0.28682172298431396
-0.28682172298431396 0.3785606026649475 -0.27131783962249756
-0.28682172298431396 0.39295002818107605 -0.25581395626068115
-0.28682172298431396 0.4032731056213379 -0.24031007289886475
-0.28682172298431396 0.40827012062072754 -0.1627907156944275
-0.28682172298431396 0.4143287241458893 -0.22480618953704834
-0.28682172298431396 0.4273287355899811 -0.20930230617523193
-0.28682172298431396 0.4403396248817444 -0.19379842281341553
-0.28682172298431396 0.45416927337646484 -0.1782945990562439
-0.28682172298431396 0.44388869404792786 -0.1627907156944275
-0.28682172298431396 0.46521466970443726 -0.1627907156944275
-0.28682172298431396 0.4594811797142029 0.8294574022293091
-0.28682172298431396 0.4784144163131714 0.7829457521438599
-0.28682172298431396 0.4929374158382416 0.8449612855911255
-0.28682172298431396 0.5569624304771423 0.8449612855911255
-0.28682172298431396 0.5670724511146545 0.7984496355056763
-0.28682172298431396 0.5748171806335449 0.8139535188674927
-0.28682172298431396 0.5699659585952759 0.8294574022293091
-0.27131783962249756 -0.6918455958366394 -0.13178294897079468
-0.27131783962249756 -0.6970900297164917 -0.11627906560897827
-0.27131783962249756 -0.6663681268692017 -0.14728683233261108
-0.27131783962249756 -0.6257531642913818 -0.1627907156944275
-0.27131783962249756 -0.6014591455459595 -0.11627906560897827
-0.27131783962249756 -0.5823586583137512 -0.13178294897079468
-0.27131783962249756 -0.5733363628387451 -0.1782945990562439
-0.27131783962249756 -0.5610466599464417 -0.14728683233261108
-0.27131783962249756 -0.5174009799957275 -0.1627907156944275
-0.27131783962249756 -0.48824092745780945 -0.19379842281341553
-0.27131783962249756 -0.45927396416664124 -0.1782945990562439
-0.27131783962249756 -0.4322032928466797 -0.20930230617523193
-0.27131783962249756 -0.42370370030403137 -0.19379842281341553
-0.27131783962249756 -0.4045334756374359 -0.20930230617523193
-0.27131783962249756 -0.3965453505516052 0.7674418687820435
-0.27131783962249756 -0.39763230085372925 0.7829457521438599
-0.27131783962249756 -0.36173978447914124 0.798449695110321
-0.27131783962249756 -0.32490360736846924 -0.25581395626068115
-0.27131783962249756 -0.3051035702228546 -0.28682172298431396
-0.27131783962249756 -0.314774751663208 -0.27131783962249756
-0.27131783962249756 -0.3173229992389679 0.8139535188674927
-0.27131783962249756 -0.29369232058525085 -0.30232560634613037
-0.27131783962249756 -0.2890121340751648 -0.25581395626068115
-0.27131783962249756 -0.29040372371673584 0.7674418687820435
-0.27131783962249756 -0.28721103072166443 0.8294574022293091
-0.27131783962249756 -0.28103041648864746 -0.317829430103302
-0.27131783962249756 -0.2740408480167389 0.8449612855911255
-0.27131783962249756 -0.25743094086647034 -0.3488371968269348
-0.27131783962249756 -0.2687067687511444 -0.333333283662796
-0.27131783962249756 -0.2597706913948059 -0.27131783962249756
-0.27131783962249756 -0.2566618323326111 0.7829457521438599
-0.27131783962249756 -0.2455868273973465 -0.3643410801887512
-0.27131783962249756 -0.22657017409801483 -0.39534884691238403
-0.27131783962249756 -0.23497900366783142 -0.3798449635505676
-0.27131783962249756 -0.232594832777977 -0.28682172298431396
-0.27131783962249756 -0.23584669828414917 0.8604651689529419
-0.27131783962249756 -0.21212762594223022 -0.42635661363601685
-0.27131783962249756 -0.21911469101905823 -0.41085273027420044
-0.27131783962249756 -0.19677387177944183 -0.4573643207550049
-0.27131783962249756 -0.20455700159072876 -0.4418604373931885
-0.27131783962249756 -0.20730790495872498 -0.30232560634613037
-0.27131783962249756 -0.19917018711566925 0.7984496355056763
-0.27131783962249756 -0.18795078992843628 -0.4728682041168213
-0.27131783962249756 -0.18299439549446106 -0.317829430103302
-0.27131783962249756 -0.16906008124351501 -0.5038759708404541
-0.27131783962249756 -0.17741742730140686 -0.4883720874786377
-0.27131783962249756 -0.1569744050502777 -0.5193798542022705
-0.27131783962249756 -0.14426326751708984 -0.5348837375640869
-0.27131786942481995 -0.1307486593723297 -0.5503876209259033
-0.27131783962249756 -0.12286321818828583 -0.317829430103302
-0.27131783962249756 -0.1262003481388092 0.7984496355056763
-0.27131783962249756 -0.11593706905841827 -0.5658915042877197
-0.27131783962249756 -0.09816315770149231 -0.5813953876495361
-0.27131783962249756 -0.10021846741437912 -0.30232560634613037
-0.27131783962249756 -0.08898358047008514 0.8759689331054688
-0.27131783962249756 -0.07712313532829285 -0.5968992114067078
-0.27131783962249756 -0.07749735563993454 -0.28682172298431396
-0.27131783962249756 -0.08388935029506683 0.7829457521438599
-0.27131783962249756 -0.048471808433532715 -0.6124030947685242
-0.27131783962249756 -0.02381197363138199 0.7674418687820435
-0.27131783962249756 -0.022667786106467247 0.7674418687820435
-0.27131783962249756 0.0013842349871993065 -0.6279069781303406
-0.27131783962249756 -0.006773663684725761 -0.28682172298431396
-0.27131783962249756 0.011180621571838856 -0.6279069781303406
-0.27131783962249756 0.012595104984939098 -0.30232560634613037
-0.27131783962249756 0.03858499228954315 -0.317829430103302
-0.27131783962249756 0.025176621973514557 0.7829457521438599
-0.27131783962249756 0.03450534865260124 0.8759689331054688
-0.27131783962249756 0.05458454042673111 -0.6124030947685242
-0.27131783962249756 0.05899088829755783 -0.317829430103302
-0.27131783962249756 0.0785791277885437 -0.5968992114067078
-0.27131783962249756 0.08456052094697952 -0.30232560634613037
-0.27131783962249756 0.10004293918609619 -0.5813953876495361
-0.27131783962249756 0.09260439872741699 0.8759689331054688
-0.27131783962249756 0.10229286551475525 -0.28682172298431396
-0.27131783962249756 0.10896750539541245 0.7984496355056763
-0.27131783962249756 0.12037661671638489 -0.5658915042877197
-0.27131783962249756 0.12285373359918594 -0.27131783962249756
-0.27131783962249756 0.1400231420993805 -0.5503876209259033
-0.27131783962249756 0.15141189098358154 -0.25581395626068115
-0.27131783962249756 0.16371291875839233 -0.5348837375640869
-0.27131783962249756 0.17803262174129486 -0.24031007289886475
-0.27131783962249756 0.18483707308769226 -0.5193798542022705
-0.27131783962249756 0.17831337451934814 0.8139535188674927
-0.27131783962249756 0.20221351087093353 -0.5038759708404541
-0.27131783962249756 0.20694410800933838 0.8604651689529419
-0.27131783962249756 0.195057213306427 0.8759689331054688
-0.27131783962249756 0.21646180748939514 -0.4883720874786377
-0.27131783962249756 0.21687859296798706 -0.22480618953704834
-0.27131783962249756 0.2223421335220337 0.8449612855911255
-0.27131783962249756 0.22899599373340607 -0.4728682041168213
-0.27131783962249756 0.22922900319099426 0.8139535188674927
-0.27131783962249756 0.24062667787075043 -0.4573643207550049
-0.27131783962249756 0.2519965171813965 -0.4418604373931885
-0.27131783962249756 0.24586153030395508 -0.22480618953704834
-0.27131783962249756 0.2517482042312622 0.8294574022293091
-0.27131783962249756 0.26391878724098206 -0.42635661363601685
-0.27131783962249756 0.2673814594745636 0.7984496355056763
-0.27131783962249756 0.27397164702415466 -0.41085273027420044
-0.27131783962249756 0.2840479612350464 -0.39534884691238403
-0.27131783962249756 0.2854629158973694 -0.22480618953704834
-0.27131783962249756 0.29603609442710876 -0.3798449635505676
-0.27131783962249756 0.30107033252716064 -0.20930230617523193
-0.27131783962249756 0.30852919816970825 -0.3643410801887512
-0.27131783962249756 0.3069770634174347 -0.19379842281341553
-0.27131783962249756 0.3128063678741455 -0.1782945990562439
-0.27131783962249756 0.3047003149986267 0.7829457521438599
-0.27131783962249756 0.3217487037181854 -0.3488371968269348
-0.27131783962249756 0.3212747871875763 -0.1627907156944275
-0.27131783962249756 0.3356379568576813 -0.3333333134651184
-0.27131783962249756 0.351520836353302 -0.317829430103302
-0.27131783962249756 0.36601004004478455 -0.30232560634613037
-0.27131786942481995 0.38016781210899353 -0.28682175278663635
-0.27131783962249756 0.3925187587738037 -0.27131783962249756
-0.27131783962249756 0.3866746425628662 -0.1627907156944275
-0.27131783962249756 0.3808622360229492 0.7674418687820435
-0.27131783962249756 0.403736412525177 -0.25581395626068115
-0.27131783962249756 0.4151534140110016 -0.24031008780002594
-0.27131783962249756 0.4185086786746979 0.7674418687820435
-0.27131783962249756 0.4219767451286316 0.8294574022293091
-0.27131783962249756 0.42662328481674194 -0.22480620443820953
-0.27131783962249756 0.43358105421066284 -0.20930230617523193
-0.27131783962249756 0.44634854793548584 -0.19379842281341553
-0.27131783962249756 0.4606098234653473 -0.1782945990562439
-0.27131783962249756 0.45813634991645813 -0.1627907156944275
-0.27131783962249756 0.47572532296180725 -0.1627907156944275
-0.27131783962249756 0.4814905524253845 0.8449612855911255
-0.27131783962249756 0.5041105151176453 0.7829457521438599
-0.27131783962249756 0.5625913739204407 0.8449612855911255
-0.27131783962249756 0.575630784034729 0.7984496355056763
-0.27131783962249756 0.5744692087173462 0.8294574022293091
-0.27131783962249756 0.5821210145950317 0.8139535188674927
-0.25581395626068115 -0.6797834634780884 -0.13178294897079468
-0.25581395626068115 -0.6809096336364746 -0.11627906560897827
-0.25581395626068115 -0.6620205640792847 -0.14728683233261108
-0.25581395626068115 -0.6257282495498657 -0.1627907156944275
-0.25581395626068115 -0.5987784266471863 -0.11627906560897827
-0.25581395626068115 -0.5772284269332886 -0.1782945990562439
-0.25581395626068115 -0.5809316635131836 -0.13178294897079468
-0.25581395626068115 -0.5621981620788574 -0.14728683233261108
-0.25581395626068115 -0.5270295143127441 -0.1627907156944275
-0.25581395626068115 -0.5066061615943909 -0.19379842281341553
-0.25581395626068115 -0.47029775381088257 -0.1782946139574051
-0.25581395626068115 -0.44723111391067505 -0.20930230617523193
-0.25581395626068115 -0.4322391152381897 -0.19379842281341553
-0.25581395626068115 -0.41845571994781494 0.7829457521438599
-0.25581395626068115 -0.40651562809944153 -0.20930230617523193
-0.25581395626068115 -0.4099966883659363 0.7674418687820435
-0.25581395626068115 -0.3889942765235901 0.7984496355056763
-0.25581395626068115 -0.3422948122024536 -0.25581395626068115
-0.25581395626068115 -0.32054445147514343 -0.28682172298431396
-0.25581395626068115 -0.33056291937828064 -0.27131783962249756
-0.25581395626068115 -0.3328007459640503 0.8139535188674927
-0.25581395626068115 -0.3094187378883362 -0.30232560634613037
-0.25581395626068115 -0.29683881998062134 -0.317829430103302
-0.25581395626068115 -0.30221858620643616 -0.25581395626068115
-0.25581395626068115 -0.28897055983543396 0.7674418687820435
-0.25581395626068115 -0.2927582859992981 0.8294574022293091
-0.25581395626068115 -0.2720101475715637 -0.3488371968269348
-0.25581395626068115 -0.28396371006965637 -0.3333333134651184
-0.25581395626068115 -0.275183767080307 -0.27131783962249756
-0.25581395626068115 -0.2763499915599823 0.8449612855911255
-0.25581395626068115 -0.2602546811103821 -0.3643410801887512
-0.25581395626068115 -0.2603064179420471 0.7829457521438599
-0.25581395626068115 -0.24104750156402588 -0.39534884691238403
-0.25581395626068115 -0.24967387318611145 -0.3798449635505676
-0.25581395626068115 -0.2484106868505478 -0.28682172298431396
-0.25581395626068115 -0.226693257689476 -0.42635661363601685
-0.25581395626068115 -0.2336217761039734 -0.41085273027420044
-0.25581395626068115 -0.2350873053073883 0.7984496355056763
-0.25581395626068115 -0.23859980702400208 0.8604651689529419
-0.25581395626068115 -0.21135655045509338 -0.4573643207550049
-0.25581395626068115 -0.2193938046693802 -0.4418604373931885
-0.25581395626068115 -0.22326955199241638 -0.30232560634613037
-0.25581395626068115 -0.19451147317886353 -0.4883720874786377
-0.25581395626068115 -0.20352895557880402 -0.4728682041168213
-0.25581395626068115 -0.20105542242527008 -0.317829430103302
-0.25581395626068115 -0.18708249926567078 -0.5038759708404541
-0.25581395626068115 -0.18293128907680511 -0.3333333134651184
-0.25581395626068115 -0.16960906982421875 -0.5348837375640869
-0.25581395626068115 -0.1773354411125183 -0.5193798542022705
-0.25581395626068115 -0.15822812914848328 -0.5503876209259033
-0.25581395626068115 -0.1333574503660202 -0.5813953876495361
-0.25581395626068115 -0.14623254537582397 -0.5658915042877197
-0.25581395626068115 -0.1173878163099289 -0.5968992114067078
-0.25581395626068115 -0.1204201728105545 -0.3333333134651184
-0.25581395626068115 -0.11834891140460968 0.7984496355056763
-0.25581395626068115 -0.12178842723369598 0.8759689331054688
-0.25581395626068115 -0.10250536352396011 -0.317829430103302
-0.25581395626068115 -0.09830683469772339 -0.6124030351638794
-0.25581395626068115 -0.07331778109073639 -0.6279069781303406
-0.25581395626068115 -0.08146055787801743 -0.30232560634613037
-0.25581395626068115 -0.0767216831445694 0.7829457521438599
-0.25581395626068115 -0.04486020281910896 -0.643410861492157
-0.25581395626068115 0.003912840038537979 -0.6589146852493286
-0.25581395626068115 -0.00490840058773756 -0.30232560634613037
-0.25581395626068115 0.0106848469004035 -0.6589146256446838
-0.25581395626068115 0.012201013043522835 -0.317829430103302
-0.25581395626068115 0.01766953431069851 0.7829457521438599
-0.25581395626068115 0.028682995587587357 -0.3333333134651184
-0.25581395626068115 0.05342172458767891 -0.643410861492157
-0.25581395626068115 0.07795535027980804 -0.6279069781303406
-0.25581395626068115 0.07298356294631958 -0.3333333134651184
-0.25581395626068115 0.07968394458293915 0.7984496355056763
-0.25581395626068115 0.08725953847169876 -0.317829430103302
-0.25581395626068115 0.10279671102762222 -0.6124030947685242
-0.25581395626068115 0.1015358418226242 -0.30232560634613037
-0.25581395626068115 0.11602769047021866 -0.28682172298431396
-0.25581395626068115 0.12308043986558914 -0.5968992114067078
-0.25581395626068115 0.1426929235458374 -0.5813953876495361
-0.25581395626068115 0.1391984224319458 -0.27131783962249756
-0.25581395626068115 0.16274791955947876 -0.25581395626068115
-0.25581395626068115 0.16366252303123474 -0.5658915042877197
-0.25581395626068115 0.16563740372657776 0.8139535188674927
-0.25581395626068115 0.1823142170906067 -0.5503876209259033
-0.25581395626068115 0.18963351845741272 -0.24031007289886475
-0.25581395626068115 0.19247972965240479 0.8294574022293091
-0.25581395626068115 0.1969633847475052 -0.5348837375640869
-0.25581395626068115 0.20847293734550476 -0.5193798542022705
-0.25581395626068115 0.20351800322532654 0.8604651689529419
-0.25581395626068115 0.1939591020345688 0.875968873500824
-0.25581395626068115 0.2205321490764618 -0.5038759708404541
-0.25581395626068115 0.22186899185180664 0.8294574022293091
-0.25581395626068115 0.2094806283712387 0.8449612855911255
-0.25581395626068115 0.2319415807723999 -0.4883720874786377
-0.25581395626068115 0.23256665468215942 -0.22480618953704834
-0.25581395626068115 0.2423967570066452 -0.4728682041168213
-0.25581395626068115 0.25279104709625244 -0.4573643207550049
-0.25581395626068115 0.24991026520729065 -0.22480618953704834
-0.25581395626068115 0.24185211956501007 0.8139535188674927
-0.25581395626068115 0.26431959867477417 -0.4418604373931885
-0.25581395626068115 0.26043763756752014 0.8294574022293091
-0.25581395626068115 0.2747451364994049 -0.42635661363601685
-0.25581395626068115 0.28428420424461365 -0.41085273027420044
-0.25581395626068115 0.2850780785083771 -0.22480618953704834
-0.25581395626068115 0.2742330729961395 0.7984496355056763
-0.25581395626068115 0.29607850313186646 -0.39534884691238403
-0.25581395626068115 0.30774763226509094 -0.3798449635505676
-0.25581395626068115 0.30529263615608215 -0.20930230617523193
-0.25581395626068115 0.312730610370636 -0.19379842281341553
-0.25581395626068115 0.3086801767349243 0.7829457521438599
-0.25581395626068115 0.3211153447628021 -0.3643410801887512
-0.25581395626068115 0.3195068836212158 -0.1782945841550827
-0.25581395626068115 0.329103022813797 -0.1627907156944275
-0.25581395626068115 0.33600831031799316 -0.3488371968269348
-0.25581395626068115 0.351632684469223 -0.3333333134651184
-0.25581395626068115 0.367413192987442 -0.317829430103302
-0.25581395626068115 0.37785184383392334 -0.1627907156944275
-0.25581395626068115 0.3711634874343872 0.7674418687820435
-0.25581395626068115 0.3791685104370117 0.8294574022293091
-0.25581395626068115 0.38052019476890564 -0.30232560634613037
-0.25581395626068115 0.39163079857826233 -0.28682172298431396
-0.25581395626068115 0.4023449420928955 -0.27131783962249756
-0.25581395626068115 0.41455554962158203 -0.25581395626068115
-0.25581395626068115 0.4206744432449341 0.7674418687820435
-0.25581395626068115 0.4268878698348999 -0.24031005799770355
-0.25581395626068115 0.4330468773841858 -0.22480618953704834
-0.25581395626068115 0.4436705410480499 -0.20930229127407074
-0.25581395626068115 0.4524352252483368 -0.19379842281341553
-0.25581395626068115 0.4618504047393799 -0.1782945990562439
-0.25581395626068115 0.46550893783569336 0.8449612855911255
-0.25581395626068115 0.516790509223938 0.8604651689529419
-0.25581395626068115 0.525600254535675 -0.13178294897079468
-0.25581395626068115 0.5239797830581665 0.8604651689529419
-0.25581395626068115 0.5415276885032654 -0.13178294897079468
-0.25581395626068115 0.5448574423789978 -0.11627906560897827
-0.25581395626068115 0.546153724193573 0.7829457521438599
-0.25581395626068115 0.5620408058166504 0.8449612855911255
-0.25581395626068115 0.5737196803092957 -0.11627906560897827
-0.25581395626068115 0.5688205361366272 -0.10077518224716187
-0.25581395626068115 0.5761236548423767 0.8294574022293091
-0.25581395626068115 0.5823394060134888 0.7984496355056763
-0.25581395626068115 0.5842729210853577 0.8139535784721375
-0.25581395626068115 0.5992376208305359 -0.10077518224716187
-0.24031007289886475 -0.6662828326225281 -0.13178294897079468
-0.24031007289886475 -0.6630768775939941 -0.11627906560897827
-0.24031007289886475 -0.6530991196632385 -0.14728683233261108
-0.24031007289886475 -0.6235913038253784 -0.1627907156944275
-0.24031007289886475 -0.598063051700592 -0.11627906560897827
-0.24031007289886475 -0.5783435106277466 -0.1782945990562439
-0.24031005799770355 -0.5795978307723999 -0.13178294897079468
-0.24031007289886475 -0.5609694719314575 -0.14728683233261108
-0.24031007289886475 -0.5203418731689453 -0.19379842281341553
-0.24031007289886475 -0.5305594205856323 -0.1627907156944275
-0.24031007289886475 -0.4803146421909332 -0.1782945990562439
-0.24031007289886475 -0.46002182364463806 -0.20930230617523193
-0.24031007289886475 -0.4391780495643616 -0.19379842281341553
-0.24031007289886475 -0.43244194984436035 0.7829457521438599
-0.24031007289886475 -0.4149573743343353 0.7674418687820435
-0.24031007289886475 -0.4110516309738159 0.7984496355056763
-0.24031007289886475 -0.40983253717422485 -0.20930230617523193
-0.24031007289886475 -0.3718932271003723 -0.24031007289886475
-0.24031007289886475 -0.36007004976272583 -0.25581395626068115
-0.24031007289886475 -0.3360968828201294 -0.28682172298431396
-0.24031008780002594 -0.34744754433631897 -0.27131783962249756
-0.24031007289886475 -0.3470907211303711 -0.24031007289886475
-0.24031007289886475 -0.3372401297092438 0.8139535188674927
-0.24031007289886475 -0.3251703083515167 -0.30232560634613037
-0.24031007289886475 -0.31230586767196655 -0.317829430103302
-0.24031008780002594 -0.3125658929347992 -0.25581395626068115
-0.24031007289886475 -0.29924139380455017 -0.3333333134651184
-0.24031007289886475 -0.2978905439376831 0.8294574022293091
-0.24031007289886475 -0.27427273988723755 -0.3643410801887512
-0.24031007289886475 -0.2865816652774811 -0.3488371968269348
-0.24031008780002594 -0.28626924753189087 -0.27131786942481995
-0.24031007289886475 -0.2863605320453644 0.7674418687820435
-0.24031007289886475 -0.27858856320381165 0.8449612855911255
-0.24031007289886475 -0.26378685235977173 -0.3798449635505676
-0.24031007289886475 -0.26020723581314087 -0.28682172298431396
-0.24031007289886475 -0.261898934841156 0.7829457521438599
-0.24031007289886475 -0.24051949381828308 -0.42635661363601685
-0.24031007289886475 -0.2475249022245407 -0.41085273027420044
-0.24031007289886475 -0.2544054388999939 -0.39534884691238403
-0.24031007289886475 -0.24617800116539001 0.7984496355056763
-0.24031007289886475 -0.24349984526634216 0.8604651689529419
-0.24031007289886475 -0.22492127120494843 -0.4573643207550049
-0.24031007289886475 -0.23312470316886902 -0.4418604373931885
-0.24031007289886475 -0.23655880987644196 -0.30232560634613037
-0.24031007289886475 -0.21700133383274078 -0.4728682041168213
-0.24031007289886475 -0.21277858316898346 -0.317829430103302
-0.24031007289886475 -0.20056262612342834 -0.5038759708404541
-0.24031007289886475 -0.207160085439682 -0.4883720874786377
-0.24031007289886475 -0.19743278622627258 -0.3333333134651184
-0.24031007289886475 -0.1848277449607849 -0.5348837375640869
-0.24031007289886475 -0.19134795665740967 -0.5193798542022705
-0.24031007289886475 -0.17988227307796478 -0.3488371968269348
-0.24031007289886475 -0.16765233874320984 -0.5658915042877197
-0.24031007289886475 -0.1753680408000946 -0.5503876209259033
-0.24031007289886475 -0.15767818689346313 -0.5813953876495361
-0.24031007289886475 -0.1487913876771927 0.8759689331054688
-0.24031007289886475 -0.1338343620300293 -0.6124030947685242
-0.24031007289886475 -0.14614063501358032 -0.596899151802063
-0.24031007289886475 -0.14439228177070618 0.7984496355056763
-0.24031007289886475 -0.11725632846355438 -0.6279069781303406
-0.24031007289886475 -0.12253300100564957 -0.3488371968269348
-0.24031007289886475 -0.10260064154863358 -0.3333333134651184
-0.24031007289886475 -0.09785206615924835 -0.643410861492157
-0.24031007289886475 -0.08623398095369339 -0.317829430103302
-0.24031007289886475 -0.07307939976453781 -0.6589146852493286
-0.24031007289886475 -0.07626108825206757 0.7829457521438599
-0.24031007289886475 -0.05574727803468704 -0.30232560634613037
-0.24031007289886475 -0.04645899683237076 -0.674418568611145
-0.24031007289886475 -0.009904286824166775 -0.6899224519729614
-0.24031007289886475 -0.022982263937592506 -0.30232563614845276
-0.24031007289886475 -0.010503418743610382 0.8759689331054688
-0.24031005799770355 -0.002950324211269617 -0.317829430103302
-0.24031007289886475 0.010197402909398079 -0.3333333134651184
-0.24031007289886475 0.013123035430908203 0.7829457521438599
-0.24031007289886475 0.025520427152514458 -0.6899224519729614
-0.24031007289886475 0.025474775582551956 -0.3488371968269348
-0.24031007289886475 0.03464867174625397 0.8759689331054688
-0.24031008780002594 0.05863005667924881 -0.674418568611145
-0.24031007289886475 0.06295150518417358 0.7984496355056763
-0.24031007289886475 0.08155382424592972 -0.6589146852493286
-0.24031007289886475 0.0780421793460846 -0.3488371968269348
-0.24031007289886475 0.09192768484354019 -0.3333333134651184
-0.24031007289886475 0.10522215068340302 -0.643410861492157
-0.24031007289886475 0.10191332548856735 -0.317829430103302
-0.24031007289886475 0.11430700123310089 -0.30232560634613037
-0.24031007289886475 0.12446719408035278 -0.6279069781303406
-0.24031007289886475 0.13084344565868378 -0.28682172298431396
-0.24031007289886475 0.14493612945079803 -0.6124030947685242
-0.24031007289886475 0.15327799320220947 -0.27131783962249756
-0.24031007289886475 0.15172269940376282 0.8139535188674927
-0.24031008780002594 0.16330400109291077 -0.5968992114067078
-0.24031007289886475 0.17450004816055298 -0.25581395626068115
-0.24031007289886475 0.17884616553783417 -0.5813953876495361
-0.24031007289886475 0.19112762808799744 -0.5658915042877197
-0.24031007289886475 0.17858640849590302 0.8294574022293091
-0.24031007289886475 0.1934911012649536 0.8449612855911255
-0.24031007289886475 0.18710476160049438 0.8759689331054688
-0.24031007289886475 0.20349644124507904 -0.5503876209259033
-0.24031007289886475 0.1992265284061432 -0.24031007289886475
-0.24031007289886475 0.19768399000167847 0.8604651689529419
-0.24031007289886475 0.21344447135925293 -0.5348837375640869
-0.24031007289886475 0.22211864590644836 -0.5193798542022705
-0.24031007289886475 0.23301787674427032 -0.5038759708404541
-0.24031007289886475 0.2347700595855713 -0.22480618953704834
-0.24031007289886475 0.23754988610744476 0.8294574022293091
-0.24031007289886475 0.2423810362815857 -0.4883720874786377
-0.24031007289886475 0.25253158807754517 -0.4728682041168213
-0.24031007289886475 0.25171515345573425 0.8139535188674927
-0.24031007289886475 0.26379552483558655 -0.4573643207550049
-0.24031007289886475 0.26408013701438904 0.8294574022293091
-0.24031008780002594 0.2737466096878052 -0.44186046719551086
-0.24031007289886475 0.28392183780670166 -0.42635661363601685
-0.24031007289886475 0.27857813239097595 0.7984496355056763
-0.24031007289886475 0.29543113708496094 -0.41085273027420044
-0.24031007289886475 0.3007622957229614 -0.20930230617523193
-0.24031007289886475 0.3066401481628418 -0.39534884691238403
-0.24031007289886475 0.3114144206047058 -0.19379842281341553
-0.24031007289886475 0.30945074558258057 0.7829457521438599
-0.24031007289886475 0.3188531994819641 -0.3798449635505676
-0.24031007289886475 0.3196121156215668 -0.1782945990562439
-0.24031007289886475 0.3294411897659302 -0.1627907156944275
-0.24031008780002594 0.3339179754257202 -0.3643410801887512
-0.24031007289886475 0.3512822687625885 -0.3488371968269348
-0.24031007289886475 0.3668692111968994 -0.3333333134651184
-0.24031007289886475 0.3737460672855377 -0.1627907156944275
-0.24031007289886475 0.3658766448497772 0.7674418687820435
-0.24031007289886475 0.36872994899749756 0.8294574022293091
-0.24031007289886475 0.3813188672065735 -0.317829430103302
-0.24031007289886475 0.392075777053833 -0.30232560634613037
-0.24031008780002594 0.4026172161102295 -0.28682172298431396
-0.24031007289886475 0.41388630867004395 -0.27131783962249756
-0.24031007289886475 0.42605066299438477 -0.1782945990562439
-0.24031007289886475 0.4172310531139374 0.7674418687820435
-0.24031007289886475 0.4264806807041168 -0.25581395626068115
-0.24031007289886475 0.4346529543399811 -0.24031007289886475
-0.24031007289886475 0.4402746260166168 0.8449612855911255
-0.24031007289886475 0.4443150758743286 -0.22480618953704834
-0.24031007289886475 0.4494439363479614 -0.20930230617523193
-0.24031005799770355 0.45797082781791687 -0.19379842281341553
-0.24031007289886475 0.5108490586280823 -0.14728683233261108
-0.24031007289886475 0.5241257548332214 -0.14728683233261108
-0.24031007289886475 0.521719217300415 -0.13178294897079468
-0.24031005799770355 0.5406545400619507 -0.11627906560897827
-0.24031007289886475 0.5606293082237244 -0.13178294897079468
-0.24031007289886475 0.563873827457428 -0.10077518224716187
-0.24031007289886475 0.5638647079467773 0.7829457521438599
-0.24031007289886475 0.5546185970306396 0.8449612855911255
-0.24031007289886475 0.5716762542724609 0.8294574022293091
-0.24031005799770355 0.5874598026275635 -0.11627905815839767
-0.24031007289886475 0.583629846572876 0.7984496355056763
-0.24031005799770355 0.583479642868042 0.8139535188674927
-0.24031007289886475 0.6137621402740479 -0.10077518224716187
-0.22480618953704834 -0.6473149657249451 -0.13178294897079468
-0.22480618953704834 -0.6389213800430298 -0.14728683233261108
-0.22480618953704834 -0.629179835319519 -0.11627906560897827
-0.22480618953704834 -0.6167201995849609 -0.1627907156944275
-0.22480618953704834 -0.6042503118515015 -0.11627906560897827
-0.22480618953704834 -0.5782830119132996 -0.1782945990562439
-0.22480618953704834 -0.5782707929611206 -0.13178294897079468
-0.22480618953704834 -0.5577554106712341 -0.14728683233261108
-0.22480618953704834 -0.5299445390701294 -0.19379842281341553
-0.22480618953704834 -0.5300090312957764 -0.1627907156944275
-0.22480618953704834 -0.48729196190834045 -0.1782945990562439
-0.22480618953704834 -0.4721883535385132 -0.20930230617523193
-0.22480618953704834 -0.44577163457870483 -0.19379842281341553
-0.22480618953704834 -0.43884456157684326 0.7829457521438599
-0.22480618953704834 -0.4271133244037628 0.7984496355056763
-0.22480618953704834 -0.41967856884002686 -0.20930230617523193
-0.22480618953704834 -0.41465359926223755 0.7674418687820435
-0.22480618953704834 -0.3866850733757019 -0.24031007289886475
-0.22480618953704834 -0.3741563558578491 -0.25581395626068115
-0.22480618953704834 -0.3524601459503174 -0.28682172298431396
-0.22480618953704834 -0.36413073539733887 -0.27131783962249756
-0.22480618953704834 -0.350036084651947 -0.24031007289886475
-0.22480618953704834 -0.35673269629478455 0.751937985420227
-0.22480618953704834 -0.3503199517726898 0.8139535188674927
-0.22480618953704834 -0.34216392040252686 -0.30232560634613037
-0.22480618953704834 -0.3405873775482178 0.751937985420227
-0.22480618953704834 -0.3290078639984131 -0.317829430103302
-0.22480618953704834 -0.32196033000946045 -0.25581395626068115
-0.22480618953704834 -0.3025786280632019 -0.3488371968269348
-0.22480618953704834 -0.31546467542648315 -0.3333333134651184
-0.22480618953704834 -0.3080644905567169 0.8294574022293091
-0.22480618953704834 -0.2893425226211548 -0.3643410801887512
-0.22480618953704834 -0.297306627035141 -0.27131783962249756
-0.22480618953704834 -0.2780658006668091 -0.3798449635505676
-0.22480618953704834 -0.2719249427318573 -0.28682172298431396
-0.22480617463588715 -0.28187909722328186 0.7674418687820435
-0.22480618953704834 -0.2848733961582184 0.8449612855911255
-0.22480618953704834 -0.2611214518547058 -0.41085273027420044
-0.22480618953704834 -0.26771286129951477 -0.39534884691238403
-0.22480618953704834 -0.2596595585346222 0.7829457521438599
-0.22480618953704834 -0.24667629599571228 -0.4418604373931885
-0.22480618953704834 -0.25376832485198975 -0.42635661363601685
-0.22480618953704834 -0.2484954595565796 -0.30232560634613037
-0.22480618953704834 -0.24814872443675995 0.7984496355056763
-0.22480618953704834 -0.2483346164226532 0.8604651689529419
-0.22480618953704834 -0.2293967604637146 -0.4728682041168213
-0.22480618953704834 -0.23759320378303528 -0.4573643207550049
-0.22480618953704834 -0.21183913946151733 -0.5038759708404541
-0.22480618953704834 -0.22008223831653595 -0.4883720874786377
-0.22480618953704834 -0.22447995841503143 -0.3178294599056244
-0.22480618953704834 -0.19608810544013977 -0.5348837375640869
-0.22480618953704834 -0.20375055074691772 -0.5193798542022705
-0.22480618953704834 -0.1940097212791443 -0.3488371968269348
-0.22480618953704834 -0.20840322971343994 -0.3333333134651184
-0.22480618953704834 -0.18067118525505066 -0.5658915042877197
-0.22480620443820953 -0.18824881315231323 -0.5503876209259033
-0.22480618953704834 -0.1642066091299057 -0.5968992114067078
-0.22480618953704834 -0.17278717458248138 -0.5813953876495361
-0.22480617463588715 -0.17607995867729187 -0.3643410801887512
-0.22480618953704834 -0.1768764704465866 0.7984496355056763
-0.22480618953704834 -0.16426481306552887 0.8759689331054688
-0.22480618953704834 -0.15595608949661255 -0.612403154373169
-0.22480618953704834 -0.13367532193660736 -0.643410861492157
-0.22480618953704834 -0.14545121788978577 -0.6279069781303406
-0.22480618953704834 -0.11811528354883194 -0.6589146852493286
-0.22480618953704834 -0.12635064125061035 -0.3643410801887512
-0.22480618953704834 -0.10446040332317352 -0.3488371968269348
-0.22480618953704834 -0.0996515154838562 -0.6744186282157898
-0.22480618953704834 -0.08673408627510071 -0.3333333134651184
-0.22480618953704834 -0.07794422656297684 -0.6899224519729614
-0.22480620443820953 -0.08312598615884781 0.7829457521438599
-0.22480618953704834 -0.06390143930912018 -0.317829430103302
-0.22480617463588715 -0.052417904138565063 -0.7054262757301331
-0.22480618953704834 -0.049080539494752884 0.8759689331054688
-0.22480620443820953 -0.02308526635169983 -0.7209302186965942
-0.22480620443820953 -0.018484458327293396 -0.317829430103302
-0.22480618953704834 -0.003204361302778125 -0.3333333134651184
-0.22480618953704834 0.009832657873630524 -0.3488372266292572
-0.22480618953704834 0.012789251282811165 0.7829457521438599
-0.22480618953704834 0.024786220863461494 -0.3643411099910736
-0.22480618953704834 0.04111865535378456 -0.7209302186965942
-0.22480618953704834 0.05108382925391197 0.7984496355056763
-0.22480618953704834 0.06814634054899216 -0.7054263353347778
-0.22480618953704834 0.06609880924224854 0.8759689331054688
-0.22480618953704834 0.07991936057806015 -0.3643410801887512
-0.22480618953704834 0.09127986431121826 -0.6899224519729614
-0.22480618953704834 0.09439209848642349 -0.3488371968269348
-0.22480618953704834 0.1109653040766716 -0.674418568611145
-0.22480618953704834 0.10515323281288147 -0.3333333134651184
-0.22480618953704834 0.11405874788761139 -0.317829430103302
-0.22480618953704834 0.12929484248161316 -0.6589146852493286
-0.22480618953704834 0.12857964634895325 -0.30232560634613037
-0.22480618953704834 0.14684896171092987 -0.28682172298431396
-0.22480618953704834 0.14090010523796082 0.8139535188674927
-0.22480617463588715 0.14740607142448425 -0.6434108018875122
-0.22480618953704834 0.16150031983852386 -0.6279069781303406
-0.22480618953704834 0.174724742770195 -0.6124030947685242
-0.22480618953704834 0.1653159260749817 -0.27131783962249756
-0.22480618953704834 0.17152103781700134 0.8294574022293091
-0.22480618953704834 0.18713238835334778 -0.5968992114067078
-0.22480618953704834 0.18593350052833557 -0.25581395626068115
-0.22480618953704834 0.18568876385688782 0.8449612855911255
-0.22480618953704834 0.19116178154945374 0.8604651689529419
-0.22480618953704834 0.18307825922966003 0.8759689331054688
-0.22480617463588715 0.19727039337158203 -0.5813953876495361
-0.22480618953704834 0.2061062455177307 -0.5658915042877197
-0.22480618953704834 0.2082829475402832 -0.24031007289886475
-0.22480618953704834 0.2157224416732788 -0.5503876209259033
-0.22480618953704834 0.22327055037021637 -0.5348837375640869
-0.22480618953704834 0.23318438231945038 -0.5193798542022705
-0.22480618953704834 0.23722153902053833 -0.22480618953704834
-0.22480618953704834 0.24198834598064423 -0.5038759708404541
-0.22480618953704834 0.2516546845436096 -0.4883720874786377
-0.22480618953704834 0.25037580728530884 0.8294574022293091
-0.22480618953704834 0.26284539699554443 -0.4728682041168213
-0.22480617463588715 0.25752758979797363 0.8139535188674927
-0.22480618953704834 0.2726565897464752 -0.4573643207550049
-0.22480618953704834 0.2828879952430725 -0.4418604373931885
-0.22480618953704834 0.279482901096344 0.7984496355056763
-0.22480618953704834 0.27295607328414917 0.8294574022293091
-0.22480618953704834 0.29483485221862793 -0.42635661363601685
-0.22480618953704834 0.2907388508319855 -0.20930230617523193
-0.22480620443820953 0.305343896150589 -0.41085273027420044
-0.22480618953704834 0.31694066524505615 -0.39534884691238403
-0.22480618953704834 0.30864477157592773 -0.19379842281341553
-0.22480618953704834 0.3077169954776764 0.7829457521438599
-0.22480618953704834 0.330797016620636 -0.3798449635505676
-0.22480618953704834 0.32102781534194946 -0.1782945990562439
-0.22480618953704834 0.33267688751220703 -0.1627907156944275
-0.22480618953704834 0.34850719571113586 -0.3643410801887512
-0.22480618953704834 0.36165568232536316 0.7674418687820435
-0.22480618953704834 0.35602736473083496 0.8294574022293091
-0.22480618953704834 0.36642205715179443 -0.3488371968269348
-0.22480618953704834 0.3682708740234375 -0.1627907156944275
-0.22480618953704834 0.38065099716186523 -0.3333333134651184
-0.22480618953704834 0.39318472146987915 -0.317829430103302
-0.22480618953704834 0.39162319898605347 -0.1782945990562439
-0.22480618953704834 0.4033260941505432 -0.30232560634613037
-0.22480618953704834 0.40990766882896423 0.8449612855911255
-0.22480620443820953 0.4144884943962097 -0.28682172298431396
-0.22480618953704834 0.42543303966522217 -0.27131783962249756
-0.22480618953704834 0.4173015356063843 0.7674418687820435
-0.22480618953704834 0.43537017703056335 -0.25581395626068115
-0.22480617463588715 0.4458640515804291 -0.24031007289886475
-0.22480618953704834 0.45254871249198914 -0.22480618953704834
-0.22480618953704834 0.4585578143596649 -0.20930230617523193
-0.22480618953704834 0.4575721323490143 -0.19379842281341553
-0.22480618953704834 0.5137149095535278 -0.14728683233261108
-0.22480618953704834 0.5245829820632935 -0.13178294897079468
-0.22480618953704834 0.5391509532928467 -0.14728683233261108
-0.22480618953704834 0.5424474477767944 -0.11627906560897827
-0.22480618953704834 0.5423386693000793 0.8449612855911255
-0.22480618953704834 0.565791666507721 -0.10077518224716187
-0.22480618953704834 0.5636046528816223 0.8294574022293091
-0.22480618953704834 0.5727958679199219 -0.13178294897079468
-0.22480618953704834 0.5703092217445374 0.7829457521438599
-0.22480618953704834 0.5756274461746216 0.8139535188674927
-0.22480618953704834 0.5819756388664246 0.798449695110321
-0.22480617463588715 0.5993192195892334 -0.11627906560897827
-0.22480618953704834 0.6112692952156067 -0.08527129888534546
-0.22480618953704834 0.6232330203056335 -0.10077518224716187
-0.22480618953704834 0.6362966299057007 -0.08527129888534546
-0.20930230617523193 -0.5989675521850586 -0.1627907156944275
-0.20930230617523193 -0.6119849681854248 -0.14728683233261108
-0.20930230617523193 -0.5726504921913147 -0.1782945990562439
-0.20930230617523193 -0.5540790557861328 -0.14728683233261108
-0.20930230617523193 -0.5357915759086609 -0.19379842281341553
-0.20930230617523193 -0.5274221897125244 -0.1627907156944275
-0.20930230617523193 -0.49232304096221924 -0.1782945990562439
-0.20930230617523193 -0.4792744517326355 -0.20930230617523193
-0.20930230617523193 -0.4530238211154938 -0.19379842281341553
-0.20930230617523193 -0.42835190892219543 -0.20930230617523193
-0.20930230617523193 -0.4394444227218628 0.7829457521438599
-0.20930230617523193 -0.4322461485862732 0.7984496355056763
-0.20930230617523193 -0.4116710424423218 0.7674418687820435
-0.20930230617523193 -0.39659878611564636 -0.24031007289886475
-0.20930230617523193 -0.3846740424633026 -0.25581395626068115
-0.20930230617523193 -0.36686646938323975 -0.28682172298431396
-0.20930230617523193 -0.37454596161842346 -0.27131783962249756
-0.20930230617523193 -0.36462223529815674 0.751937985420227
-0.20930230617523193 -0.3648326098918915 0.8139535188674927
-0.20930230617523193 -0.3577936291694641 -0.30232560634613037
-0.20930230617523193 -0.3552653193473816 -0.24031007289886475
-0.20930230617523193 -0.34514859318733215 -0.317829430103302
-0.20930230617523193 -0.3314637243747711 -0.3333333134651184
-0.20930230617523193 -0.32939398288726807 -0.25581395626068115
-0.20930230617523193 -0.32056039571762085 0.751937985420227
-0.20930230617523193 -0.32150402665138245 0.8294574022293091
-0.20930230617523193 -0.3039115071296692 -0.3643410801887512
-0.20930229127407074 -0.3173975646495819 -0.3488371968269348
-0.20930230617523193 -0.30633294582366943 -0.27131783962249756
-0.20930230617523193 -0.2920061945915222 -0.3798449635505676
-0.20930230617523193 -0.28900986909866333 0.8449612855911255
-0.20930230617523193 -0.2737741768360138 -0.41085273027420044
