0.13984271883964539 0.4883720874786377 -0.7364341020584106
0.14702054858207703 0.4883720874786377 0.24031007289886475
0.13383406400680542 0.5038759708404541 -0.7364341020584106
0.14386315643787384 0.5038759708404541 0.24031007289886475
0.1467941254377365 0.5193798542022705 -0.7209302186965942
0.1397871971130371 0.5193798542022705 0.24031007289886475
0.14477059245109558 0.5348837375640869 -0.7209302186965942
0.13651569187641144 0.5348837375640869 -0.1627907156944275
0.14501303434371948 0.5503876209259033 -0.7209302186965942
0.13599474728107452 0.5503876209259033 -0.1782945990562439
0.13198238611221313 0.5503876209259033 0.22480618953704834
0.13310639560222626 0.565891444683075 -0.7364341020584106
0.14607654511928558 0.5658915042877197 -0.7209302186965942
0.14721935987472534 0.5658915042877197 -0.19379842281341553
0.14367668330669403 0.5658915042877197 0.20930230617523193
0.13418519496917725 0.5813953876495361 -0.7364341020584106
0.14677461981773376 0.5813953876495361 -0.7209302186965942
0.1327940821647644 0.5813953876495361 -0.19379842281341553
0.13228106498718262 0.5968992710113525 -0.7364340424537659
0.1454174816608429 0.5968992710113525 -0.7209302186965942
0.14676699042320251 0.5968992710113525 -0.20930230617523193
0.14352181553840637 0.5968992710113525 0.19379842281341553
0.14134475588798523 0.612403154373169 -0.7209302186965942
0.13331815600395203 0.612403154373169 -0.20930230617523193
0.1362764537334442 0.6279069185256958 -0.7209302186965942
0.1381356120109558 0.6279069185256958 -0.22480620443820953
0.13235369324684143 0.6434108018875122 -0.7209302186965942
0.14502647519111633 0.6434108018875122 -0.7054263353347778
0.14321988821029663 0.6434108018875122 -0.25581395626068115
0.13209418952465057 0.6434107422828674 -0.24031005799770355
0.1326923668384552 0.6589146852493286 -0.7209302186965942
0.14262136816978455 0.6589146852493286 -0.7054263353347778
0.14415860176086426 0.6589146852493286 -0.30232560634613037
0.13950514793395996 0.6589146852493286 -0.28682172298431396
0.13205581903457642 0.6589146852493286 -0.27131783962249756
0.14272670447826385 0.6589146852493286 0.17829453945159912
0.13578163087368011 0.674418568611145 -0.751937985420227
0.13204295933246613 0.674418568611145 -0.7364341616630554
0.1356251835823059 0.674418568611145 -0.7209302186965942
0.1426001340150833 0.674418568611145 -0.7054263353347778
0.14332276582717896 0.674418568611145 -0.3333333134651184
0.13751725852489471 0.674418568611145 -0.317829430103302
0.1459265500307083 0.6899224519729614 -0.751937985420227
0.13694627583026886 0.6899224519729614 -0.7364341020584106
0.13808667659759521 0.6899224519729614 -0.7209302186965942
0.14270111918449402 0.6899224519729614 -0.7054263353347778
0.14503434300422668 0.6899224519729614 -0.3643410801887512
0.1391289234161377 0.6899224519729614 -0.3488371968269348
0.13357627391815186 0.6899224519729614 -0.3333333134651184
0.14528611302375793 0.6899224519729614 0.16279065608978271
0.143307626247406 0.7054263353347778 -0.7364341020584106
0.1398460566997528 0.7054263353347778 -0.7209302186965942
0.14106003940105438 0.7054263353347778 -0.7054263353347778
0.14416417479515076 0.7054263353347778 -0.6899224519729614
0.14654694497585297 0.7054263353347778 -0.674418568611145
0.146956205368042 0.7054263353347778 -0.6589146852493286
0.14714600145816803 0.7054263353347778 -0.643410861492157
0.1460045427083969 0.7054263353347778 -0.41085273027420044
0.14379146695137024 0.7054263353347778 -0.39534884691238403
0.14109066128730774 0.7054263353347778 -0.3798449635505676
0.13792197406291962 0.7054263353347778 -0.3643410801887512
0.1324121356010437 0.7054263353347778 -0.3488371670246124
0.1452627182006836 0.7054263353347778 0.1472867727279663
0.14399120211601257 0.7209302186965942 -0.7209302186965942
0.14146944880485535 0.7209302186965942 -0.7054263353347778
0.14105673134326935 0.7209302186965942 -0.6899224519729614
0.14136309921741486 0.7209302186965942 -0.674418568611145
0.141501784324646 0.7209302186965942 -0.6589146852493286
0.14166706800460815 0.7209302186965942 -0.643410861492157
0.1421603262424469 0.7209302186965942 -0.6279069781303406
0.14247435331344604 0.7209302186965942 -0.6124030947685242
0.1425904929637909 0.7209302186965942 -0.5968992114067078
0.14315997064113617 0.7209302186965942 -0.5813953876495361
0.143893763422966 0.7209302186965942 -0.5658915042877197
0.1448446810245514 0.7209302186965942 -0.5503876209259033
0.14494827389717102 0.7209302186965942 -0.5348837375640869
0.14401446282863617 0.7209302186965942 -0.5193798542022705
0.14274975657463074 0.7209302186965942 -0.5038759708404541
0.14208859205245972 0.7209302186965942 -0.4883720874786377
0.1421063244342804 0.7209302186965942 -0.4728682041168213
0.14251509308815002 0.7209302186965942 -0.4573643207550049
0.1421651542186737 0.7209302186965942 -0.4418604373931885
0.14086177945137024 0.7209302186965942 -0.42635661363601685
0.13990923762321472 0.7209302186965942 -0.41085273027420044
0.13924357295036316 0.7209302186965942 -0.39534884691238403
0.13843372464179993 0.7209302186965942 -0.3798449635505676
0.1360134482383728 0.7209302186965942 -0.3643410801887512
0.1455623209476471 0.7209302186965942 0.11627912521362305
0.13745315372943878 0.7209302186965942 0.1317828893661499
0.14684338867664337 0.7364341020584106 -0.7054263353347778
0.14411766827106476 0.7364341020584106 -0.6899224519729614
0.14164212346076965 0.7364341020584106 -0.674418568611145
0.14002668857574463 0.7364341020584106 -0.6589146852493286
0.13982796669006348 0.7364341020584106 -0.643410861492157
0.13994058966636658 0.7364341020584106 -0.6279069781303406
0.13983193039894104 0.7364341020584106 -0.6124030947685242
0.1399005651473999 0.7364341020584106 -0.5968992114067078
0.1403585970401764 0.7364341020584106 -0.5813953876495361
0.1407875120639801 0.7364341020584106 -0.5658915042877197
0.1416044682264328 0.7364341020584106 -0.5503876209259033
0.14237628877162933 0.7364341020584106 -0.5348837375640869
0.14196957647800446 0.7364341020584106 -0.5193798542022705
0.14091598987579346 0.7364341020584106 -0.5038759708404541
0.14029917120933533 0.7364341020584106 -0.4883720874786377
0.1403384506702423 0.7364341020584106 -0.4728682041168213
0.14076146483421326 0.7364341020584106 -0.4573643207550049
0.1402292251586914 0.7364341020584106 -0.4418604373931885
0.13928021490573883 0.7364341020584106 -0.42635661363601685
0.13890749216079712 0.7364341020584106 -0.41085273027420044
0.13859990239143372 0.7364341020584106 -0.39534884691238403
0.1383124589920044 0.7364341020584106 -0.3798449635505676
0.1374249905347824 0.7364341020584106 -0.3643410801887512
0.13485699892044067 0.7364341020584106 -0.3488371968269348
0.1447543054819107 0.7364341020584106 -0.13178294897079468
0.14274612069129944 0.7364341020584106 -0.11627906560897827
0.14204426109790802 0.7364341020584106 -0.10077518224716187
0.1423768252134323 0.7364341020584106 -0.08527129888534546
0.14309807121753693 0.7364341020584106 -0.06976741552352905
0.1442968100309372 0.7364341020584106 -0.05426359176635742
0.1451462060213089 0.7364341020584106 -0.038759708404541016
0.14485204219818115 0.7364341020584106 -0.02325582504272461
0.14281439781188965 0.7364341020584106 -0.007751941680908203
0.13930103182792664 0.7364341020584106 0.007751941680908203
0.13485264778137207 0.7364341616630554 0.02325582690536976
0.14659704267978668 0.751937985420227 -0.6589146852493286
0.14390426874160767 0.751937985420227 -0.643410861492157
0.1414707601070404 0.751937985420227 -0.6279069781303406
0.1408228576183319 0.751937985420227 -0.6124030947685242
0.14104707539081573 0.751937985420227 -0.5968992114067078
0.1414666622877121 0.751937985420227 -0.5813953876495361
0.1416604071855545 0.751937985420227 -0.5658915042877197
0.14174145460128784 0.751937985420227 -0.5503876209259033
0.14243225753307343 0.751937985420227 -0.5348837375640869
0.14236949384212494 0.751937985420227 -0.5193798542022705
0.14157679677009583 0.751937985420227 -0.5038759708404541
0.14103609323501587 0.751937985420227 -0.4883720874786377
0.14093831181526184 0.751937985420227 -0.4728682041168213
0.1410905420780182 0.751937985420227 -0.4573643207550049
0.14052046835422516 0.751937985420227 -0.4418604373931885
0.13990050554275513 0.751937985420227 -0.42635661363601685
0.13993436098098755 0.751937985420227 -0.41085273027420044
0.13979440927505493 0.751937985420227 -0.39534884691238403
0.1396787166595459 0.751937985420227 -0.3798449635505676
0.13931655883789062 0.751937985420227 -0.3643410801887512
0.13822582364082336 0.751937985420227 -0.3488371968269348
0.13675306737422943 0.751937985420227 -0.3333333134651184
0.13503915071487427 0.751937985420227 -0.317829430103302
0.1333075612783432 0.751937985420227 -0.30232560634613037
0.13194656372070312 0.7519380450248718 -0.28682172298431396
0.13203106820583344 0.751937985420227 -0.27131786942481995
0.1363442838191986 0.751937985420227 -0.25581395626068115
0.14633120596408844 0.7674418687820435 -0.4883720874786377
0.1458185613155365 0.7674418687820435 -0.4728682041168213
0.14588965475559235 0.7674418687820435 -0.4573643207550049
0.1461304873228073 0.7674418687820435 -0.4418604373931885
0.1461200714111328 0.7674418687820435 -0.42635661363601685
0.14664891362190247 0.7674418687820435 -0.41085273027420044
0.14701317250728607 0.7674418687820435 -0.39534884691238403
0.1491374671459198 -0.7984496355056763 0.42635658383369446
0.15105998516082764 -0.7984496355056763 0.4418604075908661
0.1516166776418686 -0.7984496355056763 0.4573643207550049
0.15111437439918518 -0.7984496355056763 0.4728682041168213
0.14939768612384796 -0.7984496355056763 0.4883720874786377
0.1494879126548767 -0.7829457521438599 0.41085267066955566
0.1531849056482315 -0.7829457521438599 0.42635655403137207
0.15472842752933502 -0.7829457521438599 0.4418604373931885
0.15491695702075958 -0.7829457521438599 0.4573643207550049
0.15447428822517395 -0.7829457521438599 0.4728682041168213
0.15305420756340027 -0.7829457521438599 0.4883720874786377
0.1504116654396057 -0.7829457521438599 0.5038759708404541
0.147962287068367 -0.7674418687820435 0.39534878730773926
0.15359897911548615 -0.7674418687820435 0.41085267066955566
0.15586496889591217 -0.7674418687820435 0.42635655403137207
0.15655526518821716 -0.7674418687820435 0.4418604373931885
0.15647700428962708 -0.7674418687820435 0.4573643207550049
0.1561601758003235 -0.7674418687820435 0.4728682041168213
0.15545645356178284 -0.7674418687820435 0.4883720874786377
0.15335093438625336 -0.7674418687820435 0.5038759708404541
0.15028029680252075 -0.7674419283866882 0.5193798542022705
0.14814628660678864 -0.7674418687820435 0.5348837375640869
0.1525925248861313 -0.751937985420227 0.39534878730773926
0.15624447166919708 -0.751937985420227 0.41085267066955566
0.15761809051036835 -0.751937985420227 0.42635655403137207
0.1583644151687622 -0.751937985420227 0.4418604373931885
0.1582585722208023 -0.751937985420227 0.4573643207550049
0.15773428976535797 -0.751937985420227 0.4728682041168213
0.1569080352783203 -0.751937985420227 0.4883720874786377
0.15584909915924072 -0.751937985420227 0.5038759708404541
0.1536613404750824 -0.751937985420227 0.5193798542022705
0.1511763334274292 -0.7519379258155823 0.5348837375640869
0.14926660060882568 -0.751937985420227 0.5503876209259033
0.14880502223968506 -0.7364341020584106 0.37984490394592285
0.15577393770217896 -0.7364341020584106 0.39534878730773926
0.15811093151569366 -0.7364341020584106 0.41085267066955566
0.1597026288509369 -0.7364341020584106 0.42635655403137207
0.1607675552368164 -0.7364341020584106 0.4418604373931885
0.16106046736240387 -0.7364341020584106 0.4573643207550049
0.1608322560787201 -0.7364341020584106 0.4728682041168213
0.1598653793334961 -0.7364341020584106 0.4883720874786377
0.1580648422241211 -0.7364341020584106 0.5038759708404541
0.15674136579036713 -0.7364341020584106 0.5193798542022705
0.15504655241966248 -0.7364341020584106 0.5348837375640869
0.1529269814491272 -0.7364341020584106 0.5503876209259033
0.15065482258796692 -0.7364341020584106 0.5658915042877197
0.14751982688903809 -0.7364341020584106 0.5813953280448914
0.1535065770149231 -0.7209302186965942 0.37984490394592285
0.15792828798294067 -0.7209302186965942 0.39534878730773926
0.16047076880931854 -0.7209302186965942 0.41085267066955566
0.16124077141284943 -0.7209302186965942 0.5193798542022705
0.15887250006198883 -0.7209302186965942 0.5348837375640869
0.1576310396194458 -0.7209302186965942 0.5503876209259033
0.155877023935318 -0.7209302186965942 0.5658915042877197
0.15232783555984497 -0.7209302186965942 0.5813953876495361
0.1560220569372177 -0.7054263353347778 0.37984490394592285
0.16019707918167114 -0.7054263353347778 0.39534878730773926
0.16021700203418732 -0.7054263353347778 0.5658915042877197
0.15775176882743835 -0.7054263353347778 0.5813953876495361
0.14879143238067627 -0.7054263353347778 0.5968992710113525
0.14834365248680115 -0.6899224519729614 0.364341139793396
0.15781021118164062 -0.6899224519729614 0.37984490394592285
0.16231121122837067 -0.6899224519729614 0.5813953876495361
0.1533270627260208 -0.6899224519729614 0.5968992710113525
0.14964701235294342 -0.674418568611145 0.364341139793396
0.15881165862083435 -0.674418568611145 0.37984490394592285
0.15730595588684082 -0.674418568611145 0.5968992710113525
0.1486368477344513 -0.6589146852493286 0.3643411695957184
0.15804457664489746 -0.6589146852493286 0.37984490394592285
0.16209232807159424 -0.6589146852493286 0.5968992710113525
0.15569525957107544 -0.643410861492157 0.37984490394592285
0.1538805216550827 -0.6279069781303406 0.37984490394592285
0.16057172417640686 -0.6279069781303406 0.39534878730773926
0.15027084946632385 -0.6124030947685242 0.37984490394592285
0.156276136636734 -0.6124030947685242 0.39534878730773926
0.16145960986614227 -0.6124030947685242 0.41085267066955566
0.1522202044725418 -0.5968992114067078 0.39534878730773926
0.15564104914665222 -0.5968992114067078 0.41085267066955566
0.15851567685604095 -0.5968992114067078 0.42635655403137207
0.15711301565170288 -0.5968992114067078 0.5813953876495361
0.15047863125801086 -0.5813953876495361 0.41085267066955566
0.15302273631095886 -0.5813953876495361 0.42635655403137207
0.15449602901935577 -0.5813953876495361 0.4418604373931885
0.15644192695617676 -0.5813953876495361 0.4573643207550049
0.16047608852386475 -0.5813953876495361 0.4728682041168213
0.16182459890842438 -0.5813953876495361 0.5503876209259033
0.15100431442260742 -0.5813953876495361 0.5658915042877197
0.15262183547019958 -0.5813953876495361 0.7054263353347778
0.15574753284454346 -0.5813953876495361 0.7209302186965942
0.15707169473171234 -0.5813953876495361 0.7364341020584106
0.14816580712795258 -0.5658915042877197 0.4418604373931885
0.14890900254249573 -0.5658915042877197 0.4573643207550049
0.14978528022766113 -0.5658915042877197 0.4728682041168213
0.1501554548740387 -0.5658915042877197 0.4883720874786377
0.1510758399963379 -0.5658915042877197 0.5038759708404541
0.15173977613449097 -0.5658915042877197 0.5193798542022705
0.14814519882202148 -0.5658915042877197 0.5348837375640869
0.15909892320632935 -0.5658915042877197 0.6434108018875122
0.14959728717803955 -0.5658915042877197 0.751937985420227
0.1475476175546646 -0.5503876209259033 0.5193799138069153
0.15116636455059052 -0.5503876209259033 0.5813953876495361
0.160979226231575 -0.5503876209259033 0.5968992710113525
0.15158656239509583 -0.5503876209259033 0.6279069185256958
0.14781580865383148 -0.5503876209259033 0.6434108018875122
0.14747744798660278 -0.5348837375640869 0.5038759708404541
0.14904870092868805 -0.5348837375640869 0.5193798542022705
0.14818067848682404 -0.5348837375640869 0.5348837375640869
0.14760829508304596 -0.5348837375640869 0.5503875613212585
0.15229907631874084 -0.5348837375640869 0.5658915042877197
0.14750482141971588 -0.5348837375640869 0.6279069185256958
0.1517566293478012 -0.5348837375640869 0.6434108018875122
0.147499680519104 -0.5193798542022705 0.4728682041168213
0.15070722997188568 -0.5193798542022705 0.4883720874786377
0.15311124920845032 -0.5193798542022705 0.5038759708404541
0.15511399507522583 -0.5193798542022705 0.5193798542022705
0.15607023239135742 -0.5193798542022705 0.5348837375640869
0.15868014097213745 -0.5193798542022705 0.5503876209259033
0.1491827368736267 -0.5193798542022705 0.674418568611145
0.1555289775133133 -0.5193798542022705 0.6899224519729614
0.14928573369979858 -0.5193798542022705 0.7054263353347778
0.15109407901763916 -0.5038759708404541 0.4573643207550049
0.15552854537963867 -0.5038759708404541 0.4728682041168213
0.15946441888809204 -0.5038759708404541 0.4883720874786377
0.15527857840061188 -0.5038759708404541 0.6279069185256958
0.15264448523521423 -0.4883720874786377 0.4418604373931885
0.156904399394989 -0.4883720874786377 0.4573643207550049
0.15307094156742096 -0.4728681743144989 0.42635655403137207
0.15685969591140747 -0.4728682041168213 0.4418604373931885
0.15134356915950775 -0.4728682339191437 0.612403154373169
0.14792509377002716 -0.4573643207550049 0.39534875750541687
0.1518680900335312 -0.4573643207550049 0.41085270047187805
0.15614259243011475 -0.4573643207550049 0.42635655403137207
0.1603555977344513 -0.4573643207550049 0.4418604373931885
0.15442469716072083 -0.4573643207550049 0.5968992710113525
0.14743906259536743 -0.4418604075908661 0.364341139793396
0.14892339706420898 -0.44186046719551086 0.37984490394592285
0.15103349089622498 -0.4418604373931885 0.39534878730773926
0.15395396947860718 -0.4418604373931885 0.41085267066955566
0.15760257840156555 -0.4418604373931885 0.42635655403137207
0.16267743706703186 -0.4418604373931885 0.4418604373931885
0.15542270243167877 -0.4418604373931885 0.5813953876495361
0.14816905558109283 -0.42635661363601685 0.3333333730697632
0.14970330893993378 -0.42635661363601685 0.3488372564315796
0.15077660977840424 -0.42635661363601685 0.364341139793396
0.15153324604034424 -0.42635661363601685 0.37984487414360046
0.152616947889328 -0.42635661363601685 0.39534878730773926
0.154342919588089 -0.42635661363601685 0.41085267066955566
0.15686540305614471 -0.42635661363601685 0.42635655403137207
0.16025958955287933 -0.42635661363601685 0.4418604373931885
0.15871712565422058 -0.42635661363601685 0.5503876209259033
0.15304023027420044 -0.42635661363601685 0.5658915042877197
0.14860284328460693 -0.41085273027420044 0.28682172298431396
0.15124249458312988 -0.41085273027420044 0.30232560634613037
0.1525876522064209 -0.41085273027420044 0.3178294897079468
0.15275172889232635 -0.41085273027420044 0.3333333730697632
0.15264838933944702 -0.41085273027420044 0.3488372564315796
0.15254078805446625 -0.41085273027420044 0.364341139793396
0.15221306681632996 -0.41085273027420044 0.37984490394592285
0.15202878415584564 -0.41085273027420044 0.39534878730773926
0.15244825184345245 -0.41085273027420044 0.41085270047187805
0.15373706817626953 -0.41085273027420044 0.42635655403137207
0.15575870871543884 -0.41085273027420044 0.4418604373931885
0.15850645303726196 -0.41085273027420044 0.4573643207550049
0.16151462495326996 -0.41085273027420044 0.4728682041168213
0.16264760494232178 -0.41085273027420044 0.4883720874786377
0.1597450077533722 -0.41085273027420044 0.5038759708404541
0.15646234154701233 -0.41085273027420044 0.5193798542022705
0.15267738699913025 -0.41085273027420044 0.5348837375640869
0.1501397043466568 -0.39534884691238403 0.24031007289886475
0.1538461446762085 -0.39534884691238403 0.25581395626068115
0.1563141942024231 -0.39534884691238403 0.27131783962249756
0.15779760479927063 -0.39534884691238403 0.28682172298431396
0.15795181691646576 -0.39534884691238403 0.30232560634613037
0.15707311034202576 -0.39534884691238403 0.3178294897079468
0.155617818236351 -0.39534884691238403 0.3333333730697632
0.15411047637462616 -0.39534884691238403 0.3488372564315796
0.1526792347431183 -0.39534884691238403 0.364341139793396
0.15138700604438782 -0.39534881711006165 0.37984487414360046
0.15017980337142944 -0.39534884691238403 0.39534878730773926
0.14939530193805695 -0.39534884691238403 0.41085267066955566
0.1493852287530899 -0.39534884691238403 0.42635655403137207
0.15029571950435638 -0.39534884691238403 0.4418604373931885
0.15224415063858032 -0.39534884691238403 0.4573643207550049
0.1537739634513855 -0.39534884691238403 0.4728682041168213
0.15362069010734558 -0.39534884691238403 0.4883720874786377
0.15015313029289246 -0.39534884691238403 0.5038759708404541
0.1508694291114807 -0.37984499335289 0.17829453945159912
0.15441149473190308 -0.3798449635505676 0.19379842281341553
0.15669451653957367 -0.3798449635505676 0.20930230617523193
0.1585918664932251 -0.3798449635505676 0.22480618953704834
0.16013148427009583 -0.3798449635505676 0.24031007289886475
0.1616082638502121 -0.3798449635505676 0.25581395626068115
0.16268353164196014 -0.3798449635505676 0.27131783962249756
0.1627892106771469 -0.3798449635505676 0.28682172298431396
0.16111750900745392 -0.3798449635505676 0.30232560634613037
0.1587347388267517 -0.3798449635505676 0.3178294897079468
0.15624357759952545 -0.3798449635505676 0.3333333730697632
0.15361958742141724 -0.3798449635505676 0.3488372564315796
0.15144793689250946 -0.3798449635505676 0.364341139793396
0.1493223011493683 -0.3798449635505676 0.37984487414360046
0.14751704037189484 -0.3798449635505676 0.39534878730773926
0.15128439664840698 -0.36434105038642883 0.1317828893661499
0.15637245774269104 -0.3643410801887512 0.1472867727279663
0.1594761312007904 -0.3643410801887512 0.16279065608978271
0.16156303882598877 -0.3643410801887512 0.17829453945159912
0.16164608299732208 -0.3643410801887512 0.30232560634613037
0.1583702266216278 -0.3643410801887512 0.3178294897079468
0.15515071153640747 -0.3643410801887512 0.3333333730697632
0.1522258073091507 -0.3643410801887512 0.3488372564315796
0.1495145857334137 -0.3643410801887512 0.364341139793396
0.15439558029174805 -0.3488371968269348 0.08527135848999023
0.15803523361682892 -0.3488371968269348 0.10077524185180664
0.16145113110542297 -0.3488371968269348 0.11627912521362305
0.15957777202129364 -0.3488371968269348 0.30232560634613037
0.15625160932540894 -0.3488371968269348 0.3178294897079468
0.15295517444610596 -0.3488371968269348 0.3333333730697632
0.14984887838363647 -0.3488371968269348 0.3488372564315796
0.15613658726215363 -0.3333333134651184 0.038759708404541016
0.1615287810564041 -0.3333333134651184 0.05426359176635742
0.16067880392074585 -0.3333333134651184 0.28682172298431396
0.15682828426361084 -0.3333333134651184 0.30232560634613037
0.15368494391441345 -0.3333333134651184 0.3178294897079468
0.15027669072151184 -0.3333333134651184 0.3333333730697632
0.15549317002296448 -0.317829430103302 -0.007751941680908203
0.16250425577163696 -0.317829430103302 0.007751941680908203
0.15780046582221985 -0.317829430103302 0.28682172298431396
0.1544836163520813 -0.317829430103302 0.30232560634613037
0.15101981163024902 -0.317829430103302 0.3178294897079468
0.15521425008773804 -0.30232560634613037 -0.05426359176635742
0.16043557226657867 -0.30232560634613037 0.27131783962249756
0.15598641335964203 -0.30232560634613037 0.28682172298431396
0.15236371755599976 -0.30232560634613037 0.30232560634613037
0.14810508489608765 -0.30232560634613037 0.3178294897079468
0.15443283319473267 -0.28682172298431396 -0.10077518224716187
0.15886922180652618 -0.28682172298431396 0.27131783962249756
0.15497995913028717 -0.28682172298431396 0.28682172298431396
0.15060491859912872 -0.28682172298431396 0.30232560634613037
0.1516626477241516 -0.27131783962249756 -0.6589146852493286
0.15293273329734802 -0.27131783962249756 -0.14728683233261108
0.15749332308769226 -0.27131783962249756 0.27131783962249756
0.15409067273139954 -0.27131783962249756 0.28682172298431396
0.14932797849178314 -0.27131783962249756 0.30232560634613037
0.15057359635829926 -0.25581395626068115 -0.612403154373169
0.15317684412002563 -0.25581395626068115 -0.20930230617523193
0.16172131896018982 -0.25581395626068115 0.25581395626068115
0.1565380096435547 -0.25581395626068115 0.27131783962249756
0.15344621241092682 -0.25581395626068115 0.28682172298431396
0.14848193526268005 -0.25581395626068115 0.30232560634613037
0.16121049225330353 -0.24031007289886475 -0.5193798542022705
0.15898719429969788 -0.24031007289886475 0.25581395626068115
0.15509113669395447 -0.24031007289886475 0.27131783962249756
0.15121054649353027 -0.24031007289886475 0.28682172298431396
0.15701280534267426 -0.22480618953704834 0.25581395626068115
0.15245291590690613 -0.22480618953704834 0.27131783962249756
0.15927928686141968 -0.20930230617523193 0.24031007289886475
0.15420396625995636 -0.20930230617523193 0.25581395626068115
0.14742276072502136 -0.20930230617523193 0.27131783962249756
0.16220295429229736 -0.19379842281341553 -0.5348837375640869
0.15390229225158691 -0.19379842281341553 -0.5193798542022705
0.1626482903957367 -0.19379842281341553 0.22480618953704834
0.15570068359375 -0.19379842281341553 0.24031007289886475
0.14920541644096375 -0.19379842281341553 0.25581395626068115
0.15722259879112244 -0.1782945990562439 0.22480618953704834
0.1510268598794937 -0.1782945990562439 0.24031007289886475
0.1587933450937271 -0.1627907156944275 -0.13178294897079468
0.15410177409648895 -0.1627907156944275 0.22480618953704834
0.16078154742717743 -0.14728683233261108 -0.08527129888534546
0.15412382781505585 -0.14728683233261108 0.22480617463588715
0.15500478446483612 -0.13178294897079468 0.22480618953704834
0.1573677659034729 -0.11627906560897827 -0.06976741552352905
0.1544356346130371 -0.11627906560897827 0.22480618953704834
0.15340542793273926 -0.10077518224716187 -0.06976741552352905
0.16213318705558777 -0.10077518224716187 0.20930230617523193
0.15249331295490265 -0.10077518224716187 0.22480618953704834
0.15721410512924194 -0.08527129888534546 -0.06976741552352905
0.16049566864967346 -0.08527129888534546 0.20930230617523193
0.14924758672714233 -0.08527129888534546 0.22480618953704834
0.16172747313976288 -0.06976741552352905 0.20930230617523193
0.1480901837348938 -0.06976741552352905 0.22480618953704834
0.15104779601097107 -0.05426359176635742 0.22480618953704834
0.1539035141468048 -0.038759708404541016 0.22480618953704834
0.15247905254364014 -0.02325582504272461 -0.08527129888534546
0.15618692338466644 -0.02325582504272461 0.22480618953704834
0.16227059066295624 -0.007751941680908203 -0.08527129888534546
0.15901155769824982 -0.007751941680908203 0.22480618953704834
0.16263994574546814 0.007751941680908203 0.22480618953704834
0.1475340873003006 0.007751941680908203 0.24031007289886475
0.15001900494098663 0.02325582504272461 0.24031007289886475
0.14980804920196533 0.038759708404541016 0.24031008780002594
0.1475353091955185 0.05426359176635742 -0.08527130633592606
0.1622476875782013 0.08527135848999023 0.22480618953704834
0.1489132046699524 0.10077524185180664 0.24031007289886475
0.15397495031356812 0.11627912521362305 -0.08527129888534546
0.15460041165351868 0.11627912521362305 0.24031007289886475
0.15965698659420013 0.1317828893661499 0.24031007289886475
0.16122713685035706 0.1472867727279663 -0.10077518224716187
0.15013590455055237 0.22480618953704834 -0.10077518224716187
0.14777874946594238 0.22480618953704834 0.25581395626068115
0.15181486308574677 0.24031007289886475 -0.10077518224716187
0.1521984487771988 0.24031007289886475 0.25581395626068115
0.15601524710655212 0.25581395626068115 0.25581395626068115
0.1613900065422058 0.27131783962249756 0.25581395626068115
0.16036148369312286 0.37984490394592285 0.25581395626068115
0.15483033657073975 0.39534878730773926 0.25581395626068115
0.14741161465644836 0.41085267066955566 0.25581395626068115
0.16156373918056488 0.4418604373931885 0.24031007289886475
0.15528976917266846 0.4573643207550049 0.24031007289886475
0.1514289826154709 0.4728682041168213 0.24031007289886475
0.15987849235534668 0.5038759708404541 -0.13178294897079468
0.16071820259094238 0.5193798542022705 0.22480618953704834
0.15215164422988892 0.5348837375640869 0.22480618953704834
0.1601751148700714 0.5503876209259033 0.20930230617523193
0.14820612967014313 0.5658915042877197 -0.19379842281341553
0.16205717623233795 0.5813953876495361 0.19379842281341553
0.15999741852283478 0.612403154373169 -0.22480618953704834
0.15467128157615662 0.6279069185256958 -0.24031007289886475
0.1622060090303421 0.6279069185256958 0.17829453945159912
0.15617945790290833 0.6434108018875122 -0.27131783962249756
0.15423136949539185 0.6434108018875122 0.17829453945159912
0.15934884548187256 0.6589146852493286 -0.317829430103302
0.15792404115200043 0.674418568611145 0.16279065608978271
0.15876513719558716 0.6899224519729614 -0.6899224519729614
0.16007617115974426 0.6899224519729614 0.1472867727279663
0.1522536277770996 0.7054263353347778 -0.6279069781303406
0.15717528760433197 0.7054263353347778 -0.6124030947685242
0.15860116481781006 0.7054263353347778 -0.5968992114067078
0.16066940128803253 0.7054263353347778 -0.5813953876495361
0.16106729209423065 0.7054263353347778 -0.5193798542022705
0.15561920404434204 0.7054263353347778 -0.5038759708404541
0.15241822600364685 0.7054263353347778 -0.4883720874786377
0.15200962126255035 0.7054263353347778 -0.4728682041168213
0.15421634912490845 0.7054263353347778 -0.4573643207550049
0.15419520437717438 0.7054263353347778 -0.4418604373931885
0.15018899738788605 0.7054263353347778 -0.42635661363601685
0.15699878334999084 0.7054263353347778 0.1317828893661499
0.16122882068157196 0.7209302186965942 0.02325582504272461
0.159532368183136 0.7209302186965942 0.038759708404541016
0.15839092433452606 0.7209302186965942 0.05426359176635742
0.15709874033927917 0.7209302186965942 0.06976747512817383
0.15534332394599915 0.7209302186965942 0.08527135848999023
0.15170487761497498 0.7209302186965942 0.10077524185180664
0.16242723166942596 0.7364341020584106 -0.19379842281341553
0.157732293009758 0.7364341020584106 -0.1782945990562439
0.15301072597503662 0.7364341020584106 -0.1627907156944275
0.14911240339279175 0.7364341020584106 -0.1472868174314499
0.1538732349872589 0.751937985420227 -0.674418568611145
0.15781937539577484 0.7674418687820435 -0.6124030947685242
0.15582004189491272 0.7674418687820435 -0.5968992114067078
0.15452751517295837 0.7674418687820435 -0.5813953876495361
0.15355345606803894 0.7674418687820435 -0.5658915042877197
0.15256927907466888 0.7674418687820435 -0.5503876209259033
0.15116138756275177 0.7674418687820435 -0.5348837375640869
0.14998187124729156 0.7674418687820435 -0.5193798542022705
0.14731942117214203 0.7674418687820435 -0.5038760304450989
0.14788919687271118 0.7674418687820435 -0.37984499335289
0.1491457223892212 0.7674418687820435 -0.3643410801887512
0.15198586881160736 0.7674418687820435 -0.3488371968269348
0.16286133229732513 -0.7209302186965942 0.4263565242290497
0.1641004979610443 -0.7209302186965942 0.4418604373931885
0.1645650565624237 -0.7209302186965942 0.4573643207550049
0.16464100778102875 -0.7209302186965942 0.4728682041168213
0.16422608494758606 -0.720930278301239 0.4883720874786377
0.16325123608112335 -0.7209302186965942 0.5038759708404541
0.16414634883403778 -0.7054263353347778 0.41085267066955566
0.1677139699459076 -0.7054263353347778 0.42635655403137207
0.16953375935554504 -0.7054263353347778 0.4418604373931885
0.17021828889846802 -0.7054263353347778 0.4573643207550049
0.17061002552509308 -0.7054263353347778 0.4728682041168213
0.17064249515533447 -0.7054263353347778 0.4883720874786377
0.1696910858154297 -0.7054263353347778 0.5038759708404541
0.1676408350467682 -0.7054263353347778 0.5193798542022705
0.16503679752349854 -0.7054263353347778 0.5348837375640869
0.16286303102970123 -0.7054263353347778 0.5503875613212585
0.16329325735569 -0.6899225115776062 0.39534881711006165
0.16917432844638824 -0.6899224519729614 0.41085267066955566
0.17204409837722778 -0.6899224519729614 0.42635655403137207
0.17415668070316315 -0.6899224519729614 0.4418604373931885
0.17559510469436646 -0.6899224519729614 0.4573643207550049
0.17677727341651917 -0.6899224519729614 0.4728682041168213
0.17742276191711426 -0.6899224519729614 0.4883720874786377
0.17694512009620667 -0.6899224519729614 0.5038759708404541
0.1755053699016571 -0.6899224519729614 0.5193798542022705
0.17404818534851074 -0.6899224519729614 0.5348837375640869
0.17151792347431183 -0.6899224519729614 0.5503876209259033
0.16618601977825165 -0.6899224519729614 0.5658915042877197
0.16563057899475098 -0.674418568611145 0.39534878730773926
0.17121624946594238 -0.674418568611145 0.41085267066955566
0.17490388453006744 -0.674418568611145 0.42635655403137207
0.17563673853874207 -0.674418568611145 0.5658915042877197
0.1679730862379074 -0.674418568611145 0.5813953876495361
0.16561834514141083 -0.6589146852493286 0.39534878730773926
0.17152120172977448 -0.6589146852493286 0.41085267066955566
0.17625251412391663 -0.6589146852493286 0.42635655403137207
0.17813445627689362 -0.6589146852493286 0.5813953876495361
0.1640080213546753 -0.6434109210968018 0.39534881711006165
0.17040225863456726 -0.6434109210968018 0.41085267066955566
0.17531901597976685 -0.643410861492157 0.42635655403137207
0.1755693256855011 -0.643410861492157 0.5968992710113525
0.1686384677886963 -0.6279070377349854 0.41085267066955566
0.17232953011989594 -0.6279069781303406 0.42635655403137207
0.16773848235607147 -0.6124030947685242 0.42635655403137207
0.17106066644191742 -0.6124030947685242 0.4418604373931885
0.17641742527484894 -0.6124030351638794 0.4573643207550049
0.16374428570270538 -0.5968992114067078 0.4418604373931885
0.16748785972595215 -0.5968992114067078 0.45736435055732727
0.1713324785232544 -0.5968992114067078 0.4728682041168213
0.17725123465061188 -0.5968992114067078 0.4883720874786377
0.1753828376531601 -0.5968992114067078 0.5658915042877197
0.16413573920726776 -0.5813953876495361 0.4883720874786377
0.16731753945350647 -0.5813953876495361 0.5038759708404541
0.17144247889518738 -0.5813953876495361 0.5193798542022705
0.17059606313705444 -0.5813953876495361 0.5348837375640869
0.177911639213562 -0.5813953876495361 0.6434108018875122
0.17768390476703644 -0.5813953876495361 0.6589146852493286
0.17256608605384827 -0.5658915042877197 0.612403154373169
0.16613377630710602 -0.5658915042877197 0.6279069185256958
0.16582684218883514 -0.5658915042877197 0.751937985420227
0.16420669853687286 -0.5503876209259033 0.5968993306159973
0.16671854257583618 -0.5348837375640869 0.5813953876495361
0.16616129875183105 -0.5193798542022705 0.5658915042877197
0.17578649520874023 -0.5193798542022705 0.5813953876495361
0.16356800496578217 -0.5038759708404541 0.5038759708404541
0.1657644510269165 -0.5038759708404541 0.5193798542022705
0.16744208335876465 -0.5038759708404541 0.5348837375640869
0.17012828588485718 -0.5038759708404541 0.5503876209259033
0.17497572302818298 -0.5038759708404541 0.5658915042877197
0.17314162850379944 -0.5038759708404541 0.612403154373169
0.16351178288459778 -0.4883720874786377 0.4728682041168213
0.16734278202056885 -0.4883720874786377 0.4883720874786377
0.16958832740783691 -0.4883720874786377 0.5038759708404541
0.17184367775917053 -0.4883720874786377 0.5193798542022705
0.17437167465686798 -0.4883720874786377 0.5348837375640869
0.177365243434906 -0.4883720874786377 0.5503876209259033
0.1772935539484024 -0.4883720874786377 0.5813953876495361
0.1714666783809662 -0.4883720874786377 0.5968992710113525
0.1629711389541626 -0.4883720874786377 0.6124032139778137
0.16302834451198578 -0.4728682041168213 0.4573643207550049
0.16764844954013824 -0.4728682339191437 0.4728682339191437
0.17056585848331451 -0.4728682041168213 0.4883720874786377
0.17276722192764282 -0.4728682041168213 0.5038759708404541
0.1759067326784134 -0.4728682041168213 0.5193798542022705
0.17816860973834991 -0.4728682041168213 0.5658915042877197
0.17252367734909058 -0.4728682041168213 0.5813953876495361
0.16468510031700134 -0.4728682041168213 0.5968992710113525
0.16570638120174408 -0.45736435055732727 0.45736435055732727
0.1690944880247116 -0.4573642909526825 0.4728682041168213
0.17163413763046265 -0.4573643207550049 0.4883720874786377
0.17351247370243073 -0.4573643207550049 0.5038759708404541
0.1757027804851532 -0.4573643207550049 0.5193798542022705
0.17725320160388947 -0.4573643207550049 0.5348837375640869
0.17572970688343048 -0.4573643207550049 0.5503876209259033
0.17228737473487854 -0.4573643207550049 0.5658915042877197
0.16591177880764008 -0.4573643207550049 0.5813953876495361
0.1660359501838684 -0.4418604373931885 0.4573643207550049
0.16861382126808167 -0.4418604373931885 0.4728682041168213
0.1706276535987854 -0.4418604373931885 0.4883720874786377
0.17162689566612244 -0.4418604373931885 0.5038759708404541
0.17202529311180115 -0.4418604373931885 0.5193798542022705
0.17173060774803162 -0.4418604373931885 0.5348837375640869
0.17017103731632233 -0.4418604373931885 0.5503876209259033
0.16474145650863647 -0.4418604373931885 0.5658915042877197
0.16421321034431458 -0.42635661363601685 0.4573643207550049
0.1666698306798935 -0.42635661363601685 0.4728682041168213
0.16798125207424164 -0.42635661363601685 0.4883720874786377
0.1678459495306015 -0.42635664343833923 0.5038759708404541
0.16674259305000305 -0.42635661363601685 0.5193798542022705
0.16438370943069458 -0.42635664343833923 0.5348837375640869
0.16309991478919983 -0.3643410801887512 0.19379842281341553
0.16411638259887695 -0.3643410801887512 0.20930232107639313
0.16484417021274567 -0.3643410801887512 0.22480618953704834
0.16524912416934967 -0.3643410801887512 0.24031007289886475
0.16548798978328705 -0.3643410801887512 0.25581395626068115
0.1650894284248352 -0.3643410801887512 0.27131783962249756
0.1638602912425995 -0.3643410801887512 0.2868216931819916
0.16505864262580872 -0.3488371968269348 0.1317828893661499
0.16821055114269257 -0.3488371968269348 0.1472867727279663
0.17014721035957336 -0.3488371968269348 0.16279065608978271
0.1706235408782959 -0.3488371968269348 0.17829453945159912
0.17052319645881653 -0.3488371968269348 0.19379842281341553
0.17020106315612793 -0.3488371968269348 0.20930230617523193
0.16971170902252197 -0.3488371968269348 0.22480618953704834
0.1688002496957779 -0.3488371968269348 0.24031007289886475
0.16772988438606262 -0.3488371968269348 0.25581395626068115
0.16605854034423828 -0.3488371968269348 0.27131783962249756
0.1635010987520218 -0.3488371968269348 0.28682175278663635
0.16796651482582092 -0.3333333134651184 0.06976747512817383
0.1714341640472412 -0.3333333134651184 0.08527135848999023
0.1728401631116867 -0.3333333134651184 0.10077524185180664
0.1739456206560135 -0.3333333134651184 0.11627912521362305
0.17458897829055786 -0.3333333134651184 0.1317828893661499
0.1750643253326416 -0.3333333134651184 0.1472867727279663
0.17540673911571503 -0.3333333134651184 0.16279065608978271
0.17521291971206665 -0.3333333134651184 0.17829453945159912
0.1746280938386917 -0.3333333134651184 0.19379842281341553
0.17379112541675568 -0.3333333134651184 0.20930230617523193
0.1727364957332611 -0.3333333134651184 0.22480618953704834
0.17090168595314026 -0.3333333134651184 0.24031007289886475
0.16849064826965332 -0.3333333134651184 0.25581395626068115
0.16530831158161163 -0.333333283662796 0.27131783962249756
0.16676625609397888 -0.317829430103302 -0.7519380450248718
0.1696622520685196 -0.317829430103302 -0.7364341020584106
0.1701829731464386 -0.317829430103302 0.02325582504272461
0.1732105016708374 -0.317829430103302 0.038759708404541016
0.17559149861335754 -0.317829430103302 0.05426359176635742
0.17824812233448029 -0.317829430103302 0.06976747512817383
0.17816577851772308 -0.317829430103302 0.19379842281341553
0.17605748772621155 -0.317829430103302 0.20930230617523193
0.17424021661281586 -0.317829430103302 0.22480618953704834
0.17186808586120605 -0.317829430103302 0.24031007289886475
0.16822940111160278 -0.317829430103302 0.25581395626068115
0.16324838995933533 -0.317829430103302 0.27131783962249756
0.17415288090705872 -0.30232560634613037 -0.7054263353347778
0.16348174214363098 -0.30232560634613037 -0.038759708404541016
0.17051911354064941 -0.30232560634613037 -0.02325582504272461
0.17464087903499603 -0.30232560634613037 -0.007751941680908203
0.17807939648628235 -0.30232560634613037 0.007751941680908203
0.17823050916194916 -0.30232560634613037 0.20930230617523193
0.1749555915594101 -0.30232560634613037 0.22480618953704834
0.17184525728225708 -0.30232560634613037 0.24031007289886475
0.16726107895374298 -0.30232560634613037 0.25581395626068115
0.16459912061691284 -0.2868216931819916 -0.08527129888534546
0.17200307548046112 -0.28682172298431396 -0.06976741552352905
0.17587098479270935 -0.28682172298431396 -0.05426359176635742
0.17517580091953278 -0.28682172298431396 0.22480618953704834
0.17144089937210083 -0.28682172298431396 0.24031007289886475
0.16609862446784973 -0.28682172298431396 0.25581395626068115
0.17036208510398865 -0.27131783962249756 -0.6589146852493286
0.16424427926540375 -0.27131783962249756 -0.13178294897079468
0.17125436663627625 -0.27131783962249756 -0.11627906560897827
0.17611537873744965 -0.27131783962249756 -0.10077518224716187
0.17471890151500702 -0.27131783962249756 0.22480618953704834
0.17042158544063568 -0.27131783962249756 0.24031007289886475
0.16409136354923248 -0.27131783962249756 0.25581395626068115
0.17707854509353638 -0.25581395626068115 -0.6279069781303406
0.16638877987861633 -0.25581395626068115 -0.6124030947685242
0.1629316657781601 -0.25581395626068115 -0.19379842281341553
0.1678476333618164 -0.25581395626068115 -0.1782945990562439
0.1730021834373474 -0.25581395626068115 -0.1627907156944275
0.1766272485256195 -0.25581395626068115 -0.14728683233261108
0.17398205399513245 -0.25581395626068115 0.22480618953704834
0.16916590929031372 -0.25581395626068115 0.24031007289886475
0.17567045986652374 -0.24031007289886475 -0.5658915042877197
0.17188018560409546 -0.24031007289886475 -0.5503876209259033
0.16725121438503265 -0.24031007289886475 -0.5348837375640869
0.1631411612033844 -0.24031008780002594 -0.5193799138069153
0.1650882065296173 -0.24031007289886475 -0.3488371968269348
0.16822396218776703 -0.24031007289886475 -0.3333333134651184
0.1709720492362976 -0.24031007289886475 -0.317829430103302
0.1725655496120453 -0.24031007289886475 -0.30232560634613037
0.17366303503513336 -0.24031007289886475 -0.28682172298431396
0.1744088977575302 -0.24031007289886475 -0.27131783962249756
0.17503505945205688 -0.24031007289886475 -0.25581395626068115
0.17581336200237274 -0.24031007289886475 -0.24031007289886475
0.17682382464408875 -0.24031007289886475 -0.22480618953704834
0.17273607850074768 -0.24031007289886475 0.22480618953704834
0.16713744401931763 -0.24031007289886475 0.24031007289886475
0.17325721681118011 -0.22480618953704834 -0.6899224519729614
0.17744724452495575 -0.22480618953704834 -0.4728682041168213
0.17588183283805847 -0.22480618953704834 -0.4573643207550049
0.17467793822288513 -0.22480618953704834 -0.4418604373931885
0.17388126254081726 -0.22480618953704834 -0.42635661363601685
0.1734151393175125 -0.22480618953704834 -0.41085273027420044
0.1735636591911316 -0.22480618953704834 -0.39534884691238403
0.17459248006343842 -0.22480618953704834 -0.3798449635505676
0.17623820900917053 -0.22480618953704834 -0.3643410801887512
0.1771133542060852 -0.22480618953704834 0.20930230617523193
0.17107899487018585 -0.22480618953704834 0.22480618953704834
0.16411450505256653 -0.22480618953704834 0.24031007289886475
0.17093846201896667 -0.20930230617523193 -0.643410861492157
0.17555058002471924 -0.20930230617523193 -0.6279069781303406
0.1777973622083664 -0.20930230617523193 -0.41085273027420044
0.1768479347229004 -0.20930230617523193 -0.39534884691238403
0.17751960456371307 -0.20930230617523193 -0.3798449635505676
0.1742975115776062 -0.20930230617523193 0.20930230617523193
0.1681668907403946 -0.20930232107639313 0.22480618953704834
0.16312575340270996 -0.19379840791225433 -0.5348837375640869
0.16775766015052795 -0.19379842281341553 -0.5193798542022705
0.1722128838300705 -0.19379842281341553 -0.5038759708404541
0.17505645751953125 -0.19379842281341553 -0.4883720874786377
0.17648912966251373 -0.19379842281341553 -0.4728682041168213
0.17657124996185303 -0.19379842281341553 -0.4573643207550049
0.1756201535463333 -0.19379842281341553 -0.4418604373931885
0.1735856533050537 -0.19379842281341553 -0.42635661363601685
0.17079736292362213 -0.19379842281341553 -0.41085273027420044
0.1683897078037262 -0.19379842281341553 -0.39534884691238403
0.16754047572612762 -0.19379842281341553 -0.3798449635505676
0.16824005544185638 -0.19379842281341553 -0.3643410801887512
0.17046678066253662 -0.19379842281341553 -0.3488371968269348
0.17341652512550354 -0.19379842281341553 -0.3333333134651184
0.17748978734016418 -0.19379842281341553 -0.317829430103302
0.17121455073356628 -0.19379842281341553 0.20930230617523193
0.1634778529405594 -0.1782945990562439 -0.24031007289886475
0.16677555441856384 -0.1782945990562439 -0.22480618953704834
0.1698663979768753 -0.1782945990562439 -0.20930230617523193
0.1727188527584076 -0.1782945990562439 -0.19379842281341553
0.17523084580898285 -0.1782945990562439 -0.1782945990562439
0.17794166505336761 -0.1782945990562439 -0.1627907156944275
0.17585968971252441 -0.1782945990562439 0.19379842281341553
0.1670917570590973 -0.1782945990562439 0.20930230617523193
0.16632071137428284 -0.1627907156944275 -0.11627906560897827
0.17133967578411102 -0.1627907156944275 -0.10077518224716187
0.17381662130355835 -0.1627907156944275 0.19379842281341553
0.16316673159599304 -0.1627907156944275 0.20930230617523193
0.17735014855861664 -0.14728683233261108 -0.06976741552352905
0.1751783937215805 -0.14728683233261108 0.19379842281341553
0.16424743831157684 -0.14728683233261108 0.20930229127407074
0.1667889505624771 -0.13178294897079468 -0.06976741552352905
0.17768451571464539 -0.13178294897079468 0.19379842281341553
0.16561679542064667 -0.13178294897079468 0.20930229127407074
0.177641361951828 -0.11627906560897827 0.19379842281341553
0.1647348701953888 -0.11627905815839767 0.20930230617523193
0.1751306653022766 -0.10077518224716187 0.19379842281341553
0.1737833172082901 -0.08527129888534546 0.19379842281341553
0.1647927612066269 -0.06976741552352905 -0.06976741552352905
0.1756855547428131 -0.06976741552352905 0.19379842281341553
0.17107757925987244 -0.05426359176635742 -0.06976741552352905
0.16580244898796082 -0.05426359176635742 0.20930230617523193
0.16894081234931946 -0.038759708404541016 0.20930230617523193
0.17086493968963623 -0.02325582504272461 0.20930230617523193
0.17350097000598907 -0.007751941680908203 0.20930230617523193
0.1654181331396103 0.00775194214656949 -0.08527130633592606
0.1776273548603058 0.007751941680908203 0.20930230617523193
0.1663452833890915 0.02325582504272461 -0.08527129888534546
0.1675606667995453 0.02325582318007946 0.22480618953704834
0.16280986368656158 0.038759708404541016 -0.08527129888534546
0.16936582326889038 0.038759708404541016 0.22480618953704834
0.1690342128276825 0.05426359176635742 0.22480618953704834
0.16445639729499817 0.06976747512817383 0.22480618953704834
0.16722199320793152 0.10077524185180664 0.22480618953704834
0.17289455235004425 0.11627912521362305 0.22480618953704834
0.16427569091320038 0.1472867727279663 0.24031007289886475
0.16618728637695312 0.16279065608978271 0.24031007289886475
0.16871929168701172 0.17829453945159912 -0.11627906560897827
0.16684934496879578 0.17829453945159912 0.24031007289886475
0.16957855224609375 0.19379842281341553 -0.11627906560897827
0.16592873632907867 0.19379842281341553 0.24031007289886475
0.1672699749469757 0.20930230617523193 0.24031007289886475
0.17121899127960205 0.22480618953704834 0.24031007289886475
0.17675121128559113 0.24031007289886475 0.24031007289886475
0.17252670228481293 0.25581395626068115 -0.11627906560897827
0.1656304895877838 0.27131783962249756 -0.11627905815839767
0.16339874267578125 0.28682172298431396 -0.11627906560897827
0.1683843731880188 0.28682172298431396 0.25581395626068115
0.1654776781797409 0.30232560634613037 -0.11627905815839767
0.17068922519683838 0.30232560634613037 0.25581395626068115
0.1712712198495865 0.3178294897079468 -0.11627906560897827
0.16863928735256195 0.3178294897079468 0.25581395626068115
0.17480240762233734 0.3333333730697632 -0.11627906560897827
0.16832193732261658 0.3333333730697632 0.25581395626068115
0.17421208322048187 0.3488372564315796 -0.11627906560897827
