0.11627912521362305 -0.10235260426998138 -0.24031007289886475
0.11627912521362305 -0.017031721770763397 -0.22480618953704834
0.11627912521362305 0.018369339406490326 -0.20930230617523193
0.11627912521362305 0.020014334470033646 0.25581395626068115
0.11627912521362305 0.04282950237393379 -0.19379842281341553
0.11627912521362305 0.09660142660140991 0.25581395626068115
0.11627912521362305 0.18733541667461395 -0.1782945990562439
0.11627912521362305 0.20609413087368011 0.27131783962249756
0.11627912521362305 0.2730928957462311 -0.1782945990562439
0.11627912521362305 0.32132187485694885 -0.19379842281341553
0.11627912521362305 0.3706393241882324 -0.20930230617523193
0.11627911776304245 0.39576396346092224 0.27131783962249756
0.11627912521362305 0.45513245463371277 -0.22480618953704834
0.11627912521362305 0.45732542872428894 0.25581395626068115
0.11627912521362305 0.4711412191390991 -0.25581395626068115
0.11627912521362305 0.4661339521408081 -0.24031007289886475
0.11627912521362305 0.4815481901168823 -0.27131783962249756
0.11627912521362305 0.4978717565536499 -0.28682172298431396
0.11627912521362305 0.5266478657722473 0.24031007289886475
0.11627912521362305 0.5638511776924133 0.22480618953704834
0.11627912521362305 0.5959176421165466 0.20930230617523193
0.11627912521362305 0.6178199052810669 -0.30232560634613037
0.11627912521362305 0.6253434419631958 0.19379842281341553
0.11627912521362305 0.6321937441825867 -0.317829430103302
0.11627912521362305 0.6463707089424133 -0.3333333134651184
0.11627912521362305 0.6534056067466736 0.17829453945159912
0.11627912521362305 0.673689067363739 -0.3488371968269348
0.11627912521362305 0.6810451745986938 0.16279065608978271
0.11627912521362305 0.7039803266525269 -0.3798449635505676
0.11627913266420364 0.6955969333648682 -0.3643410801887512
0.11627912521362305 0.7050888538360596 0.1472867727279663
0.11627912521362305 0.7144615054130554 -0.41085273027420044
0.11627912521362305 0.7080327272415161 -0.39534884691238403
0.11627912521362305 0.7237014770507812 -0.42635661363601685
0.11627912521362305 0.7309737205505371 0.1317828893661499
0.11627912521362305 0.7365438342094421 -0.4418604075908661
0.11627912521362305 0.7492415308952332 0.11627912521362305
0.11627912521362305 0.7565739750862122 -0.4573643207550049
0.11627912521362305 0.7665460109710693 0.10077524185180664
0.11627912521362305 0.7853075265884399 0.08527135848999023
0.11627913266420364 0.8028086423873901 0.06976747512817383
0.11627913266420364 0.8178855776786804 0.05426359176635742
0.11627912521362305 0.8417028784751892 0.02325582504272461
0.11627912521362305 0.8303852677345276 0.03875970467925072
0.11627912521362305 0.8534412384033203 -0.4573643207550049
0.11627912521362305 0.8603729605674744 -0.02325582504272461
0.11627912521362305 0.8565982580184937 -0.007751941680908203
0.11627912521362305 0.8504564762115479 0.007751941215246916
0.11627912521362305 0.8710297346115112 -0.4418604373931885
0.11627912521362305 0.8756920099258423 -0.19379842281341553
0.11627912521362305 0.8748899698257446 -0.1782945990562439
0.11627912521362305 0.8738925457000732 -0.1627907156944275
0.11627912521362305 0.8729133605957031 -0.14728683233261108
0.11627912521362305 0.8717784881591797 -0.13178294897079468
0.11627912521362305 0.8708953261375427 -0.11627906560897827
0.11627912521362305 0.8704147338867188 -0.10077518224716187
0.11627912521362305 0.8701187372207642 -0.08527129888534546
0.11627912521362305 0.8696320056915283 -0.06976741552352905
0.11627912521362305 0.8684254884719849 -0.05426359176635742
0.11627912521362305 0.8652618527412415 -0.038759708404541016
0.11627912521362305 0.8805650472640991 -0.42635661363601685
0.11627912521362305 0.8857147693634033 -0.41085273027420044
0.11627912521362305 0.8883042931556702 -0.39534884691238403
0.11627912521362305 0.8890082836151123 -0.3798449635505676
0.11627912521362305 0.8890091180801392 -0.3643410801887512
0.11627912521362305 0.8884472846984863 -0.3488371968269348
0.11627912521362305 0.887425422668457 -0.3333333134651184
0.11627912521362305 0.8860735297203064 -0.317829430103302
0.11627912521362305 0.8843811750411987 -0.30232560634613037
0.11627912521362305 0.8828570246696472 -0.28682172298431396
0.11627912521362305 0.880913257598877 -0.27131783962249756
0.11627912521362305 0.8793834447860718 -0.25581395626068115
0.11627912521362305 0.8779497146606445 -0.24031007289886475
0.11627912521362305 0.8769645690917969 -0.22480618953704834
0.11627911776304245 0.8762863874435425 -0.20930230617523193
0.1317828893661499 -0.8010450601577759 0.5813953876495361
0.1317828893661499 -0.8043159246444702 0.5968992710113525
0.1317828893661499 -0.806019127368927 0.612403154373169
0.1317828893661499 -0.8065080642700195 0.6279069185256958
0.1317828893661499 -0.8037443161010742 0.6434108018875122
0.1317828893661499 -0.7994285225868225 0.6589146852493286
0.1317828893661499 -0.7928123474121094 0.5658915042877197
0.1317828893661499 -0.7910798788070679 0.674418568611145
0.1317828893661499 -0.7785327434539795 0.6899224519729614
0.1317828893661499 -0.7562554478645325 0.5503876209259033
0.1317828893661499 -0.7604280114173889 0.7054263353347778
0.1317828893661499 -0.7407498359680176 0.7209302186965942
0.1317828893661499 -0.7223308682441711 0.7364341020584106
0.1317828893661499 -0.7058252692222595 0.751937985420227
0.1317828893661499 -0.6921910643577576 0.7674418687820435
0.1317828893661499 -0.6754702925682068 0.7829457521438599
0.1317828893661499 -0.6674489378929138 0.5348837375640869
0.1317828893661499 -0.6557718515396118 0.7829457521438599
0.1317828893661499 -0.6328856945037842 0.5193798542022705
0.1317828893661499 -0.6330498456954956 0.7674418687820435
0.1317828893661499 -0.6174608469009399 0.751937985420227
0.1317828893661499 -0.6071922779083252 0.5038759708404541
0.1317828893661499 -0.6044507026672363 0.7364341020584106
0.1317828893661499 -0.5910083651542664 0.4883720874786377
0.1317828893661499 -0.5881726741790771 0.7209302186965942
0.1317828893661499 -0.5667847990989685 0.4573643207550049
0.1317828893661499 -0.5752560496330261 0.4728682041168213
0.1317828893661499 -0.56952965259552 0.7054263353347778
0.1317828893661499 -0.5539823770523071 0.41085267066955566
0.1317828893661499 -0.5572707056999207 0.42635655403137207
0.1317828893661499 -0.5607614517211914 0.4418604075908661
0.1317828893661499 -0.5407147407531738 0.37984490394592285
0.1317828893661499 -0.5470952987670898 0.39534878730773926
0.1317828893661499 -0.5478512048721313 0.6899224519729614
0.1317828893661499 -0.5210997462272644 0.3488372564315796
0.1317828893661499 -0.5313206911087036 0.364341139793396
0.1317828893661499 -0.5260307788848877 0.674418568611145
0.1317828893661499 -0.5075170993804932 0.3333333730697632
0.1317828893661499 -0.4911877512931824 0.6589146852493286
0.1317828893661499 -0.4829621911048889 0.3178294897079468
0.1317828893661499 -0.4621075689792633 0.30232560634613037
0.1317828893661499 -0.4624319076538086 0.6434108018875122
0.1317828893661499 -0.44923287630081177 0.30232560634613037
0.1317828893661499 -0.4468521475791931 0.3178294897079468
0.1317828893661499 -0.445232629776001 0.3333333730697632
0.1317828893661499 -0.4431777596473694 0.3488372564315796
0.1317828893661499 -0.44544413685798645 0.6279069185256958
0.1317828893661499 -0.42645883560180664 0.11627912521362305
0.1317828893661499 -0.43094125390052795 0.1317828893661499
0.1317828893661499 -0.4339728355407715 0.1472867727279663
0.1317828893661499 -0.4350586533546448 0.16279065608978271
0.1317828893661499 -0.4345546364784241 0.17829453945159912
0.1317828893661499 -0.4326120615005493 0.19379842281341553
0.1317828893661499 -0.4298979640007019 0.20930230617523193
0.1317828893661499 -0.42818430066108704 0.22480618953704834
0.1317828893661499 -0.42700183391571045 0.24031007289886475
0.1317828893661499 -0.4266118109226227 0.25581395626068115
0.1317828893661499 -0.43979310989379883 0.364341139793396
0.1317828893661499 -0.43646925687789917 0.37984490394592285
0.1317828893661499 -0.43237921595573425 0.39534878730773926
0.1317828893661499 -0.4265899360179901 0.41085267066955566
0.1317828893661499 -0.4323447346687317 0.612403154373169
0.1317828893661499 -0.4111650288105011 0.05426359176635742
0.1317828893661499 -0.4160929322242737 0.06976747512817383
0.1317828893661499 -0.419816255569458 0.08527135848999023
0.1317828893661499 -0.4222758412361145 0.10077524185180664
0.1317828893661499 -0.4208828806877136 0.42635655403137207
0.1317828893661499 -0.4151364862918854 0.4418604373931885
0.1317828893661499 -0.4136059880256653 0.5813953876495361
0.1317828893661499 -0.42171674966812134 0.5968992710113525
0.1317828893661499 -0.3980078399181366 0.007751941680908203
0.1317828893661499 -0.40290558338165283 0.02325582504272461
0.1317828893661499 -0.40627822279930115 0.038759708404541016
0.1317828893661499 -0.40780109167099 0.4573643207550049
0.1317828893661499 -0.4026085436344147 0.4728682041168213
0.1317828893661499 -0.399015337228775 0.4883720874786377
0.1317828893661499 -0.39701125025749207 0.5038759708404541
0.1317828893661499 -0.3972027599811554 0.5193798542022705
0.1317828893661499 -0.39910656213760376 0.5348837375640869
0.1317828893661499 -0.4023934602737427 0.5503876209259033
0.1317828893661499 -0.4063693583011627 0.5658915042877197
0.1317828893661499 -0.38408392667770386 -0.038759708404541016
0.1317828893661499 -0.38858020305633545 -0.02325582504272461
0.1317828893661499 -0.39241671562194824 -0.007751941680908203
0.1317828893661499 -0.37995848059654236 0.25581395626068115
0.1317828893661499 -0.3673440217971802 -0.08527129888534546
0.1317828893661499 -0.3733028769493103 -0.06976741552352905
0.1317828893661499 -0.3777766525745392 -0.05426359176635742
0.1317828893661499 -0.3557473123073578 -0.11627906560897827
0.1317828893661499 -0.3603658378124237 -0.10077518224716187
0.1317828893661499 -0.3364744484424591 -0.1627907156944275
0.1317828893661499 -0.3429153859615326 -0.14728683233261108
0.1317828893661499 -0.34801411628723145 -0.13178294897079468
0.1317828893661499 -0.3429604768753052 0.25581395626068115
0.1317828893661499 -0.31930437684059143 -0.20930230617523193
0.1317828893661499 -0.32406145334243774 -0.19379842281341553
0.1317828893661499 -0.3291376829147339 -0.1782945990562439
0.1317828893661499 -0.3050493001937866 -0.25581395626068115
0.1317828893661499 -0.3097049593925476 -0.24031007289886475
0.1317828893661499 -0.3138956129550934 -0.22480618953704834
0.1317828893661499 -0.28716355562210083 -0.8139535188674927
0.1317828893661499 -0.29179292917251587 -0.7984496355056763
0.1317828893661499 -0.2894893288612366 -0.7829457521438599
0.1317828893661499 -0.29036563634872437 -0.30232560634613037
0.1317828893661499 -0.29569295048713684 -0.28682172298431396
0.1317828893661499 -0.30034875869750977 -0.27131783962249756
0.1317828893661499 -0.2839222550392151 -0.7674418687820435
0.1317828893661499 -0.2734805643558502 -0.751937985420227
0.1317828893661499 -0.27693670988082886 -0.3333333134651184
0.1317828893661499 -0.2834772765636444 -0.317829430103302
0.1317828893661499 -0.2560095489025116 -0.7054263353347778
0.1317828893661499 -0.2591792941093445 -0.6899224519729614
0.1317828893661499 -0.2610316276550293 -0.674418568611145
0.1317828893661499 -0.2619768977165222 -0.6589146852493286
0.1317828893661499 -0.26186296343803406 -0.643410861492157
0.1317828893661499 -0.26136523485183716 -0.6279069781303406
0.1317828893661499 -0.2609570026397705 -0.6124030947685242
0.1317828893661499 -0.26037418842315674 -0.5968992114067078
0.1317828893661499 -0.2599731683731079 -0.5813953876495361
0.1317828893661499 -0.2601487636566162 -0.5658915042877197
0.1317828893661499 -0.260769248008728 -0.5503876209259033
0.1317828893661499 -0.2611340582370758 -0.5348837375640869
0.1317828893661499 -0.26214656233787537 -0.5193798542022705
0.1317828893661499 -0.2630005478858948 -0.5038759708404541
0.1317828893661499 -0.26336151361465454 -0.4883720874786377
0.1317828893661499 -0.2635989189147949 -0.4728682041168213
0.1317828893661499 -0.26390400528907776 -0.4573643207550049
0.1317828893661499 -0.26398205757141113 -0.4418604373931885
0.1317828893661499 -0.2639601528644562 -0.42635661363601685
0.1317828893661499 -0.2641306221485138 -0.41085273027420044
0.1317828893661499 -0.2642231583595276 -0.39534884691238403
0.1317828893661499 -0.2649706304073334 -0.3798449635505676
0.1317828893661499 -0.2665868401527405 -0.3643410801887512
0.1317828893661499 -0.2706209421157837 -0.3488371968269348
0.1317828893661499 -0.25423792004585266 -0.8139535188674927
0.1317828893661499 -0.24813175201416016 -0.7209302186965942
0.1317828893661499 -0.2380899339914322 -0.7984496355056763
0.1317828893661499 -0.23489846289157867 -0.7829457521438599
0.1317828893661499 -0.23469066619873047 -0.7674418687820435
0.1317828893661499 -0.23748281598091125 -0.751937985420227
0.1317828893661499 -0.2330460548400879 -0.7209302186965942
0.1317828893661499 -0.22227436304092407 -0.7054263353347778
0.1317828893661499 -0.21857938170433044 -0.6899224519729614
0.1317828893661499 -0.21560750901699066 -0.674418568611145
0.1317828893661499 -0.2127474546432495 -0.6589146852493286
0.1317828893661499 -0.20956499874591827 -0.643410861492157
0.1317828893661499 -0.21010610461235046 -0.4573643207550049
0.1317828893661499 -0.2127314805984497 -0.4418604373931885
0.1317828893661499 -0.21398428082466125 -0.42635661363601685
0.1317828893661499 -0.21404924988746643 -0.41085273027420044
0.1317828893661499 -0.21323159337043762 -0.39534884691238403
0.1317828893661499 -0.20863837003707886 -0.6279069781303406
0.1317828893661499 -0.20792612433433533 -0.6124030947685242
0.1317828893661499 -0.20734265446662903 -0.5968992710113525
0.1317828893661499 -0.2069094479084015 -0.5813953876495361
0.1317828893661499 -0.20643499493598938 -0.5658915042877197
0.1317828893661499 -0.20610792934894562 -0.5503876209259033
0.1317828893661499 -0.2059459686279297 -0.5348837375640869
0.1317828893661499 -0.20603345334529877 -0.5193798542022705
0.1317828893661499 -0.20654763281345367 -0.5038759708404541
0.1317828893661499 -0.2074977159500122 -0.4883720874786377
0.1317828893661499 -0.2085152119398117 -0.4728682041168213
0.1317828893661499 -0.20875534415245056 -0.3798449635505676
0.1317828893661499 -0.20648066699504852 -0.3643410801887512
0.1317828893661499 -0.2035525143146515 -0.3488371968269348
0.1317828893661499 -0.19662226736545563 -0.3333333134651184
0.1317828893661499 -0.1894751787185669 -0.317829430103302
0.1317828893661499 -0.17736051976680756 -0.302325576543808
0.1317828893661499 -0.1667594164609909 -0.28682172298431396
0.1317828893661499 -0.1528479903936386 -0.27131783962249756
0.1317828893661499 -0.1364523470401764 -0.25581395626068115
0.1317828893661499 -0.12770283222198486 0.25581395626068115
0.1317828893661499 -0.11546950787305832 -0.24031007289886475
0.1317828893661499 -0.07061728835105896 -0.22480618953704834
0.1317828893661499 -0.0020873025059700012 -0.20930230617523193
0.1317828893661499 0.008218281902372837 0.24031007289886475
0.1317828893661499 0.026311010122299194 -0.19379842281341553
0.1317828893661499 0.0554383248090744 -0.1782945841550827
0.1317828893661499 0.11598091572523117 0.24031007289886475
0.1317828893661499 0.24722790718078613 0.25581395626068115
0.1317828893661499 0.28428536653518677 -0.1782945990562439
0.1317828893661499 0.3268465995788574 -0.19379842281341553
0.1317828893661499 0.36245009303092957 -0.20930230617523193
0.1317828893661499 0.3839757442474365 0.25581395626068115
0.1317828893661499 0.43868374824523926 -0.22480618953704834
0.1317828893661499 0.4526960849761963 -0.24031007289886475
0.1317828893661499 0.44606977701187134 0.24031007289886475
0.1317828893661499 0.4672882556915283 -0.27131783962249756
0.1317828893661499 0.45769765973091125 -0.25581395626068115
0.1317828893661499 0.47873738408088684 -0.28682172298431396
0.1317828893661499 0.49355649948120117 -0.30232560634613037
0.1317828893661499 0.5201789736747742 -0.317829430103302
0.1317828893661499 0.5194316506385803 0.22480618953704834
0.1317828893661499 0.5794700980186462 -0.3333333134651184
0.1317828893661499 0.5708765983581543 0.20930232107639313
0.1317828893661499 0.6030360460281372 0.19379842281341553
0.1317828893661499 0.6139472126960754 -0.3488371968269348
0.1317828893661499 0.6398317813873291 -0.3643410801887512
0.1317828893661499 0.6337434649467468 0.17829453945159912
0.1317828893661499 0.6631383895874023 -0.3798449635505676
0.1317828893661499 0.6622525453567505 0.16279065608978271
0.1317828893661499 0.680073618888855 -0.39534884691238403
0.1317828893661499 0.6873419880867004 0.1472867727279663
0.1317828893661499 0.700916588306427 -0.8139535188674927
0.1317828893661499 0.6969870328903198 -0.7984496355056763
0.1317828893661499 0.702641487121582 -0.42635661363601685
0.1317828893661499 0.6920502781867981 -0.41085273027420044
0.1317828893661499 0.7083703279495239 -0.7829457521438599
0.1317828893661499 0.7151532173156738 -0.4418604373931885
0.1317828893661499 0.7146432995796204 0.1317828893661499
0.1317828893661499 0.7286375761032104 -0.4573643207550049
0.1317828893661499 0.7356786727905273 0.11627912521362305
0.1317828893661499 0.7453128099441528 -0.4728682041168213
0.1317828893661499 0.7653371691703796 -0.7674418687820435
0.1317828893661499 0.7574928998947144 0.10077524185180664
0.1317828893661499 0.7704377174377441 -0.4883720576763153
0.1317828893661499 0.7764428853988647 0.08527135848999023
0.1317828893661499 0.7863458395004272 -0.8139535188674927
0.1317828893661499 0.7933018207550049 0.06976747512817383
0.1317828893661499 0.8113176822662354 -0.7984496355056763
0.1317828893661499 0.8065392971038818 -0.751937985420227
0.1317828893661499 0.810319185256958 -0.5038759708404541
0.1317828893661499 0.8088273406028748 0.05426359176635742
0.1317828893661499 0.82171630859375 0.038759708404541016
0.1317828893661499 0.8312903046607971 -0.7364341020584106
0.1317828893661499 0.8406326770782471 -0.5193798542022705
0.1317828893661499 0.8443180322647095 -0.007751941680908203
0.1317828893661499 0.839585542678833 0.007751941680908203
0.1317828893661499 0.8303633332252502 0.02325582504272461
0.1317828893661499 0.8506407737731934 -0.7209302186965942
0.1317828893661499 0.8603406548500061 -0.5813953876495361
0.1317828893661499 0.8577019572257996 -0.5658915042877197
0.1317828893661499 0.8551373481750488 -0.5503876209259033
0.1317828893661499 0.851797342300415 -0.5348837375640869
0.1317828893661499 0.8592581152915955 -0.11627906560897827
0.1317828893661499 0.858375072479248 -0.10077518224716187
0.1317828893661499 0.8580302596092224 -0.08527129888534546
0.1317828893661499 0.8580114841461182 -0.06976741552352905
0.1317828893661499 0.8581123948097229 -0.05426359176635742
0.1317828893661499 0.8566567897796631 -0.038759708404541016
0.1317828893661499 0.850690484046936 -0.02325582504272461
0.1317828893661499 0.8637093901634216 -0.7829457521438599
0.1317828893661499 0.8713524341583252 -0.7054263353347778
0.1317828893661499 0.8725318312644958 -0.643410861492157
0.1317828893661499 0.8694854378700256 -0.6279069781303406
0.1317828893661499 0.8665295839309692 -0.6124030351638794
0.1317828893661499 0.8636420965194702 -0.5968992114067078
0.1317828893661499 0.8759657144546509 -0.25581395626068115
0.1317828893661499 0.8740864396095276 -0.24031007289886475
0.1317828893661499 0.8731111288070679 -0.22480618953704834
0.1317828893661499 0.87265545129776 -0.20930230617523193
0.1317828893661499 0.8713141083717346 -0.19379842281341553
0.1317828893661499 0.8692151308059692 -0.1782945990562439
0.1317828893661499 0.8664133548736572 -0.1627907156944275
0.1317828893661499 0.8634512424468994 -0.14728683233261108
0.1317828744649887 0.8608951568603516 -0.13178294897079468
0.1317828893661499 0.8778243064880371 -0.7674418687820435
0.1317828893661499 0.8858250379562378 -0.751937985420227
0.1317828893661499 0.8869731426239014 -0.7364341020584106
0.1317828893661499 0.8868268728256226 -0.7209302186965942
0.1317828893661499 0.8798220753669739 -0.7054263353347778
0.1317828893661499 0.8867803812026978 -0.643410861492157
0.1317828893661499 0.8902754783630371 -0.3488371968269348
0.1317828893661499 0.8877344131469727 -0.3333333134651184
0.1317828893661499 0.884813129901886 -0.317829430103302
0.1317828893661499 0.8818891048431396 -0.30232560634613037
0.1317828893661499 0.8796010613441467 -0.28682172298431396
0.1317828893661499 0.8773486614227295 -0.27131783962249756
0.1317828893661499 0.8926361203193665 -0.6279070377349854
0.1317828893661499 0.8946768045425415 -0.612403154373169
0.1317828893661499 0.8966617584228516 -0.5968992710113525
0.1317828893661499 0.8989488482475281 -0.5813953876495361
0.1317828893661499 0.9013885855674744 -0.5658915042877197
0.1317828893661499 0.9026512503623962 -0.5503876209259033
0.1317828893661499 0.9026802778244019 -0.5348837375640869
0.1317828893661499 0.9010411500930786 -0.5193798542022705
0.1317828893661499 0.8989704847335815 -0.5038759708404541
0.1317828893661499 0.8965546488761902 -0.4883720874786377
0.1317828893661499 0.8949897885322571 -0.4728682041168213
0.1317828893661499 0.8951365351676941 -0.4573643207550049
0.1317828893661499 0.8963890075683594 -0.4418604075908661
0.1317828893661499 0.8970072865486145 -0.42635661363601685
0.1317828893661499 0.8964824676513672 -0.41085273027420044
0.1317828893661499 0.8954480290412903 -0.39534884691238403
0.1317828893661499 0.8931677341461182 -0.3798449635505676
0.1317828893661499 0.8916935324668884 -0.3643410801887512
0.1472867727279663 -0.7986943125724792 0.6279069185256958
0.1472867727279663 -0.7830111980438232 0.5813953876495361
0.1472867727279663 -0.7930455207824707 0.5968992710113525
0.1472867727279663 -0.7973560094833374 0.612403154373169
0.1472867727279663 -0.7977042198181152 0.6434108018875122
0.1472867727279663 -0.7932340502738953 0.6589146852493286
0.1472867727279663 -0.7843737006187439 0.674418568611145
0.1472867727279663 -0.7711502909660339 0.6899224519729614
0.1472867727279663 -0.7648365497589111 0.5658915042877197
0.1472867727279663 -0.7551316618919373 0.7054263353347778
0.1472867727279663 -0.7388454079627991 0.7209302186965942
0.1472867727279663 -0.7225302457809448 0.7364341020584106
0.1472867727279663 -0.7083598375320435 0.751937985420227
0.1472867727279663 -0.7022993564605713 0.5503876209259033
0.1472867727279663 -0.6989970207214355 0.7674418687820435
0.1472867727279663 -0.6931207776069641 0.7829457521438599
0.1472867727279663 -0.6900635361671448 0.7984496355056763
0.1472867727279663 -0.6696172952651978 0.5348837375640869
0.1472867727279663 -0.6462308168411255 0.7829457521438599
0.1472867727279663 -0.6575728058815002 0.7984496355056763
0.1472867727279663 -0.6289595365524292 0.5193798542022705
0.1472867727279663 -0.6342216730117798 0.7674418687820435
0.1472867727279663 -0.621343731880188 0.751937985420227
0.1472867727279663 -0.6026304960250854 0.5038759708404541
0.1472867727279663 -0.6085536479949951 0.7364341020584106
0.1472867727279663 -0.5854489803314209 0.4883720874786377
0.1472867727279663 -0.5934479236602783 0.7209302186965942
0.1472867727279663 -0.5694475769996643 0.4728682041168213
0.1472867727279663 -0.5764878988265991 0.7054263353347778
0.1472867727279663 -0.5522457957267761 0.42635655403137207
0.1472867727279663 -0.5563423037528992 0.4418604373931885
0.1472867727279663 -0.560745358467102 0.4573643207550049
0.1472867727279663 -0.557989239692688 0.6899224519729614
0.1472867727279663 -0.5381926894187927 0.39534878730773926
0.1472867727279663 -0.5455260276794434 0.41085267066955566
0.1472867727279663 -0.5396777391433716 0.674418568611145
0.1472867727279663 -0.527614951133728 0.37984490394592285
0.1472867727279663 -0.5196889042854309 0.6589146852493286
0.1472867727279663 -0.5129845142364502 0.364341139793396
0.1472867727279663 -0.4754483699798584 0.364341139793396
0.1472867727279663 -0.47518259286880493 0.6434108018875122
0.1472867727279663 -0.46348318457603455 0.37984490394592285
0.1472867727279663 -0.45396888256073 0.39534878730773926
0.1472867727279663 -0.4480847120285034 0.41085267066955566
0.1472867876291275 -0.45541149377822876 0.6279069185256958
0.1472867727279663 -0.4417027533054352 0.42635655403137207
0.1472867727279663 -0.4369302988052368 0.4418604373931885
0.1472867727279663 -0.4324226975440979 0.4573643207550049
0.1472867727279663 -0.4264477789402008 0.4728682041168213
0.1472867727279663 -0.43289753794670105 0.5968992710113525
0.1472867727279663 -0.4417707920074463 0.612403154373169
0.1472867727279663 -0.42274466156959534 0.4883720874786377
0.1472867727279663 -0.4203454256057739 0.5038759708404541
0.1472867727279663 -0.4189099669456482 0.5193798542022705
0.1472867727279663 -0.41815268993377686 0.5348837375640869
0.1472867727279663 -0.41872093081474304 0.5503876209259033
0.1472867727279663 -0.42044979333877563 0.5658915042877197
0.1472867727279663 -0.4250563979148865 0.5813953280448914
0.1472867727279663 -0.3982497453689575 0.06976747512817383
0.1472867727279663 -0.4012325406074524 0.08527135848999023
0.1472867727279663 -0.4029160737991333 0.10077524185180664
0.1472867727279663 -0.40425390005111694 0.11627912521362305
0.1472867727279663 -0.40472412109375 0.1317828893661499
0.1472867727279663 -0.40287432074546814 0.1472867727279663
0.1472867727279663 -0.3956599235534668 0.16279065608978271
0.1472867727279663 -0.38190796971321106 -0.007751941680908203
0.1472867727279663 -0.38628095388412476 0.007751941680908203
0.1472867727279663 -0.3891327679157257 0.02325582504272461
0.1472867727279663 -0.3919034004211426 0.038759708404541016
0.14728675782680511 -0.3951739966869354 0.05426358804106712
0.1472867727279663 -0.38377484679222107 0.17829453945159912
0.1472867727279663 -0.3644355237483978 -0.06976741552352905
0.1472867727279663 -0.37084752321243286 -0.05426359176635742
0.1472867727279663 -0.37431788444519043 -0.038759708404541016
0.1472867727279663 -0.3774944543838501 -0.02325582504272461
0.1472867727279663 -0.36502254009246826 0.19379842281341553
0.1472867727279663 -0.3495676815509796 -0.11627906560897827
0.1472867727279663 -0.35620054602622986 -0.10077518224716187
0.1472867727279663 -0.35981637239456177 -0.08527129888534546
0.1472867727279663 -0.3401796817779541 -0.14728683233261108
0.1472867727279663 -0.34441471099853516 -0.13178294897079468
0.1472867727279663 -0.3394584059715271 0.20930230617523193
0.1472867727279663 -0.3217218518257141 -0.19379842281341553
0.1472867727279663 -0.32700878381729126 -0.1782945990562439
0.1472867727279663 -0.3327592611312866 -0.1627907156944275
0.1472867727279663 -0.30486127734184265 -0.25581395626068115
0.1472867727279663 -0.30888092517852783 -0.24031007289886475
0.1472867727279663 -0.3123498260974884 -0.22480618953704834
0.1472867727279663 -0.31777074933052063 -0.20930230617523193
0.1472867727279663 -0.29174861311912537 -0.8139535188674927
0.1472867727279663 -0.29710066318511963 -0.7984496355056763
0.1472867727279663 -0.29467397928237915 -0.7829457521438599
0.1472867727279663 -0.2900178134441376 -0.7674418687820435
0.1472867727279663 -0.28827565908432007 -0.317829430103302
0.1472867727279663 -0.2931319773197174 -0.30232560634613037
0.1472867727279663 -0.2966192960739136 -0.28682172298431396
0.1472867727279663 -0.30102044343948364 -0.27131783962249756
0.1472867727279663 -0.28290480375289917 -0.751937985420227
0.1472867727279663 -0.27201047539711 -0.7364341020584106
0.1472867727279663 -0.27133798599243164 -0.4418604373931885
0.1472867727279663 -0.27173686027526855 -0.42635661363601685
0.1472867727279663 -0.2721920609474182 -0.41085273027420044
0.1472867727279663 -0.27281397581100464 -0.39534884691238403
0.1472867727279663 -0.27427661418914795 -0.3798449635505676
0.1472867727279663 -0.27673524618148804 -0.3643410801887512
0.1472867727279663 -0.27980196475982666 -0.3488371968269348
0.1472867727279663 -0.2835659086704254 -0.3333333134651184
0.1472867727279663 -0.2818770110607147 0.22480618953704834
0.1472867727279663 -0.2668936550617218 -0.7209302186965942
0.1472867727279663 -0.26759499311447144 -0.7054263353347778
0.1472867727279663 -0.26836153864860535 -0.6899224519729614
0.1472867727279663 -0.26839175820350647 -0.674418568611145
0.1472867727279663 -0.26769495010375977 -0.6589146852493286
0.1472867727279663 -0.26669445633888245 -0.643410861492157
0.1472867727279663 -0.26592034101486206 -0.6279069185256958
0.1472867727279663 -0.2657985985279083 -0.6124030947685242
0.1472867727279663 -0.26578810811042786 -0.5968992114067078
0.1472867727279663 -0.26577526330947876 -0.5813953876495361
0.1472867727279663 -0.26584434509277344 -0.5658915042877197
0.1472867727279663 -0.26590558886528015 -0.5503876209259033
0.1472867727279663 -0.26616615056991577 -0.5348837375640869
0.1472867727279663 -0.26689469814300537 -0.5193798542022705
0.1472867727279663 -0.2679975628852844 -0.5038759708404541
0.1472867727279663 -0.268778532743454 -0.4883720874786377
0.1472867727279663 -0.2696036100387573 -0.4728682041168213
0.1472867727279663 -0.27046993374824524 -0.4573643207550049
0.1472867727279663 -0.240250825881958 -0.8139535188674927
0.1472867727279663 -0.22862739861011505 -0.7984496355056763
0.1472867727279663 -0.22380578517913818 -0.7829457521438599
0.1472867727279663 -0.22247755527496338 -0.7674418687820435
0.1472867727279663 -0.22201749682426453 -0.751937985420227
0.1472867727279663 -0.22090423107147217 -0.7364341020584106
0.1472867727279663 -0.2174001932144165 -0.7209302186965942
0.1472867727279663 -0.21255415678024292 -0.7054263353347778
0.1472867727279663 -0.20791947841644287 -0.6899224519729614
0.1472867727279663 -0.20603811740875244 -0.6744186282157898
0.1472867727279663 -0.20489098131656647 -0.6589146852493286
0.1472867727279663 -0.20391911268234253 -0.643410861492157
0.1472867727279663 -0.20330634713172913 -0.6279069781303406
0.1472867727279663 -0.20279473066329956 -0.6124030947685242
0.1472867727279663 -0.2022339403629303 -0.5968992114067078
0.1472867727279663 -0.20178815722465515 -0.5813953876495361
0.1472867727279663 -0.20141327381134033 -0.5658915042877197
0.1472867727279663 -0.2010709047317505 -0.5503876209259033
0.1472867727279663 -0.2007213979959488 -0.5348837375640869
0.1472867727279663 -0.20079021155834198 -0.5193798542022705
0.1472867727279663 -0.2015337347984314 -0.5038759708404541
0.1472867727279663 -0.20292101800441742 -0.4883721172809601
0.1472867727279663 -0.20430070161819458 -0.4728682041168213
0.1472867727279663 -0.20548918843269348 -0.4573643207550049
0.1472867727279663 -0.20636098086833954 -0.4418604373931885
0.1472867727279663 -0.20665359497070312 -0.42635661363601685
0.1472867727279663 -0.20636478066444397 -0.41085273027420044
0.1472867727279663 -0.20552529394626617 -0.39534884691238403
0.1472867727279663 -0.20330849289894104 -0.3798449635505676
0.1472867727279663 -0.1997969150543213 -0.3643410801887512
0.1472867727279663 -0.20587843656539917 0.24031007289886475
0.1472867727279663 -0.19321933388710022 -0.3488371968269348
0.1472867727279663 -0.1899585723876953 -0.3333333134651184
0.1472867727279663 -0.18399521708488464 -0.317829430103302
0.1472867727279663 -0.17464202642440796 -0.30232560634613037
0.1472867727279663 -0.16424579918384552 -0.28682172298431396
0.1472867727279663 -0.1550377905368805 -0.27131783962249756
0.1472867727279663 -0.1533985435962677 0.24031007289886475
0.1472867727279663 -0.14192873239517212 -0.25581395626068115
0.1472867727279663 -0.12575314939022064 -0.24031007289886475
0.1472867727279663 -0.1021844893693924 -0.22480618953704834
0.1472867727279663 -0.10020889341831207 0.22480618953704834
0.1472867727279663 -0.04715132713317871 -0.20930230617523193
0.1472867727279663 -0.0026422676164656878 -0.19379842281341553
0.1472867727279663 0.015851810574531555 0.20930230617523193
0.1472867727279663 0.02718152478337288 -0.1782945990562439
0.1472867727279663 0.11290174722671509 0.20930230617523193
0.1472867727279663 0.22438015043735504 0.22480618953704834
0.1472867727279663 0.2946028709411621 -0.1782945990562439
0.1472867727279663 0.31685346364974976 0.24031007289886475
0.1472867727279663 0.3311931788921356 -0.19379842281341553
0.1472867727279663 0.3196052312850952 0.24031007289886475
0.1472867727279663 0.3595302104949951 -0.20930230617523193
0.1472867727279663 0.40964609384536743 0.22480618953704834
0.1472867727279663 0.4198351502418518 -0.22480618953704834
0.1472867727279663 0.45316949486732483 -0.25581395626068115
0.1472867727279663 0.4451424181461334 -0.24031007289886475
0.1472867727279663 0.46359944343566895 -0.27131783962249756
0.1472867727279663 0.47549182176589966 -0.28682172298431396
0.1472867876291275 0.47363585233688354 0.20930230617523193
0.1472867727279663 0.48900890350341797 -0.30232560634613037
0.1472867727279663 0.5071290135383606 -0.317829430103302
0.1472867727279663 0.5336600542068481 -0.3333333134651184
0.1472867727279663 0.5565111041069031 0.19379842281341553
0.1472867727279663 0.5664153099060059 -0.3488371968269348
0.1472867727279663 0.5996041893959045 0.17829452455043793
0.1472867727279663 0.6190067529678345 -0.3643410801887512
0.1472867727279663 0.6331294775009155 0.16279065608978271
0.1472867727279663 0.6530976891517639 -0.3798449635505676
0.1472867727279663 0.6718944907188416 -0.7984496355056763
0.1472867727279663 0.6725158095359802 -0.39534884691238403
0.1472867727279663 0.6640872955322266 0.1472867727279663
0.1472867727279663 0.6764572858810425 -0.8139535784721375
0.1472867727279663 0.681735634803772 -0.7829457521438599
0.1472867727279663 0.6872066259384155 -0.41085273027420044
0.1472867727279663 0.7045196294784546 -0.7674418687820435
0.1472867727279663 0.6994184255599976 -0.42635661363601685
0.1472867727279663 0.6919101476669312 0.1317828893661499
0.1472867727279663 0.7115703821182251 -0.4418604373931885
0.1472867727279663 0.7174577116966248 0.11627912521362305
0.1472867727279663 0.7229353785514832 -0.4573643207550049
0.14728675782680511 0.7367985844612122 -0.4728681743144989
0.1472867727279663 0.7412835955619812 0.10077523440122604
0.1472867727279663 0.764061450958252 -0.751937985420227
0.1472867727279663 0.7614021301269531 -0.4883720874786377
0.1472867727279663 0.7618240118026733 0.08527135848999023
0.1472867727279663 0.7791088819503784 0.06976747512817383
0.1472867727279663 0.7914997339248657 -0.7364341020584106
0.1472867727279663 0.794614315032959 -0.5038759708404541
0.1472867727279663 0.7950125932693481 0.05426359176635742
0.1472867727279663 0.8037080764770508 -0.7209302186965942
0.1472867727279663 0.8134927153587341 -0.7054263353347778
0.1472867727279663 0.8089160919189453 0.038759708404541016
0.1472867727279663 0.8271023035049438 -0.6899224519729614
0.1472867727279663 0.8181625008583069 -0.5193798542022705
0.1472867727279663 0.8263476490974426 0.007751941680908203
0.1472867727279663 0.8188843131065369 0.02325582318007946
0.1472867727279663 0.8391417860984802 -0.8139535188674927
0.1472867727279663 0.8368374109268188 -0.674418568611145
0.1472867727279663 0.8405211567878723 -0.6589146852493286
0.1472867727279663 0.8419159054756165 -0.643410861492157
0.1472867727279663 0.8425281047821045 -0.6279069185256958
0.1472867727279663 0.8426191210746765 -0.6124030947685242
0.1472867727279663 0.8424429893493652 -0.5968992114067078
0.1472867727279663 0.8421086072921753 -0.5813953876495361
0.1472867727279663 0.840610682964325 -0.5658915042877197
0.1472867727279663 0.8376965522766113 -0.5503876209259033
0.1472867727279663 0.8304914832115173 -0.5348837375640869
0.1472867727279663 0.8437714576721191 -0.05426359176635742
0.1472867727279663 0.842864453792572 -0.038759708404541016
0.1472867727279663 0.8394891023635864 -0.02325582504272461
0.1472867727279663 0.832516610622406 -0.007751941680908203
0.1472867727279663 0.8604221343994141 -0.20930230617523193
0.1472867727279663 0.8585635423660278 -0.19379842281341553
0.1472867727279663 0.8575384020805359 -0.1782945990562439
0.1472867727279663 0.856436014175415 -0.1627907156944275
0.1472867727279663 0.8549318313598633 -0.14728683233261108
0.1472867727279663 0.8528802394866943 -0.13178294897079468
0.1472867727279663 0.8508715629577637 -0.11627906560897827
0.1472867727279663 0.848949670791626 -0.10077518969774246
0.1472867876291275 0.8472814559936523 -0.08527129888534546
0.1472867727279663 0.8455846309661865 -0.06976741552352905
0.1472867727279663 0.8673108220100403 -0.7984496355056763
0.1472867727279663 0.8743907809257507 -0.28682172298431396
0.1472867727279663 0.871797502040863 -0.27131783962249756
0.1472867727279663 0.8686268925666809 -0.25581395626068115
0.1472867727279663 0.8651893138885498 -0.24031007289886475
0.1472867727279663 0.863066554069519 -0.22480618953704834
0.1472867727279663 0.8801983594894409 -0.7829457521438599
0.1472867727279663 0.8903425335884094 -0.7674418687820435
0.1472867727279663 0.8907370567321777 -0.3643410801887512
0.1472867727279663 0.8881637454032898 -0.3488371968269348
0.1472867727279663 0.8836500644683838 -0.3333333134651184
0.1472867727279663 0.8793023824691772 -0.317829430103302
0.1472867727279663 0.8765745162963867 -0.30232560634613037
0.1472867876291275 0.8933331966400146 -0.751937985420227
0.1472867727279663 0.8981071710586548 -0.7364341020584106
0.1472867727279663 0.9021142721176147 -0.7209302186965942
0.1472867727279663 0.9042131900787354 -0.7054263353347778
0.1472867727279663 0.9061288833618164 -0.6899224519729614
0.1472867727279663 0.9051095247268677 -0.4883720874786377
0.1472867727279663 0.9027525186538696 -0.4728682041168213
0.1472867727279663 0.901228666305542 -0.4573643207550049
0.1472867727279663 0.9003640413284302 -0.4418604373931885
0.1472867727279663 0.898983359336853 -0.42635661363601685
0.1472867727279663 0.89655601978302 -0.41085273027420044
0.1472867727279663 0.8941057324409485 -0.39534884691238403
0.1472867727279663 0.8922349214553833 -0.3798449635505676
0.1472867727279663 0.9079152345657349 -0.674418568611145
0.1472867727279663 0.9092725515365601 -0.6589146852493286
0.1472867727279663 0.9105731248855591 -0.643410861492157
0.1472867727279663 0.9119575619697571 -0.6279070377349854
0.1472867727279663 0.9131417274475098 -0.6124030947685242
0.1472867727279663 0.9138214588165283 -0.5968992114067078
0.1472867727279663 0.9141775369644165 -0.5813953876495361
0.1472867727279663 0.9140446186065674 -0.5658915042877197
0.1472867727279663 0.9129563570022583 -0.5503876209259033
0.1472867727279663 0.9113756418228149 -0.5348837375640869
0.1472867727279663 0.9094449877738953 -0.5193798542022705
0.1472867727279663 0.9076477885246277 -0.5038759708404541
0.16279065608978271 -0.7832178473472595 0.612403154373169
0.16279065608978271 -0.787837028503418 0.6279069185256958
0.16279065608978271 -0.7866060733795166 0.6434108018875122
0.16279065608978271 -0.7751647233963013 0.5968992710113525
0.16279065608978271 -0.7825497984886169 0.6589146852493286
0.16279065608978271 -0.7734357118606567 0.674418568611145
0.16279065608978271 -0.7608326077461243 0.5813953876495361
0.16279065608978271 -0.7625229358673096 0.6899224519729614
0.16279065608978271 -0.7399135828018188 0.5658915042877197
0.16279065608978271 -0.7491236925125122 0.7054263353347778
0.16279065608978271 -0.734753429889679 0.7209301590919495
0.16279065608978271 -0.7196658849716187 0.7364341020584106
0.16279065608978271 -0.7072109580039978 0.751937985420227
0.16279065608978271 -0.6960873603820801 0.5503876209259033
0.16279065608978271 -0.6984225511550903 0.7674418687820435
0.16279065608978271 -0.693576455116272 0.7829457521438599
0.16279065608978271 -0.6916331052780151 0.7984496355056763
0.16279065608978271 -0.677787721157074 0.5348837375640869
0.16279065608978271 -0.6589900255203247 0.7984496355056763
0.16279065608978271 -0.6583830118179321 0.5193798542022705
0.16279065608978271 -0.6503653526306152 0.7829457521438599
0.16279065608978271 -0.6389654874801636 0.7674418687820435
0.16279065608978271 -0.6163037419319153 0.7364341020584106
0.16279065608978271 -0.6266645789146423 0.751937985420227
0.16279065608978271 -0.6015245318412781 0.5038759708404541
0.16279065608978271 -0.6025139093399048 0.7209302186965942
0.16279065608978271 -0.5820119380950928 0.4883720874786377
0.16279065608978271 -0.5869781374931335 0.7054263353347778
0.16279065608978271 -0.5700960159301758 0.6899224519729614
0.16279065608978271 -0.5516114830970764 0.4418604373931885
0.16279065608978271 -0.5568055510520935 0.4573643207550049
0.16279064118862152 -0.564713180065155 0.4728682041168213
0.16279065608978271 -0.5540563464164734 0.674418568611145
0.16279065608978271 -0.5355128645896912 0.41085267066955566
0.16279065608978271 -0.544134259223938 0.42635655403137207
0.16279065608978271 -0.5406655073165894 0.6589146852493286
0.16279065608978271 -0.5218750834465027 0.39534878730773926
0.16279065608978271 -0.5292879939079285 0.6434108018875122
0.16279065608978271 -0.47244757413864136 0.39534878730773926
0.16279065608978271 -0.46311885118484497 0.41085267066955566
0.16279065608978271 -0.46752238273620605 0.6279069185256958
0.16279065608978271 -0.45577162504196167 0.42635655403137207
0.16279065608978271 -0.4520420730113983 0.44186046719551086
0.16279065608978271 -0.44890227913856506 0.4573643207550049
0.16279065608978271 -0.44542428851127625 0.4728682041168213
0.16279065608978271 -0.4450603723526001 0.5968992710113525
0.16279065608978271 -0.45392465591430664 0.612403154373169
0.16279065608978271 -0.4411786198616028 0.4883720576763153
0.16279065608978271 -0.4384491443634033 0.5038759708404541
0.16279065608978271 -0.43656644225120544 0.5193798542022705
0.16279065608978271 -0.4351906180381775 0.5348837375640869
0.16279065608978271 -0.4347818195819855 0.5503876209259033
0.16279065608978271 -0.4354912042617798 0.5658915042877197
0.1627906709909439 -0.4384600520133972 0.5813953876495361
0.16279065608978271 -0.36854076385498047 -0.02325582504272461
0.16279065608978271 -0.37168556451797485 -0.007751941680908203
0.16279065608978271 -0.3737894892692566 0.007751941680908203
0.16279065608978271 -0.37546759843826294 0.02325582504272461
0.16279065608978271 -0.3768044114112854 0.038759708404541016
0.16279065608978271 -0.3779263496398926 0.05426359176635742
0.16279065608978271 -0.3781268894672394 0.06976747512817383
0.16279065608978271 -0.37799379229545593 0.08527135848999023
0.16279065608978271 -0.37646374106407166 0.10077524185180664
0.16279065608978271 -0.3723817467689514 0.11627912521362305
0.16279065608978271 -0.3546393811702728 -0.08527129888534546
0.16279065608978271 -0.35840994119644165 -0.06976741552352905
0.16279065608978271 -0.36062857508659363 -0.05426359176635742
0.1627906709909439 -0.3641308844089508 -0.038759708404541016
0.16279065608978271 -0.3622184991836548 0.1317828893661499
0.16279065608978271 -0.35072657465934753 0.1472867727279663
0.16279065608978271 -0.33558475971221924 -0.14728683233261108
0.16279065608978271 -0.34175992012023926 -0.13178294897079468
0.16279065608978271 -0.3447389602661133 -0.11627906560897827
0.16279065608978271 -0.34846410155296326 -0.10077518224716187
0.16279065608978271 -0.3357090950012207 0.16279065608978271
0.16279065608978271 -0.31878241896629333 -0.19379842281341553
0.16279065608978271 -0.32484519481658936 -0.1782945990562439
0.16279065608978271 -0.3294188678264618 -0.1627907156944275
0.16279065608978271 -0.30363401770591736 -0.25581395626068115
0.16279065608978271 -0.3070032596588135 -0.24031007289886475
0.16279065608978271 -0.3106945753097534 -0.22480618953704834
0.16279065608978271 -0.3138502240180969 -0.20930230617523193
0.16279065608978271 -0.31208962202072144 0.17829453945159912
0.16279065608978271 -0.287804514169693 -0.8139535188674927
0.16279065608978271 -0.29227718710899353 -0.7984496355056763
0.16279065608978271 -0.2902737855911255 -0.7829457521438599
0.16279065608978271 -0.28912442922592163 -0.317829430103302
0.16279065608978271 -0.29351067543029785 -0.30232560634613037
0.16279065608978271 -0.29666459560394287 -0.28682172298431396
0.1627906709909439 -0.3001154363155365 -0.27131783962249756
0.16279065608978271 -0.28638312220573425 -0.7674418687820435
0.16279065608978271 -0.2789374887943268 -0.751937985420227
0.16279065608978271 -0.27193132042884827 -0.4418604373931885
0.16279065608978271 -0.2725631892681122 -0.42635661363601685
0.16279065608978271 -0.27322208881378174 -0.41085273027420044
0.16279065608978271 -0.27419161796569824 -0.39534884691238403
0.16279065608978271 -0.2761901617050171 -0.3798449635505676
0.16279065608978271 -0.27881568670272827 -0.3643410801887512
0.16279065608978271 -0.2814220190048218 -0.3488371968269348
0.16279065608978271 -0.2851913273334503 -0.3333333134651184
0.16279065608978271 -0.2693231403827667 -0.7364341020584106
0.16279065608978271 -0.2666897773742676 -0.7209302186965942
0.16279065608978271 -0.2668607234954834 -0.7054263353347778
0.16279065608978271 -0.26693177223205566 -0.6899224519729614
0.16279065608978271 -0.2666437327861786 -0.674418568611145
0.16279065608978271 -0.26580381393432617 -0.6589146852493286
0.16279065608978271 -0.26497912406921387 -0.6434108018875122
0.16279065608978271 -0.26456204056739807 -0.6279069781303406
0.16279065608978271 -0.2645896077156067 -0.6124030947685242
0.16279065608978271 -0.2646230459213257 -0.5968992114067078
0.16279065608978271 -0.2647136449813843 -0.5813953876495361
0.16279065608978271 -0.2651991546154022 -0.5658915042877197
0.16279065608978271 -0.26589637994766235 -0.5503876209259033
0.16279065608978271 -0.26655158400535583 -0.5348837375640869
0.16279065608978271 -0.26723068952560425 -0.5193798542022705
0.16279065608978271 -0.2684043347835541 -0.5038759708404541
0.16279065608978271 -0.26913273334503174 -0.4883720874786377
0.16279065608978271 -0.2699354887008667 -0.4728682041168213
0.16279065608978271 -0.27121037244796753 -0.4573643207550049
0.16279065608978271 -0.23992671072483063 -0.8139535188674927
0.16279065608978271 -0.22794462740421295 -0.7984496355056763
0.16279065608978271 -0.23832806944847107 0.19379840791225433
0.16279065608978271 -0.22337990999221802 -0.7829456925392151
0.16279065608978271 -0.22187231481075287 -0.7674418687820435
0.16279065608978271 -0.22123537957668304 -0.751937985420227
0.16279065608978271 -0.21997271478176117 -0.7364341020584106
0.16279065608978271 -0.21656496822834015 -0.7209302186965942
0.16279065608978271 -0.21043694019317627 -0.7054263353347778
0.16279065608978271 -0.20685826241970062 -0.6899224519729614
0.16279065608978271 -0.20508110523223877 -0.674418568611145
0.16279065608978271 -0.20402280986309052 -0.6589146852493286
0.16279065608978271 -0.20319458842277527 -0.6434108018875122
0.16279065608978271 -0.20269475877285004 -0.6279069781303406
0.16279065608978271 -0.20227032899856567 -0.6124030947685242
0.16279065608978271 -0.20173771679401398 -0.5968992114067078
0.16279065608978271 -0.2011992335319519 -0.5813953876495361
0.16279065608978271 -0.20048511028289795 -0.5658915042877197
0.16279065608978271 -0.1992381513118744 -0.5503876209259033
0.16279065608978271 -0.19724616408348083 -0.5348837375640869
0.16279065608978271 -0.19610393047332764 -0.5193798542022705
0.16279065608978271 -0.19735287129878998 -0.5038759708404541
0.16279065608978271 -0.20028415322303772 -0.4883720874786377
0.16279065608978271 -0.2024628072977066 -0.4728682041168213
0.16279065608978271 -0.2038792073726654 -0.4573643207550049
0.16279065608978271 -0.20465053617954254 -0.4418604373931885
0.16279065608978271 -0.20467910170555115 -0.42635661363601685
0.16279065608978271 -0.20392096042633057 -0.41085273027420044
0.16279065608978271 -0.20231616497039795 -0.39534884691238403
0.16279065608978271 -0.19809654355049133 -0.3798449635505676
0.16279065608978271 -0.1923263669013977 -0.3643411099910736
0.16279065608978271 -0.18998707830905914 -0.3488371968269348
0.16279065608978271 -0.18686535954475403 -0.3333333134651184
0.16279065608978271 -0.17930512130260468 0.20930230617523193
0.16279065608978271 -0.1778430938720703 -0.317829430103302
0.16279065608978271 -0.17287126183509827 -0.30232560634613037
0.16279065608978271 -0.16228635609149933 -0.28682172298431396
0.16279065608978271 -0.15569376945495605 -0.27131783962249756
0.16279065608978271 -0.16246415674686432 0.20930230617523193
0.16279065608978271 -0.1442386358976364 -0.25581395626068115
0.16279065608978271 -0.13178668916225433 -0.24031007289886475
0.16279065608978271 -0.11507877707481384 -0.22480618953704834
0.16279065608978271 -0.10569119453430176 0.19379842281341553
0.16279065608978271 -0.08593648672103882 -0.20930230617523193
0.16279065608978271 -0.0441940501332283 -0.19379842281341553
