0.11627912521362305 0.7673355937004089 -0.3333333134651184
0.11627912521362305 0.760486364364624 -0.317829430103302
0.11627912521362305 0.7520069479942322 -0.30232560634613037
0.11627912521362305 0.752708911895752 -0.1627907156944275
0.11627912521362305 0.7591387033462524 -0.14728683233261108
0.11627912521362305 0.7617356777191162 0.19379842281341553
0.11627912521362305 0.7777391672134399 -0.3488371968269348
0.11627912521362305 0.7684583067893982 -0.13178294897079468
0.11627912521362305 0.7747124433517456 -0.11627906560897827
0.11627912521362305 0.7811297178268433 -0.10077518224716187
0.11627912521362305 0.7780511379241943 0.17829453945159912
0.11627912521362305 0.7838788628578186 -0.08527129888534546
0.11627912521362305 0.7850069999694824 -0.06976741552352905
0.11627912521362305 0.7862515449523926 -0.05426359176635742
0.11627912521362305 0.7879025936126709 -0.038759708404541016
0.11627912521362305 0.7902412414550781 -0.02325582504272461
0.11627912521362305 0.7939586043357849 -0.007751941680908203
0.11627912521362305 0.7907209396362305 0.16279065608978271
0.11627912521362305 0.8071601986885071 -0.3488371968269348
0.11627912521362305 0.80372554063797 -0.20930230617523193
0.11627912521362305 0.7987507581710815 0.007751941680908203
0.11627912521362305 0.801396369934082 0.02325582504272461
0.11627912521362305 0.8046149611473083 0.038759708404541016
0.11627912521362305 0.8085666298866272 0.05426359176635742
0.11627912521362305 0.8126503229141235 0.06976747512817383
0.11627912521362305 0.8126494288444519 0.11627912521362305
0.11627912521362305 0.8090234994888306 0.1317828893661499
0.11627912521362305 0.7997811436653137 0.1472867727279663
0.11627912521362305 0.824248194694519 -0.3333333134651184
0.11627912521362305 0.8196374177932739 -0.22480618953704834
0.11627912521362305 0.8146054148674011 0.08527135848999023
0.11627912521362305 0.8146375417709351 0.10077524185180664
0.11627912521362305 0.8377518057823181 -0.7364341020584106
0.11627912521362305 0.8415747880935669 -0.317829430103302
0.11627912521362305 0.8372002840042114 -0.24031007289886475
0.11627912521362305 0.8575568199157715 -0.7209302186965942
0.11627912521362305 0.8598291873931885 -0.24031007289886475
0.11627912521362305 0.8639553785324097 -0.7054263353347778
0.11627912521362305 0.862926721572876 -0.6899224519729614
0.11627913266420364 0.8772400617599487 -0.317829430103302
0.11627912521362305 0.8918966054916382 -0.3333333134651184
0.11627911776304245 0.9123786687850952 -0.24031007289886475
0.11627912521362305 0.9270003437995911 -0.3333333134651184
0.11627912521362305 0.9316990375518799 -0.317829430103302
0.11627912521362305 0.9340760707855225 -0.30232560634613037
0.11627912521362305 0.9346762895584106 -0.28682172298431396
0.11627912521362305 0.9333558082580566 -0.27131783962249756
0.11627912521362305 0.9284685254096985 -0.25581395626068115
0.1317828893661499 -0.77181077003479 0.4883720874786377
0.1317828893661499 -0.7723116874694824 0.5038759708404541
0.1317828893661499 -0.761893630027771 0.4728682041168213
0.1317828893661499 -0.7665212154388428 0.5193798542022705
0.1317828893661499 -0.7595863342285156 0.5348837375640869
0.1317828893661499 -0.7552304863929749 0.5503876209259033
0.1317828893661499 -0.7534196376800537 0.5658915042877197
0.1317828893661499 -0.7495129704475403 0.5813953876495361
0.1317828893661499 -0.7432301044464111 0.5968992710113525
0.1317828893661499 -0.7366525530815125 0.612403154373169
0.1317828893661499 -0.7291498184204102 0.6279069185256958
0.1317828893661499 -0.721955418586731 0.6434108018875122
0.1317828893661499 -0.7135371565818787 0.4573643207550049
0.1317828893661499 -0.7155148386955261 0.6589146852493286
0.1317828893661499 -0.7063115835189819 0.674418568611145
0.1317828893661499 -0.6975321769714355 0.6899224519729614
0.1317828893661499 -0.6572810411453247 0.4418604373931885
0.1317828893661499 -0.6285759210586548 0.42635655403137207
0.1317828893661499 -0.6288862228393555 0.6899224519729614
0.1317828893661499 -0.6128174662590027 0.41085267066955566
0.1317828893661499 -0.6190685033798218 0.6899224519729614
0.1317828893661499 -0.5977381467819214 0.39534878730773926
0.1317828893661499 -0.5825016498565674 0.37984490394592285
0.1317828893661499 -0.567057192325592 0.364341139793396
0.1317828893661499 -0.5528867244720459 0.3488372564315796
0.1317828893661499 -0.5374013185501099 0.3333333730697632
0.1317828893661499 -0.5214698910713196 0.3178294897079468
0.1317828893661499 -0.506469190120697 0.30232560634613037
0.1317828893661499 -0.5112267732620239 0.6899224519729614
0.1317828893661499 -0.4927850663661957 0.28682172298431396
0.1317828893661499 -0.48098859190940857 0.27131783962249756
0.1317828893661499 -0.4862818121910095 0.674418568611145
0.1317828893661499 -0.4580461084842682 0.20930230617523193
0.1317828893661499 -0.4609849452972412 0.22480618953704834
0.1317828893661499 -0.4647125005722046 0.24031007289886475
0.1317828893661499 -0.4715725779533386 0.25581395626068115
0.1317828893661499 -0.46483010053634644 0.6589146852493286
0.1317828893661499 -0.44534945487976074 0.1472867727279663
0.1317828893661499 -0.4477028250694275 0.16279065608978271
0.1317828893661499 -0.4501664638519287 0.17829453945159912
0.1317828893661499 -0.4531717002391815 0.19379842281341553
0.1317828893661499 -0.4436739683151245 0.6434108018875122
0.1317828893661499 -0.4346335828304291 0.11627912521362305
0.1317828893661499 -0.44032973051071167 0.1317828893661499
0.1317828893661499 -0.41273537278175354 0.06976747512817383
0.1317828893661499 -0.42009437084198 0.08527135848999023
0.1317828893661499 -0.4263004958629608 0.10077524185180664
0.1317828893661499 -0.4226614832878113 0.6279069185256958
0.1317828893661499 -0.3994874358177185 0.038759708404541016
0.1317828893661499 -0.4059150516986847 0.05426359549164772
0.1317828893661499 -0.4061899781227112 0.612403154373169
0.1317828893661499 -0.3820739686489105 -0.007751941680908203
0.1317828893661499 -0.3884417414665222 0.007751941680908203
0.1317828893661499 -0.39246538281440735 0.02325582318007946
0.1317828893661499 -0.39131927490234375 0.5968992710113525
0.1317828893661499 -0.36608171463012695 -0.05426359176635742
0.1317828893661499 -0.3728979229927063 -0.038759708404541016
0.1317828893661499 -0.37654218077659607 -0.02325582504272461
0.1317828893661499 -0.37720897793769836 0.5813953876495361
0.1317828893661499 -0.3531882166862488 -0.08527129888534546
0.1317828893661499 -0.3596014678478241 -0.06976741552352905
0.1317828893661499 -0.35033470392227173 0.5503876209259033
0.1317828893661499 -0.36361899971961975 0.5658915042877197
0.1317828893661499 -0.33860987424850464 -0.11627906560897827
0.1317828893661499 -0.3447098731994629 -0.10077518224716187
0.1317828893661499 -0.33440425992012024 0.5348837375640869
0.1317828893661499 -0.3221641778945923 -0.14728683233261108
0.1317828893661499 -0.32870322465896606 -0.13178294897079468
0.1317828893661499 -0.3182452917098999 0.5193798542022705
0.1317828893661499 -0.3066459894180298 -0.7364341020584106
0.1317828893661499 -0.30556949973106384 -0.7209302186965942
0.1317828893661499 -0.3042449355125427 -0.19379842281341553
0.1317828893661499 -0.31034064292907715 -0.1782945990562439
0.1317828893661499 -0.31499356031417847 -0.1627907156944275
0.1317828893661499 -0.2930750846862793 -0.7054263353347778
0.1317828893661499 -0.29209938645362854 -0.22480618953704834
0.1317828893661499 -0.2981213331222534 -0.20930230617523193
0.1317828893661499 -0.30166858434677124 0.5038759708404541
0.1317828893661499 -0.2717403173446655 -0.27131783962249756
0.1317828893661499 -0.2782527208328247 -0.25581395626068115
0.1317828893661499 -0.28428414463996887 -0.24031007289886475
0.1317828893661499 -0.28353703022003174 0.4883720874786377
0.1317828893661499 -0.2668033242225647 -0.6899224519729614
0.1317828893661499 -0.25704801082611084 -0.317829430103302
0.1317828893661499 -0.2620464563369751 -0.30232560634613037
0.1317828893661499 -0.26580122113227844 -0.28682172298431396
0.1317828893661499 -0.26805579662323 0.4728682041168213
0.1317828893661499 -0.2451292872428894 -0.674418568611145
0.1317828893661499 -0.24671342968940735 -0.3488371968269348
0.1317828893661499 -0.25151950120925903 -0.3333333134651184
0.1317828893661499 -0.24558961391448975 0.4418604373931885
0.1317828893661499 -0.25567445158958435 0.4573643207550049
0.1317828893661499 -0.23737476766109467 -0.6589146852493286
0.1317828893661499 -0.23513157665729523 -0.643410861492157
0.1317828893661499 -0.23456713557243347 -0.6279069781303406
0.1317828893661499 -0.2337540090084076 -0.6124030947685242
0.1317828893661499 -0.2319221794605255 -0.5968992114067078
0.1317828893661499 -0.22937583923339844 -0.5813953876495361
0.1317828893661499 -0.22684499621391296 -0.5658915042877197
0.1317828893661499 -0.2255115509033203 -0.5503876209259033
0.1317828893661499 -0.22503140568733215 -0.4573643207550049
0.1317828893661499 -0.22565129399299622 -0.4418604373931885
0.1317828893661499 -0.22700773179531097 -0.42635661363601685
0.1317828893661499 -0.2297154664993286 -0.41085273027420044
0.1317828893661499 -0.23315826058387756 -0.39534884691238403
0.1317828893661499 -0.23631837964057922 -0.3798449635505676
0.1317828893661499 -0.24016784131526947 -0.36434105038642883
0.1317828893661499 -0.23346862196922302 0.42635655403137207
0.1317828893661499 -0.22446787357330322 -0.5348837375640869
0.1317828893661499 -0.22412468492984772 -0.5193798542022705
0.1317828893661499 -0.22421003878116608 -0.5038759708404541
0.1317828893661499 -0.22428438067436218 -0.4883720874786377
0.1317828893661499 -0.22457389533519745 -0.4728682041168213
0.1317828893661499 -0.2103685438632965 0.39534878730773926
0.1317828893661499 -0.22307954728603363 0.41085267066955566
0.1317828893661499 -0.19542376697063446 0.37984490394592285
0.1317828893661499 -0.19225235283374786 -0.7364341020584106
0.1317828893661499 -0.18129009008407593 -0.7209302186965942
0.1317828893661499 -0.1789461374282837 0.364341139793396
0.1317828893661499 -0.17355874180793762 -0.7054263353347778
0.1317828893661499 -0.16934466361999512 -0.6899224519729614
0.1317828893661499 -0.16573356091976166 -0.674418568611145
0.1317828893661499 -0.163340225815773 -0.6589146852493286
0.1317828893661499 -0.16232968866825104 -0.643410861492157
0.1317828893661499 -0.16218547523021698 -0.6279069781303406
0.1317828893661499 -0.16198454797267914 -0.612403154373169
0.1317828893661499 -0.1613215208053589 -0.5968992114067078
0.1317828893661499 -0.16019794344902039 -0.5813953876495361
0.1317828893661499 -0.1584494411945343 -0.5658915042877197
0.1317828893661499 -0.15599393844604492 -0.5503876209259033
0.1317828893661499 -0.15294522047042847 -0.5348837375640869
0.1317828893661499 -0.14988431334495544 -0.5193798542022705
0.1317828893661499 -0.160126730799675 0.3488372564315796
0.1317828893661499 -0.14665323495864868 -0.5038759708404541
0.1317828893661499 -0.14472845196723938 -0.4883720874786377
0.1317828893661499 -0.14291848242282867 -0.4728682041168213
0.1317828893661499 -0.14146116375923157 -0.4573643207550049
0.1317828893661499 -0.13951438665390015 -0.4418604373931885
0.1317828893661499 -0.13699139654636383 -0.42635661363601685
0.1317828893661499 -0.13396883010864258 -0.41085273027420044
0.1317828893661499 -0.14098279178142548 0.3333333730697632
0.1317828893661499 -0.1316404640674591 -0.3953488767147064
0.1317828893661499 -0.13046634197235107 -0.3798449635505676
0.1317828893661499 -0.12895500659942627 -0.3643410801887512
0.1317828893661499 -0.12585976719856262 -0.3488371968269348
0.1317828893661499 -0.12045814841985703 -0.3333333134651184
0.1317828893661499 -0.1211065948009491 0.3178294897079468
0.1317828893661499 -0.11436060816049576 -0.317829430103302
0.1317828893661499 -0.10745160281658173 -0.30232560634613037
0.1317828893661499 -0.09804092347621918 -0.28682172298431396
0.1317828893661499 -0.08862988650798798 -0.27131783962249756
0.1317828893661499 -0.09886523336172104 0.30232560634613037
0.1317828893661499 -0.07380817830562592 0.28682172298431396
0.1317828893661499 -0.06712605059146881 -0.25581395626068115
0.1317828893661499 -0.04838309437036514 0.27131783962249756
0.1317828893661499 -0.027550633996725082 -0.24031007289886475
0.1317828893661499 -0.019353829324245453 0.25581395626068115
0.1317828893661499 0.03719786927103996 0.24031007289886475
0.1317828893661499 0.10867764055728912 0.24031007289886475
0.1317828893661499 0.12833905220031738 -0.24031007289886475
0.1317828893661499 0.13447920978069305 -0.24031007289886475
0.1317828893661499 0.15562289953231812 0.25581395626068115
0.1317828893661499 0.18584945797920227 -0.22480618953704834
0.1317828893661499 0.20470193028450012 0.27131783962249756
0.1317828893661499 0.220733642578125 -0.22480618953704834
0.1317828893661499 0.29477450251579285 0.28682172298431396
0.1317828893661499 0.3654937148094177 -0.22480618953704834
0.1317828893661499 0.5066379308700562 0.28682172298431396
0.1317828893661499 0.570630669593811 -0.20930230617523193
0.1317828893661499 0.5885841250419617 0.27131783962249756
0.1317828893661499 0.6251181364059448 0.25581395626068115
0.1317828893661499 0.6323009729385376 -0.20930230617523193
0.1317828893661499 0.6581187844276428 0.24031007289886475
0.1317828893661499 0.6675716638565063 -0.22480618953704834
0.1317828893661499 0.6812329292297363 -0.24031007289886475
0.1317828893661499 0.7018882036209106 -0.7364341020584106
0.1317828893661499 0.6998502612113953 -0.7209302186965942
0.1317828893661499 0.7028903961181641 -0.7054263353347778
0.1317828893661499 0.6994588375091553 -0.27131783962249756
0.1317828893661499 0.6900984644889832 -0.25581395626068115
0.1317828893661499 0.6912557482719421 0.22480618953704834
0.1317828893661499 0.7164406776428223 -0.6899224519729614
0.1317828893661499 0.7202445268630981 -0.30232560634613037
0.1317828893661499 0.7104989886283875 -0.28682172298431396
0.1317828893661499 0.720198929309845 0.20930230617523193
0.1317828893661499 0.7308897972106934 -0.317829430103302
0.1317828893661499 0.7443389892578125 -0.674418568611145
0.1317828893661499 0.74969083070755 -0.3798449635505676
0.1317828893661499 0.7463458180427551 -0.3643410801887512
0.1317828893661499 0.7430238723754883 -0.3488371968269348
0.1317828893661499 0.7372917532920837 -0.333333283662796
0.1317828893661499 0.745797872543335 0.19379842281341553
0.1317828893661499 0.7611051797866821 -0.41085273027420044
0.1317828893661499 0.75482177734375 -0.3953488767147064
0.1317828893661499 0.7642278075218201 0.17829453945159912
0.1317828893661499 0.7798705101013184 -0.4418604373931885
0.1317828893661499 0.7683145999908447 -0.42635661363601685
0.1317828893661499 0.7792978286743164 -0.14728683233261108
0.1317828893661499 0.7791644930839539 -0.13178294897079468
0.1317828893661499 0.7823388576507568 -0.11627906560897827
0.1317828893661499 0.7796722650527954 0.16279065608978271
0.1317828893661499 0.7945739030838013 -0.6589146852493286
0.1317828893661499 0.7929128408432007 -0.1782945990562439
0.1317828893661499 0.7850056886672974 -0.1627907156944275
0.1317828893661499 0.7836851477622986 -0.10077518224716187
0.1317828893661499 0.7845439910888672 -0.08527129888534546
0.1317828893661499 0.785469651222229 -0.06976741552352905
0.1317828893661499 0.786664605140686 -0.05426359176635742
0.1317828893661499 0.7883315086364746 -0.038759708404541016
0.1317828893661499 0.7907148003578186 -0.02325582504272461
0.1317828893661499 0.7940583229064941 -0.007751941680908203
0.1317828893661499 0.7927851676940918 0.1472867727279663
0.1317828893661499 0.8090314269065857 -0.643410861492157
0.1317828893661499 0.8033331632614136 -0.19379842281341553
0.1317828893661499 0.798516035079956 0.007751941680908203
0.1317828893661499 0.8006947636604309 0.02325582504272461
0.1317828893661499 0.803989052772522 0.038759708404541016
0.1317828893661499 0.8080785274505615 0.05426359176635742
0.1317828893661499 0.8111594319343567 0.06976747512817383
0.1317828893661499 0.8122020959854126 0.08527135848999023
0.1317828893661499 0.8116872906684875 0.10077524185180664
0.1317828893661499 0.8084167242050171 0.11627912521362305
0.1317828893661499 0.8005711436271667 0.1317828893661499
0.1317828893661499 0.8147986531257629 -0.6279070377349854
0.1317828893661499 0.8176579475402832 -0.6124030947685242
0.1317828893661499 0.8191942572593689 -0.5968992114067078
0.1317828893661499 0.8215699195861816 -0.5813953876495361
0.1317828893661499 0.8240724802017212 -0.5658915042877197
0.1317828893661499 0.8266112208366394 -0.5503876209259033
0.1317828893661499 0.8285654187202454 -0.5348837375640869
0.1317828893661499 0.829369068145752 -0.5193798542022705
0.1317828893661499 0.8287877440452576 -0.5038759708404541
0.1317828893661499 0.8286343216896057 -0.4883720874786377
0.1317828893661499 0.825355052947998 -0.4418604373931885
0.1317828893661499 0.8285214900970459 -0.22480618953704834
0.1317828893661499 0.8146734833717346 -0.20930229127407074
0.1317828893661499 0.8298104405403137 -0.4728682041168213
0.1317828893661499 0.8309647440910339 -0.4573643207550049
0.1317828893661499 0.8301094770431519 -0.4418604373931885
0.1317828893661499 0.8603982925415039 -0.24031007289886475
0.1317828893661499 0.8623164296150208 -0.7364340424537659
0.1317828893661499 0.876380980014801 -0.7209302186965942
0.1317828893661499 0.8800210952758789 -0.7054263353347778
0.1317828893661499 0.8831876516342163 -0.6899224519729614
0.1317828893661499 0.8857522010803223 -0.674418568611145
0.1317828893661499 0.8889462947845459 -0.6589146852493286
0.1317828893661499 0.892311692237854 -0.6434109210968018
0.1317828893661499 0.8942756056785583 -0.6279069781303406
0.1317828893661499 0.8973532319068909 -0.6124030947685242
0.1317828893661499 0.9023582935333252 -0.5968992114067078
0.1317828893661499 0.9058551788330078 -0.5813953876495361
0.1317828893661499 0.9078079462051392 -0.5658915042877197
0.1317828893661499 0.9101235866546631 -0.5503876209259033
0.1317828893661499 0.9139871001243591 -0.5348837375640869
0.1317828893661499 0.9188805818557739 -0.5193798542022705
0.1317828893661499 0.9210303425788879 -0.5038759708404541
0.1317828893661499 0.9223074316978455 -0.4883720874786377
0.1317828893661499 0.9128401279449463 -0.25581395626068115
0.1317828893661499 0.9248401522636414 -0.4728682041168213
0.1317828893661499 0.9270326495170593 -0.4573643207550049
0.1317828893661499 0.928650438785553 -0.4418604373931885
0.1317828893661499 0.9299386739730835 -0.42635661363601685
0.1317828893661499 0.930990993976593 -0.41085273027420044
0.1317828893661499 0.9313656091690063 -0.39534884691238403
0.1317828893661499 0.9316284656524658 -0.3798449635505676
0.1317828893661499 0.9319403171539307 -0.3643410801887512
0.1317828893661499 0.9322065711021423 -0.3488371968269348
0.1317828893661499 0.9321841597557068 -0.3333333134651184
0.1317828893661499 0.9319649934768677 -0.317829430103302
0.1317828893661499 0.9313247203826904 -0.30232560634613037
0.1317828893661499 0.9293332099914551 -0.28682172298431396
0.1317828893661499 0.9235618114471436 -0.27131783962249756
0.1472867727279663 -0.7246143817901611 0.5348837375640869
0.1472867727279663 -0.7315230369567871 0.5503876209259033
0.1472867727279663 -0.7334555387496948 0.5658915042877197
0.1472867727279663 -0.7330502271652222 0.5813953876495361
0.1472867727279663 -0.7315633296966553 0.5968992710113525
0.1472867727279663 -0.7258874773979187 0.612403154373169
0.1472867727279663 -0.7216914892196655 0.6279069185256958
0.1472867727279663 -0.7165542840957642 0.5038759708404541
0.1472867727279663 -0.715370774269104 0.5193798542022705
0.1472867727279663 -0.7181364297866821 0.6434108018875122
0.1472867727279663 -0.7111762166023254 0.6589146852493286
0.1472867727279663 -0.7064603567123413 0.674418568611145
0.1472867727279663 -0.7002390623092651 0.4883720874786377
0.1472867727279663 -0.7021437883377075 0.6899224519729614
0.1472867727279663 -0.6942015290260315 0.7054263353347778
0.1472867727279663 -0.6748753786087036 0.4728682041168213
0.1472867727279663 -0.6760765314102173 0.7209302186965942
0.1472867727279663 -0.6727039813995361 0.720930278301239
0.1472867727279663 -0.6388349533081055 0.4573643207550049
0.1472867727279663 -0.6364195346832275 0.7054263353347778
0.1472867727279663 -0.6127023696899414 0.42635655403137207
0.1472867727279663 -0.6247240304946899 0.4418604373931885
0.1472867727279663 -0.5986301302909851 0.41085267066955566
0.1472867727279663 -0.5828037858009338 0.39534878730773926
0.1472867727279663 -0.5674314498901367 0.37984490394592285
0.1472867727279663 -0.5731266140937805 0.7054263353347778
0.1472867727279663 -0.5532888770103455 0.364341139793396
0.1472867727279663 -0.5387957096099854 0.3488372564315796
0.1472867727279663 -0.5237826108932495 0.3333333730697632
0.1472867727279663 -0.5298357009887695 0.7054263353347778
0.1472867727279663 -0.509034276008606 0.3178294897079468
0.1472867727279663 -0.49454405903816223 0.30232560634613037
0.1472867727279663 -0.5028650164604187 0.6899224519729614
0.1472867727279663 -0.4811551570892334 0.28682172298431396
0.1472867727279663 -0.4857109785079956 0.6744185090065002
0.1472867727279663 -0.46080392599105835 0.25581395626068115
0.1472867727279663 -0.46954846382141113 0.27131783962249756
0.1472867727279663 -0.46916401386260986 0.6589146852493286
0.1472867727279663 -0.4426533579826355 0.19379842281341553
0.1472867727279663 -0.44693881273269653 0.20930230617523193
0.1472867727279663 -0.4493107199668884 0.22480618953704834
0.1472867727279663 -0.45217156410217285 0.24031007289886475
0.1472867727279663 -0.45038479566574097 0.6434108018875122
0.1472867727279663 -0.43049946427345276 0.1317828893661499
0.1472867727279663 -0.4345424175262451 0.1472867727279663
0.1472867727279663 -0.4359559714794159 0.16279065608978271
0.1472867727279663 -0.438283234834671 0.17829452455043793
0.1472867727279663 -0.4323784410953522 0.6279069185256958
0.1472867727279663 -0.41357338428497314 0.10077524185180664
0.1472867727279663 -0.42144039273262024 0.11627912521362305
0.1472867727279663 -0.4166163206100464 0.612403154373169
0.1472867727279663 -0.3991095721721649 0.06976747512817383
0.1472867727279663 -0.40601104497909546 0.08527135848999023
0.1472867727279663 -0.4015883803367615 0.5968992710113525
0.1472867727279663 -0.38551080226898193 0.038759708404541016
0.1472867727279663 -0.39169418811798096 0.05426359176635742
0.1472867727279663 -0.38650408387184143 0.5813953876495361
0.1472867727279663 -0.37013742327690125 -0.007751941680908203
0.1472867727279663 -0.3747517466545105 0.007751941680908203
0.1472867727279663 -0.3786769509315491 0.02325582318007946
0.1472867727279663 -0.3720899820327759 0.5658915042877197
0.1472867727279663 -0.34953659772872925 -0.06976741552352905
0.1472867727279663 -0.35675960779190063 -0.05426359176635742
0.1472867727279663 -0.36066439747810364 -0.038759708404541016
0.1472867727279663 -0.3642304241657257 -0.02325582504272461
0.1472867727279663 -0.35859155654907227 0.5503876209259033
0.1472867727279663 -0.33862578868865967 -0.10077518224716187
0.1472867727279663 -0.3442170023918152 -0.08527129888534546
0.1472867727279663 -0.3456399142742157 0.5348837375640869
0.1472867727279663 -0.3201014995574951 -0.7364341020584106
0.1472867727279663 -0.31926849484443665 -0.7209302186965942
0.1472867727279663 -0.3250720500946045 -0.13178294897079468
0.1472867727279663 -0.3296414613723755 -0.11627906560897827
0.1472867727279663 -0.3317653238773346 0.5193798542022705
0.1472867727279663 -0.3068941533565521 -0.7054263353347778
0.1472867727279663 -0.30654942989349365 -0.1782945990562439
0.1472867727279663 -0.31247764825820923 -0.1627907156944275
0.1472867727279663 -0.3171422779560089 -0.14728683233261108
0.1472867727279663 -0.31720587611198425 0.5038759708404541
0.1472867727279663 -0.290862500667572 -0.22480618953704834
0.1472867727279663 -0.2964571714401245 -0.20930230617523193
0.1472867727279663 -0.3009456992149353 -0.19379842281341553
0.1472867727279663 -0.2988854646682739 0.4883720874786377
0.1472867727279663 -0.27742597460746765 -0.6899224519729614
0.1472867727279663 -0.27430903911590576 -0.27131783962249756
0.1472867727279663 -0.2798019051551819 -0.25581395626068115
0.1472867727279663 -0.28407102823257446 -0.24031007289886475
0.1472867727279663 -0.28202787041664124 0.4728682041168213
0.1472867727279663 -0.25656387209892273 -0.317829430103302
0.1472867727279663 -0.2621070444583893 -0.30232560634613037
0.1472867727279663 -0.2669668197631836 -0.28682172298431396
0.1472867727279663 -0.25797390937805176 0.4418604373931885
0.1472867727279663 -0.26839345693588257 0.4573643207550049
0.1472867727279663 -0.2476317584514618 -0.674418568611145
0.1472867727279663 -0.2445431351661682 -0.3488371968269348
0.1472867727279663 -0.2504539489746094 -0.3333333134651184
0.1472867727279663 -0.24746087193489075 0.42635655403137207
0.1472867727279663 -0.23679065704345703 -0.6589146852493286
0.1472867727279663 -0.23291999101638794 -0.6434108018875122
0.1472867727279663 -0.2307080328464508 -0.6279069781303406
0.1472867727279663 -0.22848859429359436 -0.6124030947685242
0.1472867727279663 -0.22666454315185547 -0.5968992114067078
0.1472867727279663 -0.22488252818584442 -0.5813953876495361
0.1472867727279663 -0.22639869153499603 -0.41085273027420044
0.1472867727279663 -0.22992484271526337 -0.39534884691238403
0.1472867727279663 -0.2342226803302765 -0.3798449635505676
0.1472867727279663 -0.23863698542118073 -0.3643410801887512
0.1472867727279663 -0.22678057849407196 0.39534878730773926
0.1472867727279663 -0.23709145188331604 0.41085267066955566
0.1472867727279663 -0.22240367531776428 -0.5658915042877197
0.1472867727279663 -0.2212287336587906 -0.5503876209259033
0.1472867727279663 -0.2205265909433365 -0.5348837375640869
0.1472867727279663 -0.22041472792625427 -0.5193798542022705
0.1472867727279663 -0.2205941081047058 -0.5038759708404541
0.1472867727279663 -0.22092491388320923 -0.4883720874786377
0.1472867727279663 -0.22149166464805603 -0.4728682041168213
0.1472867727279663 -0.22225987911224365 -0.4573643207550049
0.1472867727279663 -0.22323180735111237 -0.4418604373931885
0.1472867727279663 -0.2247847318649292 -0.42635661363601685
0.1472867727279663 -0.21163906157016754 0.37984490394592285
0.1472867727279663 -0.19586968421936035 0.364341139793396
0.1472867727279663 -0.1853940337896347 -0.7364341020584106
0.1472867727279663 -0.17881157994270325 0.3488372564315796
0.1472867727279663 -0.173017218708992 -0.7209302186965942
0.1472867727279663 -0.16834980249404907 -0.7054263353347778
0.1472867727279663 -0.16504544019699097 -0.6899224519729614
0.1472867727279663 -0.16244767606258392 -0.6744185090065002
0.1472867727279663 -0.16197434067726135 -0.6589146852493286
0.1472867727279663 -0.16135448217391968 -0.643410861492157
0.1472867727279663 -0.16108356416225433 -0.6279069781303406
0.1472867876291275 -0.1607333868741989 -0.6124030947685242
0.1472867727279663 -0.15967164933681488 -0.5968992114067078
0.1472867727279663 -0.15802748501300812 -0.5813953876495361
0.1472867727279663 -0.1558838188648224 -0.5658915042877197
0.1472867727279663 -0.15295468270778656 -0.5503876209259033
0.1472867727279663 -0.14868731796741486 -0.5348837375640869
0.1472867727279663 -0.15921524167060852 0.3333333730697632
0.1472867727279663 -0.14596477150917053 -0.5193798542022705
0.1472867727279663 -0.14379668235778809 -0.5038759708404541
0.1472867727279663 -0.14150039851665497 -0.4883721172809601
0.1472867727279663 -0.1391236037015915 -0.4728682041168213
0.1472867727279663 -0.1367260217666626 -0.4573643207550049
0.1472867727279663 -0.13334806263446808 -0.4418604373931885
0.1472867727279663 -0.13876384496688843 0.3178294897079468
0.1472867876291275 -0.130848228931427 -0.42635661363601685
0.1472867727279663 -0.12932835519313812 -0.41085273027420044
0.1472867727279663 -0.1282654106616974 -0.39534884691238403
0.1472867727279663 -0.12720519304275513 -0.3798449635505676
0.1472867727279663 -0.12565290927886963 -0.3643410801887512
0.1472867727279663 -0.12260213494300842 -0.3488371968269348
0.1472867727279663 -0.11775324493646622 -0.3333333134651184
0.1472867727279663 -0.11837565153837204 0.30232560634613037
0.1472867727279663 -0.11387032270431519 -0.317829430103302
0.1472867727279663 -0.10805553197860718 -0.30232560634613037
0.1472867727279663 -0.09883208572864532 -0.28682172298431396
0.1472867727279663 -0.09181858599185944 -0.27131783962249756
0.1472867727279663 -0.09709500521421432 0.28682172298431396
0.1472867727279663 -0.07951295375823975 -0.25581395626068115
0.1472867727279663 -0.07379086315631866 0.27131783962249756
0.1472867727279663 -0.05958659201860428 -0.24031007289886475
0.1472867727279663 -0.040837544947862625 -0.22480618953704834
0.1472867727279663 -0.04958104342222214 0.25581395626068115
0.1472867727279663 -0.025998808443546295 -0.20930230617523193
0.1472867727279663 -0.017814483493566513 0.24031007289886475
0.1472867727279663 0.0030703097581863403 -0.19379842281341553
0.1472867727279663 0.009913078509271145 -0.19379842281341553
0.1472867727279663 0.047589078545570374 0.22480618953704834
0.1472867727279663 0.06610086560249329 -0.20930230617523193
0.1472867727279663 0.0985192060470581 0.22480618953704834
0.1472867727279663 0.15146371722221375 0.24031008780002594
0.1472867727279663 0.18766802549362183 -0.20930230617523193
0.1472867727279663 0.18856081366539001 0.25581395626068115
0.1472867727279663 0.19430497288703918 -0.20930230617523193
0.1472867727279663 0.26393693685531616 0.27131783962249756
0.1472867727279663 0.4516404867172241 -0.20930230617523193
0.1472867727279663 0.5097084045410156 -0.20930232107639313
0.1472867727279663 0.5570641160011292 0.27131783962249756
0.1472867727279663 0.6011749505996704 0.25581395626068115
0.1472867727279663 0.6391229033470154 -0.22480618953704834
0.1472867727279663 0.6353954076766968 0.24031007289886475
0.1472867727279663 0.6586587429046631 -0.24031007289886475
0.1472867727279663 0.6714730858802795 -0.25581395626068115
0.1472867727279663 0.6694873571395874 0.22480618953704834
0.1472867727279663 0.683702290058136 -0.27131783962249756
0.1472867727279663 0.6980186104774475 -0.7364341020584106
0.1472867727279663 0.6956803798675537 -0.7209302186965942
0.1472867727279663 0.6992200613021851 -0.7054263353347778
0.1472867727279663 0.696259617805481 -0.28682172298431396
0.1472867727279663 0.7017433047294617 0.20930230617523193
0.1472867727279663 0.711695671081543 -0.6899224519729614
0.1472867727279663 0.7175562381744385 -0.317829430103302
0.1472867727279663 0.7077575922012329 -0.302325576543808
0.1472867727279663 0.7350540161132812 -0.674418568611145
0.1472867727279663 0.7346713542938232 -0.3643410801887512
0.1472867727279663 0.7317662239074707 -0.3488371968269348
0.1472867727279663 0.7266579270362854 -0.3333333134651184
0.1472867727279663 0.7299717664718628 0.19379842281341553
0.1472867727279663 0.749176025390625 -0.41085273027420044
0.1472867727279663 0.7449267506599426 -0.39534884691238403
0.1472867727279663 0.7387919425964355 -0.3798449635505676
0.1472867727279663 0.7513986825942993 0.17829453945159912
0.1472867727279663 0.7616721391677856 -0.6589146852493286
0.1472867727279663 0.7663781642913818 -0.4573643207550049
0.1472867727279663 0.7614734172821045 -0.4418604373931885
0.1472867727279663 0.7548595070838928 -0.42635661363601685
0.1472867727279663 0.7825732827186584 -0.643410861492157
0.1472867727279663 0.7817626595497131 -0.4883720874786377
0.1472867727279663 0.7744814157485962 -0.4728682041168213
0.1472867727279663 0.7812254428863525 0.1472867727279663
0.1472867727279663 0.7677658200263977 0.16279065608978271
0.1472867727279663 0.794331967830658 -0.5038759708404541
0.1472867727279663 0.7956628799438477 -0.1782945990562439
0.1472867727279663 0.7899000644683838 -0.1627907156944275
0.1472867727279663 0.7850882411003113 -0.14728683233261108
0.1472867727279663 0.7835804224014282 -0.13178294897079468
0.1472867727279663 0.7835313081741333 -0.11627906560897827
0.1472867727279663 0.7839171886444092 -0.10077518224716187
0.1472867727279663 0.7844984531402588 -0.08527130633592606
0.1472867727279663 0.7851995229721069 -0.06976741552352905
0.1472867727279663 0.7861276268959045 -0.05426359176635742
0.1472867727279663 0.7875403165817261 -0.038759708404541016
0.1472867727279663 0.7897539734840393 -0.02325582504272461
0.1472867727279663 0.7928851842880249 -0.007751941680908203
0.1472867727279663 0.7960659265518188 0.007751941680908203
0.1472867727279663 0.7984024882316589 0.11627912521362305
0.1472867727279663 0.7928118705749512 0.1317828893661499
0.1472867727279663 0.7991526126861572 -0.6279069185256958
0.1472867727279663 0.8047921657562256 -0.6124030947685242
0.1472867727279663 0.8064861297607422 -0.5968992114067078
0.1472867727279663 0.8085910081863403 -0.5813953876495361
0.1472867727279663 0.810337245464325 -0.5658915042877197
0.1472867727279663 0.8110913634300232 -0.5503876209259033
0.1472867727279663 0.8101670742034912 -0.5348837375640869
0.1472867727279663 0.8053091764450073 -0.5193798542022705
0.1472867727279663 0.8122222423553467 -0.20930230617523193
0.1472867727279663 0.8045238256454468 -0.19379842281341553
0.1472867727279663 0.799138605594635 0.02325582690536976
0.1472867727279663 0.8009105920791626 0.038759708404541016
0.1472867727279663 0.8032529354095459 0.05426358804106712
0.1472867727279663 0.8055022954940796 0.06976747512817383
0.1472867727279663 0.8054317235946655 0.08527135848999023
0.1472867727279663 0.8027263879776001 0.10077524185180664
0.1472867727279663 0.8241910934448242 -0.22480618953704834
0.1472867727279663 0.8410266041755676 -0.24031007289886475
0.1472867727279663 0.8673889636993408 -0.7364341020584106
0.1472867727279663 0.866358757019043 -0.25581395626068115
0.1472867727279663 0.8795327544212341 -0.7209302186965942
0.1472867727279663 0.8846121430397034 -0.7054263353347778
0.1472867727279663 0.8878988027572632 -0.6899224519729614
0.1472867727279663 0.8899057507514954 -0.674418568611145
0.1472867727279663 0.8924369215965271 -0.6589146852493286
0.1472867727279663 0.8943167328834534 -0.643410861492157
0.1472867727279663 0.8971253037452698 -0.6279069781303406
0.1472867727279663 0.9013374447822571 -0.6124030947685242
0.1472867727279663 0.9053053855895996 -0.5968992114067078
0.1472867727279663 0.9066503047943115 -0.28682172298431396
0.1472867727279663 0.8925560712814331 -0.27131783962249756
0.1472867727279663 0.9076025485992432 -0.5813953876495361
0.1472867727279663 0.9092344641685486 -0.5658915042877197
0.1472867727279663 0.9126653671264648 -0.5503876209259033
0.1472867727279663 0.9172968864440918 -0.5348837375640869
0.1472867727279663 0.920610249042511 -0.5193798542022705
0.1472867727279663 0.9220576286315918 -0.5038759708404541
0.1472867727279663 0.9218301773071289 -0.3333333134651184
0.1472867727279663 0.9197319149971008 -0.317829430103302
0.1472867727279663 0.9160820245742798 -0.30232560634613037
0.1472867876291275 0.9231213927268982 -0.4883720874786377
0.1472867727279663 0.9251532554626465 -0.4728682041168213
0.1472867727279663 0.9263104796409607 -0.4573643207550049
0.1472867727279663 0.9268298745155334 -0.4418604373931885
0.1472867727279663 0.927242636680603 -0.42635661363601685
0.1472867727279663 0.9272340536117554 -0.41085273027420044
0.1472867727279663 0.9265047311782837 -0.39534884691238403
0.1472867727279663 0.9253912568092346 -0.3798449635505676
0.1472867727279663 0.9242879152297974 -0.3643410801887512
0.1472867727279663 0.923041820526123 -0.3488371968269348
0.16279065608978271 -0.7153947353363037 0.5503876209259033
0.16279065608978271 -0.7186238169670105 0.5658915042877197
0.16279065608978271 -0.7179415822029114 0.5813953876495361
0.16279065608978271 -0.7165988683700562 0.5968992710113525
0.16279065608978271 -0.7140171527862549 0.612403154373169
0.16279065608978271 -0.7090175747871399 0.6279069185256958
0.16279065608978271 -0.7065135836601257 0.6434108018875122
0.16279065608978271 -0.7054925560951233 0.6589146852493286
0.16279065608978271 -0.6983649730682373 0.5348837375640869
0.16279065608978271 -0.7032636404037476 0.674418568611145
0.16279065608978271 -0.6993895769119263 0.6899224519729614
0.16279065608978271 -0.69490647315979 0.7054263353347778
0.16279065608978271 -0.6916030645370483 0.7209302186965942
0.16279065608978271 -0.6756711006164551 0.7364341020584106
0.16279065608978271 -0.6714520454406738 0.7364340424537659
0.16279065608978271 -0.653282642364502 0.5193798542022705
0.16279065608978271 -0.6370061635971069 0.7209302186965942
0.16279065608978271 -0.6160391569137573 0.4573643207550049
0.16279065608978271 -0.6207077503204346 0.4728682041168213
0.16279065608978271 -0.6243381500244141 0.4883720874786377
0.16279065608978271 -0.6275070309638977 0.5038759708404541
0.16279065608978271 -0.6084074974060059 0.4418604373931885
0.16279064118862152 -0.5963478684425354 0.42635655403137207
0.16279065608978271 -0.57970130443573 0.41085267066955566
0.16279065608978271 -0.5630285739898682 0.39534878730773926
0.16279065608978271 -0.536435067653656 0.364341139793396
0.16279065608978271 -0.5493380427360535 0.37984490394592285
0.16279065608978271 -0.5231863260269165 0.3488372564315796
0.16279065608978271 -0.524387001991272 0.7054263353347778
0.16279065608978271 -0.509820282459259 0.3333333730697632
0.16279065608978271 -0.5051522850990295 0.6899224519729614
0.16279065608978271 -0.49581485986709595 0.3178294897079468
0.16279065608978271 -0.49110618233680725 0.674418568611145
0.16279065608978271 -0.4815096855163574 0.30232560634613037
0.16279065608978271 -0.476561576128006 0.6589146852493286
0.16279065608978271 -0.4679816663265228 0.28682172298431396
0.16279065608978271 -0.46170908212661743 0.6434108018875122
0.16279065608978271 -0.44710659980773926 0.25581395626068115
0.16279065608978271 -0.4556351602077484 0.27131783962249756
0.16279065608978271 -0.4458727240562439 0.6279069185256958
0.16279065608978271 -0.4279949963092804 0.19379842281341553
0.16279065608978271 -0.4327664077281952 0.20930230617523193
0.16279065608978271 -0.4351736307144165 0.22480618953704834
0.16279065608978271 -0.4384717345237732 0.24031007289886475
0.16279065608978271 -0.43038231134414673 0.612403154373169
0.16279065608978271 -0.41190552711486816 0.1317828893661499
0.16279065608978271 -0.4184384346008301 0.1472867727279663
0.16279065608978271 -0.42053017020225525 0.16279065608978271
0.16279065608978271 -0.4231601357460022 0.17829453945159912
0.16279065608978271 -0.41554245352745056 0.5968992710113525
0.16279065608978271 -0.402985155582428 0.11627912521362305
0.16279065608978271 -0.40063005685806274 0.5813953876495361
0.16279065608978271 -0.3869975209236145 0.08527135848999023
0.16279065608978271 -0.3927931785583496 0.10077524185180664
0.16279065608978271 -0.3862385153770447 0.5658915042877197
0.16279065608978271 -0.3673756420612335 0.038759708404541016
0.16279065608978271 -0.37396758794784546 0.05426359176635742
0.16279065608978271 -0.3787229657173157 0.06976747512817383
0.16279065608978271 -0.37288129329681396 0.5503876209259033
0.16279065608978271 -0.3498997688293457 -0.02325582504272461
0.16279065608978271 -0.35476672649383545 -0.007751941680908203
0.16279065608978271 -0.35896727442741394 0.007751941680908203
0.16279065608978271 -0.36233052611351013 0.02325582690536976
0.16279065608978271 -0.34919917583465576 0.5193798542022705
0.16279065608978271 -0.3603909909725189 0.5348837375640869
0.16279065608978271 -0.33916616439819336 -0.06976741552352905
0.16279065608978271 -0.3438080847263336 -0.05426359176635742
0.16279065608978271 -0.3469819724559784 -0.038759708404541016
0.16279065608978271 -0.33702418208122253 0.5038759708404541
0.16279065608978271 -0.32155996561050415 -0.7364341020584106
0.16279065608978271 -0.32037872076034546 -0.7209302186965942
0.16279065608978271 -0.32186567783355713 -0.11627906560897827
0.16279065608978271 -0.3277909755706787 -0.10077518224716187
0.16279065608978271 -0.3322685658931732 -0.08527129888534546
0.16279065608978271 -0.32477301359176636 0.4883720874786377
0.16279065608978271 -0.3068585991859436 -0.7054263353347778
0.16279065608978271 -0.3055451214313507 -0.1627907156944275
0.16279065608978271 -0.3115062415599823 -0.14728683233261108
0.16279065608978271 -0.3144400417804718 -0.13178294897079468
0.16279065608978271 -0.3106348514556885 0.4728682041168213
0.16279065608978271 -0.29207178950309753 -0.20930230617523193
0.16279065608978271 -0.29664599895477295 -0.19379842281341553
0.16279064118862152 -0.299468457698822 -0.1782945990562439
0.16279065608978271 -0.2944059371948242 0.4573643207550049
0.16279065608978271 -0.27552440762519836 -0.6899224519729614
0.16279065608978271 -0.2759113907814026 -0.25581395626068115
0.16279065608978271 -0.28212064504623413 -0.24031007289886475
0.16279065608978271 -0.28537556529045105 -0.22480620443820953
0.16279065608978271 -0.27959805727005005 0.4418604373931885
0.16279065608978271 -0.25787416100502014 -0.30232560634613037
0.16279065608978271 -0.26536357402801514 -0.28682172298431396
0.16279065608978271 -0.2689569592475891 -0.27131783962249756
0.16279065608978271 -0.2577447295188904 0.41085267066955566
0.16279065608978271 -0.26682621240615845 0.42635655403137207
0.16279065608978271 -0.24586838483810425 -0.674418568611145
0.16279065608978271 -0.24347476661205292 -0.3333333134651184
0.16279065608978271 -0.2503957748413086 -0.317829430103302
0.16279065608978271 -0.24710950255393982 0.39534878730773926
0.16279065608978271 -0.23324665427207947 -0.6589146852493286
0.16279065608978271 -0.2284454107284546 -0.643410861492157
0.16279065608978271 -0.2248675525188446 -0.6279069781303406
0.16279065608978271 -0.22522152960300446 -0.3798449635505676
0.16279065608978271 -0.2307981252670288 -0.3643410801887512
0.16279065608978271 -0.23703515529632568 -0.3488371968269348
0.16279065608978271 -0.23273435235023499 0.37984490394592285
0.16279065608978271 -0.22025835514068604 -0.6124030947685242
0.16279065608978271 -0.21860390901565552 -0.5968992114067078
0.16279065608978271 -0.21657133102416992 -0.5813953876495361
0.16279065608978271 -0.21499305963516235 -0.5658915042877197
0.16279065608978271 -0.21402232348918915 -0.5503876209259033
0.16279065608978271 -0.21350963413715363 -0.5348837375640869
0.16279065608978271 -0.21393337845802307 -0.5193798542022705
0.16279065608978271 -0.2146592140197754 -0.5038759708404541
0.16279065608978271 -0.2154223620891571 -0.4883720874786377
0.16279065608978271 -0.21631553769111633 -0.4728682041168213
0.16279065608978271 -0.2172931730747223 -0.4573643207550049
0.16279065608978271 -0.21821624040603638 -0.4418604373931885
0.16279065608978271 -0.2191391885280609 -0.42635661363601685
0.16279065608978271 -0.2200704962015152 -0.41085273027420044
0.16279065608978271 -0.22165746986865997 -0.39534884691238403
0.16279065608978271 -0.2159702628850937 0.364341139793396
0.16279065608978271 -0.199029803276062 0.3488372564315796
0.16279065608978271 -0.18821179866790771 -0.7364341020584106
0.16279065608978271 -0.18168304860591888 0.3333333730697632
0.16279065608978271 -0.17432653903961182 -0.7209302186965942
0.16279065608978271 -0.16889488697052002 -0.7054263353347778
0.16279065608978271 -0.16698536276817322 -0.6899224519729614
0.16279065608978271 -0.1659519374370575 -0.674418568611145
0.16279065608978271 -0.16508862376213074 -0.6589146852493286
0.16279065608978271 -0.16337953507900238 -0.643410861492157
0.16279064118862152 -0.1627245992422104 -0.6279069781303406
0.16279065608978271 -0.1623717099428177 -0.6124030947685242
0.16279065608978271 -0.16123266518115997 -0.5968992710113525
0.16279065608978271 -0.15964680910110474 -0.5813953876495361
0.16279065608978271 -0.15743374824523926 -0.5658915042877197
0.16279065608978271 -0.15447503328323364 -0.5503876209259033
0.16279065608978271 -0.15045318007469177 -0.5348837375640869
0.1627906709909439 -0.16213202476501465 0.3178294897079468
0.16279065608978271 -0.14663052558898926 -0.5193798542022705
0.16279065608978271 -0.1445823311805725 -0.5038759708404541
0.16279065608978271 -0.14232563972473145 -0.4883720874786377
0.16279065608978271 -0.1396506428718567 -0.4728682041168213
0.16279065608978271 -0.1368950456380844 -0.4573643207550049
0.16279065608978271 -0.13336282968521118 -0.4418604373931885
0.16279065608978271 -0.14104968309402466 0.30232560634613037
0.16279064118862152 -0.13096553087234497 -0.42635658383369446
0.16279065608978271 -0.12981589138507843 -0.41085273027420044
0.16279065608978271 -0.12919922173023224 -0.39534884691238403
0.16279065608978271 -0.1286470890045166 -0.3798449635505676
0.16279065608978271 -0.12802574038505554 -0.3643410801887512
0.16279065608978271 -0.12648198008537292 -0.3488371968269348
0.16279065608978271 -0.12369058281183243 -0.3333333134651184
0.16279065608978271 -0.11965011805295944 -0.317829430103302
0.16279065608978271 -0.12088510394096375 0.28682172298431396
0.16279065608978271 -0.11363223195075989 -0.30232560634613037
0.16279065608978271 -0.10728263854980469 -0.28682172298431396
0.16279065608978271 -0.09822721034288406 -0.27131783962249756
0.16279065608978271 -0.08966608345508575 -0.25581395626068115
0.16279065608978271 -0.10069720447063446 0.27131786942481995
0.16279065608978271 -0.07646319270133972 -0.24031007289886475
0.16279065608978271 -0.07738426327705383 0.25581395626068115
0.16279065608978271 -0.06083831191062927 -0.22480618953704834
0.16279065608978271 -0.0473669171333313 -0.20930230617523193
0.16279065608978271 -0.05271917209029198 0.24031007289886475
0.16279065608978271 -0.03364412114024162 -0.19379842281341553
0.16279065608978271 -0.02384389564394951 0.22480618953704834
0.16279065608978271 -0.014294843189418316 -0.1782945990562439
0.16279065608978271 0.02761354297399521 -0.1782945990562439
0.16279065608978271 0.04851042851805687 0.20930230617523193
0.1627906709909439 0.07227630168199539 -0.19379842281341553
0.16279065608978271 0.08278144896030426 0.20930230617523193
0.16279065608978271 0.14836181700229645 0.22480620443820953
0.16279065608978271 0.18494515120983124 0.24031007289886475
0.16279065608978271 0.24467578530311584 0.25581395626068115
0.16279065608978271 0.27153629064559937 -0.20930232107639313
0.16279065608978271 0.34807005524635315 0.27131783962249756
0.16279065608978271 0.3976033926010132 0.27131783962249756
0.16279065608978271 0.41919636726379395 -0.20930230617523193
0.16279065608978271 0.53883296251297 -0.20930230617523193
0.16279065608978271 0.5700627565383911 0.25581395626068115
0.16279065608978271 0.6063091158866882 0.24031007289886475
0.16279065608978271 0.6173121929168701 -0.22480618953704834
0.16279065608978271 0.6407402753829956 0.22480618953704834
0.16279065608978271 0.6488692760467529 -0.24031007289886475
0.16279065608978271 0.6658341884613037 -0.25581395626068115
0.16279065608978271 0.6796834468841553 -0.27131783962249756
0.1627906709909439 0.677660346031189 0.20930230617523193
0.16279065608978271 0.6968417763710022 -0.7364341020584106
0.16279065608978271 0.6925089955329895 -0.7209302186965942
0.16279065608978271 0.6966652274131775 -0.7054263353347778
0.16279065608978271 0.7046731114387512 -0.30232560634613037
0.16279065608978271 0.6931180953979492 -0.28682172298431396
0.1627906709909439 0.70828777551651 -0.6899224519729614
0.16279065608978271 0.7157319188117981 -0.317829430103302
0.16279065608978271 0.7103149890899658 0.19379842281341553
0.16279065608978271 0.7315888404846191 -0.674418568611145
0.16279065608978271 0.7338969111442566 -0.3643410801887512
0.16279065608978271 0.7305697202682495 -0.3488371968269348
0.16279065608978271 0.7243066430091858 -0.333333283662796
0.16279065608978271 0.7358378767967224 0.17829453945159912
0.16279065608978271 0.7508190274238586 -0.6589146852493286
0.16279065608978271 0.7489412426948547 -0.41085273027420044
0.16279065608978271 0.7443588972091675 -0.39534884691238403
0.1627906709909439 0.7373954653739929 -0.3798449635505676
0.16279065608978271 0.7665143013000488 -0.4573643207550049
0.16279065608978271 0.7610780000686646 -0.4418604373931885
0.16279065608978271 0.7541017532348633 -0.42635661363601685
0.16279065608978271 0.7554072141647339 0.16279065608978271
0.16279065608978271 0.7690026164054871 -0.643410861492157
0.16279065608978271 0.7823482751846313 -0.4883720874786377
0.16279065608978271 0.7748048901557922 -0.4728682041168213
0.16279065608978271 0.7806604504585266 -0.13178294897079468
0.16279065608978271 0.7804558277130127 -0.11627906560897827
0.16279065608978271 0.7815842628479004 -0.10077518224716187
