0.1317828893661499 0.740226686000824 -0.4728681743144989
0.1317828893661499 0.7463959455490112 0.3333333730697632
0.1317828893661499 0.7602145671844482 0.3178294897079468
0.1317828893661499 0.7765741348266602 -0.7364341020584106
0.1317828893661499 0.7741948366165161 0.30232560634613037
0.1317828893661499 0.795242190361023 -0.7209302186965942
0.1317828893661499 0.7922660112380981 -0.1782945990562439
0.1317828893661499 0.7884218692779541 -0.1627907156944275
0.1317828893661499 0.7891486883163452 -0.14728683233261108
0.1317828893661499 0.7939518690109253 -0.13178294897079468
0.1317828893661499 0.7962583303451538 0.27131783962249756
0.1317828893661499 0.7850828766822815 0.28682172298431396
0.1317828893661499 0.8011555075645447 -0.7054263353347778
0.1317828893661499 0.8064500689506531 -0.6899224519729614
0.1317828893661499 0.8076571226119995 -0.674418568611145
0.1317828893661499 0.8087447881698608 -0.6589146852493286
0.1317828893661499 0.8092265725135803 -0.643410861492157
0.1317828893661499 0.8096029758453369 -0.6279069781303406
0.1317828893661499 0.8102209568023682 -0.6124030947685242
0.1317828893661499 0.8117059469223022 -0.5968992710113525
0.1317828893661499 0.8124156594276428 -0.22480618953704834
0.1317828893661499 0.8052014112472534 -0.20930230617523193
0.1317828893661499 0.7988144755363464 -0.19379842281341553
0.1317828893661499 0.7994431853294373 -0.11627906560897827
0.1317828893661499 0.8039493560791016 -0.10077518224716187
0.1317828893661499 0.8100681900978088 -0.08527129888534546
0.1317828893661499 0.8123652935028076 0.24031007289886475
0.1317828893661499 0.804864764213562 0.25581395626068115
0.1317828893661499 0.814113199710846 -0.5813953876495361
0.1317828893661499 0.8175787925720215 -0.5658915042877197
0.1317828893661499 0.821445882320404 -0.5503876209259033
0.1317828893661499 0.8249351978302002 -0.5348837375640869
0.1317828893661499 0.8283399343490601 -0.5193798542022705
0.1317828893661499 0.8278438448905945 -0.25581395626068115
0.1317828893661499 0.8202134966850281 -0.24031007289886475
0.1317828893661499 0.8144904375076294 -0.06976740807294846
0.1317828893661499 0.8157391548156738 -0.05426359176635742
0.1317828893661499 0.8166862726211548 -0.038759708404541016
0.1317828893661499 0.8171443343162537 -0.02325582690536976
0.1317828893661499 0.8177763223648071 -0.007751941215246916
0.1317828893661499 0.8189040422439575 0.007751941680908203
0.1317828893661499 0.8209450244903564 0.02325582504272461
0.1317828893661499 0.8237394094467163 0.038759708404541016
0.1317828893661499 0.8262219429016113 0.05426359176635742
0.1317828893661499 0.8282008171081543 0.06976747512817383
0.1317828893661499 0.828870952129364 0.16279065608978271
0.1317828893661499 0.8273226618766785 0.17829453945159912
0.1317828893661499 0.8240589499473572 0.19379842281341553
0.1317828893661499 0.8197274208068848 0.20930230617523193
0.1317828893661499 0.81591796875 0.22480618953704834
0.1317828893661499 0.8313708901405334 -0.5038759708404541
0.1317828893661499 0.8349891901016235 -0.4883720874786377
0.1317828893661499 0.8383876085281372 -0.4728682041168213
0.1317828893661499 0.8412396311759949 -0.4573643207550049
0.1317828893661499 0.8433557152748108 -0.4418604373931885
0.1317828893661499 0.8448690176010132 -0.3488371968269348
0.1317828893661499 0.8436319231987 -0.3333333134651184
0.1317828893661499 0.8423113822937012 -0.317829430103302
0.1317828893661499 0.8401584625244141 -0.30232560634613037
0.1317828893661499 0.8367200493812561 -0.28682172298431396
0.1317828893661499 0.8322327136993408 -0.27131783962249756
0.1317828744649887 0.8295093774795532 0.08527135848999023
0.1317828893661499 0.8300987482070923 0.10077524185180664
0.1317828893661499 0.8304303288459778 0.11627913266420364
0.1317828893661499 0.8304404616355896 0.1317828893661499
0.1317828744649887 0.8298742771148682 0.1472867727279663
0.1317828893661499 0.8450024724006653 -0.42635661363601685
0.1317828893661499 0.8456020355224609 -0.41085273027420044
0.1317828893661499 0.8459976315498352 -0.39534884691238403
0.1317828893661499 0.8458580374717712 -0.3798449635505676
0.1317828893661499 0.8455431461334229 -0.3643410801887512
0.1472867727279663 -0.7322454452514648 0.4418604373931885
0.1472867727279663 -0.7193995714187622 0.4418604373931885
0.1472867727279663 -0.506725013256073 0.5968992710113525
0.1472867727279663 -0.5105612874031067 0.612403154373169
0.1472867727279663 -0.5131781101226807 0.6279069185256958
0.1472867727279663 -0.5147733688354492 0.6434108018875122
0.1472867727279663 -0.516508162021637 0.6589146852493286
0.1472867727279663 -0.5136234760284424 0.674418568611145
0.1472867727279663 -0.5193337798118591 0.6899224519729614
0.1472867727279663 -0.5167154669761658 0.7054263353347778
0.1472867727279663 -0.49193212389945984 0.5038759708404541
0.1472867727279663 -0.49622929096221924 0.5193798542022705
0.1472867727279663 -0.49757078289985657 0.5348837375640869
0.1472867727279663 -0.49806204438209534 0.5503876209259033
0.1472867727279663 -0.4996930658817291 0.5658915042877197
0.1472867727279663 -0.5024124383926392 0.5813953280448914
0.1472867727279663 -0.4953885078430176 0.6899224519729614
0.1472867727279663 -0.5005700588226318 0.7054263353347778
0.1472867727279663 -0.475771427154541 0.4728682041168213
0.1472867727279663 -0.48433005809783936 0.4883720874786377
0.1472867727279663 -0.4787503480911255 0.6589146852493286
0.1472867727279663 -0.4871043562889099 0.674418568611145
0.1472867727279663 -0.4588731527328491 0.41085267066955566
0.1472867727279663 -0.4613216817378998 0.42635655403137207
0.1472867727279663 -0.4628058671951294 0.4418604373931885
0.1472867727279663 -0.4657064378261566 0.4573643207550049
0.1472867727279663 -0.45926761627197266 0.6279069185256958
0.1472867727279663 -0.4684620797634125 0.6434108018875122
0.1472867727279663 -0.4490187466144562 0.3488372564315796
0.1472867727279663 -0.45263171195983887 0.364341139793396
0.1472867727279663 -0.45425015687942505 0.37984490394592285
0.1472867727279663 -0.4552873373031616 0.39534875750541687
0.1472867727279663 -0.4438304007053375 0.5968992710113525
0.1472867727279663 -0.45074328780174255 0.612403154373169
0.1472867727279663 -0.4298112392425537 0.038759708404541016
0.1472867727279663 -0.4342554211616516 0.05426359176635742
0.1472867727279663 -0.43668922781944275 0.06976747512817383
0.1472867727279663 -0.43748539686203003 0.08527135848999023
0.1472867727279663 -0.43762272596359253 0.10077524930238724
0.1472867727279663 -0.4382237195968628 0.11627912521362305
0.1472867727279663 -0.4387930929660797 0.1317828893661499
0.1472867727279663 -0.43910446763038635 0.1472867727279663
0.1472867727279663 -0.43907004594802856 0.16279065608978271
0.1472867727279663 -0.4385671317577362 0.17829453945159912
0.1472867727279663 -0.43731772899627686 0.19379842281341553
0.1472867727279663 -0.43591073155403137 0.20930230617523193
0.1472867727279663 -0.43402668833732605 0.22480618953704834
0.1472867727279663 -0.43115583062171936 0.24031007289886475
0.1472867727279663 -0.42895621061325073 0.25581395626068115
0.1472867727279663 -0.4278746545314789 0.27131783962249756
0.1472867727279663 -0.4276764392852783 0.28682172298431396
0.1472867727279663 -0.4287700057029724 0.30232560634613037
0.1472867727279663 -0.43374744057655334 0.3178294897079468
0.1472867727279663 -0.44130751490592957 0.33333340287208557
0.1472867727279663 -0.4292275905609131 0.5658915042877197
0.1472867727279663 -0.4346330165863037 0.5813953876495361
0.1472867727279663 -0.41958382725715637 -0.7364341020584106
0.1472867727279663 -0.4226985573768616 -0.7209302186965942
0.1472867727279663 -0.41540974378585815 -0.7054263353347778
0.1472867727279663 -0.4116716980934143 -0.02325582504272461
0.1472867727279663 -0.41796624660491943 -0.007751941680908203
0.1472867727279663 -0.42169779539108276 0.007751941680908203
0.1472867727279663 -0.424057275056839 0.02325582504272461
0.1472867727279663 -0.4148220717906952 0.5348837375640869
0.1472867727279663 -0.4201229512691498 0.5503876209259033
0.1472867727279663 -0.402432918548584 -0.6899224519729614
0.1472867727279663 -0.3988029956817627 -0.06976741552352905
0.1472867727279663 -0.405083030462265 -0.05426359176635742
0.1472867727279663 -0.407680869102478 -0.038759708404541016
0.1472867727279663 -0.39751380681991577 0.4883720874786377
0.1472867727279663 -0.4018093943595886 0.5038759708404541
0.1472867727279663 -0.40660595893859863 0.5193798542022705
0.1472867727279663 -0.3815637528896332 -0.674418568611145
0.1472867727279663 -0.38380348682403564 -0.11627906560897827
0.1472867727279663 -0.38934826850891113 -0.10077518224716187
0.1472867727279663 -0.39289677143096924 -0.08527129888534546
0.1472867727279663 -0.3816462755203247 0.4418604373931885
0.1472867727279663 -0.38621950149536133 0.4573643207550049
0.1472867727279663 -0.39122921228408813 0.4728682041168213
0.1472867727279663 -0.3653166890144348 -0.1782945990562439
0.1472867727279663 -0.3692275285720825 -0.1627907156944275
0.1472867727279663 -0.37466713786125183 -0.14728683233261108
0.1472867727279663 -0.37974071502685547 -0.13178294897079468
0.1472867727279663 -0.3653624355792999 0.39534878730773926
0.1472867727279663 -0.37108755111694336 0.41085267066955566
0.1472867727279663 -0.3757947087287903 0.42635655403137207
0.1472867727279663 -0.36307793855667114 -0.6589146852493286
0.1472867727279663 -0.34952592849731445 -0.25581395626068115
0.1472867727279663 -0.3519158363342285 -0.24031007289886475
0.1472867727279663 -0.35498595237731934 -0.22480618953704834
0.1472867727279663 -0.3583468496799469 -0.20930230617523193
0.1472867727279663 -0.3610241115093231 -0.19379842281341553
0.1472867727279663 -0.3554777503013611 0.37984490394592285
0.1472867727279663 -0.3356984257698059 -0.7364341020584106
0.1472867727279663 -0.33706560730934143 -0.643410861492157
0.1472867727279663 -0.33622223138809204 -0.317829430103302
0.1472867727279663 -0.3402535915374756 -0.30232560634613037
0.1472867727279663 -0.34348583221435547 -0.28682172298431396
0.1472867727279663 -0.34625545144081116 -0.27131783962249756
0.1472867727279663 -0.34239158034324646 0.364341139793396
0.1472867727279663 -0.32606610655784607 -0.7209302186965942
0.1472867727279663 -0.32462021708488464 -0.7054263353347778
0.1472867727279663 -0.3242846727371216 -0.6899224519729614
0.1472867727279663 -0.32541781663894653 -0.674418568611145
0.1472867727279663 -0.3274751901626587 -0.6589146852493286
0.1472867727279663 -0.3322690427303314 -0.643410861492157
0.1472867727279663 -0.3182353973388672 -0.5813953876495361
0.1472867727279663 -0.3223361670970917 -0.5658915042877197
0.1472867727279663 -0.3248562216758728 -0.5503876209259033
0.1472867727279663 -0.3261007070541382 -0.5348837375640869
0.1472867727279663 -0.32701823115348816 -0.5193798542022705
0.1472867727279663 -0.3275192379951477 -0.5038759708404541
0.1472867727279663 -0.32764101028442383 -0.4883720874786377
0.1472867727279663 -0.32760369777679443 -0.4728682041168213
0.1472867727279663 -0.3274213671684265 -0.4573643207550049
0.1472867727279663 -0.3270951211452484 -0.44186046719551086
0.1472867727279663 -0.32633280754089355 -0.42635661363601685
0.1472867727279663 -0.3255745768547058 -0.41085273027420044
0.1472867727279663 -0.3252374827861786 -0.39534884691238403
0.1472867727279663 -0.32557350397109985 -0.3798449635505676
0.1472867727279663 -0.32668495178222656 -0.3643410801887512
0.1472867727279663 -0.32858866453170776 -0.3488371968269348
0.1472867727279663 -0.332010418176651 -0.3333333134651184
0.1472867727279663 -0.3267427086830139 0.3488372564315796
0.1472867876291275 -0.3172852694988251 -0.5813953876495361
0.1472867727279663 -0.3096100687980652 0.3333333730697632
0.1472867727279663 -0.3016541004180908 -0.5658915042877197
0.1472867727279663 -0.2973272204399109 -0.5503876209259033
0.1472867727279663 -0.2918543219566345 -0.5348837375640869
0.1472867727279663 -0.2881796956062317 0.3178294897079468
0.1472867727279663 -0.2856707274913788 -0.5193798542022705
0.1472867727279663 -0.2831169068813324 -0.5038759708404541
0.1472867727279663 -0.2811508774757385 -0.4883720576763153
0.1472867727279663 -0.27921926975250244 -0.4728682041168213
0.1472867727279663 -0.2768576145172119 -0.4573643207550049
0.1472867727279663 -0.2742455005645752 -0.4418604373931885
0.1472867727279663 -0.27200108766555786 -0.42635661363601685
0.1472867727279663 -0.27096250653266907 -0.41085273027420044
0.1472867727279663 -0.2703620195388794 -0.39534884691238403
0.1472867727279663 -0.26926881074905396 -0.3798449635505676
0.1472867727279663 -0.26713991165161133 -0.3643410801887512
0.1472867727279663 -0.26380789279937744 -0.3488371968269348
0.1472867727279663 -0.2569950520992279 -0.3333333134651184
0.1472867727279663 -0.25026753544807434 -0.317829430103302
0.1472867727279663 -0.2483195662498474 0.30232560634613037
0.1472867727279663 -0.2397809475660324 -0.30232560634613037
0.1472867727279663 -0.23017463088035583 -0.28682172298431396
0.1472867727279663 -0.21281643211841583 -0.27131783962249756
0.1472867727279663 -0.20560967922210693 0.28682172298431396
0.1472867727279663 -0.1794610321521759 -0.25581395626068115
0.1472867727279663 -0.1678904891014099 0.27131783962249756
0.1472867727279663 -0.12359416484832764 -0.24031007289886475
0.1472867727279663 -0.051128264516592026 -0.22480618953704834
0.1472867727279663 0.037277281284332275 0.25581395626068115
0.1472867727279663 0.06902607530355453 -0.22480618953704834
0.1472867727279663 0.07589298486709595 0.25581395626068115
0.1472867727279663 0.1380029320716858 0.27131783962249756
0.1472867727279663 0.17371965944766998 0.28682172298431396
0.1472867727279663 0.1893140971660614 -0.22480618953704834
0.1472867727279663 0.2012362778186798 0.30232560634613037
0.1472867727279663 0.2285292148590088 0.3178294897079468
0.1472867727279663 0.26194292306900024 0.3333333730697632
0.1472867727279663 0.2812030017375946 -0.20930230617523193
0.1472867727279663 0.2977527379989624 0.3488372564315796
0.1472867727279663 0.35704943537712097 -0.19379842281341553
0.1472867727279663 0.34955576062202454 0.364341139793396
0.1472867727279663 0.4217955470085144 -0.1782945990562439
0.1472867727279663 0.4267064332962036 0.37984493374824524
0.1472867727279663 0.45210573077201843 -0.1627907156944275
0.1472867727279663 0.46939903497695923 -0.1627907156944275
0.1472867727279663 0.48633062839508057 -0.19379842281341553
0.1472867727279663 0.4794817566871643 -0.1782945990562439
0.1472867727279663 0.4784413278102875 0.39534878730773926
0.1472867727279663 0.4984908998012543 -0.20930230617523193
0.1472867727279663 0.515400767326355 -0.22480618953704834
0.1472867727279663 0.506946861743927 0.41085267066955566
0.1472867727279663 0.5340745449066162 -0.24031007289886475
0.1472867727279663 0.5572537183761597 -0.25581395626068115
0.1472867727279663 0.5811775922775269 -0.27131783962249756
0.1472867727279663 0.5740252733230591 0.41085267066955566
0.1472867727279663 0.6048651933670044 -0.28682172298431396
0.1472867727279663 0.6096282005310059 0.39534878730773926
0.1472867727279663 0.6272135376930237 -0.30232560634613037
0.1472867727279663 0.6555701494216919 -0.7364341020584106
0.1472867727279663 0.6464575529098511 -0.7209302186965942
0.1472867727279663 0.6563584804534912 -0.7054263353347778
0.1472867727279663 0.6581875681877136 -0.3333333134651184
0.1472867727279663 0.6461169719696045 -0.317829430103302
0.1472867727279663 0.6708047986030579 -0.3488371968269348
0.1472867727279663 0.6642898917198181 0.37984490394592285
0.1472867727279663 0.6853684186935425 -0.6899224519729614
0.1472867727279663 0.6831114292144775 -0.3643410801887512
0.1472867727279663 0.6949930191040039 -0.37984493374824524
0.1472867727279663 0.692265510559082 0.364341139793396
0.1472867727279663 0.7177703976631165 -0.41085273027420044
0.1472867727279663 0.7058385014533997 -0.39534881711006165
0.1472867727279663 0.7099504470825195 0.3488372564315796
0.1472867727279663 0.7230482697486877 -0.6744186282157898
0.1472867727279663 0.7357950806617737 -0.6589146852493286
0.1472867727279663 0.7346751093864441 -0.4573643207550049
0.1472867727279663 0.731681227684021 -0.4418604373931885
0.1472867727279663 0.7260872721672058 -0.42635661363601685
0.1472867727279663 0.7238478660583496 0.3333333730697632
0.1472867727279663 0.7406304478645325 -0.643410861492157
0.1472867727279663 0.7450929880142212 -0.6279069781303406
0.1472867727279663 0.7486047744750977 -0.6124030947685242
0.1472867727279663 0.7503989934921265 -0.5968992114067078
0.1472867727279663 0.7509594559669495 -0.5813953876495361
0.1472867727279663 0.7499263882637024 -0.5658915042877197
0.1472867727279663 0.7483651638031006 -0.5503876209259033
0.1472867727279663 0.7470847368240356 -0.5348837375640869
0.1472867727279663 0.7455087304115295 -0.5193798542022705
0.1472867727279663 0.7438167333602905 -0.5038759708404541
0.1472867727279663 0.7416397333145142 -0.4883720874786377
0.1472867876291275 0.7376968860626221 -0.4728682339191437
0.1472867727279663 0.751669704914093 0.30232560634613037
0.1472867727279663 0.7366751432418823 0.3178294897079468
0.1472867727279663 0.7658727169036865 0.28682172298431396
0.1472867727279663 0.7796617150306702 0.27131783962249756
0.1472867727279663 0.7927502393722534 -0.7364341020584106
0.1472867727279663 0.7920995354652405 0.25581395626068115
0.1472867727279663 0.8120551705360413 -0.7209302186965942
0.1472867727279663 0.8100955486297607 -0.1782945990562439
0.1472867727279663 0.8054487705230713 -0.1627907156944275
0.1472867727279663 0.8034912347793579 -0.14728683233261108
0.1472867727279663 0.8048033714294434 -0.13178294897079468
0.1472867727279663 0.8081170320510864 -0.11627906560897827
0.1472867727279663 0.8123952150344849 -0.10077518224716187
0.1472867727279663 0.8138542771339417 0.20930230617523193
0.1472867727279663 0.8090159893035889 0.22480618953704834
0.1472867727279663 0.7999605536460876 0.24031007289886475
0.1472867727279663 0.8158620595932007 -0.7054263353347778
0.1472867727279663 0.8190175890922546 -0.6899224519729614
0.1472867727279663 0.8218100070953369 -0.674418568611145
0.1472867727279663 0.8236202597618103 -0.6589146852493286
0.1472867727279663 0.8247085809707642 -0.643410861492157
0.1472867727279663 0.8255583643913269 -0.6279069781303406
0.1472867727279663 0.826594889163971 -0.6124030947685242
0.1472867727279663 0.8281385898590088 -0.5968992114067078
0.1472867727279663 0.8266016840934753 -0.22480618953704834
0.1472867727279663 0.8205668926239014 -0.20930230617523193
0.1472867727279663 0.8149341940879822 -0.19379842281341553
0.14728675782680511 0.8148953318595886 -0.08527129143476486
0.1472867727279663 0.8163833618164062 -0.06976741552352905
0.1472867727279663 0.8173741698265076 -0.05426359176635742
0.1472867727279663 0.8179983496665955 -0.038759708404541016
0.1472867727279663 0.8179274201393127 -0.02325582504272461
0.1472867727279663 0.8179075717926025 -0.007751941680908203
0.1472867727279663 0.8182588219642639 0.007751941680908203
0.1472867727279663 0.8193524479866028 0.02325582504272461
0.1472867727279663 0.8212997317314148 0.038759708404541016
0.1472867727279663 0.8236860036849976 0.05426359176635742
0.1472867727279663 0.8263055682182312 0.06976747512817383
0.1472867727279663 0.8276968002319336 0.08527135848999023
0.1472867727279663 0.8285030722618103 0.10077524185180664
0.1472867727279663 0.828672468662262 0.11627912521362305
0.1472867727279663 0.8283710479736328 0.1317828893661499
0.1472867727279663 0.8272664546966553 0.1472867727279663
0.1472867727279663 0.8247772455215454 0.16279065608978271
0.1472867727279663 0.8212994337081909 0.17829453945159912
0.1472867727279663 0.8171436190605164 0.19379842281341553
0.1472867727279663 0.8300619125366211 -0.5813953876495361
0.1472867727279663 0.8317018747329712 -0.5658915042877197
0.1472867727279663 0.8342941403388977 -0.5503876209259033
0.1472867727279663 0.838283896446228 -0.5348837375640869
0.1472867727279663 0.8416419625282288 -0.5193798542022705
0.1472867727279663 0.8445625305175781 -0.5038759708404541
0.1472867727279663 0.8436725735664368 -0.28682172298431396
0.1472867727279663 0.8409066200256348 -0.27131783962249756
0.1472867727279663 0.8362885117530823 -0.25581395626068115
0.1472867727279663 0.8312209248542786 -0.24031007289886475
0.1472867727279663 0.8461182117462158 -0.4883720874786377
0.1472867727279663 0.8473424911499023 -0.4728682041168213
0.1472867727279663 0.8485890626907349 -0.4573643207550049
0.1472867727279663 0.8493404984474182 -0.4418604373931885
0.1472867727279663 0.8497146368026733 -0.42635661363601685
0.1472867727279663 0.8496968746185303 -0.41085273027420044
0.1472867727279663 0.8495513200759888 -0.39534884691238403
0.1472867727279663 0.8487856984138489 -0.3798449635505676
0.1472867727279663 0.8482091426849365 -0.3643410801887512
0.1472867727279663 0.8475142121315002 -0.3488371968269348
0.14728675782680511 0.8468655943870544 -0.333333283662796
0.1472867727279663 0.8461959958076477 -0.317829430103302
0.1472867727279663 0.8453038334846497 -0.30232563614845276
0.16279065608978271 -0.5196859836578369 0.6279069185256958
0.16279065608978271 -0.5207539200782776 0.6434108018875122
0.16279065608978271 -0.5208281874656677 0.6589146852493286
0.16279065608978271 -0.5198566317558289 0.674418568611145
0.16279065608978271 -0.5208373069763184 0.6899224519729614
0.16279065608978271 -0.5205340385437012 0.7054263353347778
0.16279065608978271 -0.5044859647750854 0.5968992710113525
0.16279065608978271 -0.5130776762962341 0.612403154373169
0.16279065608978271 -0.4976003170013428 0.6899224519729614
0.1627906709909439 -0.5021216869354248 0.7054263353347778
0.16279065608978271 -0.47689369320869446 0.5038759708404541
0.16279065608978271 -0.4822109639644623 0.5193798542022705
0.16279065608978271 -0.48383355140686035 0.5348837375640869
0.16279065608978271 -0.48212751746177673 0.5503876209259033
0.16279065608978271 -0.4798066020011902 0.5658915042877197
0.16279065608978271 -0.4782726466655731 0.5813953876495361
0.16279065608978271 -0.478962242603302 0.6434108018875122
0.16279065608978271 -0.48284125328063965 0.6589146852493286
0.16279064118862152 -0.48737117648124695 0.6744185090065002
0.16279065608978271 -0.46753156185150146 0.4883720874786377
0.16279065608978271 -0.46495717763900757 0.5813953876495361
0.16279065608978271 -0.4687594473361969 0.5968992710113525
0.16279065608978271 -0.4692876636981964 0.612403154373169
0.16279065608978271 -0.47153109312057495 0.6279069185256958
0.16279065608978271 -0.4450160562992096 0.42635655403137207
0.16279065608978271 -0.4466380178928375 0.4418604373931885
0.16279065608978271 -0.44641876220703125 0.4573643207550049
0.16279065608978271 -0.4527547359466553 0.4728682041168213
0.16279065608978271 -0.4474310278892517 0.5503876209259033
0.16279065608978271 -0.45326101779937744 0.5658915042877197
0.16279065608978271 -0.4271073639392853 0.37984490394592285
0.16279065608978271 -0.4317570924758911 0.39534878730773926
0.16279065608978271 -0.44040146470069885 0.41085267066955566
0.16279065608978271 -0.42962414026260376 0.4883720874786377
0.16279065608978271 -0.43239516019821167 0.5038759708404541
0.16279065608978271 -0.4365045130252838 0.5193798542022705
0.16279065608978271 -0.4409888982772827 0.5348837375640869
0.16279065608978271 -0.42118072509765625 -0.7364341020584106
0.16279065608978271 -0.42410939931869507 -0.7209302186965942
0.16279065608978271 -0.4165632724761963 -0.7054263353347778
0.16279065608978271 -0.4119679629802704 0.02325582504272461
0.16279065608978271 -0.4176498055458069 0.038759708404541016
0.16279065608978271 -0.4208828806877136 0.05426359176635742
0.16279065608978271 -0.42222559452056885 0.06976747512817383
0.16279065608978271 -0.4232053756713867 0.08527135848999023
0.16279065608978271 -0.42414286732673645 0.10077524185180664
0.16279065608978271 -0.4250030815601349 0.11627912521362305
0.16279065608978271 -0.4253625273704529 0.1317828893661499
0.16279065608978271 -0.4253849983215332 0.1472867876291275
0.16279064118862152 -0.4250723719596863 0.16279064118862152
0.16279065608978271 -0.4242667257785797 0.17829453945159912
0.16279065608978271 -0.42285674810409546 0.19379842281341553
0.16279065608978271 -0.42125484347343445 0.20930230617523193
0.16279065608978271 -0.419635534286499 0.22480618953704834
0.16279065608978271 -0.41740649938583374 0.24031007289886475
0.16279065608978271 -0.4158405661582947 0.25581395626068115
0.16279065608978271 -0.4148208498954773 0.27131783962249756
0.16279065608978271 -0.41428276896476746 0.28682172298431396
0.16279065608978271 -0.41417258977890015 0.30232560634613037
0.16279065608978271 -0.4178469479084015 0.3178294897079468
0.16279065608978271 -0.4213443994522095 0.3333333730697632
0.16279065608978271 -0.4238014221191406 0.348837286233902
0.16279064118862152 -0.4258567690849304 0.3643411099910736
0.16279065608978271 -0.4188191294670105 0.4573643207550049
0.16279065608978271 -0.4261922836303711 0.4728682041168213
0.16279065608978271 -0.4032213091850281 -0.6899224519729614
0.16279065608978271 -0.39783042669296265 -0.02325582504272461
0.16279065608978271 -0.4028128385543823 -0.007751941680908203
0.16279065608978271 -0.40695399045944214 0.007751941680908203
0.16279065608978271 -0.40518349409103394 0.39534878730773926
0.16279065608978271 -0.4063394069671631 0.41085267066955566
0.16279065608978271 -0.4073531925678253 0.42635655403137207
0.16279065608978271 -0.4108375310897827 0.4418604373931885
0.16279065608978271 -0.38415729999542236 -0.674418568611145
0.16279065608978271 -0.3830825984477997 -0.08527129888534546
0.16279065608978271 -0.388108491897583 -0.06976741552352905
0.16279065608978271 -0.39138758182525635 -0.05426359176635742
0.16279065608978271 -0.39470717310905457 -0.038759708404541016
0.1627906709909439 -0.3934280276298523 0.37984490394592285
0.16279065608978271 -0.3686787188053131 -0.6589146852493286
0.16279065608978271 -0.36620670557022095 -0.14728683233261108
0.16279065608978271 -0.37046799063682556 -0.13178294897079468
0.16279065608978271 -0.3752703070640564 -0.11627906560897827
0.16279065608978271 -0.37853899598121643 -0.10077518224716187
0.16279065608978271 -0.36456969380378723 0.3488372564315796
0.16279065608978271 -0.3793237805366516 0.3643411099910736
0.16279065608978271 -0.3569706678390503 -0.6434109210968018
0.16279065608978271 -0.349772185087204 -0.22480618953704834
0.16279065608978271 -0.3514551818370819 -0.20930230617523193
0.16279065608978271 -0.35420143604278564 -0.19379842281341553
0.16279065608978271 -0.35798200964927673 -0.1782945990562439
0.16279065608978271 -0.3617955148220062 -0.1627907156944275
0.16279065608978271 -0.3477924168109894 -0.6279069185256958
0.16279065608978271 -0.33917349576950073 -0.6124030947685242
0.16279065608978271 -0.33575865626335144 -0.5968992114067078
0.16279065608978271 -0.33410346508026123 -0.5813953876495361
0.16279065608978271 -0.33482980728149414 -0.317829430103302
0.16279065608978271 -0.3379405736923218 -0.30232560634613037
0.16279065608978271 -0.3412875533103943 -0.28682172298431396
0.16279065608978271 -0.34391582012176514 -0.27131783962249756
0.16279065608978271 -0.3453177809715271 -0.25581395626068115
0.16279064118862152 -0.3477776050567627 -0.24031007289886475
0.16279065608978271 -0.3444262146949768 0.3333333730697632
0.16279065608978271 -0.33303648233413696 -0.7364341020584106
0.16279065608978271 -0.32340022921562195 -0.7209302186965942
0.16279065608978271 -0.32088184356689453 -0.7054263353347778
0.16279065608978271 -0.3186570405960083 -0.6899224519729614
0.16279065608978271 -0.33297407627105713 -0.5658915042877197
0.16279065608978271 -0.3319378197193146 -0.5503876209259033
0.1627906709909439 -0.33128249645233154 -0.5348837375640869
0.16279065608978271 -0.3312179148197174 -0.5193798542022705
0.16279065608978271 -0.33128052949905396 -0.5038759708404541
0.16279065608978271 -0.33102330565452576 -0.4883721172809601
0.1627906709909439 -0.330566942691803 -0.4728682339191437
0.16279065608978271 -0.33003097772598267 -0.4573643207550049
0.16279065608978271 -0.3296876549720764 -0.4418604373931885
0.16279065608978271 -0.3292660117149353 -0.42635661363601685
0.16279065608978271 -0.32887840270996094 -0.41085273027420044
0.16279065608978271 -0.32853764295578003 -0.39534884691238403
0.16279065608978271 -0.32836008071899414 -0.3798449635505676
0.16279065608978271 -0.3286212682723999 -0.3643410801887512
0.16279065608978271 -0.3301317095756531 -0.3488371968269348
0.16279065608978271 -0.33256813883781433 -0.3333333134651184
0.16279065608978271 -0.324512779712677 0.3178294897079468
0.16279065608978271 -0.31761687994003296 -0.674418568611145
0.1627906709909439 -0.3168768882751465 -0.6589146852493286
0.16279065608978271 -0.3153444528579712 -0.643410861492157
0.16279065608978271 -0.31310969591140747 -0.6279069781303406
0.16279065608978271 -0.31015118956565857 -0.6124030947685242
0.16279065608978271 -0.3039972186088562 -0.5968992114067078
0.16279065608978271 -0.3028852045536041 0.30232560634613037
0.16279065608978271 -0.29980480670928955 -0.5813953876495361
0.16279065608978271 -0.29626911878585815 -0.5658915042877197
0.16279065608978271 -0.2916466295719147 -0.5503876209259033
0.16279065608978271 -0.2856345772743225 -0.5348837375640869
0.1627906709909439 -0.2834796607494354 -0.5193798542022705
0.16279065608978271 -0.2816421389579773 -0.5038759708404541
0.16279065608978271 -0.2799862027168274 -0.4883720874786377
0.16279065608978271 -0.27757224440574646 -0.4728682041168213
0.16279065608978271 -0.2740667462348938 -0.4573643207550049
0.16279065608978271 -0.2710571885108948 -0.4418604373931885
0.16279065608978271 -0.2704024910926819 -0.42635658383369446
0.16279065608978271 -0.269937664270401 -0.41085273027420044
0.16279065608978271 -0.26960334181785583 -0.39534884691238403
0.16279065608978271 -0.2689536213874817 -0.37984493374824524
0.16279065608978271 -0.2676364779472351 -0.3643410801887512
0.16279065608978271 -0.26540493965148926 -0.3488371968269348
0.16279065608978271 -0.2614053785800934 -0.3333333134651184
0.16279065608978271 -0.2702978849411011 0.28682172298431396
0.16279065608978271 -0.253984659910202 -0.317829430103302
0.16279065608978271 -0.24793584644794464 -0.30232560634613037
0.16279065608978271 -0.2375607043504715 -0.28682172298431396
0.16279064118862152 -0.22241713106632233 -0.27131783962249756
0.16279065608978271 -0.2188069224357605 0.27131783962249756
0.16279065608978271 -0.2016875147819519 -0.25581395626068115
0.16279065608978271 -0.18339568376541138 0.25581395626068115
0.16279065608978271 -0.17318546772003174 -0.24031007289886475
0.16279065608978271 -0.14274047315120697 -0.22480618953704834
0.16279065608978271 -0.10775700956583023 -0.20930230617523193
0.16279065608978271 -0.06294726580381393 -0.19379842281341553
0.16279065608978271 -0.02417415753006935 -0.1782945990562439
0.16279065608978271 0.012661765329539776 0.24031007289886475
0.16279065608978271 0.038561999797821045 -0.1782945990562439
0.16279065608978271 0.07217972725629807 -0.19379842281341553
0.16279065608978271 0.08341442793607712 0.24031007289886475
0.16279065608978271 0.09626893699169159 -0.20930230617523193
0.16279065608978271 0.15315330028533936 0.25581395626068115
0.16279065608978271 0.1684339940547943 -0.20930230617523193
0.16279065608978271 0.19320836663246155 0.27131783962249756
0.16279065608978271 0.2209206521511078 0.28682172298431396
0.16279065608978271 0.24448075890541077 0.30232560634613037
0.16279065608978271 0.26723331212997437 0.3178294897079468
0.16279065608978271 0.2986753582954407 -0.19379842281341553
0.16279065608978271 0.2930561602115631 0.3333333730697632
0.16279065608978271 0.3354906737804413 0.3488372564315796
0.16279065608978271 0.41448497772216797 -0.1782945990562439
0.16279065608978271 0.4331028163433075 0.364341139793396
0.16279065608978271 0.4491603374481201 -0.1627907156944275
0.16279065608978271 0.4699395000934601 -0.1627907156944275
0.16279065608978271 0.48205751180648804 -0.1782945990562439
0.16279065608978271 0.5008097887039185 -0.20930230617523193
0.16279065608978271 0.4899998903274536 -0.19379842281341553
0.16279065608978271 0.5169745683670044 -0.22480618953704834
0.16279065608978271 0.5050901770591736 0.37984490394592285
0.16279065608978271 0.5343378186225891 -0.24031007289886475
0.16279065608978271 0.5557636022567749 -0.25581395626068115
0.16279065608978271 0.5796793103218079 -0.27131783962249756
0.16279065608978271 0.5909463763237 0.37984490394592285
0.16279065608978271 0.6028537750244141 -0.28682172298431396
0.16279065608978271 0.625477135181427 -0.30232560634613037
0.16279065608978271 0.6431063413619995 -0.7209302186965942
0.16279065608978271 0.6365103721618652 0.364341139793396
0.16279065608978271 0.6530389785766602 -0.7364341020584106
0.16279065608978271 0.6555464267730713 -0.7054263353347778
0.16279065608978271 0.6577931046485901 -0.3333333134651184
0.16279065608978271 0.645350456237793 -0.317829430103302
0.16279065608978271 0.6714644432067871 -0.3488371968269348
0.16279065608978271 0.6679192781448364 0.3488372564315796
0.16279065608978271 0.6861859560012817 -0.3643410801887512
0.16279065608978271 0.6902801394462585 -0.6899223923683167
0.16279065608978271 0.7001328468322754 -0.3798449635505676
0.16279065608978271 0.6903473138809204 0.3333333730697632
0.16279065608978271 0.7122385501861572 -0.39534884691238403
0.16279065608978271 0.7075769901275635 0.3178294897079468
0.16279065608978271 0.7274929285049438 -0.674418568611145
0.16279065608978271 0.7356657981872559 -0.4418604373931885
0.16279065608978271 0.7309129238128662 -0.42635661363601685
0.16279065608978271 0.7226853370666504 -0.41085273027420044
0.16279065608978271 0.7286535501480103 0.30232560634613037
0.16279065608978271 0.7374227046966553 -0.6589146852493286
0.16279065608978271 0.7429509162902832 -0.643410861492157
0.16279065608978271 0.7472033500671387 -0.6279069781303406
0.16279065608978271 0.7506871223449707 -0.612403154373169
0.16279065608978271 0.7503088712692261 -0.5503876209259033
0.16279065608978271 0.7492026090621948 -0.5348837375640869
0.16279065608978271 0.7480658888816833 -0.5193798542022705
0.16279065608978271 0.7469683885574341 -0.5038759708404541
0.16279065608978271 0.7457386255264282 -0.4883720874786377
0.16279065608978271 0.7439022660255432 -0.4728682041168213
0.16279065608978271 0.7405637502670288 -0.4573643207550049
0.16279065608978271 0.7457553744316101 0.28682172298431396
0.16279064118862152 0.7537506222724915 -0.5968992114067078
0.16279065608978271 0.7553975582122803 -0.5813953876495361
0.16279065608978271 0.7520965337753296 -0.5658915042877197
0.16279065608978271 0.7603046894073486 0.27131783962249756
0.16279065608978271 0.7744298577308655 0.25581395626068115
0.16279065608978271 0.796859085559845 0.22480618953704834
0.16279065608978271 0.7855916023254395 0.24031007289886475
0.16279065608978271 0.802263081073761 -0.7364341020584106
0.16279065608978271 0.8138501048088074 -0.1782945990562439
0.16279065608978271 0.810117244720459 -0.1627907156944275
0.16279065608978271 0.8082488775253296 -0.14728683233261108
0.16279065608978271 0.8088476657867432 -0.13178294897079468
0.16279065608978271 0.8112664222717285 -0.11627906560897827
0.16279065608978271 0.8113988041877747 0.19379842281341553
0.16279065608978271 0.8046032190322876 0.20930230617523193
0.16279065608978271 0.8191298246383667 -0.7209302186965942
0.16279065608978271 0.826515793800354 -0.7054263353347778
0.16279065608978271 0.8290714621543884 -0.6899224519729614
0.16279065608978271 0.827805757522583 -0.22480618953704834
0.16279065608978271 0.8234411478042603 -0.20930230617523193
0.16279065608978271 0.8173984289169312 -0.19379842281341553
0.16279065608978271 0.8142911791801453 -0.10077518224716187
0.16279064118862152 0.8154739737510681 -0.08527129888534546
0.16279065608978271 0.8168571591377258 -0.06976741552352905
0.16279065608978271 0.8177018165588379 -0.05426358804106712
0.16279065608978271 0.8182612061500549 -0.038759708404541016
0.16279065608978271 0.8180502653121948 -0.02325582504272461
0.16279065608978271 0.8177920579910278 -0.007751941680908203
0.16279065608978271 0.817762553691864 0.007751941680908203
0.16279065608978271 0.8182818293571472 0.02325582504272461
0.16279065608978271 0.8194495439529419 0.038759708404541016
0.16279065608978271 0.8211042881011963 0.05426359176635742
0.16279065608978271 0.8235051035881042 0.06976747512817383
0.16279065608978271 0.8250935673713684 0.08527135848999023
0.16279065608978271 0.8257788419723511 0.10077524185180664
0.16279065608978271 0.8251712322235107 0.11627912521362305
0.16279065608978271 0.8237658739089966 0.1317828893661499
0.16279065608978271 0.8215312957763672 0.1472867727279663
0.16279065608978271 0.8183905482292175 0.16279065608978271
0.16279065608978271 0.8144820928573608 0.17829453945159912
0.16279065608978271 0.8307321071624756 -0.674418568611145
0.16279065608978271 0.8322180509567261 -0.6589146852493286
0.16279065608978271 0.8340287804603577 -0.6434109210968018
0.16279065608978271 0.8352754712104797 -0.6279069781303406
0.16279065608978271 0.835898756980896 -0.6124030947685242
0.16279065608978271 0.8364154100418091 -0.5968992710113525
0.16279065608978271 0.8377934098243713 -0.5813953876495361
0.16279065608978271 0.8400416374206543 -0.5658915042877197
0.16279065608978271 0.8424000144004822 -0.5503876209259033
0.16279065608978271 0.8446832299232483 -0.5348837375640869
0.16279065608978271 0.8444539308547974 -0.30232560634613037
0.16279065608978271 0.8433490991592407 -0.28682172298431396
0.16279065608978271 0.8410085439682007 -0.27131783962249756
0.16279065608978271 0.8368257284164429 -0.25581395626068115
0.16279065608978271 0.8315678238868713 -0.24031007289886475
0.16279065608978271 0.8458467721939087 -0.5193798542022705
0.16279065608978271 0.847126305103302 -0.5038759708404541
0.16279065608978271 0.8484200239181519 -0.4883720874786377
0.16279065608978271 0.8496040105819702 -0.4728682041168213
0.16279065608978271 0.8501174449920654 -0.4573643207550049
0.16279065608978271 0.8498226404190063 -0.4418604373931885
0.16279065608978271 0.849363386631012 -0.42635661363601685
0.16279065608978271 0.8486801981925964 -0.41085273027420044
0.1627906709909439 0.8481483459472656 -0.39534884691238403
0.16279065608978271 0.847241997718811 -0.3798449635505676
0.16279065608978271 0.8466961979866028 -0.3643410801887512
0.16279065608978271 0.8461412191390991 -0.3488371968269348
0.16279065608978271 0.8457191586494446 -0.3333333134651184
0.16279065608978271 0.845272958278656 -0.317829430103302
0.17829453945159912 -0.5200556516647339 0.6434108018875122
0.17829453945159912 -0.5194364190101624 0.6589146852493286
0.17829453945159912 -0.5118786096572876 0.612403154373169
0.17829453945159912 -0.5181055068969727 0.6279069781303406
0.17829453945159912 -0.5178804993629456 0.6744185090065002
0.17829453945159912 -0.5193338394165039 0.6899224519729614
0.17829453945159912 -0.49526864290237427 0.674418568611145
0.17829452455043793 -0.501258134841919 0.6899224519729614
0.17829455435276031 -0.48522019386291504 0.612403154373169
0.17829453945159912 -0.4840365946292877 0.6279069185256958
0.17829453945159912 -0.4849054217338562 0.6434108018875122
0.17829453945159912 -0.4863452613353729 0.6589146852493286
0.17829453945159912 -0.4190186858177185 -0.7364341020584106
0.17829453945159912 -0.4205290377140045 -0.7209302186965942
0.17829452455043793 -0.4102170765399933 -0.7054263353347778
0.17829453945159912 -0.3954329788684845 -0.6899224519729614
0.17829453945159912 -0.3983766436576843 0.038759708404541016
0.17829453945159912 -0.4030868709087372 0.05426359176635742
0.17829453945159912 -0.40581122040748596 0.06976747512817383
0.17829453945159912 -0.4077519178390503 0.08527135848999023
0.17829453945159912 -0.40866023302078247 0.10077524185180664
0.17829453945159912 -0.40931257605552673 0.11627913266420364
0.17829453945159912 -0.40935397148132324 0.1317828893661499
0.17829453945159912 -0.40908369421958923 0.1472867727279663
0.17829453945159912 -0.4085853099822998 0.16279065608978271
0.17829453945159912 -0.4076591432094574 0.17829453945159912
0.17829453945159912 -0.40616777539253235 0.19379843771457672
0.17829453945159912 -0.40452706813812256 0.20930230617523193
0.17829453945159912 -0.4025160074234009 0.22480618953704834
0.17829453945159912 -0.3999491035938263 0.24031007289886475
0.17829453945159912 -0.3974607288837433 0.25581395626068115
0.17829453945159912 -0.3804633319377899 -0.038759708404541016
0.17829453945159912 -0.38280990719795227 -0.02325582504272461
0.17829453945159912 -0.3863605856895447 -0.007751941680908203
0.17829453945159912 -0.39023566246032715 0.007751941680908203
0.17829455435276031 -0.39449167251586914 0.02325582504272461
0.17829453945159912 -0.3945716619491577 0.27131783962249756
0.17829453945159912 -0.389650821685791 0.28682172298431396
0.17829453945159912 -0.38085609674453735 0.30232560634613037
0.17829453945159912 -0.37784242630004883 -0.674418568611145
0.17829453945159912 -0.36610743403434753 -0.6589146852493286
0.17829453945159912 -0.3656383156776428 -0.10077518224716187
0.17829453945159912 -0.3709889352321625 -0.08527129888534546
0.17829453945159912 -0.37434953451156616 -0.06976741552352905
0.17829455435276031 -0.3777327835559845 -0.05426359549164772
0.17829453945159912 -0.3552027642726898 -0.643410861492157
0.17829453945159912 -0.34965813159942627 -0.1627907156944275
0.17829453945159912 -0.3535519242286682 -0.14728683233261108
0.17829453945159912 -0.3584553599357605 -0.13178294897079468
0.17829453945159912 -0.3625081479549408 -0.11627906560897827
0.17829453945159912 -0.3379075825214386 -0.7364341020584106
0.17829453945159912 -0.34703728556632996 -0.6279069781303406
0.17829453945159912 -0.3381137251853943 -0.6124030947685242
0.17829453945159912 -0.33414214849472046 -0.5968992114067078
0.17829453945159912 -0.334237277507782 -0.27131783962249756
0.17829453945159912 -0.3359260857105255 -0.25581395626068115
0.17829453945159912 -0.338168203830719 -0.24031007289886475
0.17829453945159912 -0.3404313325881958 -0.22480618953704834
0.17829453945159912 -0.3427996039390564 -0.20930230617523193
0.17829453945159912 -0.3442479968070984 -0.19379842281341553
0.17829453945159912 -0.34656789898872375 -0.1782945990562439
0.17829453945159912 -0.3446527123451233 0.30232560634613037
0.17829453945159912 -0.32601606845855713 -0.7209302186965942
0.17829453945159912 -0.3232404887676239 -0.7054263353347778
0.17829453945159912 -0.3207727372646332 -0.6899224519729614
0.17829453945159912 -0.3309180438518524 -0.5813953876495361
0.17829455435276031 -0.32921674847602844 -0.5658915042877197
0.17829453945159912 -0.3290557861328125 -0.5503876209259033
0.17829453945159912 -0.3286840319633484 -0.5348837375640869
0.17829453945159912 -0.32855480909347534 -0.5193798542022705
0.17829453945159912 -0.3285832107067108 -0.5038759708404541
0.17829453945159912 -0.32833802700042725 -0.4883720874786377
0.17829453945159912 -0.32797756791114807 -0.4728682041168213
0.17829453945159912 -0.3275107741355896 -0.4573643207550049
0.17829453945159912 -0.32717594504356384 -0.4418604373931885
0.17829453945159912 -0.3266274034976959 -0.42635661363601685
0.17829453945159912 -0.3258518576622009 -0.41085273027420044
0.17829453945159912 -0.3248025178909302 -0.39534884691238403
0.17829453945159912 -0.3238371014595032 -0.3798449635505676
0.17829453945159912 -0.32321903109550476 -0.3643410801887512
0.17829453945159912 -0.3239137530326843 -0.3488371968269348
0.17829453945159912 -0.32614031434059143 -0.3333333134651184
0.17829453945159912 -0.3286712169647217 -0.317829430103302
0.17829453945159912 -0.3304755389690399 -0.30232560634613037
0.17829453945159912 -0.332534521818161 -0.28682172298431396
0.17829453945159912 -0.31843501329421997 0.28682172298431396
0.17829453945159912 -0.3177817165851593 -0.674418568611145
0.17829453945159912 -0.3166237771511078 -0.6589146852493286
0.17829453945159912 -0.3150714933872223 -0.643410861492157
0.17829453945159912 -0.3135830760002136 -0.6279069781303406
0.17829453945159912 -0.31203722953796387 -0.6124030947685242
0.17829453945159912 -0.308621346950531 -0.5968992114067078
0.17829453945159912 -0.3017745614051819 -0.5813953876495361
0.17829453945159912 -0.29863712191581726 -0.5658915042877197
0.17829453945159912 -0.29464370012283325 -0.5503876209259033
0.17829453945159912 -0.2881713807582855 -0.5348837375640869
0.17829453945159912 -0.2900896966457367 0.27131783962249756
0.17829453945159912 -0.2849910855293274 -0.5193798542022705
0.17829453945159912 -0.2832312285900116 -0.5038759708404541
0.17829453945159912 -0.28173747658729553 -0.4883720874786377
0.17829453945159912 -0.28034305572509766 -0.4728682041168213
0.17829453945159912 -0.2790779769420624 -0.4573643207550049
0.17829453945159912 -0.277958482503891 -0.4418604373931885
0.17829453945159912 -0.2770364284515381 -0.42635661363601685
0.17829453945159912 -0.2764050364494324 -0.41085273027420044
0.17829453945159912 -0.27625611424446106 -0.39534884691238403
0.17829453945159912 -0.27564072608947754 -0.3798449635505676
0.17829453945159912 -0.2737252116203308 -0.3643410801887512
0.17829453945159912 -0.2705179452896118 -0.3488371968269348
0.17829453945159912 -0.2677783966064453 -0.3333333134651184
0.17829453945159912 -0.26414954662323 -0.317829430103302
0.17829453945159912 -0.2571859061717987 -0.30232560634613037
0.17829453945159912 -0.24908745288848877 -0.28682172298431396
0.17829453945159912 -0.2347046285867691 -0.27131783962249756
0.17829453945159912 -0.23671384155750275 0.25581395626068115
0.17829453945159912 -0.2165018916130066 -0.25581395626068115
0.17829453945159912 -0.19697758555412292 -0.24031007289886475
0.17829453945159912 -0.1896393895149231 0.24031008780002594
0.17829453945159912 -0.17714275419712067 -0.22480617463588715
0.17829453945159912 -0.15925244987010956 -0.20930230617523193
0.17829453945159912 -0.14418497681617737 -0.19379842281341553
0.17829453945159912 -0.127630352973938 -0.1782945990562439
0.17829453945159912 -0.10560918599367142 -0.1627907156944275
0.17829453945159912 -0.0688978061079979 -0.14728684723377228
0.17829453945159912 -0.04156774654984474 -0.13178294897079468
0.17829453945159912 -0.014226429164409637 -0.11627906560897827
0.17829453945159912 5.529262125492096e-05 0.22480618953704834
0.17829453945159912 0.04008713364601135 -0.11627906560897827
0.17829453945159912 0.0595775805413723 -0.13178294897079468
0.17829453945159912 0.07558155059814453 -0.14728683233261108
0.17829453945159912 0.0802871435880661 0.22480618953704834
0.17829453945159912 0.09256233274936676 -0.1627907156944275
0.17829453945159912 0.11657413095235825 -0.1782945990562439
0.17829453945159912 0.16928601264953613 -0.1782945990562439
0.17829453945159912 0.1663113236427307 0.24031007289886475
0.17829453945159912 0.20350566506385803 0.25581395626068115
0.17829453945159912 0.23380376398563385 0.27131783962249756
0.17829453945159912 0.25850585103034973 0.28682172298431396
0.17829455435276031 0.27587446570396423 0.30232560634613037
0.17829453945159912 0.2952349781990051 0.3178294897079468
0.17829453945159912 0.32906726002693176 0.3333333730697632
0.17829453945159912 0.349842369556427 -0.1782945990562439
0.17829453945159912 0.38281673192977905 -0.1782945990562439
0.17829452455043793 0.4308663606643677 -0.1627907156944275
0.17829453945159912 0.44340944290161133 0.3488372564315796
0.17829453945159912 0.48036330938339233 -0.1627907156944275
0.17829453945159912 0.4975762367248535 -0.19379842281341553
0.17829453945159912 0.48861682415008545 -0.1782945990562439
0.17829453945159912 0.5096927881240845 -0.20930230617523193
0.17829453945159912 0.5263957381248474 -0.22480618953704834
0.17829453945159912 0.5334804058074951 0.364341139793396
0.17829453945159912 0.5450698137283325 -0.24031007289886475
0.17829453945159912 0.565808117389679 -0.25581395626068115
0.17829453945159912 0.5526963472366333 0.364341139793396
0.17829453945159912 0.5908423662185669 -0.27131783962249756
0.17829453945159912 0.6126997470855713 -0.28682172298431396
0.17829453945159912 0.6138702630996704 0.3488372564315796
0.17829453945159912 0.643019437789917 -0.7209302186965942
0.17829453945159912 0.6382310390472412 -0.30232560634613037
0.17829453945159912 0.6423758864402771 0.3333333730697632
0.17829453945159912 0.6526575684547424 -0.7364341020584106
0.17829453945159912 0.6567085981369019 -0.7054263353347778
0.17829453945159912 0.6569167375564575 -0.317829430103302
