-0.06976741552352905 0.7054263353347778 -0.5824611783027649
-0.06976741552352905 0.7054263353347778 -0.31360676884651184
-0.06976741552352905 0.7054263353347778 0.46516892313957214
-0.06976741552352905 0.7209302186965942 -0.6196922063827515
-0.06976741552352905 0.7209302186965942 -0.5728142261505127
-0.06976741552352905 0.7209301590919495 -0.34492355585098267
-0.06976741552352905 0.7209302186965942 0.45841699838638306
-0.06976741552352905 0.7364341020584106 -0.6192061305046082
-0.06976741552352905 0.7364341020584106 -0.5734848976135254
-0.06976741552352905 0.7364341020584106 -0.3586018681526184
-0.06976741552352905 0.7364341020584106 0.4535965025424957
-0.06976741552352905 0.751937985420227 -0.6165798306465149
-0.06976741552352905 0.751937985420227 -0.5818445086479187
-0.06976741552352905 0.751937985420227 -0.35698726773262024
-0.06976741552352905 0.751937985420227 0.4462240934371948
-0.06976741552352905 0.7674418687820435 -0.33493345975875854
-0.06976741552352905 0.7674418687820435 0.43809789419174194
-0.06976741552352905 0.7829457521438599 -0.28394854068756104
-0.06976741552352905 0.7829457521438599 0.42672133445739746
-0.06976741552352905 0.7984496355056763 -0.1605442464351654
-0.06976741552352905 0.7984496355056763 0.41416051983833313
-0.06976741552352905 0.8139535188674927 -0.11901714652776718
-0.06976741552352905 0.8139535188674927 0.40032875537872314
-0.06976741552352905 0.8294574022293091 -0.07834114134311676
-0.06976741552352905 0.8294574022293091 0.3847188651561737
-0.06976741552352905 0.8449612855911255 -0.037465836852788925
-0.06976741552352905 0.8449612855911255 0.36575159430503845
-0.06976741552352905 0.8604651689529419 0.0009921500459313393
-0.06976741552352905 0.8604651689529419 0.3443962633609772
-0.06976741552352905 0.8759689331054688 0.032798826694488525
-0.06976741552352905 0.8759689331054688 0.3094809055328369
-0.06976741552352905 0.8914728164672852 0.0667949691414833
-0.06976741552352905 0.8914727568626404 0.2434549182653427
-0.05426359176635742 -0.6124030947685242 0.026290349662303925
-0.05426359176635742 -0.6124030351638794 0.10807952284812927
-0.05426359176635742 -0.5968992114067078 0.01960485801100731
-0.05426359176635742 -0.5968992114067078 0.1521458774805069
-0.05426359176635742 -0.5813953876495361 0.02269165962934494
-0.05426359176635742 -0.5813953876495361 0.18528196215629578
-0.05426359176635742 -0.5658915042877197 0.03364044800400734
-0.05426359176635742 -0.5658915042877197 0.2185516655445099
-0.05426359176635742 -0.5503876209259033 0.043672703206539154
-0.05426359176635742 -0.5503876209259033 0.2564060091972351
-0.05426359176635742 -0.5348837375640869 0.05115029960870743
-0.05426359176635742 -0.5348837375640869 0.2902260422706604
-0.05426359176635742 -0.5193798542022705 0.05555040389299393
-0.05426359176635742 -0.5193798542022705 0.3218815326690674
-0.05426359176635742 -0.5038759708404541 0.060393016785383224
-0.05426359176635742 -0.5038759708404541 0.3552696704864502
-0.05426359176635742 -0.4883720874786377 0.06484341621398926
-0.05426359176635742 -0.4883720874786377 0.38622257113456726
-0.05426359176635742 -0.4728682041168213 0.06901639699935913
-0.05426359176635742 -0.4728682041168213 0.4099206030368805
-0.05426359176635742 -0.4573643207550049 0.07513190805912018
-0.05426359176635742 -0.4573643207550049 0.4319457411766052
-0.05426359176635742 -0.4418604373931885 0.08048415184020996
-0.05426359176635742 -0.4418604373931885 0.4503192603588104
-0.05426359176635742 -0.42635661363601685 0.08513839542865753
-0.05426359176635742 -0.42635661363601685 0.4682173728942871
-0.05426359176635742 -0.41085273027420044 0.09148529171943665
-0.05426359176635742 -0.41085273027420044 0.48620080947875977
-0.05426359176635742 -0.39534884691238403 0.09661899507045746
-0.05426359176635742 -0.39534884691238403 0.5034929513931274
-0.05426359176635742 -0.3798449635505676 0.09821292012929916
-0.05426359176635742 -0.3798449635505676 0.5227437615394592
-0.05426359176635742 -0.3643410801887512 0.09298954904079437
-0.05426359176635742 -0.3643410801887512 0.5400838851928711
-0.05426359176635742 -0.3488371968269348 0.07767195254564285
-0.05426359176635742 -0.3488371968269348 0.5532917380332947
-0.05426358804106712 -0.3333333134651184 0.05628221854567528
-0.05426359176635742 -0.3333333134651184 0.5631364583969116
-0.05426359176635742 -0.317829430103302 0.03489642217755318
-0.05426359176635742 -0.317829430103302 0.5692181587219238
-0.05426359176635742 -0.30232560634613037 0.015331937931478024
-0.05426359176635742 -0.30232560634613037 0.5741304159164429
-0.05426359176635742 -0.28682172298431396 -0.002806560369208455
-0.05426359176635742 -0.28682172298431396 0.577446460723877
-0.05426359176635742 -0.27131783962249756 -0.0182759128510952
-0.05426359176635742 -0.27131783962249756 0.57874596118927
-0.05426359176635742 -0.25581395626068115 -0.032958291471004486
-0.05426359176635742 -0.25581395626068115 0.5798082947731018
-0.05426359176635742 -0.24031005799770355 -0.04731661453843117
-0.05426359176635742 -0.24031007289886475 0.5811344385147095
-0.05426359176635742 -0.22480618953704834 -0.061554305255413055
-0.05426359176635742 -0.22480618953704834 0.5818066000938416
-0.05426359176635742 -0.20930230617523193 -0.07562407106161118
-0.05426359176635742 -0.20930230617523193 0.5821276903152466
-0.05426359176635742 -0.19379842281341553 -0.08997990190982819
-0.05426359176635742 -0.19379842281341553 0.5825445055961609
-0.05426359176635742 -0.1782945990562439 -0.10554970055818558
-0.05426359176635742 -0.1782945990562439 0.5829421877861023
-0.05426359176635742 -0.1627907156944275 -0.11999793350696564
-0.05426359176635742 -0.1627907156944275 0.5833398103713989
-0.05426359176635742 -0.14728683233261108 -0.13531233370304108
-0.05426359176635742 -0.14728683233261108 0.5835488438606262
-0.05426359176635742 -0.13178294897079468 -0.14963267743587494
-0.05426358804106712 -0.13178294897079468 0.5837497115135193
-0.05426359176635742 -0.11627906560897827 -0.16413059830665588
-0.05426359176635742 -0.11627906560897827 0.5841588973999023
-0.05426359176635742 -0.10077518224716187 -0.17901718616485596
-0.05426359176635742 -0.10077518224716187 0.5846258401870728
-0.05426359176635742 -0.08527129888534546 -0.1926802098751068
-0.05426358804106712 -0.08527129143476486 0.5850608944892883
-0.05426359176635742 -0.06976741552352905 -0.20312000811100006
-0.05426359176635742 -0.06976741552352905 0.5859798192977905
-0.05426359176635742 -0.05426359176635742 -0.2106453776359558
-0.05426359176635742 -0.05426359176635742 0.5871192216873169
-0.05426359176635742 -0.038759708404541016 -0.21487200260162354
-0.05426359549164772 -0.038759708404541016 0.58772873878479
-0.05426359176635742 -0.02325582504272461 -0.21872039139270782
-0.05426359176635742 -0.02325582504272461 0.5884204506874084
-0.05426359176635742 -0.007751941680908203 -0.22221088409423828
-0.05426359176635742 -0.007751941680908203 0.5889401435852051
-0.05426359176635742 0.007751941680908203 -0.22497281432151794
-0.05426359176635742 0.007751941680908203 0.5887603759765625
-0.05426359176635742 0.02325582504272461 -0.22500517964363098
-0.05426359176635742 0.02325582504272461 0.5882754921913147
-0.05426359176635742 0.038759708404541016 -0.22416764497756958
-0.05426359176635742 0.038759708404541016 0.5877770781517029
-0.05426358804106712 0.05426358804106712 -0.22291669249534607
-0.05426359176635742 0.05426359176635742 0.5874907374382019
-0.05426359176635742 0.06976747512817383 -0.22104281187057495
-0.05426359176635742 0.06976747512817383 0.5867516994476318
-0.05426359176635742 0.08527135848999023 -0.21772882342338562
-0.05426359176635742 0.08527135848999023 0.5858867168426514
-0.05426359176635742 0.10077524185180664 -0.21313011646270752
-0.05426359176635742 0.10077524185180664 0.5852222442626953
-0.05426359176635742 0.11627912521362305 -0.20813505351543427
-0.05426359176635742 0.11627912521362305 0.5842109322547913
-0.05426359176635742 0.1317828893661499 -0.2014293372631073
-0.05426359176635742 0.1317828893661499 0.5830133557319641
-0.05426359176635742 0.1472867727279663 -0.19504421949386597
-0.05426359176635742 0.1472867727279663 0.5821363925933838
-0.05426359176635742 0.16279065608978271 -0.18875998258590698
-0.05426359176635742 0.16279065608978271 0.5811548829078674
-0.05426359176635742 0.17829453945159912 -0.18218772113323212
-0.05426359176635742 0.17829453945159912 0.5793482661247253
-0.05426359176635742 0.19379842281341553 -0.17501607537269592
-0.05426359176635742 0.19379842281341553 0.5781969428062439
-0.05426359176635742 0.20930230617523193 -0.16974550485610962
-0.05426359176635742 0.20930230617523193 0.5767124891281128
-0.05426359176635742 0.22480618953704834 -0.16443023085594177
-0.05426359176635742 0.22480618953704834 0.5749300718307495
-0.05426359176635742 0.24031007289886475 -0.16172149777412415
-0.05426359176635742 0.24031005799770355 0.5728023052215576
-0.05426359176635742 0.25581395626068115 -0.16136913001537323
-0.05426359176635742 0.25581395626068115 0.5703586339950562
-0.05426358804106712 0.27131780982017517 -0.16273534297943115
-0.05426358804106712 0.27131783962249756 0.56850266456604
-0.05426359176635742 0.28682172298431396 -0.16442883014678955
-0.05426359176635742 0.28682172298431396 0.566847026348114
-0.05426359176635742 0.30232560634613037 -0.16684553027153015
-0.05426359176635742 0.30232560634613037 0.5651736855506897
-0.05426359176635742 0.3178294897079468 -0.1693602353334427
-0.05426359176635742 0.3178294897079468 0.5636612176895142
-0.05426359176635742 0.3333333730697632 -0.17168109118938446
-0.05426359176635742 0.3333333730697632 0.5623963475227356
-0.05426359176635742 0.3488372564315796 -0.17377157509326935
-0.05426359176635742 0.3488372564315796 0.5599163770675659
-0.05426359549164772 0.364341139793396 -0.17491817474365234
-0.05426359176635742 0.364341139793396 0.556419849395752
-0.05426359176635742 0.37984490394592285 -0.17514851689338684
-0.05426359176635742 0.37984490394592285 0.5524020791053772
-0.05426359176635742 0.39534881711006165 -0.17427977919578552
-0.05426359176635742 0.39534878730773926 0.5492464303970337
-0.05426359176635742 0.41085267066955566 -0.17202839255332947
-0.05426359176635742 0.41085267066955566 0.5474592447280884
-0.05426359176635742 0.42635655403137207 -0.16846397519111633
-0.05426359176635742 0.42635655403137207 0.5448907613754272
-0.05426359176635742 0.4418604373931885 -0.1637423038482666
-0.05426359176635742 0.44186046719551086 0.5410242080688477
-0.05426359176635742 0.4573643207550049 -0.158223956823349
-0.05426359176635742 0.4573643207550049 0.5366190671920776
-0.05426359176635742 0.4728682041168213 -0.152055025100708
-0.05426359176635742 0.4728682041168213 0.5332926511764526
-0.05426359176635742 0.4883720874786377 -0.14823514223098755
-0.05426359176635742 0.4883720874786377 0.5314634442329407
-0.05426359176635742 0.5038759708404541 -0.14495600759983063
-0.05426359176635742 0.5038759708404541 0.5284773111343384
-0.05426359176635742 0.5193798542022705 -0.1406351625919342
-0.05426359176635742 0.5193798542022705 0.5238247513771057
-0.05426359176635742 0.5348837375640869 -0.13683176040649414
-0.05426359176635742 0.5348837375640869 0.5192662477493286
-0.05426359176635742 0.5503876209259033 -0.13406912982463837
-0.05426359176635742 0.5503876209259033 0.5167855024337769
-0.05426359176635742 0.5658915042877197 -0.13290871679782867
-0.05426359176635742 0.5658915042877197 0.5139045119285583
-0.05426359176635742 0.5813953876495361 -0.13213033974170685
-0.05426359176635742 0.5813953876495361 0.5089702010154724
-0.05426359176635742 0.5968992710113525 -0.13386890292167664
-0.05426359176635742 0.5968992710113525 0.5036708116531372
-0.05426359176635742 0.612403154373169 -0.13884538412094116
-0.05426359176635742 0.612403154373169 0.5004675388336182
-0.05426359176635742 0.6279069185256958 -0.14754557609558105
-0.05426359176635742 0.6279069185256958 0.4959283769130707
-0.05426359176635742 0.6434108018875122 -0.15419825911521912
-0.05426359176635742 0.6434108018875122 0.4893641769886017
-0.05426359176635742 0.6589146852493286 -0.16416104137897491
-0.05426359176635742 0.6589146852493286 0.4853360652923584
-0.05426359176635742 0.674418568611145 -0.1732688844203949
-0.05426359176635742 0.674418568611145 0.48066815733909607
-0.05426359176635742 0.6899224519729614 -0.18672871589660645
-0.05426359176635742 0.6899224519729614 0.47388720512390137
-0.05426359549164772 0.7054263353347778 -0.20778679847717285
-0.05426359176635742 0.7054263353347778 0.46976208686828613
-0.05426359176635742 0.7209302186965942 -0.2282024472951889
-0.05426359176635742 0.7209302186965942 0.46462535858154297
-0.05426359176635742 0.7364341020584106 -0.23480327427387238
-0.05426358804106712 0.7364341020584106 0.45755916833877563
-0.05426359176635742 0.751937985420227 -0.22349753975868225
-0.05426359176635742 0.751937985420227 0.4519926905632019
-0.05426359176635742 0.7674418687820435 -0.17856359481811523
-0.05426359176635742 0.7674418687820435 0.4421851933002472
-0.05426359176635742 0.7829457521438599 -0.14450155198574066
-0.05426359176635742 0.7829457521438599 0.4320025146007538
-0.05426359176635742 0.7984496355056763 -0.12195228785276413
-0.05426359176635742 0.7984496355056763 0.41986221075057983
-0.05426359176635742 0.8139535188674927 -0.09704452753067017
-0.05426359176635742 0.8139535188674927 0.40556928515434265
-0.05426359176635742 0.8294574022293091 -0.06317167729139328
-0.05426359176635742 0.8294574022293091 0.38998907804489136
-0.05426359176635742 0.8449612855911255 -0.026800792664289474
-0.05426359176635742 0.8449612855911255 0.3718060255050659
-0.05426359176635742 0.8604651689529419 0.004658153280615807
-0.05426359176635742 0.8604651689529419 0.3484582304954529
-0.05426359176635742 0.8759689331054688 0.03368763253092766
-0.05426359176635742 0.8759689331054688 0.3141760230064392
-0.05426359176635742 0.8914728164672852 0.06692024320363998
-0.05426359176635742 0.8914728164672852 0.2490142583847046
-0.05426359176635742 0.9069766402244568 0.11785158514976501
-0.05426359176635742 0.9069766998291016 0.1561480164527893
-0.038759708404541016 -0.643410861492157 0.005924386903643608
-0.038759708404541016 -0.643410861492157 0.058829016983509064
-0.038759708404541016 -0.6279069781303406 0.001104831462725997
-0.038759708404541016 -0.6279069781303406 0.10612852871417999
-0.038759708404541016 -0.612403154373169 -0.0018828900065273046
-0.038759708404541016 -0.612403154373169 0.15096962451934814
-0.038759708404541016 -0.5968992114067078 -0.000679355813190341
-0.038759708404541016 -0.5968992114067078 0.18368695676326752
-0.038759708404541016 -0.5813953876495361 0.004999180324375629
-0.038759708404541016 -0.5813953876495361 0.21328133344650269
-0.038759708404541016 -0.5658915042877197 0.015303073450922966
-0.038759708404541016 -0.5658915042877197 0.24487705528736115
-0.038759708404541016 -0.5503876209259033 0.026938172057271004
-0.038759708404541016 -0.5503876209259033 0.27868080139160156
-0.038759708404541016 -0.5348837375640869 0.03689352422952652
-0.038759708404541016 -0.5348837375640869 0.3113221228122711
-0.038759708404541016 -0.5193798542022705 0.043275073170661926
-0.038759708404541016 -0.5193798542022705 0.3449868857860565
-0.038759708404541016 -0.5038759708404541 0.04822412505745888
-0.038759708404541016 -0.5038759708404541 0.37658828496932983
-0.038759708404541016 -0.4883720874786377 0.05241994187235832
-0.038759708404541016 -0.4883720874786377 0.40219858288764954
-0.038759708404541016 -0.4728682339191437 0.057283174246549606
-0.038759708404541016 -0.4728682041168213 0.42189568281173706
-0.038759708404541016 -0.4573643207550049 0.061739638447761536
-0.038759708404541016 -0.4573643207550049 0.4403453469276428
-0.038759708404541016 -0.4418604373931885 0.0656612366437912
-0.038759708404541016 -0.44186046719551086 0.45893073081970215
-0.038759708404541016 -0.42635661363601685 0.06930402666330338
-0.038759708404541016 -0.42635661363601685 0.476126492023468
-0.038759708404541016 -0.41085273027420044 0.07514172792434692
-0.038759708404541016 -0.41085273027420044 0.49338865280151367
-0.038759708404541016 -0.39534884691238403 0.08082149922847748
-0.038759708404541016 -0.39534884691238403 0.5100687146186829
-0.038759708404541016 -0.3798449635505676 0.08328089863061905
-0.038759708404541016 -0.3798449635505676 0.5279427766799927
-0.038759708404541016 -0.3643410801887512 0.07956214249134064
-0.038759708404541016 -0.3643410801887512 0.5444396734237671
-0.038759708404541016 -0.3488371968269348 0.06587552279233932
-0.038759708404541016 -0.3488371968269348 0.5576679110527039
-0.038759708404541016 -0.3333333134651184 0.04626116156578064
-0.03875970467925072 -0.3333333134651184 0.5660951137542725
-0.038759708404541016 -0.317829430103302 0.02533777989447117
-0.038759708404541016 -0.317829430103302 0.5737408399581909
-0.038759708404541016 -0.30232560634613037 0.006961164064705372
-0.038759708404541016 -0.30232560634613037 0.5784972310066223
-0.038759708404541016 -0.28682172298431396 -0.009344781748950481
-0.038759708404541016 -0.28682172298431396 0.580372154712677
-0.038759708404541016 -0.27131783962249756 -0.024062126874923706
-0.038759708404541016 -0.27131786942481995 0.5821693539619446
-0.038759708404541016 -0.25581395626068115 -0.03914300352334976
-0.038759708404541016 -0.25581395626068115 0.5831451416015625
-0.038759708404541016 -0.24031007289886475 -0.05345211178064346
-0.038759708404541016 -0.24031007289886475 0.5841948986053467
-0.038759708404541016 -0.22480618953704834 -0.06729862838983536
-0.038759708404541016 -0.22480618953704834 0.5852329134941101
-0.038759708404541016 -0.20930230617523193 -0.08030539005994797
-0.038759708404541016 -0.20930230617523193 0.5859366059303284
-0.038759708404541016 -0.19379842281341553 -0.09456371515989304
-0.038759708404541016 -0.19379842281341553 0.5868816375732422
-0.038759708404541016 -0.1782945990562439 -0.10993106663227081
-0.038759708404541016 -0.1782945990562439 0.587844729423523
-0.038759708404541016 -0.1627907156944275 -0.1255357563495636
-0.038759708404541016 -0.1627907156944275 0.5886874198913574
-0.038759708404541016 -0.14728683233261108 -0.14070969820022583
-0.038759708404541016 -0.14728683233261108 0.589102566242218
-0.038759708404541016 -0.13178294897079468 -0.15404069423675537
-0.038759708404541016 -0.13178294897079468 0.5893914103507996
-0.038759708404541016 -0.11627906560897827 -0.16713771224021912
-0.038759708404541016 -0.11627906560897827 0.5898509621620178
-0.038759708404541016 -0.10077518224716187 -0.17923195660114288
-0.038759708404541016 -0.10077518224716187 0.590318500995636
-0.038759708404541016 -0.08527129888534546 -0.18872997164726257
-0.038759708404541016 -0.08527129888534546 0.5907065272331238
-0.038759708404541016 -0.06976741552352905 -0.19673961400985718
-0.038759708404541016 -0.06976741552352905 0.5914665460586548
-0.038759708404541016 -0.05426359176635742 -0.20163005590438843
-0.038759708404541016 -0.05426359176635742 0.5923267006874084
-0.038759708404541016 -0.038759708404541016 -0.20619690418243408
-0.038759708404541016 -0.038759708404541016 0.5927109718322754
-0.038759708404541016 -0.02325582504272461 -0.20994830131530762
-0.038759708404541016 -0.02325582504272461 0.5930622816085815
-0.038759708404541016 -0.007751941680908203 -0.21152031421661377
-0.038759708404541016 -0.007751941680908203 0.5932831764221191
-0.038759708404541016 0.007751941680908203 -0.2125815451145172
-0.038759708404541016 0.007751941680908203 0.5930711627006531
-0.038759708404541016 0.02325582504272461 -0.21183548867702484
-0.038759708404541016 0.02325582504272461 0.5926867723464966
-0.038759708404541016 0.038759708404541016 -0.2108212262392044
-0.038759708404541016 0.038759708404541016 0.5923248529434204
-0.038759708404541016 0.05426359176635742 -0.20966072380542755
-0.038759708404541016 0.05426359176635742 0.5921748280525208
-0.038759708404541016 0.06976747512817383 -0.20760606229305267
-0.038759708404541016 0.06976747512817383 0.5917541980743408
-0.038759708404541016 0.08527135848999023 -0.20408886671066284
-0.038759708404541016 0.08527135848999023 0.5912376642227173
-0.038759708404541016 0.10077524185180664 -0.20046456158161163
-0.038759708404541016 0.10077524185180664 0.5909013748168945
-0.038759708404541016 0.11627912521362305 -0.19658491015434265
-0.038759708404541016 0.11627912521362305 0.5902363657951355
-0.038759708404541016 0.1317828893661499 -0.192260280251503
-0.038759708404541016 0.1317828893661499 0.5890386700630188
-0.038759708404541016 0.1472867727279663 -0.1866266429424286
-0.038759708404541016 0.1472867727279663 0.5877012014389038
-0.038759708404541016 0.16279065608978271 -0.18092317879199982
-0.038759708404541016 0.16279065608978271 0.5860885977745056
-0.038759708404541016 0.17829453945159912 -0.17511075735092163
-0.038759708404541016 0.17829453945159912 0.5839289426803589
-0.038759708404541016 0.19379842281341553 -0.16948293149471283
-0.03875970467925072 0.19379840791225433 0.5823326110839844
-0.038759708404541016 0.20930230617523193 -0.16324831545352936
-0.038759708404541016 0.20930230617523193 0.5806835293769836
-0.038759708404541016 0.22480617463588715 -0.15862169861793518
-0.038759708404541016 0.22480618953704834 0.5793888568878174
-0.038759708404541016 0.24031007289886475 -0.15689198672771454
-0.038759708404541016 0.24031007289886475 0.5784707069396973
-0.038759708404541016 0.25581395626068115 -0.15757891535758972
-0.038759708404541016 0.25581395626068115 0.5771723985671997
-0.038759708404541016 0.27131783962249756 -0.15996509790420532
-0.038759708404541016 0.27131783962249756 0.5757410526275635
-0.038759708404541016 0.28682172298431396 -0.16325029730796814
-0.038759708404541016 0.28682172298431396 0.5738574266433716
-0.038759708404541016 0.30232560634613037 -0.1664714813232422
-0.038759708404541016 0.30232560634613037 0.5713756084442139
-0.038759708404541016 0.3178294897079468 -0.16951300203800201
-0.038759708404541016 0.3178294897079468 0.5688269734382629
-0.038759708404541016 0.3333333730697632 -0.17223519086837769
-0.038759708404541016 0.3333333730697632 0.5664219856262207
-0.038759708404541016 0.3488372564315796 -0.1745336949825287
-0.038759708404541016 0.3488372564315796 0.564159631729126
-0.03875970467925072 0.364341139793396 -0.1758648306131363
-0.038759708404541016 0.364341139793396 0.5625510811805725
-0.038759708404541016 0.37984490394592285 -0.17618729174137115
-0.038759708404541016 0.37984490394592285 0.5597339868545532
-0.038759708404541016 0.39534878730773926 -0.17525160312652588
-0.038759708404541016 0.39534878730773926 0.5554500818252563
-0.038759708404541016 0.41085267066955566 -0.17304402589797974
-0.038759708404541016 0.41085267066955566 0.5514020323753357
-0.038759708404541016 0.42635655403137207 -0.16948199272155762
-0.038759708404541016 0.42635655403137207 0.5486535429954529
-0.038759708404541016 0.4418604373931885 -0.16490791738033295
-0.038759708404541016 0.4418604373931885 0.5469399690628052
-0.038759708404541016 0.4573643207550049 -0.15978433191776276
-0.038759708404541016 0.4573643207550049 0.5439706444740295
-0.038759708404541016 0.4728682041168213 -0.15411490201950073
-0.038759708404541016 0.4728682041168213 0.539268970489502
-0.038759708404541016 0.4883720874786377 -0.15042944252490997
-0.038759708404541016 0.4883720874786377 0.535077691078186
-0.038759708404541016 0.5038759708404541 -0.14781036972999573
-0.038759708404541016 0.5038759708404541 0.5325520634651184
-0.038759708404541016 0.5193798542022705 -0.14347052574157715
-0.038759708404541016 0.5193798542022705 0.5302338004112244
-0.038759708404541016 0.5348837375640869 -0.1382853090763092
-0.038759708404541016 0.5348837375640869 0.5262300372123718
-0.038759708404541016 0.5503876209259033 -0.13303014636039734
-0.038759708404541016 0.5503876209259033 0.5211056470870972
-0.038759708404541016 0.5658915042877197 -0.1270345151424408
-0.038759708404541016 0.5658915042877197 0.517318606376648
-0.038759708404541016 0.5813953876495361 -0.12076683342456818
-0.038759708404541016 0.5813953876495361 0.5145360827445984
-0.038759708404541016 0.5968992710113525 -0.1220315620303154
-0.038759708404541016 0.5968992710113525 0.5094544887542725
-0.038759708404541016 0.612403154373169 -0.12931352853775024
-0.038759708404541016 0.612403154373169 0.5033032894134521
-0.038759708404541016 0.6279069185256958 -0.13587825000286102
-0.038759708404541016 0.6279069185256958 0.5000417232513428
-0.038759708404541016 0.6434108018875122 -0.14302459359169006
-0.038759708404541016 0.6434108018875122 0.494825541973114
-0.038759708404541016 0.6589146852493286 -0.14793111383914948
-0.038759708404541016 0.6589146852493286 0.48825758695602417
-0.038759708404541016 0.674418568611145 -0.14899934828281403
-0.038759708404541016 0.674418568611145 0.48443907499313354
-0.038759708404541016 0.6899224519729614 -0.14982829988002777
-0.038759708404541016 0.6899224519729614 0.47896942496299744
-0.038759708404541016 0.7054263353347778 -0.15023621916770935
-0.038759708404541016 0.7054263353347778 0.472625732421875
-0.038759708404541016 0.7209302186965942 -0.14991921186447144
-0.038759708404541016 0.7209302186965942 0.468375563621521
-0.038759708404541016 0.7364341020584106 -0.14727936685085297
-0.038759708404541016 0.7364341020584106 0.46153396368026733
-0.038759708404541016 0.751937985420227 -0.14062924683094025
-0.038759708404541016 0.751937985420227 0.4549713432788849
-0.038759708404541016 0.7674418687820435 -0.13047176599502563
-0.038759708404541016 0.7674418687820435 0.44542068243026733
-0.038759708404541016 0.7829457521438599 -0.11747405678033829
-0.038759708404541016 0.7829457521438599 0.4353710114955902
-0.038759708404541016 0.7984496355056763 -0.1022091805934906
-0.038759708404541016 0.7984496355056763 0.42222338914871216
-0.038759708404541016 0.8139535188674927 -0.08097542077302933
-0.038759708404541016 0.8139535188674927 0.40756505727767944
-0.038759708404541016 0.8294574022293091 -0.051123738288879395
-0.038759708404541016 0.8294574022293091 0.3918701708316803
-0.038759708404541016 0.8449612855911255 -0.017742235213518143
-0.038759708404541016 0.8449612855911255 0.37375199794769287
-0.038759712129831314 0.8604652285575867 0.00888612400740385
-0.038759708404541016 0.8604651689529419 0.34970104694366455
-0.038759708404541016 0.8759689331054688 0.03595339134335518
-0.038759708404541016 0.8759689331054688 0.31276601552963257
-0.038759708404541016 0.8914728164672852 0.06691019982099533
-0.038759708404541016 0.8914728164672852 0.24372509121894836
-0.038759708404541016 0.9069766998291016 0.11435604095458984
-0.038759708404541016 0.9069766998291016 0.15167808532714844
-0.02325582504272461 -0.9534883499145508 -0.5712512135505676
-0.02325582504272461 -0.9534883499145508 -0.5628267526626587
-0.02325582504272461 -0.9379844665527344 -0.5815249085426331
-0.02325582504272461 -0.9379844665527344 -0.5767360329627991
-0.02325582504272461 -0.8294573426246643 -0.5398280620574951
-0.02325582504272461 -0.8294573426246643 -0.4927281141281128
-0.02325582504272461 -0.8139535188674927 -0.5272169709205627
-0.02325582504272461 -0.8139535188674927 -0.4732125997543335
-0.02325582504272461 -0.7984496355056763 -0.4816930890083313
-0.02325582690536976 -0.798449695110321 -0.47174233198165894
-0.02325582504272461 -0.7674418687820435 -0.4447972774505615
-0.02325582504272461 -0.7674418687820435 -0.24332010746002197
-0.02325582504272461 -0.751937985420227 -0.43921875953674316
-0.02325582504272461 -0.751937985420227 -0.1635286957025528
-0.02325582504272461 -0.7364341020584106 -0.40480324625968933
-0.02325582504272461 -0.7364341020584106 -0.12699519097805023
-0.02325582504272461 -0.7209302186965942 -0.19521449506282806
-0.02325582504272461 -0.7209302186965942 -0.07263779640197754
-0.02325582504272461 -0.7054263353347778 -0.12174998968839645
-0.02325582504272461 -0.7054263353347778 -0.026777107268571854
-0.02325582504272461 -0.6899224519729614 -0.092294842004776
-0.02325582504272461 -0.6899224519729614 -0.0005471305921673775
-0.02325582504272461 -0.674418568611145 -0.055455200374126434
-0.02325582504272461 -0.6744185090065002 0.026138383895158768
-0.02325582504272461 -0.6589146852493286 -0.02431456744670868
-0.02325582504272461 -0.6589146852493286 0.05531536042690277
-0.02325582504272461 -0.643410861492157 -0.01349692977964878
-0.02325582504272461 -0.6434108018875122 0.09047629684209824
-0.02325582504272461 -0.6279069781303406 -0.01112699881196022
-0.02325582504272461 -0.6279069781303406 0.13592258095741272
-0.02325582504272461 -0.6124030947685242 -0.010296303778886795
-0.02325582504272461 -0.6124030947685242 0.17344391345977783
-0.02325582504272461 -0.5968992114067078 -0.008550510741770267
-0.02325582504272461 -0.5968992114067078 0.20299962162971497
-0.02325582504272461 -0.5813953876495361 -0.0023519836831837893
-0.02325582504272461 -0.5813953876495361 0.2315405160188675
-0.02325582504272461 -0.5658915042877197 0.006231777369976044
-0.02325582504272461 -0.5658915042877197 0.26295775175094604
-0.02325582504272461 -0.5503876209259033 0.018054520711302757
-0.02325582504272461 -0.5503876209259033 0.29631322622299194
-0.02325582504272461 -0.5348837375640869 0.02751377411186695
-0.02325582504272461 -0.5348837375640869 0.3295273184776306
-0.02325582504272461 -0.5193798542022705 0.034242771565914154
-0.02325582504272461 -0.5193798542022705 0.36467015743255615
-0.02325582504272461 -0.5038759708404541 0.038496728986501694
-0.02325582504272461 -0.5038759708404541 0.39009159803390503
-0.02325582504272461 -0.4883720874786377 0.044074393808841705
-0.02325582504272461 -0.4883720874786377 0.41197508573532104
-0.02325582504272461 -0.4728682041168213 0.048432692885398865
-0.02325582504272461 -0.4728682041168213 0.4315164387226105
-0.02325582504272461 -0.4573643207550049 0.05181625485420227
-0.02325582504272461 -0.4573643207550049 0.44810307025909424
-0.02325582504272461 -0.4418604373931885 0.05537858605384827
-0.02325582504272461 -0.4418604373931885 0.464841365814209
-0.02325582504272461 -0.42635661363601685 0.06017453223466873
-0.02325582504272461 -0.42635661363601685 0.48091816902160645
-0.02325582504272461 -0.41085273027420044 0.06495620310306549
-0.02325582504272461 -0.41085273027420044 0.49729251861572266
-0.02325582504272461 -0.39534884691238403 0.0696403756737709
-0.02325582504272461 -0.39534884691238403 0.5134280323982239
-0.02325582504272461 -0.3798449635505676 0.07394622266292572
-0.02325582504272461 -0.3798449635505676 0.5305376052856445
-0.02325582504272461 -0.3643410801887512 0.07075297087430954
-0.02325582504272461 -0.3643410801887512 0.5466731190681458
-0.02325582504272461 -0.3488371968269348 0.05926850065588951
-0.02325582504272461 -0.3488371968269348 0.5607413053512573
-0.02325582504272461 -0.3333333134651184 0.03972897306084633
-0.02325582504272461 -0.333333283662796 0.569519579410553
-0.02325582504272461 -0.317829430103302 0.020293401554226875
-0.02325582504272461 -0.317829430103302 0.577425479888916
-0.02325582504272461 -0.30232560634613037 0.002508149715140462
-0.02325582504272461 -0.30232560634613037 0.5806363821029663
-0.02325582504272461 -0.28682172298431396 -0.01341651938855648
-0.02325582504272461 -0.28682172298431396 0.582829475402832
-0.02325582504272461 -0.27131783962249756 -0.028087694197893143
-0.02325582504272461 -0.27131783962249756 0.5849445462226868
-0.02325582504272461 -0.25581395626068115 -0.04253014177083969
-0.02325582504272461 -0.25581395626068115 0.5871807336807251
-0.02325582504272461 -0.24031007289886475 -0.05659500136971474
-0.02325582504272461 -0.24031007289886475 0.5891824960708618
-0.02325582504272461 -0.22480618953704834 -0.07071423530578613
-0.02325582504272461 -0.22480618953704834 0.5905380845069885
-0.02325582504272461 -0.20930230617523193 -0.08385001122951508
-0.02325582504272461 -0.20930230617523193 0.5911918878555298
-0.02325582504272461 -0.19379842281341553 -0.09817248582839966
-0.02325582504272461 -0.19379842281341553 0.5918296575546265
-0.02325582504272461 -0.1782945990562439 -0.11348676681518555
-0.02325582504272461 -0.1782945990562439 0.5924379825592041
-0.02325582690536976 -0.1627907156944275 -0.13045603036880493
-0.02325582504272461 -0.1627907156944275 0.5929592847824097
-0.02325582504272461 -0.14728683233261108 -0.14578010141849518
-0.02325582504272461 -0.14728683233261108 0.5931520462036133
-0.02325582504272461 -0.13178294897079468 -0.1586640179157257
-0.02325582504272461 -0.13178294897079468 0.5932783484458923
-0.02325582504272461 -0.11627906560897827 -0.1714329719543457
-0.02325582504272461 -0.11627906560897827 0.5934986472129822
-0.02325582504272461 -0.10077518224716187 -0.18155619502067566
-0.02325582504272461 -0.10077518224716187 0.5937476754188538
-0.02325582504272461 -0.08527129888534546 -0.18882909417152405
-0.02325582504272461 -0.08527129888534546 0.5939552783966064
-0.02325582504272461 -0.06976741552352905 -0.1956477165222168
-0.02325582504272461 -0.06976741552352905 0.5944285988807678
-0.02325582504272461 -0.05426359176635742 -0.19979217648506165
-0.02325582504272461 -0.05426359176635742 0.5951336026191711
-0.02325582504272461 -0.038759708404541016 -0.20374494791030884
-0.02325582504272461 -0.038759708404541016 0.5956125259399414
-0.02325582504272461 -0.02325582504272461 -0.20694448053836823
-0.02325582504272461 -0.02325582504272461 0.5961317420005798
-0.02325582504272461 -0.007751941680908203 -0.208669051527977
-0.02325582504272461 -0.007751941680908203 0.5964648723602295
-0.02325582504272461 0.007751941680908203 -0.20916400849819183
-0.02325582504272461 0.007751941680908203 0.5960403680801392
-0.02325582504272461 0.02325582504272461 -0.20733240246772766
-0.02325582504272461 0.02325582504272461 0.5953581929206848
-0.02325582318007946 0.038759708404541016 -0.20563220977783203
-0.02325582504272461 0.038759708404541016 0.5948089957237244
-0.02325582504272461 0.05426359176635742 -0.20391950011253357
-0.02325582504272461 0.05426359176635742 0.5946118831634521
-0.02325582504272461 0.06976747512817383 -0.20146490633487701
-0.02325582504272461 0.06976747512817383 0.5942573547363281
-0.02325582504272461 0.08527135848999023 -0.19821539521217346
-0.02325582504272461 0.08527135848999023 0.5939635634422302
-0.02325582504272461 0.10077524185180664 -0.1952095925807953
-0.02325582504272461 0.10077524185180664 0.5938429832458496
-0.02325582690536976 0.11627912521362305 -0.19153906404972076
-0.02325582504272461 0.11627912521362305 0.5936057567596436
-0.02325582504272461 0.1317828893661499 -0.18641623854637146
-0.02325582504272461 0.1317828893661499 0.5930482149124146
-0.02325582504272461 0.1472867727279663 -0.18136273324489594
-0.02325582504272461 0.1472867727279663 0.5922941565513611
-0.02325582504272461 0.16279065608978271 -0.17614607512950897
-0.02325582504272461 0.16279065608978271 0.591295599937439
-0.02325582504272461 0.17829453945159912 -0.1710250973701477
-0.02325582504272461 0.17829453945159912 0.5894057154655457
-0.02325582504272461 0.19379842281341553 -0.16480928659439087
-0.02325582504272461 0.19379842281341553 0.5870674252510071
-0.02325582504272461 0.20930230617523193 -0.1584460586309433
-0.02325582504272461 0.20930230617523193 0.5845520496368408
-0.02325582504272461 0.22480618953704834 -0.15446630120277405
-0.02325582318007946 0.22480618953704834 0.5827546119689941
-0.02325582504272461 0.24031007289886475 -0.15303124487400055
-0.02325582504272461 0.24031007289886475 0.5812532305717468
-0.02325582504272461 0.25581395626068115 -0.1542178988456726
-0.02325582504272461 0.25581395626068115 0.5799452066421509
-0.02325582504272461 0.27131783962249756 -0.1574961245059967
-0.02325582504272461 0.27131783962249756 0.5792084336280823
-0.02325582504272461 0.28682172298431396 -0.16210076212882996
-0.02325582504272461 0.28682172298431396 0.578326404094696
-0.02325582504272461 0.30232560634613037 -0.1662033051252365
-0.02325582504272461 0.30232560634613037 0.5767781138420105
-0.02325582504272461 0.3178294897079468 -0.1696576625108719
-0.02325582504272461 0.3178294897079468 0.5747271180152893
-0.02325582504272461 0.3333333730697632 -0.17266222834587097
-0.02325582504272461 0.3333333730697632 0.33322951197624207
-0.02325582504272461 0.3333333730697632 0.333423376083374
-0.02325582504272461 0.3333333730697632 0.5720093846321106
-0.02325582504272461 0.3488372564315796 -0.17521075904369354
-0.02325582504272461 0.3488372564315796 0.31458204984664917
-0.02325582504272461 0.3488372564315796 0.36093923449516296
-0.02325582504272461 0.3488372564315796 0.5683419704437256
-0.02325582504272461 0.364341139793396 -0.1767856925725937
-0.02325582504272461 0.364341139793396 0.31345856189727783
-0.02325582504272461 0.364341139793396 0.3833639621734619
-0.02325582504272461 0.364341139793396 0.5651551485061646
-0.02325582504272461 0.37984490394592285 -0.1771557331085205
-0.02325582504272461 0.37984490394592285 0.32649147510528564
-0.02325582504272461 0.37984490394592285 0.35910332202911377
-0.02325582504272461 0.37984490394592285 0.5633524656295776
-0.02325582504272461 0.39534878730773926 -0.17589372396469116
-0.02325582504272461 0.39534878730773926 0.5607725977897644
-0.02325582504272461 0.41085267066955566 -0.17338287830352783
-0.02325582504272461 0.41085267066955566 0.5569831728935242
-0.02325582504272461 0.42635655403137207 -0.16970716416835785
-0.02325582504272461 0.42635655403137207 0.552433967590332
-0.02325582504272461 0.4418604373931885 -0.16506120562553406
-0.02325582504272461 0.4418604373931885 0.5492563247680664
-0.02325582504272461 0.4573643207550049 -0.1598857194185257
-0.02325582504272461 0.4573643207550049 0.5475179553031921
-0.02325582504272461 0.4728682041168213 -0.15445531904697418
-0.02325582504272461 0.4728682041168213 0.5445910096168518
-0.02325582504272461 0.4883720874786377 -0.15103085339069366
-0.02325582504272461 0.4883720874786377 0.5403933525085449
-0.02325582504272461 0.5038759708404541 -0.1485278606414795
-0.02325582504272461 0.5038759708404541 0.5356805324554443
-0.02325582504272461 0.5193798542022705 -0.14412224292755127
-0.02325582504272461 0.5193798542022705 0.5327464938163757
-0.02325582504272461 0.5348837375640869 -0.13802510499954224
-0.02325582504272461 0.5348837375640869 0.5305041074752808
-0.02325582504272461 0.5503876209259033 -0.131589874625206
-0.02325582504272461 0.5503876209259033 0.5263508558273315
-0.02325582504272461 0.5658915042877197 -0.12205784022808075
-0.02325582504272461 0.5658915042877197 0.5202443599700928
-0.02325582504272461 0.5813953876495361 -0.11130813509225845
-0.02325582504272461 0.5813953876495361 0.516964316368103
-0.02325582504272461 0.5968992710113525 -0.10995713621377945
-0.02325582504272461 0.5968992710113525 0.5134093165397644
-0.02325582504272461 0.612403154373169 -0.11682994663715363
-0.02325582504272461 0.612403154373169 0.5068832635879517
-0.02325582504272461 0.6279069185256958 -0.12654247879981995
-0.02325582504272461 0.6279069185256958 0.5018634796142578
-0.02325582504272461 0.6434108018875122 -0.13294509053230286
-0.02325582504272461 0.6434108018875122 0.49795281887054443
-0.02325582504272461 0.6589146852493286 -0.13397839665412903
-0.02325582504272461 0.6589147448539734 0.4912036657333374
-0.02325582504272461 0.674418568611145 -0.12966515123844147
-0.02325582504272461 0.674418568611145 0.4862222373485565
-0.02325582504272461 0.6899224519729614 -0.12374220043420792
-0.02325582504272461 0.6899224519729614 0.48179304599761963
-0.02325582504272461 0.7054263353347778 -0.11899424344301224
-0.02325582504272461 0.7054263353347778 0.4747644364833832
-0.02325582318007946 0.7209302186965942 -0.115880087018013
-0.02325582504272461 0.7209302186965942 0.4700983762741089
-0.02325582504272461 0.7364341020584106 -0.11432450264692307
-0.02325582504272461 0.7364341020584106 0.4639383852481842
-0.02325582504272461 0.751937985420227 -0.11356036365032196
-0.02325582504272461 0.751937985420227 0.4561797082424164
-0.02325582504272461 0.7674418687820435 -0.10989804565906525
-0.02325582504272461 0.7674418687820435 0.44672906398773193
-0.02325582504272461 0.7829457521438599 -0.10079017281532288
-0.02325582504272461 0.7829457521438599 0.43595683574676514
-0.02325582504272461 0.7984496355056763 -0.08764658868312836
-0.02325582504272461 0.7984496355056763 0.42247217893600464
-0.02325582504272461 0.8139535188674927 -0.06768059730529785
-0.02325582504272461 0.8139535188674927 0.40756577253341675
-0.02325582504272461 0.8294574022293091 -0.03807771950960159
-0.02325582504272461 0.8294574022293091 0.3915669322013855
-0.02325582504272461 0.8449612855911255 -0.009559168480336666
-0.02325582504272461 0.8449612855911255 0.37282025814056396
-0.02325582504272461 0.8604651689529419 0.015325568616390228
-0.02325582504272461 0.8604651689529419 0.34745585918426514
-0.02325582504272461 0.8759689331054688 0.038586732000112534
-0.02325582504272461 0.8759689331054688 0.30632638931274414
-0.02325582504272461 0.8914728164672852 0.0675046294927597
-0.02325582504272461 0.8914728164672852 0.23465651273727417
-0.02325582504272461 0.9379844665527344 -0.07612137496471405
-0.02325582504272461 0.9379844665527344 0.024401182308793068
-0.02325582504272461 0.953488290309906 -0.12787795066833496
-0.02325582504272461 0.9534883499145508 0.016514383256435394
-0.007751941680908203 -0.9689922332763672 -0.5799746513366699
-0.007751941680908203 -0.9689922332763672 -0.5485059022903442
-0.007751941680908203 -0.9534883499145508 -0.5867645740509033
-0.007751941680908203 -0.9534883499145508 -0.5459915995597839
-0.007751941680908203 -0.9379844665527344 -0.591745138168335
-0.007751941680908203 -0.9379844069480896 -0.5445482730865479
-0.007751941680908203 -0.9224806427955627 -0.5939110517501831
-0.007751941680908203 -0.9224806427955627 -0.5480461120605469
-0.007751941680908203 -0.8604650497436523 -0.5590003728866577
-0.007751941680908203 -0.8604651093482971 -0.5174252986907959
-0.007751941680908203 -0.8449612259864807 -0.5690365433692932
-0.007751941680908203 -0.8449612259864807 -0.4870096743106842
-0.007751941680908203 -0.8294573426246643 -0.5671968460083008
-0.007751941680908203 -0.8294573426246643 -0.46653759479522705
-0.007751941680908203 -0.8139535188674927 -0.5554165840148926
-0.007751941680908203 -0.8139535188674927 -0.44590431451797485
-0.007751941680908203 -0.7984496355056763 -0.5375931262969971
-0.007751941215246916 -0.7984496355056763 -0.42183786630630493
-0.007751941680908203 -0.7829457521438599 -0.5082104206085205
-0.007751941680908203 -0.7829457521438599 -0.309551477432251
-0.007751941680908203 -0.7674418687820435 -0.4864705502986908
-0.007751941680908203 -0.7674418687820435 -0.15965822339057922
-0.007751941680908203 -0.751937985420227 -0.472966730594635
-0.007751941680908203 -0.751937985420227 -0.12262533605098724
-0.007751941680908203 -0.7364341020584106 -0.44214123487472534
-0.007751941680908203 -0.7364341020584106 -0.07716713845729828
-0.007751941680908203 -0.7209302186965942 -0.3513823449611664
-0.007751941680908203 -0.7209302186965942 -0.0338970310986042
-0.007751941680908203 -0.7054263353347778 -0.15992526710033417
-0.007751941680908203 -0.7054263353347778 -0.004105070605874062
-0.007751941680908203 -0.6899224519729614 -0.116844542324543
-0.007751941680908203 -0.6899224519729614 0.018664415925741196
-0.007751941680908203 -0.674418568611145 -0.07858406007289886
-0.00775194214656949 -0.674418568611145 0.04309698939323425
-0.007751941680908203 -0.6589146852493286 -0.041255492717027664
-0.007751941680908203 -0.6589146852493286 0.07070497423410416
-0.007751941680908203 -0.643410861492157 -0.023463839665055275
-0.00775194214656949 -0.643410861492157 0.10745108127593994
-0.007751941680908203 -0.6279070377349854 -0.016926273703575134
-0.007751941680908203 -0.6279069781303406 0.15053591132164001
-0.007751941680908203 -0.6124030947685242 -0.014330770820379257
-0.007751941215246916 -0.6124030351638794 0.18544603884220123
-0.007751941680908203 -0.5968992114067078 -0.011636890470981598
-0.007751941680908203 -0.5968992114067078 0.2161770761013031
-0.007751941680908203 -0.5813953876495361 -0.00784774124622345
-0.007751941680908203 -0.5813953876495361 0.24330982565879822
-0.007751941680908203 -0.5658915042877197 0.002071439055725932
-0.007751941680908203 -0.5658915042877197 0.2748645544052124
-0.007751941680908203 -0.5503876209259033 0.012123268097639084
-0.007751941680908203 -0.5503876209259033 0.30855900049209595
-0.007751941680908203 -0.5348837375640869 0.02162323333323002
-0.007751941680908203 -0.5348837375640869 0.34216952323913574
-0.007751941680908203 -0.5193798542022705 0.028634576126933098
-0.007751941680908203 -0.5193798542022705 0.3735054135322571
-0.007751941680908203 -0.5038759708404541 0.0340232327580452
-0.007751941680908203 -0.5038759708404541 0.39886534214019775
-0.007751941680908203 -0.4883720874786377 0.03822770342230797
-0.007751941680908203 -0.4883720874786377 0.41791218519210815
-0.007751941680908203 -0.4728682041168213 0.04359826445579529
-0.007751941680908203 -0.4728682041168213 0.435305655002594
-0.007751941680908203 -0.4573643207550049 0.04753347113728523
-0.007751941680908203 -0.4573643207550049 0.45141610503196716
-0.007751941680908203 -0.4418604373931885 0.050973378121852875
-0.007751941680908203 -0.4418604373931885 0.4676247239112854
-0.00775194214656949 -0.42635664343833923 0.054288335144519806
-0.007751941680908203 -0.42635661363601685 0.48342934250831604
-0.007751941680908203 -0.41085273027420044 0.059456922113895416
-0.007751941680908203 -0.41085273027420044 0.49963119626045227
-0.007751941680908203 -0.39534884691238403 0.06460629403591156
-0.007751941680908203 -0.39534884691238403 0.5158429145812988
-0.007751941680908203 -0.3798449635505676 0.06769335269927979
-0.007751941680908203 -0.3798449635505676 0.5331787467002869
-0.007751941680908203 -0.3643410801887512 0.06473127752542496
-0.007751941680908203 -0.3643410801887512 0.5490532517433167
-0.007751941680908203 -0.3488371968269348 0.052976157516241074
-0.007751941680908203 -0.3488371968269348 0.5626079440116882
-0.007751941680908203 -0.3333333134651184 0.03445548936724663
-0.007751941680908203 -0.3333333134651184 0.572842001914978
-0.007751941680908203 -0.317829430103302 0.01570560410618782
-0.007751941680908203 -0.317829430103302 0.57933509349823
-0.007751941680908203 -0.30232560634613037 -0.001408187672495842
-0.007751941680908203 -0.30232560634613037 0.5825649499893188
-0.007751941680908203 -0.28682172298431396 -0.016871776431798935
-0.007751941680908203 -0.28682172298431396 0.5854198932647705
-0.007751941680908203 -0.27131783962249756 -0.031657855957746506
-0.007751941680908203 -0.27131783962249756 0.5889604687690735
-0.007751941680908203 -0.25581395626068115 -0.04573310166597366
-0.007751941680908203 -0.25581395626068115 0.5916147232055664
-0.007751941680908203 -0.24031007289886475 -0.0594923198223114
-0.007751941680908203 -0.24031007289886475 0.5932364463806152
-0.007751941680908203 -0.22480618953704834 -0.07318153232336044
-0.007751941680908203 -0.22480618953704834 0.5940751433372498
-0.007751941680908203 -0.20930230617523193 -0.08678901195526123
-0.007751941680908203 -0.20930230617523193 0.5945475101470947
-0.007751941680908203 -0.19379842281341553 -0.10168325901031494
-0.007751941680908203 -0.19379842281341553 0.5947682857513428
-0.007751941680908203 -0.1782945990562439 -0.11773223429918289
-0.007751941680908203 -0.1782945990562439 0.5948948860168457
-0.007751941680908203 -0.1627907156944275 -0.13557970523834229
-0.007751941680908203 -0.1627907156944275 0.5950543880462646
-0.007751941680908203 -0.14728683233261108 -0.15153729915618896
-0.007751941680908203 -0.14728683233261108 0.595058023929596
-0.007751941680908203 -0.13178294897079468 -0.16585855185985565
-0.007751941680908203 -0.13178294897079468 0.5950860381126404
-0.007751941680908203 -0.11627906560897827 -0.17968830466270447
-0.007751941680908203 -0.11627906560897827 0.595257580280304
-0.007751941680908203 -0.10077518224716187 -0.18739567697048187
-0.007751941680908203 -0.10077518224716187 0.5955705642700195
-0.007751941680908203 -0.08527129888534546 -0.19434252381324768
-0.007751941680908203 -0.08527129888534546 0.5959277153015137
-0.007751941680908203 -0.06976741552352905 -0.19898761808872223
-0.007751941680908203 -0.06976741552352905 0.5967263579368591
-0.007751941680908203 -0.05426359176635742 -0.20301689207553864
