0.8527616262435913 -0.11627906560897827 -0.038759708404541016
0.854499340057373 -0.11627906560897827 -0.02325582504272461
0.8567075729370117 -0.11627906560897827 -0.007751941680908203
0.8581283092498779 -0.11627906560897827 0.007751941680908203
0.8604241609573364 -0.11627906560897827 0.02325582504272461
0.8583312630653381 -0.11627906560897827 0.27131783962249756
0.8521997928619385 -0.11627906560897827 0.28682172298431396
0.8479014039039612 -0.10077518224716187 -0.11627906560897827
0.8522220849990845 -0.10077518224716187 -0.10077518224716187
0.8561270236968994 -0.10077518224716187 -0.08527129888534546
0.8579298257827759 -0.10077518224716187 -0.06976741552352905
0.8584577441215515 -0.10077518224716187 -0.05426359176635742
0.8590800166130066 -0.10077518224716187 -0.038759708404541016
0.8600060939788818 -0.10077518224716187 -0.02325582504272461
0.8586865067481995 -0.10077518224716187 0.28682172298431396
0.8521814942359924 -0.10077518224716187 0.30232560634613037
0.8463261127471924 -0.08527129888534546 -0.13178294897079468
0.8536878228187561 -0.08527129888534546 -0.11627906560897827
0.8585533499717712 -0.08527129888534546 0.30232560634613037
0.8512581586837769 -0.08527129888534546 0.3178294897079468
0.8501678705215454 -0.06976741552352905 -0.13178294897079468
0.856380045413971 -0.06976741552352905 0.3178294897079468
0.8478769659996033 -0.06976741552352905 0.3333333432674408
0.8468303084373474 -0.05426359176635742 -0.14728683233261108
0.8579661846160889 -0.05426359176635742 0.3178294897079468
0.8497927188873291 -0.05426359176635742 0.3333333730697632
0.8570552468299866 -0.038759708404541016 0.3178294897079468
0.8484727144241333 -0.038759708404541016 0.3333333730697632
0.8603588342666626 -0.02325582504272461 0.30232560634613037
0.8542161583900452 -0.02325582504272461 0.3178294897079468
0.8454015851020813 -0.02325582504272461 0.3333333730697632
0.8581541776657104 -0.007751941680908203 -0.22480618953704834
0.8518579006195068 -0.007751941680908203 -0.20930230617523193
0.8591777682304382 -0.007751941680908203 0.30232560634613037
0.8509253263473511 -0.007751941680908203 0.3178294897079468
0.8575078845024109 0.007751941680908203 -0.22480618953704834
0.8508217334747314 0.007751941680908203 -0.20930230617523193
0.8582794666290283 0.007751941680908203 0.30232560634613037
0.8487008810043335 0.007751941680908203 0.3178294897079468
0.8539508581161499 0.02325582504272461 -0.19379842281341553
0.8571518063545227 0.02325582504272461 0.30232560634613037
0.8473108410835266 0.02325582504272461 0.3178294897079468
0.8563280701637268 0.038759708404541016 0.30232560634613037
0.846721887588501 0.038759708404541016 0.3178294599056244
0.8526005744934082 0.05426359176635742 -0.14728683233261108
0.8563259840011597 0.05426359176635742 0.30232560634613037
0.8469152450561523 0.05426359176635742 0.3178294897079468
0.8520448207855225 0.06976747512817383 -0.13178294897079468
0.8566615581512451 0.06976747512817383 0.30232560634613037
0.8471681475639343 0.06976747512817383 0.3178294897079468
0.8457393050193787 0.08527135848999023 -0.13178294897079468
0.8549185991287231 0.08527135848999023 -0.11627906560897827
0.8557703495025635 0.08527135848999023 0.30232560634613037
0.846214771270752 0.08527135848999023 0.3178294897079468
0.8491957187652588 0.10077524930238724 -0.11627906560897827
0.8570221662521362 0.10077524185180664 -0.10077518224716187
0.8597378730773926 0.10077524185180664 0.28682172298431396
0.8524165749549866 0.10077524185180664 0.30232560634613037
0.8454612493515015 0.11627912521362305 -0.13178294897079468
0.8479931354522705 0.11627912521362305 -0.11627906560897827
0.8518722057342529 0.11627912521362305 -0.10077518224716187
0.8562925457954407 0.11627912521362305 -0.08527129888534546
0.8581210374832153 0.11627912521362305 -0.06976741552352905
0.8593614101409912 0.11627912521362305 -0.05426359176635742
0.8604096174240112 0.11627912521362305 0.27131783962249756
0.8555044531822205 0.11627912521362305 0.28682172298431396
0.846436083316803 0.11627912521362305 0.30232560634613037
0.8458061218261719 0.1317828893661499 -0.13178294897079468
0.8473401665687561 0.1317828893661499 -0.11627906560897827
0.849107563495636 0.1317828893661499 -0.10077518224716187
0.8511675596237183 0.1317828893661499 -0.08527129888534546
0.8531650304794312 0.1317828893661499 -0.06976741552352905
0.8548575639724731 0.1317828893661499 -0.05426359176635742
0.8565119504928589 0.1317828893661499 -0.038759708404541016
0.8573646545410156 0.1317828893661499 -0.02325582504272461
0.8582131862640381 0.1317828893661499 -0.007751941680908203
0.8600059747695923 0.1317828893661499 0.007751941680908203
0.8596713542938232 0.1317828893661499 0.25581395626068115
0.8541508913040161 0.1317828893661499 0.27131783962249756
0.8462969064712524 0.1317828893661499 0.28682172298431396
0.8459283113479614 0.14728675782680511 -0.11627906560897827
0.8468586802482605 0.1472867727279663 -0.10077518969774246
0.847612738609314 0.1472867727279663 -0.08527129143476486
0.8484157919883728 0.1472867727279663 -0.06976741552352905
0.8492989540100098 0.1472867727279663 -0.05426359176635742
0.850685715675354 0.1472867727279663 -0.038759708404541016
0.8522258996963501 0.1472867727279663 -0.02325582504272461
0.8544525504112244 0.1472867727279663 -0.007751941680908203
0.8565995097160339 0.1472867727279663 0.007751941680908203
0.8577501773834229 0.1472867727279663 0.02325582504272461
0.8592638969421387 0.1472867727279663 0.038759708404541016
0.8593424558639526 0.1472867727279663 0.22480618953704834
0.8556587100028992 0.1472867727279663 0.24031007289886475
0.8494042158126831 0.1472867727279663 0.25581395626068115
0.8453482985496521 0.16279065608978271 -0.06976741552352905
0.8457863926887512 0.16279065608978271 -0.05426359176635742
0.8464176654815674 0.16279065608978271 -0.038759708404541016
0.847061038017273 0.16279065608978271 -0.02325582504272461
0.8482576608657837 0.16279065608978271 -0.007751941680908203
0.8499487638473511 0.16279065608978271 0.007751941680908203
0.8523123264312744 0.16279065608978271 0.02325582504272461
0.8549305200576782 0.16279065608978271 0.038759708404541016
0.8568370342254639 0.16279065608978271 0.05426359176635742
0.8579972982406616 0.16279065608978271 0.06976747512817383
0.8585860729217529 0.16279065608978271 0.08527135848999023
0.8593658804893494 0.16279065608978271 0.10077524185180664
0.8597295880317688 0.16279065608978271 0.11627912521362305
0.8597053289413452 0.16279065608978271 0.1317828893661499
0.8594024777412415 0.16279065608978271 0.1472867727279663
0.858908474445343 0.16279065608978271 0.16279065608978271
0.8576205372810364 0.16279065608978271 0.17829453945159912
0.8548121452331543 0.16279065608978271 0.19379842281341553
0.8513910174369812 0.16279065608978271 0.20930230617523193
0.8473149538040161 0.16279065608978271 0.22480618953704834
0.8456843495368958 0.17829453945159912 0.02325582504272461
0.8469463586807251 0.17829453945159912 0.038759708404541016
0.8481254577636719 0.17829453945159912 0.05426359176635742
0.8493201732635498 0.17829453945159912 0.06976747512817383
0.8500637412071228 0.17829453945159912 0.08527135848999023
0.851038932800293 0.17829453945159912 0.10077524185180664
0.8510950803756714 0.17829453945159912 0.11627912521362305
0.8504162430763245 0.17829453945159912 0.1317828893661499
0.8492249250411987 0.17829453945159912 0.1472867727279663
0.8476269841194153 0.17829452455043793 0.16279065608978271
0.8456009030342102 0.17829453945159912 0.17829453945159912
0.8605924844741821 -0.1627907156944275 0.11627912521362305
0.8608265519142151 -0.1627907156944275 0.1317829042673111
0.8606871366500854 -0.1627907156944275 0.1472867727279663
0.8615672588348389 -0.14728683233261108 0.08527135848999023
0.8625730276107788 -0.14728683233261108 0.10077524185180664
0.8633197546005249 -0.14728683233261108 0.11627912521362305
0.8638126850128174 -0.14728683233261108 0.1317828893661499
0.8639563918113708 -0.14728683233261108 0.1472867727279663
0.8637630343437195 -0.14728683233261108 0.16279065608978271
0.8633376359939575 -0.14728683233261108 0.17829455435276031
0.8624629974365234 -0.14728683233261108 0.19379842281341553
0.8609216213226318 -0.14728683233261108 0.20930232107639313
0.8609418272972107 -0.13178294897079468 0.05426359176635742
0.8624329566955566 -0.13178294897079468 0.06976747512817383
0.8638331294059753 -0.13178294897079468 0.08527135848999023
0.865355372428894 -0.13178294897079468 0.10077524185180664
0.8667289018630981 -0.13178294897079468 0.11627912521362305
0.8677104711532593 -0.13178294897079468 0.1317828893661499
0.8682405948638916 -0.13178294897079468 0.1472867727279663
0.8683408498764038 -0.13178294897079468 0.16279065608978271
0.8681075572967529 -0.13178294897079468 0.17829453945159912
0.8672690987586975 -0.13178294897079468 0.19379842281341553
0.8657068014144897 -0.13178294897079468 0.20930230617523193
0.8634468913078308 -0.13178294897079468 0.22480618953704834
0.8605043888092041 -0.13178294897079468 0.24031007289886475
0.8618849515914917 -0.11627906560897827 0.038759708404541016
0.863605260848999 -0.11627906560897827 0.05426359176635742
0.8661253452301025 -0.11627906560897827 0.06976747512817383
0.8685040473937988 -0.11627906560897827 0.08527135848999023
0.870573878288269 -0.11627906560897827 0.10077524185180664
0.8721389770507812 -0.11627906560897827 0.11627912521362305
0.8730682730674744 -0.11627906560897827 0.1317828893661499
0.8735633492469788 -0.11627906560897827 0.1472867727279663
0.8737831115722656 -0.11627906560897827 0.16279065608978271
0.8738354444503784 -0.11627906560897827 0.17829453945159912
0.873536229133606 -0.11627906560897827 0.19379842281341553
0.8723760843276978 -0.11627906560897827 0.20930230617523193
0.8699436187744141 -0.11627906560897827 0.22480618953704834
0.8662639260292053 -0.11627906560897827 0.24031007289886475
0.8620859980583191 -0.11627906560897827 0.25581395626068115
0.8609771728515625 -0.10077518224716187 -0.007751941680908203
0.8619644641876221 -0.10077518224716187 0.007751941680908203
0.8635224103927612 -0.10077518224716187 0.02325582504272461
0.8659228086471558 -0.10077518224716187 0.038759708404541016
0.8686426877975464 -0.10077518224716187 0.05426359176635742
0.8713229894638062 -0.10077518224716187 0.06976747512817383
0.873308539390564 -0.10077518224716187 0.08527135848999023
0.8744850754737854 -0.10077518224716187 0.10077524185180664
0.8754948377609253 -0.10077518224716187 0.11627912521362305
0.8747408986091614 -0.10077518224716187 0.22480618953704834
0.8731833100318909 -0.10077518224716187 0.24031007289886475
0.8687026500701904 -0.10077518224716187 0.25581395626068115
0.8630103468894958 -0.10077518224716187 0.27131783962249756
0.8605338335037231 -0.08527129888534546 -0.10077518224716187
0.8618930578231812 -0.08527129888534546 -0.08527129888534546
0.862549901008606 -0.08527129888534546 -0.06976741552352905
0.8628792762756348 -0.08527129888534546 -0.05426359176635742
0.8633096814155579 -0.08527129888534546 -0.038759708404541016
0.8638433218002319 -0.08527129888534546 -0.02325582504272461
0.8649200201034546 -0.08527129888534546 -0.007751941680908203
0.8666472434997559 -0.08527129888534546 0.007751941680908203
0.8689687848091125 -0.08527129888534546 0.02325582504272461
0.871086597442627 -0.08527129888534546 0.038759708404541016
0.872979998588562 -0.08527129888534546 0.05426359176635742
0.8745612502098083 -0.08527129888534546 0.06976747512817383
0.8744533061981201 -0.08527129888534546 0.25581395626068115
0.8696289658546448 -0.08527129888534546 0.27131783962249756
0.863102912902832 -0.08527129888534546 0.28682172298431396
0.8613638877868652 -0.06976741552352905 -0.11627905815839767
0.8644928336143494 -0.06976741552352905 -0.10077518969774246
0.8676076531410217 -0.06976741552352905 -0.08527129888534546
0.8693388104438782 -0.06976741552352905 -0.06976741552352905
0.8699057102203369 -0.06976741552352905 -0.05426359176635742
0.8704608678817749 -0.06976741552352905 -0.038759708404541016
0.8709399700164795 -0.06976741552352905 -0.02325582504272461
0.8716784715652466 -0.06976741552352905 -0.007751941680908203
0.8726455569267273 -0.06976741552352905 0.007751941680908203
0.8742256164550781 -0.06976741552352905 0.02325582504272461
0.8745824694633484 -0.06976741552352905 0.27131783962249756
0.8683969974517822 -0.06976741552352905 0.28682172298431396
0.8611609935760498 -0.06976741552352905 0.30232560634613037
0.8626177906990051 -0.05426359176635742 -0.13178294897079468
0.8732984066009521 -0.05426359176635742 -0.11627906560897827
0.8715320825576782 -0.05426359176635742 0.28682172298431396
0.8633342385292053 -0.05426359176635742 0.30232560634613037
0.8713527917861938 -0.038759708404541016 0.28682172298431396
0.8626326322555542 -0.038759708404541016 0.30232560634613037
0.8746067881584167 -0.02325582504272461 -0.22480618953704834
0.868535041809082 -0.02325582504272461 -0.20930230617523193
0.8612872958183289 -0.02325582504272461 -0.19379842281341553
0.8694072365760803 -0.02325582504272461 0.28682172298431396
0.8708391189575195 -0.007751941680908203 -0.25581395626068115
0.86505126953125 -0.00775194214656949 -0.24031007289886475
0.8755027055740356 -0.007751941680908203 0.27131783962249756
0.8673098087310791 -0.007751941680908203 0.28682172298431396
0.8706493973731995 0.007751941680908203 -0.25581395626068115
0.8646629452705383 0.007751941680908203 -0.24031007289886475
0.8748568892478943 0.007751941680908203 0.27131783962249756
0.8653914928436279 0.007751941680908203 0.28682172298431396
0.8755090832710266 0.02325582504272461 -0.24031007289886475
0.8698856234550476 0.02325582504272461 -0.22480618953704834
0.8627215623855591 0.02325582690536976 -0.20930230617523193
0.8733499050140381 0.02325582504272461 0.27131783962249756
0.8633110523223877 0.02325582504272461 0.28682172298431396
0.8695834279060364 0.038759708404541016 -0.1782945990562439
0.8717393279075623 0.038759708404541016 0.27131783962249756
0.8622335195541382 0.038759708404541016 0.28682172298431396
0.871132493019104 0.05426359176635742 0.27131783962249756
0.8622138500213623 0.05426359176635742 0.28682172298431396
0.8664259910583496 0.06976747512817383 -0.11627906560897827
0.8758646845817566 0.06976747512817383 -0.10077518224716187
0.871234655380249 0.06976747512817383 0.27131783962249756
0.8624507188796997 0.06976747512817383 0.28682172298431396
0.8627972602844238 0.08527135848999023 -0.10077518224716187
0.8665755391120911 0.08527135848999023 -0.08527129888534546
0.8709365129470825 0.08527135848999023 -0.06976741552352905
0.8733623027801514 0.08527135848999023 -0.05426359176635742
0.8748487830162048 0.08527135848999023 -0.038759708404541016
0.8756912350654602 0.08527135848999023 0.25581395626068115
0.8698440790176392 0.08527135848999023 0.27131783962249756
0.861499011516571 0.08527135848999023 0.28682175278663635
0.8614051342010498 0.10077524185180664 -0.08527129888534546
0.8631200790405273 0.10077524185180664 -0.06976741552352905
0.8647034764289856 0.10077524185180664 -0.05426359176635742
0.8668041229248047 0.10077524185180664 -0.038759708404541016
0.8688815236091614 0.10077524185180664 -0.02325582504272461
0.8716734647750854 0.10077524185180664 -0.007751941680908203
0.8736749291419983 0.10077524185180664 0.007751941680908203
0.8755214214324951 0.10077524185180664 0.02325582504272461
0.8733688592910767 0.10077524185180664 0.25581395626068115
0.8656777739524841 0.10077524185180664 0.27131783962249756
0.8607460260391235 0.11627912521362305 -0.038759708404541016
0.8615517616271973 0.11627912521362305 -0.02325582504272461
0.8629611730575562 0.11627912521362305 -0.007751941680908203
0.8652816414833069 0.11627912521362305 0.007751941680908203
0.8688415288925171 0.11627912521362305 0.02325582504272461
0.8723961710929871 0.11627912521362305 0.038759708404541016
0.8739026784896851 0.11627912521362305 0.05426359176635742
0.8755680322647095 0.11627912521362305 0.06976747512817383
0.8751339912414551 0.11627912521362305 0.22480618953704834
0.872294008731842 0.11627912521362305 0.24031007289886475
0.8660432696342468 0.11627912521362305 0.25581395626068115
0.8617277145385742 0.1317828893661499 0.02325582504272461
0.8640780448913574 0.1317828893661499 0.038759708404541016
0.867037832736969 0.1317828893661499 0.05426359176635742
0.8701958656311035 0.1317828893661499 0.06976747512817383
0.8722409605979919 0.1317828893661499 0.08527135848999023
0.8734933733940125 0.1317828893661499 0.10077524185180664
0.8739398121833801 0.1317828893661499 0.11627912521362305
0.874163031578064 0.1317828893661499 0.1317828893661499
0.8742941617965698 0.1317828893661499 0.1472867727279663
0.8742974400520325 0.1317828893661499 0.16279065608978271
0.8739702105522156 0.1317828893661499 0.17829453945159912
0.872841477394104 0.1317828893661499 0.19379842281341553
0.870790958404541 0.1317828893661499 0.20930230617523193
0.867007851600647 0.1317828893661499 0.22480618953704834
0.862870454788208 0.1317828893661499 0.24031007289886475
0.8609722852706909 0.14728675782680511 0.05426359176635742
0.8625930547714233 0.1472867727279663 0.06976747512817383
0.8640235662460327 0.1472867727279663 0.08527135848999023
0.8655815124511719 0.1472867727279663 0.10077523440122604
0.8664449453353882 0.1472867727279663 0.11627912521362305
0.8666394948959351 0.1472867727279663 0.1317828893661499
0.8663307428359985 0.1472867727279663 0.1472867727279663
0.8656768202781677 0.1472867727279663 0.16279065608978271
0.8646079301834106 0.1472867727279663 0.17829453945159912
0.8629473447799683 0.1472867727279663 0.19379842281341553
0.8609837889671326 0.14728675782680511 0.20930230617523193
0.876279890537262 -0.10077518224716187 0.1317828893661499
0.8769238591194153 -0.10077517479658127 0.1472867727279663
0.8774810433387756 -0.10077518224716187 0.16279065608978271
0.877846896648407 -0.10077518224716187 0.17829453945159912
0.8776358366012573 -0.10077518224716187 0.19379842281341553
0.8764984011650085 -0.10077517479658127 0.20930230617523193
0.8760102987289429 -0.08527129888534546 0.08527135848999023
0.8767873644828796 -0.08527129888534546 0.10077524185180664
0.8776387572288513 -0.08527129888534546 0.11627912521362305
0.8786190748214722 -0.08527129143476486 0.1317828893661499
0.879938006401062 -0.08527129888534546 0.1472867727279663
0.8816803693771362 -0.08527129888534546 0.16279065608978271
0.8832473754882812 -0.08527129888534546 0.17829453945159912
0.8836318850517273 -0.08527129888534546 0.19379842281341553
0.8824413418769836 -0.08527129888534546 0.20930230617523193
0.8802303075790405 -0.08527129888534546 0.22480618953704834
0.8772427439689636 -0.08527129888534546 0.24031007289886475
0.8760570883750916 -0.06976741552352905 0.03875970467925072
0.8767461776733398 -0.06976741552352905 0.05426359176635742
0.87736976146698 -0.06976741552352905 0.06976747512817383
0.8777828216552734 -0.06976741552352905 0.08527135848999023
0.8782933950424194 -0.06976741552352905 0.10077524185180664
0.8789845705032349 -0.06976741552352905 0.11627912521362305
0.880200207233429 -0.06976741552352905 0.1317828893661499
0.8824644088745117 -0.06976741552352905 0.1472867727279663
0.8855240941047668 -0.06976741552352905 0.16279065608978271
0.8880929946899414 -0.06976741552352905 0.17829453945159912
0.8890552520751953 -0.06976741552352905 0.19379842281341553
0.888444721698761 -0.06976741552352905 0.20930230617523193
0.8866281509399414 -0.06976741552352905 0.22480618953704834
0.8830400705337524 -0.06976741552352905 0.24031007289886475
0.8784644603729248 -0.06976741552352905 0.25581395626068115
0.8790610432624817 -0.05426358804106712 -0.10077518224716187
0.8805201053619385 -0.05426359176635742 -0.08527129888534546
0.8803246021270752 -0.05426359176635742 -0.06976741552352905
0.8794553279876709 -0.05426359176635742 -0.05426359176635742
0.8788389563560486 -0.05426359176635742 -0.038759708404541016
0.8783693909645081 -0.05426359176635742 -0.02325582504272461
0.8784695863723755 -0.05426359176635742 -0.007751941680908203
0.8791166543960571 -0.05426359176635742 0.007751941680908203
0.8804198503494263 -0.05426359176635742 0.02325582504272461
0.8818309307098389 -0.05426359176635742 0.038759708404541016
0.8826711773872375 -0.05426359176635742 0.05426359176635742
0.8832008838653564 -0.05426359176635742 0.06976747512817383
0.8827877640724182 -0.05426359176635742 0.08527135848999023
0.8821383118629456 -0.05426359176635742 0.10077524185180664
0.88162761926651 -0.05426359176635742 0.11627912521362305
0.882239580154419 -0.05426359176635742 0.1317828893661499
0.8846594095230103 -0.05426359176635742 0.1472867727279663
0.8884360194206238 -0.05426359176635742 0.16279065608978271
0.8907060027122498 -0.05426359176635742 0.22480618953704834
0.887658953666687 -0.05426359176635742 0.24031007289886475
0.8821628093719482 -0.05426359176635742 0.25581395626068115
0.8762750029563904 -0.05426359176635742 0.27131783962249756
0.8781619071960449 -0.038759708404541016 -0.16279073059558868
0.8902857303619385 -0.038759708404541016 0.11627912521362305
0.8880985975265503 -0.038759708404541016 0.1317828893661499
0.8890178799629211 -0.038759708404541016 0.1472867727279663
0.8895841836929321 -0.038759708404541016 0.24031007289886475
0.8834282159805298 -0.038759708404541016 0.25581395626068115
0.8767371773719788 -0.038759712129831314 0.27131783962249756
0.889310359954834 -0.02325582504272461 -0.25581395626068115
0.8828811645507812 -0.02325582504272461 -0.24031007289886475
0.8905853033065796 -0.02325582504272461 0.24031007289886475
0.8837683200836182 -0.02325582504272461 0.25581395626068115
0.8760364651679993 -0.02325582504272461 0.27131783962249756
0.8900774121284485 -0.007751941680908203 -0.28682172298431396
0.8788363933563232 -0.007751941680908203 -0.27131783962249756
0.8911947011947632 -0.007751941680908203 0.24031007289886475
0.8842430114746094 -0.007751941680908203 0.25581395626068115
0.8902679681777954 0.007751941680908203 -0.28682172298431396
0.87909334897995 0.007751941215246916 -0.27131783962249756
0.890568196773529 0.007751941680908203 0.24031007289886475
0.8828779458999634 0.007751941680908203 0.25581395626068115
0.8913935422897339 0.02325582504272461 -0.27131783962249756
0.8829672336578369 0.02325582504272461 -0.25581395626068115
0.887596845626831 0.02325582504272461 0.24031007289886475
0.8790099024772644 0.02325582504272461 0.25581395626068115
0.8882426023483276 0.038759708404541016 -0.20930230617523193
0.8797771334648132 0.038759708404541016 -0.19379842281341553
0.8913512229919434 0.038759708404541016 0.20930230617523193
0.8884191513061523 0.038759708404541016 0.22480618953704834
0.8832769393920898 0.038759708404541016 0.24031007289886475
0.8768064379692078 0.03875970467925072 0.25581395626068115
0.879347562789917 0.05426359176635742 -0.14728683233261108
0.8903396725654602 0.05426359176635742 0.1472867727279663
0.8899781107902527 0.05426359176635742 0.16279065608978271
0.8903592824935913 0.05426359176635742 0.17829453945159912
0.8904581665992737 0.05426359176635742 0.19379842281341553
0.8890783190727234 0.05426359176635742 0.20930230617523193
0.8860087394714355 0.05426359176635742 0.22480618953704834
0.8813272714614868 0.05426359176635742 0.24031007289886475
0.8764187097549438 0.05426359176635742 0.25581395626068115
0.8795022368431091 0.06976747512817383 -0.08527129888534546
0.8808512687683105 0.06976747512817383 -0.06976741552352905
0.8813461065292358 0.06976747512817383 -0.05426359176635742
0.8823094367980957 0.06976747512817383 -0.038759708404541016
0.8834232091903687 0.06976747512817383 -0.02325582504272461
0.8858469724655151 0.06976747512817383 -0.007751941680908203
0.8884203433990479 0.06976747512817383 0.007751941680908203
0.8901928663253784 0.06976747512817383 0.1472867727279663
0.8900094628334045 0.06976747512817383 0.16279065608978271
0.8901772499084473 0.06976747512817383 0.17829453945159912
0.8900439739227295 0.06976747512817383 0.19379842281341553
0.8885108232498169 0.06976747512817383 0.20930230617523193
0.8855665922164917 0.06976747512817383 0.22480618953704834
0.8809500336647034 0.06976747512817383 0.24031007289886475
0.8763489127159119 0.06976747512817383 0.25581395626068115
0.8762790560722351 0.08527135848999023 -0.02325582504272461
0.8780439496040344 0.08527135848999023 -0.007751941680908203
0.8802096843719482 0.08527135848999023 0.007751941680908203
0.8833534717559814 0.08527135848999023 0.02325582504272461
0.8869490623474121 0.08527135848999023 0.038759708404541016
0.8897006511688232 0.08527135848999023 0.05426359176635742
0.8908573985099792 0.08527135848999023 0.06976747512817383
0.891231894493103 0.08527135848999023 0.08527135848999023
0.8911948204040527 0.08527135848999023 0.10077524185180664
0.8907871842384338 0.08527135848999023 0.11627912521362305
0.8902022838592529 0.08527135848999023 0.1317828893661499
0.8895614147186279 0.08527135848999023 0.1472867727279663
0.8891621232032776 0.08527135848999023 0.16279065608978271
0.8889685869216919 0.08527135848999023 0.17829453945159912
0.8884453177452087 0.08527135848999023 0.19379842281341553
0.8868765830993652 0.08527135848999023 0.20930230617523193
0.8836870789527893 0.08527135848999023 0.22480618953704834
0.8794865608215332 0.08527135848999023 0.24031007289886475
0.8780261874198914 0.10077524185180664 0.038759712129831314
0.8803675174713135 0.10077524185180664 0.05426359176635742
0.8828443288803101 0.10077524185180664 0.06976747512817383
0.8845971822738647 0.10077524185180664 0.08527135848999023
0.885744035243988 0.10077524185180664 0.10077524185180664
0.8859596848487854 0.10077524185180664 0.11627912521362305
0.8855606913566589 0.10077524185180664 0.1317828893661499
0.8851341009140015 0.10077524185180664 0.1472867727279663
0.8848944306373596 0.10077524185180664 0.16279065608978271
0.8846310377120972 0.10077524185180664 0.17829453945159912
0.8837865591049194 0.10077524185180664 0.19379842281341553
0.8819313049316406 0.10077524185180664 0.20930230617523193
0.8793912529945374 0.10077524185180664 0.22480618953704834
0.8762103319168091 0.10077524185180664 0.24031007289886475
0.8769022226333618 0.11627913266420364 0.08527136594057083
0.8779197335243225 0.11627911776304245 0.10077524185180664
0.8784539103507996 0.11627912521362305 0.11627912521362305
0.8786298036575317 0.11627912521362305 0.1317828893661499
0.8786396980285645 0.11627912521362305 0.1472867727279663
0.8785641193389893 0.11627912521362305 0.16279065608978271
0.8783071041107178 0.11627912521362305 0.17829453945159912
0.8775792121887207 0.11627912521362305 0.19379843771457672
0.8763175010681152 0.11627912521362305 0.20930232107639313
0.8916447162628174 -0.05426359176635742 0.17829453945159912
0.8924109935760498 -0.05426359549164772 0.19379842281341553
0.8920214772224426 -0.05426359176635742 0.20930230617523193
0.8947762846946716 -0.038759708404541016 -0.1782945990562439
0.9052990674972534 -0.038759708404541016 -0.05426359176635742
0.8989018201828003 -0.038759708404541016 -0.038759708404541016
0.8945475816726685 -0.038759708404541016 -0.02325582504272461
0.892497181892395 -0.038759708404541016 -0.007751941215246916
0.8917165398597717 -0.038759708404541016 0.007751941215246916
0.892289400100708 -0.038759708404541016 0.02325582504272461
0.8934592008590698 -0.038759708404541016 0.038759708404541016
0.8941286206245422 -0.038759708404541016 0.05426359176635742
0.8947408199310303 -0.038759708404541016 0.06976747512817383
0.894108772277832 -0.038759708404541016 0.08527135848999023
0.8928573727607727 -0.038759708404541016 0.10077524185180664
0.8920425176620483 -0.038759712129831314 0.1627906709909439
0.8937159776687622 -0.038759708404541016 0.17829453945159912
0.8946136832237244 -0.038759708404541016 0.19379842281341553
0.894157886505127 -0.038759708404541016 0.20930230617523193
0.8923494815826416 -0.038759708404541016 0.22480618953704834
0.9009034037590027 -0.02325582504272461 -0.27131783962249756
0.9024919271469116 -0.02325582504272461 0.1317828893661499
0.8998167514801025 -0.02325582504272461 0.1472867727279663
0.8991133570671082 -0.02325582504272461 0.16279065608978271
0.8993975520133972 -0.02325582504272461 0.17829453945159912
0.8993319272994995 -0.02325582504272461 0.19379842281341553
0.8976389169692993 -0.02325582504272461 0.20930230617523193
0.8941690325737 -0.02325582504272461 0.22480618953704834
0.9061957001686096 -0.007751941680908203 0.19379842281341553
0.9025330543518066 -0.007751941680908203 0.20930230617523193
0.8972939252853394 -0.007751941680908203 0.22480618953704834
0.9059829711914062 0.007751941680908203 0.19379842281341553
0.9021839499473572 0.007751941680908203 0.20930230617523193
0.8962951898574829 0.007751941680908203 0.22480617463588715
0.9068155288696289 0.02325582504272461 0.1472867727279663
0.9042234420776367 0.02325582504272461 0.16279065608978271
0.901930570602417 0.02325582504272461 0.17829453945159912
0.8998537063598633 0.02325582504272461 0.19379842281341553
0.8961372375488281 0.02325582504272461 0.20930232107639313
0.8918566703796387 0.02325582690536976 0.22480618953704834
0.8988969326019287 0.038759708404541016 -0.22480618953704834
0.9051569104194641 0.038759708404541016 0.11627912521362305
0.8996626734733582 0.038759708404541016 0.1317828893661499
0.8954883813858032 0.038759708404541016 0.1472867727279663
0.8937633037567139 0.038759708404541016 0.16279065608978271
0.8932358622550964 0.038759708404541016 0.17829453945159912
0.8925497531890869 0.038759708404541016 0.19379842281341553
0.9053410291671753 0.05426359176635742 -0.1627907156944275
0.8998832702636719 0.05426359176635742 -0.05426359176635742
0.8969738483428955 0.05426359549164772 -0.038759708404541016
0.8957516551017761 0.05426359176635742 -0.02325582504272461
0.8961873054504395 0.05426359176635742 -0.007751941680908203
0.897744357585907 0.05426359176635742 0.007751941680908203
0.9007413983345032 0.05426359176635742 0.02325582504272461
0.9035617113113403 0.05426359176635742 0.038759708404541016
0.9049468040466309 0.05426359176635742 0.05426359176635742
0.9049906134605408 0.05426359176635742 0.06976747512817383
0.9031118154525757 0.05426359176635742 0.08527135848999023
0.8991594910621643 0.05426359176635742 0.10077524185180664
0.8952285051345825 0.05426359176635742 0.11627912521362305
0.8924134373664856 0.05426359176635742 0.1317828893661499
0.8914865851402283 0.06976747512817383 0.02325582504272461
0.8938549757003784 0.06976747512817383 0.038759708404541016
0.895500123500824 0.06976747512817383 0.05426359176635742
0.8962859511375427 0.06976747512817383 0.06976747512817383
0.8957860469818115 0.06976747512817383 0.08527135848999023
0.8944857716560364 0.06976747512817383 0.10077524185180664
0.8928384184837341 0.06976748257875443 0.11627912521362305
0.8914815187454224 0.06976747512817383 0.1317828893661499
0.9078984260559082 -0.038759708404541016 -0.19379842281341553
0.915229320526123 -0.038759708404541016 -0.06976741552352905
0.9170746207237244 -0.02325582504272461 0.007751941680908203
0.9153732061386108 -0.02325582504272461 0.02325582504272461
0.9151948094367981 -0.02325582504272461 0.038759708404541016
0.9148769378662109 -0.02325582504272461 0.05426359176635742
0.9150089025497437 -0.02325582504272461 0.06976747512817383
0.9138445854187012 -0.02325582504272461 0.08527135848999023
0.9116148948669434 -0.02325582504272461 0.10077524930238724
0.9071808457374573 -0.02325582504272461 0.11627912521362305
0.9206441044807434 -0.007751941680908203 0.11627912521362305
0.9164474010467529 -0.007751941680908203 0.1317828893661499
0.9128752946853638 -0.007751941680908203 0.1472867727279663
0.9096159934997559 -0.007751941680908203 0.16279065608978271
0.9077273011207581 -0.007751941680908203 0.17829452455043793
0.9216206669807434 0.007751941680908203 0.11627912521362305
0.9174506664276123 0.007751941680908203 0.1317828893661499
0.9136912226676941 0.007751941680908203 0.1472867727279663
0.9099742770195007 0.007751941680908203 0.16279065608978271
0.9076902866363525 0.007751941680908203 0.17829453945159912
0.9179670810699463 0.02325582504272461 -0.28682172298431396
0.9206699728965759 0.02325582504272461 0.10077524185180664
0.9158132076263428 0.02325582504272461 0.11627912521362305
0.9105046987533569 0.02325582504272461 0.1317828893661499
0.9143722057342529 0.038759708404541016 -0.24031007289886475
0.9220544695854187 0.038759708404541016 -0.007751941680908203
0.9199787378311157 0.038759708404541016 0.007751941680908203
0.9202914834022522 0.038759708404541016 0.02325582504272461
0.9205799698829651 0.038759708404541016 0.038759708404541016
0.9196345806121826 0.038759708404541016 0.05426359176635742
0.9175553321838379 0.038759708404541016 0.06976747512817383
0.9142464399337769 0.038759708404541016 0.08527135848999023
0.9097965359687805 0.038759708404541016 0.10077524185180664
0.9158326387405396 0.05426359176635742 -0.08527129888534546
0.9072889685630798 0.05426359176635742 -0.06976741552352905
0.924798309803009 -0.038759708404541016 -0.20930230617523193
0.9263394474983215 -0.038759708404541016 -0.08527129888534546
0.9292919039726257 -0.02325582504272461 -0.02325582504272461
0.9230716228485107 -0.02325582318007946 -0.007751941215246916
0.9363868832588196 -0.007751941680908203 0.02325582504272461
0.9343687891960144 -0.007751941680908203 0.038759708404541016
0.9325490593910217 -0.007751941680908203 0.05426359176635742
0.9311164617538452 -0.007751941680908203 0.06976747512817383
0.9283733367919922 -0.00775194214656949 0.08527135848999023
0.9241620302200317 -0.007751941680908203 0.10077524185180664
0.937412440776825 0.007751941680908203 0.038759708404541016
0.9351599216461182 0.007751941680908203 0.05426359176635742
0.9331172704696655 0.007751941680908203 0.06976747512817383
0.9303522109985352 0.007751941680908203 0.08527135848999023
0.9255213141441345 0.007751941680908203 0.10077524185180664
0.9373154044151306 0.02325582504272461 0.007751941680908203
0.9349498748779297 0.02325582504272461 0.02325582504272461
0.932985782623291 0.02325582504272461 0.038759708404541016
0.9307763576507568 0.02325582504272461 0.05426359176635742
0.9275851249694824 0.02325582504272461 0.06976747512817383
0.923723578453064 0.02325582504272461 0.08527135848999023
0.9329656362533569 0.038759708404541016 -0.038759708404541016
0.9260628819465637 0.038759708404541016 -0.02325582504272461
0.9349788427352905 0.05426359176635742 -0.1627907156944275
0.927574098110199 0.05426359176635742 -0.10077518224716187
0.9390498399734497 -0.038759708404541016 -0.20930230617523193
0.9458352327346802 -0.038759708404541016 -0.19379842281341553
0.9499906897544861 -0.038759708404541016 -0.1782945990562439
0.952111542224884 -0.038759708404541016 -0.1627907156944275
0.9514172077178955 -0.038759708404541016 -0.14728683233261108
0.9482938051223755 -0.038759708404541016 -0.13178294897079468
0.9439189434051514 -0.038759708404541016 -0.11627906560897827
0.9387138485908508 -0.038759708404541016 -0.10077518224716187
0.9468570947647095 -0.02325582504272461 -0.27131783962249756
0.9455592632293701 -0.02325582504272461 -0.05426359176635742
0.9384584426879883 -0.02325582504272461 -0.038759708404541016
0.9495606422424316 -0.007751941680908203 -0.02325582504272461
0.9453039765357971 -0.007751941680908203 -0.007751941680908203
0.9397703409194946 -0.007751941680908203 0.007751941680908203
0.9528211951255798 0.007751941680908203 -0.02325582504272461
0.9487771391868591 0.007751941680908203 -0.007751941680908203
0.9449695348739624 0.00775194214656949 0.00775194214656949
0.9405080676078796 0.007751941680908203 0.02325582504272461
0.9383543133735657 0.02325582504272461 -0.28682172298431396
0.9520872235298157 0.02325582504272461 -0.038759708404541016
0.9470570683479309 0.02325582504272461 -0.02325582504272461
0.9417705535888672 0.02325582318007946 -0.007751941215246916
0.9399042725563049 0.038759708404541016 -0.24031005799770355
0.948029637336731 0.038759708404541016 -0.06976741552352905
0.9406659007072449 0.038759708404541016 -0.05426359549164772
0.9399906992912292 0.05426359176635742 -0.14728684723377228
0.9405097365379333 0.05426359176635742 -0.13178294897079468
0.9382825493812561 0.05426359176635742 -0.11627905815839767
0.9559547901153564 -0.02325582504272461 -0.25581395626068115
0.9626307487487793 -0.02325582504272461 -0.24031007289886475
0.9659578800201416 -0.02325582504272461 -0.10077518224716187
0.9614497423171997 -0.02325582504272461 -0.08527129888534546
0.9539072513580322 -0.02325582504272461 -0.06976742297410965
0.9541597366333008 -0.007751941680908203 -0.28682172298431396
0.961352527141571 -0.007751941680908203 -0.27131783962249756
0.9686669111251831 -0.007751941680908203 -0.06976741552352905
0.9633088111877441 -0.007751941680908203 -0.05426359176635742
0.9557145237922668 -0.007751941680908203 -0.038759712129831314
0.954166829586029 0.007751941680908203 -0.28682172298431396
0.962029755115509 0.007751941680908203 -0.27131783962249756
0.9656606912612915 0.007751941680908203 -0.05426359176635742
0.9603350162506104 0.007751941680908203 -0.038759708404541016
0.953499972820282 0.02325582504272461 -0.27131783962249756
0.9597082138061523 0.02325582504272461 -0.25581395626068115
0.9679338335990906 0.02325582504272461 -0.24031007289886475
0.9651116132736206 0.02325582504272461 -0.06976741552352905
0.9589453339576721 0.02325582504272461 -0.05426359176635742
0.9545391798019409 0.038759708404541016 -0.22480618953704834
0.9601487517356873 0.038759708404541016 -0.20930230617523193
0.963398277759552 0.038759708404541016 -0.19379842281341553
0.965019166469574 0.038759708404541016 -0.1782945990562439
0.9661508798599243 0.038759708404541016 -0.1627907156944275
0.9665554761886597 0.038759708404541016 -0.14728683233261108
0.9659147262573242 0.038759708404541016 -0.13178294897079468
0.9640601277351379 0.038759708404541016 -0.11627906560897827
0.96099454164505 0.038759708404541016 -0.10077518224716187
0.9550287127494812 0.038759712129831314 -0.08527130633592606
0.9691599011421204 -0.02325582504272461 -0.22480618953704834
0.9710071086883545 -0.02325582504272461 -0.20930230617523193
0.9724481105804443 -0.02325582504272461 -0.19379842281341553
0.9730591773986816 -0.02325582504272461 -0.1782945990562439
0.9730628728866577 -0.02325582504272461 -0.1627907156944275
0.972585916519165 -0.02325582504272461 -0.14728683233261108
0.9714288115501404 -0.02325582504272461 -0.13178294897079468
0.9692664742469788 -0.02325582504272461 -0.11627905815839767
0.9693938493728638 -0.007751941680908203 -0.25581395626068115
0.9736881852149963 -0.007751941215246916 -0.24031007289886475
0.9784059524536133 -0.007751941680908203 -0.22480618953704834
0.9817509651184082 -0.007751941680908203 -0.11627906560897827
0.9772891998291016 -0.007751941680908203 -0.10077518224716187
0.973045289516449 -0.007751941680908203 -0.08527129888534546
0.9698158502578735 0.00775194214656949 -0.25581395626068115
0.9750480651855469 0.007751941680908203 -0.24031007289886475
0.9814081192016602 0.007751941680908203 -0.22480618953704834
0.980463981628418 0.007751941680908203 -0.10077518224716187
0.9755589365959167 0.007751941680908203 -0.08527129888534546
0.9698429107666016 0.007751941680908203 -0.06976740807294846
0.9723600149154663 0.02325582504272461 -0.22480618953704834
0.9758051633834839 0.02325582504272461 -0.20930230617523193
0.9780778884887695 0.02325582504272461 -0.19379842281341553
0.9793663024902344 0.02325582504272461 -0.1782945990562439
0.9795068502426147 0.02325582504272461 -0.1627907156944275
0.9787818193435669 0.02325582504272461 -0.14728683233261108
0.9774954319000244 0.02325582504272461 -0.13178294897079468
0.97543865442276 0.02325582504272461 -0.11627906560897827
0.972591757774353 0.02325582504272461 -0.10077517479658127
0.9690572023391724 0.02325582504272461 -0.08527129143476486
0.9847231507301331 -0.007751941680908203 -0.20930230617523193
0.9858156442642212 -0.007751941680908203 -0.19379842281341553
0.9861868023872375 -0.007751941215246916 -0.1782945990562439
0.9859603643417358 -0.007751941680908203 -0.1627907156944275
0.9855692982673645 -0.007751941680908203 -0.14728683233261108
0.9849414825439453 -0.007751941680908203 -0.13178294897079468
0.985880970954895 0.007751941680908203 -0.20930230617523193
0.9871349334716797 0.007751941680908203 -0.19379842281341553
0.9873184561729431 0.007751941680908203 -0.1782945990562439
0.9868054389953613 0.00775194214656949 -0.1627907156944275
0.9862717390060425 0.007751941680908203 -0.14728683233261108
0.9856183528900146 0.007751941680908203 -0.13178294897079468
0.9848033785820007 0.007751941680908203 -0.11627906560897827
-0.9844961166381836 -0.008923344314098358 -0.24031007289886475
-0.9844961166381836 -0.012853007763624191 -0.22480618953704834
-0.9844961166381836 -0.014305409044027328 -0.20930230617523193
-0.9844961166381836 -0.012902416288852692 -0.19379842281341553
-0.9844961166381836 -0.009711544960737228 -0.1782945990562439
-0.9844961166381836 0.004661573097109795 -0.1627907156944275
-0.9844961166381836 0.010538747534155846 -0.24031007289886475
-0.9844961166381836 0.018181007355451584 -0.22480618953704834
-0.9844961166381836 0.019906995818018913 -0.20930230617523193
-0.9844961166381836 0.01878882199525833 -0.19379842281341553
-0.9844961166381836 0.014215942472219467 -0.1782945990562439
-0.9844961166381836 0.008349088951945305 -0.1627907156944275
-0.9689922332763672 -0.023264139890670776 -0.20930230617523193
-0.9689922332763672 -0.008366942405700684 -0.25581395626068115
-0.9689922332763672 -0.017904825508594513 -0.24031007289886475
-0.9689922332763672 -0.022029437124729156 -0.22480618953704834
-0.9689922332763672 -0.02245921641588211 -0.19379842281341553
-0.9689921736717224 -0.02004219777882099 -0.1782945990562439
-0.9689922332763672 -0.018234599381685257 -0.1627907156944275
-0.9689922332763672 -0.01613166183233261 -0.14728683233261108
-0.9689922332763672 -0.012761393561959267 -0.13178294897079468
-0.9689922332763672 -0.008482588455080986 -0.11627906560897827
-0.9689922332763672 0.008529523387551308 -0.25581395626068115
-0.9689922332763672 0.021210933104157448 -0.13178294897079468
-0.9689922332763672 0.013039635494351387 -0.11627906560897827
-0.9689922332763672 0.024498995393514633 -0.24031007289886475
-0.9689922332763672 0.027354788035154343 -0.22480618953704834
-0.9689922332763672 0.028839323669672012 -0.20930230617523193
-0.9689922332763672 0.02895260415971279 -0.19379842281341553
-0.9689922332763672 0.027933817356824875 -0.1782945990562439
-0.9689922332763672 0.026312746107578278 -0.16279073059558868
-0.9689922332763672 0.023984188213944435 -0.14728683233261108
-0.9534883499145508 -0.023370057344436646 -0.24031007289886475
-0.9534883499145508 -0.02537163347005844 -0.22480618953704834
-0.9534883499145508 -0.02613672986626625 -0.20930230617523193
-0.9534883499145508 -0.026354242116212845 -0.19379842281341553
-0.9534883499145508 -0.02645985595881939 -0.1782945990562439
-0.9534883499145508 -0.026451505720615387 -0.1627907156944275
-0.9534883499145508 -0.02580593340098858 -0.14728683233261108
-0.9534883499145508 -0.024860728532075882 -0.13178294897079468
-0.9534883499145508 -0.02373785339295864 -0.11627906560897827
-0.9534883499145508 -0.012266632169485092 -0.25581395626068115
-0.9534883499145508 -0.020187148824334145 -0.10077518224716187
-0.9534883499145508 -0.0180666483938694 -0.08527129888534546
-0.9534883499145508 -0.015207149088382721 -0.06976741552352905
-0.9534883499145508 -0.009390605613589287 -0.05426359176635742
-0.9534883499145508 0.01677251048386097 -0.25581395626068115
-0.9534883499145508 0.021260378882288933 -0.06976741552352905
-0.9534884095191956 0.012784495949745178 -0.05426359176635742
-0.9534883499145508 0.02703767642378807 -0.24031007289886475
-0.9534883499145508 0.029964249581098557 -0.22480618953704834
-0.9534883499145508 0.031570080667734146 -0.20930230617523193
-0.9534883499145508 0.03242605924606323 -0.19379842281341553
-0.9534883499145508 0.032966721802949905 -0.1782945990562439
-0.9534883499145508 0.033620767295360565 -0.1627907156944275
-0.9534883499145508 0.03388679772615433 -0.14728683233261108
-0.9534883499145508 0.032623376697301865 -0.13178294897079468
-0.9534883499145508 0.03024819865822792 -0.11627905815839767
-0.9534883499145508 0.027303969487547874 -0.10077518224716187
-0.9534883499145508 0.023974524810910225 -0.08527129888534546
-0.9379844665527344 -0.02355480194091797 -0.24031007289886475
-0.9379844665527344 -0.025699429214000702 -0.22480618953704834
-0.9379844665527344 -0.027229519560933113 -0.20930230617523193
-0.9379844665527344 -0.028242774307727814 -0.19379842281341553
-0.9379844665527344 -0.02876156195998192 -0.1782945990562439
-0.9379844665527344 -0.0290926992893219 -0.1627907156944275
-0.9379844665527344 -0.029400261119008064 -0.14728683233261108
-0.9379844665527344 -0.029610704630613327 -0.13178294897079468
-0.9379844665527344 -0.02924506738781929 -0.11627906560897827
-0.9379844665527344 -0.02850368246436119 -0.10077518224716187
-0.9379844665527344 -0.027313321828842163 -0.08527129888534546
-0.9379844665527344 -0.026223283261060715 -0.06976741552352905
-0.9379844665527344 -0.02505994588136673 -0.05426359176635742
-0.9379844665527344 -0.013113928958773613 -0.25581395626068115
-0.9379844665527344 -0.022004680708050728 -0.038759708404541016
-0.9379844665527344 -0.01808857172727585 -0.02325582504272461
-0.9379844665527344 -0.010503586381673813 -0.007751941680908203
-0.9379844665527344 0.019565043970942497 -0.25581395626068115
-0.9379844665527344 0.022596606984734535 -0.02325582504272461
-0.9379844665527344 0.014017893932759762 -0.007751941680908203
-0.9379844665527344 0.02719210460782051 -0.24031007289886475
-0.9379844665527344 0.03081742487847805 -0.22480618953704834
-0.9379844665527344 0.033568285405635834 -0.20930230617523193
-0.9379844665527344 0.036263465881347656 -0.19379842281341553
-0.9379844665527344 0.037057846784591675 -0.11627906560897827
-0.9379844665527344 0.0352073609828949 -0.10077518224716187
-0.9379844665527344 0.03426837921142578 -0.08527129888534546
-0.9379844665527344 0.03227275609970093 -0.06976741552352905
-0.9379844665527344 0.02969302237033844 -0.05426359176635742
-0.9379844665527344 0.026346895843744278 -0.038759708404541016
-0.9379844665527344 0.03884519264101982 -0.1782945990562439
-0.9379844069480896 0.039299238473176956 -0.1627907007932663
-0.9379844665527344 0.03923662006855011 -0.14728683233261108
-0.9379844665527344 0.03888639062643051 -0.13178294897079468
-0.9224806427955627 -0.025334622710943222 -0.20930230617523193
-0.9224806427955627 -0.027632931247353554 -0.19379842281341553
-0.9224807024002075 -0.02958782948553562 -0.1782945990562439
-0.9224806427955627 -0.030689455568790436 -0.1627907156944275
-0.9224806427955627 -0.030911430716514587 -0.14728683233261108
-0.9224806427955627 -0.030802300199866295 -0.13178294897079468
-0.9224806427955627 -0.030326277017593384 -0.11627906560897827
-0.9224807024002075 -0.029905175790190697 -0.10077518224716187
-0.922480583190918 -0.02961202710866928 -0.08527129888534546
-0.922480583190918 -0.02963009849190712 -0.06976741552352905
-0.9224806427955627 -0.029681719839572906 -0.05426359176635742
-0.9224807024002075 -0.029439188539981842 -0.038759708404541016
-0.9224807024002075 -0.02873433753848076 -0.02325582504272461
-0.9224806427955627 -0.027651946991682053 -0.007751941680908203
-0.9224806427955627 -0.025861112400889397 0.007751941680908203
-0.9224806427955627 -0.009892946109175682 -0.25581395626068115
-0.9224807024002075 -0.01637037843465805 -0.24031008780002594
-0.9224806427955627 -0.02235984615981579 -0.22480617463588715
-0.9224806427955627 -0.022830810397863388 0.02325582504272461
-0.9224806427955627 -0.0191368218511343 0.038759708404541016
-0.9224806427955627 -0.011172715574502945 0.05426359176635742
-0.9224806427955627 0.013174764811992645 -0.25581395626068115
-0.9224806427955627 0.022195501253008842 0.038759708404541016
-0.922480583190918 0.013401014730334282 0.05426359176635742
-0.9224806427955627 0.02377120405435562 -0.24031008780002594
-0.922480583190918 0.027230409905314445 -0.22480618953704834
-0.9224807024002075 0.03059842810034752 -0.20930230617523193
-0.9224806427955627 0.03397497534751892 -0.19379842281341553
-0.9224806427955627 0.038017090409994125 -0.1782945990562439
-0.9224806427955627 0.03746869042515755 -0.08527129888534546
-0.9224806427955627 0.03606044873595238 -0.06976741552352905
-0.9224806427955627 0.034870319068431854 -0.05426359176635742
