0.19379842281341553 -0.20930230617523193 0.32425230741500854
0.19379842281341553 -0.19379842281341553 -0.16540542244911194
0.19379842281341553 -0.19379842281341553 0.017755430191755295
0.19379842281341553 -0.19379842281341553 0.12380000948905945
0.19379842281341553 -0.19379842281341553 0.36951273679733276
0.19379842281341553 -0.1782945990562439 -0.16643215715885162
0.19379842281341553 -0.1782945990562439 -0.0024902797304093838
0.19379842281341553 -0.1782945990562439 0.14014457166194916
0.19379842281341553 -0.1782945990562439 0.40315335988998413
0.19379842281341553 -0.1627907156944275 -0.16843962669372559
0.19379842281341553 -0.1627907156944275 -0.015378672629594803
0.19379842281341553 -0.1627907156944275 0.14698320627212524
0.19379842281341553 -0.1627907156944275 0.42917805910110474
0.19379842281341553 -0.14728683233261108 -0.16757801175117493
0.19379842281341553 -0.14728683233261108 -0.021111296489834785
0.19379842281341553 -0.14728683233261108 0.1444287747144699
0.19379842281341553 -0.14728683233261108 0.4488149881362915
0.19379842281341553 -0.13178294897079468 -0.1655154526233673
0.19379842281341553 -0.13178294897079468 -0.020519183948636055
0.19379842281341553 -0.13178294897079468 0.13719762861728668
0.19379842281341553 -0.13178294897079468 0.46933168172836304
0.19379842281341553 -0.11627906560897827 -0.16783113777637482
0.19379842281341553 -0.11627906560897827 -0.008614664897322655
0.19379842281341553 -0.11627906560897827 0.12918919324874878
0.19379842281341553 -0.11627906560897827 0.4864743947982788
0.19379842281341553 -0.10077518224716187 -0.17469638586044312
0.19379842281341553 -0.10077518224716187 -0.0715331882238388
0.19379842281341553 -0.10077518969774246 -0.03738759458065033
0.19379843771457672 -0.10077518969774246 0.010218056850135326
0.19379842281341553 -0.10077518224716187 0.12060252577066422
0.19379842281341553 -0.10077518224716187 0.4982583224773407
0.19379842281341553 -0.08527129888534546 -0.1811746209859848
0.19379842281341553 -0.08527129888534546 -0.08223211765289307
0.19379842281341553 -0.08527129888534546 -0.02914360538125038
0.19379842281341553 -0.08527129888534546 0.027722589671611786
0.19379842281341553 -0.08527129888534546 0.11179652810096741
0.19379842281341553 -0.08527129888534546 0.507702648639679
0.19379842281341553 -0.06976741552352905 -0.1856144368648529
0.19379842281341553 -0.06976741552352905 -0.09293513745069504
0.19379842281341553 -0.06976741552352905 -0.004565327428281307
0.19379842281341553 -0.06976741552352905 0.04668324813246727
0.19379842281341553 -0.06976741552352905 0.10569120198488235
0.19379842281341553 -0.06976741552352905 0.43283048272132874
0.19379842281341553 -0.06976741552352905 0.44643545150756836
0.19379842281341553 -0.06976741552352905 0.5150225758552551
0.19379842281341553 -0.05426359176635742 -0.18944227695465088
0.19379842281341553 -0.05426359176635742 -0.10405877977609634
0.19379842281341553 -0.05426359176635742 0.11103254556655884
0.19379842281341553 -0.05426359176635742 0.3740985691547394
0.19379842281341553 -0.05426359176635742 0.47426578402519226
0.19379840791225433 -0.05426358804106712 0.5204868316650391
0.19379842281341553 -0.03875970467925072 -0.19267268478870392
0.19379842281341553 -0.038759708404541016 -0.11871350556612015
0.19379842281341553 -0.038759708404541016 0.1313759684562683
0.19379842281341553 -0.038759708404541016 0.2868354618549347
0.19379842281341553 -0.038759708404541016 0.4828926920890808
0.19379842281341553 -0.038759708404541016 0.5263630151748657
0.19379842281341553 -0.02325582504272461 -0.19424745440483093
0.19379842281341553 -0.02325582504272461 -0.13364002108573914
0.19379842281341553 -0.02325582504272461 0.489048570394516
0.19379842281341553 -0.02325582504272461 0.5292320847511292
0.19379842281341553 -0.007751941680908203 -0.19481481611728668
0.19379842281341553 -0.007751941680908203 -0.1428629755973816
0.19379843771457672 -0.007751941680908203 0.4903109073638916
0.19379842281341553 -0.007751941680908203 0.5301636457443237
0.19379842281341553 0.007751941680908203 -0.1941533088684082
0.19379842281341553 0.007751941680908203 -0.14517945051193237
0.19379842281341553 0.007751941215246916 0.48981544375419617
0.19379842281341553 0.007751941680908203 0.5301313400268555
0.19379842281341553 0.02325582504272461 -0.19419418275356293
0.19379842281341553 0.02325582504272461 -0.13999751210212708
0.19379842281341553 0.02325582504272461 0.1591673046350479
0.19379842281341553 0.02325582318007946 0.2723183333873749
0.19379842281341553 0.02325582504272461 0.4860233664512634
0.19379842281341553 0.02325582504272461 0.5289266705513
0.19379842281341553 0.038759708404541016 -0.1941773146390915
0.19379842281341553 0.038759708404541016 -0.1251087188720703
0.19379842281341553 0.038759708404541016 0.14263847470283508
0.19379842281341553 0.038759708404541016 0.2952616214752197
0.19379843771457672 0.038759708404541016 0.47745946049690247
0.19379842281341553 0.038759708404541016 0.5256770253181458
0.19379842281341553 0.05426359176635742 -0.19916342198848724
0.19379842281341553 0.05426359176635742 -0.10516756027936935
0.19379842281341553 0.05426358804106712 0.1317865252494812
0.19379842281341553 0.05426359176635742 0.32968446612358093
0.19379842281341553 0.05426359176635742 0.46480709314346313
0.19379842281341553 0.05426359176635742 0.5205228328704834
0.19379842281341553 0.06976747512817383 -0.2159874141216278
0.19379842281341553 0.06976747512817383 -0.07189206779003143
0.19379842281341553 0.06976747512817383 -0.06837066262960434
0.19379842281341553 0.06976747512817383 0.016177617013454437
0.19379842281341553 0.06976747512817383 0.12134775519371033
0.19379842281341553 0.06976747512817383 0.5160579085350037
0.19379842281341553 0.08527135848999023 -0.24066853523254395
0.19379842281341553 0.08527135848999023 0.023127712309360504
0.19379842281341553 0.08527135848999023 0.11297112703323364
0.19379842281341553 0.08527135848999023 0.5107088685035706
0.19379842281341553 0.10077524185180664 -0.26416894793510437
0.19379842281341553 0.10077524185180664 -0.10413551330566406
0.19379842281341553 0.10077524185180664 -0.049390219151973724
0.19379842281341553 0.10077524185180664 -0.0011669164523482323
0.19379840791225433 0.10077524185180664 0.11893771588802338
0.19379842281341553 0.10077524185180664 0.5021428465843201
0.19379842281341553 0.11627912521362305 -0.27771300077438354
0.19379842281341553 0.11627912521362305 -0.11701987683773041
0.19379842281341553 0.11627911776304245 0.13194707036018372
0.19379842281341553 0.11627912521362305 0.49166274070739746
0.19379842281341553 0.1317828893661499 -0.28237706422805786
0.19379842281341553 0.1317828893661499 -0.10759995877742767
0.19379842281341553 0.1317828893661499 0.14319661259651184
0.19379842281341553 0.1317828893661499 0.4759429395198822
0.19379842281341553 0.1472867727279663 -0.28119033575057983
0.19379842281341553 0.1472867727279663 -0.09336889535188675
0.19379842281341553 0.1472867727279663 0.15286317467689514
0.19379842281341553 0.1472867727279663 0.4573257267475128
0.19379842281341553 0.16279065608978271 -0.274674654006958
0.19379842281341553 0.16279065608978271 -0.07793515920639038
0.19379842281341553 0.16279065608978271 0.15387317538261414
0.19379842281341553 0.16279065608978271 0.438436359167099
0.19379842281341553 0.17829453945159912 -0.2640872001647949
0.19379842281341553 0.17829453945159912 -0.034406546503305435
0.19379842281341553 0.17829453945159912 0.13766038417816162
0.19379842281341553 0.17829453945159912 0.4185851216316223
0.19379842281341553 0.19379842281341553 -0.24746039509773254
0.19379843771457672 0.19379843771457672 0.02592070773243904
0.19379842281341553 0.19379842281341553 0.09746326506137848
0.19379842281341553 0.19379842281341553 0.3900294899940491
0.19379842281341553 0.20930230617523193 -0.22624249756336212
0.19379842281341553 0.20930230617523193 0.34535467624664307
0.19379842281341553 0.22480618953704834 -0.20079201459884644
0.19379842281341553 0.22480618953704834 0.28860700130462646
0.19379842281341553 0.24031007289886475 -0.168740376830101
0.19379842281341553 0.24031007289886475 0.23324450850486755
0.19379842281341553 0.25581395626068115 -0.11270184069871902
0.19379840791225433 0.25581395626068115 0.17879173159599304
0.20930230617523193 -0.25581395626068115 -0.0483996644616127
0.20930230617523193 -0.25581395626068115 0.10953586548566818
0.20930230617523193 -0.24031007289886475 -0.13308826088905334
0.20930230617523193 -0.24031007289886475 0.2066611349582672
0.20930230617523193 -0.22480618953704834 -0.15840736031532288
0.20930230617523193 -0.22480618953704834 0.2726996839046478
0.20930230617523193 -0.20930230617523193 -0.1670534610748291
0.20930230617523193 -0.20930230617523193 0.04253969341516495
0.20930230617523193 -0.20930230617523193 0.10396592319011688
0.20930230617523193 -0.20930230617523193 0.31676527857780457
0.20930230617523193 -0.19379842281341553 -0.16951428353786469
0.20930230617523193 -0.19379842281341553 0.013647038489580154
0.20930230617523193 -0.19379842281341553 0.13043175637722015
0.20930230617523193 -0.19379842281341553 0.3565385937690735
0.20930230617523193 -0.1782945990562439 -0.17431774735450745
0.20930230617523193 -0.1782945990562439 -0.007602526806294918
0.20930230617523193 -0.1782945990562439 0.1477428674697876
0.20930230617523193 -0.1782945990562439 0.39238089323043823
0.20930230617523193 -0.1627907156944275 -0.17920516431331635
0.20930230617523193 -0.1627907156944275 -0.021266501396894455
0.20930230617523193 -0.1627907156944275 0.15639951825141907
0.20930230617523193 -0.1627907156944275 0.41770148277282715
0.20930230617523193 -0.14728683233261108 -0.17502087354660034
0.20930230617523193 -0.14728683233261108 -0.028319761157035828
0.20930230617523193 -0.14728683233261108 0.15439185500144958
0.20930230617523193 -0.14728683233261108 0.4418920874595642
0.20930230617523193 -0.13178294897079468 -0.16706429421901703
0.20930230617523193 -0.13178294897079468 -0.02072037011384964
0.20930230617523193 -0.13178294897079468 0.14761537313461304
0.20930230617523193 -0.13178294897079468 0.4619787335395813
0.20930230617523193 -0.11627906560897827 -0.1665123850107193
0.20930230617523193 -0.11627906560897827 -0.005441166460514069
0.20930230617523193 -0.11627906560897827 0.1405470073223114
0.20930230617523193 -0.11627906560897827 0.4809766709804535
0.20930230617523193 -0.10077518224716187 -0.17089860141277313
0.20930230617523193 -0.10077518224716187 0.009594408795237541
0.20930230617523193 -0.10077518224716187 0.1321752965450287
0.20930230617523193 -0.10077518224716187 0.49543601274490356
0.20930230617523193 -0.08527129888534546 -0.17929664254188538
0.20930230617523193 -0.08527129888534546 -0.07387855648994446
0.20930230617523193 -0.08527129888534546 -0.03804334998130798
0.20930230617523193 -0.08527129888534546 0.01780128665268421
0.20930230617523193 -0.08527129888534546 0.12337706238031387
0.20930230617523193 -0.08527129143476486 0.5045141577720642
0.20930230617523193 -0.06976741552352905 -0.18335029482841492
0.20930230617523193 -0.06976741552352905 -0.08821966499090195
0.20930230617523193 -0.06976741552352905 -0.001551526365801692
0.20930230617523193 -0.06976741552352905 0.01596718281507492
0.20930232107639313 -0.06976741552352905 0.11900797486305237
0.20930230617523193 -0.06976741552352905 0.5140715837478638
0.20930230617523193 -0.05426359176635742 -0.1871257722377777
0.20930232107639313 -0.05426359176635742 -0.09908019751310349
0.20930230617523193 -0.05426359176635742 0.12342710793018341
0.20930230617523193 -0.05426359176635742 0.3169059157371521
0.20930230617523193 -0.05426359176635742 0.35843056440353394
0.20930230617523193 -0.05426359176635742 0.3662327826023102
0.20930230617523193 -0.05426359176635742 0.47204020619392395
0.20930230617523193 -0.05426359176635742 0.5185390710830688
0.20930230617523193 -0.038759708404541016 -0.19125737249851227
0.20930230617523193 -0.038759708404541016 -0.11297585070133209
0.20930230617523193 -0.038759712129831314 0.14801529049873352
0.20930230617523193 -0.038759708404541016 0.28206419944763184
0.20930230617523193 -0.038759708404541016 0.4805141091346741
0.20930230617523193 -0.038759708404541016 0.5242322087287903
0.20930230617523193 -0.02325582504272461 -0.194069966673851
0.20930230617523193 -0.02325582504272461 -0.12947866320610046
0.20930230617523193 -0.02325582504272461 0.487964004278183
0.20930230617523193 -0.02325582504272461 0.52791428565979
0.20930230617523193 -0.007751941680908203 -0.19477660953998566
0.20930230617523193 -0.007751941680908203 -0.14006519317626953
0.20930230617523193 -0.007751941680908203 0.48947516083717346
0.20930230617523193 -0.007751941680908203 0.5291842222213745
0.20930230617523193 0.007751941680908203 -0.19427575170993805
0.20930230617523193 0.007751941680908203 -0.14236986637115479
0.20930230617523193 0.007751941680908203 0.48903244733810425
0.20930230617523193 0.007751941680908203 0.5291475057601929
0.20930230617523193 0.02325582504272461 -0.19451865553855896
0.20930230617523193 0.02325582504272461 -0.1370791345834732
0.20930230617523193 0.02325582504272461 0.2170747071504593
0.20930230617523193 0.02325582504272461 0.26407426595687866
0.20930230617523193 0.02325582504272461 0.4837753176689148
0.20930230617523193 0.02325582504272461 0.5276398062705994
0.20930230617523193 0.038759708404541016 -0.19514483213424683
0.20930230617523193 0.038759708404541016 -0.12268760055303574
0.20930230617523193 0.038759708404541016 0.14907805621623993
0.20930230617523193 0.038759708404541016 0.29156625270843506
0.20930232107639313 0.038759712129831314 0.47586336731910706
0.20930230617523193 0.038759708404541016 0.5238195657730103
0.20930230617523193 0.05426359176635742 -0.20195969939231873
0.20930230617523193 0.05426359176635742 -0.1085655689239502
0.20930230617523193 0.05426359176635742 0.13745351135730743
0.20930230617523193 0.05426359176635742 0.32883304357528687
0.20930230617523193 0.05426359176635742 0.46198582649230957
0.20930230617523193 0.05426359176635742 0.5187181234359741
0.20930230617523193 0.06976747512817383 -0.22206208109855652
0.20930229127407074 0.06976747512817383 -0.0991356372833252
0.20930230617523193 0.06976747512817383 0.13044637441635132
0.20930230617523193 0.06976747512817383 0.5148437023162842
0.20930230617523193 0.08527135848999023 -0.24760743975639343
0.20930230617523193 0.08527135848999023 -0.09987959265708923
0.20930230617523193 0.08527135848999023 -0.05607057362794876
0.20930230617523193 0.08527135848999023 -0.009282614104449749
0.20930230617523193 0.08527135848999023 0.1275121569633484
0.20930230617523193 0.08527135848999023 0.5074402689933777
0.20930230617523193 0.10077524185180664 -0.27213194966316223
0.20930230617523193 0.10077524185180664 -0.12445922195911407
0.20930232107639313 0.10077524185180664 0.1322513222694397
0.20930230617523193 0.10077524185180664 0.49932876229286194
0.20930230617523193 0.11627912521362305 -0.2861483693122864
0.20930230617523193 0.11627912521362305 -0.13564063608646393
0.20930230617523193 0.11627912521362305 0.14066556096076965
0.20930230617523193 0.11627912521362305 0.4857993721961975
0.20930230617523193 0.1317828893661499 -0.2921646237373352
0.20930230617523193 0.1317828893661499 -0.12551715970039368
0.20930230617523193 0.1317828893661499 0.15107204020023346
0.20930230617523193 0.1317828893661499 0.4677157402038574
0.20930230617523193 0.1472867727279663 -0.29150155186653137
0.20930230617523193 0.1472867727279663 -0.10414142906665802
0.20930230617523193 0.1472867727279663 0.16127917170524597
0.20930230617523193 0.1472867727279663 0.44764578342437744
0.20930230617523193 0.16279065608978271 -0.28543537855148315
0.20930230617523193 0.16279065608978271 -0.08594289422035217
0.20930230617523193 0.16279065608978271 0.16163109242916107
0.20930230617523193 0.16279065608978271 0.4284876883029938
0.20930230617523193 0.17829453945159912 -0.27561599016189575
0.20930230617523193 0.17829453945159912 -0.03789547085762024
0.20930230617523193 0.17829453945159912 0.14166155457496643
0.20930230617523193 0.17829453945159912 0.40735092759132385
0.20930230617523193 0.19379842281341553 -0.2601564824581146
0.20930230617523193 0.19379842281341553 0.023304132744669914
0.20930230617523193 0.19379842281341553 0.10201819986104965
0.20930230617523193 0.19379842281341553 0.3764328956604004
0.20930230617523193 0.20930230617523193 -0.23883935809135437
0.20930230617523193 0.20930230617523193 0.3327014446258545
0.20930230617523193 0.22480618953704834 -0.21148338913917542
0.20930230617523193 0.22480618953704834 0.28072676062583923
0.20930230617523193 0.24031008780002594 -0.175899937748909
0.20930230617523193 0.24031007289886475 0.23010104894638062
0.20930230617523193 0.25581395626068115 -0.1139867752790451
0.20930230617523193 0.25581395626068115 0.1759030967950821
0.22480618953704834 -0.25581395626068115 -0.03749047964811325
0.22480618953704834 -0.25581395626068115 0.097141794860363
0.22480618953704834 -0.24031007289886475 -0.13086102902889252
0.22480618953704834 -0.24031007289886475 0.1955689787864685
0.22480618953704834 -0.22480618953704834 -0.16330400109291077
0.22480618953704834 -0.22480618953704834 0.2619578540325165
0.22480618953704834 -0.20930230617523193 -0.18129770457744598
0.22480618953704834 -0.20930230617523193 0.03679586201906204
0.22480618953704834 -0.20930230617523193 0.10832133144140244
0.22480618953704834 -0.20930230617523193 0.30594074726104736
0.22480618953704834 -0.19379842281341553 -0.19891613721847534
0.22480618953704834 -0.19379842281341553 0.008843393065035343
0.22480618953704834 -0.19379842281341553 0.1357736885547638
0.22480618953704834 -0.19379842281341553 0.3431696593761444
0.22480618953704834 -0.1782945990562439 -0.2156740128993988
0.22480618953704834 -0.1782945990562439 -0.012359626591205597
0.22480618953704834 -0.1782945990562439 0.15573343634605408
0.22480618953704834 -0.1782945990562439 0.3787287771701813
0.22480618953704834 -0.1627907156944275 -0.22630877792835236
0.22480618953704834 -0.1627907156944275 -0.029229989275336266
0.22480618953704834 -0.1627907156944275 0.16677331924438477
0.22480618953704834 -0.1627907156944275 0.40457683801651
0.22480618953704834 -0.14728683233261108 -0.21803686022758484
0.22480620443820953 -0.14728683233261108 -0.03460570052266121
0.22480618953704834 -0.14728683233261108 0.1657055914402008
0.22480618953704834 -0.14728683233261108 0.42944973707199097
0.22480618953704834 -0.13178294897079468 -0.1849442571401596
0.22480618953704834 -0.13178294897079468 -0.018503565341234207
0.22480618953704834 -0.13178294897079468 0.15930235385894775
0.22480618953704834 -0.13178294897079468 0.45236441493034363
0.22480618953704834 -0.11627906560897827 -0.16970357298851013
0.22480618953704834 -0.11627906560897827 0.0006092630792409182
0.22480618953704834 -0.11627906560897827 0.15267495810985565
0.22480618953704834 -0.11627906560897827 0.475154310464859
0.22480618953704834 -0.10077518224716187 -0.16935238242149353
0.22480618953704834 -0.10077518224716187 0.013336800038814545
0.22480618953704834 -0.10077518224716187 0.14398381114006042
0.22480618953704834 -0.10077518224716187 0.49079984426498413
0.22480618953704834 -0.08527129888534546 -0.17603133618831635
0.22480618953704834 -0.08527129888534546 0.015194141305983067
0.22480618953704834 -0.08527129888534546 0.13492846488952637
0.22480618953704834 -0.08527129888534546 0.5018067955970764
0.22480618953704834 -0.06976741552352905 -0.18133795261383057
0.22480618953704834 -0.06976741552352905 -0.08505265414714813
0.22480618953704834 -0.06976741552352905 0.13101765513420105
0.22480618953704834 -0.06976741552352905 0.512225329875946
0.22480618953704834 -0.05426359176635742 -0.1851901412010193
0.22480617463588715 -0.05426359176635742 -0.09552162140607834
0.22480618953704834 -0.05426359176635742 0.13730546832084656
0.22480618953704834 -0.05426359176635742 0.3050954341888428
0.22480618953704834 -0.05426359176635742 0.466732382774353
0.22480618953704834 -0.05426359176635742 0.5165656208992004
0.22480618953704834 -0.038759708404541016 -0.18960706889629364
0.22480618953704834 -0.038759708404541016 -0.10731112957000732
0.22480618953704834 -0.038759708404541016 0.17216382920742035
0.22480618953704834 -0.038759708404541016 0.27373552322387695
0.22480620443820953 -0.038759708404541016 0.47810062766075134
0.22480618953704834 -0.038759708404541016 0.5220020413398743
0.22480618953704834 -0.02325582504272461 -0.19385197758674622
0.22480618953704834 -0.02325582504272461 -0.1228065937757492
0.22480618953704834 -0.02325582504272461 0.48509663343429565
0.22480618953704834 -0.02325582504272461 0.5262104272842407
0.22480618953704834 -0.007751941680908203 -0.19482353329658508
0.22480618953704834 -0.007751941680908203 -0.13505859673023224
0.22480620443820953 -0.007751941680908203 0.48859694600105286
0.22480618953704834 -0.007751941680908203 0.5278904438018799
0.22480618953704834 0.007751941680908203 -0.1948765218257904
0.22480618953704834 0.007751941680908203 -0.1375332623720169
0.22480618953704834 0.007751941680908203 0.4878552258014679
0.22480618953704834 0.007751941680908203 0.5278917551040649
0.22480618953704834 0.02325582504272461 -0.1964232176542282
0.22480618953704834 0.02325582504272461 -0.13358837366104126
0.22480618953704834 0.02325582504272461 0.23431819677352905
0.22480618953704834 0.02325582504272461 0.2520776391029358
0.22480618953704834 0.02325582504272461 0.4816049635410309
0.22480618953704834 0.02325582504272461 0.5261115431785583
0.22480618953704834 0.038759708404541016 -0.19962537288665771
0.22480618953704834 0.038759708404541016 -0.12389611452817917
0.22480618953704834 0.038759708404541016 0.15768006443977356
0.22480618953704834 0.038759708404541016 0.2860596776008606
0.22480618953704834 0.038759708404541016 0.4743702709674835
0.22480618953704834 0.038759712129831314 0.5220580101013184
0.22480618953704834 0.05426359176635742 -0.21272924542427063
0.22480618953704834 0.05426359176635742 -0.11914204061031342
0.22480618953704834 0.05426359176635742 0.14320196211338043
0.22480618953704834 0.05426359176635742 0.32187291979789734
0.22480618953704834 0.05426359176635742 0.45923227071762085
0.22480618953704834 0.05426359176635742 0.5171588063240051
0.22480618953704834 0.06976747512817383 -0.23711499571800232
0.22480618953704834 0.06976747512817383 -0.12021154165267944
0.22480618953704834 0.06976747512817383 0.13820897042751312
0.22480618953704834 0.06976747512817383 0.5130802989006042
0.22480618953704834 0.08527135848999023 -0.2632153630256653
0.22480618953704834 0.08527135848999023 -0.12876540422439575
0.22480618953704834 0.08527135848999023 0.13884206116199493
0.22480618953704834 0.08527135103940964 0.5044193863868713
0.22480618953704834 0.10077524185180664 -0.28691521286964417
0.22480620443820953 0.10077524185180664 -0.14650306105613708
0.22480618953704834 0.10077524185180664 0.14383625984191895
0.22480617463588715 0.10077524185180664 0.49492180347442627
0.22480618953704834 0.11627912521362305 -0.3026483952999115
0.22480618953704834 0.11627912521362305 -0.15497073531150818
0.22480618953704834 0.11627912521362305 0.15216006338596344
0.22480618953704834 0.11627912521362305 0.4792100191116333
0.22480618953704834 0.1317828893661499 -0.3103480041027069
0.22480618953704834 0.1317828893661499 -0.14919856190681458
0.22480620443820953 0.1317829042673111 0.16293179988861084
0.22480618953704834 0.1317828893661499 0.458341121673584
0.22480618953704834 0.1472867727279663 -0.31044673919677734
0.22480618953704834 0.1472867727279663 -0.12374205887317657
0.22480618953704834 0.1472867727279663 0.17399221658706665
0.22480618953704834 0.1472867727279663 0.4367184638977051
0.22480618953704834 0.16279065608978271 -0.30442360043525696
0.22480618953704834 0.16279065608978271 -0.10069994628429413
0.22480618953704834 0.16279065608978271 0.17296113073825836
0.22480618953704834 0.16279065608978271 0.4177358150482178
0.22480618953704834 0.17829453945159912 -0.2947942018508911
0.22480618953704834 0.17829453945159912 -0.06095629930496216
0.22480618953704834 0.17829453945159912 0.14869089424610138
0.22480618953704834 0.17829453945159912 0.39469489455223083
0.22480618953704834 0.19379842281341553 -0.280537486076355
0.22480618953704834 0.19379842281341553 0.01682087406516075
0.22480618953704834 0.19379842281341553 0.10979899019002914
0.22480618953704834 0.19379842281341553 0.36251580715179443
0.22480618953704834 0.20930230617523193 -0.258686900138855
0.22480618953704834 0.20930230617523193 0.3209156394004822
0.22480618953704834 0.22480618953704834 -0.22827498614788055
0.22480618953704834 0.22480618953704834 0.2736898958683014
0.22480618953704834 0.24031007289886475 -0.18638984858989716
0.22480618953704834 0.24031007289886475 0.22563670575618744
0.22480617463588715 0.25581395626068115 -0.1138344258069992
0.22480618953704834 0.25581395626068115 0.16751110553741455
0.24031008780002594 -0.25581395626068115 -0.021455347537994385
0.24031007289886475 -0.25581395626068115 0.0799488052725792
0.24031007289886475 -0.24031007289886475 -0.1279287040233612
0.24031007289886475 -0.24031007289886475 0.1825403869152069
0.24031007289886475 -0.22480618953704834 -0.1767015904188156
0.24031007289886475 -0.22480618953704834 0.24988460540771484
0.24031007289886475 -0.20930230617523193 -0.21319982409477234
0.24031007289886475 -0.20930230617523193 0.0343577079474926
0.24031007289886475 -0.20930230617523193 0.10722936689853668
0.24031007289886475 -0.20930230617523193 0.2946215867996216
0.24031007289886475 -0.19379842281341553 -0.24359449744224548
0.24031007289886475 -0.19379842281341553 0.005732264369726181
0.24031007289886475 -0.19379842281341553 0.13753807544708252
0.24031007289886475 -0.19379842281341553 0.33138731122016907
0.24031007289886475 -0.1782945990562439 -0.26470285654067993
0.24031007289886475 -0.1782945990562439 -0.015748515725135803
0.24031007289886475 -0.1782945990562439 0.1599283218383789
0.24031007289886475 -0.1782945990562439 0.3635101914405823
0.24031007289886475 -0.1627907156944275 -0.2771413028240204
0.24031007289886475 -0.1627907156944275 -0.0357835628092289
0.24031007289886475 -0.1627907156944275 0.17381377518177032
0.24031007289886475 -0.1627907156944275 0.3911623954772949
0.24031007289886475 -0.14728683233261108 -0.27710720896720886
0.24031007289886475 -0.14728683233261108 -0.03832056000828743
0.24031007289886475 -0.14728683233261108 0.1747879683971405
0.24031007289886475 -0.14728683233261108 0.4156016707420349
0.24031007289886475 -0.13178294897079468 -0.2563685476779938
0.24031007289886475 -0.13178294897079468 -0.016269423067569733
0.24031007289886475 -0.13178294897079468 0.16980978846549988
0.24031005799770355 -0.13178294897079468 0.44207459688186646
0.24031007289886475 -0.11627906560897827 -0.18783146142959595
0.24031007289886475 -0.11627906560897827 0.006306183524429798
0.24031007289886475 -0.11627906560897827 0.16264265775680542
0.24031007289886475 -0.11627906560897827 0.46685728430747986
0.24031007289886475 -0.10077518224716187 -0.1712155044078827
0.24031007289886475 -0.10077518224716187 0.0191800557076931
0.24031005799770355 -0.10077518224716187 0.1532827466726303
0.24031007289886475 -0.10077518224716187 0.4862399101257324
0.24031007289886475 -0.08527129888534546 -0.17157424986362457
0.24031007289886475 -0.08527129888534546 0.02057086117565632
0.24031007289886475 -0.08527129888534546 0.14395633339881897
0.24031007289886475 -0.08527129888534546 0.4990173578262329
0.24031007289886475 -0.06976741552352905 -0.17911125719547272
0.24031007289886475 -0.06976741552352905 -0.07417518645524979
0.24031007289886475 -0.06976741552352905 0.14046452939510345
0.24031007289886475 -0.06976741552352905 0.5089649558067322
0.24031007289886475 -0.05426359176635742 -0.18253272771835327
0.24031007289886475 -0.05426359176635742 -0.08991895616054535
0.24031007289886475 -0.05426359176635742 0.1490553319454193
0.24031007289886475 -0.05426359176635742 0.29691872000694275
0.24031007289886475 -0.05426359549164772 0.4610685408115387
0.24031007289886475 -0.05426359176635742 0.5152925252914429
0.24031007289886475 -0.038759708404541016 -0.18683528900146484
0.24031007289886475 -0.038759708404541016 -0.10088548064231873
0.24031007289886475 -0.038759708404541016 0.19482867419719696
0.24031007289886475 -0.038759708404541016 0.2661938965320587
0.24031007289886475 -0.038759708404541016 0.47536396980285645
0.24031007289886475 -0.038759708404541016 0.51997971534729
0.24031008780002594 -0.02325582504272461 -0.19209954142570496
0.24031007289886475 -0.02325582504272461 -0.1137712150812149
0.24031007289886475 -0.02325582504272461 0.4815835952758789
0.24031007289886475 -0.02325582504272461 0.5239810943603516
0.24031007289886475 -0.007751941680908203 -0.19487424194812775
0.24031007289886475 -0.007751941680908203 -0.1259709894657135
0.24031007289886475 -0.007751941680908203 0.48520129919052124
0.24031007289886475 -0.007751941680908203 0.5261080265045166
0.24031007289886475 0.007751941680908203 -0.1963169425725937
0.24031007289886475 0.007751941680908203 -0.13070295751094818
0.24031007289886475 0.007751941680908203 0.4841984510421753
0.24031007289886475 0.007751941680908203 0.5261992812156677
0.24031007289886475 0.02325582504272461 -0.200898215174675
0.24031008780002594 0.02325582504272461 -0.1299876868724823
0.24031007289886475 0.02325582504272461 0.47886228561401367
0.24031007289886475 0.02325582504272461 0.5242020487785339
0.24031007289886475 0.038759708404541016 -0.2107832431793213
0.24031007289886475 0.038759708404541016 -0.12759512662887573
0.24031007289886475 0.038759708404541016 0.16795320808887482
0.24031007289886475 0.038759708404541016 0.28088364005088806
0.24031007289886475 0.038759708404541016 0.4719322621822357
0.24031007289886475 0.038759708404541016 0.5203108787536621
0.24031007289886475 0.05426359176635742 -0.23089978098869324
0.24031007289886475 0.05426359176635742 -0.1303716003894806
0.24031005799770355 0.05426359176635742 0.14881274104118347
0.24031007289886475 0.05426359176635742 0.31511253118515015
0.24031007289886475 0.05426359176635742 0.45388567447662354
0.24031007289886475 0.05426359176635742 0.5160812139511108
0.24031007289886475 0.06976747512817383 -0.25650423765182495
0.24031007289886475 0.06976747512817383 -0.13607753813266754
0.24031007289886475 0.06976747512817383 0.14556735754013062
0.24031007289886475 0.06976747512817383 0.5103106498718262
0.24031007289886475 0.08527135848999023 -0.28033262491226196
0.24031007289886475 0.08527135848999023 -0.14561550319194794
0.24031008780002594 0.08527135848999023 0.14788243174552917
0.24031007289886475 0.08527135848999023 0.501409113407135
0.24031007289886475 0.10077524185180664 -0.30455708503723145
0.24031007289886475 0.10077524185180664 -0.160477414727211
0.24031007289886475 0.10077524185180664 0.1536499261856079
0.24031007289886475 0.10077524185180664 0.48975294828414917
0.24031007289886475 0.11627912521362305 -0.32300880551338196
0.24031007289886475 0.11627912521362305 -0.1685117483139038
0.24031007289886475 0.11627912521362305 0.16240133345127106
0.24031007289886475 0.11627912521362305 0.4715307354927063
0.24031005799770355 0.1317828893661499 -0.33269187808036804
0.24031007289886475 0.1317828893661499 -0.16403204202651978
0.24031007289886475 0.1317828893661499 0.17277145385742188
0.24031007289886475 0.1317828893661499 0.4471176862716675
0.24031007289886475 0.1472867727279663 -0.3344433903694153
0.24031007289886475 0.1472867727279663 -0.1441473513841629
0.24031007289886475 0.1472867727279663 0.18456140160560608
0.24031007289886475 0.1472867727279663 0.4250573217868805
0.24031007289886475 0.16279065608978271 -0.32849228382110596
0.24031007289886475 0.16279065608978271 -0.11680848896503448
0.24031007289886475 0.16279064118862152 0.1801101714372635
0.24031007289886475 0.16279065608978271 0.40497535467147827
0.24031007289886475 0.17829453945159912 -0.31853485107421875
0.24031007289886475 0.17829453945159912 -0.08203854411840439
0.24031007289886475 0.17829453945159912 0.152189239859581
0.24031007289886475 0.17829453945159912 0.3802075982093811
0.24031007289886475 0.19379842281341553 -0.302136093378067
0.24031007289886475 0.19379842281341553 0.01030396856367588
0.24031007289886475 0.19379842281341553 0.11124975979328156
0.24031007289886475 0.19379842281341553 0.3481600284576416
0.24031007289886475 0.20930230617523193 -0.27977582812309265
0.24031008780002594 0.20930230617523193 0.30925655364990234
0.24031007289886475 0.22480618953704834 -0.24376317858695984
0.24031007289886475 0.22480618953704834 0.263979971408844
0.24031007289886475 0.24031007289886475 -0.19407466053962708
0.24031007289886475 0.24031007289886475 0.2163584679365158
0.24031007289886475 0.25581395626068115 -0.10934224724769592
0.24031005799770355 0.25581395626068115 0.15278121829032898
0.25581395626068115 -0.25581395626068115 -0.00345583725720644
0.25581395626068115 -0.25581395626068115 0.059514399617910385
0.25581395626068115 -0.24031007289886475 -0.12790676951408386
0.25581395626068115 -0.24031007289886475 0.1708577573299408
0.25581395626068115 -0.22480618953704834 -0.19243374466896057
0.25581395626068115 -0.22480618953704834 0.23886370658874512
0.25581395626068115 -0.20930230617523193 -0.24346724152565002
0.25581395626068115 -0.20930230617523193 0.03230822831392288
0.25581395626068115 -0.20930230617523193 0.1042984127998352
0.25581395626068115 -0.20930230617523193 0.2869391441345215
0.25581395626068115 -0.19379842281341553 -0.2880016267299652
0.25581395626068115 -0.19379842281341553 0.002613057615235448
0.25581395626068115 -0.19379842281341553 0.13781148195266724
0.25581395626068115 -0.19379842281341553 0.32065093517303467
0.25581395626068115 -0.1782945990562439 -0.3177824020385742
0.25581395626068115 -0.1782946139574051 -0.020863335579633713
0.25581395626068115 -0.1782945990562439 0.16251854598522186
0.25581395626068115 -0.1782945990562439 0.3509739339351654
0.25581395626068115 -0.1627907156944275 -0.3345000445842743
0.25581395626068115 -0.1627907156944275 -0.04702271521091461
0.25581395626068115 -0.1627907156944275 0.18056389689445496
0.25581395626068115 -0.1627907156944275 0.3786807060241699
0.25581395626068115 -0.14728683233261108 -0.3371288776397705
0.25581395626068115 -0.14728683233261108 -0.05110805854201317
0.25581395626068115 -0.14728683233261108 0.18628166615962982
0.25581395626068115 -0.14728683233261108 0.40257707238197327
0.25581395626068115 -0.13178294897079468 -0.3199442923069
0.25581395626068115 -0.13178294897079468 -0.02241874858736992
0.25581395626068115 -0.13178294897079468 0.18269900977611542
0.25581395626068115 -0.13178294897079468 0.42921504378318787
0.25581395626068115 -0.11627906560897827 -0.263694167137146
0.25581395626068115 -0.11627906560897827 0.002942841500043869
0.25581395626068115 -0.11627906560897827 0.17568403482437134
0.25581395626068115 -0.11627906560897827 0.4593077301979065
0.25581395626068115 -0.10077518224716187 -0.18352003395557404
0.25581395626068115 -0.10077518224716187 0.018176263198256493
0.25581395626068115 -0.10077518224716187 0.16518813371658325
0.25581395626068115 -0.10077518224716187 0.48086023330688477
0.25581395626068115 -0.08527129888534546 -0.17214643955230713
0.25581395626068115 -0.08527129888534546 0.018750399351119995
0.25581395626068115 -0.08527129888534546 0.15647616982460022
0.25581395626068115 -0.08527129888534546 0.4963180720806122
0.25581395626068115 -0.06976741552352905 -0.17486068606376648
0.25581395626068115 -0.06976741552352905 -0.053786490112543106
0.25581395626068115 -0.06976741552352905 -0.027866821736097336
0.25581395626068115 -0.06976741552352905 -0.02067655138671398
0.25581395626068115 -0.06976741552352905 0.15507006645202637
0.25581395626068115 -0.06976741552352905 0.5053918361663818
0.25581395626068115 -0.05426359176635742 -0.1802988350391388
0.25581395626068115 -0.05426359176635742 -0.08370181173086166
0.25581395626068115 -0.05426359549164772 0.16920697689056396
0.25581395626068115 -0.05426359176635742 0.2887362241744995
0.25581395626068115 -0.05426359176635742 0.45445868372917175
0.25581395626068115 -0.05426359176635742 0.5143038630485535
0.25581395626068115 -0.038759708404541016 -0.1844492256641388
0.25581395626068115 -0.038759708404541016 -0.09424310177564621
0.25581395626068115 -0.038759708404541016 0.2333199381828308
0.25581395626068115 -0.038759708404541016 0.2515552043914795
0.25581395626068115 -0.038759708404541016 0.4727632701396942
0.25581395626068115 -0.038759708404541016 0.517656683921814
0.25581395626068115 -0.02325582504272461 -0.19028212130069733
0.25581395626068115 -0.02325582504272461 -0.10650873929262161
0.25581395626068115 -0.02325582504272461 0.47819793224334717
0.25581395626068115 -0.02325582504272461 0.521665096282959
0.25581395626068115 -0.007751941680908203 -0.19539564847946167
0.25581395626068115 -0.007751941680908203 -0.11814270913600922
0.25581395626068115 -0.007751941680908203 0.48138630390167236
0.25581395626068115 -0.007751941680908203 0.5239472389221191
0.25581395626068115 0.007751941680908203 -0.1989624798297882
0.25581395626068115 0.007751941680908203 -0.12465567886829376
0.25581395626068115 0.007751941680908203 0.4806758165359497
0.25581395626068115 0.007751941680908203 0.5241966843605042
0.25581395626068115 0.02325582504272461 -0.2097286581993103
0.25581395626068115 0.02325582504272461 -0.1282062530517578
0.25581395626068115 0.02325582504272461 0.4762329161167145
0.25581395626068115 0.02325582504272461 0.5222812294960022
0.25581395626068115 0.038759708404541016 -0.22539515793323517
0.25581395626068115 0.038759708404541016 -0.1306951493024826
0.25581395626068115 0.038759708404541016 0.20331710577011108
0.25581395626068115 0.038759708404541016 0.27271249890327454
0.25581395626068115 0.038759708404541016 0.46636703610420227
0.25581395626068115 0.038759708404541016 0.518444836139679
0.25581395626068115 0.05426359176635742 -0.24826854467391968
0.25581395626068115 0.05426359176635742 -0.1357484757900238
0.25581395626068115 0.05426359176635742 0.16118337213993073
0.25581395626068115 0.05426359176635742 0.30740252137184143
0.25581395626068115 0.05426359176635742 0.4461224377155304
0.25581395626068115 0.05426359176635742 0.5150343775749207
0.25581395626068115 0.06976747512817383 -0.2725934386253357
0.25581395626068115 0.06976747512817383 -0.1437971591949463
0.25581395626068115 0.06976747512817383 0.1557757556438446
0.25581395626068115 0.06976747512817383 0.507274329662323
0.25581395626068115 0.08527135848999023 -0.29602062702178955
0.25581395626068115 0.08527135848999023 -0.15438148379325867
0.25581395626068115 0.08527135848999023 0.15774118900299072
0.25581395626068115 0.08527135848999023 0.4989403486251831
0.25581395626068115 0.10077524185180664 -0.3221118450164795
0.25581395626068115 0.10077524185180664 -0.16798798739910126
0.25581395626068115 0.10077524185180664 0.16373813152313232
0.25581395626068115 0.10077524185180664 0.48465120792388916
0.25581395626068115 0.11627912521362305 -0.34342893958091736
0.25581395626068115 0.11627912521362305 -0.17430821061134338
0.25581395626068115 0.11627912521362305 0.17419275641441345
0.25581395626068115 0.11627912521362305 0.46309030055999756
0.25581395626068115 0.1317828893661499 -0.3584108352661133
0.25581395626068115 0.1317828893661499 -0.16766753792762756
0.25581395626068115 0.1317828893661499 0.1859162300825119
0.25581395626068115 0.1317828893661499 0.4354097843170166
0.25581395626068115 0.1472867727279663 -0.362674742937088
0.25581395626068115 0.1472867727279663 -0.15130968391895294
0.25581395626068115 0.1472867727279663 0.19852234423160553
0.25581395626068115 0.1472867727279663 0.4133315682411194
0.25581395626068115 0.16279065608978271 -0.35691747069358826
0.25581395626068115 0.16279065608978271 -0.12821966409683228
0.25581395626068115 0.16279065608978271 0.18673735857009888
0.25581395626068115 0.16279065608978271 0.39135658740997314
0.25581395626068115 0.17829453945159912 -0.3444575369358063
0.25581395626068115 0.17829453945159912 -0.09552191197872162
0.25581395626068115 0.17829453945159912 0.15443003177642822
0.25581395626068115 0.17829453945159912 0.3656392991542816
0.25581395626068115 0.19379842281341553 -0.3260605037212372
0.25581395626068115 0.19379842281341553 -0.0011968419421464205
0.25581395626068115 0.19379842281341553 0.1121755987405777
0.25581395626068115 0.19379842281341553 0.3345232307910919
0.25581395626068115 0.20930230617523193 -0.29656538367271423
0.25581395626068115 0.20930230617523193 0.29895275831222534
0.25581395626068115 0.22480618953704834 -0.2537160813808441
0.25581398606300354 0.22480620443820953 0.25581783056259155
0.25581395626068115 0.24031007289886475 -0.19574953615665436
0.25581395626068115 0.24031007289886475 0.20590084791183472
0.25581395626068115 0.25581395626068115 -0.0992741733789444
0.25581395626068115 0.25581395626068115 0.1349356770515442
0.27131783962249756 -0.24031007289886475 -0.1266184151172638
0.27131783962249756 -0.24031007289886475 0.15717794001102448
0.27131783962249756 -0.22480620443820953 -0.20527943968772888
0.27131783962249756 -0.22480618953704834 0.22582991421222687
0.27131783962249756 -0.20930230617523193 -0.27509838342666626
0.27131783962249756 -0.20930230617523193 0.035320524126291275
0.27131783962249756 -0.20930230617523193 0.09212642908096313
0.27131783962249756 -0.20930230617523193 0.2757330536842346
0.27131783962249756 -0.19379842281341553 -0.34229740500450134
0.27131783962249756 -0.19379842281341553 0.0019417630974203348
0.27131783962249756 -0.19379840791225433 0.13321226835250854
0.27131783962249756 -0.19379842281341553 0.30994153022766113
0.27131783962249756 -0.1782945990562439 -0.38389232754707336
0.27131783962249756 -0.1782945990562439 -0.024023886770009995
0.27131783962249756 -0.1782945990562439 0.1595616191625595
0.27131783962249756 -0.1782945990562439 0.3391818106174469
0.27131783962249756 -0.1627907156944275 -0.40767812728881836
0.27131783962249756 -0.1627907156944275 -0.06370673328638077
0.27131783962249756 -0.1627907007932663 0.18086612224578857
0.27131783962249756 -0.1627907156944275 0.36577296257019043
0.27131783962249756 -0.14728683233261108 -0.4107796251773834
0.27131783962249756 -0.14728683233261108 -0.07634273916482925
0.27131783962249756 -0.14728683233261108 0.19202059507369995
0.27131783962249756 -0.14728683233261108 0.39100000262260437
0.27131783962249756 -0.13178294897079468 -0.3880257308483124
0.27131783962249756 -0.13178294897079468 -0.0443313866853714
0.27131783962249756 -0.13178294897079468 0.19183574616909027
0.27131783962249756 -0.13178294897079468 0.4163258671760559
0.27131783962249756 -0.11627905815839767 -0.3332858085632324
0.27131783962249756 -0.11627906560897827 -0.005512894131243229
0.27131783962249756 -0.11627906560897827 0.18581770360469818
0.27131783962249756 -0.11627906560897827 0.4482571482658386
0.27131783962249756 -0.10077518969774246 -0.22269564867019653
0.27131783962249756 -0.10077518224716187 0.013960566371679306
0.27131783962249756 -0.10077518224716187 0.17492395639419556
0.27131783962249756 -0.10077518224716187 0.4751347005367279
0.27131783962249756 -0.08527129888534546 -0.1791013479232788
0.27131783962249756 -0.08527129888534546 0.0155098307877779
0.27131783962249756 -0.08527129888534546 0.16795682907104492
0.27131783962249756 -0.08527129888534546 0.4918506443500519
0.27131783962249756 -0.06976741552352905 -0.1730555146932602
0.27131783962249756 -0.06976741552352905 -0.010852412320673466
0.27131783962249756 -0.06976741552352905 0.17070579528808594
0.27131783962249756 -0.06976741552352905 0.5027821063995361
0.27131783962249756 -0.05426359176635742 -0.17835646867752075
0.27131783962249756 -0.05426359176635742 -0.07022181153297424
0.27131783962249756 -0.05426359176635742 0.19575785100460052
0.27131783962249756 -0.05426359176635742 0.28332459926605225
0.27131783962249756 -0.05426359176635742 0.3588091731071472
0.27131783962249756 -0.05426359176635742 0.385183721780777
0.27131783962249756 -0.05426359176635742 0.4440096318721771
0.27131783962249756 -0.05426359176635742 0.5126111507415771
0.27131783962249756 -0.038759708404541016 -0.18224337697029114
0.27131783962249756 -0.038759708404541016 -0.08390353620052338
0.27131783962249756 -0.038759708404541016 0.46663814783096313
0.27131783962249756 -0.038759708404541016 0.5159335136413574
0.27131783962249756 -0.02325582504272461 -0.1880585253238678
0.27131783962249756 -0.02325582504272461 -0.09669003635644913
0.27131783962249756 -0.02325582318007946 0.47537729144096375
0.27131783962249756 -0.02325582504272461 0.5197927355766296
0.27131783962249756 -0.007751941680908203 -0.1958010047674179
0.27131783962249756 -0.007751941680908203 -0.10829485207796097
0.27131783962249756 -0.007751941680908203 0.47806406021118164
0.27131783962249756 -0.007751941680908203 0.5218762159347534
0.27131783962249756 0.007751941680908203 -0.20227786898612976
0.27131783962249756 0.007751941680908203 -0.11634042859077454
0.27131783962249756 0.007751941680908203 0.4775378704071045
0.27131783962249756 0.007751941215246916 0.5222645998001099
0.27131783962249756 0.02325582504272461 -0.2179725468158722
0.27131783962249756 0.02325582504272461 -0.12187270075082779
0.27131783962249756 0.02325582504272461 0.4738372266292572
0.27131783962249756 0.02325582504272461 0.520619809627533
0.27131783962249756 0.038759708404541016 -0.23835720121860504
0.27131783962249756 0.038759708404541016 -0.12654072046279907
0.27131783962249756 0.038759708404541016 0.22464001178741455
0.27131783962249756 0.038759708404541016 0.2686222195625305
0.27131783962249756 0.038759708404541016 0.4616900682449341
0.27131783962249756 0.038759708404541016 0.5169670581817627
0.27131783962249756 0.05426359176635742 -0.2617763578891754
0.27131783962249756 0.05426359176635742 -0.13468660414218903
0.27131783962249756 0.05426359176635742 0.17705495655536652
0.27131783962249756 0.05426359176635742 0.3105158805847168
0.27131783962249756 0.05426359176635742 0.3394180238246918
0.27131783962249756 0.05426359176635742 0.3759981393814087
0.27131783962249756 0.05426359176635742 0.43761715292930603
0.27131783962249756 0.05426359176635742 0.5136691927909851
0.27131783962249756 0.06976747512817383 -0.2856407165527344
0.27131783962249756 0.06976747512817383 -0.1458851546049118
0.27131783962249756 0.06976747512817383 0.16175401210784912
0.27131783962249756 0.06976746767759323 0.504984438419342
0.27131783962249756 0.08527135848999023 -0.3105540871620178
0.27131783962249756 0.08527135848999023 -0.1568225771188736
0.27131783962249756 0.08527135848999023 0.16116966307163239
0.27131783962249756 0.08527135848999023 0.4952992796897888
0.27131783962249756 0.10077524185180664 -0.3382110893726349
0.27131783962249756 0.10077524185180664 -0.16780582070350647
0.27131783962249756 0.10077524185180664 0.16724930703639984
0.27131783962249756 0.10077524185180664 0.4792018532752991
0.27131783962249756 0.11627912521362305 -0.6206639409065247
0.27131783962249756 0.11627912521362305 -0.6026018261909485
0.27131783962249756 0.11627912521362305 -0.3647655248641968
0.27131783962249756 0.11627912521362305 -0.17132163047790527
0.27131783962249756 0.11627912521362305 0.1768186092376709
0.27131783962249756 0.11627912521362305 0.4531685709953308
0.27131783962249756 0.1317828893661499 -0.6359262466430664
0.27131783962249756 0.1317828893661499 -0.5555101633071899
0.27131783962249756 0.1317828893661499 -0.38697296380996704
0.27131783962249756 0.1317828893661499 -0.16270434856414795
0.27131783962249756 0.1317828893661499 0.1876451075077057
0.27131783962249756 0.1317828893661499 0.423202782869339
0.27131783962249756 0.1472867727279663 -0.6391891241073608
0.27131783962249756 0.1472867727279663 -0.5320307016372681
0.27131783962249756 0.1472867727279663 -0.3971312344074249
0.27131783962249756 0.1472867727279663 -0.14937439560890198
0.27131783962249756 0.1472867876291275 0.1952858865261078
0.27131783962249756 0.1472867727279663 0.40027761459350586
0.27131783962249756 0.16279065608978271 -0.6392596960067749
0.27131783962249756 0.1627906709909439 -0.5321055054664612
0.27131783962249756 0.16279065608978271 -0.3918381631374359
0.27131783962249756 0.16279065608978271 -0.13268685340881348
0.27131783962249756 0.16279065608978271 0.18146763741970062
0.27131783962249756 0.16279065608978271 0.3774113357067108
0.27131783962249756 0.17829453945159912 -0.6326138973236084
