-0.20930230617523193 0.038759708404541016 -0.24967651069164276
-0.20930230617523193 0.038759708404541016 0.03110441565513611
-0.20930230617523193 0.038759708404541016 0.17596113681793213
-0.20930230617523193 0.038759708404541016 0.5321335792541504
-0.20930230617523193 0.05426359176635742 -0.2016502171754837
-0.20930230617523193 0.05426359176635742 0.03136279061436653
-0.20930230617523193 0.05426359176635742 0.18339522182941437
-0.20930230617523193 0.05426359176635742 0.5310350656509399
-0.20930230617523193 0.06976747512817383 -0.1324971616268158
-0.20930230617523193 0.06976747512817383 0.03606552630662918
-0.20930230617523193 0.06976747512817383 0.18364952504634857
-0.20930230617523193 0.06976747512817383 0.5299444198608398
-0.20930230617523193 0.08527135848999023 -0.10449551790952682
-0.20930230617523193 0.08527135848999023 0.041580624878406525
-0.20930230617523193 0.08527135848999023 0.18247708678245544
-0.20930230617523193 0.08527135848999023 0.5295692086219788
-0.20930230617523193 0.10077524185180664 -0.09588399529457092
-0.20930230617523193 0.10077524185180664 0.04183550179004669
-0.20930230617523193 0.10077524185180664 0.1828058809041977
-0.20930230617523193 0.10077524185180664 0.5295578241348267
-0.20930230617523193 0.11627912521362305 -0.09242583066225052
-0.20930229127407074 0.11627912521362305 0.04303167760372162
-0.20930230617523193 0.11627912521362305 0.18098944425582886
-0.20930230617523193 0.11627912521362305 0.5290635824203491
-0.20930230617523193 0.1317828893661499 -0.09150811284780502
-0.20930230617523193 0.1317828893661499 0.04299040138721466
-0.20930230617523193 0.1317828893661499 0.18039005994796753
-0.20930230617523193 0.1317828893661499 0.5279422998428345
-0.20930230617523193 0.1472867727279663 -0.09047522395849228
-0.20930230617523193 0.1472867727279663 0.04371847212314606
-0.20930230617523193 0.1472867727279663 0.18294265866279602
-0.20930230617523193 0.1472867727279663 0.5270000100135803
-0.20930230617523193 0.16279065608978271 -0.08870427310466766
-0.20930230617523193 0.16279065608978271 0.04972001537680626
-0.20930230617523193 0.16279065608978271 0.18283295631408691
-0.20930230617523193 0.16279065608978271 0.5263584852218628
-0.20930230617523193 0.17829453945159912 -0.08559403568506241
-0.20930230617523193 0.17829453945159912 0.0600859560072422
-0.20930230617523193 0.17829455435276031 0.17857259511947632
-0.20930230617523193 0.17829453945159912 0.5254490971565247
-0.20930230617523193 0.19379840791225433 -0.0802735760807991
-0.20930230617523193 0.19379842281341553 0.07476819306612015
-0.20930230617523193 0.19379842281341553 0.16827665269374847
-0.20930230617523193 0.19379840791225433 0.524836003780365
-0.20930230617523193 0.20930230617523193 -0.07397498190402985
-0.20930230617523193 0.20930230617523193 0.09944205731153488
-0.20930230617523193 0.20930230617523193 0.15618234872817993
-0.20930230617523193 0.20930230617523193 0.5246321558952332
-0.20930230617523193 0.22480618953704834 -0.06632682681083679
-0.20930230617523193 0.22480618953704834 0.5245712995529175
-0.20930230617523193 0.24031007289886475 -0.0576079860329628
-0.20930230617523193 0.24031007289886475 0.526168704032898
-0.20930230617523193 0.25581395626068115 -0.05025835335254669
-0.20930230617523193 0.25581395626068115 0.5285415649414062
-0.20930230617523193 0.27131783962249756 -0.046467170119285583
-0.20930230617523193 0.27131783962249756 0.5302929282188416
-0.20930230617523193 0.28682172298431396 -0.044973425567150116
-0.20930230617523193 0.28682172298431396 0.5312921404838562
-0.20930230617523193 0.30232560634613037 -0.044826313853263855
-0.20930230617523193 0.30232560634613037 0.532151997089386
-0.20930230617523193 0.3178294897079468 -0.045338019728660583
-0.20930230617523193 0.3178294897079468 0.5328498482704163
-0.20930230617523193 0.3333333730697632 -0.04553253948688507
-0.20930230617523193 0.3333333730697632 0.5335910320281982
-0.20930230617523193 0.3488372564315796 -0.04563113674521446
-0.20930230617523193 0.3488372564315796 0.5348110795021057
-0.20930230617523193 0.364341139793396 -0.046298686414957047
-0.20930230617523193 0.364341139793396 0.535851240158081
-0.20930230617523193 0.37984490394592285 -0.047187622636556625
-0.20930230617523193 0.37984490394592285 0.5367072820663452
-0.20930230617523193 0.39534878730773926 -0.04894029721617699
-0.20930230617523193 0.39534881711006165 0.537024974822998
-0.20930230617523193 0.4108526408672333 -0.05335955694317818
-0.20930232107639313 0.41085267066955566 0.536517858505249
-0.20930230617523193 0.42635655403137207 -0.05981723964214325
-0.20930230617523193 0.42635655403137207 0.5350378751754761
-0.20930230617523193 0.4418604373931885 -0.07105229049921036
-0.20930230617523193 0.4418604373931885 0.5333796143531799
-0.20930230617523193 0.4573643207550049 -0.08338546752929688
-0.20930230617523193 0.4573643207550049 0.5321422219276428
-0.20930230617523193 0.4728681743144989 -0.1006280854344368
-0.20930230617523193 0.4728682041168213 0.5308982729911804
-0.20930230617523193 0.4883720874786377 -0.1232391744852066
-0.20930230617523193 0.4883720874786377 0.5296333432197571
-0.20930230617523193 0.5038759708404541 -0.148736372590065
-0.20930230617523193 0.5038759708404541 0.5279443264007568
-0.20930230617523193 0.5193798542022705 -0.17289891839027405
-0.20930230617523193 0.5193798542022705 0.5250470638275146
-0.20930230617523193 0.5348837375640869 -0.19499580562114716
-0.20930230617523193 0.5348837375640869 0.5212754011154175
-0.20930230617523193 0.5503876209259033 -0.21550342440605164
-0.20930230617523193 0.5503876209259033 0.5178015232086182
-0.20930230617523193 0.5658915042877197 -0.23902934789657593
-0.20930230617523193 0.5658915042877197 0.5154680013656616
-0.20930230617523193 0.5813953876495361 -0.7456537485122681
-0.20930230617523193 0.5813953876495361 -0.6145838499069214
-0.20930230617523193 0.5813953876495361 -0.2753974199295044
-0.20930230617523193 0.5813953876495361 0.5130897760391235
-0.20930230617523193 0.5968992710113525 -0.7447770833969116
-0.20930230617523193 0.5968992710113525 -0.48219871520996094
-0.20930230617523193 0.5968992710113525 -0.3436071276664734
-0.20930230617523193 0.5968992710113525 0.5095840692520142
-0.20930230617523193 0.612403154373169 -0.7438879013061523
-0.20930230617523193 0.612403154373169 0.5034356117248535
-0.20930230617523193 0.6279069185256958 -0.7433774471282959
-0.20930230617523193 0.6279069185256958 0.49990057945251465
-0.20930230617523193 0.6434108018875122 -0.743046224117279
-0.20930230617523193 0.6434108018875122 0.49584639072418213
-0.20930230617523193 0.6589146852493286 -0.7429295182228088
-0.20930230617523193 0.6589146852493286 0.4881262481212616
-0.20930230617523193 0.674418568611145 -0.7428333759307861
-0.20930230617523193 0.674418568611145 0.4839632213115692
-0.20930230617523193 0.6899224519729614 -0.7428218722343445
-0.20930230617523193 0.6899224519729614 0.02405986376106739
-0.20930230617523193 0.6899224519729614 0.1455717533826828
-0.20930230617523193 0.6899224519729614 0.4777616262435913
-0.20930230617523193 0.7054263353347778 -0.7427505850791931
-0.20930230617523193 0.7054263353347778 0.008050909265875816
-0.20930230617523193 0.7054263353347778 0.16995137929916382
-0.20930230617523193 0.7054263353347778 0.47026732563972473
-0.20930230617523193 0.7209302186965942 -0.7425256967544556
-0.20930230617523193 0.7209302186965942 0.00022249366156756878
-0.20930230617523193 0.7209302186965942 0.18223179876804352
-0.20930230617523193 0.7209302186965942 0.4648974537849426
-0.20930230617523193 0.7364341020584106 -0.7423723936080933
-0.20930230617523193 0.7364341020584106 0.0003718927036970854
-0.20930229127407074 0.7364341020584106 0.1802826225757599
-0.20930230617523193 0.7364341020584106 0.45561710000038147
-0.20930230617523193 0.751937985420227 -0.7423284649848938
-0.20930230617523193 0.751937985420227 0.010836327448487282
-0.20930230617523193 0.751937985420227 0.16664008796215057
-0.20930230617523193 0.751937985420227 0.4492456316947937
-0.20930230617523193 0.7674418687820435 -0.7428299784660339
-0.20930230617523193 0.7674418687820435 0.04339262843132019
-0.20930230617523193 0.7674418687820435 0.1355670541524887
-0.20930230617523193 0.7674418687820435 0.4374440908432007
-0.20930230617523193 0.7829457521438599 -0.7438802123069763
-0.20930230617523193 0.7829457521438599 0.4232143759727478
-0.20930230617523193 0.7984496355056763 -0.7388635873794556
-0.20930230617523193 0.7984496355056763 0.40669044852256775
-0.20930230617523193 0.8139535188674927 -0.4260074198246002
-0.20930230617523193 0.8139535188674927 0.38817864656448364
-0.20930230617523193 0.8294574022293091 -0.2934730350971222
-0.20930230617523193 0.8294574022293091 0.36276882886886597
-0.20930230617523193 0.8449612855911255 -0.19164875149726868
-0.20930230617523193 0.8449612855911255 0.33797580003738403
-0.20930229127407074 0.8604651093482971 -0.09764166176319122
-0.20930230617523193 0.8604652285575867 0.3043370842933655
-0.20930230617523193 0.8759689331054688 -0.01939856819808483
-0.20930230617523193 0.8759689927101135 0.25939008593559265
-0.20930230617523193 0.8914728164672852 0.08558209240436554
-0.20930230617523193 0.8914728164672852 0.16968917846679688
-0.19379840791225433 -0.5968992114067078 0.3515208959579468
-0.19379842281341553 -0.5968992114067078 0.4232942759990692
-0.19379842281341553 -0.5813953876495361 0.34525758028030396
-0.19379842281341553 -0.5813953876495361 0.5115576982498169
-0.19379842281341553 -0.5658915042877197 0.37100642919540405
-0.19379842281341553 -0.5658915042877197 0.5449893474578857
-0.19379842281341553 -0.5503876805305481 0.3807205557823181
-0.19379842281341553 -0.5503876209259033 0.5627421140670776
-0.19379842281341553 -0.5348837375640869 0.3910526633262634
-0.19379842281341553 -0.5348837375640869 0.5739738941192627
-0.19379842281341553 -0.5193798542022705 0.39346206188201904
-0.19379842281341553 -0.5193798542022705 0.5822980999946594
-0.19379842281341553 -0.5038759708404541 0.3915821313858032
-0.19379842281341553 -0.5038759708404541 0.5920071005821228
-0.19379842281341553 -0.4883720874786377 0.3860737085342407
-0.19379842281341553 -0.4883720874786377 0.614122211933136
-0.19379842281341553 -0.4728682041168213 0.3798031210899353
-0.19379842281341553 -0.4728681743144989 0.6281694173812866
-0.19379842281341553 -0.4573643207550049 0.38142967224121094
-0.19379843771457672 -0.4573643207550049 0.6296423077583313
-0.19379842281341553 -0.4418604373931885 0.38897085189819336
-0.19379842281341553 -0.4418604373931885 0.6179547309875488
-0.19379842281341553 -0.42635661363601685 0.4016205072402954
-0.19379842281341553 -0.42635661363601685 0.5462467074394226
-0.19379842281341553 -0.3488371968269348 0.11609892547130585
-0.19379842281341553 -0.3488371968269348 0.240503191947937
-0.19379842281341553 -0.3333333134651184 0.09495580196380615
-0.19379842281341553 -0.3333333134651184 0.2557890713214874
-0.19379842281341553 -0.317829430103302 0.08670838177204132
-0.19379842281341553 -0.317829430103302 0.2724551558494568
-0.19379842281341553 -0.30232560634613037 0.08310353755950928
-0.19379842281341553 -0.30232560634613037 0.3920244872570038
-0.19379842281341553 -0.28682172298431396 0.07532782852649689
-0.19379842281341553 -0.28682172298431396 0.4132702648639679
-0.19379842281341553 -0.27131783962249756 0.06278125196695328
-0.19379842281341553 -0.27131783962249756 0.43252891302108765
-0.19379842281341553 -0.25581395626068115 0.04916389286518097
-0.19379842281341553 -0.25581395626068115 0.4487175941467285
-0.19379842281341553 -0.24031005799770355 -0.7502564787864685
-0.19379842281341553 -0.24031007289886475 -0.6895575523376465
-0.19379842281341553 -0.24031007289886475 0.036701954901218414
-0.19379842281341553 -0.24031007289886475 0.4637623429298401
-0.19379842281341553 -0.22480617463588715 -0.7505192160606384
-0.19379843771457672 -0.22480618953704834 -0.6239171028137207
-0.19379843771457672 -0.22480620443820953 0.02519882470369339
-0.19379842281341553 -0.22480618953704834 0.4763369560241699
-0.19379842281341553 -0.20930230617523193 -0.7505255341529846
-0.19379842281341553 -0.20930230617523193 -0.5447336435317993
-0.19379842281341553 -0.20930230617523193 0.0141744464635849
-0.19379842281341553 -0.20930230617523193 0.48489031195640564
-0.19379840791225433 -0.19379840791225433 -0.7505107522010803
-0.19379842281341553 -0.19379842281341553 -0.48960134387016296
-0.19379842281341553 -0.19379842281341553 0.003610027953982353
-0.19379842281341553 -0.19379842281341553 0.49240201711654663
-0.19379840791225433 -0.1782945990562439 -0.7501736879348755
-0.19379843771457672 -0.1782945990562439 -0.31529921293258667
-0.19379842281341553 -0.1782945990562439 -0.007030105218291283
-0.19379842281341553 -0.1782945990562439 0.49807336926460266
-0.19379842281341553 -0.1627907156944275 -0.7495874762535095
-0.19379842281341553 -0.1627907156944275 -0.19462810456752777
-0.19379842281341553 -0.1627907156944275 -0.030799683183431625
-0.19379842281341553 -0.1627907156944275 0.5048292279243469
-0.19379842281341553 -0.14728683233261108 -0.7490150928497314
-0.19379842281341553 -0.14728683233261108 0.5102373957633972
-0.19379842281341553 -0.13178294897079468 -0.7487309575080872
-0.19379842281341553 -0.13178294897079468 0.5154315829277039
-0.19379842281341553 -0.11627906560897827 -0.7487483024597168
-0.19379842281341553 -0.11627906560897827 0.5219461917877197
-0.19379842281341553 -0.10077518224716187 -0.7488393783569336
-0.19379842281341553 -0.10077518224716187 0.5269173979759216
-0.19379842281341553 -0.08527129888534546 -0.7490079402923584
-0.19379842281341553 -0.08527129888534546 0.5320343375205994
-0.19379843771457672 -0.06976741552352905 -0.7492130398750305
-0.19379843771457672 -0.06976741552352905 0.5374444723129272
-0.19379842281341553 -0.05426359176635742 -0.749542772769928
-0.19379842281341553 -0.05426359176635742 0.5417677164077759
-0.19379842281341553 -0.038759708404541016 -0.7498754262924194
-0.19379842281341553 -0.038759708404541016 0.03480460122227669
-0.19379842281341553 -0.038759708404541016 0.10401918739080429
-0.19379842281341553 -0.038759708404541016 0.5450050830841064
-0.19379842281341553 -0.02325582504272461 -0.7499948143959045
-0.19379842281341553 -0.02325582690536976 0.024043980985879898
-0.19379842281341553 -0.02325582504272461 0.1362789422273636
-0.19379842281341553 -0.02325582504272461 0.3318483829498291
-0.19379843771457672 -0.02325582504272461 0.337022602558136
-0.19379842281341553 -0.02325582504272461 0.5481009483337402
-0.19379843771457672 -0.007751941680908203 -0.7499100565910339
-0.19379842281341553 -0.007751941680908203 0.01790630631148815
-0.19379842281341553 -0.007751941680908203 0.1558096706867218
-0.19379842281341553 -0.007751941680908203 0.30786556005477905
-0.19379842281341553 -0.007751941680908203 0.37411582469940186
-0.19379842281341553 -0.007751941680908203 0.5507104396820068
-0.19379842281341553 0.007751941680908203 -0.7490248084068298
-0.19379842281341553 0.007751941680908203 0.01704680547118187
-0.19379842281341553 0.007751941680908203 0.15982995927333832
-0.19379842281341553 0.007751941680908203 0.29276734590530396
-0.19379842281341553 0.007751941680908203 0.3742114007472992
-0.19379843771457672 0.007751941680908203 0.5509747862815857
-0.19379842281341553 0.02325582318007946 -0.34500381350517273
-0.19379842281341553 0.02325582504272461 0.02014833688735962
-0.19379842281341553 0.02325582504272461 0.1705973744392395
-0.19379842281341553 0.02325582504272461 0.2832692563533783
-0.19379842281341553 0.02325582504272461 0.36299219727516174
-0.19379842281341553 0.02325582504272461 0.5508019924163818
-0.19379842281341553 0.038759708404541016 -0.26625722646713257
-0.19379842281341553 0.038759708404541016 0.019947675988078117
-0.19379842281341553 0.038759708404541016 0.184159517288208
-0.19379842281341553 0.038759708404541016 0.28235921263694763
-0.19379842281341553 0.038759708404541016 0.34548497200012207
-0.19379842281341553 0.038759708404541016 0.5491705536842346
-0.19379842281341553 0.05426359176635742 -0.22120752930641174
-0.19379842281341553 0.05426359176635742 0.021765783429145813
-0.19379842281341553 0.05426359176635742 0.19086050987243652
-0.19379842281341553 0.05426359176635742 0.31082475185394287
-0.19379842281341553 0.05426359176635742 0.32519304752349854
-0.19379842281341553 0.05426359176635742 0.5481809973716736
-0.19379842281341553 0.06976747512817383 -0.17351363599300385
-0.19379842281341553 0.06976747512817383 0.028801236301660538
-0.19379842281341553 0.06976747512817383 0.19027435779571533
-0.19379842281341553 0.06976747512817383 0.5470927357673645
-0.19379842281341553 0.08527135848999023 -0.12481671571731567
-0.19379842281341553 0.08527135848999023 0.03566630184650421
-0.19379842281341553 0.08527135848999023 0.18859922885894775
-0.19379842281341553 0.08527135848999023 0.5469228029251099
-0.19379842281341553 0.10077524185180664 -0.11069071292877197
-0.19379842281341553 0.10077524185180664 0.03760053589940071
-0.19379842281341553 0.10077524185180664 0.18872076272964478
-0.19379842281341553 0.10077524185180664 0.5470792651176453
-0.19379842281341553 0.11627912521362305 -0.10546362400054932
-0.19379842281341553 0.11627912521362305 0.03998224437236786
-0.19379842281341553 0.11627912521362305 0.18581749498844147
-0.19379842281341553 0.11627912521362305 0.546549916267395
-0.19379842281341553 0.1317828893661499 -0.10347168892621994
-0.19379842281341553 0.1317828893661499 0.04133506491780281
-0.19379842281341553 0.1317828893661499 0.18408361077308655
-0.19379842281341553 0.1317828893661499 0.5456540584564209
-0.19379842281341553 0.1472867727279663 -0.10187708586454391
-0.19379842281341553 0.1472867727279663 0.042731624096632004
-0.19379842281341553 0.1472867727279663 0.1862892210483551
-0.19379842281341553 0.1472867727279663 0.5450631380081177
-0.19379842281341553 0.16279065608978271 -0.0997774600982666
-0.19379842281341553 0.16279065608978271 0.048642873764038086
-0.19379842281341553 0.16279065608978271 0.18529444932937622
-0.19379842281341553 0.16279065608978271 0.5445441007614136
-0.19379842281341553 0.17829453945159912 -0.09598597139120102
-0.19379842281341553 0.17829453945159912 0.05815916880965233
-0.19379842281341553 0.17829453945159912 0.18041165173053741
-0.19379842281341553 0.17829453945159912 0.5437579154968262
-0.19379842281341553 0.19379842281341553 -0.09074799716472626
-0.19379842281341553 0.19379842281341553 0.0688147321343422
-0.19379842281341553 0.19379842281341553 0.17187681794166565
-0.19379842281341553 0.19379842281341553 0.5431832075119019
-0.19379842281341553 0.20930230617523193 -0.08374045789241791
-0.19379842281341553 0.20930229127407074 0.09117142111063004
-0.19379840791225433 0.20930230617523193 0.16285374760627747
-0.19379842281341553 0.20930230617523193 0.5431643128395081
-0.19379842281341553 0.22480618953704834 -0.07541486620903015
-0.19379842281341553 0.22480618953704834 0.11329368501901627
-0.19379842281341553 0.22480618953704834 0.13286852836608887
-0.19379842281341553 0.22480618953704834 0.5435792207717896
-0.19379842281341553 0.24031007289886475 -0.066289022564888
-0.19379842281341553 0.24031007289886475 0.5447307229042053
-0.19379842281341553 0.25581395626068115 -0.058585137128829956
-0.19379842281341553 0.25581395626068115 0.5460745692253113
-0.19379842281341553 0.27131783962249756 -0.055352553725242615
-0.19379842281341553 0.27131783962249756 0.5472747087478638
-0.19379842281341553 0.28682172298431396 -0.053555168211460114
-0.19379842281341553 0.28682172298431396 0.5481240749359131
-0.19379842281341553 0.30232560634613037 -0.05287722498178482
-0.19379842281341553 0.30232560634613037 0.5487213730812073
-0.19379843771457672 0.31782951951026917 -0.0531458854675293
-0.19379842281341553 0.3178294897079468 0.5490061044692993
-0.19379842281341553 0.3333333730697632 -0.053247492760419846
-0.19379842281341553 0.3333333730697632 0.5491741895675659
-0.19379842281341553 0.348837286233902 -0.05357959866523743
-0.19379842281341553 0.3488372564315796 0.5494879484176636
-0.19379842281341553 0.364341139793396 -0.0547172948718071
-0.19379842281341553 0.364341139793396 0.5498138666152954
-0.19379842281341553 0.37984490394592285 -0.05609896779060364
-0.19379842281341553 0.37984490394592285 0.5500528812408447
-0.19379842281341553 0.39534878730773926 -0.05829325690865517
-0.19379842281341553 0.39534878730773926 0.5497856736183167
-0.19379842281341553 0.41085267066955566 -0.06257519125938416
-0.19379842281341553 0.41085267066955566 0.5489248633384705
-0.19379842281341553 0.42635655403137207 -0.07163861393928528
-0.19379842281341553 0.42635655403137207 0.5477381944656372
-0.19379842281341553 0.4418604373931885 -0.08156853914260864
-0.19379842281341553 0.4418604373931885 0.5467645525932312
-0.19379842281341553 0.4573643207550049 -0.09329080581665039
-0.19379842281341553 0.4573643207550049 0.5459932088851929
-0.19379842281341553 0.4728682041168213 -0.1093173548579216
-0.19379842281341553 0.4728682041168213 0.544986367225647
-0.19379842281341553 0.4883720874786377 -0.13091209530830383
-0.19379842281341553 0.4883720874786377 0.5436347723007202
-0.19379842281341553 0.5038759708404541 -0.15325535833835602
-0.19379842281341553 0.5038759708404541 0.5413661003112793
-0.19379842281341553 0.5193798542022705 -0.17647774517536163
-0.19379843771457672 0.5193798542022705 0.5372717380523682
-0.19379842281341553 0.5348837375640869 -0.19662591814994812
-0.19379842281341553 0.5348837375640869 0.5338748693466187
-0.19379842281341553 0.5503876209259033 -0.21590368449687958
-0.19379842281341553 0.5503876209259033 0.5316938161849976
-0.19379842281341553 0.5658915042877197 -0.23665852844715118
-0.19379842281341553 0.5658915042877197 0.5301397442817688
-0.19379842281341553 0.5813953876495361 -0.7454004287719727
-0.19379842281341553 0.5813953876495361 -0.6426011323928833
-0.19379842281341553 0.5813953876495361 -0.2675912380218506
-0.19379842281341553 0.5813953876495361 0.5277624726295471
-0.19379842281341553 0.5968992710113525 -0.7446902394294739
-0.19379842281341553 0.5968992710113525 -0.49317747354507446
-0.19379842281341553 0.5968992710113525 -0.3224356174468994
-0.19379842281341553 0.5968992710113525 0.5237839221954346
-0.19379842281341553 0.612403154373169 -0.7437659502029419
-0.19379842281341553 0.612403154373169 0.5186879634857178
-0.19379842281341553 0.6279069185256958 -0.7432392239570618
-0.19379842281341553 0.6279069185256958 0.5157718062400818
-0.19379842281341553 0.6434108018875122 -0.7428979873657227
-0.19379842281341553 0.6434108018875122 0.5119634866714478
-0.19379842281341553 0.6589146852493286 -0.7427843809127808
-0.19379842281341553 0.6589146852493286 0.5038716197013855
-0.19379842281341553 0.674418568611145 -0.7427061796188354
-0.19379842281341553 0.674418568611145 0.5002890825271606
-0.19379842281341553 0.6899224519729614 -0.7426817417144775
-0.19379842281341553 0.6899224519729614 0.01803753897547722
-0.19379842281341553 0.6899224519729614 0.13151797652244568
-0.19379842281341553 0.6899224519729614 0.4945867657661438
-0.19379842281341553 0.7054263353347778 -0.7425587773323059
-0.19379842281341553 0.7054263353347778 -0.006628517527133226
-0.19379842281341553 0.7054263353347778 0.15861034393310547
-0.19379842281341553 0.7054263353347778 0.4868285059928894
-0.19379842281341553 0.7209302186965942 -0.7422823309898376
-0.19379842281341553 0.7209302186965942 -0.016033843159675598
-0.19379842281341553 0.7209302186965942 0.17376945912837982
-0.19379842281341553 0.7209302186965942 0.482486754655838
-0.19379842281341553 0.7364341020584106 -0.7421007752418518
-0.19379842281341553 0.7364341020584106 -0.01634478196501732
-0.19379842281341553 0.7364341020584106 0.17424222826957703
-0.19379842281341553 0.7364341020584106 0.4726994037628174
-0.19379842281341553 0.751937985420227 -0.7420773506164551
-0.19379842281341553 0.751937985420227 -0.006565570831298828
-0.19379842281341553 0.751937985420227 0.16179195046424866
-0.19379842281341553 0.751937985420227 0.4669894874095917
-0.19379842281341553 0.7674418687820435 -0.7426184415817261
-0.19379842281341553 0.7674418091773987 0.027253296226263046
-0.19379842281341553 0.7674418687820435 0.1289600133895874
-0.19379842281341553 0.7674418687820435 0.45501789450645447
-0.19379842281341553 0.7829457521438599 -0.7433068752288818
-0.19379842281341553 0.7829457521438599 0.44261518120765686
-0.19379842281341553 0.7984496355056763 -0.7378164529800415
-0.19379842281341553 0.7984496355056763 0.4263266324996948
-0.19379842281341553 0.8139535188674927 -0.40604037046432495
-0.19379842281341553 0.8139535188674927 0.40745875239372253
-0.19379843771457672 0.8294574022293091 -0.28206849098205566
-0.19379842281341553 0.8294574022293091 0.3865988254547119
-0.19379842281341553 0.8449612855911255 -0.19667840003967285
-0.19379842281341553 0.8449612855911255 0.35950803756713867
-0.19379842281341553 0.8604651689529419 -0.12527120113372803
-0.19379842281341553 0.8604651689529419 0.3288004994392395
-0.19379842281341553 0.8759689331054688 -0.04105160012841225
-0.19379842281341553 0.8759689331054688 0.286378413438797
-0.19379842281341553 0.8914728164672852 0.0359712652862072
-0.19379842281341553 0.8914728164672852 0.22232167422771454
-0.1782945990562439 -0.5968992114067078 0.3462724983692169
-0.1782945990562439 -0.5968992114067078 0.46288296580314636
-0.1782945990562439 -0.5813953876495361 0.3519899249076843
-0.1782945990562439 -0.5813953876495361 0.5418139100074768
-0.1782945990562439 -0.5658915042877197 0.3765530586242676
-0.1782945990562439 -0.5658915042877197 0.5638241767883301
-0.1782945990562439 -0.5503876209259033 0.3812565207481384
-0.1782945990562439 -0.5503876209259033 0.5781192779541016
-0.1782945990562439 -0.5348837375640869 0.3882110118865967
-0.1782945990562439 -0.5348837375640869 0.5856204628944397
-0.1782945990562439 -0.5193798542022705 0.38981688022613525
-0.1782945990562439 -0.5193798542022705 0.5841177105903625
-0.1782945990562439 -0.5038759708404541 0.3870812654495239
-0.1782945990562439 -0.5038759708404541 0.5837568640708923
-0.1782945990562439 -0.4883720874786377 0.38021397590637207
-0.1782945990562439 -0.4883720874786377 0.5952543616294861
-0.1782945990562439 -0.4728682041168213 0.37700292468070984
-0.1782945990562439 -0.4728682041168213 0.608410120010376
-0.1782945990562439 -0.4573643207550049 0.37781405448913574
-0.1782945990562439 -0.4573643207550049 0.6123753786087036
-0.1782945990562439 -0.4418604373931885 0.3829350471496582
-0.1782945990562439 -0.44186046719551086 0.5969504117965698
-0.1782945990562439 -0.42635661363601685 0.3919588327407837
-0.1782945990562439 -0.42635661363601685 0.5343952178955078
-0.1782945990562439 -0.41085273027420044 0.40495777130126953
-0.1782945990562439 -0.41085273027420044 0.48009049892425537
-0.1782945990562439 -0.3798449635505676 0.19328972697257996
-0.1782945990562439 -0.37984499335289 0.24423357844352722
-0.1782945990562439 -0.3643410801887512 0.13783030211925507
-0.1782945990562439 -0.3643410801887512 0.25784385204315186
-0.1782945990562439 -0.3488371968269348 0.09648594260215759
-0.1782945990562439 -0.3488371968269348 0.2648605406284332
-0.1782945990562439 -0.3488371968269348 0.38940727710723877
-0.1782946139574051 -0.3488372266292572 0.3976408839225769
-0.1782945990562439 -0.3333333134651184 0.08142630755901337
-0.1782945990562439 -0.3333333134651184 0.2783290147781372
-0.1782945990562439 -0.3333333134651184 0.350018709897995
-0.1782945990562439 -0.3333333134651184 0.4339281916618347
-0.1782945990562439 -0.317829430103302 0.07411917299032211
-0.1782945990562439 -0.317829430103302 0.4556009769439697
-0.1782945990562439 -0.30232560634613037 0.06701027601957321
-0.1782945990562439 -0.30232560634613037 0.4685383439064026
-0.1782945990562439 -0.28682172298431396 0.05704216659069061
-0.1782945990562439 -0.28682172298431396 0.48095622658729553
-0.1782945990562439 -0.27131783962249756 0.04433276504278183
-0.1782945990562439 -0.27131783962249756 0.49106040596961975
-0.1782945990562439 -0.25581395626068115 0.029918789863586426
-0.1782945990562439 -0.25581395626068115 0.4986021816730499
-0.1782945990562439 -0.24031008780002594 -0.7501985430717468
-0.1782945990562439 -0.24031007289886475 -0.6861041784286499
-0.1782945990562439 -0.24031007289886475 0.015851767733693123
-0.1782945990562439 -0.24031007289886475 0.5063647031784058
-0.1782945841550827 -0.22480617463588715 -0.7505595684051514
-0.1782945990562439 -0.22480618953704834 -0.6180922985076904
-0.1782945990562439 -0.22480618953704834 0.0035269756335765123
-0.1782945990562439 -0.22480618953704834 0.5110996961593628
-0.1782945990562439 -0.20930230617523193 -0.7506128549575806
-0.1782945990562439 -0.20930230617523193 -0.5396818518638611
-0.1782945841550827 -0.20930229127407074 -0.006052729673683643
-0.1782945990562439 -0.20930230617523193 0.5157691836357117
-0.1782945990562439 -0.19379842281341553 -0.7506265044212341
-0.1782945990562439 -0.19379842281341553 -0.4823271930217743
-0.1782945990562439 -0.19379842281341553 -0.016033733263611794
-0.1782945990562439 -0.19379842281341553 0.5203183889389038
-0.1782945990562439 -0.1782945990562439 -0.7502954602241516
-0.1782945990562439 -0.1782945990562439 -0.3101388216018677
-0.1782945990562439 -0.1782945990562439 -0.02962378039956093
-0.1782945990562439 -0.1782945990562439 0.5236048698425293
-0.1782945990562439 -0.1627907156944275 -0.7496762275695801
-0.1782945990562439 -0.1627907156944275 -0.1795501857995987
-0.1782945990562439 -0.1627907156944275 -0.0648239403963089
-0.1782945990562439 -0.1627907156944275 0.5269385576248169
-0.1782945990562439 -0.14728683233261108 -0.7490834593772888
-0.1782945990562439 -0.14728683233261108 0.5310766100883484
-0.1782945990562439 -0.13178294897079468 -0.7487950921058655
-0.1782945990562439 -0.13178294897079468 0.5361172556877136
-0.1782945990562439 -0.11627906560897827 -0.7488387823104858
-0.1782945990562439 -0.11627906560897827 0.5407988429069519
-0.1782945990562439 -0.10077518224716187 -0.7489875555038452
-0.1782945990562439 -0.10077518224716187 0.5449056625366211
-0.1782945990562439 -0.08527129888534546 -0.7492155432701111
-0.1782945990562439 -0.08527129888534546 0.549850583076477
-0.1782945990562439 -0.06976741552352905 -0.7494567036628723
-0.1782945990562439 -0.06976741552352905 0.5541781783103943
-0.1782945990562439 -0.05426359176635742 -0.7497907876968384
-0.1782945990562439 -0.05426359176635742 0.019667157903313637
-0.1782945990562439 -0.05426359176635742 0.09086316078901291
-0.1782945990562439 -0.05426359176635742 0.5582984685897827
-0.1782945990562439 -0.038759708404541016 -0.7500638365745544
-0.1782945990562439 -0.038759708404541016 0.013097145594656467
-0.1782945990562439 -0.038759708404541016 0.12846899032592773
-0.1782945990562439 -0.038759708404541016 0.3305654525756836
-0.1782945990562439 -0.038759708404541016 0.3377288579940796
-0.1782945990562439 -0.038759708404541016 0.5612392425537109
-0.1782945990562439 -0.02325582504272461 -0.7500694990158081
-0.1782945990562439 -0.02325582504272461 0.01052045077085495
-0.1782945990562439 -0.02325582504272461 0.1562013328075409
-0.1782945990562439 -0.02325582504272461 0.30838996171951294
-0.1782945990562439 -0.02325582504272461 0.3568883240222931
-0.1782945990562439 -0.02325582504272461 0.5642550587654114
-0.1782945990562439 -0.007751941680908203 -0.7498823404312134
-0.1782945990562439 -0.007751941680908203 0.006026916205883026
-0.1782945990562439 -0.007751941680908203 0.17212828993797302
-0.1782945990562439 -0.007751941680908203 0.2849784195423126
-0.1782945990562439 -0.007751941680908203 0.3744491934776306
-0.1782945841550827 -0.007751941680908203 0.5663599967956543
-0.1782945990562439 0.007751941680908203 -0.7489790916442871
-0.1782945990562439 0.007751941680908203 0.00457377452403307
-0.1782945990562439 0.007751941680908203 0.17509077489376068
-0.1782945990562439 0.00775194214656949 0.27217331528663635
-0.1782945990562439 0.007751941680908203 0.37698742747306824
-0.1782945990562439 0.007751941680908203 0.566283643245697
-0.1782945990562439 0.02325582504272461 -0.3614133894443512
-0.1782945990562439 0.02325582504272461 0.006121210753917694
-0.1782945990562439 0.02325582504272461 0.1844639778137207
-0.1782945990562439 0.02325582504272461 0.2580937147140503
-0.1782945990562439 0.02325582504272461 0.37845322489738464
-0.1782945990562439 0.02325582504272461 0.5659463405609131
-0.1782945990562439 0.038759708404541016 -0.2761681079864502
-0.1782945990562439 0.038759708404541016 0.0064230868592858315
-0.1782945990562439 0.038759708404541016 0.21523115038871765
-0.1782945990562439 0.038759708404541016 0.2444843351840973
-0.1782945990562439 0.038759708404541016 0.3668725788593292
-0.1782945990562439 0.038759708404541016 0.5646538734436035
-0.1782945990562439 0.05426359176635742 -0.23046070337295532
-0.1782945990562439 0.05426359176635742 0.008348723873496056
-0.1782945990562439 0.05426359176635742 0.3570457100868225
-0.1782945990562439 0.05426359176635742 0.5639905333518982
-0.1782945990562439 0.06976747512817383 -0.1923244744539261
-0.1782945990562439 0.06976747512817383 0.01584601402282715
-0.1782945990562439 0.06976747512817383 0.2243269979953766
-0.1782945990562439 0.06976747512817383 0.24511948227882385
-0.1782945990562439 0.06976747512817383 0.3337610065937042
-0.1782945990562439 0.06976747512817383 0.5631500482559204
-0.1782945990562439 0.08527135848999023 -0.14640168845653534
-0.1782945990562439 0.08527135848999023 0.024369750171899796
-0.1782945990562439 0.08527135848999023 0.2151564359664917
-0.1782945990562439 0.08527135848999023 0.2627105116844177
-0.1782945990562439 0.08527135848999023 0.2947968542575836
-0.1782945990562439 0.08527135848999023 0.5632239580154419
-0.1782945990562439 0.10077523440122604 -0.12638087570667267
-0.1782945990562439 0.10077524185180664 0.028328660875558853
-0.1782945990562439 0.10077524185180664 0.21236509084701538
-0.1782945990562439 0.10077524185180664 0.5635279417037964
-0.1782945990562439 0.11627912521362305 -0.11889397352933884
-0.1782945990562439 0.11627912521362305 0.03165197744965553
-0.1782945990562439 0.11627912521362305 0.20036852359771729
-0.1782945990562439 0.11627912521362305 0.5629057884216309
-0.1782945990562439 0.1317828893661499 -0.11609111726284027
-0.1782945990562439 0.1317828893661499 0.033341776579618454
-0.1782945990562439 0.1317828893661499 0.19310934841632843
-0.1782945990562439 0.1317828893661499 0.5617905259132385
-0.1782945990562439 0.1472867727279663 -0.11368817090988159
-0.1782945990562439 0.1472867727279663 0.0348321795463562
-0.1782945990562439 0.1472867727279663 0.19801409542560577
-0.1782945990562439 0.1472867727279663 0.5610792636871338
-0.1782945990562439 0.16279065608978271 -0.11134473979473114
-0.1782945990562439 0.16279065608978271 0.03875475749373436
-0.1782945990562439 0.16279065608978271 0.19651469588279724
-0.1782945990562439 0.16279065608978271 0.5604402422904968
-0.1782945990562439 0.17829453945159912 -0.10839134454727173
-0.1782945990562439 0.17829453945159912 0.048395127058029175
-0.1782945990562439 0.17829453945159912 0.19026252627372742
-0.1782945990562439 0.17829453945159912 0.559522271156311
-0.1782945990562439 0.19379842281341553 -0.1039237529039383
-0.1782945990562439 0.19379842281341553 0.059215471148490906
-0.1782945990562439 0.19379842281341553 0.18417149782180786
-0.1782945990562439 0.19379842281341553 0.5587970614433289
-0.1782945990562439 0.20930230617523193 -0.09776881337165833
-0.1782945990562439 0.20930230617523193 0.06911002099514008
-0.1782946139574051 0.20930230617523193 0.17910367250442505
-0.1782945990562439 0.20930230617523193 0.5586872100830078
-0.1782945990562439 0.22480618953704834 -0.08997257798910141
-0.1782945990562439 0.22480618953704834 0.08857899904251099
-0.1782945990562439 0.22480618953704834 0.16795405745506287
-0.1782945990562439 0.22480618953704834 0.5592660307884216
-0.1782945990562439 0.24031007289886475 -0.08032600581645966
-0.1782945990562439 0.24031007289886475 0.11280788481235504
-0.1782945990562439 0.24031007289886475 0.14201904833316803
-0.1782945990562439 0.24031007289886475 0.5603238344192505
-0.1782945990562439 0.25581395626068115 -0.07278820872306824
-0.1782945990562439 0.25581395626068115 0.5614877939224243
-0.1782945990562439 0.27131783962249756 -0.06831694394350052
-0.1782945990562439 0.27131783962249756 0.5624431371688843
-0.1782945990562439 0.28682172298431396 -0.0654565617442131
-0.1782945990562439 0.28682172298431396 0.5629308223724365
-0.1782945990562439 0.30232560634613037 -0.0636361837387085
-0.1782945990562439 0.30232560634613037 0.5631378889083862
-0.1782945990562439 0.3178294897079468 -0.06328774988651276
-0.1782945990562439 0.3178294897079468 0.5630578994750977
-0.1782945990562439 0.3333333730697632 -0.06324674189090729
-0.1782945990562439 0.3333333730697632 0.5628708004951477
-0.1782945990562439 0.3488372564315796 -0.06401090323925018
-0.1782945990562439 0.3488372564315796 0.5627309083938599
-0.1782945990562439 0.3643411695957184 -0.06599332392215729
-0.1782945990562439 0.364341139793396 0.5626322031021118
-0.1782945990562439 0.37984487414360046 -0.0685722753405571
-0.1782945990562439 0.37984490394592285 0.5625800490379333
-0.1782945990562439 0.39534878730773926 -0.07164059579372406
-0.1782945990562439 0.39534878730773926 0.5622793436050415
-0.1782945990562439 0.41085267066955566 -0.07548050582408905
-0.1782945990562439 0.41085267066955566 0.5616770386695862
-0.1782945990562439 0.42635655403137207 -0.08375214785337448
-0.1782945990562439 0.42635655403137207 0.5605578422546387
-0.1782945990562439 0.4418604373931885 -0.09190426021814346
-0.1782945990562439 0.4418604373931885 0.5592610836029053
-0.1782945990562439 0.4573643207550049 -0.10303379595279694
-0.1782945990562439 0.4573643207550049 0.5578624606132507
-0.1782945990562439 0.4728682041168213 -0.11696578562259674
-0.1782945990562439 0.4728682041168213 0.5558205842971802
-0.1782945990562439 0.4883720874786377 -0.13445794582366943
-0.1782945990562439 0.4883720874786377 0.553433895111084
-0.1782945990562439 0.5038759708404541 -0.15536582469940186
-0.1782945990562439 0.5038759708404541 0.5506900548934937
-0.1782945990562439 0.5193798542022705 -0.17729070782661438
-0.1782945990562439 0.5193798542022705 0.5480448603630066
-0.1782945990562439 0.5348837375640869 -0.19641096889972687
-0.1782945990562439 0.5348837375640869 0.5465860366821289
-0.1782945990562439 0.5503876209259033 -0.2149011194705963
-0.1782945990562439 0.5503876209259033 0.5450762510299683
-0.1782945990562439 0.5658915042877197 -0.23424506187438965
-0.1782945990562439 0.5658915042877197 0.5429744124412537
-0.1782945990562439 0.5813953876495361 -0.7452448606491089
-0.1782945990562439 0.5813953876495361 -0.6607077121734619
-0.1782945990562439 0.5813953876495361 -0.2627183198928833
-0.1782945990562439 0.5813953876495361 0.539162814617157
-0.1782945990562439 0.5968992710113525 -0.7448177337646484
-0.1782945990562439 0.5968992710113525 -0.5014526844024658
-0.1782945990562439 0.5968992710113525 -0.3097505569458008
-0.1782945990562439 0.5968992710113525 0.5351285338401794
-0.1782945990562439 0.612403154373169 -0.7437947988510132
-0.1782945990562439 0.612403154373169 0.5325727462768555
-0.1782945990562439 0.6279069185256958 -0.7431961297988892
-0.1782945990562439 0.6279069185256958 0.530534565448761
-0.1782945990562439 0.6434108018875122 -0.7428185939788818
-0.1782945990562439 0.6434108018875122 0.5256580710411072
-0.1782945990562439 0.6589146852493286 -0.7426966428756714
-0.1782945990562439 0.6589146852493286 0.5185914039611816
-0.1782945990562439 0.674418568611145 -0.7426230907440186
-0.1782945990562439 0.674418568611145 0.02873784676194191
-0.1782945990562439 0.674418568611145 0.11654385924339294
-0.1782945990562439 0.674418568611145 0.5154584646224976
-0.1782945990562439 0.6899224519729614 -0.7425892353057861
-0.1782945990562439 0.6899224519729614 -0.01007900945842266
-0.1782945990562439 0.6899224519729614 0.15081754326820374
-0.1782945990562439 0.6899224519729614 0.5082458257675171
-0.1782945990562439 0.7054263353347778 -0.7424572706222534
-0.1782945990562439 0.7054263353347778 -0.028636164963245392
-0.1782945990562439 0.7054263353347778 0.17623966932296753
-0.1782945990562439 0.7054263353347778 0.5019382834434509
-0.1782945990562439 0.7209302186965942 -0.7421808242797852
-0.1782945990562439 0.7209302186965942 -0.03731907904148102
-0.1782945990562439 0.7209302186965942 0.19344525039196014
-0.1782945990562439 0.7209302186965942 0.49779561161994934
-0.1782945990562439 0.7364341020584106 -0.7420264482498169
-0.1782945990562439 0.7364341020584106 -0.03797467425465584
-0.1782945990562439 0.7364341020584106 0.19863486289978027
-0.1782945990562439 0.7364341020584106 0.4880332052707672
-0.1782945990562439 0.751937985420227 -0.7420680522918701
-0.1782945990562439 0.751937985420227 -0.027630891650915146
-0.1782945990562439 0.751937985420227 0.18586677312850952
-0.1782945990562439 0.751937985420227 0.4830419421195984
-0.1782945990562439 0.7674418687820435 -0.7426531314849854
-0.1782945990562439 0.7674418687820435 -0.0019928831607103348
-0.1782945990562439 0.7674418687820435 0.16141380369663239
-0.1782945990562439 0.7674418687820435 0.4712155759334564
-0.1782945990562439 0.7829457521438599 -0.7428568601608276
-0.1782945990562439 0.7829457521438599 0.0538458488881588
-0.1782946139574051 0.7829457521438599 0.11692351847887039
-0.1782945990562439 0.7829457521438599 0.45958268642425537
-0.1782945990562439 0.7984496355056763 -0.7367656826972961
-0.1782945990562439 0.7984496355056763 0.44640520215034485
-0.1782945990562439 0.8139535188674927 -0.38742825388908386
-0.1782945841550827 0.8139534592628479 0.42726585268974304
-0.1782945990562439 0.8294574022293091 -0.27456241846084595
-0.1782945990562439 0.8294574022293091 0.40701383352279663
-0.1782945990562439 0.8449612855911255 -0.20125538110733032
-0.1782945990562439 0.8449612855911255 0.38038015365600586
-0.1782945990562439 0.8604651689529419 -0.14736495912075043
-0.1782945990562439 0.8604651093482971 0.3513602614402771
-0.1782945990562439 0.8759689331054688 -0.06417881697416306
-0.1782945990562439 0.8759689331054688 0.31438684463500977
-0.1782945990562439 0.8914728164672852 0.00461750291287899
-0.1782945841550827 0.8914728164672852 0.2604052424430847
-0.1627907156944275 -0.5968992114067078 0.3239058256149292
-0.16279073059558868 -0.5968992114067078 0.5195847153663635
-0.1627907156944275 -0.5813953876495361 0.351406991481781
-0.1627907156944275 -0.5813953876495361 0.5571743249893188
-0.1627907156944275 -0.5658915042877197 0.3769889175891876
-0.1627907156944275 -0.5658915042877197 0.5747297406196594
-0.1627907156944275 -0.5503876209259033 0.37964460253715515
-0.1627907156944275 -0.5503876209259033 0.5864775776863098
-0.1627907156944275 -0.5348837375640869 0.3880400061607361
-0.1627907156944275 -0.5348837375640869 0.5907135605812073
-0.1627907156944275 -0.5193798542022705 0.39048340916633606
-0.1627907007932663 -0.5193798542022705 0.5846668481826782
-0.1627907156944275 -0.5038759708404541 0.38820353150367737
-0.1627907156944275 -0.5038759708404541 0.5769482254981995
-0.1627907156944275 -0.4883721172809601 0.38224416971206665
-0.1627907156944275 -0.4883721172809601 0.5822980403900146
-0.1627907156944275 -0.4728682041168213 0.3781931400299072
-0.1627907156944275 -0.4728682041168213 0.5933789014816284
-0.1627907156944275 -0.4573643207550049 0.37889915704727173
-0.1627907156944275 -0.4573643207550049 0.5975083708763123
-0.1627907156944275 -0.44186046719551086 0.3834128975868225
-0.1627907156944275 -0.4418604373931885 0.5784539580345154
-0.1627907156944275 -0.42635661363601685 0.3881126046180725
-0.1627907156944275 -0.42635661363601685 0.5313499569892883
-0.1627907156944275 -0.41085273027420044 0.23450979590415955
-0.1627907156944275 -0.41085273027420044 0.24405939877033234
-0.1627907156944275 -0.41085273027420044 0.3852250576019287
-0.1627907156944275 -0.41085273027420044 0.5019975900650024
-0.1627907156944275 -0.39534884691238403 0.18674728274345398
-0.1627907156944275 -0.39534884691238403 0.27188798785209656
-0.1627907156944275 -0.39534884691238403 0.36558544635772705
-0.1627907156944275 -0.39534884691238403 0.4900139272212982
-0.1627907156944275 -0.3798449635505676 0.14505290985107422
-0.1627907156944275 -0.3798449635505676 0.28042858839035034
-0.1627907156944275 -0.37984499335289 0.3508569002151489
-0.1627907156944275 -0.37984499335289 0.506230890750885
-0.1627907156944275 -0.3643410801887512 0.09911344945430756
-0.1627907156944275 -0.3643410801887512 0.2841825783252716
-0.1627907156944275 -0.3643410801887512 0.3444497883319855
-0.1627907156944275 -0.3643410801887512 0.5114257335662842
-0.1627907156944275 -0.3488371968269348 0.0787070021033287
-0.1627907156944275 -0.3488371968269348 0.2925620675086975
-0.1627907156944275 -0.3488371968269348 0.3320513963699341
-0.1627907156944275 -0.3488371968269348 0.514653742313385
-0.1627907156944275 -0.3333333134651184 0.06678998470306396
-0.1627907156944275 -0.3333333134651184 0.5177268981933594
-0.1627907156944275 -0.317829430103302 0.061129506677389145
-0.16279073059558868 -0.317829430103302 0.5204316973686218
-0.1627907156944275 -0.30232560634613037 0.052746422588825226
-0.1627907156944275 -0.30232560634613037 0.5238940119743347
-0.1627907156944275 -0.28682172298431396 0.041355133056640625
-0.1627907156944275 -0.28682172298431396 0.5283022522926331
-0.1627907156944275 -0.27131783962249756 0.027253737673163414
-0.1627907156944275 -0.27131783962249756 0.5327081680297852
-0.1627907156944275 -0.25581395626068115 0.011581498198211193
-0.1627907007932663 -0.25581395626068115 0.535512387752533
-0.1627907156944275 -0.24031007289886475 -0.7501463890075684
-0.1627907156944275 -0.24031007289886475 -0.6914737820625305
-0.1627907156944275 -0.24031007289886475 -0.0021865423768758774
-0.1627907007932663 -0.24031007289886475 0.5375336408615112
-0.1627907156944275 -0.22480618953704834 -0.7507665157318115
-0.1627907156944275 -0.22480618953704834 -0.62352454662323
-0.1627907156944275 -0.22480618953704834 -0.013710679486393929
-0.1627907156944275 -0.22480618953704834 0.5393246412277222
-0.16279073059558868 -0.20930230617523193 -0.7508674263954163
-0.1627907156944275 -0.20930230617523193 -0.5400257706642151
-0.1627907156944275 -0.20930232107639313 -0.022816728800535202
-0.1627907156944275 -0.20930230617523193 0.5414468050003052
-0.1627907156944275 -0.19379842281341553 -0.7509258389472961
-0.1627907156944275 -0.19379842281341553 -0.4790773391723633
-0.1627907156944275 -0.19379842281341553 -0.03394365683197975
-0.1627907156944275 -0.19379842281341553 0.5435280203819275
-0.1627907156944275 -0.1782945990562439 -0.7506142258644104
-0.1627907156944275 -0.1782945990562439 -0.3127667009830475
-0.1627907156944275 -0.1782945990562439 -0.04999774694442749
-0.1627907156944275 -0.1782945990562439 0.5457677841186523
-0.1627907156944275 -0.1627907156944275 -0.7499455809593201
-0.1627907156944275 -0.1627907156944275 -0.16740748286247253
-0.1627907156944275 -0.1627907156944275 -0.0919824093580246
-0.1627907156944275 -0.1627907156944275 0.548546552658081
-0.1627907156944275 -0.14728683233261108 -0.7493031620979309
-0.1627907156944275 -0.14728683233261108 0.5519981980323792
-0.1627907156944275 -0.13178294897079468 -0.7489853501319885
-0.1627907156944275 -0.13178294897079468 0.5554768443107605
-0.16279073059558868 -0.11627906560897827 -0.7490477561950684
-0.1627907156944275 -0.11627906560897827 0.5592964887619019
-0.1627907156944275 -0.10077518969774246 -0.7492736577987671
-0.1627907156944275 -0.10077518224716187 0.5633533596992493
-0.1627907156944275 -0.08527130633592606 -0.7496050596237183
-0.1627907156944275 -0.08527129888534546 0.5675210356712341
-0.1627907156944275 -0.06976741552352905 -0.7499018311500549
-0.1627907156944275 -0.06976741552352905 0.030954111367464066
-0.1627907156944275 -0.06976741552352905 0.06394115090370178
-0.1627907156944275 -0.06976741552352905 0.5708671808242798
-0.1627907156944275 -0.05426359176635742 -0.7502099871635437
-0.1627907156944275 -0.05426359176635742 0.016046572476625443
-0.1627907156944275 -0.05426359176635742 0.09441669285297394
-0.1627907156944275 -0.05426359176635742 0.5740070343017578
-0.1627907156944275 -0.038759708404541016 -0.7504185438156128
