0.3333333730697632 -0.06976741552352905 0.15409289300441742
0.3333333730697632 -0.05426359176635742 0.13117218017578125
0.3333333730697632 -0.05426359176635742 0.15232181549072266
0.3333333730697632 -0.038759708404541016 0.12973609566688538
0.3333333730697632 -0.038759708404541016 0.15051056444644928
0.3333333730697632 -0.02325582504272461 0.12799149751663208
0.3333333730697632 -0.02325582504272461 0.14888539910316467
0.3333333730697632 -0.007751941680908203 0.1265154629945755
0.3333333730697632 -0.007751941680908203 0.14677292108535767
0.3333333730697632 0.007751941680908203 0.12562352418899536
0.3333333730697632 0.007751941680908203 0.1390075981616974
0.3333333730697632 0.02325582504272461 0.12532489001750946
0.3333333730697632 0.02325582690536976 0.13568368554115295
0.3333333730697632 0.038759708404541016 0.12593451142311096
0.3333333730697632 0.038759708404541016 0.13422845304012299
0.3333333730697632 0.05426359176635742 0.12655112147331238
0.3333333730697632 0.05426358804106712 0.13362962007522583
0.3333333730697632 0.06976747512817383 0.12750646471977234
0.3333333730697632 0.06976747512817383 0.1331479251384735
0.3333333730697632 0.08527135848999023 0.12802867591381073
0.3333333432674408 0.08527135848999023 0.1325092315673828
0.3333333730697632 0.11627912521362305 0.11472863703966141
0.3333333730697632 0.11627912521362305 0.12411332875490189
0.3333333730697632 0.1317828893661499 0.11392757296562195
0.3333333730697632 0.1317828893661499 0.12129615247249603
0.3333333730697632 0.1472867727279663 0.1142837330698967
0.3333333730697632 0.1472867727279663 0.11840102076530457
0.3488372564315796 -0.10077518224716187 0.1433452069759369
0.3488372564315796 -0.10077518224716187 0.15060782432556152
0.3488372564315796 -0.08527129888534546 0.13723918795585632
0.3488372564315796 -0.08527129888534546 0.154018372297287
0.3488372266292572 -0.06976741552352905 0.13253474235534668
0.3488372564315796 -0.06976741552352905 0.15330848097801208
0.3488372564315796 -0.05426359176635742 0.13104325532913208
0.3488372564315796 -0.05426359176635742 0.15182086825370789
0.3488372564315796 -0.038759708404541016 0.12967757880687714
0.3488372564315796 -0.038759708404541016 0.15021127462387085
0.3488372564315796 -0.02325582504272461 0.12789838016033173
0.3488372564315796 -0.02325582504272461 0.1487368941307068
0.3488372564315796 -0.007751941680908203 0.12614084780216217
0.3488372564315796 -0.007751941680908203 0.1464061141014099
0.3488372564315796 0.007751941680908203 0.12484295666217804
0.3488372564315796 0.007751941215246916 0.13883697986602783
0.3488372564315796 0.02325582504272461 0.12421959638595581
0.3488372564315796 0.02325582504272461 0.135494664311409
0.3488372564315796 0.038759708404541016 0.12442857027053833
0.3488372564315796 0.038759708404541016 0.13409553468227386
0.3488372564315796 0.05426359176635742 0.12443199753761292
0.3488372564315796 0.05426359176635742 0.1335657238960266
0.3488372564315796 0.06976747512817383 0.12471982836723328
0.3488372564315796 0.06976747512817383 0.1333189606666565
0.3488372564315796 0.08527135848999023 0.1259901523590088
0.348837286233902 0.08527135848999023 0.1329064965248108
0.3488372564315796 0.11627912521362305 0.11502939462661743
0.3488372564315796 0.11627912521362305 0.12527629733085632
0.3488372564315796 0.1317828893661499 0.11395653337240219
0.3488372564315796 0.1317828893661499 0.12215334177017212
0.3488372564315796 0.1472867727279663 0.11402073502540588
0.3488372564315796 0.1472867727279663 0.1189594715833664
0.364341139793396 -0.10077518224716187 0.14453990757465363
0.364341139793396 -0.10077518224716187 0.14943835139274597
0.364341139793396 -0.08527129888534546 0.1373022198677063
0.364341139793396 -0.08527129888534546 0.15328320860862732
0.364341139793396 -0.06976741552352905 0.1317598521709442
0.364341139793396 -0.06976741552352905 0.1526351273059845
0.364341139793396 -0.05426359176635742 0.13091900944709778
0.364341139793396 -0.05426359176635742 0.1513395607471466
0.364341139793396 -0.038759708404541016 0.1296442598104477
0.364341139793396 -0.038759708404541016 0.1499614119529724
0.364341139793396 -0.02325582504272461 0.12777724862098694
0.3643411695957184 -0.02325582504272461 0.1486283540725708
0.364341139793396 -0.007751941680908203 0.1257968544960022
0.364341139793396 -0.007751941680908203 0.14609047770500183
0.364341139793396 0.007751941680908203 0.12417695671319962
0.364341139793396 0.007751941680908203 0.1389816403388977
0.364341139793396 0.02325582504272461 0.12324271351099014
0.364341139793396 0.02325582504272461 0.13552938401699066
0.364341139793396 0.038759708404541016 0.12295988947153091
0.364341139793396 0.038759708404541016 0.13409338891506195
0.364341139793396 0.05426359176635742 0.1225128248333931
0.3643411099910736 0.05426358804106712 0.13353331387043
0.364341139793396 0.06976747512817383 0.12222321331501007
0.364341139793396 0.06976747512817383 0.13324600458145142
0.364341139793396 0.08527135848999023 0.12145912647247314
0.3643411695957184 0.08527135848999023 0.13294216990470886
0.364341139793396 0.10077524185180664 0.12118598818778992
0.3643411099910736 0.10077524185180664 0.13230736553668976
0.364341139793396 0.11627912521362305 0.11481735855340958
0.364341139793396 0.11627912521362305 0.12730714678764343
0.364341139793396 0.1317828893661499 0.11387515068054199
0.364341139793396 0.1317828893661499 0.12202800065279007
0.364341139793396 0.1472867727279663 0.11374291777610779
0.3643411695957184 0.1472867727279663 0.11913108825683594
0.37984490394592285 -0.10077518224716187 0.14621290564537048
0.37984490394592285 -0.10077518224716187 0.14809714257717133
0.37984490394592285 -0.08527129888534546 0.13770708441734314
0.37984490394592285 -0.08527129888534546 0.15262509882450104
0.37984490394592285 -0.06976741552352905 0.1317458301782608
0.37984490394592285 -0.06976741552352905 0.1520233452320099
0.37984490394592285 -0.05426359176635742 0.13091441988945007
0.37984490394592285 -0.05426359176635742 0.15087220072746277
0.37984490394592285 -0.038759708404541016 0.12971284985542297
0.37984490394592285 -0.038759708404541016 0.14968931674957275
0.37984490394592285 -0.02325582504272461 0.1278095841407776
0.37984490394592285 -0.02325582504272461 0.1484450101852417
0.37984490394592285 -0.007751941680908203 0.12585537135601044
0.37984490394592285 -0.007751941680908203 0.14505845308303833
0.37984490394592285 0.007751941680908203 0.12433146685361862
0.37984490394592285 0.007751941680908203 0.1387101262807846
0.37984490394592285 0.02325582504272461 0.12356390058994293
0.37984487414360046 0.02325582504272461 0.1354268491268158
0.37984490394592285 0.038759708404541016 0.12307830899953842
0.37984490394592285 0.038759708404541016 0.13405203819274902
0.37984490394592285 0.05426359176635742 0.12238329648971558
0.37984490394592285 0.05426359176635742 0.13348649442195892
0.37984490394592285 0.06976747512817383 0.1218457743525505
0.37984490394592285 0.06976747512817383 0.13317781686782837
0.37984490394592285 0.08527135848999023 0.12052570283412933
0.37984493374824524 0.08527135848999023 0.1328486055135727
0.37984487414360046 0.10077524185180664 0.11678287386894226
0.37984490394592285 0.10077523440122604 0.1322801411151886
0.37984490394592285 0.11627912521362305 0.11493704468011856
0.37984490394592285 0.11627912521362305 0.12648779153823853
0.37984490394592285 0.1317828893661499 0.11404949426651001
0.37984490394592285 0.1317828893661499 0.12151049077510834
0.37984490394592285 0.1472867727279663 0.11395223438739777
0.37984490394592285 0.1472867727279663 0.1189655065536499
0.37984490394592285 0.16279065608978271 0.11526122689247131
0.37984490394592285 0.16279065608978271 0.11731494218111038
0.39534878730773926 -0.08527129888534546 0.13897617161273956
0.39534878730773926 -0.08527129888534546 0.1516442745923996
0.39534878730773926 -0.06976741552352905 0.13385048508644104
0.39534881711006165 -0.06976741552352905 0.15117426216602325
0.39534878730773926 -0.05426359176635742 0.1311512142419815
0.39534878730773926 -0.05426359176635742 0.15024343132972717
0.39534878730773926 -0.038759708404541016 0.13001582026481628
0.39534878730773926 -0.038759708404541016 0.14922618865966797
0.39534878730773926 -0.02325582504272461 0.12822389602661133
0.39534878730773926 -0.02325582504272461 0.14805814623832703
0.39534878730773926 -0.007751941680908203 0.12623292207717896
0.39534878730773926 -0.007751941680908203 0.1431376188993454
0.39534878730773926 0.007751941680908203 0.12509743869304657
0.39534878730773926 0.00775194214656949 0.13774748146533966
0.39534878730773926 0.02325582504272461 0.12519055604934692
0.39534878730773926 0.02325582504272461 0.13496845960617065
0.39534878730773926 0.038759708404541016 0.1252923309803009
0.39534875750541687 0.03875970467925072 0.13385722041130066
0.39534878730773926 0.05426359176635742 0.12492305040359497
0.39534878730773926 0.05426359176635742 0.13339360058307648
0.39534878730773926 0.06976747512817383 0.12478574365377426
0.39534878730773926 0.06976747512817383 0.1331249624490738
0.39534878730773926 0.08527135848999023 0.12518170475959778
0.39534878730773926 0.08527135848999023 0.13278238475322723
0.39534878730773926 0.10077524185180664 0.12816137075424194
0.39534878730773926 0.10077524185180664 0.13208399713039398
0.39534878730773926 0.11627912521362305 0.11514651775360107
0.39534878730773926 0.11627912521362305 0.12527090311050415
0.39534878730773926 0.1317828893661499 0.1142195612192154
0.39534878730773926 0.1317828893661499 0.12139075249433517
0.39534878730773926 0.1472867727279663 0.11423079669475555
0.39534878730773926 0.1472867727279663 0.11896877735853195
0.39534878730773926 0.16279065608978271 0.11467450857162476
0.39534878730773926 0.16279065608978271 0.11769451200962067
0.39534878730773926 0.17829453945159912 0.11430635303258896
0.39534878730773926 0.17829453945159912 0.11692842096090317
0.41085267066955566 -0.08527129888534546 0.14041629433631897
0.41085267066955566 -0.08527129888534546 0.15069356560707092
0.41085267066955566 -0.06976741552352905 0.13691338896751404
0.4108526408672333 -0.06976741552352905 0.1503589153289795
0.41085267066955566 -0.05426359176635742 0.1315084844827652
0.41085267066955566 -0.05426359176635742 0.1496599018573761
0.41085267066955566 -0.038759708404541016 0.13035449385643005
0.41085267066955566 -0.038759708404541016 0.14875587821006775
0.41085267066955566 -0.02325582504272461 0.12898074090480804
0.41085267066955566 -0.02325582504272461 0.1475355476140976
0.41085267066955566 -0.007751941680908203 0.1273326873779297
0.41085267066955566 -0.007751941680908203 0.14082007110118866
0.41085267066955566 0.007751941680908203 0.12655961513519287
0.41085267066955566 0.007751941680908203 0.13658012449741364
0.41085267066955566 0.02325582504272461 0.1268981546163559
0.41085267066955566 0.02325582504272461 0.13446258008480072
0.41085267066955566 0.038759708404541016 0.12730352580547333
0.41085267066955566 0.038759708404541016 0.1336463987827301
0.41085267066955566 0.05426359176635742 0.1274345964193344
0.41085270047187805 0.05426359176635742 0.13330407440662384
0.41085267066955566 0.06976747512817383 0.12790535390377045
0.41085267066955566 0.06976747512817383 0.13303931057453156
0.41085267066955566 0.08527135848999023 0.12928912043571472
0.41085267066955566 0.08527135103940964 0.13251078128814697
0.41085267066955566 0.11627912521362305 0.11559022963047028
0.41085267066955566 0.11627912521362305 0.12275227904319763
0.41085267066955566 0.1317828893661499 0.11445920914411545
0.41085267066955566 0.1317828893661499 0.1213945597410202
0.41085267066955566 0.1472867727279663 0.1144745796918869
0.41085267066955566 0.1472867727279663 0.11903662979602814
0.41085267066955566 0.16279065608978271 0.11482982337474823
0.4108526408672333 0.16279065608978271 0.11773230880498886
0.41085267066955566 0.17829453945159912 0.1147647276520729
0.41085267066955566 0.17829453945159912 0.11694589257240295
0.42635655403137207 -0.08527129888534546 0.14109688997268677
0.42635658383369446 -0.08527129888534546 0.15011319518089294
0.42635655403137207 -0.06976741552352905 0.13797296583652496
0.42635655403137207 -0.06976741552352905 0.14985057711601257
0.42635655403137207 -0.05426359176635742 0.13164015114307404
0.42635655403137207 -0.05426359176635742 0.14928054809570312
0.42635655403137207 -0.038759708404541016 0.13050684332847595
0.42635655403137207 -0.03875970467925072 0.14846688508987427
0.42635655403137207 -0.02325582504272461 0.12944191694259644
0.42635655403137207 -0.02325582504272461 0.14669036865234375
0.42635655403137207 -0.007751941680908203 0.12838399410247803
0.42635655403137207 -0.007751941680908203 0.1395091861486435
0.42635655403137207 0.007751941680908203 0.12770375609397888
0.42635655403137207 0.007751941215246916 0.13593918085098267
0.42635655403137207 0.02325582504272461 0.12768054008483887
0.42635655403137207 0.02325582504272461 0.13424602150917053
0.42635655403137207 0.038759708404541016 0.12808270752429962
0.42635655403137207 0.038759708404541016 0.13356947898864746
0.42635655403137207 0.05426359176635742 0.12848331034183502
0.42635655403137207 0.05426359176635742 0.1332423985004425
0.42635655403137207 0.06976747512817383 0.12927578389644623
0.42635655403137207 0.06976747512817383 0.13284707069396973
0.42635655403137207 0.08527135848999023 0.13088953495025635
0.42635655403137207 0.08527135848999023 0.1320914775133133
0.42635655403137207 0.11627912521362305 0.11619874089956284
0.42635655403137207 0.11627912521362305 0.11723548918962479
0.42635655403137207 0.1317828893661499 0.11476351320743561
0.42635655403137207 0.1317828893661499 0.12095661461353302
0.42635655403137207 0.1472867727279663 0.11485832184553146
0.42635655403137207 0.1472867727279663 0.11866480857133865
0.4418604373931885 -0.08527129888534546 0.14156067371368408
0.4418604075908661 -0.08527129143476486 0.1497386395931244
0.4418604373931885 -0.06976741552352905 0.13858787715435028
0.4418604373931885 -0.06976741552352905 0.14952349662780762
0.4418604373931885 -0.05426359176635742 0.13169066607952118
0.44186046719551086 -0.05426359549164772 0.1489945501089096
0.4418604373931885 -0.038759708404541016 0.13059568405151367
0.4418604373931885 -0.038759712129831314 0.14820444583892822
0.4418604373931885 -0.02325582504272461 0.12970560789108276
0.4418604373931885 -0.02325582504272461 0.14517906308174133
0.4418604373931885 -0.007751941680908203 0.1289156824350357
0.4418604373931885 -0.007751941680908203 0.13876891136169434
0.4418604373931885 0.007751941680908203 0.12831653654575348
0.4418604373931885 0.007751941680908203 0.1355423480272293
0.4418604373931885 0.02325582504272461 0.12811854481697083
0.4418604373931885 0.02325582504272461 0.13412617146968842
0.4418604373931885 0.038759708404541016 0.12840895354747772
0.4418604075908661 0.038759708404541016 0.1335316002368927
0.4418604373931885 0.05426359176635742 0.12885741889476776
0.4418604373931885 0.05426359549164772 0.1331966370344162
0.4418604373931885 0.06976747512817383 0.1295863837003708
0.4418604373931885 0.06976747512817383 0.13274367153644562
0.4418604373931885 0.08527135848999023 0.13003793358802795
0.4418604373931885 0.08527136594057083 0.13223658502101898
0.4418604373931885 0.11627912521362305 0.11590587347745895
0.4418604373931885 0.11627911776304245 0.11990773677825928
0.4418604373931885 0.1317828893661499 0.11498710513114929
0.4418604373931885 0.1317828893661499 0.12039891630411148
0.4418604373931885 0.1472867727279663 0.11535420268774033
0.4418604373931885 0.1472867727279663 0.11784745752811432
0.4573643207550049 -0.08527129888534546 0.1418370008468628
0.4573643207550049 -0.08527129888534546 0.1493983268737793
0.4573643207550049 -0.06976741552352905 0.13901056349277496
0.4573642909526825 -0.06976741552352905 0.14924006164073944
0.4573643207550049 -0.05426359176635742 0.1317608654499054
0.4573643207550049 -0.05426359176635742 0.148744136095047
0.4573643207550049 -0.038759708404541016 0.13068391382694244
0.4573643207550049 -0.038759708404541016 0.1479865312576294
0.4573643207550049 -0.02325582504272461 0.12984950840473175
0.4573643207550049 -0.02325582504272461 0.1442544013261795
0.4573643207550049 -0.007751941680908203 0.12913519144058228
0.4573643207550049 -0.007751941680908203 0.13832178711891174
0.4573643207550049 0.007751941680908203 0.12855878472328186
0.4573643207550049 0.007751941680908203 0.13527515530586243
0.4573643207550049 0.02325582504272461 0.12834742665290833
0.4573643207550049 0.02325582504272461 0.13402609527111053
0.4573643207550049 0.038759708404541016 0.12859240174293518
0.4573643207550049 0.038759708404541016 0.1334686577320099
0.4573643207550049 0.05426359176635742 0.12893956899642944
0.4573643207550049 0.05426359176635742 0.13314685225486755
0.4573643207550049 0.06976747512817383 0.1292572319507599
0.4573643207550049 0.06976747512817383 0.13274969160556793
0.4573643207550049 0.08527135848999023 0.12894409894943237
0.4573642909526825 0.08527135848999023 0.13219594955444336
0.4573643207550049 0.10077524185180664 0.11612783372402191
0.4573643207550049 0.10077524185180664 0.12110887467861176
0.4573643207550049 0.11627912521362305 0.11529859900474548
0.4573643207550049 0.11627912521362305 0.12257792800664902
0.4573643207550049 0.1317828893661499 0.11488094180822372
0.4573643207550049 0.1317828893661499 0.12036071717739105
0.4573643207550049 0.1472867727279663 0.11553347110748291
0.4573643207550049 0.1472867727279663 0.11749810725450516
0.4573643207550049 0.16279065608978271 0.11626087874174118
0.4573643207550049 0.16279065608978271 0.11629965156316757
0.4728682041168213 -0.08527129888534546 0.141570582985878
0.4728682041168213 -0.08527129888534546 0.14911270141601562
0.4728682339191437 -0.06976741552352905 0.13854120671749115
0.4728682041168213 -0.06976741552352905 0.14899668097496033
0.4728682041168213 -0.05426359176635742 0.13170857727527618
0.4728682041168213 -0.05426359176635742 0.14855711162090302
0.4728682041168213 -0.038759708404541016 0.13071873784065247
0.4728682041168213 -0.038759708404541016 0.14786396920681
0.4728682041168213 -0.02325582504272461 0.1299525648355484
0.4728682041168213 -0.02325582504272461 0.14383813738822937
0.4728682041168213 -0.007751941680908203 0.12923845648765564
0.4728682041168213 -0.007751941215246916 0.13812515139579773
0.4728682041168213 0.007751941680908203 0.1286296844482422
0.4728682339191437 0.007751941680908203 0.13515660166740417
0.4728682041168213 0.02325582504272461 0.12838569283485413
0.4728682041168213 0.02325582504272461 0.13392752408981323
0.4728682041168213 0.038759708404541016 0.12852413952350616
0.4728682041168213 0.038759708404541016 0.13338372111320496
0.4728682041168213 0.05426359176635742 0.12864205241203308
0.4728682041168213 0.05426359176635742 0.13308016955852509
0.4728682041168213 0.06976747512817383 0.12859022617340088
0.4728682041168213 0.06976746767759323 0.13274742662906647
0.4728682041168213 0.08527135848999023 0.12688367068767548
0.4728682041168213 0.08527135848999023 0.13224314153194427
0.4728682041168213 0.10077524185180664 0.11559578776359558
0.4728682041168213 0.10077524185180664 0.1273006647825241
0.4728682041168213 0.11627912521362305 0.11500228196382523
0.4728682041168213 0.11627912521362305 0.12348408997058868
0.4728682041168213 0.1317828893661499 0.11482414603233337
0.4728682041168213 0.1317828893661499 0.1202646940946579
0.4728682041168213 0.1472867727279663 0.11572090536355972
0.4728681743144989 0.14728675782680511 0.11721171438694
0.4883720874786377 -0.08527129888534546 0.14079739153385162
0.4883720874786377 -0.08527129888534546 0.14876052737236023
0.4883720874786377 -0.06976741552352905 0.13660690188407898
0.4883720874786377 -0.06976741552352905 0.14872804284095764
0.4883720874786377 -0.05426359176635742 0.1314544975757599
0.4883720874786377 -0.05426359176635742 0.14832353591918945
0.4883720874786377 -0.038759708404541016 0.130635604262352
0.4883720874786377 -0.038759708404541016 0.14764724671840668
0.4883720874786377 -0.02325582504272461 0.1299746185541153
0.4883720874786377 -0.02325582504272461 0.14248999953269958
0.4883720874786377 -0.007751941680908203 0.1292225420475006
0.4883720874786377 -0.007751941680908203 0.1375938355922699
0.4883720874786377 0.007751941680908203 0.1284962296485901
0.4883720874786377 0.007751941680908203 0.13490965962409973
0.4883720874786377 0.02325582504272461 0.1280563771724701
0.4883720874786377 0.02325582504272461 0.13377520442008972
0.4883720874786377 0.038759708404541016 0.1279512345790863
0.4883720874786377 0.03875970467925072 0.1332659125328064
0.4883720874786377 0.05426359176635742 0.12779641151428223
0.4883720874786377 0.05426359176635742 0.1329604983329773
0.4883720874786377 0.06976747512817383 0.1271401345729828
0.4883720874786377 0.06976747512817383 0.13261187076568604
0.4883720874786377 0.08527135848999023 0.11619792133569717
0.4883720874786377 0.08527135848999023 0.13208837807178497
0.4883720874786377 0.10077524185180664 0.11506856232881546
0.4883720874786377 0.10077524185180664 0.12730351090431213
0.4883720874786377 0.11627912521362305 0.11469768732786179
0.4883720874786377 0.11627912521362305 0.12328067421913147
0.4883720874786377 0.1317828893661499 0.11467587202787399
0.4883720874786377 0.1317828893661499 0.1200404018163681
0.4883720874786377 0.1472867727279663 0.11532960832118988
0.4883720874786377 0.1472867727279663 0.1177154928445816
0.5038759708404541 -0.08527129888534546 0.1411326378583908
0.5038759708404541 -0.08527129888534546 0.1482807844877243
0.5038759708404541 -0.06976741552352905 0.13512520492076874
0.5038759708404541 -0.06976741552352905 0.14844433963298798
0.5038759708404541 -0.05426359176635742 0.13130897283554077
0.5038759708404541 -0.05426358804106712 0.14805814623832703
0.5038759708404541 -0.038759708404541016 0.13060681521892548
0.5038759708404541 -0.038759708404541016 0.1473393589258194
0.5038759708404541 -0.02325582504272461 0.13000822067260742
0.5038759708404541 -0.02325582504272461 0.14085237681865692
0.5038759708404541 -0.007751941680908203 0.12926144897937775
0.5038759708404541 -0.007751941680908203 0.13702921569347382
0.5038759708404541 0.007751941680908203 0.12848985195159912
0.5038759708404541 0.007751941680908203 0.13473600149154663
0.5038759708404541 0.02325582504272461 0.1279263198375702
0.5038759708404541 0.02325582504272461 0.13370180130004883
0.5038759708404541 0.038759708404541016 0.12772837281227112
0.5038759708404541 0.038759708404541016 0.133215069770813
0.5038759708404541 0.05426359176635742 0.12742473185062408
0.5038759708404541 0.05426359176635742 0.13290680944919586
0.5038759708404541 0.06976747512817383 0.12629473209381104
0.5038759708404541 0.06976747512817383 0.13254870474338531
0.5038759708404541 0.08527135848999023 0.11592469364404678
0.5038759708404541 0.08527135848999023 0.13199517130851746
0.5038759708404541 0.10077524185180664 0.11495165526866913
0.5038759708404541 0.10077524185180664 0.1265726387500763
0.5038759708404541 0.11627912521362305 0.1146187037229538
0.5038759708404541 0.11627912521362305 0.12282878160476685
0.5038759708404541 0.1317828893661499 0.11463584005832672
0.5038759708404541 0.1317828893661499 0.11987198144197464
0.5038759708404541 0.1472867727279663 0.11494696140289307
0.5038759708404541 0.1472867727279663 0.11811667680740356
0.5038759708404541 0.16279065608978271 0.11515515297651291
0.5038759708404541 0.16279064118862152 0.11734487861394882
0.5038759708404541 0.17829453945159912 0.11624209582805634
0.5038759708404541 0.17829453945159912 0.11630672961473465
0.5193798542022705 -0.08527129888534546 0.14184266328811646
0.5193798542022705 -0.08527129888534546 0.14788609743118286
0.5193798542022705 -0.06976741552352905 0.1324070394039154
0.5193798542022705 -0.06976741552352905 0.1481419801712036
0.5193798542022705 -0.05426359176635742 0.13116136193275452
0.5193797945976257 -0.05426358804106712 0.14777487516403198
0.5193798542022705 -0.038759708404541016 0.13053515553474426
0.5193798542022705 -0.038759708404541016 0.14452990889549255
0.5193798542022705 -0.02325582504272461 0.12995265424251556
0.5193798542022705 -0.02325582504272461 0.13960537314414978
0.5193798542022705 -0.007751941680908203 0.1291539967060089
0.5193798542022705 -0.007751941680908203 0.13656972348690033
0.5193798542022705 0.007751941680908203 0.12820738554000854
0.5193798542022705 0.007751941680908203 0.13462667167186737
0.5193798542022705 0.02325582504272461 0.12742435932159424
0.5193798542022705 0.02325582504272461 0.13365988433361053
0.5193798542022705 0.038759708404541016 0.12697787582874298
0.5193798542022705 0.038759708404541016 0.13318684697151184
0.5193798542022705 0.05426359176635742 0.12652960419654846
0.5193798542022705 0.05426359176635742 0.1328611820936203
0.5193798542022705 0.06976747512817383 0.1255522519350052
0.5193798542022705 0.06976747512817383 0.13246586918830872
0.5193798542022705 0.08527135848999023 0.115868479013443
0.5193798542022705 0.08527135848999023 0.1318669617176056
0.5193798542022705 0.10077524185180664 0.11498173326253891
0.5193798542022705 0.10077524185180664 0.12542042136192322
0.5193798542022705 0.11627912521362305 0.11465293169021606
0.5193798542022705 0.11627913266420364 0.12206055968999863
0.5193798542022705 0.1317828893661499 0.11467061191797256
0.5193798542022705 0.1317828893661499 0.11962777376174927
0.5193798542022705 0.1472867727279663 0.11497510969638824
0.5193798542022705 0.1472867727279663 0.11805262416601181
0.5193798542022705 0.16279065608978271 0.11469071358442307
0.5193798542022705 0.16279065608978271 0.11762851476669312
0.5193798542022705 0.17829453945159912 0.11530426144599915
0.5193798542022705 0.17829453945159912 0.1168104037642479
0.5348837375640869 -0.08527129888534546 0.142703115940094
0.5348837971687317 -0.08527129888534546 0.1476961374282837
0.5348837375640869 -0.06976741552352905 0.13168027997016907
0.5348837375640869 -0.06976741552352905 0.14793045818805695
0.5348837375640869 -0.05426359176635742 0.1310432255268097
0.5348837375640869 -0.05426359176635742 0.14758357405662537
0.5348837375640869 -0.038759708404541016 0.13044413924217224
0.5348837375640869 -0.038759708404541016 0.1434796303510666
0.5348837375640869 -0.02325582504272461 0.12982141971588135
0.5348837375640869 -0.02325582504272461 0.13935761153697968
0.5348837375640869 -0.007751941680908203 0.12890216708183289
0.5348837375640869 -0.007751941680908203 0.13657741248607635
0.5348837375640869 0.007751941680908203 0.12768875062465668
0.5348837375640869 0.007751941680908203 0.1347159445285797
0.5348837375640869 0.02325582504272461 0.1265329122543335
0.5348837375640869 0.02325582504272461 0.1337185949087143
0.5348837375640869 0.038759708404541016 0.12559722363948822
0.5348837375640869 0.03875970467925072 0.13321544229984283
0.5348837375640869 0.05426359176635742 0.12461867928504944
0.5348837375640869 0.05426359176635742 0.1328682005405426
0.5348837375640869 0.06976747512817383 0.1234668716788292
0.5348837375640869 0.06976747512817383 0.13245776295661926
0.5348837375640869 0.08527135848999023 0.11587335914373398
0.5348837375640869 0.08527136594057083 0.13181959092617035
0.5348837375640869 0.10077524185180664 0.11513328552246094
0.5348837375640869 0.10077524185180664 0.12444132566452026
0.5348837375640869 0.11627912521362305 0.11479426920413971
0.5348837375640869 0.11627912521362305 0.12150108814239502
0.5348837375640869 0.1317828893661499 0.11475828289985657
0.5348837375640869 0.1317828893661499 0.11948467791080475
0.5348837375640869 0.1472867727279663 0.11502574384212494
0.5348837375640869 0.1472867727279663 0.11795862764120102
0.5348837375640869 0.16279065608978271 0.11456207931041718
0.5348837375640869 0.1627906709909439 0.11762618273496628
0.5348837375640869 0.17829453945159912 0.11580214649438858
0.5348837375640869 0.17829453945159912 0.11650679260492325
0.5503876209259033 -0.08527129888534546 0.14356499910354614
0.5503876209259033 -0.08527129888534546 0.14762070775032043
0.5503876209259033 -0.06976741552352905 0.13161447644233704
0.5503876209259033 -0.06976740807294846 0.14780528843402863
0.5503876209259033 -0.05426359176635742 0.13093924522399902
0.5503876209259033 -0.05426358804106712 0.14748334884643555
0.5503876209259033 -0.038759708404541016 0.13033472001552582
0.5503876209259033 -0.038759708404541016 0.14333245158195496
0.5503876209259033 -0.02325582504272461 0.12963470816612244
0.5503876209259033 -0.02325582504272461 0.13958480954170227
0.5503876209259033 -0.007751941680908203 0.12855593860149384
0.5503876209259033 -0.007751941680908203 0.1368943601846695
0.5503876209259033 0.007751941680908203 0.1270884871482849
0.5503876209259033 0.007751941680908203 0.13499222695827484
0.5503876209259033 0.02325582504272461 0.12544944882392883
0.5503876209259033 0.02325582504272461 0.13387610018253326
0.5503876209259033 0.038759708404541016 0.12387094646692276
0.5503876209259033 0.038759708404541016 0.13330812752246857
0.5503876209259033 0.05426359176635742 0.12207836657762527
0.5503876209259033 0.05426359176635742 0.132924422621727
0.5503876209259033 0.06976747512817383 0.11940641701221466
0.5503876209259033 0.06976748257875443 0.132492333650589
0.5503876209259033 0.08527135848999023 0.11573687195777893
0.5503876209259033 0.08527135848999023 0.1317894011735916
0.5503876209259033 0.10077524185180664 0.11521203815937042
0.5503876209259033 0.10077524185180664 0.12351322919130325
0.5503876209259033 0.11627912521362305 0.1148756593465805
0.5503876209259033 0.11627912521362305 0.12081602960824966
0.5503876209259033 0.1317828893661499 0.11462420225143433
0.5503876209259033 0.1317828893661499 0.11937763541936874
0.5503876209259033 0.1472867727279663 0.11450759321451187
0.5503876209259033 0.1472867727279663 0.11819232255220413
0.5503876209259033 0.16279065608978271 0.11382678151130676
0.5503876209259033 0.16279065608978271 0.11766035854816437
0.5658915042877197 -0.08527129888534546 0.14318682253360748
0.5658915042877197 -0.08527129888534546 0.14762352406978607
0.5658915042877197 -0.06976741552352905 0.1314125955104828
0.5658915042877197 -0.06976741552352905 0.1477484405040741
0.5658915042877197 -0.05426359176635742 0.13076433539390564
0.5658915042877197 -0.05426359176635742 0.14742036163806915
0.5658915042877197 -0.038759708404541016 0.13018828630447388
0.5658915042877197 -0.038759708404541016 0.14316591620445251
0.5658915042877197 -0.02325582504272461 0.12939351797103882
0.5658915042877197 -0.02325582504272461 0.13966313004493713
0.5658915042877197 -0.007751941680908203 0.12811699509620667
0.5658915042877197 -0.007751941680908203 0.13709646463394165
0.5658915042877197 0.007751941680908203 0.12642328441143036
0.5658915042877197 0.007751941680908203 0.1351616382598877
0.5658915042877197 0.02325582504272461 0.12423611432313919
0.5658915042877197 0.02325582504272461 0.13393402099609375
0.5658915042877197 0.038759708404541016 0.12153619527816772
0.565891444683075 0.03875970467925072 0.13330096006393433
0.5658915042877197 0.05426359176635742 0.11725085228681564
0.5658915042877197 0.05426359176635742 0.1328897327184677
0.5658915042877197 0.06976747512817383 0.11596211791038513
0.5658915042877197 0.06976747512817383 0.1324498951435089
0.5658915042877197 0.08527135848999023 0.11544665694236755
0.5658915042877197 0.08527135848999023 0.13075725734233856
0.5658915042877197 0.10077524185180664 0.1150602325797081
0.5658915042877197 0.10077524185180664 0.12339034676551819
0.5658915042877197 0.11627912521362305 0.11474914848804474
0.5658915042877197 0.11627912521362305 0.12052740156650543
0.5658915042877197 0.1317828893661499 0.11450105905532837
0.5658915042877197 0.1317828893661499 0.11902172863483429
0.5658915042877197 0.1472867727279663 0.11423932760953903
0.5658915042877197 0.1472867727279663 0.11791258305311203
0.5658915042877197 0.16279065608978271 0.11287178099155426
0.5658915042877197 0.16279065608978271 0.11757256835699081
0.5813953876495361 -0.08527129888534546 0.1423226296901703
0.5813953876495361 -0.08527129888534546 0.14766952395439148
0.5813953876495361 -0.06976741552352905 0.13129767775535583
0.5813953876495361 -0.06976741552352905 0.14773213863372803
0.5813953876495361 -0.05426359176635742 0.1306949108839035
0.5813953876495361 -0.05426359549164772 0.14738066494464874
0.5813953876495361 -0.038759708404541016 0.13012902438640594
0.5813953876495361 -0.038759708404541016 0.14274626970291138
0.5813953876495361 -0.02325582504272461 0.12929420173168182
0.5813953876495361 -0.02325582504272461 0.13931719958782196
0.5813953876495361 -0.007751941680908203 0.12798038125038147
0.5813953876495361 -0.007751941680908203 0.1368541121482849
0.5813953876495361 0.007751941680908203 0.12638971209526062
0.5813953876495361 0.007751941680908203 0.13497623801231384
0.5813953876495361 0.02325582504272461 0.12442676723003387
0.5813953876495361 0.02325582504272461 0.1338200718164444
0.5813953876495361 0.038759708404541016 0.12177671492099762
0.5813953876495361 0.038759708404541016 0.13322004675865173
0.5813953876495361 0.05426359176635742 0.11638277024030685
0.5813953876495361 0.05426358804106712 0.13281944394111633
0.5813953876495361 0.06976747512817383 0.11582094430923462
0.5813953876495361 0.06976747512817383 0.13236697018146515
0.5813953876495361 0.08527135848999023 0.11529076099395752
0.5813953876495361 0.08527135848999023 0.12912295758724213
0.5813953876495361 0.10077524185180664 0.11487114429473877
0.5813953876495361 0.10077524185180664 0.12289915978908539
0.5813953876495361 0.11627912521362305 0.11459353566169739
0.5813953876495361 0.11627912521362305 0.12005580961704254
0.5813953876495361 0.1317828893661499 0.11450886726379395
0.5813953876495361 0.1317828893661499 0.1184791699051857
0.5813953876495361 0.1472867727279663 0.11410306394100189
0.5813954472541809 0.1472867727279663 0.11765789985656738
0.5813953876495361 0.16279065608978271 0.11257436126470566
0.5813953280448914 0.16279065608978271 0.11723833531141281
0.5968992710113525 -0.08527129888534546 0.141570046544075
0.5968992710113525 -0.08527129888534546 0.1476995050907135
0.5968992710113525 -0.06976741552352905 0.1312582939863205
0.5968992710113525 -0.06976742297410965 0.14769741892814636
0.5968992710113525 -0.05426359176635742 0.1307041496038437
0.5968992710113525 -0.05426358804106712 0.14736300706863403
0.5968992710113525 -0.038759708404541016 0.130162313580513
0.5968992710113525 -0.038759708404541016 0.14242418110370636
0.5968992710113525 -0.02325582504272461 0.12938077747821808
0.5968992710113525 -0.02325582504272461 0.13897135853767395
0.5968992710113525 -0.007751941680908203 0.12826189398765564
0.5968992710113525 -0.007751941680908203 0.13655665516853333
0.5968992710113525 0.007751941680908203 0.12713675200939178
0.5968992710113525 0.007751941680908203 0.13473744690418243
0.5968992710113525 0.02325582504272461 0.1262085735797882
0.5968992710113525 0.02325582504272461 0.1337118148803711
0.5968992710113525 0.038759708404541016 0.12513190507888794
0.5968992710113525 0.038759708404541016 0.13316257297992706
0.5968992710113525 0.05426359176635742 0.12315195798873901
0.5968992710113525 0.05426359549164772 0.1327676773071289
0.5968992710113525 0.06976747512817383 0.11623714119195938
0.5968992710113525 0.06976747512817383 0.13226318359375
0.5968992710113525 0.08527135848999023 0.1153765395283699
0.5968992710113525 0.08527135848999023 0.12663555145263672
0.5968992710113525 0.10077524185180664 0.11477026343345642
0.5968992710113525 0.10077524185180664 0.1220809817314148
0.5968992710113525 0.11627912521362305 0.11458615213632584
0.5968992710113525 0.11627912521362305 0.11948604136705399
0.5968992710113525 0.1317828893661499 0.11485715955495834
0.5968992710113525 0.1317828893661499 0.11789475381374359
0.5968992710113525 0.1472867727279663 0.11519668251276016
0.5968992710113525 0.1472867876291275 0.11698160320520401
0.612403154373169 -0.08527129888534546 0.1410239338874817
0.612403154373169 -0.08527129888534546 0.147752046585083
0.612403154373169 -0.06976741552352905 0.13118572533130646
0.612403154373169 -0.06976741552352905 0.14772014319896698
0.612403154373169 -0.05426359176635742 0.1306716352701187
0.612403154373169 -0.05426359176635742 0.14737409353256226
0.612403154373169 -0.038759708404541016 0.13013902306556702
0.612403154373169 -0.038759708404541016 0.14229801297187805
0.612403154373169 -0.02325582504272461 0.12936733663082123
0.612403154373169 -0.02325582504272461 0.1387631893157959
0.612403154373169 -0.007751941680908203 0.12834754586219788
0.612403154373169 -0.007751941680908203 0.13628827035427094
0.612403154373169 0.007751941680908203 0.12746474146842957
0.6124032139778137 0.007751941680908203 0.1345326155424118
0.612403154373169 0.02325582504272461 0.12713439762592316
0.612403154373169 0.02325582504272461 0.13360446691513062
0.612403154373169 0.038759708404541016 0.1269446164369583
0.612403154373169 0.038759708404541016 0.13306987285614014
0.612403154373169 0.05426359176635742 0.12652337551116943
0.612403154373169 0.05426358804106712 0.13259361684322357
0.612403154373169 0.06976747512817383 0.1252279281616211
0.612403154373169 0.06976748257875443 0.13198347389698029
0.612403154373169 0.08527135848999023 0.11528844386339188
0.612403154373169 0.08527135848999023 0.1241493821144104
0.612403154373169 0.10077524185180664 0.11465618014335632
0.612403154373169 0.10077523440122604 0.12115505337715149
0.612403154373169 0.11627912521362305 0.11466275155544281
0.612403154373169 0.11627913266420364 0.11883223056793213
0.612403154373169 0.1317828893661499 0.11571359634399414
0.612403154373169 0.1317828893661499 0.11687985807657242
0.6279069185256958 -0.08527129888534546 0.1401817947626114
0.6279069185256958 -0.08527129888534546 0.14782162010669708
0.6279069185256958 -0.06976741552352905 0.13108718395233154
0.627906858921051 -0.06976741552352905 0.14777487516403198
0.6279069185256958 -0.05426359176635742 0.13061055541038513
0.6279069185256958 -0.05426358804106712 0.14741213619709015
0.6279069185256958 -0.038759708404541016 0.13008874654769897
0.6279069185256958 -0.038759708404541016 0.1424209624528885
0.6279069185256958 -0.02325582504272461 0.12929385900497437
0.6279069185256958 -0.02325582504272461 0.13870781660079956
0.6279069185256958 -0.007751941680908203 0.1282658725976944
0.6279069185256958 -0.007751941680908203 0.1360861212015152
0.6279069185256958 0.007751941680908203 0.1274540275335312
0.6279069185256958 0.007751941680908203 0.134338840842247
0.6279069185256958 0.02325582504272461 0.1272541880607605
0.6279069185256958 0.02325582504272461 0.13349753618240356
0.6279069185256958 0.038759708404541016 0.12729378044605255
0.6279069185256958 0.038759708404541016 0.1329757273197174
0.6279069185256958 0.05426359176635742 0.12729781866073608
0.6279069185256958 0.05426359176635742 0.13239920139312744
0.6279069185256958 0.06976747512817383 0.11622332781553268
0.6279069185256958 0.06976747512817383 0.12079872190952301
0.6279069185256958 0.08527135848999023 0.11497187614440918
0.6279069185256958 0.08527135848999023 0.12300638854503632
0.6279069185256958 0.10077524185180664 0.11456149816513062
0.6279069185256958 0.10077523440122604 0.12012862414121628
0.6279069185256958 0.11627912521362305 0.11474795639514923
0.6279069185256958 0.11627911776304245 0.11814560741186142
0.6434108018875122 -0.08527129888534546 0.14035959541797638
0.6434108018875122 -0.08527129888534546 0.14794109761714935
0.6434108018875122 -0.06976741552352905 0.13107013702392578
0.6434108018875122 -0.06976741552352905 0.1478714495897293
0.6434108018875122 -0.05426359176635742 0.1305810958147049
0.6434108018875122 -0.05426359176635742 0.14748455584049225
0.6434108018875122 -0.038759708404541016 0.13005152344703674
0.6434108018875122 -0.038759708404541016 0.1432841718196869
0.6434108018875122 -0.02325582504272461 0.1292606145143509
0.6434108018875122 -0.02325582504272461 0.13930769264698029
0.6434108018875122 -0.007751941680908203 0.12828698754310608
0.6434108018875122 -0.007751941680908203 0.13623082637786865
0.6434108018875122 0.007751941680908203 0.12756475806236267
0.6434108018875122 0.00775194214656949 0.13431797921657562
0.6434108018875122 0.02325582504272461 0.1273711919784546
0.643410861492157 0.02325582504272461 0.1334848254919052
0.6434108018875122 0.038759708404541016 0.12752100825309753
0.6434108018875122 0.038759708404541016 0.13292816281318665
0.6434108018875122 0.05426359176635742 0.12760815024375916
0.643410861492157 0.05426359549164772 0.13229063153266907
0.6434108018875122 0.06976747512817383 0.11587289720773697
0.6434108018875122 0.06976747512817383 0.12414178997278214
0.6434108018875122 0.08527135848999023 0.11475691199302673
0.6434108018875122 0.08527135848999023 0.12208078801631927
0.6434108018875122 0.10077524185180664 0.11450149863958359
0.6434108018875122 0.10077524185180664 0.11937160789966583
0.6434108018875122 0.11627912521362305 0.11484061181545258
0.6434108018875122 0.11627911776304245 0.11767290532588959
0.6589146852493286 -0.08527129888534546 0.14094506204128265
0.6589146852493286 -0.08527129888534546 0.14803491532802582
0.6589146852493286 -0.06976741552352905 0.1311117559671402
0.6589146852493286 -0.06976741552352905 0.14793451130390167
0.6589146852493286 -0.05426359176635742 0.13056965172290802
0.6589146852493286 -0.05426359176635742 0.14752992987632751
0.6589146852493286 -0.038759708404541016 0.1300123631954193
0.6589146852493286 -0.038759708404541016 0.14427882432937622
0.6589146852493286 -0.02325582504272461 0.12923866510391235
0.6589146852493286 -0.02325582504272461 0.14011754095554352
0.6589146852493286 -0.007751941680908203 0.12835504114627838
0.6589146852493286 -0.007751941680908203 0.1363646686077118
0.6589146852493286 0.007751941680908203 0.12765583395957947
0.6589146852493286 0.007751941680908203 0.13429884612560272
0.6589146852493286 0.02325582504272461 0.12750126421451569
0.6589146852493286 0.02325582504272461 0.13345082104206085
0.6589146852493286 0.038759708404541016 0.12777334451675415
0.6589146852493286 0.038759708404541016 0.13286282122135162
0.6589146852493286 0.05426359176635742 0.12815126776695251
0.6589146852493286 0.05426359176635742 0.13216356933116913
0.6589146852493286 0.06976747512817383 0.11558598279953003
0.6589146852493286 0.06976747512817383 0.12397728115320206
0.6589146852493286 0.08527135848999023 0.11461140215396881
0.6589146852493286 0.08527135848999023 0.12118785083293915
0.6589146852493286 0.10077524185180664 0.11449339240789413
0.6589147448539734 0.10077524185180664 0.11874783039093018
0.6589146852493286 0.11627912521362305 0.1153092235326767
0.6589146852493286 0.11627912521362305 0.11706686019897461
0.674418568611145 -0.08527129888534546 0.14177289605140686
0.674418568611145 -0.08527129888534546 0.14803025126457214
0.674418568611145 -0.06976741552352905 0.13119691610336304
0.674418568611145 -0.06976742297410965 0.1479397416114807
0.674418568611145 -0.05426359176635742 0.13058778643608093
0.674418568611145 -0.05426359176635742 0.14750796556472778
0.674418568611145 -0.038759708404541016 0.13002510368824005
0.674418568611145 -0.038759708404541016 0.14397259056568146
0.674418568611145 -0.02325582504272461 0.12929096817970276
0.674418568611145 -0.02325582504272461 0.1399245411157608
0.674418568611145 -0.007751941680908203 0.12840691208839417
0.674418568611145 -0.007751941680908203 0.13604041934013367
0.674418568611145 0.007751941680908203 0.12757545709609985
0.674418568611145 0.007751941680908203 0.13407516479492188
0.674418568611145 0.02325582504272461 0.12751322984695435
0.674418568611145 0.02325582504272461 0.13330312073230743
0.674418568611145 0.038759708404541016 0.12846256792545319
0.674418568611145 0.03875970467925072 0.1326499730348587
0.674418568611145 0.06976747512817383 0.11546457558870316
0.674418568611145 0.06976747512817383 0.12189888954162598
0.674418568611145 0.08527135848999023 0.11467837542295456
0.674418568611145 0.08527135848999023 0.11997061222791672
0.674418568611145 0.10077524185180664 0.11487654596567154
0.674418568611145 0.10077524185180664 0.11795730143785477
0.6899224519729614 -0.08527129888534546 0.14286434650421143
0.6899224519729614 -0.08527129888534546 0.1479538232088089
0.6899224519729614 -0.06976741552352905 0.13127511739730835
0.6899224519729614 -0.06976741552352905 0.14788226783275604
0.6899224519729614 -0.05426359176635742 0.13061174750328064
0.6899224519729614 -0.05426358804106712 0.14738278090953827
0.6899224519729614 -0.038759708404541016 0.13007383048534393
0.6899224519729614 -0.038759708404541016 0.14236530661582947
0.6899224519729614 -0.02325582504272461 0.12937894463539124
0.6899224519729614 -0.02325582504272461 0.13885292410850525
0.6899224519729614 -0.007751941680908203 0.1283915638923645
0.6899224519729614 -0.007751941680908203 0.1354687511920929
0.6899224519729614 0.007751941680908203 0.12731732428073883
0.6899224519729614 0.007751941680908203 0.13376979529857635
0.6899224519729614 0.02325582504272461 0.1275378167629242
0.6899225115776062 0.02325582504272461 0.13308995962142944
0.6899224519729614 0.038759708404541016 0.13027489185333252
0.6899224519729614 0.038759708404541016 0.13212250173091888
0.6899224519729614 0.06976747512817383 0.11518372595310211
0.6899223923683167 0.06976747512817383 0.12033876776695251
0.6899224519729614 0.08527135848999023 0.11514795571565628
0.6899224519729614 0.08527135103940964 0.11819833517074585
0.7054263353347778 -0.08527129888534546 0.14382155239582062
0.7054263353347778 -0.08527129888534546 0.14782673120498657
0.7054263353347778 -0.06976741552352905 0.13131213188171387
0.7054263353347778 -0.06976741552352905 0.14780020713806152
0.7054263353347778 -0.05426359176635742 0.1306544691324234
0.7054263353347778 -0.05426359176635742 0.14619049429893494
0.7054263353347778 -0.038759708404541016 0.13012473285198212
0.7054263353347778 -0.038759708404541016 0.1406375765800476
0.7054263353347778 -0.02325582504272461 0.1294584721326828
0.7054263353347778 -0.02325582504272461 0.13758575916290283
0.7054263353347778 -0.007751941680908203 0.12827472388744354
0.7054263353347778 -0.007751941680908203 0.13485044240951538
0.7054263353347778 0.007751941680908203 0.12710779905319214
0.7054263353347778 0.007751941680908203 0.13347920775413513
0.7054263353347778 0.02325582504272461 0.1285848766565323
0.7054263353347778 0.02325582504272461 0.13269908726215363
0.7054263353347778 0.05426359176635742 0.11577744036912918
0.7054263353347778 0.05426359176635742 0.11887219548225403
0.7054263353347778 0.06976747512817383 0.11470679938793182
0.7054263353347778 0.06976747512817383 0.11967270076274872
0.7054263353347778 0.08527135848999023 0.11577367037534714
0.7054263353347778 0.08527135848999023 0.11693332344293594
0.7209302186965942 -0.08527129888534546 0.1442260891199112
0.7209302186965942 -0.08527129143476486 0.1477394849061966
0.7209302186965942 -0.06976741552352905 0.13132934272289276
0.7209302186965942 -0.06976741552352905 0.14774763584136963
0.7209302186965942 -0.05426359176635742 0.13070780038833618
0.7209302186965942 -0.05426359176635742 0.14501403272151947
0.7209302186965942 -0.038759708404541016 0.1301645040512085
0.7209302186965942 -0.038759708404541016 0.13976088166236877
0.7209302186965942 -0.02325582504272461 0.1295110285282135
0.7209302186965942 -0.02325582504272461 0.13669206202030182
0.7209302186965942 -0.007751941680908203 0.12859703600406647
0.7209302186965942 -0.007751941680908203 0.1344485878944397
0.7209302186965942 0.007751941680908203 0.12787674367427826
0.7209302186965942 0.007751941680908203 0.13330255448818207
0.7209302186965942 0.02325582504272461 0.13125674426555634
0.7209302186965942 0.02325582504272461 0.1319252848625183
0.7209302186965942 0.05426359176635742 0.11494830250740051
0.7209302186965942 0.05426359176635742 0.11999484896659851
0.7209302186965942 0.06976747512817383 0.11466410011053085
0.7209302186965942 0.06976747512817383 0.11870294064283371
0.7209302186965942 0.08527135848999023 0.11623485386371613
0.7209302186965942 0.08527135103940964 0.11632572114467621
0.7364341020584106 -0.08527129888534546 0.14430390298366547
0.7364341020584106 -0.08527129888534546 0.14765667915344238
0.7364341020584106 -0.06976741552352905 0.13124625384807587
0.7364341020584106 -0.06976741552352905 0.1476879119873047
0.7364341020584106 -0.05426359176635742 0.13068801164627075
