-0.6899224519729614 0.1289728283882141 0.05426359176635742
-0.6899224519729614 0.14703820645809174 0.02325582504272461
-0.6899224519729614 0.1400185376405716 0.038759708404541016
-0.6899224519729614 0.15891218185424805 0.007751941680908203
-0.6899224519729614 0.15067873895168304 0.08527135848999023
-0.6899224519729614 0.17848865687847137 0.06976747512817383
-0.6899224519729614 0.1994534432888031 0.05426359176635742
-0.6899224519729614 0.22199538350105286 0.038759708404541016
-0.6899224519729614 0.24637606739997864 0.02325582504272461
-0.6899224519729614 0.25849297642707825 -0.007751941680908203
-0.6899224519729614 0.28671935200691223 -0.02325582504272461
-0.6899224519729614 0.27674931287765503 0.007751941680908203
-0.6899224519729614 0.3110353648662567 -0.007751941680908203
-0.6899224519729614 0.3301599621772766 -0.038759708404541016
-0.6899224519729614 0.35435160994529724 -0.02325582504272461
-0.6899224519729614 0.38454699516296387 -0.038759708404541016
-0.674418568611145 -0.8412150740623474 0.5038759708404541
-0.674418568611145 -0.8250831961631775 0.4883720874786377
-0.674418568611145 -0.8104817867279053 0.5193798542022705
-0.674418568611145 -0.7231089472770691 0.4728682041168213
-0.674418568611145 -0.6597093939781189 0.4573643207550049
-0.674418568611145 -0.663217306137085 0.5193798542022705
-0.674418568611145 -0.6129350662231445 0.5038759708404541
-0.674418568611145 -0.6101593971252441 0.4418604373931885
-0.674418568611145 -0.582743763923645 0.4883720874786377
-0.674418568611145 -0.5583378076553345 0.42635655403137207
-0.674418568611145 -0.5542146563529968 0.4728682041168213
-0.674418568611145 -0.5253003835678101 0.4573643207550049
-0.674418568611145 -0.5191901922225952 0.41085267066955566
-0.674418568611145 -0.4899493455886841 0.39534878730773926
-0.674418568611145 -0.4927061200141907 0.4418604373931885
-0.674418568611145 -0.46376222372055054 0.37984490394592285
-0.674418568611145 -0.4555363059043884 0.42635655403137207
-0.674418568611145 -0.4337943196296692 0.364341139793396
-0.674418568611145 -0.4233793616294861 0.41085267066955566
-0.674418568611145 -0.3964700400829315 0.3488372564315796
-0.674418568611145 -0.39753854274749756 0.39534878730773926
-0.674418568611145 -0.3738352060317993 0.37984490394592285
-0.674418568611145 -0.3596700429916382 0.3333333730697632
-0.674418568611145 -0.34688600897789 0.364341139793396
-0.674418568611145 -0.32719457149505615 0.3178294897079468
-0.674418568611145 -0.3176673650741577 0.3488372564315796
-0.674418568611145 -0.2890512943267822 0.28682172298431396
-0.674418568611145 -0.30026698112487793 0.30232560634613037
-0.674418568611145 -0.27144840359687805 0.25581395626068115
-0.674418568611145 -0.27917200326919556 0.27131783962249756
-0.674418568611145 -0.2855236530303955 0.3333333730697632
-0.674418568611145 -0.2596980333328247 0.24031007289886475
-0.674418568611145 -0.24679461121559143 0.22480618953704834
-0.674418568611145 -0.24697458744049072 0.3178294897079468
-0.674418568611145 -0.23255150020122528 0.20930230617523193
-0.674418568611145 -0.21012026071548462 0.19379842281341553
-0.674418568611145 -0.21856287121772766 0.30232560634613037
-0.6744186282157898 -0.19289177656173706 0.28682172298431396
-0.674418568611145 -0.16929811239242554 0.27131783962249756
-0.674418568611145 -0.1478615552186966 0.17829453945159912
-0.674418568611145 -0.14434634149074554 0.25581395626068115
-0.674418568611145 -0.1184636652469635 0.24031007289886475
-0.674418568611145 -0.11158789694309235 0.16279065608978271
-0.674418568611145 -0.08599847555160522 0.1472867727279663
-0.674418568611145 -0.08983474969863892 0.22480618953704834
-0.674418568611145 -0.0601978525519371 0.1317828893661499
-0.674418568611145 -0.058955445885658264 0.20930230617523193
-0.674418568611145 -0.03927198797464371 0.11627912521362305
-0.674418568611145 -0.03238040208816528 0.19379842281341553
-0.674418568611145 -0.014967510476708412 0.10077524185180664
-0.6744186282157898 -0.0074323201552033424 0.17829455435276031
-0.674418568611145 0.014340040273964405 0.16279065608978271
-0.674418568611145 0.03891678526997566 0.1472867876291275
-0.674418568611145 0.057240888476371765 0.08527135848999023
-0.674418568611145 0.06096258759498596 0.1317828893661499
-0.674418568611145 0.08579395711421967 0.11627911776304245
-0.674418568611145 0.10326704382896423 0.06976747512817383
-0.674418568611145 0.11621454358100891 0.10077524185180664
-0.674418568611145 0.1220535933971405 0.05426359176635742
-0.674418568611145 0.1453215330839157 -0.007751941680908203
-0.674418568611145 0.1439441591501236 0.007751941680908203
-0.674418568611145 0.14261332154273987 0.02325582504272461
-0.674418568611145 0.13426339626312256 0.038759708404541016
-0.674418568611145 0.15940392017364502 -0.007751941680908203
-0.674418568611145 0.14998437464237213 0.08527135848999023
-0.674418568611145 0.16493144631385803 -0.007751941680908203
-0.674418568611145 0.17607131600379944 0.06976747512817383
-0.674418568611145 0.18862351775169373 -0.007751941680908203
-0.674418568611145 0.19808675348758698 0.05426359176635742
-0.674418568611145 0.2193758189678192 0.038759708404541016
-0.674418568611145 0.25034868717193604 -0.007751941680908203
-0.674418568611145 0.24398252367973328 0.02325582318007946
-0.674418568611145 0.28294241428375244 -0.02325582504272461
-0.674418568611145 0.2741323411464691 0.007751941680908203
-0.674418568611145 0.30630332231521606 -0.007751941680908203
-0.674418568611145 0.3231815695762634 -0.038759708404541016
-0.674418568611145 0.36033472418785095 -0.05426359176635742
-0.674418568611145 0.34891214966773987 -0.02325582504272461
-0.674418568611145 0.3825232982635498 -0.038759708404541016
-0.674418568611145 0.3995940685272217 -0.05426359176635742
-0.6589146852493286 -0.8039250373840332 0.5038759708404541
-0.6589146852493286 -0.7814281582832336 0.4883720874786377
-0.6589146852493286 -0.7462003231048584 0.5193798542022705
-0.6589146852493286 -0.7082611322402954 0.4728682041168213
-0.6589146852493286 -0.7206272482872009 0.5193798542022705
-0.6589146852493286 -0.660675585269928 0.4573643207550049
-0.6589146852493286 -0.6241737604141235 0.5038759708404541
-0.6589146256446838 -0.610757052898407 0.4418604373931885
-0.6589146852493286 -0.5898610949516296 0.4883720576763153
-0.6589146852493286 -0.5629556775093079 0.42635655403137207
-0.6589146852493286 -0.5594152808189392 0.4728682041168213
-0.6589146852493286 -0.5250198841094971 0.41085267066955566
-0.6589146852493286 -0.5290161967277527 0.4573643207550049
-0.6589146852493286 -0.49720144271850586 0.39534878730773926
-0.6589146852493286 -0.49553632736206055 0.4418604373931885
-0.6589146852493286 -0.47464773058891296 0.37984490394592285
-0.6589146852493286 -0.44669079780578613 0.364341139793396
-0.6589146256446838 -0.45685651898384094 0.42635655403137207
-0.6589146852493286 -0.41118741035461426 0.3488372564315796
-0.6589146852493286 -0.42377689480781555 0.41085267066955566
-0.6589146852493286 -0.396850049495697 0.39534878730773926
-0.6589146852493286 -0.3691796064376831 0.3333333730697632
-0.6589146852493286 -0.3721352219581604 0.37984490394592285
-0.6589146852493286 -0.3358582854270935 0.3178294897079468
-0.6589146852493286 -0.34423044323921204 0.364341139793396
-0.6589146852493286 -0.30739232897758484 0.30232560634613037
-0.6589146852493286 -0.31348752975463867 0.3488372564315796
-0.6589146852493286 -0.2916971445083618 0.28682172298431396
-0.6589146852493286 -0.27229949831962585 0.25581395626068115
-0.6589146852493286 -0.28095269203186035 0.27131783962249756
-0.6589146852493286 -0.27787721157073975 0.3333333730697632
-0.6589146852493286 -0.261258065700531 0.24031007289886475
-0.6589146852493286 -0.2501063346862793 0.22480618953704834
-0.6589146852493286 -0.23871244490146637 0.20930230617523193
-0.6589146852493286 -0.23947544395923615 0.3178294897079468
-0.6589146852493286 -0.2159782350063324 0.19379842281341553
-0.6589146852493286 -0.21110759675502777 0.30232560634613037
-0.6589146852493286 -0.18782484531402588 0.28682172298431396
-0.6589146852493286 -0.15577170252799988 0.17829453945159912
-0.6589146852493286 -0.15991613268852234 0.27131783962249756
-0.6589146852493286 -0.1333332508802414 0.25581395626068115
-0.6589146852493286 -0.11668168753385544 0.16279065608978271
-0.6589146852493286 -0.10599812865257263 0.24031007289886475
-0.6589146852493286 -0.0895955041050911 0.1472867727279663
-0.6589146852493286 -0.07543305307626724 0.22480618953704834
-0.6589146852493286 -0.06781747937202454 0.1317828893661499
-0.6589146852493286 -0.05011419951915741 0.11627911776304245
-0.6589146852493286 -0.04847331345081329 0.20930230617523193
-0.6589146852493286 -0.03418903797864914 0.10077524185180664
-0.6589146852493286 -0.0234665609896183 0.19379842281341553
-0.6589146852493286 -0.017963454127311707 0.08527135848999023
-0.6589146852493286 0.0016330378130078316 0.06976747512817383
-0.6589146852493286 -0.0026449854485690594 0.17829453945159912
-0.6589146852493286 0.018658600747585297 0.16279065608978271
-0.6589146852493286 0.040912847965955734 0.1472867727279663
-0.6589146852493286 0.0640307366847992 0.1317828893661499
-0.6589146852493286 0.09016212821006775 0.11627912521362305
-0.6589146852493286 0.10838313400745392 0.05426359176635742
-0.6589146852493286 0.12465523183345795 -0.02325582504272461
-0.6589146852493286 0.12410584837198257 -0.007751941680908203
-0.6589146852493286 0.13007967174053192 0.007751941680908203
-0.6589146852493286 0.13007929921150208 0.02325582504272461
-0.6589146852493286 0.12326626479625702 0.038759708404541016
-0.6589146852493286 0.12117978930473328 0.10077524185180664
-0.6589146852493286 0.14548754692077637 -0.02325582504272461
-0.6589146852493286 0.15067091584205627 0.08527135848999023
-0.6589146852493286 0.1744118183851242 0.06976747512817383
-0.6589146852493286 0.20603138208389282 -0.007751941680908203
-0.6589146852493286 0.19680431485176086 0.05426359176635742
-0.6589146852493286 0.21740669012069702 0.038759708404541016
-0.6589146852493286 0.2438947856426239 -0.007751941680908203
-0.6589146852493286 0.2422265112400055 0.02325582504272461
-0.6589146852493286 0.28093135356903076 -0.02325582504272461
-0.6589146852493286 0.27190107107162476 0.007751941680908203
-0.6589146852493286 0.3037654161453247 -0.007751941680908203
-0.6589146852493286 0.3182256817817688 -0.03875970467925072
-0.6589146852493286 0.3407946228981018 -0.02325582504272461
-0.6589146852493286 0.35040026903152466 -0.05426359176635742
-0.6589146852493286 0.37622469663619995 -0.038759708404541016
-0.6589146852493286 0.3851860761642456 -0.06976741552352905
-0.6589146852493286 0.39984604716300964 -0.05426359176635742
-0.6589146852493286 0.4226287007331848 -0.08527129888534546
-0.6589146852493286 0.41866543889045715 -0.06976741552352905
-0.6589146852493286 0.4314662218093872 -0.08527129888534546
-0.643410861492157 -0.7368693351745605 0.5038759708404541
-0.643410861492157 -0.7287092208862305 0.4883720874786377
-0.643410861492157 -0.6983564496040344 0.4728681743144989
-0.643410861492157 -0.6567255258560181 0.4573643207550049
-0.643410861492157 -0.6465178728103638 0.5038759708404541
-0.643410861492157 -0.6059260964393616 0.4418604373931885
-0.643410861492157 -0.6005656719207764 0.4883720874786377
-0.643410861492157 -0.5665379762649536 0.4728682041168213
-0.643410861492157 -0.563697338104248 0.42635655403137207
-0.643410861492157 -0.5285186767578125 0.41085267066955566
-0.643410861492157 -0.5348119139671326 0.4573643207550049
-0.643410861492157 -0.504214346408844 0.39534878730773926
-0.6434108018875122 -0.5006544589996338 0.4418604373931885
-0.643410861492157 -0.4828045964241028 0.37984490394592285
-0.643410861492157 -0.457425594329834 0.364341139793396
-0.643410861492157 -0.46177011728286743 0.42635655403137207
-0.643410861492157 -0.42312565445899963 0.3488372564315796
-0.6434108018875122 -0.4262283742427826 0.41085267066955566
-0.643410861492157 -0.3986729383468628 0.39534878730773926
-0.643410861492157 -0.381352037191391 0.3333333730697632
-0.643410861492157 -0.37212425470352173 0.37984490394592285
-0.6434109210968018 -0.3462899923324585 0.3178294897079468
-0.643410861492157 -0.3431967496871948 0.364341139793396
-0.643410861492157 -0.3199913203716278 0.30232560634613037
-0.643410861492157 -0.31102216243743896 0.3488372564315796
-0.643410861492157 -0.28813645243644714 0.27131783962249756
-0.643410861492157 -0.30155009031295776 0.28682172298431396
-0.643410861492157 -0.2758867144584656 0.25581395626068115
-0.643410861492157 -0.2644622027873993 0.24031007289886475
-0.643410861492157 -0.2710244059562683 0.3333333730697632
-0.643410861492157 -0.242267444729805 0.20930230617523193
-0.643410861492157 -0.2556643784046173 0.22480618953704834
-0.643410861492157 -0.23611539602279663 0.3178294897079468
-0.6434109210968018 -0.22255277633666992 0.19379842281341553
-0.643410861492157 -0.20655177533626556 0.30232560634613037
-0.6434109210968018 -0.17992576956748962 0.28682172298431396
-0.643410861492157 -0.1672031134366989 0.17829453945159912
-0.643410861492157 -0.1536082625389099 0.27131783962249756
-0.643410861492157 -0.12214913219213486 0.16279065608978271
-0.643410861492157 -0.1263384073972702 0.25581395626068115
-0.6434109210968018 -0.09416744112968445 0.1472867727279663
-0.643410861492157 -0.09635348618030548 0.24031007289886475
-0.643410861492157 -0.0731535404920578 0.1317828893661499
-0.643410861492157 -0.05728945881128311 0.11627912521362305
-0.643410861492157 -0.06636376678943634 0.22480618953704834
-0.643410861492157 -0.043361298739910126 0.10077524185180664
-0.643410861492157 -0.040884289890527725 0.20930230617523193
-0.643410861492157 -0.03046382963657379 0.08527135848999023
-0.643410861492157 -0.010086270049214363 0.05426359176635742
-0.643410861492157 -0.02228250354528427 0.06976748257875443
-0.643410861492157 -0.018723975867033005 0.19379840791225433
-0.643410861492157 0.0028750651981681585 0.17829453945159912
-0.6434109210968018 0.0239986814558506 0.16279065608978271
-0.643410861492157 0.04873816668987274 0.05426359176635742
-0.643410861492157 0.04438242316246033 0.1472867727279663
-0.643410861492157 0.06962651014328003 0.1317828893661499
-0.643410861492157 0.08809031546115875 0.05426359176635742
-0.643410861492157 0.09496570378541946 0.11627912521362305
-0.6434108018875122 0.11400289833545685 0.038759708404541016
-0.643410861492157 0.1284540593624115 0.007751941680908203
-0.643410861492157 0.12428466230630875 0.02325582504272461
-0.643410861492157 0.12450991570949554 0.10077524185180664
-0.643410861492157 0.13226114213466644 -0.007751941680908203
-0.643410861492157 0.1514475792646408 0.08527135848999023
-0.643410861492157 0.17370444536209106 0.06976747512817383
-0.643410861492157 0.2053733468055725 -0.007751941680908203
-0.6434109210968018 0.19594943523406982 0.05426359176635742
-0.6434108018875122 0.216097891330719 0.038759708404541016
-0.643410861492157 0.24127474427223206 -0.007751941680908203
-0.6434108018875122 0.24116159975528717 0.02325582504272461
-0.643410861492157 0.269087016582489 0.007751941680908203
-0.643410861492157 0.28102266788482666 -0.02325582504272461
-0.643410861492157 0.3170555531978607 -0.038759708404541016
-0.643410861492157 0.3026401400566101 -0.007751941680908203
-0.643410861492157 0.34638723731040955 -0.05426359176635742
-0.643410861492157 0.3378460109233856 -0.02325582504272461
-0.6434109210968018 0.3709164261817932 -0.06976741552352905
-0.643410861492157 0.36958199739456177 -0.038759708404541016
-0.643410861492157 0.39771831035614014 -0.08527129888534546
-0.643410861492157 0.39707374572753906 -0.05426359176635742
-0.643410861492157 0.4211031198501587 -0.10077518224716187
-0.643410861492157 0.41574835777282715 -0.06976741552352905
-0.643410861492157 0.4334760308265686 -0.08527129888534546
-0.6434108018875122 0.44612836837768555 -0.10077518224716187
-0.6279069781303406 -0.7034203410148621 0.4883720874786377
-0.6279069781303406 -0.6842052340507507 0.4728682041168213
-0.6279069781303406 -0.6470257043838501 0.4573643207550049
-0.6279069781303406 -0.6183665990829468 0.4883720874786377
-0.6279069781303406 -0.6016891002655029 0.4418604373931885
-0.6279069781303406 -0.5668569207191467 0.42635655403137207
-0.6279069781303406 -0.5777155160903931 0.4728682041168213
-0.6279069185256958 -0.5438803434371948 0.4573643207550049
-0.6279069781303406 -0.533571183681488 0.41085267066955566
-0.6279069781303406 -0.5105924606323242 0.39534878730773926
-0.6279069781303406 -0.5075721740722656 0.4418604373931885
-0.6279069781303406 -0.49178820848464966 0.37984490394592285
-0.6279069781303406 -0.46487611532211304 0.364341139793396
-0.6279069781303406 -0.4663071632385254 0.42635655403137207
-0.6279069781303406 -0.43381017446517944 0.3488372564315796
-0.6279069781303406 -0.4298538565635681 0.41085267066955566
-0.6279069781303406 -0.39763787388801575 0.3333333730697632
-0.6279069781303406 -0.3999204635620117 0.39534878730773926
-0.6279069781303406 -0.37186890840530396 0.37984490394592285
-0.6279069781303406 -0.3592522442340851 0.3178294897079468
-0.6279069781303406 -0.3354625701904297 0.30232560634613037
-0.6279069185256958 -0.34227150678634644 0.364341139793396
-0.6279069185256958 -0.31490856409072876 0.28682172298431396
-0.6279069781303406 -0.30912476778030396 0.3488372564315796
-0.6279069781303406 -0.2987738251686096 0.27131783962249756
-0.6279069781303406 -0.27248746156692505 0.24031007289886475
-0.6279069781303406 -0.28617849946022034 0.25581395626068115
-0.6279069781303406 -0.259247362613678 0.22480618953704834
-0.6279069781303406 -0.26808884739875793 0.3333333730697632
-0.6279069781303406 -0.24476972222328186 0.20930230617523193
-0.6279069781303406 -0.2259683907032013 0.19379842281341553
-0.6279070377349854 -0.23319220542907715 0.3178294897079468
-0.6279070377349854 -0.2040756642818451 0.30232560634613037
-0.6279069781303406 -0.17721188068389893 0.17829453945159912
-0.6279069781303406 -0.17608964443206787 0.28682172298431396
-0.6279069781303406 -0.14716650545597076 0.27131783962249756
-0.6279069781303406 -0.1273283213376999 0.16279065608978271
-0.6279069781303406 -0.1206192746758461 0.25581395626068115
-0.6279069781303406 -0.09861768782138824 0.1472867727279663
-0.6279069781303406 -0.08867723494768143 0.24031007289886475
-0.6279069781303406 -0.07676596939563751 0.1317828893661499
-0.6279069781303406 -0.061128757894039154 0.11627912521362305
-0.6279069781303406 -0.061040740460157394 0.22480618953704834
-0.6279069781303406 -0.04836828261613846 0.10077524185180664
-0.6279069781303406 -0.02799987979233265 0.06976747512817383
-0.6279070377349854 -0.03734879195690155 0.08527136594057083
-0.6279069781303406 -0.03643864393234253 0.20930230617523193
-0.6279069781303406 -0.010209583677351475 0.038759708404541016
-0.6279069781303406 -0.019364673644304276 0.05426359176635742
-0.6279069781303406 -0.014548314735293388 0.19379842281341553
-0.6279070377349854 0.008043286390602589 0.17829453945159912
-0.6279070377349854 0.023726699873805046 0.038759708404541016
-0.6279069781303406 0.026531193405389786 0.16279065608978271
-0.6279069781303406 0.04762807488441467 0.1472867727279663
-0.6279069781303406 0.07257498055696487 0.1317828893661499
-0.6279069781303406 0.09900115430355072 0.11627912521362305
-0.6279069781303406 0.10637709498405457 0.038759708404541016
-0.6279069781303406 0.1313924789428711 -0.007751941680908203
-0.6279069781303406 0.12558098137378693 0.007751941680908203
-0.6279069781303406 0.11870895326137543 0.02325582504272461
-0.6279069781303406 0.1272698938846588 0.10077524185180664
-0.6279069781303406 0.1521974503993988 0.08527135848999023
-0.6279069781303406 0.17335262894630432 0.06976747512817383
-0.6279069781303406 0.20732715725898743 -0.007751941680908203
-0.6279070377349854 0.19543792307376862 0.05426359176635742
-0.6279070377349854 0.2152678221464157 0.038759708404541016
-0.6279069781303406 0.23173844814300537 -0.007751941215246916
-0.6279069781303406 0.2404940128326416 0.02325582318007946
-0.6279069781303406 0.2668820917606354 0.007751941680908203
-0.6279069781303406 0.27834439277648926 -0.02325582504272461
-0.6279069781303406 0.30071747303009033 -0.007751941680908203
-0.6279070377349854 0.3096095323562622 -0.038759708404541016
-0.6279069781303406 0.33534371852874756 -0.05426359176635742
-0.6279069781303406 0.33493196964263916 -0.02325582318007946
-0.6279069781303406 0.35961902141571045 -0.06976741552352905
-0.6279069781303406 0.36575013399124146 -0.038759708404541016
-0.6279069781303406 0.3831685185432434 -0.08527129143476486
-0.6279069781303406 0.3892259895801544 -0.05426359176635742
-0.6279069781303406 0.40623533725738525 -0.10077518224716187
-0.6279069185256958 0.41227784752845764 -0.06976741552352905
-0.6279069781303406 0.42705920338630676 -0.11627906560897827
-0.6279070377349854 0.4289547801017761 -0.08527129888534546
-0.6279069781303406 0.4467219114303589 -0.11627906560897827
-0.6279069781303406 0.44510626792907715 -0.10077518224716187
-0.6124030947685242 -0.6595259308815002 0.4728682041168213
-0.6124030947685242 -0.6347997784614563 0.4573643207550049
-0.6124030947685242 -0.6031981706619263 0.4418604373931885
-0.6124030947685242 -0.582561194896698 0.42635655403137207
-0.6124030947685242 -0.5961903929710388 0.4728682041168213
-0.6124030947685242 -0.5724506378173828 0.41085267066955566
-0.6124030947685242 -0.5551494359970093 0.4573643207550049
-0.612403154373169 -0.5170502662658691 0.39534878730773926
-0.6124030947685242 -0.5154611468315125 0.4418604373931885
-0.612403154373169 -0.49624502658843994 0.37984490394592285
-0.6124030947685242 -0.4716172218322754 0.364341139793396
-0.6124030947685242 -0.47154808044433594 0.42635655403137207
-0.6124030947685242 -0.4434663653373718 0.3488372564315796
-0.6124030947685242 -0.4328039884567261 0.41085267066955566
-0.6124030351638794 -0.41299545764923096 0.3333333730697632
-0.6124030947685242 -0.4006238579750061 0.39534878730773926
-0.6124030947685242 -0.37275153398513794 0.3178294897079468
-0.6124030947685242 -0.37102556228637695 0.37984490394592285
-0.6124030947685242 -0.35010698437690735 0.30232560634613037
-0.6124030947685242 -0.3405693471431732 0.364341139793396
-0.6124030947685242 -0.32733502984046936 0.28682172298431396
-0.6124030947685242 -0.3078407943248749 0.27131783962249756
-0.6124030947685242 -0.3062121272087097 0.3488372564315796
-0.6124030947685242 -0.2937127947807312 0.25581395626068115
-0.6124030947685242 -0.2794795632362366 0.24031008780002594
-0.6124030947685242 -0.2643905282020569 0.22480618953704834
-0.6124030947685242 -0.2643125057220459 0.3333333730697632
-0.6124030947685242 -0.24877828359603882 0.20930230617523193
-0.6124030947685242 -0.2288471758365631 0.19379842281341553
-0.6124030947685242 -0.22808778285980225 0.3178294897079468
-0.6124030947685242 -0.19999513030052185 0.30232560634613037
-0.6124030947685242 -0.18695491552352905 0.17829453945159912
-0.6124030947685242 -0.1725476086139679 0.28682172298431396
-0.6124030947685242 -0.1434071958065033 0.27131783962249756
-0.6124030947685242 -0.13147050142288208 0.1627906709909439
-0.612403154373169 -0.10173342376947403 0.1472867727279663
-0.6124030947685242 -0.11450865119695663 0.25581395626068115
-0.6124030351638794 -0.07935690879821777 0.1317828893661499
-0.6124030947685242 -0.08242261409759521 0.24031007289886475
-0.6124030947685242 -0.0639125257730484 0.11627912521362305
-0.6124030947685242 -0.055186208337545395 0.22480618953704834
-0.6124030947685242 -0.0407068133354187 0.08527135848999023
-0.6124030947685242 -0.05237957835197449 0.10077524185180664
-0.6124030947685242 -0.024473965167999268 0.05426359176635742
-0.612403154373169 -0.031500063836574554 0.06976747512817383
-0.6124030947685242 -0.0331881009042263 0.20930229127407074
-0.6124030947685242 -0.009545248001813889 -0.038759708404541016
-0.6124030947685242 -0.008708561770617962 -0.02325582504272461
-0.6124030947685242 -0.0153421089053154 0.038759708404541016
-0.6124030947685242 -0.00957854837179184 0.19379842281341553
-0.6124030947685242 -0.0009701347444206476 -0.05426359176635742
-0.6124030947685242 0.008694195188581944 -0.06976741552352905
-0.6124030947685242 0.015677232295274734 -0.038759708404541016
-0.6124030947685242 0.008354519493877888 -0.02325582504272461
-0.6124030947685242 0.010510681197047234 0.17829453945159912
-0.6124030947685242 0.026105795055627823 -0.08527129888534546
-0.6124030947685242 0.028214849531650543 -0.05426359176635742
-0.6124030947685242 0.027784982696175575 0.038759708404541016
-0.6124030947685242 0.029071658849716187 0.16279065608978271
-0.6124030947685242 0.04004307836294174 -0.08527129888534546
-0.6124030947685242 0.04009411856532097 -0.06976741552352905
-0.6124030947685242 0.05193748325109482 0.1472867727279663
-0.6124030351638794 0.07572158426046371 0.1317828893661499
-0.6124030947685242 0.09361286461353302 0.038759708404541016
-0.6124030947685242 0.11533916741609573 0.007751941680908203
-0.6124030947685242 0.11201989650726318 0.02325582504272461
-0.612403154373169 0.1023993194103241 0.11627912521362305
-0.6124030947685242 0.12776149809360504 -0.02325582504272461
-0.6124030947685242 0.1186845600605011 -0.007751941680908203
-0.6124030947685242 0.1314239352941513 0.10077524185180664
-0.6124030947685242 0.15415674448013306 0.08527135848999023
-0.6124030947685242 0.17463210225105286 0.06976747512817383
-0.6124030947685242 0.18215587735176086 -0.02325582318007946
-0.612403154373169 0.1957162320613861 0.05426359176635742
-0.6124030947685242 0.2154424786567688 0.038759708404541016
-0.6124030947685242 0.2405022829771042 0.02325582504272461
-0.6124030947685242 0.27022767066955566 -0.02325582504272461
-0.6124030947685242 0.2662745416164398 0.007751941680908203
-0.6124030947685242 0.297597736120224 -0.038759708404541016
-0.6124030947685242 0.2986118793487549 -0.007751941680908203
-0.6124030947685242 0.3185766339302063 -0.05426359176635742
-0.6124030947685242 0.3317797780036926 -0.02325582504272461
-0.6124030947685242 0.34410038590431213 -0.06976741552352905
-0.6124030351638794 0.3621423840522766 -0.038759708404541016
-0.6124030947685242 0.3689616322517395 -0.08527129888534546
-0.6124030351638794 0.3857622742652893 -0.05426359176635742
-0.6124030947685242 0.3973176181316376 -0.10077518224716187
-0.6124030947685242 0.4085407257080078 -0.06976741552352905
-0.6124030947685242 0.4198022484779358 -0.11627906560897827
-0.6124030947685242 0.4268891513347626 -0.08527129888534546
-0.6124030947685242 0.4551234245300293 -0.11627906560897827
-0.6124030947685242 0.44287434220314026 -0.10077518224716187
-0.5968992114067078 -0.6287849545478821 0.4573643207550049
-0.5968992114067078 -0.6144957542419434 0.4418604373931885
-0.5968992114067078 -0.5974494814872742 0.41085267066955566
-0.5968992114067078 -0.6018128395080566 0.42635655403137207
-0.5968992114067078 -0.5835670828819275 0.39534878730773926
-0.5968992114067078 -0.5696282386779785 0.4573643207550049
-0.5968992114067078 -0.5252194404602051 0.4418604373931885
-0.596899151802063 -0.5031130313873291 0.37984490394592285
-0.5968992114067078 -0.47731053829193115 0.364341139793396
-0.5968992114067078 -0.47820138931274414 0.42635655403137207
-0.5968992710113525 -0.45078960061073303 0.3488372564315796
-0.5968992114067078 -0.42661216855049133 0.3333333730697632
-0.5968992710113525 -0.43520528078079224 0.41085267066955566
-0.5968992114067078 -0.4010661840438843 0.39534878730773926
-0.5968992114067078 -0.3940720558166504 0.3178294897079468
-0.5968992114067078 -0.37043678760528564 0.37984490394592285
-0.5968992114067078 -0.3618481457233429 0.30232560634613037
-0.5968992114067078 -0.33834776282310486 0.28682172298431396
-0.5968992114067078 -0.33906835317611694 0.364341139793396
-0.5968992114067078 -0.31694576144218445 0.27131783962249756
-0.5968992114067078 -0.30356860160827637 0.3488372564315796
-0.5968992114067078 -0.28710848093032837 0.24031007289886475
-0.5968992114067078 -0.3015988767147064 0.25581395626068115
-0.5968992114067078 -0.27106189727783203 0.22480618953704834
-0.5968992114067078 -0.26081404089927673 0.3333333730697632
-0.596899151802063 -0.2553558349609375 0.20930229127407074
-0.5968992114067078 -0.23466435074806213 0.19379842281341553
-0.5968992114067078 -0.2238938957452774 0.3178294897079468
-0.5968992114067078 -0.19986732304096222 0.17829453945159912
-0.5968992114067078 -0.19550594687461853 0.30232560634613037
-0.5968992114067078 -0.16952481865882874 0.28682172298431396
-0.5968992114067078 -0.13521528244018555 0.16279065608978271
-0.5968992114067078 -0.14076176285743713 0.27131783962249756
-0.5968992710113525 -0.1032804548740387 0.1472867727279663
-0.5968992114067078 -0.1116308942437172 0.25581395626068115
-0.5968992114067078 -0.08124061673879623 0.1317828893661499
-0.5968992710113525 -0.07940559089183807 0.24031008780002594
-0.5968992114067078 -0.054956912994384766 0.10077524185180664
-0.5968992114067078 -0.06589129567146301 0.11627912521362305
-0.5968992114067078 -0.042834047228097916 0.08527135848999023
-0.5968992114067078 -0.05266658961772919 0.22480618953704834
-0.5968992114067078 -0.027128996327519417 0.05426359176635742
-0.5968992114067078 -0.03507787361741066 0.06976747512817383
-0.5968992114067078 -0.03082789108157158 0.20930230617523193
-0.5968992114067078 -0.010413607582449913 -0.06976741552352905
-0.596899151802063 -0.015706777572631836 -0.05426359176635742
-0.5968992114067078 -0.019590934738516808 -0.038759708404541016
-0.5968992114067078 -0.01790200173854828 -0.02325582504272461
-0.5968992114067078 -0.01492304913699627 -0.007751941680908203
-0.5968992114067078 -0.01149655319750309 0.007751941680908203
-0.5968992114067078 -0.012981990352272987 0.02325582504272461
-0.5968992114067078 -0.02254079468548298 0.038759708404541016
-0.5968992114067078 -0.0015775351785123348 -0.08527129888534546
-0.5968992114067078 0.0037942128255963326 0.007751941680908203
-0.5968992114067078 -0.006925622932612896 0.19379842281341553
-0.596899151802063 0.011288762092590332 -0.10077518224716187
-0.5968992114067078 0.013265380635857582 -0.02325582504272461
-0.5968992114067078 0.0083968760445714 -0.007751941680908203
-0.5968992114067078 0.012157272547483444 0.02325582504272461
-0.5968992114067078 0.011960661970078945 0.17829453945159912
-0.5968992114067078 0.029898786917328835 -0.038759708404541016
-0.5968992114067078 0.03175964206457138 0.038759708404541016
-0.5968992114067078 0.030982274562120438 0.16279065608978271
-0.5968992114067078 0.05388572812080383 -0.10077518224716187
-0.5968992114067078 0.046734124422073364 -0.05426359176635742
-0.5968992114067078 0.05822226405143738 -0.08527129888534546
-0.5968992114067078 0.056371018290519714 -0.06976741552352905
-0.5968992114067078 0.0548282153904438 0.1472867727279663
-0.5968992114067078 0.08359890431165695 0.038759708404541016
-0.5968992114067078 0.07774648815393448 0.1317828893661499
-0.5968992114067078 0.09959540516138077 0.02325582504272461
-0.5968992114067078 0.11154317855834961 -0.06976741552352905
-0.5968992114067078 0.10475589334964752 -0.05426359176635742
-0.5968992114067078 0.10215609520673752 -0.038759708404541016
-0.5968992114067078 0.10259838402271271 -0.02325582504272461
-0.5968992114067078 0.10306049883365631 -0.007751941680908203
-0.5968992114067078 0.10192994773387909 0.007751941680908203
-0.5968992114067078 0.10403357446193695 0.11627912521362305
-0.5968992114067078 0.11780974268913269 -0.06976741552352905
-0.5968992114067078 0.13080739974975586 -0.05426359176635742
-0.5968992114067078 0.1334875524044037 0.10077524185180664
-0.5968992114067078 0.15746621787548065 -0.038759708404541016
-0.5968992114067078 0.15638788044452667 0.08527135848999023
-0.5968992114067078 0.17690688371658325 0.06976747512817383
-0.5968992114067078 0.20396941900253296 -0.02325582504272461
-0.5968992114067078 0.19645704329013824 0.05426359176635742
-0.5968992710113525 0.2159441113471985 0.038759708404541016
-0.5968992114067078 0.24045172333717346 0.02325582504272461
-0.5968992114067078 0.25808534026145935 -0.02325582504272461
-0.5968992114067078 0.2652808129787445 0.007751941680908203
-0.5968992114067078 0.28662919998168945 -0.038759708404541016
-0.5968992114067078 0.29597458243370056 -0.007751941680908203
-0.5968992710113525 0.30958399176597595 -0.05426359176635742
-0.5968992114067078 0.33170488476753235 -0.06976741552352905
-0.5968992114067078 0.3286210000514984 -0.02325582504272461
-0.5968992114067078 0.3593575358390808 -0.08527129888534546
-0.5968992114067078 0.3592817187309265 -0.038759708404541016
-0.5968992114067078 0.3892071545124054 -0.10077518224716187
-0.5968992114067078 0.384360134601593 -0.05426359176635742
-0.5968992114067078 0.4048348069190979 -0.06976741552352905
-0.5968992114067078 0.4168771803379059 -0.11627906560897827
-0.5968992114067078 0.423826664686203 -0.08527129888534546
-0.5968992114067078 0.4414784610271454 -0.10077518224716187
-0.5968992114067078 0.4538775682449341 -0.11627906560897827
-0.5813953876495361 -0.6223156452178955 0.4418604373931885
-0.5813953876495361 -0.6273679733276367 0.4573643207550049
-0.5813953876495361 -0.599870502948761 0.41085267066955566
-0.5813953876495361 -0.6097739338874817 0.42635655403137207
-0.5813953876495361 -0.5852250456809998 0.39534878730773926
-0.5813953876495361 -0.5873539447784424 0.4573643207550049
-0.5813953876495361 -0.534781813621521 0.4418604373931885
-0.5813953876495361 -0.5094876885414124 0.37984490394592285
-0.5813953876495361 -0.48311108350753784 0.364341139793396
-0.5813953876495361 -0.4848478436470032 0.42635655403137207
-0.5813953876495361 -0.45884424448013306 0.3488372564315796
-0.5813953876495361 -0.4352004826068878 0.3333333730697632
-0.5813953876495361 -0.4377099871635437 0.41085267066955566
-0.5813953876495361 -0.41169214248657227 0.3178294897079468
-0.5813953876495361 -0.4016817808151245 0.39534878730773926
-0.5813953876495361 -0.3734716773033142 0.30232560634613037
-0.5813953876495361 -0.3702864646911621 0.37984490394592285
-0.5813953876495361 -0.3468555212020874 0.28682172298431396
-0.5813953876495361 -0.3384222984313965 0.364341139793396
-0.5813953876495361 -0.32277077436447144 0.27131783962249756
-0.5813953876495361 -0.305574893951416 0.25581395626068115
-0.5813953876495361 -0.30239248275756836 0.3488372564315796
-0.5813953876495361 -0.2898241877555847 0.24031007289886475
-0.5813953876495361 -0.2738291025161743 0.22480618953704834
-0.5813953876495361 -0.25854793190956116 0.20930230617523193
-0.5813953876495361 -0.2584773600101471 0.3333333730697632
-0.5813953876495361 -0.2421155422925949 0.19379842281341553
-0.5813953876495361 -0.21498601138591766 0.17829453945159912
-0.5813953876495361 -0.2223740518093109 0.3178294897079468
-0.5813953876495361 -0.1930747628211975 0.30232560634613037
-0.5813953876495361 -0.16747424006462097 0.28682172298431396
-0.5813953876495361 -0.1424504965543747 0.16279065608978271
-0.5813953876495361 -0.1394120454788208 0.27131783962249756
-0.5813953876495361 -0.1057189553976059 0.1472867727279663
-0.5813953876495361 -0.11058991402387619 0.25581395626068115
-0.5813953876495361 -0.06987527012825012 0.11627912521362305
-0.5813953876495361 -0.08492182195186615 0.1317828893661499
-0.5813953876495361 -0.07857409864664078 0.24031007289886475
-0.5813953876495361 -0.05762177333235741 0.10077524185180664
-0.5813953876495361 -0.04048505052924156 0.06976747512817383
-0.5813953876495361 -0.04660516977310181 0.08527135848999023
-0.5813953876495361 -0.05218081176280975 0.22480618953704834
-0.5813953876495361 -0.024883732199668884 -0.05426359176635742
-0.5813953876495361 -0.027751803398132324 -0.038759708404541016
-0.5813953876495361 -0.026984594762325287 -0.02325582504272461
-0.5813953876495361 -0.026347462087869644 -0.007751941680908203
-0.5813953876495361 -0.025243349373340607 0.007751941680908203
-0.5813953876495361 -0.024985890835523605 0.02325582504272461
-0.5813953876495361 -0.028123974800109863 0.038759708404541016
-0.5813953876495361 -0.03265177831053734 0.05426359176635742
-0.5813953876495361 -0.030209600925445557 0.20930230617523193
-0.5813953876495361 -0.013459675014019012 -0.08527129888534546
-0.5813953876495361 -0.02004733867943287 -0.06976741552352905
-0.5813953876495361 -0.003733149729669094 -0.10077518224716187
-0.5813953876495361 -0.006567919626832008 0.19379842281341553
-0.5813953876495361 0.014648521319031715 -0.11627906560897827
-0.5813953876495361 0.021485241129994392 -0.02325582504272461
-0.5813953876495361 0.014859453774988651 -0.007751941215246916
-0.5813953876495361 0.01492970623075962 0.007751941680908203
-0.5813953876495361 0.022231392562389374 0.02325582504272461
-0.5813953876495361 0.012249596416950226 0.17829453945159912
-0.5813953876495361 0.03740779310464859 -0.038759708404541016
-0.5813953876495361 0.03132660686969757 0.16279065608978271
-0.5813953876495361 0.047266870737075806 -0.11627906560897827
-0.5813953876495361 0.05121929943561554 -0.05426359176635742
-0.5813953876495361 0.046559881418943405 0.038759708404541016
-0.5813953876495361 0.06305763125419617 -0.10077518224716187
-0.5813953876495361 0.06459590792655945 -0.08527129888534546
-0.5813953876495361 0.0601869560778141 -0.06976741552352905
-0.5813953876495361 0.05508127063512802 0.1472867727279663
-0.5813953876495361 0.07375967502593994 0.038759708404541016
-0.5813953876495361 0.07787983119487762 0.1317828893661499
-0.5813953876495361 0.09963902831077576 -0.10077518224716187
-0.5813954472541809 0.0864773690700531 -0.08527129888534546
-0.5813953876495361 0.08919990062713623 -0.06976741552352905
-0.5813953876495361 0.09170113503932953 -0.05426359176635742
-0.5813953876495361 0.09180216491222382 -0.038759708404541016
-0.5813953876495361 0.09198744595050812 -0.02325582504272461
-0.5813953876495361 0.09218677878379822 -0.007751941680908203
-0.5813953876495361 0.09146513044834137 0.007751941680908203
-0.5813953876495361 0.08945375680923462 0.02325582504272461
-0.5813954472541809 0.1013118252158165 -0.10077518224716187
-0.5813953876495361 0.10419905185699463 0.11627911776304245
-0.5813953876495361 0.12227077782154083 -0.08527129888534546
-0.5813953876495361 0.13403885066509247 -0.06976741552352905
-0.5813953876495361 0.14582176506519318 -0.05426359176635742
-0.5813953876495361 0.13438501954078674 0.10077524930238724
-0.5813953876495361 0.15803876519203186 0.08527135848999023
-0.5813953876495361 0.19224274158477783 -0.038759708404541016
-0.5813953876495361 0.17859400808811188 0.06976747512817383
-0.5813953876495361 0.1970689594745636 0.05426359176635742
-0.5813953876495361 0.22433558106422424 -0.02325582504272461
-0.5813953876495361 0.21620583534240723 0.038759708404541016
-0.5813953876495361 0.23981207609176636 0.02325582504272461
-0.5813953876495361 0.24268722534179688 -0.02325582504272461
-0.5813953876495361 0.2638663351535797 0.007751941680908203
-0.5813953876495361 0.2807551622390747 -0.038759708404541016
-0.5813953876495361 0.2937606871128082 -0.007751941680908203
-0.5813953876495361 0.304998517036438 -0.05426359176635742
-0.5813953876495361 0.3299446403980255 -0.06976741552352905
-0.5813953876495361 0.32586073875427246 -0.02325582504272461
-0.5813953876495361 0.3604373633861542 -0.08527129888534546
-0.5813953876495361 0.35675033926963806 -0.038759708404541016
-0.5813953876495361 0.3910709321498871 -0.10077518224716187
-0.5813953876495361 0.38265159726142883 -0.05426359176635742
-0.5813953876495361 0.40195566415786743 -0.06976741552352905
-0.5813953876495361 0.419541597366333 -0.11627906560897827
-0.5813953876495361 0.42034634947776794 -0.08527129888534546
-0.5813953876495361 0.43848639726638794 -0.10077518224716187
-0.5813953876495361 0.4468289017677307 -0.11627906560897827
-0.5658915042877197 -0.6254497766494751 0.4418604373931885
-0.5658915042877197 -0.6080229878425598 0.42635655403137207
-0.5658915042877197 -0.590143084526062 0.41085267066955566
-0.5658915042877197 -0.5680818557739258 0.39534878730773926
-0.5658915042877197 -0.5480222702026367 0.4418604373931885
-0.5658915042877197 -0.5115695595741272 0.37984490394592285
-0.5658915042877197 -0.49388453364372253 0.42635655403137207
-0.5658915042877197 -0.4883196949958801 0.364341139793396
-0.5658915042877197 -0.46355873346328735 0.3488372564315796
-0.5658915042877197 -0.44418612122535706 0.3333333730697632
-0.5658915042877197 -0.44092655181884766 0.41085267066955566
-0.5658915042877197 -0.42057693004608154 0.3178294897079468
-0.5658915042877197 -0.40251070261001587 0.39534878730773926
-0.5658915042877197 -0.38997557759284973 0.30232560634613037
-0.5658915042877197 -0.37003493309020996 0.37984490394592285
-0.5658915042877197 -0.3532625436782837 0.28682172298431396
-0.5658915042877197 -0.33790311217308044 0.364341139793396
-0.5658915042877197 -0.32702067494392395 0.27131783962249756
-0.5658915042877197 -0.30631768703460693 0.25581395626068115
-0.5658915042877197 -0.2899373769760132 0.24031007289886475
-0.5658915042877197 -0.30139392614364624 0.3488372564315796
-0.5658915042877197 -0.2748148739337921 0.22480618953704834
-0.5658915042877197 -0.2609190046787262 0.20930230617523193
-0.5658915042877197 -0.24661970138549805 0.19379842281341553
-0.5658915042877197 -0.2554166316986084 0.3333333730697632
-0.5658915042877197 -0.22760635614395142 0.17829453945159912
-0.5658915042877197 -0.2206028699874878 0.3178294897079468
-0.5658915042877197 -0.19159051775932312 0.30232560634613037
-0.5658915042877197 -0.1650475263595581 0.28682172298431396
-0.5658915042877197 -0.15593184530735016 0.16279065608978271
-0.5658915042877197 -0.1381388157606125 0.27131783962249756
-0.5658915042877197 -0.11111797392368317 0.1472867727279663
-0.5658915042877197 -0.10995589196681976 0.25581395626068115
-0.5658915042877197 -0.08905187994241714 0.1317828893661499
-0.5658915042877197 -0.0738975778222084 0.11627912521362305
-0.5658915042877197 -0.07856971770524979 0.24031007289886475
-0.5658915042877197 -0.06204156577587128 0.10077524185180664
-0.5658915042877197 -0.04073113948106766 0.05426359176635742
-0.5658915042877197 -0.0455695241689682 0.06976747512817383
-0.5658915042877197 -0.05387149006128311 0.08527135848999023
-0.5658915042877197 -0.05230800807476044 0.22480618953704834
-0.5658915042877197 -0.024090319871902466 -0.08527129888534546
-0.5658915042877197 -0.029928140342235565 -0.06976741552352905
-0.5658915042877197 -0.0331210158765316 -0.05426359176635742
-0.5658915042877197 -0.035878315567970276 -0.038759712129831314
-0.5658915042877197 -0.03522754833102226 -0.02325582504272461
-0.5658915042877197 -0.03495365381240845 -0.00775194214656949
-0.5658915042877197 -0.03339429199695587 0.007751941680908203
-0.5658915042877197 -0.03252417966723442 0.02325582504272461
-0.5658915042877197 -0.03727437183260918 0.038759708404541016
-0.5658915042877197 -0.030507061630487442 0.20930230617523193
-0.5658915042877197 -0.01634729839861393 -0.10077518224716187
-0.5658915042877197 -0.00325569580309093 -0.11627906560897827
-0.5658915042877197 -0.006766289006918669 0.19379842281341553
-0.5658915042877197 0.021298734471201897 -0.13178294897079468
-0.5658915042877197 0.011950021609663963 0.17829453945159912
-0.5658915042877197 0.02828150987625122 -0.02325582504272461
-0.5658915042877197 0.02449040859937668 -0.007751941680908203
-0.5658915042877197 0.025273935869336128 0.007751941680908203
-0.5658915042877197 0.033433955162763596 0.02325582504272461
-0.5658915042877197 0.03071264550089836 0.16279065608978271
-0.5658915042877197 0.03880446031689644 -0.13178294897079468
-0.5658915042877197 0.047812674194574356 -0.05426359176635742
-0.5658915042877197 0.039226509630680084 -0.038759708404541016
-0.5658915042877197 0.059743016958236694 -0.11627907305955887
-0.5658915042877197 0.05656300112605095 -0.06976741552352905
-0.5658915042877197 0.054496120661497116 0.1472867727279663
-0.5658915042877197 0.07707017660140991 -0.06976741552352905
-0.5658915042877197 0.08082803338766098 -0.05426359176635742
-0.5658915042877197 0.0814623236656189 -0.038759708404541016
-0.5658915042877197 0.08189518749713898 -0.02325582504272461
-0.5658915042877197 0.08233542740345001 -0.007751941680908203
-0.5658915042877197 0.08222151547670364 0.007751941680908203
-0.5658915042877197 0.08158179372549057 0.02325582504272461
-0.5658915042877197 0.07653126120567322 0.1317828893661499
-0.5658915042877197 0.10250578820705414 0.11627912521362305
-0.5658915042877197 0.11798091232776642 -0.10077518224716187
-0.5658915042877197 0.13294276595115662 -0.08527129888534546
-0.5658915042877197 0.1409577876329422 -0.06976741552352905
-0.5658915042877197 0.13374531269073486 0.10077524930238724
-0.5658915042877197 0.15680131316184998 -0.05426359176635742
-0.5658915042877197 0.15801644325256348 0.08527135848999023
-0.5658915042877197 0.1787201464176178 0.06976747512817383
-0.5658915042877197 0.19956481456756592 -0.038759708404541016
-0.5658915042877197 0.19716113805770874 0.05426359549164772
-0.5658915042877197 0.2159269005060196 0.038759708404541016
-0.5658915042877197 0.23822630941867828 0.02325582504272461
-0.5658915042877197 0.26232337951660156 0.007751941680908203
-0.5658915042877197 0.27891623973846436 -0.038759708404541016
-0.5658915042877197 0.2919780910015106 -0.007751941680908203
-0.5658915042877197 0.3049446940422058 -0.05426359176635742
-0.5658915042877197 0.33313819766044617 -0.06976741552352905
-0.5658915042877197 0.3232733905315399 -0.02325582504272461
-0.5658915042877197 0.35425305366516113 -0.038759708404541016
-0.5658915042877197 0.3743562698364258 -0.08527129888534546
-0.5658915042877197 0.38092729449272156 -0.05426359176635742
-0.5658915042877197 0.40233314037323 -0.10077518224716187
-0.5658915042877197 0.39949116110801697 -0.06976741552352905
-0.5658915042877197 0.4168943166732788 -0.08527129888534546
-0.5658915042877197 0.43234431743621826 -0.10077518224716187
-0.5503876209259033 -0.6215455532073975 0.4418604373931885
-0.5503876209259033 -0.6063088178634644 0.42635655403137207
-0.5503876209259033 -0.5729732513427734 0.41085267066955566
-0.5503876209259033 -0.5607975721359253 0.4418604373931885
-0.5503876209259033 -0.5399153232574463 0.39534878730773926
-0.5503876209259033 -0.5193885564804077 0.37984490394592285
-0.5503876209259033 -0.504126787185669 0.42635655403137207
-0.5503876209259033 -0.4954831898212433 0.364341139793396
-0.5503876209259033 -0.4717758893966675 0.3488372564315796
-0.5503876209259033 -0.4513677954673767 0.3333333730697632
-0.5503876209259033 -0.44599449634552 0.41085267066955566
-0.5503876209259033 -0.4295920133590698 0.3178294897079468
-0.5503876209259033 -0.40161043405532837 0.30232560634613037
-0.5503876209259033 -0.4037541449069977 0.39534878730773926
-0.5503876209259033 -0.3653663098812103 0.28682172298431396
-0.5503876209259033 -0.37039914727211 0.37984490394592285
-0.5503876209259033 -0.3335033655166626 0.27131783962249756
-0.5503876209259033 -0.3377426266670227 0.364341139793396
-0.5503876209259033 -0.30849695205688477 0.25581395626068115
-0.5503876209259033 -0.29078811407089233 0.24031007289886475
-0.5503876209259033 -0.3000454604625702 0.3488372564315796
-0.5503876209259033 -0.27622854709625244 0.22480618953704834
-0.5503876209259033 -0.2637019157409668 0.20930230617523193
-0.5503876209259033 -0.25294387340545654 0.19379842281341553
-0.5503876209259033 -0.2533290982246399 0.3333333730697632
-0.5503876209259033 -0.23635680973529816 0.17829453945159912
-0.5503876209259033 -0.21868790686130524 0.3178294897079468
-0.5503876209259033 -0.17976173758506775 0.16279065608978271
-0.5503876209259033 -0.19025132060050964 0.30232560634613037
-0.5503876209259033 -0.162772536277771 0.28682172298431396
-0.5503876209259033 -0.13704180717468262 0.27131783962249756
-0.5503876209259033 -0.12073730677366257 0.1472867727279663
-0.5503876209259033 -0.10943636298179626 0.25581395626068115
-0.5503876209259033 -0.09572971612215042 0.1317828893661499
-0.5503876209259033 -0.0706116110086441 0.10077524185180664
-0.5503876209259033 -0.08096196502447128 0.11627913266420364
-0.5503876209259033 -0.07859064638614655 0.24031007289886475
-0.5503876209259033 -0.05515209212899208 0.06976747512817383
-0.5503876209259033 -0.05989917367696762 0.08527135848999023
-0.5503876209259033 -0.041956786066293716 -0.05426359176635742
-0.5503876209259033 -0.043998345732688904 -0.038759708404541016
-0.5503876209259033 -0.043539032340049744 -0.02325582504272461
