0.05426359176635742 -0.3333333134651184 0.28574618697166443
0.05426359176635742 -0.3333333134651184 0.39152929186820984
0.05426359176635742 -0.317829430103302 0.2705138027667999
0.05426359176635742 -0.317829430103302 0.38434284925460815
0.05426359176635742 -0.30232560634613037 0.2554856836795807
0.05426359176635742 -0.30232560634613037 0.3790997266769409
0.05426359176635742 -0.28682172298431396 0.24062633514404297
0.05426359176635742 -0.28682172298431396 0.3707985281944275
0.05426359176635742 -0.27131783962249756 0.22476018965244293
0.05426359176635742 -0.27131783962249756 0.3654448390007019
0.05426359176635742 -0.25581395626068115 0.2090441882610321
0.05426359176635742 -0.25581395626068115 0.3565927743911743
0.05426359176635742 -0.24031005799770355 0.19622275233268738
0.05426359176635742 -0.24031005799770355 0.3503614664077759
0.05426359176635742 -0.22480618953704834 0.18541310727596283
0.05426359176635742 -0.22480618953704834 0.34154951572418213
0.05426359176635742 -0.20930230617523193 0.1744290292263031
0.05426359549164772 -0.20930230617523193 0.3341407775878906
0.05426359176635742 -0.19379842281341553 0.159671351313591
0.05426358804106712 -0.19379840791225433 0.3225313425064087
0.05426359176635742 -0.1782945990562439 0.13783057034015656
0.05426359176635742 -0.1782945990562439 0.30681100487709045
0.05426359176635742 -0.1627907156944275 0.11402784287929535
0.05426359176635742 -0.1627907156944275 0.28669068217277527
0.05426359176635742 -0.14728683233261108 0.09732775390148163
0.05426359176635742 -0.14728683233261108 0.26042720675468445
0.05426359176635742 -0.13178294897079468 0.0843566432595253
0.05426359549164772 -0.13178294897079468 0.24081560969352722
0.05426359176635742 -0.11627907305955887 0.07506626099348068
0.05426359176635742 -0.11627907305955887 0.2278701663017273
0.05426359176635742 -0.10077518224716187 0.0640299916267395
0.05426359176635742 -0.10077518224716187 0.22164756059646606
0.05426359176635742 -0.08527129888534546 0.0530669242143631
0.05426359176635742 -0.08527129888534546 0.21510857343673706
0.05426359176635742 -0.06976741552352905 0.042671121656894684
0.05426359176635742 -0.06976741552352905 0.20908619463443756
0.05426359176635742 -0.05426359176635742 0.02850353717803955
0.05426359176635742 -0.05426359176635742 0.19981986284255981
0.05426359176635742 -0.038759708404541016 0.013136593624949455
0.05426359176635742 -0.038759708404541016 0.18954847753047943
0.05426359176635742 -0.02325582504272461 -0.0019333946984261274
0.05426359549164772 -0.02325582504272461 0.1785234808921814
0.05426359176635742 -0.007751941680908203 -0.015129556879401207
0.05426359176635742 -0.007751941680908203 0.16444654762744904
0.05426359176635742 0.007751941680908203 -0.02444106712937355
0.05426359176635742 0.007751941680908203 0.1496163159608841
0.05426359176635742 0.02325582504272461 -0.029350316151976585
0.05426359176635742 0.02325582504272461 0.1345583200454712
0.05426359176635742 0.038759708404541016 -0.03379935398697853
0.05426359176635742 0.038759708404541016 0.11956781893968582
0.05426359176635742 0.05426359176635742 -0.50423264503479
0.05426359176635742 0.05426359176635742 -0.5035457611083984
0.05426359176635742 0.05426359176635742 -0.03860149905085564
0.05426358804106712 0.05426358804106712 0.1054667979478836
0.05426359176635742 0.06976747512817383 -0.04217294231057167
0.05426359176635742 0.06976747512817383 0.09152035415172577
0.05426358804106712 0.08527135848999023 -0.04797472059726715
0.05426359176635742 0.08527135848999023 0.07803665101528168
0.05426359176635742 0.10077524185180664 -0.05629786103963852
0.05426359176635742 0.10077524185180664 0.06632095575332642
0.05426359176635742 0.11627912521362305 -0.059420064091682434
0.05426359176635742 0.11627912521362305 0.056217145174741745
0.05426359176635742 0.1317828893661499 -0.491967111825943
0.05426359549164772 0.1317828893661499 -0.48756179213523865
0.05426359176635742 0.1317828893661499 -0.058914534747600555
0.05426359176635742 0.1317828893661499 0.04550471156835556
0.05426359176635742 0.1472867727279663 -0.05515245720744133
0.05426359176635742 0.1472867727279663 0.03814801946282387
0.05426359176635742 0.16279065608978271 -0.04748602956533432
0.05426359176635742 0.16279065608978271 0.028953075408935547
0.05426359176635742 0.17829453945159912 -0.04300913214683533
0.05426359176635742 0.17829453945159912 0.023716509342193604
0.05426359176635742 0.19379842281341553 -0.04029389098286629
0.05426359176635742 0.19379842281341553 0.014117222279310226
0.05426359176635742 0.20930230617523193 -0.03955032676458359
0.05426359176635742 0.20930230617523193 0.007242599502205849
0.05426359176635742 0.22480618953704834 -0.04083612561225891
0.05426359176635742 0.22480618953704834 -0.005434456281363964
0.05426359176635742 0.24031007289886475 -0.04653748869895935
0.05426359176635742 0.24031008780002594 -0.017057999968528748
0.05426359176635742 0.25581395626068115 -0.055949609726667404
0.05426359176635742 0.25581395626068115 -0.02209492400288582
0.05426359176635742 0.27131783962249756 -0.06270374357700348
0.05426359176635742 0.27131783962249756 -0.02973448671400547
0.05426359176635742 0.28682172298431396 -0.0709875226020813
0.05426358804106712 0.28682172298431396 -0.03600308671593666
0.05426359176635742 0.30232560634613037 -0.07860057055950165
0.05426359176635742 0.30232560634613037 -0.03866178169846535
0.05426359176635742 0.3178294897079468 -0.08806616067886353
0.05426359176635742 0.3178294897079468 -0.04826807603240013
0.05426359176635742 0.3333333730697632 -0.09665817767381668
0.05426359176635742 0.3333333730697632 -0.052403151988983154
0.05426359176635742 0.3488372564315796 -0.10354358702898026
0.05426359176635742 0.3488372564315796 -0.059801600873470306
0.05426359176635742 0.364341139793396 -0.10813963413238525
0.05426359176635742 0.364341139793396 -0.06679454445838928
0.05426359176635742 0.37984490394592285 -0.11372160911560059
0.05426359176635742 0.37984490394592285 -0.07235850393772125
0.05426359176635742 0.39534878730773926 -0.11809752881526947
0.05426359176635742 0.39534875750541687 -0.08183064311742783
0.05426359176635742 0.41085267066955566 -0.12066718935966492
0.05426359176635742 0.41085267066955566 -0.08514404296875
0.05426359176635742 0.42635655403137207 -0.1233677938580513
0.05426359176635742 0.42635655403137207 -0.09544042497873306
0.05426359176635742 0.4418604373931885 -0.12766392529010773
0.05426359176635742 0.4418604373931885 -0.09902341663837433
0.05426359176635742 0.4573643207550049 -0.13227398693561554
0.05426359176635742 0.4573643207550049 -0.10282581299543381
0.05426359176635742 0.4728682041168213 -0.13326381146907806
0.05426359176635742 0.4728682041168213 -0.10941886901855469
0.05426359176635742 0.4883720874786377 -0.1338070183992386
0.05426359176635742 0.4883720874786377 -0.11237072199583054
0.05426359176635742 0.5038759708404541 -0.1341785490512848
0.05426359176635742 0.5038759708404541 -0.11366136372089386
0.05426359176635742 0.5193798542022705 -0.13467538356781006
0.05426358804106712 0.5193798542022705 -0.1144469603896141
0.05426359176635742 0.5348837375640869 -0.1355959177017212
0.05426359176635742 0.5348837375640869 -0.11523151397705078
0.05426359176635742 0.5503876209259033 -0.13682806491851807
0.05426359176635742 0.5503876209259033 -0.11623910069465637
0.05426359176635742 0.5658915042877197 -0.13739165663719177
0.05426359176635742 0.5658915042877197 -0.12248142063617706
0.05426359176635742 0.5813953876495361 -0.13810840249061584
0.05426359176635742 0.5813953876495361 -0.12670329213142395
0.05426359176635742 0.5968992710113525 -0.14311419427394867
0.05426359176635742 0.5968992710113525 -0.1290145367383957
0.05426359176635742 0.612403154373169 -0.14873233437538147
0.05426359176635742 0.612403154373169 -0.13023991882801056
0.05426359176635742 0.6279069185256958 -0.14961127936840057
0.05426359549164772 0.6279069185256958 -0.13167442381381989
0.05426359176635742 0.6434108018875122 -0.150315523147583
0.05426359176635742 0.6434108018875122 -0.14245547354221344
0.05426359176635742 0.6589146852493286 -0.15431098639965057
0.05426359549164772 0.6589146852493286 -0.1449994444847107
0.05426359176635742 0.674418568611145 -0.16375091671943665
0.05426359176635742 0.674418568611145 -0.1458049714565277
0.05426359176635742 0.6899224519729614 -0.16482436656951904
0.05426359549164772 0.6899225115776062 -0.14653028547763824
0.05426359176635742 0.7054263353347778 -0.16505134105682373
0.05426359176635742 0.7054263353347778 -0.148045152425766
0.05426359176635742 0.7209302186965942 -0.16504403948783875
0.05426359176635742 0.7209302186965942 -0.1525307297706604
0.05426359176635742 0.7364341020584106 -0.16506138443946838
0.05426359176635742 0.7364341020584106 -0.1546195149421692
0.05426359176635742 0.751937985420227 -0.16530366241931915
0.05426359176635742 0.751937985420227 -0.15621677041053772
0.05426359176635742 0.7674418687820435 -0.1647302210330963
0.05426359176635742 0.7674418687820435 -0.1596861332654953
0.06976747512817383 -0.5348837375640869 0.46267345547676086
0.06976747512817383 -0.5348837375640869 0.483320415019989
0.06976747512817383 -0.5193798542022705 0.4553297758102417
0.06976747512817383 -0.5193798542022705 0.4873144030570984
0.06976747512817383 -0.5038759708404541 0.45238906145095825
0.06976747512817383 -0.5038759708404541 0.4847138822078705
0.06976747512817383 -0.4883720874786377 0.4517052471637726
0.06976747512817383 -0.4883720874786377 0.4798056483268738
0.06976747512817383 -0.4728682041168213 0.45274055004119873
0.06976747512817383 -0.4728681743144989 0.4732718765735626
0.06976747512817383 -0.3488371968269348 0.33640217781066895
0.06976747512817383 -0.3488371968269348 0.3713272213935852
0.06976747512817383 -0.3333333134651184 0.31403088569641113
0.06976747512817383 -0.3333333134651184 0.3709107041358948
0.06976747512817383 -0.317829430103302 0.29443734884262085
0.06976747512817383 -0.317829430103302 0.3679419159889221
0.06976747512817383 -0.30232560634613037 0.27721908688545227
0.06976747512817383 -0.30232560634613037 0.3653185963630676
0.06976747512817383 -0.28682172298431396 0.2623082399368286
0.06976747512817383 -0.28682172298431396 0.35994553565979004
0.06976747512817383 -0.27131783962249756 0.24736963212490082
0.06976747512817383 -0.27131783962249756 0.3542596697807312
0.06976747512817383 -0.25581395626068115 0.2316979616880417
0.06976747512817383 -0.25581395626068115 0.3498621881008148
0.06976747512817383 -0.24031007289886475 0.21809588372707367
0.06976747512817383 -0.24031007289886475 0.34192997217178345
0.06976747512817383 -0.22480618953704834 0.20679408311843872
0.06976747512817383 -0.22480618953704834 0.3362523913383484
0.06976747512817383 -0.20930230617523193 0.19629497826099396
0.06976747512817383 -0.20930230617523193 0.32739895582199097
0.06976747512817383 -0.19379842281341553 0.18438860774040222
0.06976747512817383 -0.19379842281341553 0.3187689483165741
0.06976747512817383 -0.1782945990562439 0.1610596626996994
0.06976747512817383 -0.1782945990562439 0.30384576320648193
0.06976746767759323 -0.1627907156944275 0.131838858127594
0.06976747512817383 -0.1627907156944275 0.28125131130218506
0.06976747512817383 -0.14728683233261108 0.10987895727157593
0.06976747512817383 -0.14728683233261108 0.2566549777984619
0.06976747512817383 -0.13178294897079468 0.09437090158462524
0.06976747512817383 -0.13178294897079468 0.23641321063041687
0.06976747512817383 -0.11627906560897827 0.0815349593758583
0.06976747512817383 -0.11627906560897827 0.22785937786102295
0.06976747512817383 -0.10077518224716187 0.07074791938066483
0.06976747512817383 -0.10077518224716187 0.22346435487270355
0.06976747512817383 -0.08527129888534546 0.061011385172605515
0.06976747512817383 -0.08527129888534546 0.21673020720481873
0.06976747512817383 -0.06976741552352905 0.04880121722817421
0.06976747512817383 -0.06976741552352905 0.2101881355047226
0.06976747512817383 -0.05426359176635742 0.034738607704639435
0.06976747512817383 -0.05426359176635742 0.20081478357315063
0.06976747512817383 -0.038759708404541016 0.017634417861700058
0.06976747512817383 -0.038759708404541016 0.19066080451011658
0.06976747512817383 -0.02325582504272461 -0.0025631729513406754
0.06976746767759323 -0.02325582504272461 0.1787862628698349
0.06976747512817383 -0.007751941680908203 -0.021591119468212128
0.06976747512817383 -0.00775194214656949 0.16453033685684204
0.06976747512817383 0.007751941680908203 -0.5048506855964661
0.06976746767759323 0.007751941680908203 -0.5030741095542908
0.06976747512817383 0.007751941680908203 -0.033240120857954025
0.06976747512817383 0.007751941680908203 0.14960697293281555
0.06976747512817383 0.02325582504272461 -0.5043213367462158
0.06976747512817383 0.02325582318007946 -0.5035247802734375
0.06976747512817383 0.02325582504272461 -0.04289957880973816
0.06976747512817383 0.02325582318007946 0.1340690553188324
0.06976747512817383 0.038759708404541016 -0.5041358470916748
0.06976747512817383 0.038759708404541016 -0.5036333799362183
0.06976747512817383 0.038759708404541016 -0.05409664288163185
0.06976747512817383 0.038759708404541016 0.11839744448661804
0.06976747512817383 0.05426359176635742 -0.062081336975097656
0.06976747512817383 0.05426359176635742 0.10347512364387512
0.06976747512817383 0.06976747512817383 -0.07153284549713135
0.06976747512817383 0.06976747512817383 0.08825854957103729
0.06976747512817383 0.08527135848999023 -0.49325984716415405
0.06976747512817383 0.08527135848999023 -0.48797571659088135
0.06976747512817383 0.08527135848999023 -0.0777403712272644
0.06976747512817383 0.08527135103940964 0.0736781433224678
0.06976747512817383 0.10077524185180664 -0.4952549338340759
0.06976747512817383 0.10077524185180664 -0.48734432458877563
0.06976747512817383 0.10077524185180664 -0.08542390167713165
0.06976747512817383 0.10077524185180664 0.06153762340545654
0.06976747512817383 0.11627912521362305 -0.494870126247406
0.06976747512817383 0.11627912521362305 -0.4866468608379364
0.06976747512817383 0.11627912521362305 -0.0878417044878006
0.06976747512817383 0.11627912521362305 0.051502324640750885
0.06976747512817383 0.1317828893661499 -0.49472707509994507
0.06976747512817383 0.1317828893661499 -0.4757763743400574
0.06976747512817383 0.1317828893661499 -0.08580195158720016
0.06976747512817383 0.1317828893661499 0.04199829697608948
0.06976747512817383 0.1472867727279663 -0.4898661971092224
0.06976747512817383 0.1472867727279663 -0.47592270374298096
0.06976747512817383 0.1472867727279663 -0.0717209130525589
0.06976747512817383 0.1472867727279663 0.03461592644453049
0.06976747512817383 0.16279065608978271 -0.05763856694102287
0.06976747512817383 0.16279065608978271 0.02755051478743553
0.06976747512817383 0.17829452455043793 -0.0524275042116642
0.06976747512817383 0.17829453945159912 0.02259397692978382
0.06976747512817383 0.19379842281341553 -0.04556109383702278
0.06976747512817383 0.19379842281341553 0.01245821826159954
0.06976747512817383 0.20930230617523193 -0.04284051060676575
0.06976747512817383 0.20930230617523193 0.004863913170993328
0.06976747512817383 0.22480618953704834 -0.042387448251247406
0.06976748257875443 0.22480618953704834 -0.0063368636183440685
0.06976747512817383 0.24031007289886475 -0.044404879212379456
0.06976747512817383 0.24031007289886475 -0.020761974155902863
0.06976747512817383 0.25581395626068115 -0.04967977851629257
0.06976747512817383 0.25581395626068115 -0.03312615677714348
0.06976747512817383 0.27131783962249756 -0.05536773055791855
0.06976747512817383 0.27131783962249756 -0.03648734092712402
0.06976747512817383 0.28682172298431396 -0.05793794244527817
0.06976747512817383 0.28682172298431396 -0.03795323520898819
0.06976747512817383 0.30232560634613037 -0.06359736621379852
0.06976747512817383 0.30232560634613037 -0.046344123780727386
0.06976747512817383 0.3178294897079468 -0.0729505717754364
0.06976747512817383 0.3178294897079468 -0.051966749131679535
0.06976747512817383 0.3333333730697632 -0.08576805144548416
0.06976747512817383 0.3333333730697632 -0.05509170889854431
0.06976747512817383 0.3488372564315796 -0.09514224529266357
0.06976747512817383 0.3488372564315796 -0.06543782353401184
0.06976747512817383 0.364341139793396 -0.10367785394191742
0.06976747512817383 0.3643411695957184 -0.06900584697723389
0.06976747512817383 0.37984490394592285 -0.10812151432037354
0.06976747512817383 0.37984490394592285 -0.07801199704408646
0.06976747512817383 0.39534878730773926 -0.11369910836219788
0.06976747512817383 0.39534878730773926 -0.08329811692237854
0.06976747512817383 0.41085267066955566 -0.11768988519906998
0.06976747512817383 0.41085267066955566 -0.08854752033948898
0.06976747512817383 0.42635655403137207 -0.11945018172264099
0.06976747512817383 0.42635655403137207 -0.09595770388841629
0.06976747512817383 0.4418604373931885 -0.12142729014158249
0.06976747512817383 0.4418604373931885 -0.09908781945705414
0.06976747512817383 0.4573643207550049 -0.12415878474712372
0.06976747512817383 0.4573643207550049 -0.10238879173994064
0.06976747512817383 0.4728682041168213 -0.13002246618270874
0.06976747512817383 0.4728682041168213 -0.10890817642211914
0.06976747512817383 0.4883720874786377 -0.13251839578151703
0.06976747512817383 0.4883720874786377 -0.11210954934358597
0.06976747512817383 0.5038759708404541 -0.1330670267343521
0.06976747512817383 0.5038759708404541 -0.11360659450292587
0.06976747512817383 0.5193798542022705 -0.13346387445926666
0.06976747512817383 0.5193798542022705 -0.1144876554608345
0.06976747512817383 0.5348837375640869 -0.13387654721736908
0.06976747512817383 0.5348837375640869 -0.11527208238840103
0.06976747512817383 0.5503876209259033 -0.13436061143875122
0.06976748257875443 0.5503876209259033 -0.11622605472803116
0.06976747512817383 0.5658915042877197 -0.13482078909873962
0.06976747512817383 0.5658915042877197 -0.12265804409980774
0.06976747512817383 0.5813953876495361 -0.13542689383029938
0.06976747512817383 0.5813953876495361 -0.12728771567344666
0.06976747512817383 0.5968992710113525 -0.13771167397499084
0.06976747512817383 0.5968992710113525 -0.12944303452968597
0.06976747512817383 0.612403154373169 -0.14802810549736023
0.06976747512817383 0.612403154373169 -0.13037051260471344
0.06976747512817383 0.6279069185256958 -0.14952991902828217
0.06976747512817383 0.6279069185256958 -0.1324228197336197
0.06976747512817383 0.6434108018875122 -0.1508031040430069
0.06976747512817383 0.6434108018875122 -0.1430116593837738
0.06976747512817383 0.6589146852493286 -0.1596524864435196
0.06976747512817383 0.6589146852493286 -0.1451616883277893
0.06976747512817383 0.674418568611145 -0.16476216912269592
0.06976747512817383 0.674418568611145 -0.14600418508052826
0.06976747512817383 0.6899224519729614 -0.16544026136398315
0.06976747512817383 0.6899224519729614 -0.14678281545639038
0.06976747512817383 0.7054263353347778 -0.16579630970954895
0.06976747512817383 0.7054263353347778 -0.14942292869091034
0.06976747512817383 0.7209302186965942 -0.16622531414031982
0.06976747512817383 0.7209302186965942 -0.15244290232658386
0.06976747512817383 0.7364341020584106 -0.1666376143693924
0.06976747512817383 0.7364341020584106 -0.15351247787475586
0.06976747512817383 0.751937985420227 -0.16800333559513092
0.06976747512817383 0.751937985420227 -0.1548565924167633
0.06976747512817383 0.7674418687820435 -0.16755765676498413
0.06976747512817383 0.7674419283866882 -0.15951445698738098
0.08527135848999023 -0.5193798542022705 0.46469783782958984
0.08527135848999023 -0.5193798542022705 0.47598695755004883
0.08527135848999023 -0.5038759708404541 0.4558694362640381
0.08527135848999023 -0.5038759708404541 0.4768199324607849
0.08527135848999023 -0.4883720874786377 0.45588478446006775
0.08527135848999023 -0.4883720874786377 0.473078191280365
0.08527135848999023 -0.28682172298431396 0.29358968138694763
0.08527135848999023 -0.28682172298431396 0.3433787226676941
0.08527135848999023 -0.27131783962249756 0.27659526467323303
0.08527135848999023 -0.27131783962249756 0.34436124563217163
0.08527135848999023 -0.25581395626068115 0.2609326243400574
0.08527135848999023 -0.25581395626068115 0.3401165008544922
0.08527135848999023 -0.24031007289886475 0.24831929802894592
0.08527135848999023 -0.24031007289886475 0.3362330198287964
0.08527135848999023 -0.22480618953704834 0.2384350448846817
0.08527135848999023 -0.22480618953704834 0.3305858373641968
0.08527135848999023 -0.20930229127407074 0.23070719838142395
0.08527135848999023 -0.20930229127407074 0.32290852069854736
0.08527135848999023 -0.19379842281341553 0.22516517341136932
0.08527135848999023 -0.19379842281341553 0.3130035400390625
0.08527135848999023 -0.1782945990562439 0.22023402154445648
0.08527135848999023 -0.1782945990562439 0.2998313903808594
0.08527135848999023 -0.1627907156944275 0.16795614361763
0.08527135848999023 -0.1627907156944275 0.2754489481449127
0.08527135848999023 -0.14728683233261108 0.13200408220291138
0.08527135848999023 -0.14728683233261108 0.24438638985157013
0.08527135848999023 -0.13178294897079468 0.10877592861652374
0.08527135848999023 -0.13178294897079468 0.23044615983963013
0.08527135848999023 -0.11627906560897827 0.09272429347038269
0.08527135848999023 -0.11627906560897827 0.22726188600063324
0.08527135848999023 -0.10077518224716187 0.07924908399581909
0.08527135848999023 -0.10077518224716187 0.22471928596496582
0.08527135848999023 -0.08527129888534546 0.06673634052276611
0.08527135848999023 -0.08527129888534546 0.21783295273780823
0.08527135848999023 -0.06976741552352905 0.054507263004779816
0.08527135848999023 -0.06976741552352905 0.21087948977947235
0.08527135848999023 -0.05426359549164772 0.04050944000482559
0.08527135848999023 -0.05426359176635742 0.20114533603191376
0.08527135848999023 -0.038759708404541016 0.022247111424803734
0.08527135848999023 -0.038759708404541016 0.1911631077528
0.08527135848999023 -0.02325582504272461 -0.0005158919375389814
0.08527135848999023 -0.02325582504272461 0.17947816848754883
0.08527135848999023 -0.007751941680908203 -0.0261301901191473
0.08527135848999023 -0.007751941680908203 0.16536837816238403
0.08527135848999023 0.007751941680908203 -0.04773447662591934
0.08527135848999023 0.007751941680908203 0.15077480673789978
0.08527135848999023 0.02325582504272461 -0.06663236767053604
0.08527135848999023 0.02325582504272461 0.13556374609470367
0.08527135848999023 0.038759708404541016 -0.503895103931427
0.08527135848999023 0.038759708404541016 -0.5038444399833679
0.08527135848999023 0.038759708404541016 -0.07977844029664993
0.08527135848999023 0.038759708404541016 0.12048229575157166
0.08527135848999023 0.05426359176635742 -0.09060449153184891
0.08527135848999023 0.05426359176635742 0.1064024418592453
0.08527135848999023 0.06976747512817383 -0.101163350045681
0.08527135848999023 0.06976747512817383 0.09282732009887695
0.08527135848999023 0.08527135848999023 -0.10660268366336823
0.08527135848999023 0.08527135848999023 0.07964211702346802
0.08527135848999023 0.10077524185180664 -0.13284248113632202
0.08527135848999023 0.10077524185180664 0.06810677796602249
0.08527135848999023 0.11627912521362305 -0.23893232643604279
0.08527135848999023 0.11627911776304245 0.05615391209721565
0.08527135848999023 0.1317828893661499 -0.48352938890457153
0.08527135848999023 0.1317828893661499 -0.1532047688961029
0.08527135848999023 0.1317828893661499 -0.14329630136489868
0.08527135848999023 0.1317828893661499 0.044478654861450195
0.08527135848999023 0.1472867727279663 -0.4581913948059082
0.08527135848999023 0.1472867727279663 -0.3737746477127075
0.08527135848999023 0.1472867727279663 -0.096707284450531
0.08527135848999023 0.1472867727279663 0.03729511424899101
0.08527135848999023 0.16279065608978271 -0.07282145321369171
0.08527135848999023 0.16279065608978271 0.028551289811730385
0.08527135848999023 0.17829453945159912 -0.059223517775535583
0.08527135848999023 0.17829455435276031 0.023505117744207382
0.08527135848999023 0.19379842281341553 -0.05453822761774063
0.08527135848999023 0.19379842281341553 0.01251242496073246
0.08527135848999023 0.20930230617523193 -0.044142283499240875
0.08527135848999023 0.20930230617523193 0.005165421403944492
0.08527135848999023 0.22480618953704834 -0.038792405277490616
0.08527135848999023 0.22480618953704834 -0.0065385145135223866
0.08527135848999023 0.4728682041168213 -0.11641280353069305
0.08527135848999023 0.4728682041168213 -0.11562301218509674
0.08527135848999023 0.4883720874786377 -0.11837974190711975
0.08527135848999023 0.4883720874786377 -0.1124604195356369
0.08527135848999023 0.5038759708404541 -0.11958295106887817
0.08527135848999023 0.5038759708404541 -0.11307249218225479
0.08527135848999023 0.5193798542022705 -0.12057546526193619
0.08527135848999023 0.5193798542022705 -0.11374267190694809
0.08527135848999023 0.5348837375640869 -0.12146856635808945
0.08527135103940964 0.5348837375640869 -0.11435043066740036
0.08527135848999023 0.5503876209259033 -0.12203547358512878
0.08527135848999023 0.5503876209259033 -0.11507489532232285
0.08527135848999023 0.5658915042877197 -0.11924705654382706
0.08527135848999023 0.5658915042877197 -0.11609473824501038
0.08527135848999023 0.5813953876495361 -0.1321372091770172
0.08527135103940964 0.5813953876495361 -0.13010740280151367
0.08527135848999023 0.5968992710113525 -0.1328083723783493
0.08527135848999023 0.5968992710113525 -0.13035672903060913
0.08527135848999023 0.612403154373169 -0.13356032967567444
0.08527135848999023 0.612403154373169 -0.13086827099323273
0.08527135848999023 0.6279069185256958 -0.13602666556835175
0.08527135848999023 0.6279069185256958 -0.13157545030117035
0.08527135848999023 0.6434108018875122 -0.1492142677307129
0.08527135848999023 0.6434108018875122 -0.1427363157272339
0.08527135848999023 0.6589146852493286 -0.15097451210021973
0.08527135848999023 0.6589146852493286 -0.14516346156597137
0.08527135848999023 0.674418568611145 -0.16094382107257843
0.08527135848999023 0.674418568611145 -0.14582480490207672
0.08527135848999023 0.6899224519729614 -0.1644606739282608
0.08527135848999023 0.6899224519729614 -0.14659744501113892
0.08527135848999023 0.7054263353347778 -0.1648840755224228
0.08527135848999023 0.7054263353347778 -0.14958354830741882
0.08527135848999023 0.7209302186965942 -0.16478615999221802
0.08527135848999023 0.7209302186965942 -0.15459740161895752
0.08527135848999023 0.7364341020584106 -0.16472017765045166
0.08527135848999023 0.7364341020584106 -0.15714752674102783
0.08527135848999023 0.751937985420227 -0.16636240482330322
0.08527135848999023 0.751937985420227 -0.15772747993469238
0.10077524185180664 -0.27131783962249756 0.30747273564338684
0.10077523440122604 -0.27131783962249756 0.3357856273651123
0.10077523440122604 -0.25581395626068115 0.28816846013069153
0.10077524185180664 -0.25581395626068115 0.33508726954460144
0.10077524185180664 -0.24031005799770355 0.2743288278579712
0.10077524185180664 -0.24031007289886475 0.3304128050804138
0.10077524185180664 -0.22480618953704834 0.264122873544693
0.10077524185180664 -0.22480618953704834 0.32415416836738586
0.10077524930238724 -0.20930230617523193 0.2561515271663666
0.10077524185180664 -0.20930230617523193 0.31889790296554565
0.10077524185180664 -0.19379842281341553 0.2526186406612396
0.10077524185180664 -0.19379842281341553 0.307722270488739
0.10077524185180664 -0.1782945990562439 0.25281766057014465
0.10077524185180664 -0.1782945990562439 0.29350346326828003
0.10077524185180664 -0.13178294897079468 0.13616959750652313
0.10077524185180664 -0.13178294897079468 0.2199852466583252
0.10077524185180664 -0.11627906560897827 0.10933004319667816
0.10077524185180664 -0.11627907305955887 0.22642283141613007
0.10077524185180664 -0.10077518224716187 0.09130123257637024
0.10077523440122604 -0.10077517479658127 0.22497998178005219
0.10077524185180664 -0.08527129888534546 0.07645479589700699
0.10077524185180664 -0.08527129888534546 0.2178768813610077
0.10077524185180664 -0.06976741552352905 0.06195320561528206
0.10077524185180664 -0.06976742297410965 0.21077004075050354
0.10077524185180664 -0.05426359176635742 0.04733548313379288
0.10077524185180664 -0.05426359176635742 0.2005462348461151
0.10077524185180664 -0.038759708404541016 0.03216877579689026
0.10077524185180664 -0.038759708404541016 0.19061696529388428
0.10077524185180664 -0.02325582504272461 0.013081751763820648
0.10077524185180664 -0.02325582318007946 0.17983482778072357
0.10077524185180664 -0.007751941680908203 -0.013514439575374126
0.10077524185180664 -0.007751941680908203 0.16608384251594543
0.10077524185180664 0.007751941680908203 -0.04187151417136192
0.10077524185180664 0.007751941680908203 0.15183302760124207
0.10077524185180664 0.02325582504272461 -0.06156928092241287
0.10077524185180664 0.02325582504272461 0.13720089197158813
0.10077524185180664 0.038759708404541016 -0.07225807011127472
0.10077524185180664 0.038759708404541016 0.12290839850902557
0.10077523440122604 0.05426359176635742 -0.08034409582614899
0.10077524185180664 0.05426359176635742 0.1096951961517334
0.10077524185180664 0.06976747512817383 -0.09400635957717896
0.10077524185180664 0.06976747512817383 0.09817861765623093
0.10077524185180664 0.08527135848999023 -0.10922092944383621
0.10077524185180664 0.08527135848999023 0.08676202595233917
0.10077524185180664 0.10077524185180664 -0.1828722357749939
0.10077524185180664 0.10077524185180664 0.0744173675775528
0.10077524185180664 0.11627912521362305 -0.22707176208496094
0.10077524185180664 0.11627912521362305 0.06187319755554199
0.10077524185180664 0.1317828893661499 -0.24942651391029358
0.10077524185180664 0.1317828893661499 0.051267627626657486
0.10077524185180664 0.1472867727279663 -0.10512228310108185
0.10077524185180664 0.1472867727279663 0.041685864329338074
0.10077524185180664 0.16279065608978271 -0.07405925542116165
0.10077524185180664 0.16279065608978271 0.031197935342788696
0.10077524185180664 0.17829453945159912 -0.05770416557788849
0.10077524185180664 0.17829452455043793 0.024516645818948746
0.10077524185180664 0.19379842281341553 -0.046930696815252304
0.10077524185180664 0.19379842281341553 0.015248293057084084
0.10077524185180664 0.20930230617523193 -0.038996629416942596
0.10077524185180664 0.20930230617523193 0.00819833017885685
0.10077524185180664 0.22480618953704834 -0.024139979854226112
0.10077524185180664 0.22480618953704834 -0.005284466780722141
0.11627912521362305 -0.27131783962249756 0.3173723518848419
0.11627912521362305 -0.27131783962249756 0.33379602432250977
0.11627912521362305 -0.25581395626068115 0.30087682604789734
0.11627912521362305 -0.25581395626068115 0.3313193917274475
0.11627912521362305 -0.24031007289886475 0.2859964072704315
0.11627912521362305 -0.24031005799770355 0.32438409328460693
0.11627912521362305 -0.22480617463588715 0.27543890476226807
0.11627912521362305 -0.22480618953704834 0.32042384147644043
0.11627912521362305 -0.20930230617523193 0.2675274908542633
0.11627912521362305 -0.20930230617523193 0.3129343092441559
0.11627912521362305 -0.19379842281341553 0.26482418179512024
0.11627911776304245 -0.19379842281341553 0.3043157756328583
0.11627912521362305 -0.1782945990562439 0.26608189940452576
0.11627911776304245 -0.1782945990562439 0.2898713946342468
0.11627912521362305 -0.11627906560897827 0.14456488192081451
0.11627912521362305 -0.11627906560897827 0.22568845748901367
0.11627912521362305 -0.10077518224716187 0.11256149411201477
0.11627911776304245 -0.10077518224716187 0.2249760627746582
0.11627912521362305 -0.08527129888534546 0.09198056161403656
0.11627912521362305 -0.08527129888534546 0.21674524247646332
0.11627912521362305 -0.06976741552352905 0.07617589831352234
0.11627912521362305 -0.06976741552352905 0.2096787691116333
0.11627912521362305 -0.05426359176635742 0.06234683841466904
0.11627912521362305 -0.05426358804106712 0.198734313249588
0.11627912521362305 -0.038759708404541016 0.0510154590010643
0.11627912521362305 -0.038759708404541016 0.1880044937133789
0.11627912521362305 -0.02325582504272461 0.040827248245477676
0.11627912521362305 -0.02325582504272461 0.17738164961338043
0.11627912521362305 -0.007751941680908203 0.028491970151662827
0.11627912521362305 -0.007751941680908203 0.16382504999637604
0.11627912521362305 0.007751941680908203 0.01790342479944229
0.11627911776304245 0.007751941680908203 0.14988648891448975
0.11627912521362305 0.02325582504272461 0.010004081763327122
0.11627912521362305 0.02325582504272461 0.1360953450202942
0.11627912521362305 0.038759708404541016 0.004805412143468857
0.11627912521362305 0.038759708404541016 0.12261354923248291
0.11627912521362305 0.05426359176635742 0.0016344701871275902
0.11627912521362305 0.05426359176635742 0.11007693409919739
0.11627912521362305 0.06976747512817383 -0.0024102155584841967
0.11627912521362305 0.06976747512817383 0.10020390897989273
0.11627912521362305 0.08527135103940964 -0.03815242648124695
0.11627912521362305 0.08527135848999023 0.08841020613908768
0.11627912521362305 0.10077524185180664 -0.09199130535125732
0.11627912521362305 0.10077524185180664 0.07692292332649231
0.11627912521362305 0.11627912521362305 -0.16838927567005157
0.11627912521362305 0.11627912521362305 0.06654239445924759
0.11627912521362305 0.1317828893661499 -0.11042919754981995
0.11627913266420364 0.1317828893661499 0.05573476105928421
0.11627912521362305 0.1472867727279663 -0.07588137686252594
0.11627912521362305 0.1472867727279663 0.042421892285346985
0.11627912521362305 0.16279065608978271 -0.05618201196193695
0.11627912521362305 0.16279065608978271 0.030293170362710953
0.11627912521362305 0.17829453945159912 -0.04253174364566803
0.11627912521362305 0.17829453945159912 0.025240197777748108
0.11627912521362305 0.19379842281341553 -0.03880882263183594
0.11627912521362305 0.19379842281341553 0.02331143617630005
0.11627912521362305 0.20930230617523193 -0.02493276074528694
0.11627911776304245 0.20930229127407074 0.010209118947386742
0.11627912521362305 0.22480618953704834 -0.011591624468564987
0.11627912521362305 0.22480618953704834 0.00040143332444131374
0.1317828893661499 -0.27131783962249756 0.33311495184898376
0.1317828893661499 -0.27131783962249756 0.3333616256713867
0.1317828893661499 -0.25581395626068115 0.3113587498664856
0.1317828893661499 -0.25581395626068115 0.3272613286972046
0.1317828893661499 -0.24031007289886475 0.2965925931930542
0.1317828893661499 -0.24031007289886475 0.32173752784729004
0.1317828893661499 -0.22480618953704834 0.2828724980354309
0.1317828893661499 -0.22480618953704834 0.3183073401451111
0.1317828893661499 -0.20930230617523193 0.2709903120994568
0.1317828893661499 -0.20930230617523193 0.3087214529514313
0.1317828893661499 -0.19379842281341553 0.2685388922691345
0.1317828893661499 -0.19379842281341553 0.3015299439430237
0.1317828893661499 -0.1782945990562439 0.2688397765159607
0.1317828893661499 -0.1782945990562439 0.28750079870224
0.1317828893661499 -0.11627906560897827 0.20778188109397888
0.1317828893661499 -0.11627906560897827 0.2256951779127121
0.1317828893661499 -0.10077518224716187 0.15100474655628204
0.1317828893661499 -0.10077518224716187 0.22510728240013123
0.1317828893661499 -0.08527129888534546 0.11570367217063904
0.1317828893661499 -0.08527129888534546 0.2157776653766632
0.1317828893661499 -0.06976741552352905 0.09583524614572525
0.1317828893661499 -0.06976741552352905 0.20831534266471863
0.1317828893661499 -0.05426359176635742 0.08136254549026489
0.1317828893661499 -0.05426359176635742 0.1969178318977356
0.1317828893661499 -0.038759708404541016 0.07040250301361084
0.1317828893661499 -0.038759708404541016 0.18492168188095093
0.1317828893661499 -0.02325582504272461 0.061706434935331345
0.1317828893661499 -0.02325582504272461 0.17234033346176147
0.1317828893661499 -0.007751941680908203 0.05157353729009628
0.1317828893661499 -0.007751941680908203 0.15801449120044708
0.1317828893661499 0.007751941680908203 0.044448383152484894
0.1317828893661499 0.007751941680908203 0.14487330615520477
0.1317828893661499 0.02325582504272461 0.039095085114240646
0.1317828893661499 0.02325582504272461 0.13289961218833923
0.1317828893661499 0.038759708404541016 0.03656020760536194
0.1317828893661499 0.038759708404541016 0.11998413503170013
0.1317828893661499 0.05426359176635742 0.03570199012756348
0.1317828893661499 0.05426359176635742 0.10778826475143433
0.1317828893661499 0.06976747512817383 0.03544547036290169
0.1317828893661499 0.06976747512817383 0.09826244413852692
0.1317828893661499 0.08527135848999023 0.03564975783228874
0.1317828893661499 0.08527135848999023 0.08733630180358887
0.1317828893661499 0.10077524185180664 0.037372224032878876
0.1317828893661499 0.10077524185180664 0.07521743327379227
0.1317828893661499 0.11627912521362305 0.048202402889728546
0.1317828893661499 0.11627912521362305 0.05992002412676811
0.1317828893661499 0.1317828893661499 -0.025735320523381233
0.1317828893661499 0.1317828893661499 -0.020403331145644188
0.1317828893661499 0.1472867727279663 -0.02665809541940689
0.1317828893661499 0.1472867727279663 0.0017795329913496971
0.1317828893661499 0.16279065608978271 -0.02606195956468582
0.1317828893661499 0.16279065608978271 0.01368233747780323
0.1317828893661499 0.17829453945159912 -0.025190114974975586
0.1317828893661499 0.17829455435276031 0.024239206686615944
0.1317828893661499 0.19379842281341553 -0.023496635258197784
0.1317828893661499 0.19379843771457672 0.02425926923751831
0.1317828893661499 0.20930230617523193 -0.013311373069882393
0.1317828893661499 0.20930230617523193 0.016144491732120514
0.1317828893661499 0.22480618953704834 -0.008993983268737793
0.1317828893661499 0.22480618953704834 0.008828517980873585
0.1472867727279663 -0.27131783962249756 0.33176127076148987
0.1472867727279663 -0.27131783962249756 0.33373862504959106
0.1472867727279663 -0.25581395626068115 0.31544944643974304
0.1472867727279663 -0.25581395626068115 0.3250967860221863
0.1472867727279663 -0.24031007289886475 0.3021709620952606
0.1472867727279663 -0.24031007289886475 0.32024097442626953
0.1472867727279663 -0.22480618953704834 0.2885071337223053
0.1472867727279663 -0.22480618953704834 0.31451666355133057
0.1472867727279663 -0.20930230617523193 0.28032785654067993
0.1472867727279663 -0.20930230617523193 0.3064570724964142
0.1472867727279663 -0.19379842281341553 0.2704831659793854
0.1472867727279663 -0.19379842281341553 0.29716718196868896
0.1472867727279663 -0.1782945990562439 0.2682609260082245
0.1472867727279663 -0.1782945990562439 0.2823641896247864
0.1472867727279663 -0.11627906560897827 0.2211618721485138
0.1472867727279663 -0.11627906560897827 0.22871077060699463
0.1472867727279663 -0.10077518224716187 0.18818184733390808
0.1472867727279663 -0.10077518969774246 0.2260875552892685
0.1472867727279663 -0.08527129888534546 0.15485352277755737
0.1472867727279663 -0.08527129888534546 0.2164563089609146
0.1472867727279663 -0.06976741552352905 0.1197269856929779
0.1472867727279663 -0.06976741552352905 0.20893852412700653
0.1472867727279663 -0.05426359176635742 0.09901561588048935
0.1472867727279663 -0.05426359176635742 0.19636371731758118
0.1472867727279663 -0.038759708404541016 0.08660546690225601
0.1472867727279663 -0.038759708404541016 0.18243303894996643
0.1472867727279663 -0.02325582504272461 0.07786832749843597
0.1472867727279663 -0.02325582504272461 0.1676667183637619
0.1472867727279663 -0.007751941680908203 0.06688684225082397
0.1472867727279663 -0.007751941680908203 0.1535201072692871
0.1472867727279663 0.007751941680908203 0.06057237088680267
0.1472867727279663 0.007751941680908203 0.14240267872810364
0.1472867727279663 0.02325582504272461 0.057468973100185394
0.1472867727279663 0.02325582504272461 0.1329633593559265
0.1472867727279663 0.038759708404541016 0.0570487342774868
0.1472867727279663 0.038759708404541016 0.12105420231819153
0.1472867727279663 0.05426358804106712 0.057662926614284515
0.1472867727279663 0.05426359176635742 0.11106740683317184
0.1472867727279663 0.06976747512817383 0.05814221501350403
0.1472867727279663 0.06976747512817383 0.10240057110786438
0.1472867727279663 0.08527135848999023 0.059411510825157166
0.1472867727279663 0.08527135848999023 0.09073446691036224
0.1472867727279663 0.10077524185180664 0.06297203153371811
0.1472867727279663 0.10077524185180664 0.07889553159475327
0.1472867727279663 0.20930230617523193 0.0073762014508247375
0.1472867727279663 0.20930230617523193 0.008623400703072548
0.16279065608978271 -0.4573643207550049 0.4383043050765991
0.16279065608978271 -0.4573642909526825 0.44242745637893677
0.16279065608978271 -0.4418604373931885 0.424826979637146
0.16279065608978271 -0.4418604373931885 0.4312489628791809
0.16279065608978271 -0.42635661363601685 0.4229620397090912
0.16279065608978271 -0.42635661363601685 0.42805010080337524
0.16279065608978271 -0.41085273027420044 0.4107893109321594
0.16279065608978271 -0.41085273027420044 0.4111288785934448
0.16279065608978271 -0.27131783962249756 0.32926133275032043
0.16279064118862152 -0.27131783962249756 0.33464130759239197
0.16279065608978271 -0.25581395626068115 0.3159472942352295
0.16279065608978271 -0.25581395626068115 0.3253238797187805
0.16279065608978271 -0.24031007289886475 0.31607142090797424
0.16279065608978271 -0.24031007289886475 0.3187509775161743
0.16279065608978271 -0.22480618953704834 0.2990725636482239
0.16279065608978271 -0.22480618953704834 0.3078458309173584
0.16279065608978271 -0.20930230617523193 0.28342950344085693
0.16279065608978271 -0.20930230617523193 0.3047877550125122
0.16279065608978271 -0.19379842281341553 0.2708440124988556
0.16279065608978271 -0.19379842281341553 0.29449403285980225
0.16279065608978271 -0.1782945990562439 0.2628161907196045
0.16279065608978271 -0.1782945990562439 0.28425168991088867
0.16279065608978271 -0.1627907156944275 0.2508889436721802
0.16279065608978271 -0.1627907156944275 0.27356719970703125
0.16279065608978271 -0.14728683233261108 0.23902440071105957
0.16279065608978271 -0.14728683233261108 0.26032787561416626
0.16279065608978271 -0.13178294897079468 0.23461264371871948
0.16279065608978271 -0.13178294897079468 0.24656960368156433
0.16279065608978271 -0.11627906560897827 0.2199036329984665
0.16279065608978271 -0.11627906560897827 0.23708167672157288
0.16279065608978271 -0.10077518224716187 0.20036830008029938
0.16279065608978271 -0.10077518224716187 0.22794370353221893
0.16279065608978271 -0.08527129888534546 0.17856688797473907
0.16279065608978271 -0.08527129888534546 0.21889206767082214
0.16279065608978271 -0.06976741552352905 0.15341085195541382
0.16279065608978271 -0.06976741552352905 0.2102782279253006
0.16279065608978271 -0.05426359176635742 0.11422248929738998
0.16279065608978271 -0.05426359176635742 0.19714877009391785
0.16279065608978271 -0.038759708404541016 0.09537483751773834
0.16279065608978271 -0.038759708404541016 0.18184472620487213
0.16279065608978271 -0.02325582504272461 0.08323200047016144
0.16279065608978271 -0.02325582504272461 0.16644814610481262
0.16279065608978271 -0.007751941680908203 0.07536058127880096
0.16279065608978271 -0.007751941680908203 0.15421289205551147
0.16279065608978271 0.007751941680908203 0.0685991421341896
0.16279065608978271 0.007751941680908203 0.14602193236351013
0.16279065608978271 0.02325582504272461 0.06647635251283646
0.16279065608978271 0.02325582504272461 0.13474026322364807
0.16279065608978271 0.038759708404541016 0.06492304801940918
0.16279065608978271 0.038759708404541016 0.12373827397823334
0.16279065608978271 0.05426359176635742 0.06297501921653748
0.16279065608978271 0.05426359176635742 0.11594203859567642
0.16279065608978271 0.06976747512817383 0.059957124292850494
0.16279065608978271 0.06976747512817383 0.1054520308971405
0.16279065608978271 0.08527135848999023 0.05631321296095848
0.16279065608978271 0.08527135848999023 0.09786675870418549
0.16279065608978271 0.10077524185180664 0.05354289710521698
0.16279065608978271 0.10077524185180664 0.08873990923166275
0.16279065608978271 0.11627912521362305 0.05293513834476471
0.16279065608978271 0.11627912521362305 0.08095559477806091
0.16279065608978271 0.1317828893661499 0.05253034085035324
0.16279065608978271 0.1317828893661499 0.07246754318475723
0.17829453945159912 -0.4728682041168213 0.43897876143455505
0.17829453945159912 -0.4728682041168213 0.443655401468277
0.17829453945159912 -0.4573643207550049 0.42540243268013
0.17829453945159912 -0.45736435055732727 0.4423111379146576
0.17829453945159912 -0.4418604373931885 0.42296528816223145
0.17829453945159912 -0.4418604373931885 0.4321051836013794
0.17829453945159912 -0.42635664343833923 0.4150378406047821
0.17829453945159912 -0.42635661363601685 0.4282495379447937
0.17829453945159912 -0.41085273027420044 0.4083591103553772
0.17829453945159912 -0.41085273027420044 0.4172273874282837
0.17829453945159912 -0.39534884691238403 0.404990017414093
0.17829453945159912 -0.39534884691238403 0.4118460416793823
0.17829453945159912 -0.3798449635505676 0.39319223165512085
0.17829453945159912 -0.3798449635505676 0.39835190773010254
0.17829453945159912 -0.27131783962249756 0.3272285461425781
0.17829453945159912 -0.27131783962249756 0.3357979953289032
0.17829453945159912 -0.25581395626068115 0.3155708611011505
0.17829453945159912 -0.25581395626068115 0.328342467546463
0.17829453945159912 -0.24031007289886475 0.31553393602371216
0.17829453945159912 -0.24031008780002594 0.31945788860321045
0.17829453945159912 -0.22480618953704834 0.3012142777442932
0.17829452455043793 -0.22480618953704834 0.30452123284339905
0.17829453945159912 -0.20930230617523193 0.28400760889053345
0.17829453945159912 -0.20930232107639313 0.3042844533920288
0.17829453945159912 -0.19379842281341553 0.26981380581855774
0.17829453945159912 -0.19379842281341553 0.29547131061553955
0.17829453945159912 -0.1782945990562439 0.257846862077713
0.17829453945159912 -0.1782945990562439 0.2881450951099396
0.17829453945159912 -0.1627907156944275 0.24836057424545288
0.17829453945159912 -0.1627907156944275 0.27675992250442505
0.17829453945159912 -0.14728683233261108 0.23700805008411407
0.17829453945159912 -0.14728683233261108 0.2651955485343933
0.17829452455043793 -0.13178294897079468 0.2281142920255661
0.17829453945159912 -0.13178294897079468 0.255347341299057
0.17829453945159912 -0.11627906560897827 0.21927542984485626
0.17829455435276031 -0.11627906560897827 0.24288809299468994
0.17829453945159912 -0.10077518224716187 0.2044142782688141
0.17829453945159912 -0.10077518224716187 0.23194840550422668
0.17829453945159912 -0.08527129888534546 0.18832850456237793
0.17829453945159912 -0.08527129888534546 0.2248469889163971
0.17829453945159912 -0.06976741552352905 0.17046920955181122
0.17829453945159912 -0.06976741552352905 0.21279239654541016
0.17829453945159912 -0.05426359176635742 0.13757312297821045
0.17829453945159912 -0.05426358804106712 0.20018839836120605
0.17829453945159912 -0.038759708404541016 0.10047132521867752
0.17829453945159912 -0.038759708404541016 0.18536348640918732
0.17829453945159912 -0.02325582504272461 0.08814510703086853
0.17829453945159912 -0.02325582504272461 0.17049823701381683
0.17829453945159912 -0.007751941680908203 0.07966329902410507
0.17829453945159912 -0.007751941680908203 0.16003656387329102
0.17829453945159912 0.007751941680908203 0.07410654425621033
0.17829453945159912 0.007751941680908203 0.1491931974887848
0.17829453945159912 0.02325582504272461 0.06991240382194519
0.17829453945159912 0.02325582504272461 0.13728471100330353
0.17829453945159912 0.038759708404541016 0.06775979697704315
0.17829453945159912 0.038759708404541016 0.12664121389389038
0.17829453945159912 0.05426359176635742 0.06525497883558273
0.17829453945159912 0.05426359549164772 0.11810296028852463
0.17829453945159912 0.06976747512817383 0.061729662120342255
0.17829453945159912 0.06976747512817383 0.10815735161304474
0.17829453945159912 0.08527135848999023 0.055079299956560135
0.17829453945159912 0.08527135848999023 0.10176711529493332
0.17829453945159912 0.10077524185180664 0.05087091773748398
0.17829453945159912 0.10077524185180664 0.09148411452770233
0.17829453945159912 0.11627912521362305 0.04765873774886131
0.17829453945159912 0.11627911776304245 0.08591015636920929
0.17829453945159912 0.1317828893661499 0.04446682706475258
0.17829453945159912 0.1317828893661499 0.07512102276086807
