-0.10077518224716187 -0.11954601109027863 -0.22480618953704834
-0.10077518224716187 -0.1220095157623291 -0.20930230617523193
-0.10077518224716187 -0.12428592890501022 -0.19379842281341553
-0.10077518969774246 -0.12976741790771484 -0.1782946139574051
-0.10077518224716187 -0.10106945782899857 -0.27131783962249756
-0.10077518224716187 -0.11048242449760437 -0.25581395626068115
-0.10077518224716187 -0.10911081731319427 0.37984490394592285
-0.10077518224716187 -0.0737389624118805 -0.6279069781303406
-0.10077518224716187 -0.07104228436946869 -0.30232560634613037
-0.10077518224716187 -0.07760243117809296 -0.28682172298431396
-0.10077518224716187 -0.05732601508498192 -0.317829430103302
-0.10077518224716187 -0.060106948018074036 -0.27131783962249756
-0.10077518224716187 -0.06837441027164459 -0.25581395626068115
-0.10077518969774246 -0.06940010190010071 -0.24031007289886475
-0.10077518224716187 -0.0694684237241745 -0.22480618953704834
-0.10077518224716187 -0.0687255859375 -0.20930230617523193
-0.10077518224716187 -0.06358171999454498 -0.19379842281341553
-0.10077518224716187 -0.05982852354645729 0.364341139793396
-0.10077518224716187 -0.041271816939115524 -0.3333333134651184
-0.10077518224716187 -0.04696684330701828 -0.28682172298431396
-0.10077518224716187 -0.05313841998577118 -0.1782945990562439
-0.10077518224716187 -0.04568902403116226 -0.1627907156944275
-0.10077518224716187 -0.03041670471429825 -0.6279069781303406
-0.10077518224716187 -0.03318224102258682 -0.317829430103302
-0.10077518224716187 -0.037561528384685516 -0.30232560634613037
-0.10077518224716187 -0.03778384253382683 -0.14728683233261108
-0.10077517479658127 -0.0336596742272377 -0.13178294897079468
-0.10077518224716187 -0.025553787127137184 -0.038759708404541016
-0.10077518224716187 -0.025285225361585617 -0.02325582504272461
-0.10077518224716187 -0.02358521893620491 -0.007751941680908203
-0.10077518224716187 -0.0231265127658844 -0.3333333134651184
-0.10077518224716187 -0.023115796968340874 -0.11627907305955887
-0.10077518224716187 -0.021089773625135422 -0.10077518224716187
-0.10077518224716187 -0.01900869607925415 -0.08527129888534546
-0.10077518224716187 -0.020731259137392044 -0.06976741552352905
-0.10077518224716187 -0.022389722988009453 -0.05426359176635742
-0.10077518224716187 -0.022457564249634743 0.007751941680908203
-0.10077518224716187 -0.01964643783867359 0.02325582504272461
-0.10077518224716187 -0.015093476511538029 0.038759708404541016
-0.10077518224716187 -0.010851812548935413 0.05426359176635742
-0.10077518224716187 -0.007776875980198383 0.3488372564315796
-0.10077518224716187 0.00753340870141983 -0.41085273027420044
-0.10077518224716187 -0.007494336925446987 0.06976747512817383
-0.10077518224716187 -0.006976127624511719 0.08527135848999023
-0.10077518224716187 -0.007215666584670544 0.10077524930238724
-0.10077518224716187 -0.007286214269697666 0.11627912521362305
-0.10077517479658127 -0.004199107177555561 0.1317828893661499
-0.10077518224716187 0.010099620558321476 -0.41085273027420044
-0.10077518224716187 0.00875324010848999 0.1472867727279663
-0.10077518224716187 0.038679856806993484 0.16279065608978271
-0.10077518224716187 0.03196452930569649 0.3333333730697632
-0.10077518969774246 0.07270726561546326 0.3178294897079468
-0.10077517479658127 0.11631359159946442 0.30232560634613037
-0.10077518224716187 0.15511223673820496 0.28682172298431396
-0.10077518224716187 0.1641893982887268 0.17829453945159912
-0.10077518224716187 0.19034457206726074 0.27131783962249756
-0.10077518224716187 0.20191650092601776 0.19379842281341553
-0.10077518224716187 0.22427412867546082 0.25581395626068115
-0.10077517479658127 0.26076629757881165 0.24031007289886475
-0.10077518224716187 0.2980327010154724 0.19379842281341553
-0.10077518224716187 0.30233195424079895 0.22480618953704834
-0.10077518224716187 0.3420400619506836 0.17829453945159912
-0.10077518224716187 0.3393058180809021 0.20930230617523193
-0.10077518224716187 0.3734147846698761 0.19379842281341553
-0.10077518224716187 0.38400840759277344 0.16279065608978271
-0.10077518224716187 0.4040752649307251 0.17829453945159912
-0.10077518224716187 0.42910856008529663 0.1472867727279663
-0.10077518224716187 0.43699732422828674 0.16279065608978271
-0.10077518224716187 0.4662501811981201 0.1317828893661499
-0.10077518224716187 0.47355887293815613 0.1472867727279663
-0.10077518224716187 0.4966559410095215 0.11627912521362305
-0.10077518224716187 0.5073661208152771 0.1317828893661499
-0.10077518224716187 0.5221803188323975 0.10077524185180664
-0.10077518224716187 0.5485203266143799 0.08527135848999023
-0.10077518224716187 0.5414055585861206 0.11627912521362305
-0.10077518224716187 0.5740008354187012 0.10077524185180664
-0.10077518224716187 0.5866302251815796 0.06976747512817383
-0.10077518224716187 0.6071321964263916 0.08527135848999023
-0.10077518224716187 0.637340784072876 0.05426359176635742
-0.10077518224716187 0.6390838623046875 0.06976747512817383
-0.10077518224716187 0.6736264228820801 0.038759708404541016
-0.10077518224716187 0.672650158405304 0.05426359176635742
-0.10077518224716187 0.7106925845146179 0.02325582504272461
-0.10077518224716187 0.7076985836029053 0.038759708404541016
-0.10077518224716187 0.7454842925071716 0.007751941680908203
-0.10077518224716187 0.7414135336875916 0.02325582504272461
-0.10077518224716187 0.7761954665184021 -0.007751941680908203
-0.10077518224716187 0.7726445198059082 0.007751941680908203
-0.10077518224716187 0.8038855791091919 -0.02325582504272461
-0.10077518224716187 0.8022986054420471 -0.007751941680908203
-0.10077518224716187 0.8343309164047241 -0.038759708404541016
-0.10077518224716187 0.8328008055686951 -0.02325582504272461
-0.10077518224716187 0.8686820268630981 -0.05426359176635742
-0.10077518224716187 0.8632605671882629 -0.038759708404541016
-0.10077518224716187 0.9066007137298584 -0.06976741552352905
-0.10077518224716187 0.8948107361793518 -0.05426359176635742
-0.10077518224716187 0.9071810245513916 -0.06976741552352905
-0.08527129888534546 -0.6306638121604919 0.4418604373931885
-0.08527129888534546 -0.6313850283622742 0.4573643207550049
-0.08527129888534546 -0.6316304206848145 0.4728682041168213
-0.08527129888534546 -0.6319409608840942 0.4883720874786377
-0.08527129888534546 -0.6318227052688599 0.5038759708404541
-0.08527129888534546 -0.6305005550384521 0.5193798542022705
-0.08527129888534546 -0.6186786890029907 0.41085267066955566
-0.08527129888534546 -0.6271466612815857 0.42635655403137207
-0.08527129888534546 -0.6272541284561157 0.5348837375640869
-0.08527129888534546 -0.6161022782325745 0.5503876209259033
-0.08527129888534546 -0.59775310754776 0.37984490394592285
-0.08527129888534546 -0.6080981492996216 0.39534878730773926
-0.08527129888534546 -0.5868328213691711 0.364341139793396
-0.08527129888534546 -0.5676218271255493 0.3178294897079468
-0.08527129888534546 -0.5718283653259277 0.3333333730697632
-0.08527129143476486 -0.5798417925834656 0.3488372266292572
-0.08527129888534546 -0.5516467094421387 0.25581395626068115
-0.08527129888534546 -0.5558704137802124 0.27131783962249756
-0.08527129888534546 -0.55964195728302 0.28682172298431396
-0.08527129888534546 -0.5638049244880676 0.30232560634613037
-0.08527129888534546 -0.5356464982032776 0.22480618953704834
-0.08527129888534546 -0.5439666509628296 0.24031007289886475
-0.08527129888534546 -0.5399332642555237 0.5503876209259033
-0.08527129888534546 -0.5243534445762634 0.20930230617523193
-0.08527129888534546 -0.5121093392372131 0.19379842281341553
-0.08527129888534546 -0.5000060796737671 0.17829453945159912
-0.08527129888534546 -0.4932728409767151 0.5348837375640869
-0.08527129888534546 -0.47567740082740784 0.1472867727279663
-0.08527129143476486 -0.48815155029296875 0.16279064118862152
-0.08527129888534546 -0.46309399604797363 0.1317828893661499
-0.08527129888534546 -0.45746660232543945 0.5193798542022705
-0.08527129888534546 -0.44204485416412354 0.10077524185180664
-0.08527129888534546 -0.45150312781333923 0.11627912521362305
-0.08527129888534546 -0.43136948347091675 0.08527135848999023
-0.08527129888534546 -0.41888827085494995 0.06976747512817383
-0.08527129888534546 -0.4014403820037842 0.05426359176635742
-0.08527129888534546 -0.4100034534931183 0.5038759708404541
-0.08527129888534546 -0.3718399107456207 0.038759708404541016
-0.08527129888534546 -0.3665747344493866 0.4883720874786377
-0.08527129888534546 -0.33959484100341797 0.02325582504272461
-0.08527129143476486 -0.33039313554763794 0.4728682041168213
-0.08527129888534546 -0.3096776604652405 0.007751941680908203
-0.08527129888534546 -0.28232425451278687 -0.007751941680908203
-0.08527129888534546 -0.2776404619216919 0.4573643207550049
-0.08527129888534546 -0.259702205657959 -0.02325582504272461
-0.08527129888534546 -0.24007505178451538 -0.038759708404541016
-0.08527129888534546 -0.22123871743679047 -0.05426358804106712
-0.08527129888534546 -0.22378548979759216 0.4418604373931885
-0.08527129888534546 -0.20551836490631104 -0.06976741552352905
-0.08527129888534546 -0.19076812267303467 -0.08527129888534546
-0.08527129888534546 -0.18838846683502197 0.42635655403137207
-0.08527129888534546 -0.17574410140514374 -0.10077518224716187
-0.08527129888534546 -0.14825206995010376 -0.13178294897079468
-0.08527129888534546 -0.16134411096572876 -0.11627906560897827
-0.08527129888534546 -0.15900194644927979 0.41085267066955566
-0.08527129888534546 -0.1331915408372879 -0.1627907156944275
-0.08527129888534546 -0.13851423561573029 -0.14728683233261108
-0.08527129888534546 -0.12505985796451569 -0.1782945990562439
-0.08527129888534546 -0.12838180363178253 0.39534878730773926
-0.08527129888534546 -0.08637602627277374 -0.1782945990562439
-0.08527129888534546 -0.09109261631965637 0.37984490394592285
-0.08527129888534546 -0.07655148208141327 -0.6279069781303406
-0.08527129888534546 -0.06615713238716125 -0.1627907156944275
-0.08527129888534546 -0.04983264580368996 -0.14728683233261108
-0.08527129888534546 -0.037754375487565994 -0.13178294897079468
-0.08527129888534546 -0.031156063079833984 -0.11627906560897827
-0.08527129888534546 -0.038613997399806976 0.364341139793396
-0.08527129888534546 -0.018453948199748993 -0.6279069781303406
-0.08527129888534546 -0.021937239915132523 -0.10077518224716187
-0.08527129888534546 -0.019974129274487495 -0.08527129888534546
-0.08527129888534546 -0.020340997725725174 -0.06976741552352905
-0.08527129888534546 -0.021190937608480453 -0.05426359176635742
-0.08527129888534546 -0.02122318185865879 -0.038759708404541016
-0.08527129888534546 -0.020095907151699066 -0.02325582504272461
-0.08527129888534546 -0.017400940880179405 -0.007751941680908203
-0.08527129888534546 -0.008254528976976871 0.007751941680908203
-0.08527129888534546 0.007029807195067406 -0.5503876209259033
-0.08527129888534546 0.006863209418952465 -0.5348837375640869
-0.08527129888534546 0.00753757543861866 -0.5193798542022705
-0.08527129888534546 -0.004001036286354065 0.02325582504272461
-0.08527129888534546 -0.0009695305489003658 0.038759708404541016
-0.08527129888534546 -3.430480137467384e-05 0.05426359176635742
-0.08527129888534546 -2.3995991796255112e-05 0.06976747512817383
-0.08527129888534546 5.616992712020874e-05 0.08527135848999023
-0.08527129888534546 -0.0002166826743632555 0.10077524185180664
-0.08527129888534546 0.0009168758988380432 0.11627912521362305
-0.08527129888534546 0.007079869508743286 0.3488372564315796
-0.08527129888534546 0.011404608376324177 -0.5503876209259033
-0.08527129888534546 0.022778747603297234 -0.5348837375640869
-0.08527129888534546 0.016955604776740074 -0.5038759708404541
-0.08527129888534546 0.021144844591617584 -0.4883720874786377
-0.08527129888534546 0.022095495834946632 -0.4728682041168213
-0.08527129888534546 0.02239563874900341 -0.4573643207550049
-0.08527129888534546 0.02264346182346344 -0.4418604373931885
-0.08527130633592606 0.0078046806156635284 0.1317829042673111
-0.08527129888534546 0.023193521425127983 0.1472867727279663
-0.08527129888534546 0.024707794189453125 -0.5193798542022705
-0.08527129888534546 0.02503432333469391 -0.5038759708404541
-0.08527129888534546 0.024590997025370598 -0.4883721172809601
-0.08527129888534546 0.024165967479348183 -0.4728682041168213
-0.08527130633592606 0.023917805403470993 -0.4573643207550049
-0.08527129888534546 0.02364344522356987 -0.4418604373931885
-0.08527129888534546 0.04685927927494049 0.3333333730697632
-0.08527129888534546 0.05497192218899727 0.16279065608978271
-0.08527129888534546 0.08829089999198914 0.3178294897079468
-0.08527129888534546 0.12985609471797943 0.30232560634613037
-0.08527129888534546 0.16636444628238678 0.28682172298431396
-0.08527129888534546 0.186137855052948 0.17829453945159912
-0.08527129888534546 0.19928646087646484 0.27131783962249756
-0.08527129888534546 0.21742302179336548 0.19379842281341553
-0.08527129888534546 0.23263734579086304 0.25581395626068115
-0.08527129888534546 0.2711680233478546 0.24031007289886475
-0.08527129888534546 0.28428179025650024 0.19379842281341553
-0.08527129888534546 0.30854684114456177 0.22480618953704834
-0.08527129888534546 0.3266213536262512 0.17829453945159912
-0.08527129888534546 0.3430672883987427 0.20930230617523193
-0.08527129888534546 0.36873459815979004 0.16279065608978271
-0.08527129888534546 0.3762977123260498 0.19379842281341553
-0.08527129888534546 0.4063200056552887 0.17829453945159912
-0.08527129888534546 0.4219875931739807 0.1472867727279663
-0.08527129888534546 0.4385110139846802 0.16279065608978271
-0.08527129888534546 0.4609452486038208 0.1317828893661499
-0.08527129888534546 0.4855463206768036 0.11627912521362305
-0.08527129888534546 0.4735822081565857 0.1472867727279663
-0.08527129888534546 0.5026390552520752 0.10077524185180664
-0.08527129888534546 0.5192559361457825 0.08527135848999023
-0.08527129888534546 0.5077009201049805 0.1317828893661499
-0.08527129888534546 0.5479235649108887 0.06976747512817383
-0.08527129888534546 0.5401870608329773 0.11627912521362305
-0.08527129888534546 0.5712536573410034 0.10077524185180664
-0.08527129888534546 0.6030929088592529 0.08527135848999023
-0.08527129888534546 0.6172271966934204 0.05426359176635742
-0.08527129888534546 0.6345545053482056 0.06976747512817383
-0.08527129888534546 0.6674886345863342 0.038759708404541016
-0.08527129888534546 0.6674378514289856 0.05426359176635742
-0.08527129888534546 0.7034432291984558 0.02325582504272461
-0.08527129888534546 0.7042394280433655 0.038759708404541016
-0.08527129888534546 0.7360158562660217 0.007751941680908203
-0.08527129888534546 0.739769458770752 0.02325582504272461
-0.08527129888534546 0.7666165232658386 -0.007751941680908203
-0.08527129888534546 0.773251473903656 0.007751941680908203
-0.08527129888534546 0.7971417307853699 -0.02325582504272461
-0.08527129888534546 0.8033269643783569 -0.00775194214656949
-0.08527129888534546 0.8313109874725342 -0.038759708404541016
-0.08527129888534546 0.8345310688018799 -0.02325582504272461
-0.08527129888534546 0.8699179887771606 -0.05426359176635742
-0.08527129888534546 0.8658432960510254 -0.038759708404541016
-0.08527129888534546 0.9041590690612793 -0.06976741552352905
-0.08527129888534546 0.8983191251754761 -0.05426359176635742
-0.08527129888534546 0.9140905141830444 -0.06976741552352905
-0.06976741552352905 -0.7113312482833862 0.5503876209259033
-0.06976741552352905 -0.7078889012336731 0.5658915042877197
-0.06976741552352905 -0.6932549476623535 0.5193798542022705
-0.06976741552352905 -0.7043507099151611 0.5348837375640869
-0.06976741552352905 -0.6828791499137878 0.5038759708404541
-0.06976742297410965 -0.6887159943580627 0.5813953876495361
-0.06976741552352905 -0.6640664339065552 0.4728682041168213
-0.06976741552352905 -0.6732354760169983 0.4883720874786377
-0.06976741552352905 -0.6486278772354126 0.4418604373931885
-0.06976741552352905 -0.6574580669403076 0.4573643207550049
-0.06976741552352905 -0.6296776533126831 0.41085267066955566
-0.06976741552352905 -0.6407047510147095 0.42635658383369446
-0.06976741552352905 -0.6171237826347351 0.39534878730773926
-0.06976741552352905 -0.6045719981193542 0.37984490394592285
-0.06976741552352905 -0.584685206413269 0.3488372564315796
-0.06976741552352905 -0.5938208699226379 0.364341139793396
-0.06976741552352905 -0.566013514995575 0.27131783962249756
-0.06976741552352905 -0.5683088302612305 0.28682172298431396
-0.06976741552352905 -0.5701457262039185 0.30232560634613037
-0.06976741552352905 -0.5732835531234741 0.3178294897079468
-0.06976741552352905 -0.5788532495498657 0.3333333730697632
-0.06976741552352905 -0.5546591281890869 0.24031007289886475
-0.06976741552352905 -0.5608431100845337 0.25581395626068115
-0.06976741552352905 -0.5653440952301025 0.5813953876495361
-0.06976741552352905 -0.5353149175643921 0.20930230617523193
-0.06976741552352905 -0.5453736782073975 0.22480618953704834
-0.06976741552352905 -0.5231291651725769 0.19379842281341553
-0.06976741552352905 -0.5102914571762085 0.17829453945159912
-0.06976741552352905 -0.5154427886009216 0.5658915042877197
-0.06976741552352905 -0.4973185062408447 0.16279065608978271
-0.06976741552352905 -0.4740535020828247 0.1317828893661499
-0.06976741552352905 -0.4851984977722168 0.1472867727279663
-0.06976741552352905 -0.4745611846446991 0.5503876209259033
-0.06976741552352905 -0.4630945026874542 0.11627912521362305
-0.06976741552352905 -0.4435235857963562 0.08527135848999023
-0.06976741552352905 -0.452423632144928 0.10077524185180664
-0.06976741552352905 -0.4322391152381897 0.06976747512817383
-0.06976741552352905 -0.4373630881309509 0.5348837375640869
-0.06976741552352905 -0.417858362197876 0.05426359176635742
-0.06976741552352905 -0.39443638920783997 0.038759708404541016
-0.06976741552352905 -0.3951370120048523 0.5193798542022705
-0.06976741552352905 -0.3566102981567383 0.02325582504272461
-0.06976741552352905 -0.3633013963699341 0.5038759708404541
-0.06976741552352905 -0.3370708227157593 0.4883720874786377
-0.06976741552352905 -0.32210516929626465 0.007751941680908203
-0.06976741552352905 -0.30533626675605774 0.4728682041168213
-0.06976741552352905 -0.2915765643119812 -0.007751941680908203
-0.06976741552352905 -0.2679125666618347 -0.02325582504272461
-0.06976741552352905 -0.25644055008888245 0.4573643207550049
-0.06976741552352905 -0.247889444231987 -0.038759708404541016
-0.06976741552352905 -0.2294853776693344 -0.05426359176635742
-0.06976741552352905 -0.21419459581375122 -0.06976741552352905
-0.06976741552352905 -0.21284618973731995 0.4418604373931885
-0.06976741552352905 -0.19955039024353027 -0.08527129888534546
-0.06976741552352905 -0.18365928530693054 -0.10077518224716187
-0.06976741552352905 -0.1807658076286316 0.42635655403137207
-0.06976741552352905 -0.165889173746109 -0.11627906560897827
-0.06976741552352905 -0.1512317955493927 0.41085267066955566
-0.06976741552352905 -0.13179785013198853 -0.13178294897079468
-0.06976741552352905 -0.1315443217754364 -0.13178294897079468
-0.06976741552352905 -0.11896192282438278 0.39534878730773926
-0.06976741552352905 -0.07530707865953445 -0.6279069781303406
-0.06976741552352905 -0.07701016217470169 0.37984490394592285
-0.06976741552352905 -0.0655817836523056 -0.11627906560897827
-0.06976741552352905 -0.040136080235242844 -0.10077518224716187
-0.06976741552352905 -0.029072437435388565 -0.6279069781303406
-0.06976741552352905 -0.03333456069231033 -0.08527129888534546
-0.06976741552352905 -0.028039664030075073 -0.06976741552352905
-0.06976741552352905 -0.02581830322742462 0.364341139793396
-0.06976741552352905 -0.02287943661212921 -0.05426359176635742
-0.06976741552352905 -0.02038349211215973 -0.038759708404541016
-0.06976741552352905 -0.014498816803097725 -0.02325582504272461
-0.06976741552352905 -0.006437378004193306 -0.007751941680908203
-0.06976741552352905 -0.0007882730569690466 0.007751941680908203
-0.06976741552352905 0.022883405908942223 -0.5348837375640869
-0.06976741552352905 0.008418808691203594 0.02325582504272461
-0.06976741552352905 0.010222867131233215 0.038759708404541016
-0.06976741552352905 0.010785181075334549 0.05426359549164772
-0.06976741552352905 0.010726950131356716 0.06976747512817383
-0.06976741552352905 0.010891380719840527 0.08527136594057083
-0.06976741552352905 0.01117420569062233 0.10077524185180664
-0.06976741552352905 0.01252826675772667 0.11627912521362305
-0.06976741552352905 0.01804785616695881 0.1317828893661499
-0.06976741552352905 0.01762804202735424 0.3488372564315796
-0.06976741552352905 0.023326583206653595 -0.5348837375640869
-0.06976741552352905 0.03435607999563217 0.1472867727279663
-0.06976741552352905 0.057530999183654785 0.3333333730697632
-0.06976741552352905 0.07581239938735962 0.16279065608978271
-0.06976741552352905 0.09799802303314209 0.3178294897079468
-0.06976741552352905 0.11300627887248993 0.16279065608978271
-0.06976741552352905 0.13741722702980042 0.30232560634613037
-0.06976741552352905 0.1567492038011551 0.16279065608978271
-0.06976741552352905 0.17167523503303528 0.28682172298431396
-0.06976741552352905 0.20008201897144318 0.17829453945159912
-0.06976741552352905 0.20427417755126953 0.27131783962249756
-0.06976741552352905 0.237961083650589 0.19379842281341553
-0.06976741552352905 0.23913931846618652 0.25581395626068115
-0.06976741552352905 0.2591637372970581 0.19379842281341553
-0.06976741552352905 0.2764062285423279 0.24031007289886475
-0.06976741552352905 0.309012234210968 0.17829453945159912
-0.06976741552352905 0.31278765201568604 0.22480618953704834
-0.06976741552352905 0.3466607332229614 0.20930230617523193
-0.06976741552352905 0.3492889106273651 0.16279065608978271
-0.06976741552352905 0.37907928228378296 0.19379842281341553
-0.06976741552352905 0.40124309062957764 0.1472867727279663
-0.06976741552352905 0.40834248065948486 0.17829453945159912
-0.06976741552352905 0.44116681814193726 0.16279065608978271
-0.06976741552352905 0.44775131344795227 0.1317828893661499
-0.06976741552352905 0.47120288014411926 0.11627912521362305
-0.06976741552352905 0.48705822229385376 0.10077524185180664
-0.06976741552352905 0.4750809669494629 0.1472867727279663
-0.06976741552352905 0.5015845894813538 0.08527135848999023
-0.06976741552352905 0.5084214806556702 0.1317828893661499
-0.06976741552352905 0.5208836793899536 0.06976747512817383
-0.06976741552352905 0.5408757925033569 0.11627912521362305
-0.06976741552352905 0.5719369649887085 0.10077524185180664
-0.06976741552352905 0.5984422564506531 0.05426359176635742
-0.06976741552352905 0.6028087139129639 0.08527135848999023
-0.06976741552352905 0.6338825821876526 0.06976747512817383
-0.06976741552352905 0.6664278507232666 0.038759708404541016
-0.06976741552352905 0.6665591597557068 0.05426359176635742
-0.06976741552352905 0.7042446136474609 0.02325582504272461
-0.06976741552352905 0.7017775774002075 0.038759708404541016
-0.06976741552352905 0.7393704652786255 0.007751941680908203
-0.06976741552352905 0.739585816860199 0.02325582504272461
-0.06976741552352905 0.7727588415145874 -0.007751941680908203
-0.06976741552352905 0.7768350839614868 0.007751941680908203
-0.06976741552352905 0.8085677623748779 -0.02325582504272461
-0.06976741552352905 0.8099984526634216 -0.007751941680908203
-0.06976741552352905 0.8418067693710327 -0.02325582504272461
-0.06976741552352905 0.8548412919044495 -0.038759708404541016
-0.06976741552352905 0.870818018913269 -0.038759708404541016
-0.05426359176635742 -0.8014371395111084 0.5968992710113525
-0.05426359176635742 -0.7844434976577759 0.5813953876495361
-0.05426359176635742 -0.776076078414917 0.5348837375640869
-0.05426359176635742 -0.7820916175842285 0.5503876209259033
-0.05426359176635742 -0.7821785807609558 0.5658915042877197
-0.05426358804106712 -0.7658286094665527 0.5193798542022705
-0.05426359176635742 -0.747628927230835 0.5038759708404541
-0.05426359176635742 -0.7164679765701294 0.4883720874786377
-0.05426359176635742 -0.6896024942398071 0.4728682041168213
-0.05426359176635742 -0.6589475274085999 0.4418604373931885
-0.05426359176635742 -0.6700620055198669 0.4573643207550049
-0.05426359176635742 -0.6461386680603027 0.42635655403137207
-0.05426359176635742 -0.6338228583335876 0.41085267066955566
-0.05426359176635742 -0.6210057735443115 0.39534878730773926
-0.05426359176635742 -0.5974977016448975 0.364341139793396
-0.05426359176635742 -0.6085442304611206 0.37984490394592285
-0.05426359176635742 -0.5830576419830322 0.3333333730697632
-0.05426359176635742 -0.5876194834709167 0.3488372564315796
-0.05426359176635742 -0.5685340762138367 0.25581395626068115
-0.05426359176635742 -0.5722823143005371 0.27131783962249756
-0.05426359176635742 -0.5749059319496155 0.28682172298431396
-0.05426359176635742 -0.5768461227416992 0.30232560634613037
-0.05426359176635742 -0.5803999900817871 0.3178294897079468
-0.05426359176635742 -0.5795978307723999 0.5968992710113525
-0.05426359176635742 -0.553925096988678 0.22480618953704834
-0.05426359549164772 -0.5623016357421875 0.24031008780002594
-0.05426359176635742 -0.5430836081504822 0.20930230617523193
-0.05426359176635742 -0.5308285355567932 0.19379842281341553
-0.05426359176635742 -0.526378870010376 0.5813953876495361
-0.05426359176635742 -0.5055548548698425 0.16279065608978271
-0.05426358804106712 -0.5183926224708557 0.17829453945159912
-0.05426359176635742 -0.4932195544242859 0.1472867727279663
-0.05426359176635742 -0.48122403025627136 0.1317828893661499
-0.05426359176635742 -0.47847825288772583 0.5658915042877197
-0.05426359176635742 -0.461445152759552 0.10077524185180664
-0.05426359176635742 -0.47090020775794983 0.11627912521362305
-0.05426359176635742 -0.45122265815734863 0.08527135848999023
-0.05426359176635742 -0.42890506982803345 0.05426359176635742
-0.05426359176635742 -0.441444993019104 0.06976747512817383
-0.05426359176635742 -0.437320351600647 0.5503876209259033
-0.05426359176635742 -0.41051656007766724 0.038759708404541016
-0.05426359549164772 -0.3947460353374481 0.5348837375640869
-0.05426358804106712 -0.37604326009750366 0.02325582318007946
-0.05426359176635742 -0.36523476243019104 0.5193798542022705
-0.05426359176635742 -0.3348199725151062 0.007751941680908203
-0.05426359176635742 -0.3406616449356079 0.5038759708404541
-0.05426359549164772 -0.3172067105770111 0.4883720874786377
-0.05426359176635742 -0.2995446026325226 -0.007751941215246916
-0.05426359176635742 -0.28971752524375916 0.4728682041168213
-0.05426359176635742 -0.2737187147140503 -0.02325582504272461
-0.05426358804106712 -0.2540450394153595 -0.03875970467925072
-0.05426359176635742 -0.24449408054351807 0.4573643207550049
-0.05426359176635742 -0.23526769876480103 -0.05426359176635742
-0.05426359176635742 -0.22032171487808228 -0.06976741552352905
-0.05426359176635742 -0.20584936439990997 -0.08527129888534546
-0.05426359176635742 -0.20424862205982208 0.4418604373931885
-0.05426359176635742 -0.1891295462846756 -0.10077518224716187
-0.05426359176635742 -0.16891995072364807 -0.11627906560897827
-0.05426359176635742 -0.17345167696475983 0.42635655403137207
-0.05426359176635742 -0.14416146278381348 0.41085267066955566
-0.05426359176635742 -0.10503198951482773 -0.11627906560897827
-0.05426359176635742 -0.1103222519159317 0.39534878730773926
-0.05426359176635742 -0.07153566181659698 -0.6279069185256958
-0.05426359176635742 -0.05951493978500366 -0.10077518224716187
-0.05426359176635742 -0.06416761875152588 0.37984490394592285
-0.05426359176635742 -0.04915916547179222 -0.6279069781303406
-0.05426359176635742 -0.04117405042052269 -0.08527129888534546
-0.05426359176635742 -0.034186482429504395 -0.06976741552352905
-0.05426359176635742 -0.02405988983809948 -0.05426359176635742
-0.05426359176635742 -0.01859303191304207 -0.038759708404541016
-0.05426359176635742 -0.014585303142666817 0.364341139793396
-0.05426359176635742 -0.007627768442034721 -0.02325582504272461
-0.05426359176635742 -0.0037640598602592945 -0.00775194214656949
-0.05426359176635742 0.006681683473289013 0.007751941680908203
-0.05426359176635742 0.011289380490779877 0.02325582504272461
-0.05426359176635742 0.015087774954736233 0.038759708404541016
-0.05426359176635742 0.01701343059539795 0.05426359176635742
-0.05426359176635742 0.017624860629439354 0.06976747512817383
-0.05426359176635742 0.01869283802807331 0.08527135848999023
-0.05426359176635742 0.019612736999988556 0.10077524185180664
-0.05426359176635742 0.022260647267103195 0.11627912521362305
-0.05426359176635742 0.02761140838265419 0.1317828893661499
-0.05426359549164772 0.027878355234861374 0.3488372564315796
-0.05426359176635742 0.04447787255048752 0.1472867727279663
-0.05426359176635742 0.06694037467241287 0.3333333730697632
-0.05426359176635742 0.10734160244464874 0.3178294897079468
-0.05426359176635742 0.14432388544082642 0.30232560634613037
-0.05426359176635742 0.1775471717119217 0.28682172298431396
-0.05426359176635742 0.180317223072052 0.16279065608978271
-0.05426359176635742 0.21061430871486664 0.17829453945159912
-0.05426359176635742 0.20988786220550537 0.27131783962249756
-0.05426359176635742 0.2448756992816925 0.25581395626068115
-0.05426359176635742 0.28309711813926697 0.24031007289886475
-0.05426359176635742 0.29850950837135315 0.17829453945159912
-0.05426359176635742 0.3192230761051178 0.22480617463588715
-0.05426359176635742 0.34018468856811523 0.16279065608978271
-0.05426359176635742 0.35188916325569153 0.20930230617523193
-0.05426359176635742 0.3819617033004761 0.1472867727279663
-0.05426359176635742 0.38280677795410156 0.19379842281341553
-0.05426359549164772 0.41195836663246155 0.17829453945159912
-0.05426359176635742 0.42940554022789 0.1317828893661499
-0.05426359176635742 0.4558565318584442 0.11627912521362305
-0.05426359176635742 0.4425774812698364 0.16279065608978271
-0.05426359176635742 0.47580403089523315 0.10077524185180664
-0.05426359549164772 0.47590720653533936 0.1472867727279663
-0.05426359176635742 0.4917166233062744 0.08527135848999023
-0.05426359176635742 0.5118759870529175 0.06976747512817383
-0.05426359176635742 0.510765790939331 0.1317828893661499
-0.05426359176635742 0.5443199872970581 0.11627912521362305
-0.05426359176635742 0.5772611498832703 0.05426359176635742
-0.05426359176635742 0.5748405456542969 0.10077524185180664
-0.05426359176635742 0.6048078536987305 0.08527135848999023
-0.05426359176635742 0.6358470320701599 0.06976747512817383
-0.05426359176635742 0.6676095724105835 0.038759708404541016
-0.05426359176635742 0.6689667701721191 0.05426359176635742
-0.05426359176635742 0.7034136056900024 0.038759708404541016
-0.05426359176635742 0.7151912450790405 0.02325582504272461
-0.05426359176635742 0.7358911633491516 0.02325582504272461
-0.05426359176635742 0.750953733921051 0.007751941680908203
-0.05426359176635742 0.7699490785598755 0.007751941680908203
-0.05426359176635742 0.7908331751823425 -0.007751941680908203
-0.05426358804106712 0.8016558885574341 -0.007751941215246916
-0.038759708404541016 -0.8338154554367065 0.5658915042877197
-0.038759708404541016 -0.8394185304641724 0.5813953876495361
-0.038759708404541016 -0.8364425301551819 0.5968992710113525
-0.038759708404541016 -0.815276026725769 0.5193798542022705
-0.038759708404541016 -0.8195091485977173 0.5348837375640869
-0.038759708404541016 -0.8265171647071838 0.5503876209259033
-0.038759708404541016 -0.8242328763008118 0.612403154373169
-0.038759708404541016 -0.8008873462677002 0.4883720874786377
-0.038759708404541016 -0.811409592628479 0.5038759708404541
-0.038759708404541016 -0.7192802429199219 0.4728682041168213
-0.038759708404541016 -0.6819649934768677 0.4573643207550049
-0.038759708404541016 -0.6656924486160278 0.4418604373931885
-0.038759708404541016 -0.6538631916046143 0.42635655403137207
-0.038759708404541016 -0.6291198134422302 0.39534878730773926
-0.038759708404541016 -0.6423174142837524 0.41085267066955566
-0.038759708404541016 -0.6153947114944458 0.37984490394592285
-0.038759708404541016 -0.6154698133468628 0.612403154373169
-0.038759708404541016 -0.5971402525901794 0.3488372564315796
-0.038759708404541016 -0.6030866503715515 0.364341139793396
-0.038759708404541016 -0.5814324021339417 0.27131783962249756
-0.038759708404541016 -0.5836917161941528 0.28682172298431396
-0.038759708404541016 -0.5853061079978943 0.30232560634613037
-0.038759708404541016 -0.5874334573745728 0.3178294897079468
-0.038759708404541016 -0.5904109477996826 0.3333333730697632
-0.038759708404541016 -0.5717073082923889 0.24031007289886475
-0.038759708404541016 -0.5773030519485474 0.25581395626068115
-0.038759708404541016 -0.5531718730926514 0.20930230617523193
-0.038759708404541016 -0.563132643699646 0.22480618953704834
-0.038759708404541016 -0.5507056713104248 0.5968992710113525
-0.038759708404541016 -0.5407568216323853 0.19379842281341553
-0.038759708404541016 -0.5272777676582336 0.17829453945159912
-0.038759708404541016 -0.5135806202888489 0.16279065608978271
-0.038759708404541016 -0.48896515369415283 0.1317828893661499
-0.038759708404541016 -0.5008499622344971 0.1472867727279663
-0.038759708404541016 -0.49822768568992615 0.5813953876495361
-0.038759708404541016 -0.4783547520637512 0.11627912521362305
-0.038759708404541016 -0.4590950310230255 0.08527135848999023
-0.038759708404541016 -0.4680158197879791 0.10077524185180664
-0.038759708404541016 -0.448849618434906 0.06976747512817383
-0.038759708404541016 -0.4481525719165802 0.5658915042877197
-0.038759708404541016 -0.43661433458328247 0.05426359176635742
-0.038759708404541016 -0.4209369421005249 0.038759708404541016
-0.038759708404541016 -0.3956020176410675 0.02325582504272461
-0.038759708404541016 -0.4047703146934509 0.5503876209259033
-0.038759708404541016 -0.3709561824798584 0.5348837375640869
-0.038759708404541016 -0.3499472439289093 0.007751941680908203
-0.038759708404541016 -0.3453385829925537 0.5193798542022705
-0.038759708404541016 -0.3228866457939148 0.5038759708404541
-0.038759708404541016 -0.31015127897262573 -0.007751941680908203
-0.038759708404541016 -0.30224016308784485 0.4883720874786377
-0.038759708404541016 -0.2809785306453705 -0.02325582504272461
-0.038759708404541016 -0.279092013835907 0.4728682041168213
-0.038759708404541016 -0.2605454921722412 -0.038759708404541016
-0.038759708404541016 -0.24245162308216095 -0.05426359176635742
-0.038759708404541016 -0.22762539982795715 -0.06976741552352905
-0.038759708404541016 -0.23679842054843903 0.4573643207550049
-0.038759708404541016 -0.21319863200187683 -0.08527129888534546
-0.038759708404541016 -0.19615504145622253 -0.10077518224716187
-0.038759708404541016 -0.19903549551963806 0.4418604373931885
-0.038759708404541016 -0.1750575453042984 -0.11627906560897827
-0.038759708404541016 -0.16907261312007904 0.42635655403137207
-0.038759708404541016 -0.13881611824035645 0.41085267066955566
-0.038759708404541016 -0.10516466945409775 -0.11627906560897827
-0.038759708404541016 -0.09813842177391052 0.39534878730773926
-0.038759708404541016 -0.060165565460920334 -0.10077518224716187
-0.038759708404541016 -0.043612249195575714 -0.08527129888534546
-0.038759708404541016 -0.05022257938981056 0.37984490394592285
-0.038759708404541016 -0.035366810858249664 -0.06976741552352905
-0.038759708404541016 -0.028274191543459892 -0.05426359176635742
-0.038759708404541016 -0.01981484331190586 -0.038759708404541016
-0.038759708404541016 -0.010441845282912254 -0.02325582504272461
-0.038759708404541016 -0.004231358878314495 -0.007751941680908203
-0.038759708404541016 0.005818678066134453 0.007751941680908203
-0.038759708404541016 -0.0028080011252313852 0.364341139793396
-0.038759708404541016 0.01150955818593502 0.02325582504272461
-0.038759708404541016 0.016278723254799843 0.038759708404541016
-0.038759708404541016 0.019380973652005196 0.05426359176635742
-0.038759708404541016 0.020956551656126976 0.06976747512817383
-0.038759708404541016 0.022982219234108925 0.08527135848999023
-0.038759708404541016 0.023760341107845306 0.10077523440122604
-0.038759708404541016 0.025285296142101288 0.11627912521362305
-0.038759708404541016 0.030874289572238922 0.1317828893661499
-0.038759708404541016 0.049879588186740875 0.1472867727279663
-0.038759708404541016 0.038826730102300644 0.3488372266292572
-0.038759708404541016 0.07802476733922958 0.3333333730697632
-0.038759708404541016 0.11774078756570816 0.3178294599056244
-0.038759708404541016 0.15271539986133575 0.30232560634613037
-0.038759708404541016 0.1842493712902069 0.16279065608978271
-0.038759708404541016 0.18401497602462769 0.28682172298431396
-0.038759708404541016 0.21338209509849548 0.17829453945159912
-0.038759708404541016 0.2155573070049286 0.27131783962249756
-0.038759708404541016 0.2511742413043976 0.25581395626068115
-0.038759708404541016 0.300231009721756 0.17829453945159912
-0.038759708404541016 0.2903801500797272 0.24031007289886475
-0.038759708404541016 0.324924111366272 0.22480618953704834
-0.038759708404541016 0.3413150906562805 0.16279065608978271
-0.038759708404541016 0.35695239901542664 0.20930230617523193
-0.038759708404541016 0.3805728852748871 0.1472867727279663
-0.038759708404541016 0.3869559168815613 0.19379842281341553
-0.038759708404541016 0.41489627957344055 0.17829453945159912
-0.038759708404541016 0.4266240894794464 0.1317828893661499
-0.038759708404541016 0.4556804895401001 0.11627912521362305
-0.038759708404541016 0.44485583901405334 0.1627906709909439
-0.038759708404541016 0.47690367698669434 0.10077524185180664
-0.038759708404541016 0.47884875535964966 0.1472867727279663
-0.038759708404541016 0.4933937191963196 0.08527135848999023
-0.038759708404541016 0.513018012046814 0.06976747512817383
-0.038759708404541016 0.5144311785697937 0.1317828893661499
-0.038759708404541016 0.5478073954582214 0.11627912521362305
-0.038759708404541016 0.5783824920654297 0.10077524185180664
-0.038759708404541016 0.5877956748008728 0.05426359176635742
-0.038759708404541016 0.6088994741439819 0.08527135848999023
-0.038759708404541016 0.6392962336540222 0.06976747512817383
-0.038759708404541016 0.6642831563949585 0.038759708404541016
-0.038759708404541016 0.6737826466560364 0.05426359176635742
-0.038759708404541016 0.7067499756813049 0.02325582504272461
-0.038759708404541016 0.707249104976654 0.038759708404541016
-0.038759708404541016 0.7474850416183472 0.007751941680908203
-0.038759708404541016 0.7395433783531189 0.02325582504272461
-0.038759708404541016 0.7817205786705017 -0.007751941680908203
-0.038759708404541016 0.7734559774398804 0.007751941680908203
-0.038759708404541016 0.8097026348114014 -0.007751941680908203
-0.02325582504272461 -0.8800780773162842 0.5348837375640869
-0.02325582504272461 -0.8765330910682678 0.5503876209259033
-0.02325582690536976 -0.8753332495689392 0.5193798542022705
-0.02325582504272461 -0.8728020787239075 0.5658915042877197
-0.02325582504272461 -0.8686255216598511 0.5813953876495361
-0.02325582504272461 -0.8612215518951416 0.5968992710113525
-0.02325582504272461 -0.8318681120872498 0.5038759708404541
-0.02325582504272461 -0.8428428769111633 0.612403154373169
-0.02325582504272461 -0.8194413185119629 0.4883720874786377
-0.02325582504272461 -0.8088480234146118 0.6279069185256958
-0.02325582504272461 -0.7913763523101807 0.4728681743144989
-0.02325582504272461 -0.6949679851531982 0.4573643207550049
-0.02325582504272461 -0.676007866859436 0.4418604373931885
-0.02325582504272461 -0.6876797676086426 0.6279069185256958
-0.02325582504272461 -0.6621958613395691 0.42635655403137207
-0.02325582504272461 -0.6494650840759277 0.41085267066955566
-0.02325582504272461 -0.6365662813186646 0.39534878730773926
-0.02325582504272461 -0.6139184832572937 0.364341139793396
-0.02325582504272461 -0.6252081990242004 0.37984490394592285
-0.02325582504272461 -0.5982891917228699 0.3178294897079468
-0.02325582504272461 -0.6005703210830688 0.3333333730697632
-0.02325582504272461 -0.605254054069519 0.3488372564315796
-0.02325582504272461 -0.5867633819580078 0.25581395626068115
-0.02325582504272461 -0.5901804566383362 0.27131783962249756
-0.02325582504272461 -0.5933910608291626 0.28682172298431396
-0.02325582504272461 -0.5962827801704407 0.30232563614845276
-0.02325582504272461 -0.588468074798584 0.612403154373169
-0.02325582504272461 -0.573346734046936 0.22480618953704834
-0.02325582504272461 -0.5813530087471008 0.24031007289886475
-0.02325582504272461 -0.5505045056343079 0.19379842281341553
-0.02325582504272461 -0.5626993179321289 0.20930230617523193
-0.02325582504272461 -0.5367254614830017 0.17829453945159912
-0.02325582504272461 -0.522114634513855 0.16279065608978271
-0.02325582504272461 -0.5296988487243652 0.5968992710113525
-0.02325582504272461 -0.5082106590270996 0.1472867727279663
-0.02325582504272461 -0.49513131380081177 0.1317828893661499
-0.02325582504272461 -0.4742102324962616 0.10077524185180664
-0.02325582504272461 -0.48382413387298584 0.11627912521362305
-0.02325582504272461 -0.47456616163253784 0.5813953876495361
-0.02325582504272461 -0.4645916819572449 0.08527135848999023
-0.02325582504272461 -0.44308871030807495 0.05426359176635742
-0.02325582504272461 -0.4540027976036072 0.06976747512817383
-0.02325582504272461 -0.42881008982658386 0.038759708404541016
-0.02325582504272461 -0.4216671884059906 0.5658915042877197
-0.02325582504272461 -0.40741580724716187 0.02325582504272461
-0.02325582504272461 -0.3842628300189972 0.5503876209259033
-0.02325582504272461 -0.36608317494392395 0.007751941680908203
-0.02325582504272461 -0.355180025100708 0.5348837375640869
-0.02325582504272461 -0.32133519649505615 -0.007751941680908203
-0.02325582504272461 -0.3315969705581665 0.5193798542022705
-0.02325582504272461 -0.31109505891799927 0.5038759708404541
-0.02325582504272461 -0.2886064648628235 -0.02325582504272461
-0.02325582504272461 -0.2927353084087372 0.4883720874786377
-0.02325582504272461 -0.2675727307796478 -0.038759708404541016
-0.02325582504272461 -0.26995566487312317 0.4728682041168213
-0.02325582504272461 -0.24923309683799744 -0.05426359176635742
-0.02325582504272461 -0.2345750629901886 -0.06976741552352905
-0.02325582504272461 -0.2325897216796875 0.4573643207550049
-0.02325582504272461 -0.219929039478302 -0.08527129888534546
-0.02325582504272461 -0.20276546478271484 -0.10077518224716187
-0.02325582504272461 -0.1956654191017151 0.4418604373931885
-0.02325582504272461 -0.18249577283859253 -0.11627906560897827
-0.02325582504272461 -0.16618768870830536 0.42635655403137207
-0.02325582504272461 -0.1318032592535019 0.41085267066955566
-0.02325582504272461 -0.08468034863471985 -0.11627906560897827
-0.02325582504272461 -0.0842176303267479 0.39534878730773926
-0.02325582504272461 -0.05344991013407707 -0.10077518224716187
-0.02325582504272461 -0.0407564677298069 -0.08527129888534546
-0.02325582504272461 -0.03525705263018608 -0.06976741552352905
-0.02325582504272461 -0.030550764873623848 -0.05426359176635742
-0.02325582504272461 -0.03699538856744766 0.37984490394592285
-0.02325582504272461 -0.02141851745545864 -0.038759708404541016
-0.02325582504272461 -0.014700021594762802 -0.02325582504272461
-0.02325582504272461 -0.00572612788528204 -0.007751941680908203
-0.02325582504272461 0.0024709878489375114 0.007751941680908203
-0.02325582504272461 0.010387263260781765 0.02325582504272461
-0.02325582504272461 0.014929269440472126 0.038759708404541016
-0.02325582504272461 0.018309077247977257 0.05426359176635742
-0.02325582504272461 0.0204385444521904 0.06976747512817383
-0.02325582318007946 0.008298192173242569 0.364341139793396
-0.02325582504272461 0.02326001599431038 0.08527135848999023
-0.02325582504272461 0.024066118523478508 0.10077524185180664
-0.02325582504272461 0.025662455707788467 0.11627912521362305
-0.02325582504272461 0.031840212643146515 0.1317828893661499
-0.02325582504272461 0.053400635719299316 0.1472867727279663
-0.02325582504272461 0.049526408314704895 0.3488372564315796
-0.02325582504272461 0.08962841331958771 0.3333333730697632
-0.02325582504272461 0.12737661600112915 0.3178294897079468
-0.02325582504272461 0.16133694350719452 0.30232560634613037
-0.02325582690536976 0.1827864944934845 0.16279065608978271
-0.02325582504272461 0.19033211469650269 0.28682172298431396
-0.02325582504272461 0.21099857985973358 0.17829453945159912
-0.02325582504272461 0.22148717939853668 0.27131783962249756
-0.02325582504272461 0.2532217502593994 0.19379842281341553
-0.02325582504272461 0.2573300898075104 0.19379842281341553
-0.02325582504272461 0.2578781545162201 0.25581395626068115
-0.02325582504272461 0.29714101552963257 0.24031007289886475
-0.02325582504272461 0.30972820520401 0.17829453945159912
-0.02325582504272461 0.332947701215744 0.22480618953704834
-0.02325582504272461 0.34789448976516724 0.16279065608978271
-0.02325582504272461 0.3643955588340759 0.20930229127407074
-0.02325582504272461 0.3893586993217468 0.1472867727279663
-0.02325582504272461 0.3923627734184265 0.19379842281341553
-0.02325582504272461 0.4186810255050659 0.17829453945159912
-0.02325582504272461 0.43451082706451416 0.1317828893661499
-0.02325582504272461 0.4493590295314789 0.16279065608978271
-0.02325582504272461 0.4651740789413452 0.11627912521362305
-0.02325582504272461 0.48373520374298096 0.10077524185180664
-0.02325582504272461 0.48535794019699097 0.1472867727279663
-0.02325582504272461 0.4974115788936615 0.08527135848999023
-0.02325582504272461 0.5140959620475769 0.06976747512817383
-0.02325582504272461 0.5200790762901306 0.1317828893661499
-0.02325582504272461 0.5518346428871155 0.11627912521362305
-0.02325582504272461 0.5851194858551025 0.05426359549164772
-0.02325582504272461 0.5828666687011719 0.10077524185180664
-0.02325582504272461 0.613644003868103 0.08527135848999023
-0.02325582504272461 0.6443992853164673 0.06976747512817383
-0.02325582504272461 0.6603792905807495 0.038759712129831314
-0.02325582318007946 0.6763544678688049 0.05426359176635742
-0.02325582504272461 0.7044293880462646 0.02325582504272461
-0.02325582504272461 0.7085360884666443 0.038759708404541016
-0.02325582504272461 0.7453601360321045 0.007751941680908203
-0.02325582504272461 0.7411394119262695 0.02325582504272461
-0.02325582504272461 0.7795449495315552 -0.007751941680908203
-0.02325582504272461 0.7765248417854309 0.007751941680908203
-0.02325582504272461 0.8252664804458618 -0.02325582504272461
-0.02325582504272461 0.8161436915397644 -0.007751941680908203
-0.02325582504272461 0.8505544662475586 -0.02325582504272461
-0.007751941680908203 -0.9704180955886841 0.4728682041168213
-0.007751941680908203 -0.9503220915794373 0.4883720874786377
-0.007751941680908203 -0.9372702836990356 0.4728682041168213
-0.007751941680908203 -0.9310537576675415 0.5038759708404541
-0.00775194214656949 -0.9188435077667236 0.5193798542022705
-0.007751941680908203 -0.9073056578636169 0.5348837375640869
-0.007751941680908203 -0.8954418897628784 0.5503876209259033
-0.007751941680908203 -0.8883097767829895 0.4883720874786377
-0.007751941680908203 -0.8852630853652954 0.5658915042877197
-0.007751941680908203 -0.8795403242111206 0.5813953876495361
-0.007751941215246916 -0.8705552816390991 0.5968992710113525
-0.007751941215246916 -0.854210376739502 0.612403154373169
-0.007751941680908203 -0.8294640779495239 0.4883720874786377
-0.007751941680908203 -0.8177170157432556 0.6279069185256958
-0.007751941680908203 -0.8007378578186035 0.4728682041168213
-0.007751941215246916 -0.7039840221405029 0.4573643207550049
-0.007751941680908203 -0.6813962459564209 0.4418604373931885
-0.007751941680908203 -0.6673066020011902 0.42635655403137207
-0.007751941680908203 -0.6704061627388 0.6279069185256958
-0.007751941680908203 -0.6434418559074402 0.39534878730773926
-0.007751941680908203 -0.6550478339195251 0.41085267066955566
-0.007751941680908203 -0.630783200263977 0.37984490394592285
-0.007751941680908203 -0.6134656071662903 0.3488372564315796
-0.007751941680908203 -0.6196450591087341 0.364341139793396
-0.007751941680908203 -0.5971184968948364 0.27131783962249756
-0.007751941680908203 -0.6000037789344788 0.28682172298431396
-0.007751941680908203 -0.6021845936775208 0.30232560634613037
-0.007751941680908203 -0.6043404340744019 0.3178294897079468
-0.007751941680908203 -0.6076314449310303 0.3333333730697632
-0.007751941680908203 -0.5883721113204956 0.24031007289886475
-0.007751941680908203 -0.5931591987609863 0.25581395626068115
-0.007751941680908203 -0.5706678032875061 0.20930230617523193
