-0.038759708404541016 -0.31927016377449036 -0.05426359176635742
-0.038759708404541016 -0.28005582094192505 -0.06976741552352905
-0.038759708404541016 -0.279509961605072 0.19379842281341553
-0.038759708404541016 -0.22924256324768066 0.17829453945159912
-0.038759708404541016 -0.18633811175823212 0.16279065608978271
-0.038759708404541016 -0.1500202864408493 0.1472867727279663
-0.038759708404541016 -0.11797115206718445 0.1317828893661499
-0.038759708404541016 -0.08970259875059128 0.11627912521362305
-0.038759708404541016 -0.06504106521606445 0.10077524185180664
-0.038759708404541016 -0.0374724380671978 0.08527135848999023
-0.038759708404541016 -0.006956907920539379 0.06976747512817383
-0.038759708404541016 0.019732067361474037 0.05426359176635742
-0.038759708404541016 0.04532419145107269 0.038759708404541016
-0.038759708404541016 0.07458814233541489 0.02325582504272461
-0.038759708404541016 0.11232148855924606 -0.08527129888534546
-0.038759708404541016 0.10086030513048172 0.007751941680908203
-0.038759708404541016 0.12701496481895447 -0.007751941680908203
-0.038759708404541016 0.13797351717948914 -0.08527129888534546
-0.038759708404541016 0.15288303792476654 -0.02325582504272461
-0.038759708404541016 0.17640900611877441 -0.038759708404541016
-0.038759708404541016 0.18523693084716797 -0.06976741552352905
-0.038759708404541016 0.18752804398536682 -0.05426359176635742
-0.02325582504272461 -0.9725177884101868 0.20930230617523193
-0.02325582504272461 -0.9751917719841003 0.22480618953704834
-0.02325582504272461 -0.9591234922409058 0.24031007289886475
-0.02325582504272461 -0.9305047988891602 0.20930230617523193
-0.02325582504272461 -0.9022020101547241 0.25581395626068115
-0.02325582504272461 -0.7595231533050537 0.19379842281341553
-0.02325582504272461 -0.7591551542282104 0.20930230617523193
-0.02325582504272461 -0.7507227063179016 0.17829453945159912
-0.02325582504272461 -0.7261174321174622 0.16279065608978271
-0.02325582504272461 -0.7088114619255066 0.1472867727279663
-0.02325582504272461 -0.712216854095459 0.27131783962249756
-0.02325582504272461 -0.6957384347915649 0.1317828893661499
-0.02325582504272461 -0.6811472177505493 0.11627912521362305
-0.02325582504272461 -0.6649502515792847 0.10077524185180664
-0.02325582504272461 -0.6740498542785645 0.28682172298431396
-0.02325582504272461 -0.6463338732719421 0.08527135848999023
-0.02325582504272461 -0.6217824220657349 0.06976747512817383
-0.02325582504272461 -0.5884904861450195 0.05426359176635742
-0.02325582504272461 -0.5464859008789062 0.038759708404541016
-0.02325582504272461 -0.5332793593406677 0.28682172298431396
-0.02325582504272461 -0.5153608322143555 0.02325582504272461
-0.02325582504272461 -0.5051789879798889 0.27131783962249756
-0.02325582504272461 -0.4910728335380554 0.007751941680908203
-0.02325582504272461 -0.479208767414093 0.25581395626068115
-0.02325582504272461 -0.46295028924942017 -0.007751941680908203
-0.02325582504272461 -0.4428942799568176 0.24031007289886475
-0.02325582504272461 -0.42533519864082336 -0.02325582504272461
-0.02325582504272461 -0.3892151713371277 0.22480617463588715
-0.02325582504272461 -0.3740151524543762 -0.038759708404541016
-0.02325582504272461 -0.3328128457069397 -0.05426359549164772
-0.02325582504272461 -0.3287215530872345 0.20930230617523193
-0.02325582504272461 -0.300622820854187 -0.06976741552352905
-0.02325582504272461 -0.26897406578063965 0.19379842281341553
-0.02325582504272461 -0.2530159652233124 -0.08527129888534546
-0.02325582504272461 -0.21843630075454712 0.17829453945159912
-0.02325582504272461 -0.17419207096099854 0.16279065608978271
-0.02325582504272461 -0.15562045574188232 -0.08527129888534546
-0.02325582504272461 -0.1372160166501999 0.1472867727279663
-0.02325582504272461 -0.10567918419837952 0.1317828893661499
-0.02325582504272461 -0.08712497353553772 -0.08527129888534546
-0.02325582504272461 -0.07918775081634521 0.11627912521362305
-0.02325582504272461 -0.05428909510374069 0.10077524185180664
-0.02325582504272461 -0.025318721309304237 0.08527135848999023
-0.02325582504272461 0.003995656035840511 0.06976747512817383
-0.02325582504272461 0.03359885513782501 0.05426359176635742
-0.02325582504272461 0.06793676316738129 0.038759708404541016
-0.02325582504272461 0.09918304532766342 0.02325582504272461
-0.02325582504272461 0.1229146271944046 0.007751941680908203
-0.02325582504272461 0.1488799899816513 -0.007751941680908203
-0.02325582504272461 0.17566512525081635 -0.02325582504272461
-0.02325582504272461 0.202951580286026 -0.038759708404541016
-0.02325582318007946 0.22930380702018738 -0.05426358804106712
-0.02325582504272461 0.25465551018714905 -0.06976741552352905
-0.02325582504272461 0.29728442430496216 -0.08527129888534546
-0.007751941680908203 -0.9782124757766724 0.20930230617523193
-0.007751941680908203 -0.981886625289917 0.22480618953704834
-0.007751941680908203 -0.9736741781234741 0.24031007289886475
-0.007751941680908203 -0.9358641505241394 0.25581395626068115
-0.007751941680908203 -0.7881605625152588 0.19379842281341553
-0.007751941680908203 -0.7715455293655396 0.17829453945159912
-0.007751941680908203 -0.7482412457466125 0.16279065608978271
-0.007751941680908203 -0.7254381775856018 0.1472867727279663
-0.007751941680908203 -0.7261267900466919 0.27131783962249756
-0.007751941680908203 -0.7091447710990906 0.1317828893661499
-0.007751941680908203 -0.6932554244995117 0.11627912521362305
-0.007751941680908203 -0.6752805709838867 0.10077524185180664
-0.007751941680908203 -0.6874365210533142 0.28682172298431396
-0.007751941680908203 -0.653336763381958 0.08527135848999023
-0.007751941680908203 -0.6286337375640869 0.06976747512817383
-0.007751941680908203 -0.5937343835830688 0.05426359176635742
-0.007751941680908203 -0.5510491728782654 0.038759708404541016
-0.007751941680908203 -0.5200940370559692 0.02325582504272461
-0.007751941680908203 -0.5278486609458923 0.28682172298431396
-0.007751941680908203 -0.49603819847106934 0.007751941680908203
-0.007751941680908203 -0.5009121894836426 0.27131783962249756
-0.007751941680908203 -0.47449204325675964 0.25581395626068115
-0.007751941680908203 -0.4712469279766083 -0.007751941680908203
-0.007751941680908203 -0.4361768066883087 -0.02325582504272461
-0.007751941680908203 -0.433684766292572 0.24031007289886475
-0.007751941680908203 -0.3954024910926819 -0.038759708404541016
-0.007751941680908203 -0.3775123953819275 0.22480618953704834
-0.007751941680908203 -0.3429449200630188 -0.05426359176635742
-0.007751941680908203 -0.3179015815258026 0.20930230617523193
-0.00775194214656949 -0.3128044307231903 -0.06976741552352905
-0.007751941680908203 -0.2778460681438446 -0.08527129888534546
-0.007751941680908203 -0.2624105215072632 0.19379842281341553
-0.007751941680908203 -0.21137084066867828 0.17829453945159912
-0.007751941680908203 -0.1662874072790146 0.16279065608978271
-0.00775194214656949 -0.1285955011844635 0.1472867727279663
-0.007751941680908203 -0.09713281691074371 0.1317828893661499
-0.007751941680908203 -0.0730847492814064 -0.10077518224716187
-0.007751941680908203 -0.07182896882295609 0.11627912521362305
-0.007751941680908203 -0.0474514365196228 0.10077524185180664
-0.007751941680908203 -0.008546036668121815 -0.10077518224716187
-0.007751941680908203 -0.019681230187416077 0.08527135848999023
-0.007751941680908203 0.009252569638192654 0.06976747512817383
-0.007751941680908203 0.04143950343132019 0.05426359176635742
-0.007751941680908203 0.07417895644903183 -0.10077518224716187
-0.007751941680908203 0.07897795736789703 0.038759708404541016
-0.007751941680908203 0.10864110291004181 0.02325582504272461
-0.007751941680908203 0.13081048429012299 0.007751941680908203
-0.007751941680908203 0.15396171808242798 -0.007751941680908203
-0.007751941680908203 0.1819777637720108 -0.02325582504272461
-0.007751941680908203 0.21336287260055542 -0.038759708404541016
-0.007751941680908203 0.2492372691631317 -0.05426359176635742
-0.007751941680908203 0.3177246153354645 -0.06976741552352905
-0.007751941680908203 0.5797228217124939 -0.10077518224716187
-0.007751941680908203 0.6029276847839355 -0.06976741552352905
-0.007751941680908203 0.6834681034088135 -0.08527129888534546
-0.007751941680908203 0.7319739460945129 -0.05426359176635742
-0.007751941680908203 0.7789826393127441 -0.06976741552352905
-0.007751941680908203 0.9186291694641113 -0.05426359176635742
-0.007751941680908203 0.9182802438735962 -0.038759708404541016
-0.007751941680908203 0.9672458171844482 -0.038759708404541016
0.007751941680908203 -0.977925717830658 0.20930230617523193
0.007751941680908203 -0.981601893901825 0.22480618953704834
0.007751941680908203 -0.9736875295639038 0.24031007289886475
0.007751941215246916 -0.9367972016334534 0.25581395626068115
0.007751941680908203 -0.7870411276817322 0.19379842281341553
0.007751941680908203 -0.7707256078720093 0.17829453945159912
0.007751941680908203 -0.7473559379577637 0.16279065608978271
0.007751941680908203 -0.7248035669326782 0.1472867727279663
0.007751941680908203 -0.7251348495483398 0.27131783962249756
0.007751941680908203 -0.7085597515106201 0.1317828893661499
0.007751941680908203 -0.6926943063735962 0.11627912521362305
0.007751941680908203 -0.6748408079147339 0.10077524185180664
0.007751941680908203 -0.686952531337738 0.28682172298431396
0.007751941680908203 -0.653171181678772 0.08527135848999023
0.007751941680908203 -0.6287713050842285 0.06976747512817383
0.007751941680908203 -0.5939059257507324 0.05426359176635742
0.007751941680908203 -0.5489552021026611 0.038759708404541016
0.007751941680908203 -0.5286784172058105 0.28682172298431396
0.007751941680908203 -0.5173659324645996 0.02325582504272461
0.007751941680908203 -0.49368739128112793 0.007751941680908203
0.007751941680908203 -0.5017918348312378 0.27131783962249756
0.007751941680908203 -0.4757176637649536 0.25581395626068115
0.007751941680908203 -0.4679228365421295 -0.007751941680908203
0.007751941680908203 -0.4330785274505615 -0.02325582504272461
0.007751941680908203 -0.43564558029174805 0.24031007289886475
0.007751941680908203 -0.39155498147010803 -0.038759708404541016
0.007751941680908203 -0.37849026918411255 0.22480618953704834
0.007751941680908203 -0.3422985076904297 -0.05426359176635742
0.007751941680908203 -0.3191215693950653 0.20930230617523193
0.007751941680908203 -0.31227588653564453 -0.06976741552352905
0.007751941680908203 -0.27742132544517517 -0.08527129888534546
0.007751941680908203 -0.2637847065925598 0.19379842281341553
0.007751941680908203 -0.21250998973846436 0.17829453945159912
0.007751941680908203 -0.16719406843185425 0.16279065608978271
0.007751941680908203 -0.12928754091262817 0.1472867727279663
0.007751941680908203 -0.0974518433213234 0.1317828893661499
0.007751941680908203 -0.0746416226029396 -0.10077518224716187
0.007751941680908203 -0.07169336825609207 0.11627912521362305
0.007751941680908203 -0.04711180180311203 0.10077524185180664
0.007751941680908203 -0.019281353801488876 0.08527135103940964
0.007751941680908203 -0.007279154844582081 -0.10077518224716187
0.007751941680908203 0.009608305990695953 0.06976747512817383
0.007751941680908203 0.04206091910600662 0.05426359176635742
0.007751941680908203 0.0767030119895935 -0.10077518224716187
0.007751941680908203 0.07965575903654099 0.038759708404541016
0.007751941680908203 0.1084771677851677 0.02325582504272461
0.007751941680908203 0.12924768030643463 0.007751941680908203
0.007751941680908203 0.15265315771102905 -0.007751941680908203
0.007751941680908203 0.18109005689620972 -0.02325582690536976
0.007751941680908203 0.2125556617975235 -0.038759708404541016
0.007751941680908203 0.24762246012687683 -0.05426359176635742
0.007751941680908203 0.3153986632823944 -0.06976741552352905
0.007751941215246916 0.5814703106880188 -0.10077518224716187
0.007751941680908203 0.6123988032341003 -0.06976741552352905
0.007751941680908203 0.6899814605712891 -0.08527129888534546
0.007751941680908203 0.7337073683738708 -0.05426359176635742
0.007751941680908203 0.7798506617546082 -0.06976741552352905
0.007751941680908203 0.9150526523590088 -0.05426359176635742
0.02325582504272461 -0.9705643653869629 0.20930230617523193
0.02325582504272461 -0.9739065766334534 0.22480618953704834
0.02325582504272461 -0.9594603776931763 0.24031007289886475
0.02325582504272461 -0.9407705068588257 0.20930230617523193
0.02325582690536976 -0.906695544719696 0.25581395626068115
0.02325582504272461 -0.7761845588684082 0.25581395626068115
0.02325582504272461 -0.7580875754356384 0.19379842281341553
0.02325582504272461 -0.7548778057098389 0.20930230617523193
0.02325582504272461 -0.7479997873306274 0.17829453945159912
0.02325582504272461 -0.7506742477416992 0.25581395626068115
0.02325582504272461 -0.7230792045593262 0.16279065608978271
0.02325582504272461 -0.7064380049705505 0.1472867727279663
0.02325582504272461 -0.7094271183013916 0.27131783962249756
0.02325582504272461 -0.6936158537864685 0.1317828893661499
0.02325582504272461 -0.6793808937072754 0.11627912521362305
0.02325582504272461 -0.6634030342102051 0.10077524185180664
0.02325582690536976 -0.6723130941390991 0.28682172298431396
0.02325582504272461 -0.6449025869369507 0.08527135848999023
0.02325582504272461 -0.6195740699768066 0.06976747512817383
0.02325582504272461 -0.5829416513442993 0.05426359176635742
0.02325582504272461 -0.5362465977668762 0.28682172298431396
0.02325582504272461 -0.5341116786003113 0.038759708404541016
0.02325582504272461 -0.5053057074546814 0.02325582504272461
0.02325582504272461 -0.5092892050743103 0.27131783962249756
0.02325582504272461 -0.48199188709259033 0.007751941680908203
0.02325582690536976 -0.4840284585952759 0.25581395626068115
0.02325582504272461 -0.4553466737270355 -0.007751941680908203
0.02325582504272461 -0.4499385952949524 0.24031007289886475
0.02325582504272461 -0.4184207618236542 -0.02325582504272461
0.02325582504272461 -0.39251241087913513 0.22480618953704834
0.02325582504272461 -0.3694562315940857 -0.038759708404541016
0.02325582318007946 -0.3321603238582611 -0.05426359176635742
0.02325582504272461 -0.3301467299461365 0.20930230617523193
0.02325582504272461 -0.30031678080558777 -0.06976741552352905
0.02325582504272461 -0.27078109979629517 0.19379842281341553
0.02325582318007946 -0.25467726588249207 -0.08527129888534546
0.02325582504272461 -0.21983590722084045 0.17829453945159912
0.02325582504272461 -0.1754339039325714 0.16279065608978271
0.02325582504272461 -0.15727664530277252 -0.08527129888534546
0.02325582504272461 -0.138442724943161 0.1472867727279663
0.02325582504272461 -0.10649782419204712 0.1317828893661499
0.02325582504272461 -0.09384892880916595 -0.08527129888534546
0.02325582504272461 -0.07952716946601868 0.11627912521362305
0.02325582504272461 -0.053975507616996765 0.10077524185180664
0.02325582504272461 -0.024767380207777023 0.08527135848999023
0.02325582504272461 0.004280108027160168 0.06976747512817383
0.02325582504272461 0.033846285194158554 0.05426359176635742
0.02325582504272461 0.06858518719673157 0.038759708404541016
0.02325582504272461 0.09859906882047653 0.02325582504272461
0.02325582504272461 0.12027429044246674 0.007751941680908203
0.02325582504272461 0.14580479264259338 -0.007751941680908203
0.02325582504272461 0.17175176739692688 -0.02325582504272461
0.02325582504272461 0.1975025236606598 -0.038759708404541016
0.02325582504272461 0.21735265851020813 -0.08527129888534546
0.02325582504272461 0.21569979190826416 -0.05426359176635742
0.02325582504272461 0.22667832672595978 -0.06976741552352905
0.038759708404541016 -0.7217945456504822 0.22480618953704834
0.038759708404541016 -0.7276309728622437 0.24031007289886475
0.038759708404541016 -0.7211800813674927 0.25581395626068115
0.038759708404541016 -0.7072651386260986 0.17829453945159912
0.038759708404541016 -0.7185966968536377 0.19379842281341553
0.038759708404541016 -0.7192999720573425 0.20930230617523193
0.038759708404541016 -0.6945827603340149 0.16279065608978271
0.038759708404541016 -0.6940054893493652 0.27131783962249756
0.038759708404541016 -0.6794107556343079 0.1317828893661499
0.03875970467925072 -0.6892257928848267 0.14728675782680511
0.038759708404541016 -0.6673778295516968 0.11627912521362305
0.038759708404541016 -0.6539437770843506 0.10077524185180664
0.038759708404541016 -0.6506466865539551 0.28682172298431396
0.038759708404541016 -0.6377124190330505 0.08527135848999023
0.038759708404541016 -0.6159080266952515 0.06976747512817383
0.038759708404541016 -0.582099437713623 0.05426359176635742
0.038759708404541016 -0.5371175408363342 0.038759708404541016
0.038759712129831314 -0.5502926111221313 0.28682172298431396
0.038759708404541016 -0.5068489909172058 0.02325582504272461
0.038759708404541016 -0.5178581476211548 0.27131783962249756
0.038759708404541016 -0.49277347326278687 0.25581395626068115
0.038759708404541016 -0.48196396231651306 0.007751941680908203
0.038759708404541016 -0.4630986750125885 0.24031007289886475
0.038759708404541016 -0.45169371366500854 -0.007751941215246916
0.038759708404541016 -0.40925583243370056 -0.02325582504272461
0.038759708404541016 -0.40717828273773193 0.22480618953704834
0.038759708404541016 -0.35380125045776367 -0.038759708404541016
0.038759708404541016 -0.34287720918655396 0.20930230617523193
0.038759708404541016 -0.31928253173828125 -0.05426359176635742
0.038759708404541016 -0.2812654972076416 -0.06976741552352905
0.038759708404541016 -0.28155678510665894 0.19379842281341553
0.038759708404541016 -0.2301711142063141 0.17829453945159912
0.038759708404541016 -0.18699046969413757 0.16279065608978271
0.038759708404541016 -0.1507234126329422 0.1472867727279663
0.038759708404541016 -0.1186773031949997 0.1317828893661499
0.038759708404541016 -0.09079866111278534 0.11627912521362305
0.038759708404541016 -0.0651848092675209 0.10077524185180664
0.038759708404541016 -0.03651265799999237 0.08527135848999023
0.038759708404541016 -0.00609871931374073 0.06976747512817383
0.038759708404541016 0.020867109298706055 0.05426359176635742
0.038759708404541016 0.046969085931777954 0.038759708404541016
0.038759708404541016 0.07505576312541962 0.02325582504272461
0.038759708404541016 0.09699689596891403 0.007751941680908203
0.038759708404541016 0.11204791069030762 -0.08527129888534546
0.038759708404541016 0.1196916326880455 -0.007751941680908203
0.038759708404541016 0.1322099268436432 -0.08527130633592606
0.038759708404541016 0.14256328344345093 -0.02325582504272461
0.038759708404541016 0.15937788784503937 -0.038759708404541016
0.038759708404541016 0.16758210957050323 -0.06976741552352905
0.038759708404541016 0.1684304177761078 -0.05426359176635742
0.05426359176635742 -0.7080491781234741 0.20930230617523193
0.05426359176635742 -0.712848424911499 0.22480618953704834
0.05426359176635742 -0.7152341604232788 0.24031007289886475
0.05426359176635742 -0.7062785625457764 0.25581395626068115
0.05426359176635742 -0.6930754780769348 0.17829453945159912
0.05426359549164772 -0.7015376091003418 0.19379843771457672
0.05426359176635742 -0.6809174418449402 0.1472867727279663
0.05426359176635742 -0.6870866417884827 0.16279065608978271
0.05426359176635742 -0.6744197607040405 0.27131783962249756
0.05426359176635742 -0.6627136468887329 0.11627912521362305
0.05426358804106712 -0.6730879545211792 0.1317828893661499
0.05426359176635742 -0.649660587310791 0.10077524185180664
0.05426359176635742 -0.6346287727355957 0.08527135848999023
0.05426359176635742 -0.614708662033081 0.06976747512817383
0.05426359176635742 -0.6084197759628296 0.28682172298431396
0.05426359176635742 -0.5849871635437012 0.05426359176635742
0.05426359176635742 -0.5853278040885925 0.28682172298431396
0.05426359176635742 -0.547723114490509 0.038759708404541016
0.05426359176635742 -0.531113862991333 0.27131783962249756
0.05426359176635742 -0.5163642168045044 0.02325582504272461
0.05426359176635742 -0.48953744769096375 0.007751941680908203
0.05426359176635742 -0.5028867721557617 0.25581395626068115
0.05426359176635742 -0.47457194328308105 0.24031007289886475
0.05426359176635742 -0.4589308500289917 -0.007751941680908203
0.05426359176635742 -0.4115563631057739 -0.02325582504272461
0.05426359176635742 -0.42374753952026367 0.22480618953704834
0.05426359176635742 -0.3577921986579895 0.20930230617523193
0.05426359176635742 -0.3457883596420288 -0.038759708404541016
0.05426359176635742 -0.3058691620826721 -0.05426359176635742
0.05426359176635742 -0.2972722053527832 0.19379842281341553
0.05426358804106712 -0.25318393111228943 -0.06976741552352905
0.05426359176635742 -0.24274548888206482 0.17829453945159912
0.05426359176635742 -0.19937139749526978 0.16279065608978271
0.05426359176635742 -0.16274788975715637 0.1472867727279663
0.05426359176635742 -0.12023689597845078 -0.06976741552352905
0.05426359176635742 -0.13021022081375122 0.1317828893661499
0.05426359176635742 -0.10194366425275803 0.11627912521362305
0.05426359176635742 -0.08846952021121979 -0.06976741552352905
0.05426359176635742 -0.07651366293430328 0.10077524185180664
0.05426359176635742 -0.050993043929338455 0.08527135848999023
0.05426359176635742 -0.021872101351618767 0.06976746767759323
0.05426359176635742 0.00212853099219501 0.05426359176635742
0.05426359176635742 0.011421207338571548 -0.06976741552352905
0.05426359176635742 0.02084248885512352 0.038759708404541016
0.05426359176635742 0.04084446281194687 0.02325582504272461
0.05426359176635742 0.05920033156871796 0.007751941680908203
0.05426359176635742 0.08476952463388443 -0.02325582504272461
0.05426359176635742 0.07354927808046341 -0.007751941680908203
0.05426359176635742 0.08820495754480362 -0.05426359176635742
0.05426359176635742 0.08989693224430084 -0.038759708404541016
0.06976747512817383 -0.6906206607818604 0.19379842281341553
0.06976747512817383 -0.6960771083831787 0.20930230617523193
0.06976747512817383 -0.7002832293510437 0.22480618953704834
0.06976747512817383 -0.6983124017715454 0.24031007289886475
0.06976747512817383 -0.6763609051704407 0.1472867727279663
0.06976747512817383 -0.6804095506668091 0.16279065608978271
0.06976747512817383 -0.683800458908081 0.17829453945159912
0.06976747512817383 -0.6824215650558472 0.25581395626068115
0.06976747512817383 -0.667392909526825 0.1317828893661499
0.06976747512817383 -0.6453630328178406 0.10077524185180664
0.06976747512817383 -0.6571190357208252 0.11627912521362305
0.06976747512817383 -0.6304823756217957 0.08527135848999023
0.06976747512817383 -0.6381081342697144 0.27131783962249756
0.06976747512817383 -0.6100577712059021 0.06976747512817383
0.06976747512817383 -0.5838871002197266 0.05426359176635742
0.06976747512817383 -0.5522894263267517 0.038759708404541016
0.06976747512817383 -0.5602504014968872 0.27131783962249756
0.06976747512817383 -0.5235782265663147 0.02325582504272461
0.06976747512817383 -0.5212892293930054 0.25581395626068115
0.06976747512817383 -0.4967939853668213 0.007751941680908203
0.06976747512817383 -0.49198174476623535 0.24031007289886475
0.06976747512817383 -0.4677751660346985 -0.007751941680908203
0.06976747512817383 -0.44907426834106445 0.22480618953704834
0.06976747512817383 -0.4274902641773224 -0.02325582504272461
0.06976747512817383 -0.3814627230167389 0.20930230617523193
0.06976747512817383 -0.3444957137107849 -0.038759708404541016
0.06976747512817383 -0.321382611989975 0.19379842281341553
0.06976747512817383 -0.29561394453048706 -0.05426359176635742
0.06976747512817383 -0.2597285807132721 0.17829453945159912
0.06976747512817383 -0.23318102955818176 -0.06976741552352905
0.06976747512817383 -0.21054202318191528 0.16279065608978271
0.06976747512817383 -0.17395047843456268 0.1472867727279663
0.06976747512817383 -0.14138075709342957 0.1317828893661499
0.06976747512817383 -0.11195442080497742 0.11627912521362305
0.06976747512817383 -0.08577750623226166 0.10077524185180664
0.06976747512817383 -0.06384432315826416 0.08527135848999023
0.06976747512817383 -0.04075555130839348 0.06976747512817383
0.06976747512817383 -0.013961780816316605 -0.06976741552352905
0.06976747512817383 -0.019902244210243225 0.05426359176635742
0.06976747512817383 -0.004907401278614998 0.038759708404541016
0.06976747512817383 0.010066241025924683 0.02325582504272461
0.06976747512817383 0.02607019618153572 -0.05426359549164772
0.06976747512817383 0.03584487363696098 -0.007751941680908203
0.06976747512817383 0.024838758632540703 0.007751941680908203
0.06976747512817383 0.039024535566568375 -0.038759708404541016
0.06976747512817383 0.04162188991904259 -0.02325582504272461
0.08527135848999023 -0.6748340129852295 0.19379842281341553
0.08527135848999023 -0.678490161895752 0.20930230617523193
0.08527135848999023 -0.6788597106933594 0.22480618953704834
0.08527135848999023 -0.6621703505516052 0.1317828893661499
0.08527135848999023 -0.6687638759613037 0.1472867727279663
0.08527135848999023 -0.6728780269622803 0.16279065608978271
0.08527135848999023 -0.6736751198768616 0.17829453945159912
0.08527135848999023 -0.6680442690849304 0.24031007289886475
0.08527135848999023 -0.6510592103004456 0.11627912521362305
0.08527135848999023 -0.6380748152732849 0.10077524185180664
0.08527135848999023 -0.630702555179596 0.25581395626068115
0.08527135848999023 -0.6227339506149292 0.08527135848999023
0.08527135848999023 -0.6032077074050903 0.06976747512817383
0.08527135103940964 -0.579971432685852 0.05426359176635742
0.08527135848999023 -0.5680877566337585 0.25581395626068115
0.08527135848999023 -0.5526086091995239 0.038759708404541016
0.08527135848999023 -0.5257487893104553 0.02325582504272461
0.08527135848999023 -0.5234714150428772 0.24031007289886475
0.08527135848999023 -0.4995616674423218 0.007751941680908203
0.08527135848999023 -0.4742770493030548 -0.007751941680908203
0.08527135848999023 -0.4845679998397827 0.22480618953704834
0.08527135848999023 -0.43900376558303833 -0.02325582690536976
0.08527135848999023 -0.4195837378501892 0.20930230617523193
0.08527135848999023 -0.3561161756515503 0.19379842281341553
0.08527135848999023 -0.34715718030929565 -0.038759708404541016
0.08527135848999023 -0.2896374762058258 -0.05426359176635742
0.08527135848999023 -0.2894672155380249 0.17829453945159912
0.08527135848999023 -0.2433314323425293 -0.06976741552352905
0.08527135848999023 -0.2255817949771881 0.16279065608978271
0.08527135848999023 -0.18749487400054932 0.1472867727279663
0.08527135848999023 -0.1556575745344162 0.1317828893661499
0.08527135848999023 -0.1262260228395462 0.11627912521362305
0.08527135848999023 -0.08753763139247894 -0.06976741552352905
0.08527135848999023 -0.10026861727237701 0.10077524185180664
0.08527135848999023 -0.07986907660961151 0.08527135848999023
0.08527135848999023 -0.06144533306360245 0.06976747512817383
0.08527135848999023 -0.043172385543584824 0.05426359176635742
0.08527135848999023 -0.028098400682210922 0.038759708404541016
0.08527135848999023 -0.015349620953202248 0.02325582504272461
0.08527135848999023 -0.005089763551950455 -0.05426359176635742
0.08527135848999023 0.007261131890118122 -0.038759708404541016
0.08527135848999023 0.005080866627395153 -0.007751941680908203
0.08527135848999023 -0.003855639835819602 0.007751941680908203
0.08527135848999023 0.01030204351991415 -0.02325582504272461
0.10077524185180664 -0.6595755815505981 0.16279065608978271
0.10077524185180664 -0.651337742805481 0.1317828893661499
0.10077524185180664 -0.6579518914222717 0.1472867727279663
0.10077524185180664 -0.6570079922676086 0.17829455435276031
0.10077524185180664 -0.6502436399459839 0.19379842281341553
0.10077524185180664 -0.6454885601997375 0.20930230617523193
0.10077524185180664 -0.6289281249046326 0.10077524185180664
0.10077524185180664 -0.6417422294616699 0.11627912521362305
0.10077524185180664 -0.629062831401825 0.22480618953704834
0.10077524185180664 -0.6117454767227173 0.08527135848999023
0.10077524185180664 -0.590616762638092 0.06976747512817383
0.10077524185180664 -0.595687985420227 0.22480618953704834
0.10077524185180664 -0.5693165063858032 0.05426359176635742
0.10077524185180664 -0.54521644115448 0.038759708404541016
0.10077524185180664 -0.520229160785675 0.02325582504272461
0.10077524185180664 -0.4946267604827881 0.007751941680908203
0.10077524185180664 -0.4860690236091614 0.20930230617523193
0.10077524185180664 -0.4709334969520569 -0.007751941215246916
0.10077524185180664 -0.4419189691543579 -0.02325582504272461
0.10077524185180664 -0.4031079411506653 0.19379842281341553
0.10077524185180664 -0.3444714844226837 -0.038759708404541016
0.10077524185180664 -0.3400813937187195 0.17829453945159912
0.10077524185180664 -0.28163450956344604 -0.05426359176635742
0.10077524185180664 -0.26185065507888794 0.16279065608978271
0.10077524185180664 -0.2536720931529999 -0.06976741552352905
0.10077524185180664 -0.20968951284885406 0.1472867727279663
0.10077524185180664 -0.17673803865909576 0.1317828893661499
0.10077524185180664 -0.149840846657753 0.11627912521362305
0.10077524185180664 -0.12497570365667343 0.10077524185180664
0.10077524185180664 -0.10831916332244873 -0.06976741552352905
0.10077524185180664 -0.10557349026203156 0.08527135848999023
0.10077524185180664 -0.08894181996583939 0.06976747512817383
0.10077524185180664 -0.07290259003639221 0.05426359176635742
0.10077524185180664 -0.058015622198581696 0.038759708404541016
0.10077524930238724 -0.049575310200452805 -0.05426359176635742
0.10077524185180664 -0.04431632533669472 0.02325582504272461
0.10077524185180664 -0.028078410774469376 -0.038759708404541016
0.10077524185180664 -0.02497676946222782 -0.007751941680908203
0.10077524185180664 -0.033036306500434875 0.007751941215246916
0.10077524185180664 -0.02188406139612198 -0.02325582504272461
0.11627912521362305 -0.6279832720756531 0.11627912521362305
0.11627912521362305 -0.6350750923156738 0.1317828893661499
0.11627912521362305 -0.6379950642585754 0.1472867727279663
0.11627912521362305 -0.6336245536804199 0.16279065608978271
0.11627912521362305 -0.6137808561325073 0.10077524185180664
0.11627912521362305 -0.59489506483078 0.08527135848999023
0.11627912521362305 -0.5742219686508179 0.06976747512817383
0.11627912521362305 -0.5546135306358337 0.05426359176635742
0.11627912521362305 -0.5351154208183289 0.038759708404541016
0.11627912521362305 -0.5247539281845093 0.17829453945159912
0.11627912521362305 -0.5102337002754211 0.02325582504272461
0.11627913266420364 -0.4874659478664398 0.00775194214656949
0.11627912521362305 -0.4663031995296478 -0.007751941680908203
0.11627912521362305 -0.443031370639801 -0.02325582504272461
0.11627913266420364 -0.39469826221466064 0.17829453945159912
0.11627912521362305 -0.33483827114105225 0.16279065608978271
0.11627912521362305 -0.3240217864513397 -0.038759708404541016
0.11627912521362305 -0.2738542854785919 -0.05426359176635742
0.11627912521362305 -0.2560313642024994 -0.06976741552352905
0.11627912521362305 -0.2530671954154968 0.1472867727279663
0.11627912521362305 -0.21061517298221588 -0.08527129888534546
0.11627912521362305 -0.20924654603004456 0.1317828893661499
0.11627912521362305 -0.18204441666603088 0.11627912521362305
0.11627912521362305 -0.172765851020813 -0.08527129888534546
0.11627912521362305 -0.16011269390583038 0.10077524185180664
0.11627913266420364 -0.14170080423355103 0.08527135848999023
0.11627912521362305 -0.1230439692735672 -0.06976741552352905
0.11627912521362305 -0.1272326558828354 0.06976747512817383
0.11627912521362305 -0.1041388064622879 0.038759708404541016
0.11627912521362305 -0.11512763053178787 0.05426359176635742
0.11627912521362305 -0.09739171713590622 -0.05426359176635742
0.11627912521362305 -0.09233656525611877 0.02325582504272461
0.11627912521362305 -0.07295820116996765 -0.038759708404541016
0.11627913266420364 -0.0800425112247467 0.00775194214656949
0.11627912521362305 -0.06503864377737045 -0.02325582504272461
0.11627912521362305 -0.06919975578784943 -0.00775194214656949
0.1317828893661499 -0.5691934823989868 0.10077524185180664
0.1317828893661499 -0.5673821568489075 0.11627912521362305
0.1317828893661499 -0.5595507025718689 0.08527135848999023
0.1317828893661499 -0.5474624037742615 0.06976747512817383
0.1317828893661499 -0.5412032604217529 0.1317828893661499
0.1317828893661499 -0.5340315699577332 0.05426359176635742
0.1317828893661499 -0.5183030366897583 0.038759708404541016
0.1317828893661499 -0.5131247043609619 0.1472867727279663
0.1317828893661499 -0.4983721375465393 0.02325582504272461
0.1317828893661499 -0.4791684150695801 0.007751941680908203
0.1317828893661499 -0.47757887840270996 0.16279065608978271
0.1317828893661499 -0.4614654779434204 -0.007751941680908203
0.1317828893661499 -0.4417048394680023 -0.02325582504272461
0.1317828893661499 -0.39514315128326416 0.16279065608978271
0.1317828893661499 -0.3385864198207855 0.1472867727279663
0.1317828893661499 -0.28568676114082336 -0.038759708404541016
0.1317828893661499 -0.26898565888404846 0.1317828893661499
0.1317828893661499 -0.24912086129188538 -0.05426359176635742
0.1317828893661499 -0.2272292673587799 -0.08527129888534546
0.1317828893661499 -0.23784568905830383 -0.06976741552352905
0.1317828893661499 -0.22461184859275818 0.11627912521362305
0.1317828893661499 -0.2073184698820114 -0.10077518224716187
0.1317828893661499 -0.2012087106704712 0.10077524185180664
0.1317828893661499 -0.18361786007881165 0.08527135848999023
0.1317828893661499 -0.1714356243610382 0.06976747512817383
0.1317828893661499 -0.15287268161773682 -0.10077518224716187
0.1317828893661499 -0.15042641758918762 0.02325582504272461
0.1317828893661499 -0.15626727044582367 0.038759708404541016
0.1317828893661499 -0.16244331002235413 0.05426358804106712
0.1317828893661499 -0.1360800564289093 -0.007751941680908203
0.1317828893661499 -0.14406785368919373 0.007751941680908203
0.1317828893661499 -0.13145890831947327 -0.08527129888534546
0.1317828893661499 -0.12633004784584045 -0.06976741552352905
0.1317828893661499 -0.123936727643013 -0.05426359176635742
0.1317828893661499 -0.12243974208831787 -0.038759708404541016
0.1317828893661499 -0.12638379633426666 -0.02325582504272461
0.1472867727279663 -0.5041342377662659 0.10077524185180664
0.1472867727279663 -0.4975660443305969 0.08527135848999023
0.1472867727279663 -0.49991077184677124 0.11627912521362305
0.1472867727279663 -0.4762726426124573 0.02325582504272461
0.1472867727279663 -0.4816650152206421 0.038759708404541016
0.1472867727279663 -0.4826558232307434 0.05426359176635742
0.1472867727279663 -0.48759040236473083 0.06976747512817383
0.1472867727279663 -0.4826608896255493 0.1317828893661499
0.1472867727279663 -0.46310514211654663 0.007751941680908203
0.1472867727279663 -0.4451991021633148 -0.007751941680908203
0.1472867727279663 -0.37278032302856445 -0.007751941680908203
0.1472867727279663 -0.3535648286342621 0.1317828893661499
0.1472867727279663 -0.32036542892456055 0.11627912521362305
0.1472867727279663 -0.3038792610168457 -0.007751941680908203
0.1472867727279663 -0.28888845443725586 0.10077524185180664
0.1472867727279663 -0.26147449016571045 -0.02325582504272461
0.1472867727279663 -0.25600358843803406 0.08527135848999023
0.1472867727279663 -0.23257799446582794 -0.10077518224716187
0.1472867727279663 -0.23846420645713806 -0.08527129888534546
0.1472867727279663 -0.23597237467765808 -0.06976741552352905
0.1472867727279663 -0.22856304049491882 -0.05426359176635742
0.1472867727279663 -0.23490604758262634 0.06976747512817383
0.1472867727279663 -0.21320483088493347 -0.11627906560897827
0.1472867727279663 -0.22453202307224274 -0.038759708404541016
0.1472867727279663 -0.22035744786262512 0.05426359176635742
0.1472867727279663 -0.19448992609977722 -0.007751941680908203
0.1472867727279663 -0.1974819302558899 0.007751941680908203
0.1472867727279663 -0.202437162399292 0.02325582504272461
0.1472867727279663 -0.20924799144268036 0.038759708404541016
0.1472867727279663 -0.18500763177871704 -0.02325582504272461
0.1472867727279663 -0.155486062169075 -0.038759708404541016
0.1472867727279663 -0.14492692053318024 -0.11627906560897827
0.1472867727279663 -0.13230790197849274 -0.05426359176635742
0.1472867727279663 -0.12970858812332153 -0.10077518224716187
0.1472867727279663 -0.12377038598060608 -0.08527129888534546
0.1472867727279663 -0.12462980300188065 -0.06976741552352905
0.16279065608978271 -0.4318346381187439 0.10077524185180664
0.16279065608978271 -0.3915676474571228 0.10077524185180664
0.16279065608978271 -0.24227944016456604 -0.11627906560897827
0.16279065608978271 -0.24243253469467163 -0.10077518224716187
0.16279065608978271 -0.24077863991260529 -0.08527129888534546
0.16279065608978271 -0.22871440649032593 -0.13178294897079468
0.16279065608978271 -0.23241886496543884 -0.06976741552352905
0.16279065608978271 -0.2198299765586853 -0.05426359176635742
0.16279065608978271 -0.20460613071918488 -0.14728683233261108
0.16279065608978271 -0.15499362349510193 -0.14728683233261108
0.16279065608978271 -0.15658283233642578 -0.05426359176635742
0.16279065608978271 -0.1407681703567505 -0.13178294897079468
0.16279065608978271 -0.13415104150772095 -0.11627906560897827
0.16279065608978271 -0.13884183764457703 -0.06976741552352905
0.16279065608978271 -0.13057944178581238 -0.10077518224716187
0.16279065608978271 -0.13057759404182434 -0.08527129888534546
0.17829453945159912 -0.5364295244216919 -0.038759708404541016
0.17829453945159912 -0.5378821492195129 -0.02325582504272461
0.17829453945159912 -0.5310415029525757 -0.007751941680908203
0.17829453945159912 -0.505447268486023 -0.038759708404541016
0.17829453945159912 -0.5157386064529419 -0.007751941680908203
0.17829455435276031 -0.5021191239356995 -0.02325582690536976
0.17829453945159912 -0.4193509817123413 -0.27131783962249756
0.17829453945159912 -0.3843372166156769 -0.27131783962249756
0.17829453945159912 -0.30506080389022827 -0.27131783962249756
0.17829453945159912 -0.29418104887008667 -0.25581395626068115
0.17829453945159912 -0.2812309265136719 -0.27131783962249756
0.17829453945159912 -0.27088892459869385 -0.25581395626068115
0.17829453945159912 -0.24204714596271515 -0.14728683233261108
0.17829453945159912 -0.2447236329317093 -0.13178294897079468
0.17829453945159912 -0.24329420924186707 -0.11627906560897827
0.17829453945159912 -0.2410641461610794 -0.10077518224716187
0.17829453945159912 -0.22662857174873352 -0.1782945990562439
0.17829453945159912 -0.23307305574417114 -0.1627907156944275
0.17829453945159912 -0.23498761653900146 -0.08527129888534546
0.17829453945159912 -0.21939948201179504 -0.19379842281341553
0.17829452455043793 -0.2237614542245865 -0.06976741552352905
0.17829453945159912 -0.20020225644111633 -0.20930230617523193
0.17829453945159912 -0.18404501676559448 -0.20930230617523193
0.17829453945159912 -0.17363545298576355 -0.06976741552352905
0.17829453945159912 -0.15685826539993286 -0.19379842281341553
0.17829453945159912 -0.15163585543632507 -0.10077518224716187
0.17829453945159912 -0.15871956944465637 -0.08527129143476486
0.17829453945159912 -0.1443168967962265 -0.1782945990562439
0.17829453945159912 -0.13926202058792114 -0.1627907156944275
0.17829453945159912 -0.1387472003698349 -0.14728683233261108
0.17829453945159912 -0.1415390968322754 -0.13178294897079468
0.17829453945159912 -0.1456233114004135 -0.11627906560897827
0.19379842281341553 -0.566623330116272 -0.06976741552352905
0.19379842281341553 -0.5708654522895813 -0.05426359176635742
0.19379842281341553 -0.5740424394607544 -0.038759708404541016
0.19379842281341553 -0.5675408840179443 -0.02325582504272461
0.19379842281341553 -0.5037966370582581 -0.06976742297410965
0.19379842281341553 -0.49128785729408264 -0.05426359176635742
0.19379842281341553 -0.4901164770126343 -0.02325582504272461
0.19379842281341553 -0.48705852031707764 -0.038759708404541016
0.19379842281341553 -0.416118860244751 -0.27131783962249756
0.19379842281341553 -0.4164232015609741 -0.25581395626068115
0.19379842281341553 -0.3756638169288635 -0.25581395626068115
0.19379842281341553 -0.35393407940864563 -0.27131783962249756
0.19379842281341553 -0.32918572425842285 -0.27131783962249756
0.19379842281341553 -0.31834185123443604 -0.25581395626068115
0.19379842281341553 -0.30321940779685974 -0.24031007289886475
0.19379842281341553 -0.26788756251335144 -0.27131783962249756
0.19379842281341553 -0.26940566301345825 -0.24031008780002594
0.19379842281341553 -0.2542555630207062 -0.25581395626068115
0.19379842281341553 -0.2407575398683548 -0.1782945990562439
0.19379842281341553 -0.24188406765460968 -0.1627907156944275
0.19379842281341553 -0.24233746528625488 -0.14728683233261108
0.19379842281341553 -0.24104055762290955 -0.13178294897079468
0.19379842281341553 -0.22641879320144653 -0.20930230617523193
0.19379842281341553 -0.23368027806282043 -0.19379842281341553
0.19379842281341553 -0.236959770321846 -0.11627906560897827
0.19379842281341553 -0.22639630734920502 -0.10077518224716187
0.19379842281341553 -0.22396932542324066 -0.27131783962249756
0.19379842281341553 -0.21356341242790222 -0.22480618953704834
0.19379842281341553 -0.20399436354637146 -0.25581395626068115
0.19379842281341553 -0.19577501714229584 -0.24031007289886475
0.19379842281341553 -0.1825706958770752 -0.25581395626068115
0.19379842281341553 -0.18996530771255493 -0.24031007289886475
0.19379842281341553 -0.188175231218338 -0.10077518224716187
0.19379842281341553 -0.1716451346874237 -0.27131783962249756
0.19379842281341553 -0.16639713943004608 -0.22480618953704834
0.19379842281341553 -0.16905838251113892 -0.11627906560897827
0.19379842281341553 -0.1518036127090454 -0.20930230617523193
0.19379842281341553 -0.14773911237716675 -0.14728683233261108
0.19379842281341553 -0.15779097378253937 -0.13178294897079468
0.19379842281341553 -0.1442732959985733 -0.19379842281341553
0.19379842281341553 -0.1419391632080078 -0.1782945990562439
0.19379840791225433 -0.14351797103881836 -0.1627907156944275
0.20930230617523193 -0.6916836500167847 -0.11627906560897827
0.20930230617523193 -0.6871984601020813 -0.11627906560897827
0.20930230617523193 -0.6748424172401428 -0.10077518224716187
0.20930230617523193 -0.627953290939331 -0.08527129888534546
0.20930230617523193 -0.5823494791984558 -0.06976741552352905
0.20930230617523193 -0.5761511921882629 -0.10077518224716187
0.20930229127407074 -0.5807161927223206 -0.05426359176635742
0.20930230617523193 -0.5681009292602539 -0.038759708404541016
0.20930230617523193 -0.5221751928329468 -0.08527129888534546
0.20930229127407074 -0.5024268627166748 -0.06976741552352905
0.20930230617523193 -0.49570614099502563 -0.05426359176635742
0.20930230617523193 -0.4986957907676697 -0.038759708404541016
0.20930230617523193 -0.41875630617141724 -0.27131783962249756
0.20930230617523193 -0.41281938552856445 -0.25581395626068115
0.20930230617523193 -0.3955230414867401 -0.24031007289886475
0.20930230617523193 -0.37603461742401123 -0.24031007289886475
0.20930230617523193 -0.3435020446777344 -0.25581395626068115
0.20930230617523193 -0.32660412788391113 -0.25581395626068115
0.20930230617523193 -0.30545181035995483 -0.24031007289886475
0.20930230617523193 -0.2625007927417755 -0.27131783962249756
0.20930230617523193 -0.25945934653282166 -0.25581395626068115
0.20930230617523193 -0.2705938220024109 -0.24031008780002594
0.20930230617523193 -0.2356208860874176 -0.27131783962249756
0.20930230617523193 -0.22626186907291412 -0.20930230617523193
0.20930230617523193 -0.23158760368824005 -0.19379842281341553
0.20930230617523193 -0.23515057563781738 -0.1782945990562439
0.20930230617523193 -0.2307543307542801 -0.1627907156944275
0.20930230617523193 -0.21826037764549255 -0.25581395626068115
0.20930230617523193 -0.21280597150325775 -0.22480618953704834
0.20930230617523193 -0.22015905380249023 -0.14728683233261108
0.20930230617523193 -0.20405931770801544 -0.24031007289886475
0.20930230617523193 -0.17387796938419342 -0.24031007289886475
0.20930230617523193 -0.1733592003583908 -0.14728683233261108
0.20930230617523193 -0.15017513930797577 -0.25581395626068115
0.20930230617523193 -0.16221468150615692 -0.22480620443820953
0.20930230617523193 -0.15654271841049194 -0.20930230617523193
0.20930230617523193 -0.15179532766342163 -0.19379842281341553
0.20930230617523193 -0.15380169451236725 -0.1782945990562439
0.20930232107639313 -0.15944670140743256 -0.1627907156944275
0.20930230617523193 -0.12667369842529297 -0.27131783962249756
0.22480618953704834 -0.42702940106391907 -0.27131783962249756
0.22480618953704834 -0.412311315536499 -0.25581395626068115
0.22480618953704834 -0.3981688618659973 -0.24031007289886475
0.22480618953704834 -0.36275675892829895 -0.24031007289886475
0.22480618953704834 -0.34182822704315186 -0.25581395626068115
0.22480618953704834 -0.31090158224105835 -0.25581395626068115
0.22480618953704834 -0.26561182737350464 -0.27131783962249756
0.22480618953704834 -0.2696146070957184 -0.25581395626068115
0.22480618953704834 -0.23229721188545227 -0.27131783962249756
0.22480618953704834 -0.2115846425294876 -0.20930230617523193
0.22480618953704834 -0.21726028621196747 -0.19379842281341553
0.22480618953704834 -0.20995543897151947 -0.1782945990562439
0.22480618953704834 -0.20364786684513092 -0.25581395626068115
0.22480618953704834 -0.1943030208349228 -0.22480618953704834
0.22480618953704834 -0.19063223898410797 -0.22480618953704834
0.22480618953704834 -0.17250296473503113 -0.20930232107639313
0.22480618953704834 -0.16958560049533844 -0.19379842281341553
0.22480618953704834 -0.17561785876750946 -0.1782945990562439
0.22480618953704834 -0.16204065084457397 -0.25581395626068115
0.22480618953704834 -0.08512665331363678 -0.27131783962249756
0.24031007289886475 -0.42768290638923645 -0.27131783962249756
0.24031007289886475 -0.4126361608505249 -0.25581395626068115
0.24031007289886475 -0.3549708127975464 -0.25581395626068115
0.24031007289886475 -0.3437679708003998 -0.27131783962249756
0.25581395626068115 -0.41173702478408813 -0.27131783962249756
0.25581395626068115 -0.3763674199581146 -0.27131783962249756
0.28682172298431396 -0.33673733472824097 -0.27131783962249756
0.28682172298431396 -0.32259151339530945 -0.27131783962249756
0.28682172298431396 -0.2787502408027649 -0.27131783962249756
0.28682172298431396 -0.25903746485710144 -0.25581395626068115
0.28682172298431396 -0.23125627636909485 -0.27131783962249756
0.28682172298431396 -0.22570306062698364 -0.25581395626068115
0.30232560634613037 -0.44344326853752136 -0.27131783962249756
0.30232560634613037 -0.42150622606277466 -0.27131783962249756
0.30232560634613037 -0.2741023898124695 -0.27131783962249756
0.30232560634613037 -0.2417336255311966 -0.25581395626068115
0.30232560634613037 -0.22218379378318787 -0.27131783962249756
0.30232560634613037 -0.21321254968643188 -0.25581395626068115
0.3178294897079468 -0.44291952252388 -0.27131783962249756
0.3178294897079468 -0.42558422684669495 -0.27131786942481995
0.3178294897079468 -0.23946543037891388 -0.27131783962249756
0.3178294897079468 -0.208042174577713 -0.27131783962249756
0.3488372564315796 -0.16420403122901917 -0.27131783962249756
0.3488372564315796 -0.16248053312301636 -0.27131783962249756
0.364341139793396 -0.1068183034658432 -0.27131783962249756
0.364341139793396 -0.09342849254608154 -0.27131783962249756
0.37984490394592285 -0.11143635213375092 -0.27131783962249756
0.37984490394592285 -0.07820211350917816 -0.27131783962249756
-0.3798449635505676 -0.11627906560897827 -0.2761177122592926
-0.3798449635505676 -0.11627906560897827 -0.27046999335289
-0.3798449635505676 -0.10077518224716187 -0.27809834480285645
-0.3798449635505676 -0.10077518969774246 -0.2705480754375458
-0.3798449635505676 -0.08527129888534546 -0.2768477201461792
-0.3798449635505676 -0.08527130633592606 -0.2709502875804901
-0.3643410801887512 -0.14728683233261108 -0.27564769983291626
-0.3643410801887512 -0.14728683233261108 -0.2699451148509979
-0.3643410801887512 -0.13178294897079468 -0.27648183703422546
-0.3643411099910736 -0.13178294897079468 -0.26979559659957886
-0.3643410801887512 -0.11627906560897827 -0.2761174440383911
-0.3643410801887512 -0.11627907305955887 -0.2699447274208069
-0.3643410801887512 -0.10077518224716187 -0.2758772373199463
-0.3643410801887512 -0.10077518224716187 -0.27030014991760254
-0.3643410801887512 -0.08527129888534546 -0.2751333713531494
-0.3643410801887512 -0.08527129888534546 -0.2706882059574127
-0.3488371968269348 -0.1627907156944275 -0.2774323523044586
-0.3488371968269348 -0.1627907156944275 -0.26888376474380493
