-0.039270658046007156 0.22480618953704834 -0.11627906560897827
-0.039601683616638184 0.22480618953704834 -0.10077518224716187
-0.030118871480226517 -0.9844961166381836 0.3178294897079468
-0.03163876011967659 -0.9844961166381836 0.364341139793396
-0.037672288715839386 -0.968992292881012 0.31782951951026917
-0.037273623049259186 -0.968992292881012 0.37984493374824524
-0.03170349821448326 -0.9534883499145508 0.3178294897079468
-0.03854629024863243 -0.9534883499145508 0.39534878730773926
-0.027614952996373177 -0.9379844665527344 0.3178294897079468
-0.02482452243566513 -0.9224806427955627 0.3178294897079468
-0.024297326803207397 -0.9069767594337463 0.3178294897079468
-0.023388447239995003 -0.8914728760719299 0.3178294897079468
-0.03730311617255211 -0.8914728760719299 0.4573643207550049
-0.023820403963327408 -0.8449612259864807 0.3178294897079468
-0.03445811942219734 -0.8449611663818359 0.4883720874786377
-0.024690499529242516 -0.8294573426246643 0.3178294897079468
-0.025519289076328278 -0.8139535188674927 0.3178294897079468
-0.0312228724360466 -0.8139535188674927 0.5038759708404541
-0.026415813714265823 -0.7984496355056763 0.3178294897079468
-0.02670200541615486 -0.7829457521438599 0.3178294897079468
-0.02504359558224678 -0.7674418687820435 0.3178294897079468
-0.024530861526727676 -0.751937985420227 0.3178294897079468
-0.025074021890759468 -0.7364341020584106 0.3178294897079468
-0.025172656401991844 -0.7209302186965942 0.3178294897079468
-0.02436453104019165 -0.7209302186965942 0.5193798542022705
-0.0254124216735363 -0.7054263353347778 0.3178294897079468
-0.023889785632491112 -0.7054263353347778 0.5193798542022705
-0.025976233184337616 -0.6899224519729614 0.3178294897079468
-0.024846000596880913 -0.674418568611145 0.3178294897079468
-0.026404989883303642 -0.5968992114067078 0.3178294897079468
-0.026137646287679672 -0.5813953876495361 0.27131783962249756
-0.031111840158700943 -0.5813953876495361 0.28682172298431396
-0.031382884830236435 -0.5658915042877197 0.17829453945159912
-0.02740033157169819 -0.5658915042877197 0.4728682041168213
-0.035605285316705704 -0.5193798542022705 0.08527135848999023
-0.035221800208091736 -0.5193798542022705 0.45736435055732727
-0.02954908460378647 -0.5038759708404541 0.05426359176635742
-0.03524443507194519 -0.4728682041168213 0.44186046719551086
-0.027959341183304787 -0.4573643207550049 -0.02325582504272461
-0.027466382831335068 -0.42635661363601685 -0.13178294897079468
-0.028335850685834885 -0.41085273027420044 -0.1782945990562439
-0.028178144246339798 -0.39534884691238403 -0.19379842281341553
-0.030764900147914886 -0.3798449635505676 0.39534878730773926
-0.03345372527837753 -0.3643410801887512 -0.20930230617523193
-0.028442438691854477 -0.3333333134651184 -0.22480618953704834
-0.02350984513759613 -0.22480618953704834 -0.22480618953704834
-0.0378274992108345 -0.20930229127407074 0.27131780982017517
-0.026816852390766144 -0.19379842281341553 -0.20930230617523193
-0.027232199907302856 -0.19379842281341553 0.25581395626068115
-0.02555115893483162 -0.1627907156944275 -0.19379842281341553
-0.03365631029009819 -0.11627906560897827 -0.1782945990562439
-0.030576683580875397 -0.10077518224716187 -0.1782945990562439
-0.029628288000822067 -0.08527129888534546 -0.1782945990562439
-0.026978865265846252 -0.06976741552352905 -0.1782945990562439
-0.037344228476285934 -0.05426359176635742 0.10077524185180664
-0.037468329071998596 -0.038759708404541016 0.08527135848999023
-0.036729101091623306 -0.02325582504272461 -0.1627907156944275
-0.02406725473701954 -0.007751941680908203 -0.1627907156944275
-0.03713013231754303 0.007751941680908203 -0.14728683233261108
-0.026929199695587158 0.02325582504272461 -0.14728683233261108
-0.03848819062113762 0.02325582504272461 0.02325582504272461
-0.0324217714369297 0.038759708404541016 0.007751941680908203
-0.03650529682636261 0.05426359176635742 -0.13178294897079468
-0.02943165972828865 0.05426359176635742 -0.007751941680908203
-0.03438249230384827 0.06976747512817383 -0.13178294897079468
-0.029662903398275375 0.06976747512817383 -0.02325582504272461
-0.034074362367391586 0.08527135848999023 -0.13178294897079468
-0.03292782977223396 0.08527135848999023 -0.038759708404541016
-0.035252645611763 0.10077524185180664 -0.13178294897079468
-0.027169562876224518 0.10077524185180664 -0.038759708404541016
-0.03714466467499733 0.11627912521362305 -0.13178294897079468
-0.03819122537970543 0.11627912521362305 -0.05426359176635742
-0.023588040843605995 0.11627912521362305 -0.038759708404541016
-0.023412592709064484 0.1317828893661499 -0.14728683233261108
-0.038754917681217194 0.1317828893661499 -0.13178294897079468
-0.03523512929677963 0.1317828893661499 -0.05426359549164772
-0.025060154497623444 0.1472867727279663 -0.14728683233261108
-0.031905367970466614 0.1472867727279663 -0.05426359176635742
-0.026963304728269577 0.16279065608978271 -0.14728683233261108
-0.02837740257382393 0.16279065608978271 -0.05426359176635742
-0.02858264371752739 0.17829453945159912 -0.14728683233261108
-0.02457476034760475 0.17829453945159912 -0.05426359176635742
-0.029671035706996918 0.19379842281341553 -0.14728683233261108
-0.033492058515548706 0.19379842281341553 -0.06976741552352905
-0.023877685889601707 0.20930230617523193 -0.1627907156944275
-0.030001645907759666 0.20930230617523193 -0.14728683233261108
-0.036779239773750305 0.20930230617523193 -0.13178294897079468
-0.029416561126708984 0.20930230617523193 -0.06976741552352905
-0.024618158116936684 0.22480618953704834 -0.1627907156944275
-0.029781769961118698 0.22480618953704834 -0.14728683233261108
-0.034453943371772766 0.22480618953704834 -0.13178294897079468
-0.03484269976615906 0.22480618953704834 -0.08527129888534546
-0.025948654860258102 0.22480618953704834 -0.06976741552352905
-0.024610739201307297 0.24031007289886475 -0.1627907156944275
-0.02909182943403721 0.24031007289886475 -0.14728683233261108
-0.03258603811264038 0.24031005799770355 -0.13178294897079468
-0.035718124359846115 0.24031007289886475 -0.11627906560897827
-0.03609222173690796 0.24031007289886475 -0.10077518224716187
-0.03116258978843689 0.24031007289886475 -0.08527129888534546
-0.024213379248976707 0.25581395626068115 -0.1627907156944275
-0.02829567901790142 0.25581395626068115 -0.14728683233261108
-0.030655881389975548 0.25581395626068115 -0.13178294897079468
-0.03263388201594353 0.25581395626068115 -0.11627906560897827
-0.03246557340025902 0.25581395626068115 -0.10077518224716187
-0.02876056730747223 0.25581395626068115 -0.08527129888534546
-0.023661985993385315 0.27131783962249756 -0.1627907156944275
-0.026934459805488586 0.27131783962249756 -0.14728683233261108
-0.028974175453186035 0.27131783962249756 -0.13178294897079468
-0.030066944658756256 0.27131783962249756 -0.11627906560897827
-0.029842305928468704 0.27131783962249756 -0.10077518224716187
-0.026410799473524094 0.27131783962249756 -0.08527129888534546
-0.02522403560578823 0.28682172298431396 -0.14728683233261108
-0.027364488691091537 0.28682172298431396 -0.13178294897079468
-0.028497468680143356 0.28682172298431396 -0.11627906560897827
-0.028495945036411285 0.28682172298431396 -0.10077518224716187
-0.024012567475438118 0.28682172298431396 -0.08527129888534546
-0.023684490472078323 0.30232560634613037 -0.14728683233261108
-0.02516373246908188 0.30232560634613037 -0.13178294897079468
-0.02687586098909378 0.30232560634613037 -0.11627906560897827
-0.02684447169303894 0.30232560634613037 -0.10077518224716187
-0.023568352684378624 0.3178294897079468 -0.13178294897079468
-0.025224097073078156 0.3178294897079468 -0.11627906560897827
-0.025006379932165146 0.3178294897079468 -0.10077518224716187
-0.024032587185502052 0.3333333730697632 -0.11627906560897827
-0.023468783125281334 0.3333333730697632 -0.10077518224716187
-0.02352064661681652 0.39534878730773926 -0.22480618953704834
-0.02496008761227131 0.41085267066955566 -0.22480618953704834
-0.025102991610765457 0.42635655403137207 -0.24031007289886475
-0.026076290756464005 0.42635655403137207 -0.22480618953704834
-0.027690593153238297 0.4418604373931885 -0.24031007289886475
-0.027051780372858047 0.4418604373931885 -0.22480618953704834
-0.02899567224085331 0.4573643207550049 -0.24031007289886475
-0.027799014002084732 0.4573643207550049 -0.22480618953704834
-0.02328030951321125 0.4573643207550049 -0.20930230617523193
-0.030187150463461876 0.4728682041168213 -0.24031007289886475
-0.028392024338245392 0.4728682041168213 -0.22480618953704834
-0.02331889420747757 0.4728682041168213 -0.20930230617523193
-0.03114057518541813 0.4883720874786377 -0.24031007289886475
-0.028662800788879395 0.4883720874786377 -0.22480618953704834
-0.024242203682661057 0.5038759708404541 -0.25581395626068115
-0.0317787230014801 0.5038759708404541 -0.24031007289886475
-0.0286976657807827 0.5038759708404541 -0.22480618953704834
-0.025965696200728416 0.5193798542022705 -0.25581395626068115
-0.03194025903940201 0.5193798542022705 -0.24031005799770355
-0.028496351093053818 0.5193798542022705 -0.22480618953704834
-0.027447715401649475 0.5348837375640869 -0.25581395626068115
-0.031458958983421326 0.5348837375640869 -0.24031005799770355
-0.028116576373577118 0.5348837375640869 -0.22480618953704834
-0.02834564447402954 0.5503876209259033 -0.25581395626068115
-0.030831020325422287 0.5503876209259033 -0.24031007289886475
-0.02764367125928402 0.5503876209259033 -0.22480618953704834
-0.028948631137609482 0.5658915042877197 -0.25581395626068115
-0.030399838462471962 0.5658915042877197 -0.24031007289886475
-0.02725020796060562 0.5658915042877197 -0.22480618953704834
-0.029426435008645058 0.5813953876495361 -0.25581395626068115
-0.0303063802421093 0.5813953876495361 -0.24031007289886475
-0.026955701410770416 0.5813953876495361 -0.22480618953704834
-0.029671641066670418 0.5968992710113525 -0.25581395626068115
-0.030291970819234848 0.5968992710113525 -0.24031007289886475
-0.026780802756547928 0.5968992710113525 -0.22480618953704834
-0.029852380976080894 0.612403154373169 -0.25581395626068115
-0.03040193021297455 0.612403154373169 -0.24031007289886475
-0.026635725051164627 0.612403154373169 -0.22480618953704834
-0.029924388974905014 0.6279069185256958 -0.25581395626068115
-0.030466623604297638 0.6279069185256958 -0.24031007289886475
-0.026443472132086754 0.6279069185256958 -0.22480618953704834
-0.030138175934553146 0.6434108018875122 -0.25581395626068115
-0.03090398944914341 0.6434108018875122 -0.24031007289886475
-0.02648567408323288 0.6434108018875122 -0.22480618953704834
-0.030324265360832214 0.6589146852493286 -0.25581395626068115
-0.031302519142627716 0.6589146852493286 -0.24031007289886475
-0.026455804705619812 0.6589146852493286 -0.22480618953704834
-0.03058749809861183 0.674418568611145 -0.25581395626068115
-0.031730033457279205 0.674418568611145 -0.24031007289886475
-0.026340320706367493 0.674418568611145 -0.22480618953704834
-0.03102552518248558 0.6899224519729614 -0.25581395626068115
-0.03203843533992767 0.6899224519729614 -0.24031007289886475
-0.026238325983285904 0.6899224519729614 -0.22480618953704834
-0.0312793105840683 0.7054263353347778 -0.25581395626068115
-0.03182864934206009 0.7054263353347778 -0.24031007289886475
-0.02594481222331524 0.7054263353347778 -0.22480618953704834
-0.03133708983659744 0.7209302186965942 -0.25581395626068115
-0.03135325387120247 0.7209302186965942 -0.24031007289886475
-0.02539036050438881 0.7209302186965942 -0.22480618953704834
-0.031217122450470924 0.7364341020584106 -0.25581395626068115
-0.030838795006275177 0.7364341020584106 -0.24031007289886475
-0.024701418355107307 0.7364341020584106 -0.22480618953704834
-0.030818182975053787 0.751937985420227 -0.25581395626068115
-0.030331075191497803 0.751937985420227 -0.24031007289886475
-0.023984270170331 0.751937985420227 -0.22480618953704834
-0.030351392924785614 0.7674418687820435 -0.25581395626068115
-0.02984713762998581 0.7674418687820435 -0.24031007289886475
-0.023274429142475128 0.7829457521438599 -0.27131783962249756
-0.030130496248602867 0.7829457521438599 -0.25581395626068115
-0.029560457915067673 0.7829457521438599 -0.24031007289886475
-0.023311004042625427 0.7984496355056763 -0.27131783962249756
-0.02970799431204796 0.7984496355056763 -0.25581395626068115
-0.02922365814447403 0.7984496355056763 -0.24031007289886475
-0.023293083533644676 0.8139535188674927 -0.27131783962249756
-0.029384005814790726 0.8139535188674927 -0.25581395626068115
-0.029020914807915688 0.8139535188674927 -0.24031007289886475
-0.029323773458600044 0.8294574022293091 -0.25581395626068115
-0.028987107798457146 0.8294574022293091 -0.24031007289886475
-0.02924610860645771 0.8449612855911255 -0.25581395626068115
-0.028829220682382584 0.8449612855911255 -0.24031007289886475
-0.029295075684785843 0.8604651689529419 -0.25581395626068115
-0.0287034772336483 0.8604651689529419 -0.24031007289886475
-0.02923128381371498 0.8759689331054688 -0.25581395626068115
-0.02836749330163002 0.8759689331054688 -0.24031007289886475
-0.029127173125743866 0.8914728164672852 -0.25581395626068115
-0.02791009284555912 0.8914728164672852 -0.24031007289886475
-0.028782613575458527 0.9069766998291016 -0.25581395626068115
-0.02716505527496338 0.9069766998291016 -0.24031007289886475
-0.027697384357452393 0.922480583190918 -0.25581395626068115
-0.02606784552335739 0.922480583190918 -0.24031007289886475
-0.02616792917251587 0.9379844665527344 -0.25581395626068115
-0.02481594681739807 0.9379844665527344 -0.24031007289886475
-0.024602126330137253 0.9534883499145508 -0.25581395626068115
-0.016448376700282097 -0.8604651689529419 0.3178294897079468
-0.008782405406236649 -0.7364341020584106 0.5193798542022705
-0.019085407257080078 -0.6279069781303406 0.5038759708404541
-0.022037940099835396 -0.5968992114067078 0.3178294897079468
-0.021832050755620003 -0.5968992114067078 0.4883720874786377
-0.020173637196421623 -0.5813953876495361 0.25581395626068115
-0.011162837035953999 -0.5658915042877197 0.16279065608978271
-0.017090242356061935 -0.5503876209259033 0.1317828893661499
-0.011254563927650452 -0.5348837375640869 0.10077524185180664
-0.021368427202105522 -0.5038759708404541 0.4573643207550049
-0.009339672513306141 -0.4728682041168213 -0.038759708404541016
-0.01709084026515484 -0.4728682041168213 -0.02325582504272461
-0.02070942148566246 -0.4728682041168213 -0.007751941680908203
-0.014360619708895683 -0.4573643207550049 -0.038759708404541016
-0.015743914991617203 -0.4573643207550049 0.4418604373931885
-0.008598499931395054 -0.4418604373931885 -0.05426359176635742
-0.015749193727970123 -0.42635661363601685 -0.14728683233261108
-0.02291172370314598 -0.42635661363601685 0.42635655403137207
-0.01261945441365242 -0.3798449635505676 -0.20930230617523193
-0.02076376974582672 -0.3488371968269348 0.37984490394592285
-0.013711236417293549 -0.317829430103302 0.364341139793396
-0.008661442436277866 -0.28682172298431396 0.3488372564315796
-0.02073427475988865 -0.24031008780002594 0.3178294897079468
-0.022638672962784767 -0.22480618953704834 0.30232560634613037
-0.011831589043140411 -0.20930230617523193 0.28682172298431396
-0.01701110228896141 -0.1782945990562439 0.24031007289886475
-0.009810100309550762 -0.10077518224716187 0.16279065608978271
-0.017631633207201958 -0.08527129888534546 0.1472867727279663
-0.01916707307100296 -0.06976741552352905 0.1317828893661499
-0.020321087911725044 -0.05426359176635742 -0.1782945990562439
-0.014729706570506096 -0.05426359176635742 0.11627912521362305
-0.00994307640939951 -0.038759708404541016 0.10077524185180664
-0.008792837150394917 -0.02325582504272461 0.08527135848999023
-0.009331542998552322 -0.007751941680908203 0.06976747512817383
-0.010466978885233402 0.007751941680908203 0.05426359176635742
-0.01034778542816639 0.02325582504272461 0.038759708404541016
-0.01606503315269947 0.038759708404541016 -0.14728683233261108
-0.008855963125824928 0.038759708404541016 0.02325582504272461
-0.009359120391309261 0.05426359176635742 -0.14728683233261108
-0.010461073368787766 0.06976747512817383 -0.007751941680908203
-0.0078029329888522625 0.08527135848999023 -0.14728683233261108
-0.019298072904348373 0.08527135848999023 -0.02325582504272461
-0.011454267427325249 0.10077524185180664 -0.14728683233261108
-0.01751227304339409 0.11627912521362305 -0.14728683233261108
-0.015714017674326897 0.1317828893661499 -0.038759708404541016
-0.008374102413654327 0.1472867727279663 -0.038759708404541016
-0.010658394545316696 0.17829453945159912 -0.1627907156944275
-0.018881088122725487 0.19379843771457672 -0.1627907156944275
-0.015698133036494255 0.19379842281341553 -0.05426359176635742
-0.010370826348662376 0.24031007289886475 -0.1782945990562439
-0.019501442089676857 0.24031007289886475 -0.06976741552352905
-0.013057731091976166 0.25581395626068115 -0.1782945990562439
-0.010062083601951599 0.25581395626068115 -0.06976741552352905
-0.014801411889493465 0.27131783962249756 -0.1782945990562439
-0.010532808490097523 0.28682172298431396 -0.19379842281341553
-0.0165573563426733 0.28682172298431396 -0.1782945990562439
-0.022506272420287132 0.28682172298431396 -0.1627907156944275
-0.014307583682239056 0.30232560634613037 -0.19379842281341553
-0.017947448417544365 0.30232560634613037 -0.1782945990562439
-0.020005639642477036 0.30232560634613037 -0.1627907156944275
-0.018498288467526436 0.30232560634613037 -0.08527129888534546
-0.010740105994045734 0.3178294897079468 -0.20930230617523193
-0.016987653449177742 0.3178294897079468 -0.19379842281341553
-0.018487511202692986 0.3178294897079468 -0.1782945990562439
-0.017833923920989037 0.3178294897079468 -0.1627907156944275
-0.018817007541656494 0.3178294897079468 -0.14728683233261108
-0.012340519577264786 0.3178294897079468 -0.08527129888534546
-0.014315929263830185 0.3333333730697632 -0.20930230617523193
-0.018190676346421242 0.3333333730697632 -0.19379842281341553
-0.017838016152381897 0.3333333730697632 -0.1782945990562439
-0.015561437234282494 0.3333333730697632 -0.1627907156944275
-0.015264911577105522 0.3333333730697632 -0.14728683233261108
-0.019307279959321022 0.3333333730697632 -0.13178294897079468
-0.01700502261519432 0.3488372564315796 -0.20930230617523193
-0.018504129722714424 0.3488372564315796 -0.19379842281341553
-0.01712878793478012 0.3488372564315796 -0.1782945990562439
-0.014961379580199718 0.3488372564315796 -0.1627907156944275
-0.014360858127474785 0.3488372564315796 -0.14728683233261108
-0.01662825047969818 0.3488372564315796 -0.13178294897079468
-0.01962294429540634 0.3488372564315796 -0.11627906560897827
-0.015805469825863838 0.3488372564315796 -0.10077518224716187
-0.012760845012962818 0.364341139793396 -0.22480618953704834
-0.018376274034380913 0.364341139793396 -0.20930230617523193
-0.01795567013323307 0.364341139793396 -0.19379842281341553
-0.017043190076947212 0.364341139793396 -0.1782945990562439
-0.015466521494090557 0.364341139793396 -0.1627907156944275
-0.013947393745183945 0.364341139793396 -0.14728683233261108
-0.01445743441581726 0.364341139793396 -0.13178294897079468
-0.014433914795517921 0.364341139793396 -0.11627906560897827
-0.00870519783347845 0.364341139793396 -0.10077518224716187
-0.017958752810955048 0.37984490394592285 -0.22480618953704834
-0.018427371978759766 0.37984490394592285 -0.20930230617523193
-0.01596779003739357 0.37984490394592285 -0.19379842281341553
-0.01485004648566246 0.37984490394592285 -0.1782945990562439
-0.012847349047660828 0.37984490394592285 -0.1627907156944275
-0.009964784607291222 0.37984490394592285 -0.14728683233261108
-0.008768404833972454 0.37984490394592285 -0.13178294897079468
-0.018174614757299423 0.39534878730773926 -0.20930230617523193
-0.011735890060663223 0.39534878730773926 -0.19379842281341553
-0.008073133416473866 0.39534878730773926 -0.1782945990562439
-0.017502855509519577 0.41085267066955566 -0.24031007289886475
-0.018751731142401695 0.41085267066955566 -0.20930230617523193
-0.019653642550110817 0.42635655403137207 -0.20930230617523193
-0.021661989390850067 0.4418604373931885 -0.20930229127407074
-0.017613548785448074 0.4883720874786377 -0.25581395626068115
-0.020945055410265923 0.4883720576763153 -0.20930230617523193
-0.01685650460422039 0.5038759708404541 -0.20930230617523193
-0.011828860267996788 0.5193798542022705 -0.20930230617523193
-0.0098087377846241 0.7364341020584106 -0.27131783962249756
-0.01482444629073143 0.751937985420227 -0.27131783962249756
-0.019610149785876274 0.7674418091773987 -0.27131783962249756
-0.02174246311187744 0.7674418687820435 -0.22480618953704834
-0.015795527026057243 0.7829457521438599 -0.22480618953704834
-0.011771973222494125 0.7984496355056763 -0.22480618953704834
-0.009496106766164303 0.8139535188674927 -0.22480618953704834
-0.02256358228623867 0.8294574022293091 -0.27131783962249756
-0.008273260667920113 0.8294574022293091 -0.22480618953704834
-0.021251700818538666 0.8449612855911255 -0.27131783962249756
-0.020190110430121422 0.8604651689529419 -0.27131783962249756
-0.018760453909635544 0.8759689331054688 -0.27131783962249756
-0.017120014876127243 0.8914728164672852 -0.27131783962249756
-0.014411495998501778 0.9069766998291016 -0.27131783962249756
-0.0114983469247818 0.922480583190918 -0.27131783962249756
-0.022812815383076668 0.9534883499145508 -0.24031007289886475
-0.022465864196419716 0.9689922332763672 -0.25581395626068115
-0.01597490720450878 0.9689922332763672 -0.24031007289886475
-0.01835237629711628 0.9844961166381836 -0.25581395626068115
-0.012952655553817749 0.9844961166381836 -0.24031007289886475
-0.005694353953003883 -0.4418604373931885 -0.05426359176635742
-0.0056171538308262825 -0.42635661363601685 -0.1627907156944275
0.0026502565015107393 -0.41085273027420044 -0.19379842281341553
0.006815232336521149 -0.28682172298431396 0.3488372564315796
0.005991200916469097 -0.038759708404541016 0.10077524185180664
-0.0015137165319174528 -0.02325582504272461 0.08527135848999023
0.0004366692155599594 -0.007751941680908203 0.06976747512817383
0.004465065896511078 0.007751941680908203 0.05426359176635742
0.0035762349143624306 0.02325582504272461 0.038759708404541016
-0.001157655380666256 0.038759708404541016 0.02325582504272461
-0.007073941640555859 0.08527135848999023 -0.14728683233261108
0.0030418678652495146 0.364341139793396 -0.10077518224716187
0.0031761731952428818 0.37984490394592285 -0.13178294897079468
-0.0030626878142356873 0.39534878730773926 -0.1782945990562439
0.0072384485974907875 0.4728682041168213 -0.25581395626068115
0.0034244603011757135 0.5348837375640869 -0.20930230617523193
0.015039369463920593 -0.922480583190918 0.3178294897079468
0.014224845916032791 -0.9069768190383911 0.3178294897079468
0.010923008434474468 -0.8914728760719299 0.3178294897079468
0.008765395730733871 -0.8604651093482971 0.3178294897079468
0.011619415134191513 -0.8449612259864807 0.3178294897079468
0.01544317789375782 -0.8294572830200195 0.3178294897079468
0.018488017842173576 -0.8139535188674927 0.3178294897079468
0.021237272769212723 -0.7984496355056763 0.3178294897079468
0.021887728944420815 -0.7829457521438599 0.3178294897079468
0.016692370176315308 -0.7674418687820435 0.3178294897079468
0.015714332461357117 -0.751937985420227 0.3178294897079468
0.018417740240693092 -0.7364341020584106 0.3178294897079468
0.01480424776673317 -0.7364341020584106 0.5193798542022705
0.019565580412745476 -0.7209302186965942 0.3178294897079468
0.021178029477596283 -0.7054263353347778 0.3178294897079468
0.02057686820626259 -0.674418568611145 0.3178294897079468
0.02061152271926403 -0.6279069781303406 0.5038759708404541
0.02181091718375683 -0.5968992114067078 0.4883720874786377
0.009904135949909687 -0.5658915042877197 0.16279065608978271
0.017181534320116043 -0.5503876209259033 0.1317828893661499
0.013485578820109367 -0.5348837375640869 0.10077524185180664
0.008331555873155594 -0.4728682041168213 -0.038759708404541016
0.016298793256282806 -0.4728682041168213 -0.02325582504272461
0.020107949152588844 -0.4728682041168213 -0.007751941680908203
0.013166649267077446 -0.4573643207550049 -0.038759708404541016
0.018465202301740646 -0.4573643207550049 0.4418604373931885
0.009340403601527214 -0.42635661363601685 -0.1627907156944275
0.018717365339398384 -0.42635661363601685 -0.14728683233261108
0.00837994646281004 -0.41085273027420044 -0.19379842281341553
0.015856260433793068 -0.3798449635505676 -0.20930230617523193
0.021114928647875786 -0.3488371968269348 0.37984490394592285
0.013017198070883751 -0.317829430103302 0.364341139793396
0.01785922423005104 -0.24031007289886475 0.3178294897079468
0.020573997870087624 -0.22480618953704834 -0.22480618953704834
0.019861368462443352 -0.22480618953704834 0.30232560634613037
0.009577392600476742 -0.20930230617523193 0.28682172298431396
0.014413069933652878 -0.1782945990562439 0.24031007289886475
0.007875989191234112 -0.10077518224716187 0.16279065608978271
0.015018501318991184 -0.08527129888534546 0.1472867727279663
0.01607055775821209 -0.06976741552352905 0.1317828893661499
0.011619765311479568 -0.05426359176635742 0.11627912521362305
0.016206098720431328 0.038759708404541016 -0.14728683233261108
0.008612972684204578 0.05426359176635742 -0.14728683233261108
0.008753383532166481 0.06976747512817383 -0.007751941680908203
0.015636425465345383 0.08527135848999023 -0.02325582504272461
0.009537403471767902 0.10077524185180664 -0.14728683233261108
0.013852689415216446 0.11627912521362305 -0.14728683233261108
0.02300945855677128 0.11627912521362305 -0.038759708404541016
0.018821021541953087 0.1317828893661499 -0.14728683233261108
0.015597580000758171 0.1317828893661499 -0.038759708404541016
0.008558372035622597 0.1472867727279663 -0.038759708404541016
0.009119856171309948 0.17829453945159912 -0.1627907156944275
0.015420950017869473 0.19379842281341553 -0.1627907156944275
0.015498725697398186 0.19379842281341553 -0.05426359176635742
0.022668318822979927 0.20930230617523193 -0.1627907156944275
0.00953972153365612 0.24031007289886475 -0.1782945990562439
0.01747329719364643 0.24031007289886475 -0.06976741552352905
0.012502371333539486 0.25581395626068115 -0.1782945990562439
0.0099762799218297 0.25581395626068115 -0.06976741552352905
0.01476645190268755 0.27131783962249756 -0.1782945990562439
0.022561779245734215 0.27131783962249756 -0.1627907156944275
0.010571843013167381 0.28682172298431396 -0.19379842281341553
0.016582593321800232 0.28682172298431396 -0.1782945990562439
0.020186353474855423 0.28682172298431396 -0.1627907156944275
0.021323667839169502 0.28682172298431396 -0.08527129888534546
0.01488066278398037 0.30232560634613037 -0.19379842281341553
0.017949558794498444 0.30232560634613037 -0.1782945990562439
0.018444964662194252 0.30232560634613037 -0.1627907156944275
0.020918065682053566 0.30232560634613037 -0.14728683233261108
0.015518911182880402 0.30232560634613037 -0.08527129888534546
0.011180253699421883 0.3178294897079468 -0.20930229127407074
0.017680291086435318 0.3178294897079468 -0.19379842281341553
0.018279708921909332 0.3178294897079468 -0.1782945990562439
0.01685703545808792 0.3178294897079468 -0.1627907156944275
0.016645457595586777 0.3178294897079468 -0.14728683233261108
0.019366687163710594 0.3178294897079468 -0.13178294897079468
0.01114707998931408 0.3178294897079468 -0.08527129888534546
0.015228569507598877 0.3333333730697632 -0.20930230617523193
0.0187993161380291 0.3333333730697632 -0.19379842281341553
0.01753794215619564 0.3333333730697632 -0.1782945990562439
0.014679663814604282 0.3333333730697632 -0.1627907156944275
0.013465984724462032 0.3333333730697632 -0.14728683233261108
0.016408370807766914 0.3333333730697632 -0.13178294897079468
0.0203991811722517 0.3333333730697632 -0.11627906560897827
0.018812015652656555 0.3333333730697632 -0.10077518224716187
0.018285321071743965 0.3488372564315796 -0.20930230617523193
0.018746210262179375 0.3488372564315796 -0.19379842281341553
0.01651214063167572 0.3488372564315796 -0.1782945990562439
0.013484755530953407 0.3488372564315796 -0.1627907156944275
0.01191639993339777 0.3488372564315796 -0.14728683233261108
0.014009113423526287 0.3488372564315796 -0.13178294897079468
0.01644100807607174 0.3488372564315796 -0.11627906560897827
0.013887778855860233 0.3488372564315796 -0.10077518224716187
0.013671217486262321 0.364341139793396 -0.22480617463588715
0.019854629412293434 0.364341139793396 -0.20930230617523193
0.01773131638765335 0.364341139793396 -0.19379842281341553
0.015767885372042656 0.364341139793396 -0.1782945990562439
0.013487884774804115 0.364341139793396 -0.1627907156944275
0.011709779500961304 0.364341139793396 -0.14728683233261108
0.011588633991777897 0.364341139793396 -0.13178294897079468
0.011849015951156616 0.364341139793396 -0.11627906560897827
0.02013310231268406 0.37984490394592285 -0.22480618953704834
0.01986929215490818 0.37984490394592285 -0.20930230617523193
0.015701251104474068 0.37984490394592285 -0.19379842281341553
0.013408530503511429 0.37984490394592285 -0.1782945990562439
0.011008309200406075 0.37984490394592285 -0.1627907156944275
0.008682608604431152 0.37984490394592285 -0.14728683233261108
0.01985136792063713 0.39534878730773926 -0.20930230617523193
0.011741548776626587 0.39534881711006165 -0.19379842281341553
0.021482955664396286 0.41085267066955566 -0.24031007289886475
0.020988795906305313 0.41085267066955566 -0.20930230617523193
0.02291153185069561 0.42635655403137207 -0.20930230617523193
0.007795129902660847 0.4728682041168213 -0.25581395626068115
0.02138660103082657 0.4883720874786377 -0.25581395626068115
0.01909986510872841 0.5038759708404541 -0.20930230617523193
0.01340457983314991 0.5193798542022705 -0.20930230617523193
0.008005652576684952 0.5348837375640869 -0.20930230617523193
0.008687721565365791 0.7364340424537659 -0.27131783962249756
0.012104295194149017 0.751937985420227 -0.27131783962249756
0.01541932299733162 0.7674418687820435 -0.27131783962249756
0.019311141222715378 0.7674418687820435 -0.22480618953704834
0.018282609060406685 0.7829457521438599 -0.27131783962249756
0.014125118032097816 0.7829457521438599 -0.22480618953704834
0.018570246174931526 0.7984496355056763 -0.27131783962249756
0.01073251198977232 0.7984495759010315 -0.22480618953704834
0.01838577538728714 0.8139535188674927 -0.27131783962249756
0.00886723306030035 0.8139535188674927 -0.22480618953704834
0.017915969714522362 0.8294574022293091 -0.27131783962249756
0.007835357449948788 0.8294574022293091 -0.22480618953704834
0.017305301502346992 0.8449612855911255 -0.27131783962249756
0.016753973439335823 0.8604651689529419 -0.27131783962249756
0.015823669731616974 0.8759689331054688 -0.27131783962249756
0.014778156764805317 0.8914728164672852 -0.27131783962249756
0.012789634987711906 0.9069766998291016 -0.27131783962249756
0.010312926024198532 0.922480583190918 -0.27131783962249756
0.02305634878575802 0.9379844665527344 -0.24031007289886475
0.02150801010429859 0.9534883499145508 -0.25581395626068115
0.017558684572577477 0.9534883499145508 -0.24031007289886475
0.01789321005344391 0.9689922332763672 -0.25581395626068115
0.014142900705337524 0.9689922332763672 -0.24031007289886475
0.0156362634152174 0.9844961166381836 -0.25581395626068115
0.011351766996085644 0.9844961166381836 -0.24031008780002594
0.027393173426389694 -0.9844961166381836 0.3178294897079468
0.02963915653526783 -0.9844961762428284 0.364341139793396
0.0330444872379303 -0.9689922332763672 0.3178294897079468
0.03502105176448822 -0.9689922332763672 0.37984490394592285
0.026706255972385406 -0.9534883499145508 0.3178294897079468
0.03469427302479744 -0.9534883499145508 0.39534878730773926
0.02359187975525856 -0.9379844665527344 0.3178294897079468
0.03646095097064972 -0.9379844665527344 0.41085267066955566
0.0370553694665432 -0.9224806427955627 0.42635655403137207
0.03529351204633713 -0.9069766998291016 0.4418604373931885
0.029080774635076523 -0.8914728760719299 0.4573643207550049
0.03412396088242531 -0.8449612259864807 0.4883720874786377
0.03251802176237106 -0.8139535188674927 0.5038759708404541
0.025626936927437782 -0.7209302186965942 0.5193798542022705
0.024821609258651733 -0.7054263353347778 0.5193798542022705
0.023600026965141296 -0.6899224519729614 0.3178294897079468
0.024481916800141335 -0.5813953876495361 0.25581395626068115
0.029805071651935577 -0.5813953876495361 0.27131783962249756
0.03751964867115021 -0.5813953876495361 0.28682172298431396
0.03080614283680916 -0.5658915042877197 0.17829453945159912
0.027732783928513527 -0.5658915042877197 0.4728682041168213
0.037953734397888184 -0.5193798542022705 0.08527135848999023
0.03776043653488159 -0.5193798542022705 0.4573643207550049
0.03242049366235733 -0.5038759708404541 0.05426359176635742
0.02382531762123108 -0.5038759708404541 0.4573643207550049
0.03863804042339325 -0.4728682041168213 0.4418604373931885
0.029003173112869263 -0.4573643207550049 -0.02325582504272461
0.029844358563423157 -0.42635661363601685 -0.13178294897079468
0.024256331846117973 -0.42635658383369446 0.42635655403137207
0.0304064080119133 -0.41085273027420044 -0.1782945990562439
0.03057825192809105 -0.39534884691238403 -0.19379842281341553
0.03269185125827789 -0.3798449635505676 0.39534878730773926
0.0368303619325161 -0.3643410801887512 -0.20930230617523193
0.03112955577671528 -0.3333333134651184 -0.22480618953704834
0.036679115146398544 -0.20930230617523193 0.27131783962249756
0.026727614924311638 -0.19379842281341553 -0.20930230617523193
0.025296904146671295 -0.19379842281341553 0.25581395626068115
0.027615811675786972 -0.1627907156944275 -0.19379842281341553
0.037769854068756104 -0.11627906560897827 -0.1782945990562439
0.033918559551239014 -0.10077518224716187 -0.1782945990562439
0.032524362206459045 -0.08527129888534546 -0.1782945990562439
0.0292799174785614 -0.06976741552352905 -0.1782945990562439
0.03850623220205307 -0.06976741552352905 0.11627912521362305
0.023830844089388847 -0.05426359176635742 -0.1782945990562439
0.034848637878894806 -0.05426359176635742 0.10077524185180664
0.03499044105410576 -0.038759708404541016 0.08527135848999023
0.025734320282936096 -0.007751941680908203 -0.1627907156944275
0.02848920226097107 0.02325582504272461 -0.14728683233261108
0.03853829577565193 0.02325582504272461 0.02325582504272461
0.03010205365717411 0.038759708404541016 0.007751941680908203
0.03757309541106224 0.05426359176635742 -0.13178294897079468
0.02688000351190567 0.05426359176635742 -0.007751941680908203
0.03457781299948692 0.06976747512817383 -0.13178294897079468
0.027017321437597275 0.06976747512817383 -0.02325582504272461
0.0337509848177433 0.08527135848999023 -0.13178294897079468
0.02994539588689804 0.08527135848999023 -0.038759708404541016
0.03486194461584091 0.10077524185180664 -0.13178294897079468
0.02559536322951317 0.10077524185180664 -0.038759708404541016
0.03677121922373772 0.11627912521362305 -0.13178294897079468
0.03745974227786064 0.11627912521362305 -0.05426359176635742
0.03818848356604576 0.1317828893661499 -0.13178294897079468
0.034764230251312256 0.1317828893661499 -0.05426359176635742
0.023642418906092644 0.1472867727279663 -0.14728684723377228
0.03842933848500252 0.1472867727279663 -0.13178294897079468
0.031457629054784775 0.1472867727279663 -0.05426359176635742
0.02568379044532776 0.16279065608978271 -0.14728683233261108
0.03799213469028473 0.16279065608978271 -0.13178294897079468
0.0281906109303236 0.16279065608978271 -0.05426359176635742
0.027818161994218826 0.17829453945159912 -0.14728683233261108
0.036591365933418274 0.17829453945159912 -0.13178294897079468
0.034030281007289886 0.17829453945159912 -0.06976741552352905
0.024305449798703194 0.17829453945159912 -0.05426359176635742
0.029214443638920784 0.19379842281341553 -0.14728683233261108
0.03476366028189659 0.19379842281341553 -0.13178294897079468
0.038315486162900925 0.19379842281341553 -0.08527129888534546
0.030307278037071228 0.19379842281341553 -0.06976741552352905
0.029275793582201004 0.20930230617523193 -0.14728683233261108
0.03283115103840828 0.20930230617523193 -0.13178294897079468
0.03611161187291145 0.20930230617523193 -0.11627906560897827
0.03673607483506203 0.20930230617523193 -0.10077518224716187
0.0327351950109005 0.20930230617523193 -0.08527129888534546
0.027731679379940033 0.20930232107639313 -0.06976741552352905
0.02388177625834942 0.22480618953704834 -0.1627907156944275
0.028746189549565315 0.22480620443820953 -0.14728683233261108
0.03136904537677765 0.22480618953704834 -0.13178294897079468
0.032690100371837616 0.22480618953704834 -0.11627906560897827
0.032419539988040924 0.22480618953704834 -0.10077518224716187
0.029680883511900902 0.22480618953704834 -0.08527129888534546
0.024380624294281006 0.22480618953704834 -0.06976741552352905
0.02389887534081936 0.24031007289886475 -0.1627907156944275
0.027825910598039627 0.24031005799770355 -0.14728683233261108
0.02971247211098671 0.24031007289886475 -0.13178294897079468
0.030631937086582184 0.24031007289886475 -0.11627906560897827
0.02993541583418846 0.24031007289886475 -0.10077518224716187
0.028247931972146034 0.24031007289886475 -0.08527129888534546
0.023586226627230644 0.25581395626068115 -0.1627907156944275
0.026536229997873306 0.25581395626068115 -0.14728683233261108
0.02845676615834236 0.25581395626068115 -0.13178294897079468
0.028916586190462112 0.25581395626068115 -0.11627906560897827
0.028464609757065773 0.25581395626068115 -0.10077518224716187
0.02630832977592945 0.25581395626068115 -0.08527130633592606
0.02518654242157936 0.27131783962249756 -0.14728683233261108
0.026976075023412704 0.27131783962249756 -0.13178294897079468
0.02772350423038006 0.27131783962249756 -0.11627906560897827
0.027388375252485275 0.27131783962249756 -0.10077518224716187
0.024403799325227737 0.27131786942481995 -0.08527130633592606
0.023995788767933846 0.28682172298431396 -0.14728683233261108
0.02520432509481907 0.28682172298431396 -0.13178294897079468
0.026131749153137207 0.28682172298431396 -0.11627905815839767
0.025850050151348114 0.28682172298431396 -0.10077518224716187
0.02369331754744053 0.30232560634613037 -0.13178294897079468
0.024660572409629822 0.30232560634613037 -0.11627907305955887
0.0245848149061203 0.30232560634613037 -0.10077518224716187
0.023609958589076996 0.31782951951026917 -0.11627906560897827
0.023502593860030174 0.3178294897079468 -0.10077518224716187
0.024012194946408272 0.39534878730773926 -0.22480620443820953
0.025391455739736557 0.41085267066955566 -0.22480618953704834
0.026064619421958923 0.42635655403137207 -0.24031005799770355
0.026511501520872116 0.42635655403137207 -0.22480618953704834
0.028273630887269974 0.4418604373931885 -0.24031007289886475
0.027484430000185966 0.44186046719551086 -0.22480618953704834
0.02361268363893032 0.4418604373931885 -0.20930230617523193
0.029861049726605415 0.4573643207550049 -0.24031007289886475
0.028396831825375557 0.4573643207550049 -0.22480618953704834
0.02386801317334175 0.4573643207550049 -0.20930230617523193
0.0316506065428257 0.4728682041168213 -0.24031007289886475
0.02922806888818741 0.4728682041168213 -0.22480618953704834
0.023839468136429787 0.4728682041168213 -0.20930230617523193
0.0328841358423233 0.4883720874786377 -0.24031007289886475
0.029651958495378494 0.4883720874786377 -0.22480618953704834
0.02337563782930374 0.4883720874786377 -0.20930230617523193
0.02485053241252899 0.5038759708404541 -0.25581395626068115
0.03342392295598984 0.5038759708404541 -0.24031007289886475
0.02975437417626381 0.5038759708404541 -0.22480617463588715
0.026562709361314774 0.5193798542022705 -0.25581395626068115
0.03353595733642578 0.5193798542022705 -0.24031007289886475
0.029538171365857124 0.5193798542022705 -0.22480618953704834
0.027868710458278656 0.5348837375640869 -0.25581395626068115
0.03286198526620865 0.5348837375640869 -0.24031007289886475
0.028876010328531265 0.5348837375640869 -0.22480618953704834
0.028486106544733047 0.5503876209259033 -0.25581395626068115
0.03203596547245979 0.5503876209259033 -0.24031007289886475
0.0281166210770607 0.5503876209259033 -0.22480618953704834
0.02880089543759823 0.5658915042877197 -0.25581395626068115
0.031251974403858185 0.5658915042877197 -0.24031007289886475
0.027511533349752426 0.5658915042877197 -0.22480618953704834
0.029026372358202934 0.5813953876495361 -0.25581395626068115
0.030842021107673645 0.5813953876495361 -0.24031007289886475
0.02713048830628395 0.5813953876495361 -0.22480618953704834
0.029120218008756638 0.5968992710113525 -0.25581395626068115
0.030570706352591515 0.5968992710113525 -0.24031005799770355
0.02691929042339325 0.5968992710113525 -0.22480618953704834
0.029192302376031876 0.612403154373169 -0.25581395626068115
0.03039073571562767 0.612403154373169 -0.24031007289886475
0.026677770540118217 0.612403154373169 -0.22480618953704834
0.029227595776319504 0.6279069185256958 -0.25581395626068115
0.030198847874999046 0.6279069185256958 -0.24031007289886475
0.026396794244647026 0.6279069185256958 -0.22480618953704834
0.02932664006948471 0.6434108018875122 -0.25581395626068115
0.03015570342540741 0.6434108018875122 -0.24031007289886475
0.026231279596686363 0.6434108018875122 -0.22480618953704834
0.029361654072999954 0.6589146852493286 -0.25581395626068115
0.03000197932124138 0.6589146852493286 -0.24031007289886475
0.025986680760979652 0.6589146852493286 -0.22480618953704834
0.029325105249881744 0.674418568611145 -0.25581395626068115
0.029867805540561676 0.674418568611145 -0.24031007289886475
0.025694848969578743 0.674418568611145 -0.22480618953704834
0.02927296981215477 0.6899224519729614 -0.25581395626068115
0.0297926664352417 0.6899224519729614 -0.24031007289886475
0.02556213177740574 0.6899224519729614 -0.22480618953704834
0.02906060591340065 0.7054263353347778 -0.25581395626068115
0.029417816549539566 0.7054263353347778 -0.24031007289886475
0.02527764067053795 0.7054263353347778 -0.22480618953704834
0.028859367594122887 0.7209302186965942 -0.25581395626068115
0.02906496450304985 0.7209302186965942 -0.24031007289886475
0.024856679141521454 0.7209302186965942 -0.22480618953704834
0.028672054409980774 0.7364341020584106 -0.25581395626068115
0.028753649443387985 0.7364341020584106 -0.24031007289886475
0.024286918342113495 0.7364341020584106 -0.22480618953704834
0.02844567969441414 0.751937985420227 -0.25581395626068115
0.028527896851301193 0.751937985420227 -0.24031007289886475
0.02365591749548912 0.751937985420227 -0.22480618953704834
0.02817925438284874 0.7674418687820435 -0.25581395626068115
0.028289951384067535 0.7674418687820435 -0.24031007289886475
0.027971886098384857 0.7829457521438599 -0.25581395626068115
0.027994129806756973 0.7829457521438599 -0.24031007289886475
0.02766343206167221 0.7984496355056763 -0.25581395626068115
0.027520906180143356 0.7984496355056763 -0.24031007289886475
0.027354001998901367 0.8139535188674927 -0.25581395626068115
0.027037905529141426 0.8139535188674927 -0.24031007289886475
0.027295660227537155 0.8294574022293091 -0.25581395626068115
0.026759758591651917 0.8294574022293091 -0.24031007289886475
0.027234140783548355 0.8449613451957703 -0.25581395626068115
0.026480507105588913 0.8449612855911255 -0.24031007289886475
0.027103040367364883 0.8604651689529419 -0.25581395626068115
0.026242583990097046 0.8604651689529419 -0.24031008780002594
0.026803478598594666 0.8759689331054688 -0.25581395626068115
0.02592896856367588 0.8759689331054688 -0.24031007289886475
0.026490608230233192 0.8914728760719299 -0.25581395626068115
0.02563502825796604 0.8914728164672852 -0.24031007289886475
0.02591964788734913 0.9069766998291016 -0.25581395626068115
0.02517130598425865 0.9069766998291016 -0.24031007289886475
0.02499251998960972 0.922480583190918 -0.25581395626068115
0.024357201531529427 0.922480583190918 -0.24031007289886475
0.023918403312563896 0.9379844665527344 -0.25581395626068115
0.04134436696767807 -0.9844961166381836 0.3333333730697632
0.04141560196876526 -0.9844960570335388 0.3488372564315796
0.04620802775025368 -0.9689922332763672 0.3333333730697632
0.0494464635848999 -0.9689922332763672 0.3488372564315796
0.048900898545980453 -0.9689922332763672 0.364341139793396
0.046911947429180145 -0.9534883499145508 0.3333333730697632
0.053115829825401306 -0.9534883499145508 0.3488372564315796
0.05332092568278313 -0.9534883499145508 0.364341139793396
0.049229446798563004 -0.9534883499145508 0.37984490394592285
0.04630580544471741 -0.9379844665527344 0.3333333730697632
0.054227836430072784 -0.9379844665527344 0.37984490394592285
0.04952569305896759 -0.9379844665527344 0.39534878730773926
0.045318715274333954 -0.9224807024002075 0.3333333730697632
0.05127774924039841 -0.9224807024002075 0.41085267066955566
0.045501187443733215 -0.9069767594337463 0.3333333730697632
0.05269069969654083 -0.9069767594337463 0.42635655403137207
0.04529404267668724 -0.8914728760719299 0.3333333730697632
0.051735710352659225 -0.8914728164672852 0.4418604373931885
0.044951021671295166 -0.8759689927101135 0.3333333730697632
0.049637213349342346 -0.8759689927101135 0.4573643207550049
0.04656139388680458 -0.8604651093482971 0.3333333730697632
0.046027325093746185 -0.8604651093482971 0.4728682041168213
0.049670904874801636 -0.8449612855911255 0.3333333730697632
0.052888017147779465 -0.8449612855911255 0.4728682041168213
0.05418689176440239 -0.8294573426246643 0.3333333730697632
0.04767648130655289 -0.8294573426246643 0.4883720874786377
0.05292045697569847 -0.8139535188674927 0.4883720874786377
0.044105589389801025 -0.7984496355056763 0.5038759708404541
0.0482049435377121 -0.7829457521438599 0.5038759708404541
0.05179077386856079 -0.7674418687820435 0.5038759708404541
0.05315005034208298 -0.7364341020584106 0.3333333730697632
0.05172334238886833 -0.7209302186965942 0.3333333730697632
0.0516183115541935 -0.7054263353347778 0.3333333730697632
0.05323365330696106 -0.6899224519729614 0.3333333730697632
0.04881312698125839 -0.6589146852493286 0.5038759708404541
0.041359227150678635 -0.643410861492157 0.5038759708404541
0.0520162358880043 -0.6279069781303406 0.4883720874786377
0.0413263663649559 -0.612403154373169 0.4883720874786377
0.05033407360315323 -0.5968992114067078 0.4728682041168213
0.04256773367524147 -0.5813953876495361 0.30232560634613037
0.04087935760617256 -0.5813953876495361 0.4728682041168213
0.04257962852716446 -0.5658915042877197 0.19379842281341553
0.04898642748594284 -0.5658915042877197 0.20930230617523193
0.05426099896430969 -0.5658915042877197 0.22480618953704834
0.04391928389668465 -0.5503876209259033 0.1472867727279663
0.05087168514728546 -0.5503876209259033 0.4573643207550049
0.04230790212750435 -0.5348837375640869 0.11627912521362305
0.04491977021098137 -0.5348837375640869 0.4573643207550049
0.05404292792081833 -0.5038759708404541 0.06976747512817383
0.048447832465171814 -0.4883720874786377 0.4418604373931885
0.04286442697048187 -0.4418604373931885 0.42635655403137207
0.04349112883210182 -0.41085273027420044 -0.1627907156944275
0.04101022332906723 -0.41085273027420044 0.41085267066955566
0.04944287985563278 -0.39534884691238403 -0.1782945990562439
0.04568003490567207 -0.3798449635505676 -0.19379842281341553
0.05413542687892914 -0.3488371968269348 -0.20930230617523193
0.046175189316272736 -0.317829430103302 -0.22480618953704834
0.0531129390001297 -0.30232560634613037 -0.22480618953704834
0.04471892863512039 -0.27131783962249756 0.3333333730697632
0.05067506805062294 -0.25581395626068115 -0.22480618953704834
0.040145210921764374 -0.24031007289886475 -0.22480620443820953
0.04913485795259476 -0.22480618953704834 0.28682172298431396
0.04720206558704376 -0.20930230617523193 -0.20930230617523193
0.04520510137081146 -0.1782945990562439 -0.19379842281341553
0.046962253749370575 -0.1782945990562439 0.22480618953704834
0.041636765003204346 -0.1627907156944275 0.20930230617523193
0.050285764038562775 -0.14728683233261108 -0.1782945990562439
0.0389065183699131 -0.14728683233261108 0.19379842281341553
0.0418519526720047 -0.13178294897079468 -0.1782945990562439
0.03930540382862091 -0.13178294897079468 0.17829453945159912
0.040494270622730255 -0.11627906560897827 0.16279065608978271
0.04167414456605911 -0.10077517479658127 0.1472867727279663
0.04141916334629059 -0.08527129888534546 0.1317828893661499
0.05426311865448952 -0.06976741552352905 -0.1627907156944275
0.05117953568696976 -0.05426359176635742 -0.1627907156944275
