0.11957051604986191 -0.42635661363601685 0.05426359176635742
0.11887326091527939 -0.41085273027420044 -0.13178294897079468
0.12958523631095886 -0.41085273027420044 0.038759708404541016
0.12122371792793274 -0.41085273027420044 0.05426359176635742
0.1168459802865982 -0.39534884691238403 -0.14728684723377228
0.12088323384523392 -0.39534884691238403 -0.13178294897079468
0.13150115311145782 -0.39534884691238403 0.038759708404541016
0.1218484491109848 -0.39534884691238403 0.05426359176635742
0.11748303472995758 -0.3798449635505676 -0.14728684723377228
0.12399429827928543 -0.3798449635505676 -0.13178294897079468
0.12166690826416016 -0.3798449635505676 0.05426359176635742
0.11940354853868484 -0.3643410801887512 -0.14728683233261108
0.13166120648384094 -0.3643410801887512 -0.13178294897079468
0.12099295854568481 -0.3643410801887512 0.05426359176635742
0.12325236201286316 -0.3488371968269348 -0.14728683233261108
0.11991733312606812 -0.3488371968269348 0.05426359176635742
0.12527042627334595 -0.3333333134651184 -0.14728683233261108
0.13074709475040436 -0.3333333134651184 0.038759708404541016
0.11801576614379883 -0.3333333134651184 0.05426359176635742
0.12481427937746048 -0.317829430103302 -0.14728683233261108
0.12832583487033844 -0.317829430103302 0.038759708404541016
0.11918005347251892 -0.30232560634613037 -0.1627907156944275
0.13168345391750336 -0.30232560634613037 -0.14728683233261108
0.12420137226581573 -0.30232560634613037 0.038759708404541016
0.11646924912929535 -0.28682172298431396 -0.1782945990562439
0.11873842030763626 -0.28682172298431396 0.038759708404541016
0.12917688488960266 -0.27131783962249756 0.02325582504272461
0.11642776429653168 -0.25581395626068115 -0.19379842281341553
0.12068593502044678 -0.25581395626068115 0.02325582504272461
0.11740484833717346 -0.24031007289886475 -0.19379843771457672
0.1310962587594986 -0.24031007289886475 0.007751941680908203
0.11637506633996964 -0.22480618953704834 -0.19379842281341553
0.12134921550750732 -0.22480618953704834 0.007751941680908203
0.1192084401845932 -0.20930230617523193 -0.19379842281341553
0.13101544976234436 -0.20930230617523193 -0.1782945990562439
0.13142430782318115 -0.20930230617523193 -0.007751941680908203
0.11895864456892014 -0.19379842281341553 -0.20930230617523193
0.12708966434001923 -0.19379842281341553 -0.19379842281341553
0.1231270283460617 -0.19379842281341553 -0.007751941680908203
0.12370330095291138 -0.1782945990562439 -0.20930230617523193
0.11768592894077301 -0.1782945990562439 -0.007751941680908203
0.12166793644428253 -0.1627907156944275 -0.20930230617523193
0.13112826645374298 -0.1627907156944275 -0.19379842281341553
0.13130266964435577 -0.1627907156944275 -0.11627906560897827
0.12537695467472076 -0.1627907156944275 -0.02325582504272461
0.12512588500976562 -0.14728683233261108 -0.19379842281341553
0.13035675883293152 -0.14728683233261108 -0.1782945990562439
0.13104072213172913 -0.14728683233261108 -0.11627906560897827
0.11913974583148956 -0.14728683233261108 -0.02325582504272461
0.11936762183904648 -0.13178294897079468 -0.19379842281341553
0.12619301676750183 -0.13178294897079468 -0.1782945990562439
0.13098295032978058 -0.13178294897079468 -0.1627907156944275
0.1309734582901001 -0.13178294897079468 -0.13178294897079468
0.1303161382675171 -0.13178294897079468 -0.11627906560897827
0.12404493987560272 -0.13178294897079468 -0.038759708404541016
0.12523946166038513 -0.11627906560897827 -0.19379842281341553
0.12901414930820465 -0.11627906560897827 -0.13178294897079468
0.12728433310985565 -0.11627906560897827 -0.11627906560897827
0.1287972778081894 -0.11627906560897827 -0.10077518224716187
0.12992726266384125 -0.11627906560897827 -0.08527129888534546
0.12968318164348602 -0.11627906560897827 -0.06976741552352905
0.12625712156295776 -0.11627906560897827 -0.05426359176635742
0.11896945536136627 -0.11627906560897827 -0.038759708404541016
0.13023537397384644 -0.10077518224716187 -0.13178294897079468
0.1231381818652153 -0.10077518224716187 -0.11627906560897827
0.12270122766494751 -0.10077518224716187 -0.10077518224716187
0.12286977469921112 -0.10077518224716187 -0.08527129888534546
0.12258094549179077 -0.10077518224716187 -0.06976741552352905
0.12078344821929932 -0.10077518224716187 -0.05426359176635742
0.12486585229635239 -0.08527129888534546 -0.20930230617523193
0.13164420425891876 -0.08527129888534546 -0.13178294897079468
0.12043682485818863 -0.08527129888534546 -0.11627906560897827
0.11876695603132248 -0.08527129888534546 -0.10077518224716187
0.11862067133188248 -0.08527129888534546 -0.08527129888534546
0.11831121891736984 -0.08527129888534546 -0.06976741552352905
0.11665843427181244 -0.08527129888534546 -0.05426359176635742
0.12126359343528748 -0.06976741552352905 -0.20930230617523193
0.12462916970252991 -0.06976741552352905 -0.13178294897079468
0.11807002127170563 -0.06976741552352905 -0.11627907305955887
0.11728782206773758 -0.06976741552352905 -0.10077518969774246
0.1170252189040184 -0.06976741552352905 -0.08527129888534546
0.12998874485492706 -0.05426359176635742 -0.19379842281341553
0.12312598526477814 -0.05426359176635742 -0.14728683233261108
0.11791326850652695 -0.05426359176635742 -0.13178294897079468
0.1168159693479538 -0.05426359176635742 -0.11627906560897827
0.11640500277280807 -0.05426359176635742 -0.10077517479658127
0.1163502112030983 -0.038759708404541016 -0.1782945990562439
0.11683862656354904 -0.038759712129831314 -0.1627907156944275
0.11658880114555359 -0.038759708404541016 -0.14728683233261108
0.13327637314796448 -0.4573643207550049 -0.08527129888534546
0.1352890133857727 -0.4573643207550049 -0.06976741552352905
0.1339939832687378 -0.4573643207550049 -0.05426359176635742
0.13298583030700684 -0.4573643207550049 -0.038759708404541016
0.13245153427124023 -0.4573643207550049 -0.02325582504272461
0.1319882571697235 -0.45736435055732727 -0.007751941680908203
0.1383177787065506 -0.4418604373931885 -0.10077518224716187
0.14683176577091217 -0.4418604373931885 -0.05426359176635742
0.14178884029388428 -0.4418604373931885 -0.038759708404541016
0.13872918486595154 -0.4418604373931885 -0.02325582504272461
0.13681644201278687 -0.4418604373931885 -0.007751941680908203
0.13419166207313538 -0.4418604373931885 0.007751941680908203
0.14416956901550293 -0.42635661363601685 -0.007751941680908203
0.1388266682624817 -0.42635661363601685 0.007751941680908203
0.13369345664978027 -0.42635661363601685 0.02325582504272461
0.1350022703409195 -0.41085273027420044 -0.11627906560897827
0.1430136114358902 -0.41085273027420044 0.007751941680908203
0.13623563945293427 -0.41085273027420044 0.02325582504272461
0.13722622394561768 -0.39534884691238403 -0.11627906560897827
0.1467515230178833 -0.39534884691238403 0.007751941680908203
0.13801467418670654 -0.39534884691238403 0.02325582504272461
0.14103905856609344 -0.3798449635505676 -0.11627906560897827
0.1396053284406662 -0.3798449635505676 0.02325582504272461
0.1320427507162094 -0.3798449635505676 0.038759708404541016
0.14113900065422058 -0.3643410801887512 0.02325582504272461
0.1323217749595642 -0.3643410801887512 0.038759712129831314
0.1363012194633484 -0.3488371968269348 -0.13178294897079468
0.14163178205490112 -0.3488371968269348 0.02325582504272461
0.13214953243732452 -0.3488371968269348 0.038759708404541016
0.13880836963653564 -0.3333333134651184 -0.13178294897079468
0.1406167447566986 -0.3333333134651184 0.02325582504272461
0.13670708239078522 -0.317829430103302 -0.13178294897079468
0.1390603929758072 -0.317829430103302 0.02325582504272461
0.13791266083717346 -0.30232560634613037 -0.13178294897079468
0.1368386596441269 -0.30232560634613037 0.02325582504272461
0.13742327690124512 -0.28682172298431396 -0.1627907156944275
0.13411246240139008 -0.28682172298431396 0.02325582504272461
0.1417958289384842 -0.27131783962249756 -0.1782945990562439
0.14386063814163208 -0.27131783962249756 0.007751941680908203
0.13728351891040802 -0.25581395626068115 0.007751941680908203
0.14492081105709076 -0.24031007289886475 -0.007751941680908203
0.13572116196155548 -0.22480618953704834 -0.007751941680908203
0.1415175348520279 -0.20930230617523193 -0.02325582504272461
0.13858047127723694 -0.19379842281341553 -0.1782945990562439
0.14189225435256958 -0.19379842281341553 -0.13178294897079468
0.13462981581687927 -0.19379842281341553 -0.11627906560897827
0.13607439398765564 -0.19379843771457672 -0.10077518224716187
0.14101292192935944 -0.19379842281341553 -0.08527129888534546
0.13653379678726196 -0.19379842281341553 -0.02325582504272461
0.1348591446876526 -0.1782945990562439 -0.19379842281341553
0.14685854315757751 -0.1782945990562439 -0.14728683233261108
0.1359201967716217 -0.1782945990562439 -0.13178294897079468
0.13226406276226044 -0.1782945990562439 -0.11627906560897827
0.13318848609924316 -0.1782945990562439 -0.10077517479658127
0.13550885021686554 -0.1782945990562439 -0.08527129888534546
0.14196212589740753 -0.1782945990562439 -0.06976741552352905
0.1415843367576599 -0.1782945990562439 -0.038759708404541016
0.1328672617673874 -0.1782945990562439 -0.02325582504272461
0.1431521326303482 -0.1627907156944275 -0.14728683233261108
0.1340462863445282 -0.1627907156944275 -0.13178294897079468
0.13222113251686096 -0.1627907156944275 -0.10077517479658127
0.1339847296476364 -0.1627907156944275 -0.08527129888534546
0.13802756369113922 -0.1627907156944275 -0.06976741552352905
0.14050602912902832 -0.1627907156944275 -0.05426359176635742
0.13591134548187256 -0.1627907156944275 -0.038759708404541016
0.14139023423194885 -0.14728683233261108 -0.1627907156944275
0.13790050148963928 -0.14728683233261108 -0.14728683233261108
0.13257668912410736 -0.14728684723377228 -0.13178294897079468
0.13211938738822937 -0.14728683233261108 -0.10077518224716187
0.13329805433750153 -0.14728683233261108 -0.08527129888534546
0.13509568572044373 -0.14728683233261108 -0.06976741552352905
0.13563935458660126 -0.14728683233261108 -0.05426359549164772
0.1318431943655014 -0.14728683233261108 -0.038759708404541016
0.13285963237285614 -0.13178294897079468 -0.14728683233261108
0.1319435089826584 -0.13178294897079468 -0.10077517479658127
0.13259977102279663 -0.13178294897079468 -0.08527129888534546
0.13304978609085083 -0.13178294897079468 -0.06976742297410965
0.13243311643600464 -0.13178294897079468 -0.05426358804106712
0.13464714586734772 -0.11627906560897827 -0.1782945990562439
0.13672630488872528 -0.11627905815839767 -0.1627907156944275
0.13328701257705688 -0.11627906560897827 -0.14728683233261108
0.14190156757831573 -0.10077518224716187 -0.19379842281341553
0.13818344473838806 -0.10077518224716187 -0.14728683233261108
0.14104585349559784 -0.08527129888534546 -0.14728683233261108
0.14570285379886627 -0.06976741552352905 -0.19379842281341553
0.14466281235218048 -0.06976741552352905 -0.1627907156944275
0.1348685771226883 -0.06976741552352905 -0.14728683233261108
0.13338734209537506 -0.05426359176635742 -0.1782945990562439
0.13208721578121185 -0.05426359176635742 -0.1627907156944275
0.14805860817432404 -0.4418604373931885 -0.08527129888534546
0.1481534093618393 -0.4418604373931885 -0.06976741552352905
0.14827659726142883 -0.42635661363601685 -0.10077518224716187
0.1536714881658554 -0.42635661363601685 -0.08527129888534546
0.1543259620666504 -0.42635661363601685 -0.06976741552352905
0.1509067416191101 -0.42635658383369446 -0.05426359176635742
0.14896300435066223 -0.42635661363601685 -0.038759708404541016
0.14785350859165192 -0.42635661363601685 -0.02325582504272461
0.15221604704856873 -0.41085273027420044 -0.10077518969774246
0.15472553670406342 -0.41085273027420044 -0.038759708404541016
0.15073472261428833 -0.41085270047187805 -0.02325582504272461
0.1485344022512436 -0.41085273027420044 -0.007751941680908203
0.1620950996875763 -0.39534884691238403 -0.10077518224716187
0.15514424443244934 -0.39534884691238403 -0.02325582504272461
0.15076293051242828 -0.39534881711006165 -0.007751941680908203
0.16004936397075653 -0.3798449635505676 -0.02325582504272461
0.15325886011123657 -0.3798449635505676 -0.007751941680908203
0.14853928983211517 -0.37984493374824524 0.007751941215246916
0.14758877456188202 -0.3643410801887512 -0.11627906560897827
0.15918800234794617 -0.3643410801887512 -0.10077518224716187
0.1559409648180008 -0.3643410801887512 -0.007751941680908203
0.15011870861053467 -0.3643410801887512 0.007751941680908203
0.1491018682718277 -0.3488371968269348 -0.11627906560897827
0.16144175827503204 -0.3488371968269348 -0.10077518224716187
0.15725502371788025 -0.3488371968269348 -0.007751941680908203
0.15059524774551392 -0.3488371968269348 0.007751941680908203
0.15010753273963928 -0.3333333134651184 -0.11627906560897827
0.15703977644443512 -0.3333333134651184 -0.007751941680908203
0.1502191573381424 -0.3333333134651184 0.007751941680908203
0.14931732416152954 -0.317829430103302 -0.11627906560897827
0.16016800701618195 -0.317829430103302 -0.10077518224716187
0.1564827859401703 -0.317829430103302 -0.007751941680908203
0.1496133655309677 -0.317829430103302 0.00775194214656949
0.14801697432994843 -0.30232560634613037 -0.11627906560897827
0.15447655320167542 -0.30232560634613037 -0.10077518224716187
0.15622112154960632 -0.30232560634613037 -0.007751941680908203
0.1488686352968216 -0.30232560634613037 0.007751941680908203
0.15183499455451965 -0.28682172298431396 -0.14728683233261108
0.15259294211864471 -0.28682172298431396 -0.13178294897079468
0.15405398607254028 -0.28682172298431396 -0.11627905815839767
0.15569916367530823 -0.28682172298431396 -0.007751941680908203
0.14775197207927704 -0.28682172298431396 0.007751941680908203
0.15365847945213318 -0.27131783962249756 -0.007751941680908203
0.1507536917924881 -0.25581395626068115 -0.007751941680908203
0.1604430377483368 -0.24031007289886475 -0.02325582504272461
0.16184782981872559 -0.22480618953704834 -0.19379842281341553
0.1497819721698761 -0.22480618953704834 -0.02325582504272461
0.16152264177799225 -0.20930230617523193 -0.19379842281341553
0.1524890959262848 -0.20930230617523193 -0.1782945990562439
0.15096187591552734 -0.20930230617523193 -0.038759708404541016
0.15855646133422852 -0.19379842281341553 -0.19379842281341553
0.1508212834596634 -0.19379842281341553 -0.1782945990562439
0.1478964388370514 -0.19379840791225433 -0.06976740807294846
0.1488913595676422 -0.19379840791225433 -0.05426358804106712
0.1475358009338379 -0.19379843771457672 -0.038759708404541016
0.1533508598804474 -0.1782945990562439 -0.19379842281341553
0.14798082411289215 -0.1782945990562439 -0.14728683233261108
0.14741933345794678 -0.1782946139574051 -0.05426359549164772
0.16009287536144257 -0.1627907156944275 -0.20930230617523193
0.15097695589065552 -0.1627907156944275 -0.19379842281341553
0.1535107046365738 -0.1627907156944275 -0.14728683233261108
0.16016487777233124 -0.14728683233261108 -0.20930230617523193
0.1543274223804474 -0.14728683233261108 -0.19379842281341553
0.14966168999671936 -0.14728683233261108 -0.1782945990562439
0.15090863406658173 -0.14728683233261108 -0.1627907156944275
0.16166628897190094 -0.13178294897079468 -0.19379842281341553
0.16056248545646667 -0.13178294897079468 -0.1782945990562439
0.15137726068496704 -0.10077518224716187 -0.1782945990562439
0.148072749376297 -0.10077518224716187 -0.16279073059558868
0.15145254135131836 -0.08527129888534546 -0.19379842281341553
0.1547984480857849 -0.08527129888534546 -0.1782945990562439
0.15070343017578125 -0.08527129888534546 -0.1627907156944275
0.14829663932323456 -0.06976741552352905 -0.1782946139574051
0.16237716376781464 0.007751941680908203 -0.39534884691238403
0.16481095552444458 -0.41085273027420044 -0.05426359176635742
0.1634908765554428 -0.39534884691238403 -0.10077518224716187
0.1643562614917755 -0.39534884691238403 -0.038759708404541016
0.168940007686615 -0.3798449635505676 -0.038759708404541016
0.16958138346672058 -0.3643410801887512 -0.038759708404541016
0.1639518290758133 -0.3643410801887512 -0.02325582504272461
0.16643822193145752 -0.3488371670246124 -0.08527129888534546
0.1718088537454605 -0.3488371968269348 -0.06976741552352905
0.171863853931427 -0.3488371968269348 -0.05426359176635742
0.16812634468078613 -0.3488371968269348 -0.038759708404541016
0.16459406912326813 -0.3488371968269348 -0.02325582504272461
0.163037970662117 -0.3333333134651184 -0.10077518224716187
0.16489765048027039 -0.3333333134651184 -0.08527129888534546
0.16786764562129974 -0.3333333134651184 -0.06976741552352905
0.1687433421611786 -0.3333333134651184 -0.05426358804106712
0.16695907711982727 -0.3333333134651184 -0.038759708404541016
0.16432912647724152 -0.3333333134651184 -0.02325582504272461
0.16452988982200623 -0.317829430103302 -0.08527129888534546
0.1673521250486374 -0.317829430103302 -0.06976741552352905
0.1683349609375 -0.317829430103302 -0.05426359176635742
0.16670961678028107 -0.317829430103302 -0.038759708404541016
0.1640419214963913 -0.317829430103302 -0.02325582504272461
0.16517274081707 -0.30232560634613037 -0.08527129888534546
0.16946908831596375 -0.30232560634613037 -0.06976741552352905
0.1695520281791687 -0.30232560634613037 -0.05426359176635742
0.1672305315732956 -0.30232560634613037 -0.038759708404541016
0.16421958804130554 -0.30232560634613037 -0.02325582504272461
0.1677943766117096 -0.28682172298431396 -0.10077518224716187
0.16921889781951904 -0.28682172298431396 -0.038759708404541016
0.16468121111392975 -0.28682172298431396 -0.02325582504272461
0.17477330565452576 -0.27131783962249756 -0.038759708404541016
0.1652044951915741 -0.27131783962249756 -0.02325582690536976
0.17106521129608154 -0.25581395626068115 -0.19379842281341553
0.16518065333366394 -0.25581395626068115 -0.02325582504272461
0.17432177066802979 -0.24031007289886475 -0.20930230617523193
0.16321323812007904 -0.24031007289886475 -0.19379842281341553
0.17713850736618042 -0.24031007289886475 -0.038759708404541016
0.17065638303756714 -0.22480618953704834 -0.20930230617523193
0.16724474728107452 -0.22480618953704834 -0.038759708404541016
0.17817433178424835 -0.20930230617523193 -0.22480618953704834
0.16861960291862488 -0.20930230617523193 -0.20930230617523193
0.1646600365638733 -0.20930230617523193 -0.05426359176635742
0.17684319615364075 -0.19379842281341553 -0.22480618953704834
0.1663062572479248 -0.19379842281341553 -0.20930230617523193
0.1688554584980011 -0.19379842281341553 -0.13178294897079468
0.17403675615787506 -0.1782945990562439 -0.22480618953704834
0.16290344297885895 -0.1782945841550827 -0.20930230617523193
0.1746061146259308 -0.1782945990562439 -0.13178294897079468
0.169866681098938 -0.1627907156944275 -0.22480618953704834
0.17445030808448792 -0.14728683233261108 -0.24031007289886475
0.16695277392864227 -0.14728683233261108 -0.22480618953704834
0.16438476741313934 -0.14728683233261108 -0.14728683233261108
0.17734211683273315 -0.13178294897079468 -0.25581395626068115
0.17339131236076355 -0.13178294897079468 -0.24031007289886475
0.1682373732328415 -0.13178294897079468 -0.22480618953704834
0.16372135281562805 -0.13178294897079468 -0.20930229127407074
0.1651017665863037 -0.13178294897079468 -0.1627907007932663
0.17783810198307037 -0.11627906560897827 -0.25581395626068115
0.17675258219242096 -0.11627906560897827 -0.24031007289886475
0.17455057799816132 -0.11627906560897827 -0.22480618953704834
0.17253068089485168 -0.11627906560897827 -0.20930230617523193
0.17195653915405273 -0.11627906560897827 -0.19379842281341553
0.1744382381439209 -0.11627906560897827 -0.1782945990562439
0.17758116126060486 -0.10077518224716187 -0.28682172298431396
0.1766294687986374 -0.10077518224716187 -0.27131783962249756
0.17805221676826477 -0.10077518224716187 -0.25581395626068115
0.17703402042388916 -0.08527129888534546 -0.28682172298431396
0.17693907022476196 -0.08527129888534546 -0.27131783962249756
0.17824208736419678 -0.02325582504272461 -0.39534884691238403
0.176885724067688 -0.007751941680908203 -0.41085273027420044
0.1690826117992401 -0.007751941680908203 -0.39534884691238403
0.16884395480155945 0.007751941680908203 -0.41085273027420044
0.1690426468849182 0.02325582504272461 -0.41085273027420044
0.1739867925643921 0.02325582504272461 -0.39534884691238403
0.192851722240448 -0.4883720874786377 -0.14728683233261108
0.18680121004581451 -0.4883720874786377 -0.13178294897079468
0.19002917408943176 -0.4728682041168213 -0.14728683233261108
0.1816706508398056 -0.4728682041168213 -0.13178294897079468
0.18947052955627441 -0.4573643207550049 -0.14728683233261108
0.1880623996257782 -0.4573643207550049 -0.13178294897079468
0.19265052676200867 -0.4418604373931885 -0.1627907156944275
0.18811622262001038 -0.4418604373931885 -0.14728683233261108
0.19279491901397705 -0.4418604373931885 -0.13178294897079468
0.19127225875854492 -0.42635661363601685 -0.14728683233261108
0.190376415848732 -0.41085273027420044 -0.10077518224716187
0.18773989379405975 -0.41085273027420044 -0.08527129888534546
0.1797444224357605 -0.41085273027420044 -0.06976741552352905
0.19130997359752655 -0.39534884691238403 -0.11627906560897827
0.18724432587623596 -0.39534884691238403 -0.06976741552352905
0.1794891506433487 -0.39534884691238403 -0.05426359176635742
0.18979083001613617 -0.3798449635505676 -0.06976741552352905
0.18202057480812073 -0.3798449635505676 -0.05426359176635742
0.18770833313465118 -0.3643410801887512 -0.08527129888534546
0.18477879464626312 -0.3643410801887512 -0.06976741552352905
0.1802898794412613 -0.3643410801887512 -0.05426359176635742
0.1818126142024994 -0.28682172298431396 -0.08527129888534546
0.18238569796085358 -0.28682172298431396 -0.06976741552352905
0.1785997748374939 -0.28682172298431396 -0.05426359176635742
0.19123513996601105 -0.27131783962249756 -0.19379842281341553
0.1824132204055786 -0.27131783962249756 -0.1782945990562439
0.1907258927822113 -0.27131783962249756 -0.11627906560897827
0.18393270671367645 -0.27131783962249756 -0.05426359176635742
0.18111462891101837 -0.25581395626068115 -0.20930232107639313
0.18687474727630615 -0.25581395626068115 -0.05426359176635742
0.17914175987243652 -0.25581395626068115 -0.038759708404541016
0.18815797567367554 -0.24031007289886475 -0.22480618953704834
0.18600933253765106 -0.24031007289886475 -0.05426359176635742
0.1820431649684906 -0.22480618953704834 -0.22480618953704834
0.19295190274715424 -0.22480618953704834 -0.06976741552352905
0.1822597086429596 -0.22480618953704834 -0.05426359176635742
0.18336643278598785 -0.20930230617523193 -0.10077518224716187
0.18151016533374786 -0.20930230617523193 -0.08527129888534546
0.17858608067035675 -0.20930230617523193 -0.06976741552352905
0.18913184106349945 -0.1782945990562439 -0.24031007289886475
0.19301873445510864 -0.1627907156944275 -0.25581395626068115
0.17994175851345062 -0.1627907156944275 -0.24031007289886475
0.19175423681735992 -0.14728683233261108 -0.27131783962249756
0.18159404397010803 -0.14728683233261108 -0.25581395626068115
0.1927202045917511 -0.13178294897079468 -0.28682172298431396
0.18423067033290863 -0.13178294897079468 -0.27131783962249756
0.1920134425163269 -0.11627906560897827 -0.30232560634613037
0.1855696439743042 -0.11627906560897827 -0.28682172298431396
0.17965401709079742 -0.11627906560897827 -0.27131783962249756
0.19335965812206268 -0.10077518224716187 -0.3333333134651184
0.18940132856369019 -0.10077518224716187 -0.317829430103302
0.1832771748304367 -0.10077518224716187 -0.30232560634613037
0.18366411328315735 -0.10077518224716187 -0.24031005799770355
0.18511581420898438 -0.10077518224716187 -0.22480618953704834
0.1872672289609909 -0.10077518224716187 -0.20930230617523193
0.1908927857875824 -0.08527129888534546 -0.3333333134651184
0.186594158411026 -0.08527129888534546 -0.317829430103302
0.17998026311397552 -0.08527129888534546 -0.30232560634613037
0.18261073529720306 -0.08527129888534546 -0.25581395626068115
0.1928039938211441 -0.08527129888534546 -0.24031007289886475
0.193323016166687 -0.06976741552352905 -0.3333333134651184
0.19103889167308807 -0.06976741552352905 -0.317829430103302
0.18800225853919983 -0.06976741552352905 -0.30232560634613037
0.18563908338546753 -0.06976741552352905 -0.28682172298431396
0.18869225680828094 -0.06976741552352905 -0.27131783962249756
0.18885231018066406 -0.02325582504272461 -0.41085273027420044
0.18498112261295319 0.02325582504272461 -0.41085273027420044
0.18107245862483978 0.02325582690536976 -0.3953488767147064
0.20867642760276794 -0.5193798542022705 -0.14728683233261108
0.2091246396303177 -0.5038759708404541 -0.1627907156944275
0.20204228162765503 -0.5038759708404541 -0.14728683233261108
0.19686344265937805 -0.5038759708404541 -0.13178294897079468
0.2074146419763565 -0.4883720874786377 -0.1627907156944275
0.2068098932504654 -0.4728682041168213 -0.1627907156944275
0.20166835188865662 -0.4573643207550049 -0.1627907156944275
0.2070446014404297 -0.42635661363601685 -0.41085273027420044
0.19399316608905792 -0.42635661363601685 -0.1627907156944275
0.20673531293869019 -0.42635661363601685 -0.13178294897079468
0.20781803131103516 -0.41085273027420044 -0.41085273027420044
0.19436530768871307 -0.41085273027420044 -0.10077518224716187
0.19485196471214294 -0.39534884691238403 -0.11627906560897827
0.19948932528495789 -0.39534884691238403 -0.10077518224716187
0.19653087854385376 -0.39534884691238403 -0.08527129888534546
0.1977149099111557 -0.3798449635505676 -0.10077517479658127
0.19639426469802856 -0.3798449635505676 -0.08527129888534546
0.20004883408546448 -0.27131783962249756 -0.20930230617523193
0.19817426800727844 -0.27131783962249756 -0.10077518224716187
0.19780127704143524 -0.27131783962249756 -0.08527129143476486
0.1943698674440384 -0.27131780982017517 -0.06976741552352905
0.19593700766563416 -0.25581395626068115 -0.22480618953704834
0.2018963098526001 -0.25581395626068115 -0.08527129888534546
0.1970781832933426 -0.25581395626068115 -0.06976741552352905
0.20227204263210297 -0.24031007289886475 -0.08527129888534546
0.19673225283622742 -0.24031007289886475 -0.06976741552352905
0.20470090210437775 -0.22480618953704834 -0.24031007289886475
0.1983475238084793 -0.22480618953704834 -0.08527129888534546
0.20004796981811523 -0.20930230617523193 -0.24031007289886475
0.19509848952293396 -0.19379842281341553 -0.24031007289886475
0.20294189453125 -0.1782945990562439 -0.13178294897079468
0.20801708102226257 -0.14728683233261108 -0.28682172298431396
0.20193976163864136 -0.14728683233261108 -0.14728683233261108
0.20825636386871338 -0.13178294897079468 -0.30232560634613037
0.20278573036193848 -0.11627906560897827 -0.317829430103302
0.20922689139842987 -0.11627906560897827 -0.1782945990562439
0.2080572545528412 -0.10077518224716187 -0.3643410801887512
0.202085942029953 -0.10077518224716187 -0.3488371968269348
0.20624250173568726 -0.08527129888534546 -0.39534884691238403
0.2084205150604248 -0.08527129888534546 -0.3798449635505676
0.2033456414937973 -0.08527129888534546 -0.3643410801887512
0.19401289522647858 -0.08527129888534546 -0.3488371670246124
0.2046653777360916 -0.06976741552352905 -0.39534884691238403
0.2076655924320221 -0.06976741552352905 -0.3643410801887512
0.20125611126422882 -0.06976741552352905 -0.3488371968269348
0.20799672603607178 -0.06976741552352905 -0.25581395626068115
0.20846453309059143 -0.05426359176635742 -0.41085273027420044
0.20315629243850708 -0.05426359176635742 -0.39534884691238403
0.19897255301475525 -0.038759708404541016 -0.41085273027420044
0.19438545405864716 -0.038759708404541016 -0.39534884691238403
0.20895498991012573 -0.007751941680908203 -0.39534884691238403
0.19915850460529327 0.007751941680908203 -0.41085273027420044
0.1987561583518982 0.007751941680908203 -0.39534884691238403
0.22478285431861877 -0.5968992114067078 -0.24031007289886475
0.22417005896568298 -0.5813953876495361 -0.24031007289886475
0.22432976961135864 -0.5348837375640869 -0.1782945990562439
0.22274647653102875 -0.5348837375640869 -0.1627907156944275
0.22339648008346558 -0.5348837375640869 -0.14728683233261108
0.22210487723350525 -0.5193798542022705 -0.1782945990562439
0.21668420732021332 -0.5193798542022705 -0.1627907156944275
0.20949694514274597 -0.5193798542022705 -0.13178294897079468
0.2242145538330078 -0.5038759708404541 -0.1782945990562439
0.21738675236701965 -0.4728682041168213 -0.1627907156944275
0.21469835937023163 -0.4573643207550049 -0.1627907156944275
0.21705277264118195 -0.4418604373931885 -0.1627907156944275
0.21576878428459167 -0.4418604373931885 -0.13178294897079468
0.2127382904291153 -0.42635664343833923 -0.4108527600765228
0.21321308612823486 -0.42635661363601685 -0.1627907156944275
0.2175421118736267 -0.42635661363601685 -0.14728683233261108
0.2103542536497116 -0.42635661363601685 -0.13178294897079468
0.21249273419380188 -0.41085273027420044 -0.41085273027420044
0.21976050734519958 -0.27131783962249756 -0.20930230617523193
0.22248049080371857 -0.27131783962249756 -0.14728683233261108
0.2106456160545349 -0.27131783962249756 -0.13178294897079468
0.21622386574745178 -0.25581395626068115 -0.11627906560897827
0.2110258787870407 -0.25581395626068115 -0.10077518224716187
0.21174369752407074 -0.24031007289886475 -0.24031007289886475
0.22268658876419067 -0.24031007289886475 -0.11627906560897827
0.21280574798583984 -0.24031007289886475 -0.10077518224716187
0.22034087777137756 -0.22480618953704834 -0.11627906560897827
0.20941846072673798 -0.22480618953704834 -0.10077518224716187
0.2096026986837387 -0.20930230617523193 -0.11627906560897827
0.21306097507476807 -0.19379842281341553 -0.13178294897079468
0.21206404268741608 -0.1782945990562439 -0.25581395626068115
0.22332563996315002 -0.1782945990562439 -0.14728683233261108
0.21346600353717804 -0.1627907156944275 -0.27131783962249756
0.21406322717666626 -0.1627907156944275 -0.14728683233261108
0.2215299904346466 -0.14728683233261108 -0.1627907156944275
0.20990365743637085 -0.13178294897079468 -0.1627907156944275
0.2155844271183014 -0.11627906560897827 -0.3333333134651184
0.2131117582321167 -0.10077518224716187 -0.39534884691238403
0.2158963680267334 -0.10077518224716187 -0.20930230617523193
0.223170667886734 -0.08527129888534546 -0.41085273027420044
0.21735897660255432 -0.06976741552352905 -0.41085273027420044
0.22106331586837769 -0.06976741552352905 -0.25581395626068115
0.21495968103408813 -0.038759708404541016 -0.41085273027420044
0.21183249354362488 -0.03875970467925072 -0.39534884691238403
0.21194081008434296 -0.02325582318007946 -0.41085273027420044
0.20995908975601196 -0.02325582504272461 -0.39534884691238403
0.2099994570016861 -0.007751941680908203 -0.4108527600765228
0.23484133183956146 -0.6124030947685242 -0.25581395626068115
0.23865942656993866 -0.6124030947685242 -0.24031007289886475
0.22562910616397858 -0.5968992114067078 -0.25581395626068115
0.2373080849647522 -0.5968992114067078 -0.22480618953704834
0.23194578289985657 -0.5813953876495361 -0.25581395626068115
0.2300727218389511 -0.5813953876495361 -0.22480618953704834
0.23053842782974243 -0.5658915042877197 -0.24031007289886475
0.2299579232931137 -0.5658915042877197 -0.22480618953704834
0.2370775192975998 -0.5658915042877197 -0.20930230617523193
0.23655757308006287 -0.5503876209259033 -0.22480618953704834
0.2353503704071045 -0.5503876209259033 -0.20930230617523193
0.23616787791252136 -0.5503876209259033 -0.19379842281341553
0.2319905161857605 -0.5348837375640869 -0.19379842281341553
0.2254912108182907 -0.5038759708404541 -0.1782945990562439
0.23589740693569183 -0.5038759708404541 -0.1627907156944275
0.23626290261745453 -0.5038759708404541 -0.13178294897079468
0.22836294770240784 -0.4883720874786377 -0.1627907156944275
0.23810501396656036 -0.4883720874786377 -0.14728683233261108
0.23214960098266602 -0.4883720874786377 -0.13178294897079468
0.23117515444755554 -0.4728681743144989 -0.14728683233261108
0.22867880761623383 -0.4728682041168213 -0.13178294897079468
0.2268039584159851 -0.45736435055732727 -0.14728683233261108
0.22517554461956024 -0.4573643207550049 -0.13178294897079468
0.22534877061843872 -0.4418604373931885 -0.14728683233261108
0.22575294971466064 -0.27131786942481995 -0.19379842281341553
0.2264726608991623 -0.27131783962249756 -0.1782945990562439
0.2264961302280426 -0.27131783962249756 -0.1627907156944275
0.22782835364341736 -0.25581395626068115 -0.24031008780002594
0.231008842587471 -0.25581395626068115 -0.14728683233261108
0.22621400654315948 -0.25581395626068115 -0.13178294897079468
0.23522618412971497 -0.24031007289886475 -0.14728683233261108
0.2293868362903595 -0.24031007289886475 -0.13178294897079468
0.23537124693393707 -0.22480618953704834 -0.14728683233261108
0.2290997952222824 -0.22480618953704834 -0.13178294897079468
0.23944266140460968 -0.20930230617523193 -0.25581395626068115
0.23190297186374664 -0.20930230617523193 -0.14728683233261108
0.2254011332988739 -0.20930230617523193 -0.13178294897079468
0.2271069586277008 -0.19379842281341553 -0.25581395626068115
0.22829703986644745 -0.19379842281341553 -0.14728683233261108
0.23514889180660248 -0.1782945990562439 -0.1627907156944275
0.22934633493423462 -0.1627907156944275 -0.1627907156944275
0.23630589246749878 -0.14728683233261108 -0.1782945990562439
0.23706954717636108 -0.13178294897079468 -0.41085273027420044
0.2271077185869217 -0.13178294897079468 -0.1782945990562439
0.23460733890533447 -0.11627906560897827 -0.41085273027420044
0.23484110832214355 -0.11627906560897827 -0.39534884691238403
0.23266398906707764 -0.11627906560897827 -0.3333333134651184
0.22824524343013763 -0.11627906560897827 -0.19379843771457672
0.22609692811965942 -0.10077518224716187 -0.41085273027420044
0.2399456650018692 -0.08527129888534546 -0.3798449635505676
0.22570693492889404 -0.06976741552352905 -0.3643410801887512
0.23060640692710876 -0.06976741552352905 -0.3488371968269348
0.22765429317951202 -0.05426359549164772 -0.41085273027420044
0.22611559927463531 -0.05426358804106712 -0.39534884691238403
0.24330765008926392 -0.5503876209259033 -0.22480618953704834
0.24682623147964478 -0.5503876209259033 -0.20930230617523193
0.24404940009117126 -0.5503876209259033 -0.19379842281341553
0.243129163980484 -0.5348837375640869 -0.19379842281341553
0.24519330263137817 -0.5348837375640869 -0.1782945990562439
0.24383586645126343 -0.5348837375640869 -0.1627907156944275
0.2417883574962616 -0.5348837375640869 -0.14728683233261108
0.24101270735263824 -0.5193798542022705 -0.1782945990562439
0.24327929317951202 -0.5193798542022705 -0.1627907156944275
0.24401618540287018 -0.5193798542022705 -0.14728683233261108
0.24098317325115204 -0.5193798542022705 -0.13178294897079468
0.24188034236431122 -0.5038759708404541 -0.14728683233261108
0.25323548913002014 -0.25581395626068115 -0.25581395626068115
0.245979443192482 -0.25581395626068115 -0.1782945990562439
0.24077652394771576 -0.25581395626068115 -0.1627907156944275
0.2523091733455658 -0.24031007289886475 -0.25581395626068115
0.2526521384716034 -0.24031007289886475 -0.1782945990562439
0.24378320574760437 -0.24031007289886475 -0.1627907156944275
0.25374191999435425 -0.22480618953704834 -0.1782945990562439
0.24409116804599762 -0.22480618953704834 -0.1627907156944275
0.24963125586509705 -0.20930230617523193 -0.25581395626068115
0.25250351428985596 -0.20930230617523193 -0.1782945990562439
0.24273544549942017 -0.20930230617523193 -0.1627907156944275
0.2503809332847595 -0.19379842281341553 -0.1782945990562439
0.2404884397983551 -0.19379843771457672 -0.1627907156944275
0.2468145191669464 -0.1782945990562439 -0.1782945990562439
0.2537268102169037 -0.1627907156944275 -0.41085273027420044
0.24281299114227295 -0.1627907007932663 -0.1782945990562439
0.24206696450710297 -0.14728683233261108 -0.41085273027420044
0.24990501999855042 -0.14728683233261108 -0.19379842281341553
0.24257990717887878 -0.13178294897079468 -0.19379840791225433
0.24807187914848328 -0.11627906560897827 -0.20930230617523193
0.24196529388427734 -0.10077518224716187 -0.3643410801887512
0.253533273935318 -0.10077518224716187 -0.3488371968269348
0.2534884214401245 -0.10077518224716187 -0.22480618953704834
0.2501084804534912 -0.08527129888534546 -0.41085273027420044
0.2409047931432724 -0.08527129888534546 -0.3643410801887512
0.24592360854148865 -0.08527129888534546 -0.3488371968269348
0.2413298487663269 -0.06976741552352905 -0.41085273027420044
0.24073971807956696 -0.06976740807294846 -0.39534881711006165
0.24081745743751526 -0.06976741552352905 -0.3333333134651184
0.25196799635887146 -0.06976741552352905 -0.317829430103302
0.25605788826942444 -0.6124030947685242 -0.25581395626068115
0.2568581700325012 -0.5968992114067078 -0.25581395626068115
0.2558921277523041 -0.5813954472541809 -0.25581395626068115
0.26546531915664673 -0.5813953876495361 -0.24031007289886475
0.2695062756538391 -0.5813953876495361 -0.22480618953704834
0.25671079754829407 -0.5658915042877197 -0.24031007289886475
0.2603040337562561 -0.5658915042877197 -0.22480618953704834
0.2561262249946594 -0.5658915042877197 -0.20930230617523193
0.26029881834983826 -0.25581395626068115 -0.20930230617523193
0.25627607107162476 -0.25581395626068115 -0.19379842281341553
0.26136645674705505 -0.24031007289886475 -0.19379842281341553
0.2620004713535309 -0.22480618953704834 -0.25581395626068115
0.26251712441444397 -0.22480620443820953 -0.19379842281341553
0.25928276777267456 -0.20930230617523193 -0.25581395626068115
0.2621130049228668 -0.20930230617523193 -0.19379842281341553
0.2612453103065491 -0.19379842281341553 -0.19379842281341553
0.2655175030231476 -0.1782945990562439 -0.41085273027420044
0.2596759498119354 -0.1782945990562439 -0.19379842281341553
0.2690707743167877 -0.1627907156944275 -0.20930230617523193
0.2565927803516388 -0.1627907156944275 -0.19379842281341553
0.263477087020874 -0.14728683233261108 -0.20930230617523193
0.2584742605686188 -0.13178294897079468 -0.20930230617523193
0.26742058992385864 -0.11627906560897827 -0.22480618953704834
0.2614518702030182 -0.10077518224716187 -0.41085273027420044
0.2669718861579895 -0.10077518224716187 -0.3333333134651184
0.2567066550254822 -0.08527129888534546 -0.39534884691238403
0.25790971517562866 -0.08527129888534546 -0.3333333134651184
0.25758007168769836 -0.08527129888534546 -0.24031007289886475
0.2655588984489441 -0.06976741552352905 -0.30232560634613037
0.27454519271850586 -0.6124030947685242 -0.24031007289886475
0.27325791120529175 -0.596899151802063 -0.24031007289886475
0.2721356749534607 -0.5968992114067078 -0.22480617463588715
0.2764296531677246 -0.25581395626068115 -0.27131783962249756
0.2754589319229126 -0.25581395626068115 -0.22480618953704834
0.28474798798561096 -0.24031007289886475 -0.27131783962249756
0.2832812964916229 -0.24031007289886475 -0.22480618953704834
0.2732519507408142 -0.24031005799770355 -0.20930229127407074
0.28260695934295654 -0.22480618953704834 -0.22480618953704834
0.27413830161094666 -0.22480618953704834 -0.20930230617523193
0.2811579406261444 -0.20930230617523193 -0.22480618953704834
0.2740427553653717 -0.20930230617523193 -0.20930230617523193
0.2735680937767029 -0.19379842281341553 -0.41085273027420044
0.28055107593536377 -0.19379842281341553 -0.22480618953704834
0.2737167775630951 -0.19379842281341553 -0.20930230617523193
0.27970120310783386 -0.1782945990562439 -0.22480618953704834
0.2726576328277588 -0.1782945990562439 -0.20930230617523193
0.2780182659626007 -0.1627907156944275 -0.22480617463588715
0.28538528084754944 -0.14728683233261108 -0.24031007289886475
0.2759374976158142 -0.14728683233261108 -0.22480618953704834
0.2736362814903259 -0.13178294897079468 -0.39534884691238403
0.28251928091049194 -0.13178294897079468 -0.24031007289886475
0.2730454206466675 -0.13178294897079468 -0.22480617463588715
0.2753787636756897 -0.11627906560897827 -0.41085273027420044
0.2792235016822815 -0.11627906560897827 -0.39534884691238403
0.2795754075050354 -0.11627906560897827 -0.317829430103302
0.27949732542037964 -0.11627906560897827 -0.24031007289886475
0.27211377024650574 -0.10077518224716187 -0.39534884691238403
0.2804013788700104 -0.10077518224716187 -0.317829430103302
0.28474700450897217 -0.10077518224716187 -0.25581395626068115
0.2750186324119568 -0.10077518224716187 -0.24031007289886475
0.27273938059806824 -0.08527129888534546 -0.317829430103302
0.2805590033531189 -0.08527129888534546 -0.30232560634613037
0.2853136956691742 -0.08527129888534546 -0.28682172298431396
0.2831433415412903 -0.08527129888534546 -0.27131783962249756
0.27688246965408325 -0.08527129888534546 -0.25581395626068115
0.2733418941497803 -0.06976741552352905 -0.28682172298431396
0.2715180218219757 -0.06976740807294846 -0.27131783962249756
0.2923146188259125 -0.643410861492157 -0.25581395626068115
0.2930486798286438 -0.25581395626068115 -0.27131783962249756
0.2947855293750763 -0.25581395626068115 -0.25581395626068115
0.2896067500114441 -0.25581395626068115 -0.24031007289886475
0.2890388071537018 -0.24031007289886475 -0.27131783962249756
0.29626595973968506 -0.24031007289886475 -0.25581395626068115
0.29157066345214844 -0.24031007289886475 -0.24031007289886475
0.2913956046104431 -0.22480618953704834 -0.25581395626068115
0.29016995429992676 -0.22480618953704834 -0.24031007289886475
0.28797459602355957 -0.20930230617523193 -0.25581395626068115
0.2888663411140442 -0.20930230617523193 -0.24031007289886475
0.2934797406196594 -0.19379842281341553 -0.41085273027420044
0.28835850954055786 -0.19379842281341553 -0.25581395626068115
0.28829655051231384 -0.19379842281341553 -0.24031005799770355
0.2893875539302826 -0.1782945990562439 -0.25581395626068115
0.28798210620880127 -0.1782945990562439 -0.24031005799770355
0.2888542413711548 -0.1627907156944275 -0.27131783962249756
0.2905358076095581 -0.1627907156944275 -0.25581395626068115
0.2874634861946106 -0.1627907156944275 -0.24031007289886475
0.2948554754257202 -0.14728683233261108 -0.41085273027420044
0.2893765866756439 -0.14728683233261108 -0.28682172298431396
0.2928239107131958 -0.14728683233261108 -0.27131783962249756
0.291032999753952 -0.14728683233261108 -0.25581395626068115
0.28823626041412354 -0.13178294897079468 -0.41085273027420044
0.28750672936439514 -0.13178293406963348 -0.39534884691238403
0.28853732347488403 -0.13178294897079468 -0.30232560634613037
0.29424750804901123 -0.13178294897079468 -0.28682172298431396
0.29401928186416626 -0.13178294897079468 -0.27131783962249756
0.2906770408153534 -0.13178294897079468 -0.25581395626068115
0.29119473695755005 -0.11627906560897827 -0.30232560634613037
0.2939195930957794 -0.11627906560897827 -0.28682172298431396
0.2930709421634674 -0.11627906560897827 -0.27131783962249756
0.2886628210544586 -0.11627906560897827 -0.25581395626068115
0.2884727716445923 -0.10077518224716187 -0.30232560634613037
0.290934294462204 -0.10077518224716187 -0.28682172298431396
0.28952914476394653 -0.10077518224716187 -0.27131783962249756
0.3058418929576874 -0.643410861492157 -0.25581395626068115
0.31724658608436584 -0.3333333134651184 -0.41085273027420044
0.3144134283065796 -0.317829430103302 -0.41085273027420044
0.31221896409988403 -0.30232560634613037 -0.41085273027420044
0.30282995104789734 -0.2868216931819916 -0.41085270047187805
0.30826786160469055 -0.27131783962249756 -0.41085273027420044
0.3023790419101715 -0.1782945990562439 -0.41085273027420044
0.3026452362537384 -0.1627907156944275 -0.41085273027420044
0.3197934627532959 -0.333333283662796 -0.41085273027420044
0.3238658607006073 -0.317829430103302 -0.41085273027420044
0.3227859139442444 -0.30232560634613037 -0.41085273027420044
0.3228923976421356 -0.28682172298431396 -0.41085273027420044
0.32056286931037903 -0.27131783962249756 -0.41085270047187805
0.348445862531662 -0.41085273027420044 -0.41085273027420044
0.348294734954834 -0.39534884691238403 -0.41085273027420044
0.35176974534988403 -0.4108527600765228 -0.4108527600765228
0.35212424397468567 -0.39534884691238403 -0.41085273027420044
0.37782031297683716 -0.5813953876495361 -0.41085273027420044
0.3831602931022644 -0.5813953876495361 -0.41085273027420044
-0.3488371968269348 -0.4132513999938965 -0.41085273027420044
-0.3488371968269348 -0.39436453580856323 -0.41085273027420044
-0.317829430103302 -0.3266797661781311 -0.41085273027420044
-0.317829430103302 -0.26358258724212646 -0.41085273027420044
-0.30232560634613037 -0.6493973731994629 -0.25581395626068115
-0.30232560634613037 -0.6421597003936768 -0.25581395626068115
-0.30232560634613037 -0.29426801204681396 -0.41085273027420044
-0.30232560634613037 -0.2688554525375366 -0.41085273027420044
-0.30232560634613037 -0.16871139407157898 -0.41085273027420044
-0.30232560634613037 -0.16065748035907745 -0.41085273027420044
-0.28682172298431396 -0.256759375333786 -0.27131783962249756
-0.28682172298431396 -0.25750425457954407 -0.25581395626068115
-0.28682172298431396 -0.24937748908996582 -0.24031007289886475
-0.28682172298431396 -0.23786303400993347 -0.27131783962249756
-0.28682172298431396 -0.20337334275245667 -0.41085273027420044
-0.28682172298431396 -0.1705256700515747 -0.27131783962249756
-0.28682172298431396 -0.15173903107643127 -0.39534884691238403
-0.28682172298431396 -0.15141673386096954 -0.28682172298431396
-0.28682172298431396 -0.15296517312526703 -0.24031007289886475
-0.28682172298431396 -0.13323870301246643 -0.41085273027420044
-0.28682172298431396 -0.13459894061088562 -0.30232560634613037
-0.28682172298431396 -0.12464858591556549 -0.39534884691238403
-0.28682172298431396 -0.11210009455680847 -0.25581395626068115
-0.28682172298431396 -0.09851007163524628 -0.30232560634613037
-0.28682172298431396 -0.09377937018871307 -0.28682172298431396
-0.28682172298431396 -0.09731559455394745 -0.27131783962249756
-0.27131783962249756 -0.6137140393257141 -0.24031007289886475
-0.27131783962249756 -0.5970520377159119 -0.22480618953704834
-0.27131783962249756 -0.5923474431037903 -0.24031007289886475
-0.27131783962249756 -0.5961359143257141 -0.22480618953704834
-0.27131783962249756 -0.2571408152580261 -0.27131783962249756
-0.27131783962249756 -0.2610025107860565 -0.25581395626068115
-0.27131783962249756 -0.258877694606781 -0.24031007289886475
-0.27131783962249756 -0.2567001283168793 -0.22480618953704834
-0.27131783962249756 -0.24172750115394592 -0.27131783962249756
-0.27131783962249756 -0.22915300726890564 -0.20930230617523193
-0.27131783962249756 -0.1961776316165924 -0.41085273027420044
-0.27131780982017517 -0.17711035907268524 -0.27131780982017517
-0.27131783962249756 -0.16879650950431824 -0.20930230617523193
-0.27131783962249756 -0.1563674807548523 -0.28682172298431396
-0.27131783962249756 -0.14152570068836212 -0.39534884691238403
-0.27131783962249756 -0.13835862278938293 -0.30232560634613037
-0.27131783962249756 -0.12142809480428696 -0.317829430103302
-0.27131783962249756 -0.1236678808927536 -0.22480618953704834
-0.27131783962249756 -0.11342422664165497 -0.41085273027420044
-0.27131783962249756 -0.10048678517341614 -0.39534884691238403
-0.27131783962249756 -0.09361687302589417 -0.24031007289886475
-0.27131783962249756 -0.083621084690094 -0.317829430103302
-0.27131783962249756 -0.0717519223690033 -0.30232560634613037
-0.27131783962249756 -0.07744647562503815 -0.25581395626068115
-0.27131783962249756 -0.06768093258142471 -0.28682172298431396
-0.27131783962249756 -0.06884075701236725 -0.27131783962249756
-0.25581395626068115 -0.6148881316184998 -0.24031007289886475
-0.25581395626068115 -0.6040880680084229 -0.25581395626068115
-0.25581395626068115 -0.6085716485977173 -0.22480618953704834
-0.25581395626068115 -0.584902822971344 -0.25581395626068115
-0.25581395626068115 -0.5826667547225952 -0.20930230617523193
-0.25581395626068115 -0.5653915405273438 -0.24031007289886475
-0.25581395626068115 -0.559374988079071 -0.22480618953704834
-0.25581395626068115 -0.5580931305885315 -0.20930230617523193
-0.25581395626068115 -0.25885623693466187 -0.25581395626068115
-0.25581395626068115 -0.2589035630226135 -0.24031007289886475
-0.25581395626068115 -0.25748053193092346 -0.22480618953704834
-0.25581395626068115 -0.25673872232437134 -0.20930230617523193
-0.25581395626068115 -0.25225305557250977 -0.19379842281341553
-0.25581395626068115 -0.2258938103914261 -0.25581395626068115
-0.25581395626068115 -0.21255812048912048 -0.25581395626068115
-0.25581395626068115 -0.16867977380752563 -0.41085273027420044
-0.25581395626068115 -0.17282415926456451 -0.27131783962249756
-0.25581395626068115 -0.15623250603675842 -0.28682172298431396
-0.25581395626068115 -0.15601730346679688 -0.19379842281341553
