0.02325582504272461 -0.9069767594337463 0.12391206622123718
0.02325582504272461 -0.9069767594337463 0.2565903067588806
0.02325582504272461 -0.8914728760719299 0.11254488676786423
0.02325582504272461 -0.8914728760719299 0.2581526041030884
0.02325582504272461 -0.8759690523147583 0.11071689426898956
0.02325582318007946 -0.8759689331054688 0.2591575086116791
0.02325582504272461 -0.8604651093482971 0.11220038682222366
0.02325582504272461 -0.8604651093482971 0.25850918889045715
0.02325582504272461 -0.8449612259864807 0.11345788836479187
0.02325582504272461 -0.8449612259864807 0.2560347318649292
0.02325582504272461 -0.8294573426246643 0.11335191130638123
0.02325582504272461 -0.8294574022293091 0.2502216398715973
0.02325582504272461 -0.8139535188674927 0.112675741314888
0.02325582504272461 -0.8139535188674927 0.24476468563079834
0.02325582504272461 -0.7984496355056763 0.11262991279363632
0.02325582504272461 -0.7984496355056763 0.23836158215999603
0.02325582504272461 -0.7829457521438599 0.11317228525876999
0.02325582504272461 -0.7829457521438599 0.2297038435935974
0.02325582504272461 -0.7674418687820435 0.11326747387647629
0.02325582504272461 -0.7674418687820435 0.21622049808502197
0.02325582504272461 -0.751937985420227 0.11444028466939926
0.02325582504272461 -0.751937985420227 0.19737136363983154
0.02325582504272461 -0.7364341020584106 0.11590038239955902
0.02325582504272461 -0.7364341020584106 0.17586451768875122
0.02325582504272461 -0.7209302186965942 -0.0030441731214523315
0.02325582504272461 -0.7209302186965942 0.05018538609147072
0.02325582504272461 -0.7209302186965942 0.11502581834793091
0.02325582504272461 -0.7209302186965942 0.15364065766334534
0.02325582504272461 -0.7054263353347778 -0.24371406435966492
0.02325582504272461 -0.7054263353347778 -0.20408743619918823
0.02325582504272461 -0.7054263353347778 -0.05481306463479996
0.02325582504272461 -0.7054263353347778 0.06383557617664337
0.02325582504272461 -0.7054263353347778 0.10941914469003677
0.02325582504272461 -0.7054263353347778 0.1489279717206955
0.02325582504272461 -0.6899224519729614 -0.24096763134002686
0.02325582504272461 -0.6899224519729614 0.1475353240966797
0.02325582504272461 -0.674418568611145 -0.23264722526073456
0.02325582504272461 -0.674418568611145 0.14012357592582703
0.02325582504272461 -0.6589146852493286 -0.2291504442691803
0.02325582504272461 -0.6589146852493286 0.13737988471984863
0.02325582504272461 -0.643410861492157 -0.2280784249305725
0.02325582504272461 -0.6434109210968018 0.13713213801383972
0.02325582504272461 -0.6279069781303406 -0.2290618121623993
0.02325582504272461 -0.6279069781303406 0.13436457514762878
0.02325582504272461 -0.6124030947685242 -0.2302509844303131
0.02325582504272461 -0.6124030947685242 0.12375212460756302
0.02325582504272461 -0.5968992114067078 -0.23012305796146393
0.02325582504272461 -0.5968992114067078 0.10954301059246063
0.02325582504272461 -0.5813953876495361 -0.22677995264530182
0.02325582504272461 -0.5813953876495361 0.09708182513713837
0.02325582690536976 -0.5658915042877197 -0.2199590504169464
0.02325582504272461 -0.5658915042877197 0.08626189827919006
0.02325582504272461 -0.5503876209259033 -0.20403537154197693
0.02325582504272461 -0.5503876209259033 0.07810120284557343
0.02325582504272461 -0.5348837375640869 -0.17808355391025543
0.02325582504272461 -0.5348837375640869 0.07592043280601501
0.02325582504272461 -0.5193798542022705 -0.16225942969322205
0.02325582504272461 -0.5193798542022705 0.08514171838760376
0.02325582504272461 -0.5038759708404541 -0.15698358416557312
0.02325582504272461 -0.5038759708404541 0.09469553828239441
0.02325582504272461 -0.4883720874786377 -0.15776202082633972
0.02325582504272461 -0.4883720874786377 0.10488619655370712
0.02325582504272461 -0.4728682041168213 -0.16064304113388062
0.02325582504272461 -0.4728682041168213 0.11466933786869049
0.02325582504272461 -0.4573643207550049 -0.16295641660690308
0.02325582504272461 -0.4573643207550049 0.11931797862052917
0.02325582504272461 -0.4418604373931885 -0.1646195650100708
0.02325582504272461 -0.4418604373931885 0.12581832706928253
0.02325582504272461 -0.42635661363601685 -0.16700078547000885
0.02325582504272461 -0.42635658383369446 0.13189946115016937
0.02325582504272461 -0.41085273027420044 -0.17032088339328766
0.02325582504272461 -0.41085273027420044 0.13237664103507996
0.02325582504272461 -0.39534884691238403 -0.17238390445709229
0.02325582690536976 -0.39534884691238403 0.13218946754932404
0.02325582504272461 -0.3798449635505676 -0.17448118329048157
0.02325582690536976 -0.3798449635505676 0.13213443756103516
0.02325582318007946 -0.3643410801887512 -0.17602111399173737
0.02325582690536976 -0.3643411099910736 0.13225781917572021
0.02325582504272461 -0.3488371968269348 -0.17732778191566467
0.02325582504272461 -0.3488371968269348 0.1324239820241928
0.02325582504272461 -0.3333333134651184 -0.17893260717391968
0.02325582504272461 -0.3333333134651184 0.13268908858299255
0.02325582504272461 -0.317829430103302 -0.18016554415225983
0.02325582504272461 -0.317829430103302 0.13315725326538086
0.02325582504272461 -0.30232560634613037 -0.18132683634757996
0.02325582504272461 -0.30232560634613037 0.13392361998558044
0.02325582504272461 -0.28682172298431396 -0.18285508453845978
0.02325582504272461 -0.28682172298431396 0.13479256629943848
0.02325582504272461 -0.27131783962249756 -0.18408700823783875
0.02325582504272461 -0.27131783962249756 0.13480886816978455
0.02325582504272461 -0.25581395626068115 -0.18466511368751526
0.02325582504272461 -0.25581395626068115 0.13301268219947815
0.02325582504272461 -0.24031007289886475 -0.18512777984142303
0.02325582504272461 -0.24031007289886475 0.12470711767673492
0.02325582504272461 -0.22480618953704834 -0.18518468737602234
0.02325582504272461 -0.22480618953704834 0.1163257360458374
0.02325582504272461 -0.20930230617523193 -0.18500038981437683
0.02325582504272461 -0.20930230617523193 0.1047002449631691
0.02325582504272461 -0.19379842281341553 -0.1848984658718109
0.02325582504272461 -0.19379842281341553 0.0938446968793869
0.02325582504272461 -0.1782945990562439 -0.18535549938678741
0.02325582504272461 -0.1782945990562439 0.08378961682319641
0.02325582504272461 -0.1627907156944275 -0.18611635267734528
0.02325582504272461 -0.1627907156944275 0.0744408667087555
0.02325582504272461 -0.14728683233261108 -0.1870419681072235
0.02325582504272461 -0.14728683233261108 0.065857894718647
0.02325582504272461 -0.13178294897079468 -0.18789887428283691
0.02325582504272461 -0.13178294897079468 0.05991978198289871
0.02325582504272461 -0.11627906560897827 -0.18918059766292572
0.02325582318007946 -0.11627905815839767 0.05473070964217186
0.02325582504272461 -0.10077518224716187 -0.19066819548606873
0.02325582504272461 -0.10077518224716187 0.04695000499486923
0.02325582504272461 -0.08527129888534546 -0.1921393871307373
0.02325582504272461 -0.08527129888534546 0.04079314321279526
0.02325582504272461 -0.06976741552352905 -0.1921732872724533
0.02325582504272461 -0.06976741552352905 0.03154296800494194
0.02325582504272461 -0.05426359176635742 -0.1901140660047531
0.02325582504272461 -0.05426359176635742 0.021608030423521996
0.02325582504272461 -0.038759708404541016 -0.18712712824344635
0.02325582504272461 -0.038759708404541016 0.009787818416953087
0.02325582504272461 -0.02325582504272461 -0.18399721384048462
0.02325582504272461 -0.02325582504272461 -0.0022726207971572876
0.02325582504272461 -0.007751941680908203 -0.18054518103599548
0.02325582504272461 -0.007751941680908203 -0.012379862368106842
0.02325582690536976 0.00775194214656949 -0.17512278258800507
0.02325582504272461 0.007751941680908203 -0.01988273300230503
0.02325582504272461 0.02325582504272461 -0.16962124407291412
0.02325582504272461 0.02325582504272461 -0.025940928608179092
0.02325582504272461 0.038759708404541016 -0.16587428748607635
0.02325582504272461 0.038759708404541016 -0.032397836446762085
0.02325582504272461 0.05426359176635742 -0.16432565450668335
0.02325582504272461 0.05426359176635742 -0.036877039819955826
0.02325582504272461 0.06976747512817383 -0.16372467577457428
0.02325582504272461 0.06976747512817383 -0.043560393154621124
0.02325582504272461 0.08527135848999023 -0.16387367248535156
0.02325582504272461 0.08527135848999023 -0.048738084733486176
0.02325582504272461 0.10077524185180664 -0.16501407325267792
0.02325582504272461 0.10077524185180664 -0.0514349639415741
0.02325582504272461 0.11627912521362305 -0.16619376838207245
0.02325582504272461 0.11627912521362305 -0.05292116105556488
0.02325582504272461 0.1317828893661499 -0.1659691035747528
0.02325582690536976 0.1317829042673111 -0.05384506657719612
0.02325582504272461 0.1472867727279663 -0.16394203901290894
0.02325582504272461 0.1472867727279663 -0.05522866174578667
0.02325582504272461 0.16279065608978271 -0.1579914689064026
0.02325582504272461 0.16279065608978271 -0.057760510593652725
0.02325582504272461 0.17829453945159912 -0.1506866216659546
0.02325582504272461 0.17829453945159912 -0.058716364204883575
0.02325582504272461 0.19379842281341553 -0.1393301784992218
0.02325582504272461 0.19379842281341553 -0.05925476551055908
0.02325582504272461 0.20930230617523193 -0.13188575208187103
0.02325582504272461 0.20930230617523193 -0.05991889908909798
0.02325582504272461 0.22480618953704834 -0.1229206770658493
0.02325582504272461 0.22480618953704834 -0.0607994869351387
0.02325582504272461 0.24031007289886475 -0.11842026561498642
0.02325582504272461 0.24031007289886475 -0.0620933473110199
0.02325582504272461 0.25581395626068115 -0.11566727608442307
0.02325582504272461 0.25581395626068115 -0.06374547630548477
0.02325582504272461 0.27131783962249756 -0.10934890806674957
0.02325582318007946 0.27131783962249756 -0.06560570001602173
0.02325582504272461 0.28682172298431396 -0.10514108836650848
0.02325582504272461 0.28682172298431396 -0.06711845844984055
0.02325582504272461 0.30232560634613037 -0.10204410552978516
0.02325582504272461 0.30232560634613037 -0.06835094094276428
0.02325582504272461 0.3178294897079468 -0.09632879495620728
0.02325582504272461 0.3178294897079468 -0.07000667601823807
0.02325582504272461 0.3333333730697632 -0.08857811987400055
0.02325582504272461 0.3333333730697632 -0.07868204265832901
0.038759708404541016 -0.8914728760719299 0.1260453760623932
0.038759708404541016 -0.8914728164672852 0.1504884660243988
0.038759708404541016 -0.8759689331054688 0.12025833874940872
0.038759708404541016 -0.8759689927101135 0.15354135632514954
0.038759708404541016 -0.8604651093482971 0.1211523562669754
0.038759708404541016 -0.8604651093482971 0.15779860317707062
0.038759708404541016 -0.8449612259864807 0.12309469282627106
0.038759708404541016 -0.8449612259864807 0.17755745351314545
0.038759708404541016 -0.8294573426246643 0.12289057672023773
0.038759708404541016 -0.8294573426246643 0.1957041472196579
0.038759708404541016 -0.8139535188674927 0.12267772853374481
0.038759708404541016 -0.8139535188674927 0.19833852350711823
0.038759708404541016 -0.7984496355056763 0.12575475871562958
0.038759708404541016 -0.7984496355056763 0.19507552683353424
0.038759708404541016 -0.7829457521438599 0.13087305426597595
0.038759708404541016 -0.7829457521438599 0.181441992521286
0.038759708404541016 -0.7674418687820435 0.13090264797210693
0.038759708404541016 -0.7674418687820435 0.17247839272022247
0.038759708404541016 -0.751937985420227 0.12843601405620575
0.038759708404541016 -0.751937985420227 0.17221762239933014
0.038759708404541016 -0.7364341020584106 0.13043063879013062
0.038759708404541016 -0.7364341020584106 0.16463148593902588
0.038759708404541016 -0.7054263353347778 -0.007874337956309319
0.038759708404541016 -0.7054263353347778 0.008534437045454979
0.038759708404541016 -0.6899224519729614 -0.23587125539779663
0.038759708404541016 -0.6899224519729614 -0.15314121544361115
0.038759708404541016 -0.6899224519729614 -0.07915101945400238
0.038759708404541016 -0.6899224519729614 0.03705279156565666
0.038759708404541016 -0.674418568611145 -0.23231732845306396
0.038759708404541016 -0.674418568611145 0.052996426820755005
0.038759708404541016 -0.6589146852493286 -0.23062901198863983
0.038759708404541016 -0.6589146852493286 0.07704300433397293
0.038759708404541016 -0.643410861492157 -0.23068015277385712
0.038759708404541016 -0.643410861492157 0.10042187571525574
0.038759708404541016 -0.6279069781303406 -0.23185992240905762
0.038759708404541016 -0.6279069781303406 0.10329495370388031
0.038759708404541016 -0.6124030947685242 -0.23286715149879456
0.038759708404541016 -0.6124030351638794 0.10003990679979324
0.038759708404541016 -0.5968992114067078 -0.23154596984386444
0.038759708404541016 -0.5968992114067078 0.09060466289520264
0.038759708404541016 -0.5813953876495361 -0.22642701864242554
0.038759708404541016 -0.5813953876495361 0.08319932967424393
0.038759708404541016 -0.5658915042877197 -0.21368740499019623
0.038759708404541016 -0.5658915042877197 0.07381793856620789
0.038759708404541016 -0.5503876209259033 -0.1880238950252533
0.038759708404541016 -0.5503876209259033 0.07058503478765488
0.038759708404541016 -0.5348837375640869 -0.15893752872943878
0.038759708404541016 -0.5348837375640869 0.07031252980232239
0.038759708404541016 -0.5193798542022705 -0.1501818299293518
0.038759708404541016 -0.5193798542022705 0.07528259605169296
0.038759708404541016 -0.5038759708404541 -0.14841389656066895
0.03875970467925072 -0.5038759708404541 0.08712911605834961
0.038759708404541016 -0.4883720874786377 -0.14979977905750275
0.038759708404541016 -0.4883720576763153 0.10086021572351456
0.038759708404541016 -0.4728682041168213 -0.15313267707824707
0.038759708404541016 -0.4728682041168213 0.10635177046060562
0.038759708404541016 -0.4573643207550049 -0.1560646891593933
0.038759708404541016 -0.4573643207550049 0.11461191624403
0.038759708404541016 -0.4418604373931885 -0.15869182348251343
0.038759708404541016 -0.4418604373931885 0.11773715913295746
0.038759708404541016 -0.42635661363601685 -0.1617613583803177
0.038759708404541016 -0.42635661363601685 0.11966179311275482
0.038759708404541016 -0.41085273027420044 -0.16554999351501465
0.038759708404541016 -0.41085273027420044 0.12080782651901245
0.038759708404541016 -0.39534884691238403 -0.16907525062561035
0.038759708404541016 -0.39534884691238403 0.12190966308116913
0.038759708404541016 -0.3798449635505676 -0.1718757450580597
0.038759708404541016 -0.3798449635505676 0.12316694855690002
0.038759708404541016 -0.36434105038642883 -0.1737843006849289
0.038759708404541016 -0.3643410801887512 0.12412775307893753
0.038759708404541016 -0.3488371968269348 -0.17528311908245087
0.038759708404541016 -0.3488371968269348 0.1246396154165268
0.038759708404541016 -0.3333333134651184 -0.17740079760551453
0.038759708404541016 -0.3333333134651184 0.12493108958005905
0.038759708404541016 -0.317829430103302 -0.17914077639579773
0.038759708404541016 -0.317829430103302 0.1250418871641159
0.038759708404541016 -0.30232560634613037 -0.18029853701591492
0.038759708404541016 -0.30232560634613037 0.12467730790376663
0.038759708404541016 -0.28682172298431396 -0.1818067878484726
0.038759708404541016 -0.28682172298431396 0.12352956086397171
0.038759708404541016 -0.27131783962249756 -0.18305344879627228
0.038759708404541016 -0.27131783962249756 0.1215968206524849
0.038759708404541016 -0.25581395626068115 -0.18358072638511658
0.038759708404541016 -0.25581395626068115 0.11875003576278687
0.038759708404541016 -0.24031007289886475 -0.18390443921089172
0.038759708404541016 -0.24031007289886475 0.11338306218385696
0.038759708404541016 -0.22480618953704834 -0.18367573618888855
0.038759708404541016 -0.22480618953704834 0.10554768890142441
0.038759708404541016 -0.20930230617523193 -0.18307910859584808
0.038759708404541016 -0.20930230617523193 0.09595932066440582
0.038759708404541016 -0.19379842281341553 -0.18255524337291718
0.038759708404541016 -0.19379842281341553 0.08645357191562653
0.038759708404541016 -0.1782945990562439 -0.18251487612724304
0.038759708404541016 -0.1782945990562439 0.07549167424440384
0.038759708404541016 -0.1627907156944275 -0.18270951509475708
0.038759708404541016 -0.1627907156944275 0.06519471108913422
0.038759708404541016 -0.14728683233261108 -0.18308283388614655
0.038759708404541016 -0.14728683233261108 0.058532264083623886
0.038759708404541016 -0.13178294897079468 -0.183351531624794
0.038759708404541016 -0.13178294897079468 0.050645969808101654
0.038759708404541016 -0.11627906560897827 -0.1840834617614746
0.038759708404541016 -0.11627906560897827 0.044084250926971436
0.038759708404541016 -0.10077518224716187 -0.1851598620414734
0.038759708404541016 -0.10077518224716187 0.03665287047624588
0.038759708404541016 -0.08527129888534546 -0.18637144565582275
0.038759708404541016 -0.08527129888534546 0.02861783280968666
0.038759708404541016 -0.06976741552352905 -0.18646275997161865
0.038759708404541016 -0.06976741552352905 0.019050588831305504
0.038759708404541016 -0.05426359176635742 -0.1851496696472168
0.038759708404541016 -0.05426359176635742 0.00835692323744297
0.038759708404541016 -0.038759708404541016 -0.18289858102798462
0.038759708404541016 -0.038759708404541016 -0.004595557227730751
0.038759708404541016 -0.02325582504272461 -0.18000391125679016
0.038759708404541016 -0.02325582504272461 -0.015547950752079487
0.038759708404541016 -0.007751941680908203 -0.17451108992099762
0.038759708404541016 -0.007751941680908203 -0.024329721927642822
0.038759708404541016 0.007751941680908203 -0.16726170480251312
0.038759708404541016 0.007751941680908203 -0.03259776160120964
0.038759708404541016 0.02325582504272461 -0.16366571187973022
0.038759708404541016 0.02325582318007946 -0.037600625306367874
0.038759708404541016 0.038759708404541016 -0.15675178170204163
0.038759708404541016 0.038759708404541016 -0.044655248522758484
0.038759708404541016 0.05426359176635742 -0.15342473983764648
0.038759708404541016 0.05426358804106712 -0.049993522465229034
0.038759708404541016 0.06976747512817383 -0.15302659571170807
0.038759708404541016 0.06976747512817383 -0.053350936621427536
0.038759708404541016 0.08527135848999023 -0.15432190895080566
0.038759708404541016 0.08527135848999023 -0.058374226093292236
0.038759708404541016 0.10077524185180664 -0.15765193104743958
0.038759708404541016 0.10077524185180664 -0.06192338466644287
0.038759708404541016 0.11627912521362305 -0.16028422117233276
0.038759708404541016 0.11627912521362305 -0.06362218409776688
0.038759708404541016 0.1317828893661499 -0.1594470888376236
0.038759708404541016 0.1317828893661499 -0.06496791541576385
0.038759708404541016 0.1472867727279663 -0.15608839690685272
0.038759708404541016 0.1472867727279663 -0.06650297343730927
0.038759708404541016 0.16279065608978271 -0.15086475014686584
0.038759708404541016 0.16279065608978271 -0.06858960539102554
0.038759708404541016 0.17829453945159912 -0.1389434039592743
0.038759708404541016 0.17829453945159912 -0.07323853671550751
0.038759708404541016 0.19379842281341553 -0.12252326309680939
0.038759708404541016 0.19379842281341553 -0.07851116359233856
0.038759708404541016 0.20930230617523193 -0.10348160564899445
0.038759708404541016 0.20930230617523193 -0.08395745605230331
0.05426359176635742 -0.6899224519729614 -0.23712310194969177
0.05426359176635742 -0.6899224519729614 -0.1733691543340683
0.05426359176635742 -0.674418568611145 -0.2363545000553131
0.05426359176635742 -0.674418568611145 0.01836923509836197
0.05426358804106712 -0.6589146852493286 -0.23512381315231323
0.05426359176635742 -0.6589146852493286 0.03439101576805115
0.05426359176635742 -0.643410861492157 -0.23483487963676453
0.05426359176635742 -0.643410861492157 0.04940393567085266
0.05426359549164772 -0.6279070377349854 -0.23567137122154236
0.05426359176635742 -0.6279069781303406 0.0641038790345192
0.05426359176635742 -0.6124030947685242 -0.23573115468025208
0.05426359549164772 -0.6124030947685242 0.0728500708937645
0.05426359176635742 -0.5968992114067078 -0.23103424906730652
0.05426359176635742 -0.5968992710113525 0.07358044385910034
0.05426359176635742 -0.5813953876495361 -0.22504153847694397
0.05426359176635742 -0.5813953876495361 0.07109665125608444
0.05426359176635742 -0.5658915042877197 -0.1998021900653839
0.05426359176635742 -0.5658915042877197 0.068062923848629
0.05426359176635742 -0.5503876209259033 -0.16175834834575653
0.05426359176635742 -0.5503876209259033 0.0644233375787735
0.05426359176635742 -0.5348836779594421 -0.14706066250801086
0.05426359176635742 -0.5348837375640869 0.06475464254617691
0.05426359176635742 -0.5193798542022705 -0.14236943423748016
0.05426359176635742 -0.5193798542022705 0.0701763927936554
0.05426358804106712 -0.5038759708404541 -0.14097872376441956
0.05426359176635742 -0.5038759708404541 0.07959283888339996
0.05426359176635742 -0.4883720874786377 -0.14371049404144287
0.05426359176635742 -0.4883720874786377 0.09045246243476868
0.05426359176635742 -0.4728682041168213 -0.14783839881420135
0.05426358804106712 -0.4728681743144989 0.10165198892354965
0.05426359176635742 -0.4573643207550049 -0.15063054859638214
0.05426359176635742 -0.4573643207550049 0.10578875988721848
0.05426359176635742 -0.4418604373931885 -0.15319529175758362
0.05426359176635742 -0.4418604373931885 0.10976089537143707
0.05426359176635742 -0.42635661363601685 -0.15568315982818604
0.05426359176635742 -0.42635661363601685 0.11321388185024261
0.05426359176635742 -0.41085270047187805 -0.1601070761680603
0.05426359176635742 -0.41085273027420044 0.11565971374511719
0.05426359176635742 -0.39534884691238403 -0.16405907273292542
0.05426359176635742 -0.39534884691238403 0.11677046120166779
0.05426359176635742 -0.3798449635505676 -0.16798388957977295
0.05426359176635742 -0.3798449635505676 0.11757969856262207
0.05426359176635742 -0.3643410801887512 -0.17115119099617004
0.05426359176635742 -0.3643410801887512 0.11839187145233154
0.05426359176635742 -0.3488371968269348 -0.17307917773723602
0.05426359176635742 -0.3488371968269348 0.11899212002754211
0.05426358804106712 -0.333333283662796 -0.17528612911701202
0.05426359176635742 -0.3333333134651184 0.11941161006689072
0.05426359176635742 -0.317829430103302 -0.17804938554763794
0.05426358804106712 -0.317829430103302 0.11958944797515869
0.05426359176635742 -0.30232560634613037 -0.17923638224601746
0.05426359176635742 -0.30232560634613037 0.11939866840839386
0.05426359176635742 -0.28682172298431396 -0.1806608885526657
0.05426359176635742 -0.28682172298431396 0.1185055673122406
0.05426359176635742 -0.27131783962249756 -0.18201839923858643
0.05426359549164772 -0.27131783962249756 0.11674079298973083
0.05426359176635742 -0.25581395626068115 -0.18269911408424377
0.05426359176635742 -0.25581395626068115 0.1115531399846077
0.05426359176635742 -0.24031007289886475 -0.1830102950334549
0.05426359176635742 -0.24031007289886475 0.10633179545402527
0.05426359176635742 -0.22480618953704834 -0.18266896903514862
0.05426359176635742 -0.22480618953704834 0.09935475885868073
0.05426359176635742 -0.20930230617523193 -0.18186309933662415
0.05426359176635742 -0.20930230617523193 0.08957931399345398
0.05426359176635742 -0.19379842281341553 -0.18117326498031616
0.05426359176635742 -0.19379842281341553 0.07796694338321686
0.05426359176635742 -0.1782945990562439 -0.18075233697891235
0.05426359176635742 -0.1782945990562439 0.06760427355766296
0.05426359176635742 -0.1627907156944275 -0.18049922585487366
0.05426359176635742 -0.1627907156944275 0.05826874077320099
0.05426359176635742 -0.14728683233261108 -0.18056665360927582
0.05426359176635742 -0.14728683233261108 0.04822204262018204
0.05426359176635742 -0.13178294897079468 -0.18049803376197815
0.05426359549164772 -0.13178294897079468 0.04143032059073448
0.05426359176635742 -0.11627906560897827 -0.18042795360088348
0.05426359176635742 -0.11627906560897827 0.031990356743335724
0.05426359176635742 -0.10077518224716187 -0.18063415586948395
0.05426359176635742 -0.10077518224716187 0.024329744279384613
0.05426359176635742 -0.08527129888534546 -0.18133953213691711
0.05426359176635742 -0.08527129888534546 0.014238989911973476
0.05426359176635742 -0.06976741552352905 -0.18143531680107117
0.05426359176635742 -0.06976741552352905 0.003366996766999364
0.05426359176635742 -0.05426359176635742 -0.18036776781082153
0.05426359176635742 -0.05426359176635742 -0.00914803147315979
0.05426359176635742 -0.038759708404541016 -0.17872607707977295
0.05426359176635742 -0.038759708404541016 -0.023459069430828094
0.05426359176635742 -0.02325582504272461 -0.17237424850463867
0.05426358804106712 -0.02325582504272461 -0.03588515520095825
0.05426359176635742 -0.007751941680908203 -0.16583339869976044
0.05426359176635742 -0.007751941680908203 -0.04660657420754433
0.05426359176635742 0.007751941680908203 -0.158234104514122
0.05426359176635742 0.007751941680908203 -0.054714202880859375
0.05426359176635742 0.02325582504272461 -0.14830800890922546
0.05426359176635742 0.02325582504272461 -0.06418898701667786
0.05426359176635742 0.038759708404541016 -0.13663920760154724
0.05426359176635742 0.038759708404541016 -0.07279099524021149
0.05426359176635742 0.05426359176635742 -0.13395839929580688
0.05426359176635742 0.05426359176635742 -0.07995955646038055
0.05426359176635742 0.06976747512817383 -0.1351374089717865
0.05426359176635742 0.06976747512817383 -0.0830865353345871
0.05426359176635742 0.08527135848999023 -0.14004108309745789
0.05426359176635742 0.08527135848999023 -0.08452726900577545
0.05426359176635742 0.10077524185180664 -0.14786724746227264
0.05426359176635742 0.10077523440122604 -0.0851682797074318
0.05426359176635742 0.11627912521362305 -0.14943009614944458
0.05426359176635742 0.11627912521362305 -0.08575905859470367
0.05426359176635742 0.1317828893661499 -0.14851896464824677
0.05426359176635742 0.1317828893661499 -0.0896887332201004
0.05426359176635742 0.1472867727279663 -0.1387360692024231
0.05426359176635742 0.1472867727279663 -0.09733506292104721
0.06976747512817383 -0.6899224519729614 -0.24657273292541504
0.06976747512817383 -0.6899224519729614 -0.19571124017238617
0.06976747512817383 -0.674418568611145 -0.2436218559741974
0.06976747512817383 -0.674418568611145 -0.14996226131916046
0.06976747512817383 -0.6589146852493286 -0.24135112762451172
0.06976747512817383 -0.6589146852493286 -0.0032191146165132523
0.06976747512817383 -0.643410861492157 -0.2403797209262848
0.06976747512817383 -0.6434108018875122 0.014614030718803406
0.06976747512817383 -0.6279069781303406 -0.23971723020076752
0.06976747512817383 -0.6279069185256958 0.027327384799718857
0.06976747512817383 -0.612403154373169 -0.23642510175704956
0.06976747512817383 -0.6124030947685242 0.03796530142426491
0.06976747512817383 -0.596899151802063 -0.2268899828195572
0.06976747512817383 -0.5968992114067078 0.04506922885775566
0.06976747512817383 -0.5813953876495361 -0.2098478525876999
0.06976747512817383 -0.5813953876495361 0.04920361936092377
0.06976747512817383 -0.5658915042877197 -0.16330014169216156
0.06976747512817383 -0.5658915042877197 0.05099496990442276
0.06976747512817383 -0.5503876209259033 -0.14134207367897034
0.06976747512817383 -0.5503876209259033 0.05262274295091629
0.06976747512817383 -0.5348837375640869 -0.13158181309700012
0.06976747512817383 -0.5348837375640869 0.05487120524048805
0.06976747512817383 -0.5193798542022705 -0.1294243335723877
0.06976747512817383 -0.5193798542022705 0.05915265530347824
0.06976747512817383 -0.5038759708404541 -0.12883150577545166
0.06976747512817383 -0.5038759708404541 0.06825332343578339
0.06976747512817383 -0.4883720874786377 -0.13201682269573212
0.06976747512817383 -0.4883720874786377 0.0795958936214447
0.06976747512817383 -0.4728682041168213 -0.13691416382789612
0.06976747512817383 -0.4728682041168213 0.08977659791707993
0.06976747512817383 -0.4573643207550049 -0.141733780503273
0.06976747512817383 -0.4573643207550049 0.09805052727460861
0.06976747512817383 -0.4418604075908661 -0.14617492258548737
0.06976747512817383 -0.4418604373931885 0.10248894989490509
0.06976747512817383 -0.42635661363601685 -0.14909127354621887
0.06976747512817383 -0.42635661363601685 0.10437063872814178
0.06976747512817383 -0.41085273027420044 -0.15326297283172607
0.06976747512817383 -0.41085273027420044 0.10559871792793274
0.06976747512817383 -0.39534884691238403 -0.15726736187934875
0.06976747512817383 -0.39534884691238403 0.10684996843338013
0.06976747512817383 -0.3798449635505676 -0.16299623250961304
0.06976747512817383 -0.3798449635505676 0.10820889472961426
0.06976747512817383 -0.3643410801887512 -0.1665855497121811
0.06976747512817383 -0.3643410801887512 0.11022378504276276
0.06976747512817383 -0.3488371968269348 -0.1701202243566513
0.06976747512817383 -0.3488371968269348 0.11253479868173599
0.06976747512817383 -0.3333333134651184 -0.17269104719161987
0.06976747512817383 -0.3333333134651184 0.1144624873995781
0.06976747512817383 -0.317829430103302 -0.1754077970981598
0.06976747512817383 -0.317829430103302 0.11542055755853653
0.06976747512817383 -0.30232560634613037 -0.17833450436592102
0.06976747512817383 -0.30232560634613037 0.11484885215759277
0.06976747512817383 -0.28682172298431396 -0.17963987588882446
0.06976747512817383 -0.28682172298431396 0.11258840560913086
0.06976747512817383 -0.27131783962249756 -0.18096841871738434
0.06976747512817383 -0.27131783962249756 0.10943770408630371
0.06976747512817383 -0.25581395626068115 -0.1818145364522934
0.06976747512817383 -0.25581395626068115 0.10625617206096649
0.06976747512817383 -0.24031007289886475 -0.18215353786945343
0.06976747512817383 -0.24031007289886475 0.10206642001867294
0.06976747512817383 -0.22480618953704834 -0.18179407715797424
0.06976747512817383 -0.22480618953704834 0.09285087138414383
0.06976747512817383 -0.20930230617523193 -0.18144582211971283
0.06976747512817383 -0.20930230617523193 0.08400854468345642
0.06976747512817383 -0.19379842281341553 -0.18133756518363953
0.06976747512817383 -0.19379842281341553 0.073187917470932
0.06976747512817383 -0.1782945990562439 -0.18091630935668945
0.06976747512817383 -0.1782945990562439 0.060960106551647186
0.06976747512817383 -0.1627907156944275 -0.1804303377866745
0.06976747512817383 -0.1627907156944275 0.04990052431821823
0.06976747512817383 -0.14728683233261108 -0.18038585782051086
0.06976747512817383 -0.14728683233261108 0.04121850058436394
0.06976747512817383 -0.13178294897079468 -0.18033583462238312
0.06976747512817383 -0.13178294897079468 0.030523501336574554
0.06976747512817383 -0.11627906560897827 -0.17991416156291962
0.06976747512817383 -0.11627906560897827 0.021612444892525673
0.06976747512817383 -0.10077518224716187 -0.17928829789161682
0.06976747512817383 -0.10077518969774246 0.010912842117249966
0.06976747512817383 -0.08527129888534546 -0.17880874872207642
0.06976747512817383 -0.08527129888534546 -0.00015899213030934334
0.06976747512817383 -0.06976741552352905 -0.17737789452075958
0.06976747512817383 -0.06976741552352905 -0.013243651017546654
0.06976747512817383 -0.05426359176635742 -0.1727380007505417
0.06976747512817383 -0.05426359176635742 -0.030369985848665237
0.06976747512817383 -0.038759708404541016 -0.16771140694618225
0.06976747512817383 -0.038759708404541016 -0.052188217639923096
0.06976747512817383 -0.02325582504272461 -0.1636270135641098
0.06976747512817383 -0.02325582504272461 -0.07411820441484451
0.06976747512817383 -0.007751941680908203 -0.15043611824512482
0.06976747512817383 -0.007751941680908203 -0.10280701518058777
0.08527135848999023 -0.6899224519729614 -0.25883355736732483
0.08527135848999023 -0.6899224519729614 -0.21141597628593445
0.08527135848999023 -0.674418568611145 -0.25710129737854004
0.08527135848999023 -0.674418568611145 -0.1792849451303482
0.08527135848999023 -0.6589146852493286 -0.2501702308654785
0.08527135848999023 -0.6589146852493286 -0.1407618522644043
0.08527135848999023 -0.643410861492157 -0.24292203783988953
0.08527135848999023 -0.643410861492157 -0.04809737950563431
0.08527135848999023 -0.6279069781303406 -0.2407611608505249
0.08527135848999023 -0.6279069781303406 -0.018034376204013824
0.08527135848999023 -0.6124030947685242 -0.2288668155670166
0.08527135848999023 -0.612403154373169 -0.0022975741885602474
0.08527135103940964 -0.5968992114067078 -0.20585432648658752
0.08527135848999023 -0.5968992114067078 0.008139549754559994
0.08527135848999023 -0.5813953876495361 -0.1480129510164261
0.08527135848999023 -0.5813953876495361 0.013749347999691963
0.08527135848999023 -0.5658915042877197 -0.12294510006904602
0.08527135848999023 -0.5658915042877197 0.018990207463502884
0.08527135848999023 -0.5503876209259033 -0.11044679582118988
0.08527135848999023 -0.5503876805305481 0.023671407252550125
0.08527135848999023 -0.5348837375640869 -0.10377012938261032
0.08527135848999023 -0.5348837375640869 0.028681833297014236
0.08527135848999023 -0.5193798542022705 -0.10151979327201843
0.08527135848999023 -0.5193798542022705 0.038152750581502914
0.08527135848999023 -0.5038759708404541 -0.0985243022441864
0.08527135848999023 -0.5038759708404541 0.04578988626599312
0.08527136594057083 -0.4883720874786377 -0.09959577023983002
0.08527135848999023 -0.4883720874786377 0.05706857517361641
0.08527135848999023 -0.4728682041168213 -0.10723459720611572
0.08527135848999023 -0.4728682041168213 0.06990121304988861
0.08527135848999023 -0.4573643207550049 -0.1179424449801445
0.08527135848999023 -0.4573643207550049 0.07919764518737793
0.08527135848999023 -0.44186046719551086 -0.1261615753173828
0.08527135848999023 -0.4418604075908661 0.08736755698919296
0.08527135848999023 -0.42635661363601685 -0.13311739265918732
0.08527135848999023 -0.42635661363601685 0.09104280173778534
0.08527135848999023 -0.41085273027420044 -0.13941267132759094
0.08527135848999023 -0.41085273027420044 0.0942726656794548
0.08527135848999023 -0.39534884691238403 -0.14472198486328125
0.08527135848999023 -0.39534884691238403 0.0981752797961235
0.08527135848999023 -0.3798449635505676 -0.15087579190731049
0.08527135848999023 -0.3798449635505676 0.10129993408918381
0.08527135848999023 -0.3643410801887512 -0.1577901691198349
0.08527135848999023 -0.3643410801887512 0.10285577923059464
0.08527135848999023 -0.3488371968269348 -0.16378138959407806
0.08527135848999023 -0.3488371968269348 0.10449381917715073
0.08527135848999023 -0.3333333134651184 -0.16774152219295502
0.08527135848999023 -0.3333333134651184 0.10576522350311279
0.08527135848999023 -0.317829430103302 -0.17097803950309753
0.08527135848999023 -0.317829430103302 0.10673893243074417
0.08527135848999023 -0.30232560634613037 -0.17358766496181488
0.08527135848999023 -0.30232560634613037 0.10693593323230743
0.08527135848999023 -0.28682172298431396 -0.17717300355434418
0.08527135848999023 -0.28682172298431396 0.10625565052032471
0.08527135848999023 -0.27131783962249756 -0.17896780371665955
0.08527135848999023 -0.27131783962249756 0.10466708242893219
0.08527135848999023 -0.25581395626068115 -0.17987053096294403
0.08527135103940964 -0.25581395626068115 0.10204838216304779
0.08527135848999023 -0.24031007289886475 -0.18029816448688507
0.08527135848999023 -0.24031007289886475 0.09493646025657654
0.08527135848999023 -0.22480618953704834 -0.17999625205993652
0.08527135848999023 -0.22480620443820953 0.0885155126452446
0.08527135848999023 -0.20930230617523193 -0.17999273538589478
0.08527135848999023 -0.20930230617523193 0.07689976692199707
0.08527135848999023 -0.19379842281341553 -0.18024295568466187
0.08527135848999023 -0.19379842281341553 0.06550316512584686
0.08527135848999023 -0.1782945990562439 -0.17989937961101532
0.08527135848999023 -0.1782945990562439 0.0555541068315506
0.08527135848999023 -0.1627907156944275 -0.17929823696613312
0.08527135848999023 -0.1627907156944275 0.0429796427488327
0.08527135848999023 -0.14728683233261108 -0.17910468578338623
0.08527135848999023 -0.14728683233261108 0.03123251534998417
0.08527135848999023 -0.13178294897079468 -0.17890821397304535
0.08527135848999023 -0.13178294897079468 0.021175645291805267
0.08527135848999023 -0.11627906560897827 -0.17827309668064117
0.08527135848999023 -0.11627907305955887 0.008766991086304188
0.08527135848999023 -0.10077518224716187 -0.17365385591983795
0.08527135848999023 -0.10077518224716187 -0.005225895904004574
0.08527135848999023 -0.08527129888534546 -0.169826939702034
0.08527135848999023 -0.08527129888534546 -0.01930391602218151
0.08527135848999023 -0.06976741552352905 -0.1661355048418045
0.08527135848999023 -0.06976741552352905 -0.04023817181587219
0.08527135848999023 -0.05426359176635742 -0.16306397318840027
0.08527135848999023 -0.05426359176635742 -0.07036712020635605
0.08527135848999023 -0.038759708404541016 -0.15031182765960693
0.08527135848999023 -0.038759708404541016 -0.0992402583360672
0.10077524185180664 -0.6899224519729614 -0.26827895641326904
0.10077523440122604 -0.6899224519729614 -0.22412236034870148
0.10077524185180664 -0.674418568611145 -0.26693958044052124
0.10077524185180664 -0.674418568611145 -0.1983993947505951
0.10077524185180664 -0.6589146852493286 -0.25970786809921265
0.10077524185180664 -0.6589146852493286 -0.18059980869293213
0.10077524185180664 -0.643410861492157 -0.24873515963554382
0.10077524185180664 -0.643410861492157 -0.1654272824525833
0.10077524185180664 -0.6279069781303406 -0.2254454642534256
0.10077524185180664 -0.6279069781303406 -0.16616025567054749
0.10077524185180664 -0.5968992114067078 -0.2716442346572876
0.10077524930238724 -0.5968992114067078 -0.2705073356628418
0.10077523440122604 -0.5968992114067078 -0.09689482301473618
0.10077524185180664 -0.596899151802063 -0.0514536090195179
0.10077524185180664 -0.5813953876495361 -0.08842447400093079
0.10077524185180664 -0.5813953876495361 -0.03384111449122429
0.10077524185180664 -0.5658915042877197 -0.0814458429813385
0.10077524185180664 -0.5658915042877197 -0.022268297150731087
0.10077524185180664 -0.5503876209259033 -0.07654425501823425
0.10077524185180664 -0.5503876209259033 -0.014818305149674416
0.10077524185180664 -0.5348837375640869 -0.0734633058309555
0.10077524185180664 -0.5348837375640869 -0.005386053584516048
0.10077524185180664 -0.5193798542022705 -0.07239332050085068
0.10077524185180664 -0.5193798542022705 0.007316465489566326
0.10077524185180664 -0.5038759708404541 -0.07147315889596939
0.10077524185180664 -0.5038759708404541 0.020117953419685364
0.10077524185180664 -0.4883720874786377 -0.07314981520175934
0.10077524185180664 -0.4883720874786377 0.03129507973790169
0.10077524185180664 -0.4728682041168213 -0.07850471884012222
0.10077524185180664 -0.4728682041168213 0.04247448220849037
0.10077524185180664 -0.4573643207550049 -0.08926507830619812
0.10077524185180664 -0.4573643207550049 0.05399234965443611
0.10077523440122604 -0.4418604373931885 -0.0991910994052887
0.10077524185180664 -0.4418604373931885 0.06330925971269608
0.10077524185180664 -0.42635661363601685 -0.10652041435241699
0.10077524185180664 -0.42635661363601685 0.0718836635351181
0.10077524185180664 -0.41085273027420044 -0.11793549358844757
0.10077524185180664 -0.41085273027420044 0.07705572247505188
0.10077524185180664 -0.39534884691238403 -0.12237236648797989
0.10077524185180664 -0.39534884691238403 0.08314134180545807
0.10077523440122604 -0.3798449635505676 -0.12803077697753906
0.10077524185180664 -0.3798449635505676 0.08681776374578476
0.10077524185180664 -0.3643410801887512 -0.13841407001018524
0.10077524930238724 -0.3643410801887512 0.08916427195072174
0.10077524185180664 -0.3488371968269348 -0.15017449855804443
0.10077524185180664 -0.3488371968269348 0.09171530604362488
0.10077524185180664 -0.3333333134651184 -0.16013158857822418
0.10077524185180664 -0.3333333134651184 0.09524734318256378
0.10077524185180664 -0.317829430103302 -0.16467323899269104
0.10077524185180664 -0.317829430103302 0.09904226660728455
0.10077524185180664 -0.30232560634613037 -0.16742515563964844
0.10077524185180664 -0.302325576543808 0.10084638744592667
0.10077524185180664 -0.28682172298431396 -0.17022311687469482
0.10077524185180664 -0.28682172298431396 0.10041362047195435
0.10077524185180664 -0.27131783962249756 -0.17369821667671204
0.10077524185180664 -0.27131783962249756 0.09706321358680725
0.10077524185180664 -0.25581395626068115 -0.17770597338676453
0.10077524185180664 -0.25581395626068115 0.09270790964365005
0.10077524185180664 -0.24031007289886475 -0.17850729823112488
0.10077524185180664 -0.24031007289886475 0.08870379626750946
0.10077524185180664 -0.22480618953704834 -0.17805896699428558
0.10077524185180664 -0.22480618953704834 0.08032330125570297
0.10077524185180664 -0.20930230617523193 -0.177493155002594
0.10077524185180664 -0.20930230617523193 0.07079365849494934
0.10077524185180664 -0.19379842281341553 -0.17755165696144104
0.10077524185180664 -0.19379842281341553 0.05773469805717468
0.10077524185180664 -0.1782945990562439 -0.1762228161096573
0.10077524185180664 -0.1782945990562439 0.044620998203754425
0.10077524185180664 -0.1627907156944275 -0.17424239218235016
0.10077524185180664 -0.1627907156944275 0.03162096440792084
0.10077523440122604 -0.14728683233261108 -0.17307838797569275
0.10077524185180664 -0.14728683233261108 0.019322816282510757
0.10077524185180664 -0.13178294897079468 -0.17169936001300812
0.10077524185180664 -0.13178294897079468 0.003569404361769557
0.10077524185180664 -0.11627906560897827 -0.16916802525520325
0.10077524185180664 -0.11627906560897827 -0.01653992384672165
0.10077524185180664 -0.10077518224716187 -0.16583092510700226
0.10077524185180664 -0.10077518224716187 -0.040948521345853806
0.10077524185180664 -0.08527129888534546 -0.16289982199668884
0.10077524185180664 -0.08527129888534546 -0.06704694032669067
0.10077524185180664 -0.06976741552352905 -0.1498519629240036
0.10077524185180664 -0.06976741552352905 -0.0964420735836029
0.11627912521362305 -0.6899224519729614 -0.28685879707336426
0.11627913266420364 -0.6899224519729614 -0.23647262156009674
0.11627912521362305 -0.674418568611145 -0.28280967473983765
0.11627913266420364 -0.674418568611145 -0.209159716963768
0.11627912521362305 -0.6589146852493286 -0.27659130096435547
0.11627912521362305 -0.6589146852493286 -0.20860062539577484
0.11627912521362305 -0.643410861492157 -0.27496597170829773
0.11627912521362305 -0.643410861492157 -0.24613888561725616
0.11627911776304245 -0.6279069185256958 -0.28512299060821533
0.11627912521362305 -0.6279069185256958 -0.25440075993537903
0.11627912521362305 -0.6124030947685242 -0.28762441873550415
0.11627912521362305 -0.6124030947685242 -0.2532139718532562
0.11627912521362305 -0.5968992114067078 -0.28800204396247864
0.11627912521362305 -0.5968992114067078 -0.2556914985179901
0.11627912521362305 -0.5813953876495361 -0.2881036102771759
0.11627912521362305 -0.5813953280448914 -0.27079594135284424
0.11627912521362305 -0.5038759708404541 -0.0503193624317646
0.11627912521362305 -0.5038759708404541 -0.014220944605767727
0.11627912521362305 -0.4883720874786377 -0.05654887482523918
0.11627912521362305 -0.4883720874786377 0.004964426159858704
0.11627912521362305 -0.4728682041168213 -0.06252308934926987
0.11627912521362305 -0.4728682041168213 0.019790608435869217
0.11627912521362305 -0.4573643207550049 -0.07355575263500214
0.11627912521362305 -0.4573643207550049 0.030215704813599586
0.11627912521362305 -0.4418604075908661 -0.08206807076931
0.11627911776304245 -0.4418604373931885 0.04035859927535057
0.11627912521362305 -0.42635664343833923 -0.08398151397705078
0.11627912521362305 -0.42635661363601685 0.04877964034676552
0.11627912521362305 -0.41085273027420044 -0.08190752565860748
0.11627912521362305 -0.41085273027420044 0.055771805346012115
0.11627912521362305 -0.39534884691238403 -0.08711442351341248
0.11627912521362305 -0.39534884691238403 0.05936954915523529
0.11627912521362305 -0.3798449635505676 -0.09254265576601028
0.11627912521362305 -0.3798449635505676 0.06447955965995789
0.11627912521362305 -0.3643410801887512 -0.0975017175078392
0.11627913266420364 -0.3643411099910736 0.06987914443016052
0.11627912521362305 -0.3488371968269348 -0.10692106187343597
0.11627912521362305 -0.3488371968269348 0.0723533108830452
0.11627912521362305 -0.3333333134651184 -0.13456766307353973
0.11627912521362305 -0.3333333134651184 0.07538960874080658
0.11627912521362305 -0.317829430103302 -0.1504909098148346
0.11627912521362305 -0.317829430103302 0.08009320497512817
0.11627911776304245 -0.302325576543808 -0.16040854156017303
0.11627912521362305 -0.30232560634613037 0.08484921604394913
0.11627912521362305 -0.28682172298431396 -0.1638810783624649
0.11627913266420364 -0.28682172298431396 0.08592994511127472
0.11627912521362305 -0.27131783962249756 -0.16525046527385712
0.11627912521362305 -0.27131786942481995 0.08572950214147568
0.11627912521362305 -0.25581395626068115 -0.16760511696338654
0.11627912521362305 -0.25581395626068115 0.08336260914802551
0.11627912521362305 -0.24031007289886475 -0.16926926374435425
0.11627912521362305 -0.24031007289886475 0.07654228806495667
0.11627912521362305 -0.22480618953704834 -0.16855370998382568
0.11627912521362305 -0.22480618953704834 0.07030840963125229
0.11627912521362305 -0.20930230617523193 -0.16801293194293976
0.11627912521362305 -0.20930229127407074 0.05681465566158295
0.11627912521362305 -0.19379842281341553 -0.1681656539440155
0.11627911776304245 -0.19379842281341553 0.042230673134326935
0.11627912521362305 -0.1782945990562439 -0.16751420497894287
0.11627912521362305 -0.1782945990562439 0.02824237383902073
0.11627912521362305 -0.1627907156944275 -0.1666005551815033
0.11627912521362305 -0.1627907156944275 0.012337574735283852
0.11627912521362305 -0.14728683233261108 -0.1663396954536438
0.11627912521362305 -0.14728683233261108 -0.009842622093856335
0.11627912521362305 -0.13178294897079468 -0.1656849980354309
0.11627911776304245 -0.13178294897079468 -0.06430278718471527
0.11627912521362305 -0.11627906560897827 -0.16345015168190002
0.11627912521362305 -0.11627906560897827 -0.08585277199745178
0.11627912521362305 -0.10077518224716187 -0.15086886286735535
0.11627912521362305 -0.10077518224716187 -0.10746970772743225
0.1317828893661499 -0.6899224519729614 -0.28789570927619934
0.1317828893661499 -0.6899224519729614 -0.2532392740249634
0.1317828893661499 -0.674418568611145 -0.288315087556839
0.1317828893661499 -0.674418568611145 -0.22427795827388763
0.1317828893661499 -0.6589146852493286 -0.2882024645805359
0.1317828893661499 -0.6589146852493286 -0.23984463512897491
0.1317828893661499 -0.643410861492157 -0.288190633058548
0.1317828893661499 -0.643410861492157 -0.25851038098335266
0.1317828893661499 -0.6279069781303406 -0.2888685464859009
0.1317828893661499 -0.6279069781303406 -0.26032379269599915
0.1317828893661499 -0.6124030351638794 -0.28894272446632385
0.1317828893661499 -0.6124030947685242 -0.25838354229927063
0.1317828893661499 -0.5968992114067078 -0.2889798581600189
0.1317828893661499 -0.5968992114067078 -0.26606377959251404
0.1317828893661499 -0.5813953876495361 -0.289045125246048
0.1317828893661499 -0.5813953876495361 -0.2783706784248352
0.1317828893661499 -0.4728682041168213 -0.050166986882686615
0.1317828893661499 -0.4728682041168213 -0.013263564556837082
0.1317828893661499 -0.4573643207550049 -0.06077664718031883
0.1317828893661499 -0.4573643207550049 0.004766910336911678
0.1317828893661499 -0.4418604373931885 -0.0698879286646843
0.1317828893661499 -0.4418604373931885 0.01945129968225956
0.1317828893661499 -0.42635661363601685 -0.07042664289474487
0.1317828893661499 -0.42635661363601685 0.028739191591739655
0.1317828893661499 -0.41085273027420044 -0.06712467968463898
0.1317828893661499 -0.41085273027420044 0.03644277900457382
0.1317828893661499 -0.39534884691238403 -0.07285602390766144
0.1317828893661499 -0.39534884691238403 0.039056871086359024
0.1317828893661499 -0.3798449635505676 -0.07757072150707245
0.1317828893661499 -0.3798449635505676 0.037314869463443756
0.1317828893661499 -0.3643410801887512 -0.07840550690889359
0.1317828893661499 -0.3643410801887512 0.03559339419007301
0.1317828893661499 -0.3488371968269348 -0.07525821775197983
0.1317828744649887 -0.3488371968269348 0.03881615027785301
0.1317828893661499 -0.3333333134651184 -0.07001641392707825
0.1317828893661499 -0.333333283662796 0.041821740567684174
0.1317828893661499 -0.317829430103302 -0.06007974222302437
