0.007751941680908203 0.2934167683124542 0.038759708404541016
0.007751941680908203 0.35119178891181946 0.22480618953704834
0.007751941680908203 0.3724011182785034 0.05426359176635742
0.007751941680908203 0.3941289782524109 0.06976747512817383
0.007751941680908203 0.40742579102516174 0.08527135848999023
0.007751941680908203 0.4018620252609253 0.20930230617523193
0.007751941680908203 0.41892102360725403 0.10077524185180664
0.00775194214656949 0.4148702323436737 0.11627912521362305
0.007751941680908203 0.42068982124328613 0.1317828893661499
0.007751941680908203 0.4271753132343292 0.1472867727279663
0.007751941680908203 0.4316239655017853 0.16279065608978271
0.007751941680908203 0.5092762112617493 0.19379842281341553
0.007751941680908203 0.704746663570404 0.16279065608978271
0.007751941680908203 0.7196753621101379 0.17829453945159912
0.007751941680908203 0.8018115758895874 0.1472867727279663
0.007751941680908203 0.8160915970802307 0.16279065608978271
0.007751941680908203 0.8658126592636108 0.1472867727279663
0.02325582504272461 -0.9857814311981201 0.6899224519729614
0.02325582504272461 -0.9857755303382874 0.7054263353347778
0.02325582504272461 -0.9746028184890747 0.674418568611145
0.02325582504272461 -0.9707556366920471 0.7209302186965942
0.02325582504272461 -0.9628804922103882 0.674418568611145
0.02325582504272461 -0.9457541704177856 0.6899224519729614
0.02325582504272461 -0.9203504920005798 0.7364341020584106
0.02325582504272461 -0.9065393209457397 0.7054263353347778
0.02325582504272461 -0.8963397741317749 0.751937985420227
0.02325582504272461 -0.8804726600646973 0.7674418687820435
0.02325582504272461 -0.8649192452430725 0.7829457521438599
0.02325582504272461 -0.8109003305435181 0.7209302186965942
0.02325582504272461 -0.7772140502929688 0.7364341020584106
0.02325582504272461 -0.7600016593933105 0.751937985420227
0.02325582504272461 -0.7449337840080261 0.7674418687820435
0.02325582504272461 -0.7447550296783447 0.7984496355056763
0.02325582504272461 -0.7130413055419922 0.8139535188674927
0.02325582504272461 -0.680222749710083 0.8294574022293091
0.02325582318007946 -0.6703314781188965 0.7984496355056763
0.02325582690536976 -0.6736067533493042 0.8139535188674927
0.02325582504272461 -0.6743388175964355 0.8294574022293091
0.02325582504272461 -0.6535443067550659 0.7674418687820435
0.02325582504272461 -0.6288018226623535 0.751937985420227
0.02325582504272461 -0.639732837677002 0.7984495759010315
0.02325582504272461 -0.6165085434913635 0.8139535188674927
0.02325582504272461 -0.6019691824913025 0.8294574022293091
0.02325582504272461 -0.5828376412391663 0.7364341020584106
0.02325582504272461 -0.5835769176483154 0.8294574022293091
0.02325582504272461 -0.5242002010345459 0.7364341020584106
0.02325582504272461 -0.5341389179229736 0.8139535188674927
0.02325582504272461 -0.5069684982299805 0.7984496355056763
0.02325582504272461 -0.4737567603588104 0.7364341020584106
0.02325582504272461 -0.4857012629508972 0.7829457521438599
0.02325582504272461 -0.46056950092315674 0.7674418687820435
0.02325582504272461 -0.436855673789978 0.7519380450248718
0.02325582504272461 -0.4211919605731964 0.7364341020584106
0.02325582504272461 -0.3833678662776947 0.6279069185256958
0.02325582504272461 -0.38418158888816833 0.6434108018875122
0.02325582504272461 -0.3804473578929901 0.6589146852493286
0.02325582504272461 -0.36445003747940063 0.5813953876495361
0.02325582504272461 -0.365945041179657 0.5968992710113525
0.02325582504272461 -0.37389910221099854 0.6279069185256958
0.02325582504272461 -0.3735805153846741 0.6434108018875122
0.02325582504272461 -0.3788454830646515 0.6589146852493286
0.02325582504272461 -0.3511699140071869 0.5503876209259033
0.02325582504272461 -0.35745108127593994 0.5658915042877197
0.02325582504272461 -0.33562979102134705 0.5193798542022705
0.02325582504272461 -0.3434956669807434 0.5348837375640869
0.02325582504272461 -0.34000590443611145 0.5968992710113525
0.02325582504272461 -0.32087475061416626 0.4883720874786377
0.02325582504272461 -0.3287031650543213 0.5038759708404541
0.02325582504272461 -0.32234543561935425 0.5813953876495361
0.02325582504272461 -0.30567577481269836 0.4573643207550049
0.02325582504272461 -0.313774049282074 0.4728682041168213
0.02325582504272461 -0.3136138319969177 0.5658915042877197
0.02325582504272461 -0.287141889333725 0.42635655403137207
0.02325582504272461 -0.29636532068252563 0.4418604373931885
0.02325582504272461 -0.29158225655555725 0.5038759708404541
0.02325582504272461 -0.2986736595630646 0.5193798542022705
0.02325582504272461 -0.3005863428115845 0.5348837375640869
0.02325582504272461 -0.3019886910915375 0.5503876805305481
0.02325582504272461 -0.27280062437057495 0.41085267066955566
0.02325582504272461 -0.2838468551635742 0.4883720874786377
0.02325582504272461 -0.25989651679992676 0.22480618953704834
0.02325582504272461 -0.26125890016555786 0.24031007289886475
0.02325582504272461 -0.258150190114975 0.25581395626068115
0.02325582504272461 -0.25703057646751404 0.364341139793396
0.02325582504272461 -0.26099178194999695 0.37984490394592285
0.02325582504272461 -0.2655752897262573 0.39534878730773926
0.02325582504272461 -0.2695176601409912 0.4728682041168213
0.02325582504272461 -0.2422037422657013 0.19379842281341553
0.02325582318007946 -0.25477898120880127 0.20930230617523193
0.02325582504272461 -0.24610204994678497 0.27131783962249756
0.02325582504272461 -0.2424163967370987 0.28682172298431396
0.02325582504272461 -0.24295401573181152 0.30232560634613037
0.02325582504272461 -0.2444130778312683 0.3178294897079468
0.02325582504272461 -0.24588119983673096 0.3333333730697632
0.02325582504272461 -0.24849174916744232 0.3488372564315796
0.02325582504272461 -0.2412358522415161 0.39534878730773926
0.02325582504272461 -0.24622182548046112 0.4418604373931885
0.02325582504272461 -0.2544401288032532 0.4573643207550049
0.02325582504272461 -0.2276594042778015 0.17829453945159912
0.02325582504272461 -0.23317505419254303 0.364341139793396
0.02325582318007946 -0.238787442445755 0.37984490394592285
0.02325582504272461 -0.23984047770500183 0.41085267066955566
0.02325582504272461 -0.23937104642391205 0.4263565242290497
0.02325582504272461 -0.21145591139793396 0.16279065608978271
0.02325582504272461 -0.20022600889205933 0.3488372564315796
0.02325582504272461 -0.19177082180976868 0.1472867727279663
0.02325582504272461 -0.16892346739768982 0.1317828893661499
0.02325582504272461 -0.17710348963737488 0.3333333730697632
0.02325582504272461 -0.14998064935207367 0.11627912521362305
0.02325582504272461 -0.15694233775138855 0.3178294897079468
0.02325582504272461 -0.13123635947704315 0.10077524185180664
0.02325582504272461 -0.11705874651670456 0.30232560634613037
0.02325582504272461 -0.11135508865118027 0.08527135848999023
0.02325582504272461 -0.0938873142004013 0.06976747512817383
0.02325582504272461 -0.0777154415845871 0.05426359176635742
0.02325582504272461 -0.06179696321487427 0.038759708404541016
0.02325582504272461 -0.04339741915464401 0.02325582504272461
0.02325582504272461 -0.04667992889881134 0.28682172298431396
0.02325582504272461 -0.01945050247013569 0.007751941680908203
0.02325582504272461 0.012555509805679321 0.27131783962249756
0.02325582504272461 0.05895311385393143 0.007751941680908203
0.02325582504272461 0.08754945546388626 0.25581395626068115
0.02325582504272461 0.15022960305213928 0.007751941680908203
0.02325582504272461 0.17211124300956726 0.007751941680908203
0.02325582504272461 0.2363700419664383 0.02325582504272461
0.02325582504272461 0.22863569855690002 0.19379842281341553
0.02325582504272461 0.24690783023834229 0.20930230617523193
0.02325582504272461 0.26119381189346313 0.24031007289886475
0.02325582504272461 0.29188936948776245 0.038759708404541016
0.02325582504272461 0.2893560826778412 0.19379842281341553
0.02325582504272461 0.29189300537109375 0.20930230617523193
0.02325582504272461 0.3345993161201477 0.22480618953704834
0.02325582504272461 0.36932793259620667 0.05426358804106712
0.02325582504272461 0.3689960241317749 0.20930230617523193
0.02325582504272461 0.3943532109260559 0.06976747512817383
0.02325582504272461 0.4091707170009613 0.16279065608978271
0.02325582504272461 0.4007788896560669 0.17829453945159912
0.02325582504272461 0.39574581384658813 0.19379842281341553
0.02325582318007946 0.4127403795719147 0.08527135848999023
0.02325582504272461 0.4173622727394104 0.10077524185180664
0.02325582504272461 0.4120626449584961 0.11627911776304245
0.02325582504272461 0.41338199377059937 0.1317828893661499
0.02325582504272461 0.41275376081466675 0.1472867727279663
0.02325582504272461 0.4502165615558624 0.19379842281341553
0.02325582504272461 0.48780423402786255 0.17829453945159912
0.02325582504272461 0.4990420341491699 0.19379842281341553
0.02325582504272461 0.7197218537330627 0.16279065608978271
0.02325582504272461 0.7210771441459656 0.17829453945159912
0.02325582504272461 0.8151869773864746 0.16279065608978271
0.038759708404541016 -0.9846599698066711 0.6899224519729614
0.038759708404541016 -0.9715601205825806 0.674418568611145
0.038759708404541016 -0.9788190126419067 0.7054263353347778
0.038759708404541016 -0.9670872688293457 0.674418568611145
0.038759708404541016 -0.961301326751709 0.6899224519729614
0.038759708404541016 -0.9409098625183105 0.7209302186965942
0.038759708404541016 -0.9213111400604248 0.7054263353347778
0.038759708404541016 -0.9086446762084961 0.7364341020584106
0.038759708404541016 -0.8854503631591797 0.751937985420227
0.038759708404541016 -0.8655408024787903 0.7209302186965942
0.038759708404541016 -0.8662293553352356 0.7674418687820435
0.038759708404541016 -0.837244987487793 0.7829457521438599
0.038759708404541016 -0.8217970132827759 0.7364341020584106
0.038759708404541016 -0.7892187833786011 0.751937985420227
0.038759708404541016 -0.7700761556625366 0.7674418687820435
0.038759708404541016 -0.7589816451072693 0.7829457521438599
0.038759708404541016 -0.7124619483947754 0.7984496355056763
0.038759708404541016 -0.7133740186691284 0.8139535188674927
0.038759708404541016 -0.6912508606910706 0.8294574022293091
0.038759708404541016 -0.6780108213424683 0.7984496355056763
0.03875970467925072 -0.6729925274848938 0.8139535188674927
0.038759708404541016 -0.6713303923606873 0.8294574022293091
0.038759708404541016 -0.6264090538024902 0.7829457521438599
0.038759708404541016 -0.6078852415084839 0.7984496355056763
0.038759708404541016 -0.6014721393585205 0.8139535188674927
0.038759708404541016 -0.5986897349357605 0.8294574022293091
0.038759708404541016 -0.5922301411628723 0.7829457521438599
0.038759708404541016 -0.5932610034942627 0.7984496355056763
0.038759708404541016 -0.5950536727905273 0.8139535188674927
0.038759708404541016 -0.5964940190315247 0.8294573426246643
0.038759708404541016 -0.25686681270599365 0.20930230617523193
0.038759708404541016 -0.2637481689453125 0.22480618953704834
0.038759708404541016 -0.26723670959472656 0.24031007289886475
0.038759708404541016 -0.2630319595336914 0.25581395626068115
0.038759708404541016 -0.24178801476955414 0.19379842281341553
0.038759708404541016 -0.25054770708084106 0.27131783962249756
0.038759708404541016 -0.2406967431306839 0.28682172298431396
0.038759708404541016 -0.24066393077373505 0.30232560634613037
0.038759708404541016 -0.24032829701900482 0.3178294897079468
0.038759708404541016 -0.22579793632030487 0.17829453945159912
0.038759708404541016 -0.22481413185596466 0.3333333730697632
0.038759708404541016 -0.2060542106628418 0.16279065608978271
0.038759708404541016 -0.18141146004199982 0.1472867727279663
0.038759708404541016 -0.18426284193992615 0.3333333730697632
0.038759708404541016 -0.1606540083885193 0.1317828893661499
0.038759708404541016 -0.1585213989019394 0.3178294897079468
0.038759708404541016 -0.14023357629776 0.11627912521362305
0.038759708404541016 -0.12211757898330688 0.10077524185180664
0.038759708404541016 -0.10510092973709106 0.08527135848999023
0.038759708404541016 -0.11010382324457169 0.30232560634613037
0.038759708404541016 -0.08931300789117813 0.06976747512817383
0.038759708404541016 -0.07472889870405197 0.05426359176635742
0.038759708404541016 -0.06010426953434944 0.038759708404541016
0.038759708404541016 -0.04355453699827194 0.02325582504272461
0.038759708404541016 -0.037560462951660156 0.28682172298431396
0.038759708404541016 -0.02303863875567913 0.007751941680908203
0.038759708404541016 0.01847279630601406 0.27131783962249756
0.038759708404541016 0.07625870406627655 0.007751941680908203
0.038759708404541016 0.10742996633052826 0.25581395626068115
0.038759708404541016 0.14561033248901367 0.007751941680908203
0.038759708404541016 0.17962172627449036 0.007751941680908203
0.038759708404541016 0.2224658727645874 0.19379842281341553
0.038759708404541016 0.23845025897026062 0.17829453945159912
0.038759708404541016 0.2407514899969101 0.02325582504272461
0.038759708404541016 0.2641107439994812 0.17829453945159912
0.038759708404541016 0.26597756147384644 0.20930230617523193
0.038759708404541016 0.2589482069015503 0.24031007289886475
0.038759708404541016 0.2944362163543701 0.038759708404541016
0.038759708404541016 0.305588036775589 0.19379842281341553
0.038759708404541016 0.3108963072299957 0.22480618953704834
0.038759708404541016 0.3690296411514282 0.05426358804106712
0.038759708404541016 0.365939199924469 0.19379842281341553
0.038759708404541016 0.38799405097961426 0.16279065608978271
0.038759712129831314 0.3809767961502075 0.17829453945159912
0.038759708404541016 0.3962641656398773 0.06976747512817383
0.038759708404541016 0.4040786623954773 0.11627912521362305
0.038759708404541016 0.4005599617958069 0.1317828893661499
0.038759708404541016 0.3968188762664795 0.1472867727279663
0.038759712129831314 0.4285629987716675 0.08527135848999023
0.038759708404541016 0.4351876378059387 0.10077524185180664
0.05426359176635742 -0.22762523591518402 0.20930230617523193
0.05426359176635742 -0.2335839718580246 0.22480618953704834
0.05426359176635742 -0.2371121495962143 0.24031007289886475
0.05426359176635742 -0.23198428750038147 0.25581395626068115
0.05426359176635742 -0.21201977133750916 0.17829453945159912
0.05426359176635742 -0.22276924550533295 0.19379842281341553
0.05426359549164772 -0.22096502780914307 0.27131783962249756
0.05426359176635742 -0.21142268180847168 0.28682172298431396
0.05426359176635742 -0.19217225909233093 0.16279065608978271
0.05426359176635742 -0.18615224957466125 0.30232560634613037
0.05426359176635742 -0.1664770543575287 0.1472867727279663
0.05426359176635742 -0.14884795248508453 0.1317828893661499
0.05426359176635742 -0.13225317001342773 0.11627912521362305
0.05426358804106712 -0.11534431576728821 0.10077524185180664
0.05426359176635742 -0.10653980076313019 0.30232560634613037
0.05426359176635742 -0.09829525649547577 0.08527135848999023
0.05426359176635742 -0.07083061337471008 0.05426359176635742
0.05426359176635742 -0.08302201330661774 0.06976747512817383
0.05426359176635742 -0.057228099554777145 0.038759708404541016
0.05426359176635742 -0.04205314815044403 0.02325582504272461
0.05426359176635742 -0.024155260995030403 0.007751941680908203
0.05426359176635742 -0.030553583055734634 0.28682172298431396
0.05426359176635742 -0.02148112654685974 -0.8604651093482971
0.05426359176635742 0.021996190771460533 0.27131783962249756
0.05426359176635742 0.05959565192461014 -0.8604650497436523
0.05426359176635742 0.1087154746055603 0.25581395626068115
0.05426359176635742 0.1264813095331192 0.007751941680908203
0.05426359176635742 0.13880294561386108 0.007751941680908203
0.05426359176635742 0.18508338928222656 0.007751941680908203
0.05426359176635742 0.2186543047428131 0.19379842281341553
0.05426359176635742 0.2277572751045227 0.17829453945159912
0.05426359176635742 0.24355396628379822 0.02325582504272461
0.05426359176635742 0.24477630853652954 0.20930230617523193
0.05426359176635742 0.2435464859008789 0.24031007289886475
0.05426359176635742 0.27805981040000916 0.17829453945159912
0.05426359176635742 0.2798423767089844 0.22480618953704834
0.05426359176635742 0.2992721498012543 0.038759708404541016
0.05426359176635742 0.371380090713501 0.05426359176635742
0.05426359176635742 0.36767762899398804 0.17829453945159912
0.05426359176635742 0.3846825361251831 0.1472867727279663
0.05426359176635742 0.3809719979763031 0.16279065608978271
0.05426359176635742 0.3998546600341797 0.06976747512817383
0.05426359176635742 0.40624892711639404 0.11627912521362305
0.05426358804106712 0.39642202854156494 0.1317828893661499
0.05426359176635742 0.44928884506225586 0.10077524185180664
0.05426359176635742 0.45743289589881897 0.08527135848999023
0.06976747512817383 -0.1640845239162445 0.19379842281341553
0.06976747512817383 -0.16429266333580017 0.20930230617523193
0.06976747512817383 -0.16427560150623322 0.22480618953704834
0.06976747512817383 -0.16356001794338226 0.24031007289886475
0.06976747512817383 -0.14824290573596954 0.1472867727279663
0.06976747512817383 -0.15697607398033142 0.16279065608978271
0.06976747512817383 -0.16241887211799622 0.17829453945159912
0.06976747512817383 -0.16182905435562134 0.25581395626068115
0.06976747512817383 -0.15095943212509155 0.27131783962249756
0.06976747512817383 -0.13525773584842682 0.1317828893661499
0.06976747512817383 -0.12091691792011261 0.11627912521362305
0.06976747512817383 -0.12619134783744812 0.28682172298431396
0.06976747512817383 -0.10566189140081406 0.10077524185180664
0.06976747512817383 -0.09012743085622787 0.08527135848999023
0.06976747512817383 -0.07591275125741959 0.06976747512817383
0.06976747512817383 -0.06339670717716217 0.05426359549164772
0.06976747512817383 -0.03907738998532295 0.02325582504272461
0.06976747512817383 -0.05262421816587448 0.038759708404541016
0.06976747512817383 -0.024035952985286713 -0.8604650497436523
0.06976747512817383 -0.02803974226117134 0.28682172298431396
0.06976747512817383 -0.02004362642765045 0.007751941680908203
0.06976747512817383 -0.0022514155134558678 -0.8604650497436523
0.06976747512817383 0.013796377927064896 -0.8604651093482971
0.06976747512817383 0.021399063989520073 -0.007751941680908203
0.06976747512817383 0.01826469786465168 0.27131783962249756
0.06976747512817383 0.054253462702035904 -0.1627907156944275
0.06976747512817383 0.053730934858322144 -0.14728683233261108
0.06976747512817383 0.05358106642961502 -0.13178294897079468
0.06976747512817383 0.06962568312883377 -0.22480618953704834
0.06976747512817383 0.06908610463142395 -0.20930230617523193
0.06976747512817383 0.06676502525806427 -0.19379842281341553
0.06976747512817383 0.0604831799864769 -0.1782945990562439
0.06976747512817383 0.05458129197359085 -0.11627905815839767
0.06976747512817383 0.06653106212615967 -0.10077518224716187
0.06976747512817383 0.06171563267707825 -0.02325582504272461
0.06976747512817383 0.06560824811458588 0.25581395626068115
0.06976747512817383 0.08505842834711075 -0.3333333134651184
0.06976747512817383 0.08433008193969727 -0.317829430103302
0.06976747512817383 0.08297249674797058 -0.30232560634613037
0.06976747512817383 0.0813455805182457 -0.28682172298431396
0.06976747512817383 0.07881580293178558 -0.27131783962249756
0.06976747512817383 0.07707051932811737 -0.25581395626068115
0.06976747512817383 0.07345273345708847 -0.24031007289886475
0.06976747512817383 0.09331723302602768 -0.8449612259864807
0.06976747512817383 0.100630983710289 -0.7829457521438599
0.06976747512817383 0.1001790463924408 -0.7674418687820435
0.06976747512817383 0.09994173049926758 -0.751937985420227
0.06976747512817383 0.09978928416967392 -0.7364341020584106
0.06976747512817383 0.0997341200709343 -0.7209302186965942
0.06976747512817383 0.09972931444644928 -0.7054263353347778
0.06976747512817383 0.09993802011013031 -0.6899224519729614
0.06976747512817383 0.10039789974689484 -0.674418568611145
0.06976747512817383 0.10036678612232208 -0.5658915042877197
0.06976747512817383 0.09956806153059006 -0.5503876209259033
0.06976747512817383 0.09917038679122925 -0.5348837375640869
0.06976747512817383 0.09982628375291824 -0.5193798542022705
0.06976747512817383 0.08563394844532013 -0.3333333134651184
0.06976747512817383 0.08608682453632355 -0.317829430103302
0.06976747512817383 0.08613322675228119 -0.30232560634613037
0.06976747512817383 0.08604224771261215 -0.28682172298431396
0.06976747512817383 0.08597192168235779 -0.27131783962249756
0.06976747512817383 0.08578155934810638 -0.25581395626068115
0.06976747512817383 0.08553049713373184 -0.24031008780002594
0.06976747512817383 0.08530054241418839 -0.22480620443820953
0.06976747512817383 0.08530101180076599 -0.20930230617523193
0.06976747512817383 0.08611486852169037 -0.19379842281341553
0.06976747512817383 0.08801863342523575 -0.1782945990562439
0.06976747512817383 0.09068230539560318 -0.1627907156944275
0.06976747512817383 0.09342430531978607 -0.14728683233261108
0.06976747512817383 0.0947248563170433 -0.13178294897079468
0.06976747512817383 0.09215858578681946 -0.11627906560897827
0.06976747512817383 0.08662530779838562 -0.10077518224716187
0.06976747512817383 0.10006106644868851 -0.02325582504272461
0.06976747512817383 0.10598289221525192 -0.8449612259864807
0.06976747512817383 0.10133419185876846 -0.7829457521438599
0.06976747512817383 0.10300232470035553 -0.7674418687820435
0.06976747512817383 0.10366825759410858 -0.751937985420227
0.06976747512817383 0.1036415845155716 -0.7364341020584106
0.06976747512817383 0.10326215624809265 -0.7209302186965942
0.06976747512817383 0.1028047502040863 -0.7054263353347778
0.06976747512817383 0.10209773480892181 -0.6899224519729614
0.06976746767759323 0.10127165168523788 -0.6744185090065002
0.06976747512817383 0.10097485780715942 -0.5658915042877197
0.06976746767759323 0.10119645297527313 -0.5503876209259033
0.06976747512817383 0.10119063407182693 -0.5348837375640869
0.06976747512817383 0.10097181797027588 -0.5193799138069153
0.06976747512817383 0.11955417692661285 -0.00775194214656949
0.06976747512817383 0.1479964256286621 -0.8604650497436523
0.06976747512817383 0.1846221685409546 0.00775194214656949
0.06976747512817383 0.19288958609104156 0.19379842281341553
0.06976747512817383 0.19107286632061005 0.24031007289886475
0.06976747512817383 0.20000964403152466 0.17829453945159912
0.06976747512817383 0.19506923854351044 0.20930230617523193
0.06976747512817383 0.19731435179710388 0.22480618953704834
0.06976747512817383 0.22323201596736908 0.16279065608978271
0.06976747512817383 0.24156752228736877 0.02325582504272461
0.06976747512817383 0.27906447649002075 0.16279065608978271
0.06976747512817383 0.30277398228645325 0.038759708404541016
0.06976747512817383 0.372689425945282 0.05426359176635742
0.06976747512817383 0.3678711950778961 0.16279065608978271
0.06976747512817383 0.39445850253105164 0.1317828893661499
0.06976747512817383 0.38150468468666077 0.1472867727279663
0.06976747512817383 0.4060128331184387 0.06976747512817383
0.06976747512817383 0.4139869511127472 0.11627912521362305
0.06976747512817383 0.46476948261260986 0.08527135848999023
0.06976747512817383 0.4597780108451843 0.10077524185180664
0.08527135848999023 -0.1173480674624443 0.1317828893661499
0.08527135848999023 -0.12096962332725525 0.1472867727279663
0.08527135848999023 -0.12000475823879242 0.16279065608978271
0.08527135848999023 -0.11814337968826294 0.17829453945159912
0.08527135848999023 -0.11735379695892334 0.19379842281341553
0.08527135848999023 -0.11636050045490265 0.20930230617523193
0.08527135848999023 -0.10712206363677979 0.11627912521362305
0.08527135848999023 -0.11489184945821762 0.22480618953704834
0.08527135848999023 -0.11151863634586334 0.24031007289886475
0.08527135848999023 -0.1053415834903717 0.25581395626068115
0.08527135848999023 -0.094540536403656 0.10077524185180664
0.08527135848999023 -0.0941760241985321 0.27131783962249756
0.08527135848999023 -0.07027421146631241 0.06976747512817383
0.08527135848999023 -0.08146241307258606 0.08527135848999023
0.08527135848999023 -0.07284017652273178 0.28682172298431396
0.08527135848999023 -0.05887763574719429 0.05426359176635742
0.08527135848999023 -0.04630488157272339 0.038759708404541016
0.08527135848999023 -0.031371161341667175 0.02325582504272461
0.08527135848999023 -0.03851217404007912 0.28682172298431396
0.08527135848999023 -0.01187946181744337 0.007751941680908203
0.08527135848999023 0.0028598643839359283 0.27131783962249756
0.08527135848999023 0.020054632797837257 -0.007751941680908203
0.08527135848999023 0.024532223120331764 -0.8604651093482971
0.08527135848999023 0.032341450452804565 0.25581395626068115
0.08527135848999023 0.05409267917275429 -0.1627907156944275
0.08527135848999023 0.05328468605875969 -0.14728683233261108
0.08527135848999023 0.05307283252477646 -0.13178294897079468
0.08527135848999023 0.05360501632094383 -0.11627906560897827
0.08527135848999023 0.04690743610262871 -0.02325582504272461
0.08527135848999023 0.06893426179885864 -0.20930230617523193
0.08527135848999023 0.06586311012506485 -0.19379842281341553
0.08527135848999023 0.06086459755897522 -0.1782945990562439
0.08527135848999023 0.06010366976261139 -0.10077518224716187
0.08527135848999023 0.06757690012454987 -0.08527129888534546
0.08527135848999023 0.06259617209434509 -0.038759708404541016
0.08527135848999023 0.0840468555688858 -0.25581395626068115
0.08527135848999023 0.07829616963863373 -0.24031007289886475
0.08527135848999023 0.07163287699222565 -0.22480618953704834
0.08527135848999023 0.0782960057258606 -0.06976741552352905
0.08527135848999023 0.07435864210128784 -0.05426359176635742
0.08527135848999023 0.07963760197162628 0.24031007289886475
0.08527135848999023 0.08535604178905487 -0.25581395626068115
0.08527135848999023 0.08564574271440506 -0.24031007289886475
0.08527135848999023 0.08602778613567352 -0.22480620443820953
0.08527135848999023 0.08660919964313507 -0.20930230617523193
0.08527135848999023 0.08763542771339417 -0.19379842281341553
0.08527135848999023 0.09011675417423248 -0.1782945990562439
0.08527135848999023 0.09771736711263657 -0.1627907156944275
0.08527135848999023 0.0997580885887146 -0.08527129888534546
0.08527136594057083 0.08870090544223785 -0.06976741552352905
0.08527135103940964 0.10145367681980133 -0.14728683233261108
0.08527135848999023 0.10210179537534714 -0.13178294897079468
0.08527135848999023 0.10222283005714417 -0.11627906560897827
0.08527135848999023 0.10181237757205963 -0.10077518224716187
0.08527135848999023 0.10701409727334976 -0.05426359176635742
0.08527135848999023 0.12062354385852814 -0.038759708404541016
0.08527135848999023 0.13923126459121704 -0.8604651093482971
0.08527136594057083 0.13202472031116486 -0.02325582504272461
0.08527135848999023 0.13443388044834137 -0.007751941680908203
0.08527135848999023 0.14579658210277557 0.22480618953704834
0.08527135848999023 0.15573453903198242 0.20930230617523193
0.08527135848999023 0.1746886968612671 0.17829453945159912
0.08527135848999023 0.16308940947055817 0.19379840791225433
0.08527135848999023 0.18023337423801422 0.007751941680908203
0.08527135848999023 0.1901649385690689 0.16279065608978271
0.08527135848999023 0.20711646974086761 0.1472867727279663
0.08527135848999023 0.23003067076206207 0.02325582504272461
0.08527135848999023 0.24061207473278046 0.1317828893661499
0.08527135848999023 0.27251899242401123 0.1317828893661499
0.08527135848999023 0.29936352372169495 0.038759708404541016
0.08527135848999023 0.31888434290885925 0.1472867727279663
0.08527135848999023 0.37134861946105957 0.05426359176635742
0.08527135848999023 0.3656051456928253 0.1472867727279663
0.08527135848999023 0.3863931894302368 0.1317828893661499
0.08527135848999023 0.41730111837387085 0.06976747512817383
0.08527135848999023 0.4232878088951111 0.11627912521362305
0.08527135848999023 0.4727346897125244 0.10077524185180664
0.08527135848999023 0.47394999861717224 0.08527135848999023
0.10077524185180664 -0.0879441648721695 0.11627912521362305
0.10077524185180664 -0.09221755713224411 0.1317828893661499
0.10077524185180664 -0.09261218458414078 0.1472867727279663
0.10077524185180664 -0.09147565066814423 0.16279065608978271
0.10077524185180664 -0.0897146686911583 0.17829453945159912
0.10077524185180664 -0.08760355412960052 0.19379842281341553
0.10077524185180664 -0.08540113270282745 0.20930230617523193
0.10077524185180664 -0.0701814815402031 0.08527135848999023
0.10077524185180664 -0.07905396819114685 0.10077524185180664
0.10077524185180664 -0.08277521282434464 0.22480618953704834
0.10077524185180664 -0.07751262933015823 0.24031007289886475
0.10077524185180664 -0.06068991869688034 0.06976747512817383
0.10077524185180664 -0.0688253715634346 0.25581395626068115
0.10077524185180664 -0.05569911748170853 0.27131783962249756
0.10077524185180664 -0.040927622467279434 0.038759708404541016
0.10077524185180664 -0.05090675503015518 0.05426359176635742
0.10077524185180664 -0.025499023497104645 0.02325582504272461
0.10077524185180664 -0.017338210716843605 0.27131783962249756
0.10077524185180664 -0.005907918326556683 0.007751941680908203
0.10077524185180664 0.016375746577978134 -0.8604651093482971
0.10077524185180664 0.021097997203469276 -0.007751941680908203
0.10077524185180664 0.011666936799883842 0.25581395626068115
0.10077524185180664 0.037648048251867294 0.24031007289886475
0.10077524185180664 0.05091660097241402 -0.8604651093482971
0.10077524185180664 0.05415315926074982 -0.13178294897079468
0.10077524185180664 0.05416948348283768 -0.11627906560897827
0.10077524185180664 0.047450531274080276 -0.02325582504272461
0.10077524185180664 0.06337571889162064 -0.14728683233261108
0.10077524185180664 0.06480901688337326 -0.10077518224716187
0.10077524185180664 0.06896746903657913 -0.08527129888534546
0.10077524185180664 0.06960998475551605 -0.05426359176635742
0.10077524185180664 0.06350049376487732 -0.038759708404541016
0.10077524185180664 0.0772511214017868 0.22480618953704834
0.10077524185180664 0.09068696200847626 -0.14728683233261108
0.10077524185180664 0.098300501704216 -0.10077518224716187
0.10077524185180664 0.09036429971456528 -0.08527129888534546
0.10077524185180664 0.10117214173078537 -0.13178294897079468
0.10077524185180664 0.10119100660085678 -0.11627906560897827
0.10077524185180664 0.11554168164730072 -0.06976741552352905
0.10077524185180664 0.11329188942909241 0.20930230617523193
0.10077524185180664 0.11631916463375092 -0.06976741552352905
0.10077524185180664 0.12627056241035461 -0.05426359176635742
0.10077524185180664 0.1332770735025406 -0.038759708404541016
0.10077524185180664 0.13622267544269562 -0.02325582504272461
0.10077524185180664 0.141394704580307 -0.007751941680908203
0.10077524185180664 0.13372953236103058 0.19379842281341553
0.10077524185180664 0.14960156381130219 0.17829453945159912
0.10077524185180664 0.16428405046463013 0.16279065608978271
0.10077524185180664 0.17898309230804443 0.00775194214656949
0.10077524185180664 0.1783718764781952 0.1472867727279663
0.10077524930238724 0.19430117309093475 0.1317828893661499
0.10077524185180664 0.21697503328323364 0.02325582504272461
0.10077524185180664 0.21740713715553284 0.11627912521362305
0.10077524185180664 0.2807907462120056 0.038759708404541016
0.10077524185180664 0.3413800001144409 0.11627912521362305
0.10077524185180664 0.3576280176639557 0.11627912521362305
0.10077524185180664 0.36906686425209045 0.05426359176635742
0.10077524185180664 0.40924501419067383 0.06976747512817383
0.10077524185180664 0.4214645028114319 0.06976747512817383
0.10077524185180664 0.43094268441200256 0.10077524185180664
0.10077524185180664 0.4459443986415863 0.06976747512817383
0.10077524185180664 0.45733970403671265 0.08527135848999023
0.11627912521362305 -0.05462530255317688 0.08527135848999023
0.11627912521362305 -0.06131693720817566 0.10077524185180664
0.11627912521362305 -0.0663219690322876 0.11627912521362305
0.11627913266420364 -0.06820376217365265 0.1317828893661499
0.11627912521362305 -0.06806933879852295 0.1472867727279663
0.11627912521362305 -0.06687876582145691 0.16279064118862152
0.11627912521362305 -0.06439824402332306 0.17829453945159912
0.11627912521362305 -0.06117413565516472 0.19379842281341553
0.11627912521362305 -0.05746304988861084 0.20930230617523193
0.11627912521362305 -0.0392228364944458 0.05426359176635742
0.11627912521362305 -0.046546027064323425 0.06976747512817383
0.11627912521362305 -0.05308210477232933 0.22480618953704834
0.11627912521362305 -0.044603131711483 0.24031007289886475
0.11627912521362305 -0.02842649072408676 0.038759708404541016
0.11627912521362305 -0.03052366152405739 0.25581395626068115
0.11627912521362305 -0.007884282618761063 -0.8604651093482971
0.11627912521362305 -0.01429220475256443 0.02325582504272461
0.11627912521362305 0.0032425152603536844 0.007751941680908203
0.11627912521362305 -0.006697400007396936 0.25581395626068115
0.11627912521362305 0.017561526969075203 0.24031007289886475
0.11627912521362305 0.028486132621765137 -0.8604650497436523
0.11627912521362305 0.030247990041971207 -0.007751941680908203
0.11627912521362305 0.0420583114027977 0.22480618953704834
0.11627912521362305 0.07355567812919617 0.20930230617523193
0.11627912521362305 0.10187029838562012 -0.02325582504272461
0.11627912521362305 0.1028822809457779 0.19379842281341553
0.11627911776304245 0.11670242249965668 -0.02325582504272461
0.11627912521362305 0.12125852704048157 0.17829453945159912
0.11627912521362305 0.1328284740447998 -0.007751941680908203
0.11627912521362305 0.13734117150306702 0.16279065608978271
0.11627912521362305 0.15176178514957428 0.1472867727279663
0.11627912521362305 0.16606318950653076 0.1317828893661499
0.11627912521362305 0.1789100468158722 0.007751941680908203
0.11627912521362305 0.18179363012313843 0.11627912521362305
0.11627912521362305 0.20173931121826172 0.10077524185180664
0.11627912521362305 0.21131834387779236 0.02325582504272461
0.11627912521362305 0.22816911339759827 0.08527135848999023
0.11627912521362305 0.2496376931667328 0.038759708404541016
0.11627912521362305 0.26274991035461426 0.06976747512817383
0.11627912521362305 0.3509644865989685 0.05426359176635742
0.1317828893661499 -0.03147993981838226 -0.8604651093482971
0.1317828893661499 -0.02763497456908226 0.08527135848999023
0.1317828893661499 -0.03134259581565857 0.10077524185180664
0.1317828893661499 -0.032298360019922256 0.11627912521362305
0.1317828893661499 -0.029700178653001785 0.1317828893661499
0.1317828893661499 -0.027490582317113876 0.1472867727279663
0.1317828893661499 -0.025180786848068237 0.16279065608978271
0.1317828893661499 -0.008318874053657055 0.038759708404541016
0.1317828893661499 -0.015210643410682678 0.05426359176635742
0.1317828893661499 -0.022966574877500534 0.06976747512817383
0.1317828893661499 -0.021014878526329994 0.17829453945159912
0.1317828893661499 -0.0102747967466712 0.19379842281341553
0.1317828893661499 0.004359289072453976 0.02325582504272461
0.1317828893661499 0.01080913282930851 -0.8604651093482971
0.1317828893661499 0.02240820787847042 0.007751941680908203
0.1317828893661499 0.008967566303908825 0.20930229127407074
0.1317828893661499 0.025102827697992325 0.20930230617523193
0.1317828893661499 0.057986266911029816 0.19379842281341553
0.1317828893661499 0.08191303163766861 0.17829453945159912
0.1317828893661499 0.09720470011234283 0.16279065608978271
0.1317828893661499 0.10783067345619202 0.1472867727279663
0.1317828893661499 0.12040035426616669 0.1317828893661499
0.1317828893661499 0.1371510773897171 0.11627912521362305
0.1317828893661499 0.15616638958454132 0.10077524185180664
0.1317828893661499 0.178557887673378 0.007751941680908203
0.1317828893661499 0.18720006942749023 0.08527135848999023
0.1317828744649887 0.2096218317747116 0.02325582318007946
0.1317828893661499 0.21490168571472168 0.06976747512817383
0.1317828893661499 0.23387199640274048 0.038759708404541016
0.1317828893661499 0.23576286435127258 0.05426359176635742
0.1472867727279663 -0.0429312139749527 -0.8604651093482971
0.1472867727279663 -0.01042092964053154 -0.8604651689529419
-0.13178294897079468 -0.02325582504272461 -0.862496554851532
-0.13178294897079468 -0.02325582504272461 -0.8594552278518677
-0.13178294897079468 0.10077524185180664 0.036321692168712616
-0.13178294897079468 0.10077524185180664 0.047245051711797714
-0.13178294897079468 0.11627912521362305 0.022712578997015953
-0.13178294897079468 0.11627912521362305 0.06111951172351837
-0.13178294897079468 0.1317828893661499 0.021888921037316322
-0.13178294897079468 0.1317828893661499 0.06727200746536255
-0.13178294897079468 0.1472867727279663 0.02076691947877407
-0.13178294897079468 0.1472867727279663 0.07003777474164963
-0.13178294897079468 0.16279065608978271 0.01934201642870903
-0.13178296387195587 0.16279065608978271 0.06977968662977219
-0.13178294897079468 0.17829453945159912 0.020585225895047188
-0.13178294897079468 0.17829453945159912 0.0671917274594307
-0.13178294897079468 0.19379842281341553 0.022692473605275154
-0.13178294897079468 0.19379842281341553 0.061360329389572144
-0.13178294897079468 0.20930230617523193 0.037265580147504807
-0.13178294897079468 0.20930230617523193 0.05127321928739548
-0.11627906560897827 -0.038759708404541016 0.08124645054340363
-0.11627906560897827 -0.038759708404541016 0.21076712012290955
-0.11627906560897827 -0.02325582504272461 0.04993323236703873
-0.11627906560897827 -0.02325582504272461 0.22817565500736237
-0.11627906560897827 -0.007751941680908203 -0.8615542054176331
-0.11627906560897827 -0.00775194214656949 -0.8599402904510498
-0.11627906560897827 -0.007751941680908203 0.02831912226974964
-0.11627906560897827 -0.007751941680908203 0.23530226945877075
-0.11627906560897827 0.007751941680908203 -0.8612414002418518
-0.11627906560897827 0.007751941680908203 -0.8599750995635986
-0.11627906560897827 0.007751941680908203 0.012828053906559944
-0.11627906560897827 0.007751941680908203 0.22935551404953003
-0.11627906560897827 0.02325582504272461 0.003459606086835265
-0.11627906560897827 0.02325582504272461 0.2134358137845993
-0.11627906560897827 0.038759708404541016 0.0012272812891751528
-0.11627906560897827 0.038759708404541016 0.20319902896881104
-0.11627906560897827 0.05426359176635742 -0.0002744123339653015
-0.11627906560897827 0.05426359176635742 0.19809561967849731
-0.11627906560897827 0.06976747512817383 -0.003021224169060588
-0.11627906560897827 0.06976747512817383 0.19413915276527405
-0.11627906560897827 0.08527135848999023 -0.0024099203292280436
-0.11627906560897827 0.08527135848999023 0.18678811192512512
-0.11627906560897827 0.10077524185180664 -0.0019763244781643152
-0.11627906560897827 0.10077524185180664 0.18058061599731445
-0.11627906560897827 0.11627912521362305 -0.0003667005803436041
-0.11627906560897827 0.11627911776304245 0.16732820868492126
-0.11627906560897827 0.1317828893661499 0.004757393151521683
-0.11627907305955887 0.1317828893661499 0.15119925141334534
-0.11627906560897827 0.1472867727279663 0.012394685298204422
-0.11627906560897827 0.1472867727279663 0.1329728364944458
-0.11627905815839767 0.16279065608978271 0.011790796183049679
-0.11627906560897827 0.16279065608978271 0.11683002859354019
-0.11627906560897827 0.17829453945159912 0.015656867995858192
-0.11627906560897827 0.17829453945159912 0.10382510721683502
-0.11627906560897827 0.19379842281341553 0.021198032423853874
-0.11627906560897827 0.19379842281341553 0.09339449554681778
-0.11627907305955887 0.20930230617523193 0.030416365712881088
-0.11627906560897827 0.20930230617523193 0.08296281844377518
-0.11627906560897827 0.22480618953704834 0.037746187299489975
-0.11627906560897827 0.22480618953704834 0.07234224677085876
-0.11627906560897827 0.24031007289886475 0.05165068432688713
-0.11627906560897827 0.24031007289886475 0.0577516183257103
-0.10077518224716187 -0.06976741552352905 0.10297965258359909
-0.10077518224716187 -0.06976741552352905 0.23392538726329803
-0.10077518224716187 -0.05426359176635742 0.07156995683908463
-0.10077518224716187 -0.05426359176635742 0.25739097595214844
-0.10077518224716187 -0.038759708404541016 0.0458737276494503
-0.10077518224716187 -0.038759708404541016 0.2698904573917389
-0.10077518969774246 -0.02325582690536976 0.027759753167629242
-0.10077518224716187 -0.02325582504272461 0.27041301131248474
-0.10077518224716187 -0.007751941680908203 0.014218684285879135
-0.10077518224716187 -0.007751941680908203 0.26076072454452515
-0.10077518224716187 0.007751941680908203 -0.86113041639328
-0.10077518224716187 0.007751941215246916 -0.8600873351097107
-0.10077518224716187 0.007751941680908203 0.0030738990753889084
-0.10077518224716187 0.007751941680908203 0.2510363757610321
-0.10077518224716187 0.02325582504272461 -0.8620742559432983
-0.10077518224716187 0.02325582504272461 -0.8594502210617065
-0.10077518224716187 0.02325582504272461 -0.006867900025099516
-0.10077518224716187 0.02325582504272461 0.24055926501750946
-0.10077518224716187 0.038759708404541016 -0.010714231058955193
-0.10077518224716187 0.038759708404541016 0.22792497277259827
-0.10077518224716187 0.05426359176635742 -0.02368221990764141
-0.10077518224716187 0.05426359176635742 0.2213226854801178
-0.10077518224716187 0.06976747512817383 -0.04481462016701698
-0.10077518224716187 0.06976747512817383 0.21621932089328766
-0.10077517479658127 0.08527135848999023 -0.049314238131046295
-0.10077518224716187 0.08527135848999023 0.2128574550151825
-0.10077518224716187 0.10077524185180664 -0.053170591592788696
-0.10077518224716187 0.10077524185180664 0.2078520953655243
-0.10077518224716187 0.11627912521362305 -0.053689144551754
-0.10077518224716187 0.11627912521362305 0.19809550046920776
-0.10077518969774246 0.1317828893661499 -0.037601202726364136
-0.10077518224716187 0.1317828893661499 0.18479156494140625
-0.10077518224716187 0.1472867727279663 0.00454387441277504
-0.10077518224716187 0.1472867727279663 0.16905927658081055
-0.10077518224716187 0.1627906709909439 0.008491984568536282
-0.10077518969774246 0.16279065608978271 0.1516353189945221
-0.10077518224716187 0.17829453945159912 0.013208267278969288
-0.10077518224716187 0.17829453945159912 0.13426145911216736
-0.10077518224716187 0.19379842281341553 0.020360322669148445
-0.10077518224716187 0.19379842281341553 0.11991514265537262
-0.10077518224716187 0.20930230617523193 0.022985441610217094
-0.10077518224716187 0.20930230617523193 0.10869691520929337
-0.10077518224716187 0.22480618953704834 0.034980036318302155
-0.10077518224716187 0.22480618953704834 0.10015212744474411
-0.10077518224716187 0.24031007289886475 0.03753010556101799
-0.10077518224716187 0.24031007289886475 0.09276637434959412
-0.10077518224716187 0.25581395626068115 0.03916431963443756
-0.10077517479658127 0.25581395626068115 0.08751389384269714
-0.10077518224716187 0.27131783962249756 0.04647643491625786
-0.10077518224716187 0.27131783962249756 0.08448273688554764
-0.10077518224716187 0.28682172298431396 0.04934162646532059
-0.10077518224716187 0.28682172298431396 0.08319783955812454
-0.10077518224716187 0.30232560634613037 0.05109931901097298
-0.10077518224716187 0.30232560634613037 0.08605960011482239
-0.10077518224716187 0.3178294897079468 0.05248889699578285
-0.10077518224716187 0.3178294897079468 0.09044605493545532
-0.10077518224716187 0.3333333730697632 0.05335910990834236
-0.10077518224716187 0.3333333730697632 0.09634993970394135
-0.10077518224716187 0.3488372564315796 0.053945451974868774
-0.10077518224716187 0.3488372564315796 0.1015784740447998
-0.10077518224716187 0.364341139793396 0.05782129615545273
-0.10077518224716187 0.3643411099910736 0.10193756967782974
-0.10077518224716187 0.37984490394592285 0.06704741716384888
-0.10077518224716187 0.37984490394592285 0.09773771464824677
-0.10077518224716187 0.39534878730773926 0.07734744995832443
-0.10077518224716187 0.39534878730773926 0.09090638905763626
-0.10077518224716187 0.41085267066955566 0.08504603803157806
-0.10077518224716187 0.41085267066955566 0.08599986135959625
-0.08527129888534546 -0.10077518224716187 0.11512456834316254
-0.08527129888534546 -0.10077518224716187 0.2590498626232147
-0.08527129888534546 -0.08527129888534546 0.09407564997673035
-0.08527129888534546 -0.08527129888534546 0.27681615948677063
-0.08527129888534546 -0.06976741552352905 0.07372746616601944
-0.08527129888534546 -0.06976741552352905 0.2873104512691498
-0.08527129888534546 -0.05426359176635742 0.050635866820812225
-0.08527129888534546 -0.05426359176635742 0.287988543510437
-0.08527129888534546 -0.038759708404541016 0.03162829205393791
-0.08527129888534546 -0.038759708404541016 0.2870883643627167
-0.08527129888534546 -0.02325582504272461 0.01693524606525898
-0.08527129888534546 -0.02325582504272461 0.27879226207733154
-0.08527129888534546 -0.007751941680908203 0.00531839020550251
-0.08527129888534546 -0.007751941680908203 0.2734927833080292
-0.08527129888534546 0.007751941680908203 -0.0033729637507349253
-0.08527129888534546 0.007751941680908203 0.2652360200881958
-0.08527129888534546 0.02325582504272461 -0.8616318106651306
-0.08527129888534546 0.02325582504272461 -0.8598101139068604
-0.08527129888534546 0.02325582504272461 -0.009550852701067924
-0.08527129888534546 0.02325582504272461 0.25751855969429016
-0.08527129888534546 0.038759708404541016 -0.8626096844673157
-0.08527129888534546 0.038759708404541016 -0.859250009059906
-0.08527129888534546 0.038759708404541016 -0.014973226934671402
-0.08527129888534546 0.038759708404541016 0.24756750464439392
-0.08527129888534546 0.05426359176635742 -0.8627122640609741
-0.08527129143476486 0.05426359176635742 -0.8588894009590149
-0.08527129888534546 0.05426359176635742 -0.15643735229969025
-0.08527129888534546 0.05426359176635742 -0.1089787483215332
-0.08527129888534546 0.05426359176635742 -0.032302338629961014
-0.08527130633592606 0.05426359549164772 0.24273744225502014
-0.08527129888534546 0.06976747512817383 -0.8625494837760925
-0.08527129143476486 0.06976747512817383 -0.8581255674362183
-0.08527129888534546 0.06976747512817383 -0.19168005883693695
-0.08527129888534546 0.06976747512817383 0.24087826907634735
-0.08527129888534546 0.08527135848999023 -0.8623545169830322
-0.08527129888534546 0.08527135848999023 -0.8569494485855103
-0.08527129888534546 0.08527135848999023 -0.21416127681732178
-0.08527129888534546 0.08527135848999023 0.23684072494506836
-0.08527129888534546 0.10077524185180664 -0.8625434637069702
-0.08527129888534546 0.10077524185180664 -0.854454517364502
-0.08527129888534546 0.10077524185180664 -0.16139709949493408
-0.08527129888534546 0.10077524185180664 0.2328862100839615
-0.08527129888534546 0.11627912521362305 -0.8625378012657166
-0.08527129888534546 0.11627912521362305 -0.857332706451416
-0.08527129888534546 0.11627912521362305 -0.09004686772823334
-0.08527129888534546 0.11627912521362305 0.230019211769104
-0.08527129888534546 0.1317828893661499 -0.8614882826805115
-0.08527129143476486 0.1317828893661499 -0.8597747087478638
-0.08527129888534546 0.1317828893661499 -0.036816999316215515
-0.08527129888534546 0.1317828893661499 0.2266453206539154
-0.08527129888534546 0.1472867727279663 0.004533750005066395
-0.08527129888534546 0.1472867727279663 0.21688207983970642
-0.08527129888534546 0.16279065608978271 0.007389800623059273
-0.08527129888534546 0.16279065608978271 0.1903182715177536
-0.08527129888534546 0.17829453945159912 0.00933008547872305
-0.08527129888534546 0.17829453945159912 0.1700141280889511
-0.08527129888534546 0.19379842281341553 0.017788464203476906
-0.08527129888534546 0.19379842281341553 0.1520279049873352
-0.08527129888534546 0.20930230617523193 0.021586207672953606
-0.08527129888534546 0.20930230617523193 0.13768357038497925
-0.08527129888534546 0.22480618953704834 0.02339235320687294
-0.08527129888534546 0.22480618953704834 0.12890169024467468
-0.08527129888534546 0.24031007289886475 0.033469319343566895
-0.08527129888534546 0.24031007289886475 0.12388977408409119
-0.08527129888534546 0.25581395626068115 0.03637157753109932
-0.08527129888534546 0.25581395626068115 0.1215195432305336
-0.08527129888534546 0.27131783962249756 0.03740638121962547
-0.08527129888534546 0.27131783962249756 0.12276880443096161
-0.08527129888534546 0.28682172298431396 0.0382465198636055
-0.08527129888534546 0.28682172298431396 0.1269024908542633
-0.08527129888534546 0.30232560634613037 0.0423358753323555
-0.08527129888534546 0.30232560634613037 0.13353180885314941
