-0.06976741552352905 0.16279065608978271 -0.10225813090801239
-0.06976741552352905 0.16279065608978271 -0.002220116788521409
-0.06976741552352905 0.16279065608978271 0.04495483636856079
-0.06976741552352905 0.16279065608978271 0.3458905816078186
-0.06976741552352905 0.16279065608978271 0.36587297916412354
-0.06976741552352905 0.17829453945159912 -0.17644307017326355
-0.06976741552352905 0.17829453945159912 -0.09989024698734283
-0.06976741552352905 0.17829453945159912 0.022652113810181618
-0.06976741552352905 0.17829455435276031 0.03913409262895584
-0.06976741552352905 0.17829453945159912 0.21395641565322876
-0.06976741552352905 0.17829453945159912 0.25871551036834717
-0.06976741552352905 0.17829453945159912 0.34701254963874817
-0.06976741552352905 0.17829453945159912 0.365442156791687
-0.06976741552352905 0.19379842281341553 0.2179480940103531
-0.06976741552352905 0.19379842281341553 0.25054052472114563
-0.06976741552352905 0.19379842281341553 0.3576430678367615
-0.06976741552352905 0.19379842281341553 0.36454224586486816
-0.05426359176635742 -0.1627907156944275 0.30954834818840027
-0.05426359176635742 -0.1627907156944275 0.3367663025856018
-0.05426359176635742 -0.14728683233261108 0.1877666711807251
-0.05426359176635742 -0.14728684723377228 0.273304283618927
-0.05426359176635742 -0.13178294897079468 0.17020851373672485
-0.05426359176635742 -0.13178294897079468 0.28682851791381836
-0.05426359176635742 -0.11627906560897827 0.1749172806739807
-0.05426359176635742 -0.11627906560897827 0.28049057722091675
-0.05426359176635742 -0.10077518224716187 0.20482748746871948
-0.05426358804106712 -0.10077517479658127 0.2754880487918854
-0.05426359176635742 -0.08527129888534546 0.229297935962677
-0.05426359176635742 -0.08527129888534546 0.28971174359321594
-0.05426359176635742 -0.06976741552352905 0.21952736377716064
-0.05426359176635742 -0.06976741552352905 0.36262694001197815
-0.05426359176635742 -0.05426359176635742 0.2136567234992981
-0.05426359176635742 -0.05426359176635742 0.36524274945259094
-0.05426359176635742 -0.038759708404541016 0.22175468504428864
-0.05426359549164772 -0.038759712129831314 0.3658244013786316
-0.05426359176635742 -0.02325582504272461 0.067239910364151
-0.05426359176635742 -0.02325582318007946 0.08911788463592529
-0.05426359176635742 -0.02325582504272461 0.20857329666614532
-0.05426359176635742 -0.02325582504272461 0.366106241941452
-0.05426359176635742 -0.007751941680908203 0.0534161776304245
-0.05426359176635742 -0.007751941680908203 0.10346099734306335
-0.05426359176635742 -0.007751941680908203 0.19180935621261597
-0.05426359176635742 -0.007751941680908203 0.36610978841781616
-0.05426359176635742 0.007751941680908203 0.049854546785354614
-0.05426359176635742 0.007751941680908203 0.10342584550380707
-0.05426359176635742 0.007751941680908203 0.1904393434524536
-0.05426359176635742 0.007751941680908203 0.30534350872039795
-0.05426359176635742 0.007751941680908203 0.32598429918289185
-0.05426358804106712 0.007751941215246916 0.36604711413383484
-0.05426359176635742 0.02325582504272461 0.046395160257816315
-0.05426359176635742 0.02325582504272461 0.1023607924580574
-0.05426359176635742 0.02325582504272461 0.2029685229063034
-0.05426359176635742 0.02325582504272461 0.2525375187397003
-0.05426359176635742 0.02325582504272461 0.3442550301551819
-0.05426359176635742 0.02325582504272461 0.3659622073173523
-0.05426359176635742 0.038759708404541016 -0.8306221961975098
-0.05426359176635742 0.038759708404541016 -0.8286499977111816
-0.05426359176635742 0.038759712129831314 0.040239572525024414
-0.05426359176635742 0.038759708404541016 0.09293738007545471
-0.05426359176635742 0.038759708404541016 0.35009849071502686
-0.05426359549164772 0.038759712129831314 0.3657108545303345
-0.05426359176635742 0.05426359176635742 -0.8300595283508301
-0.05426359176635742 0.05426359176635742 -0.8290520310401917
-0.05426359176635742 0.05426359176635742 0.03430130332708359
-0.05426359176635742 0.05426359176635742 0.08712676167488098
-0.05426359176635742 0.05426359176635742 0.360777884721756
-0.05426359549164772 0.05426359549164772 0.36566027998924255
-0.05426359176635742 0.06976747512817383 0.030330125242471695
-0.05426359176635742 0.06976747512817383 0.0869341641664505
-0.05426359176635742 0.06976747512817383 0.36153411865234375
-0.05426359176635742 0.06976746767759323 0.3659161925315857
-0.05426359176635742 0.08527135848999023 0.029202070087194443
-0.05426359176635742 0.08527135848999023 0.0807366594672203
-0.05426359176635742 0.08527135848999023 0.35989418625831604
-0.05426359176635742 0.08527135848999023 0.36664527654647827
-0.05426359549164772 0.10077524185180664 -0.14243516325950623
-0.05426359176635742 0.10077524185180664 -0.04889071732759476
-0.05426359176635742 0.10077524185180664 0.036860279738903046
-0.05426358804106712 0.10077524185180664 0.0708506852388382
-0.05426359549164772 0.10077524185180664 0.355035662651062
-0.05426359549164772 0.10077524185180664 0.36710959672927856
-0.05426359176635742 0.11627912521362305 -0.14828185737133026
-0.05426359549164772 0.11627912521362305 -0.04899556562304497
-0.05426359176635742 0.11627912521362305 0.34871944785118103
-0.05426359549164772 0.11627913266420364 0.3674149513244629
-0.05426359176635742 0.1317828893661499 0.3479311764240265
-0.05426359176635742 0.1317828893661499 0.36771732568740845
-0.05426359176635742 0.1472867727279663 0.05046012997627258
-0.05426359176635742 0.1472867727279663 0.07743361592292786
-0.05426359176635742 0.1472867727279663 0.2074996680021286
-0.05426359176635742 0.1472867727279663 0.2543715238571167
-0.05426359176635742 0.1472867727279663 0.34796708822250366
-0.05426359176635742 0.1472867727279663 0.36798450350761414
-0.05426359176635742 0.16279065608978271 0.052840519696474075
-0.05426359176635742 0.16279065608978271 0.05874223634600639
-0.05426359176635742 0.16279065608978271 0.19071632623672485
-0.05426359176635742 0.16279065608978271 0.2698231041431427
-0.05426359176635742 0.16279065608978271 0.3486688435077667
-0.05426359176635742 0.16279065608978271 0.36813169717788696
-0.05426359176635742 0.17829453945159912 0.18423494696617126
-0.05426359176635742 0.17829453945159912 0.2742718458175659
-0.05426359176635742 0.17829453945159912 0.35398241877555847
-0.05426359176635742 0.17829453945159912 0.36789608001708984
-0.05426359176635742 0.19379842281341553 0.18715490400791168
-0.05426359176635742 0.19379842281341553 0.2739425301551819
-0.05426359176635742 0.19379842281341553 0.360154926776886
-0.05426359176635742 0.19379842281341553 0.36697107553482056
-0.05426359176635742 0.20930230617523193 0.20643383264541626
-0.05426359176635742 0.20930230617523193 0.24993152916431427
-0.05426359176635742 0.20930230617523193 0.36297839879989624
-0.05426359176635742 0.20930230617523193 0.36570844054222107
-0.05426359176635742 0.28682172298431396 0.21822777390480042
-0.05426359176635742 0.28682172298431396 0.22545671463012695
-0.05426359176635742 0.30232560634613037 0.19208285212516785
-0.05426359176635742 0.30232560634613037 0.2797451615333557
-0.05426359176635742 0.3178294897079468 0.19279471039772034
-0.05426359176635742 0.3178294897079468 0.28729012608528137
-0.05426359176635742 0.3333333730697632 0.21907198429107666
-0.05426359176635742 0.3333333730697632 0.27206364274024963
-0.038759708404541016 -0.8604651093482971 0.7940409183502197
-0.038759708404541016 -0.8604651093482971 0.802015483379364
-0.038759708404541016 -0.8449611663818359 0.7923627495765686
-0.038759708404541016 -0.8449612259864807 0.8277177810668945
-0.038759708404541016 -0.8294572830200195 0.7944888472557068
-0.038759712129831314 -0.8294573426246643 0.8321627974510193
-0.038759708404541016 -0.8139535188674927 0.7942307591438293
-0.038759708404541016 -0.8139535188674927 0.8386346697807312
-0.038759708404541016 -0.7984496355056763 0.7928394079208374
-0.038759708404541016 -0.7984495759010315 0.8308714628219604
-0.038759708404541016 -0.7829457521438599 0.7946965098381042
-0.038759708404541016 -0.7829457521438599 0.8244943618774414
-0.038759708404541016 -0.7674418687820435 0.7968793511390686
-0.038759708404541016 -0.7674418687820435 0.8150200843811035
-0.038759708404541016 -0.41085273027420044 0.5179572105407715
-0.038759708404541016 -0.41085273027420044 0.5463777184486389
-0.038759708404541016 -0.41085273027420044 0.5948292016983032
-0.03875970467925072 -0.41085273027420044 0.6124561429023743
-0.038759708404541016 -0.39534884691238403 0.48830440640449524
-0.038759708404541016 -0.39534884691238403 0.535051703453064
-0.038759708404541016 -0.3798449635505676 0.47961127758026123
-0.038759708404541016 -0.3798449635505676 0.521168053150177
-0.038759708404541016 -0.3643410801887512 0.4678798317909241
-0.038759708404541016 -0.3643410801887512 0.5069113969802856
-0.038759708404541016 -0.3488371968269348 0.45547589659690857
-0.038759708404541016 -0.3488371968269348 0.4916681945323944
-0.038759708404541016 -0.3333333134651184 0.449123740196228
-0.038759708404541016 -0.3333333134651184 0.47628381848335266
-0.038759708404541016 -0.317829430103302 0.4392704963684082
-0.038759708404541016 -0.317829430103302 0.4605909287929535
-0.038759708404541016 -0.30232560634613037 0.4270681142807007
-0.038759708404541016 -0.30232560634613037 0.44810956716537476
-0.038759708404541016 -0.28682172298431396 0.4208449721336365
-0.038759708404541016 -0.28682172298431396 0.44322121143341064
-0.038759708404541016 -0.27131783962249756 0.41417568922042847
-0.038759708404541016 -0.27131783962249756 0.44247931241989136
-0.038759708404541016 -0.25581395626068115 0.4096263647079468
-0.038759708404541016 -0.25581395626068115 0.430865615606308
-0.038759708404541016 -0.24031007289886475 0.40697768330574036
-0.038759708404541016 -0.24031007289886475 0.42769134044647217
-0.038759708404541016 -0.22480618953704834 0.4035290777683258
-0.038759708404541016 -0.22480618953704834 0.41761666536331177
-0.038759708404541016 -0.20930230617523193 0.4009599983692169
-0.03875970467925072 -0.20930230617523193 0.4115694761276245
-0.038759708404541016 -0.19379842281341553 0.394359827041626
-0.038759708404541016 -0.19379842281341553 0.3979842960834503
-0.038759708404541016 -0.1782945990562439 0.38512980937957764
-0.038759708404541016 -0.1782945990562439 0.39614543318748474
-0.038759708404541016 -0.1627907156944275 0.3792515993118286
-0.038759708404541016 -0.1627907156944275 0.38700777292251587
-0.038759708404541016 -0.14728683233261108 0.37944769859313965
-0.038759708404541016 -0.14728683233261108 0.3821779489517212
-0.038759708404541016 -0.13178294897079468 0.2035226821899414
-0.038759708404541016 -0.13178294897079468 0.23093268275260925
-0.038759708404541016 -0.13178294897079468 0.37962716817855835
-0.038759708404541016 -0.13178294897079468 0.38034459948539734
-0.038759708404541016 -0.06976741552352905 0.23714473843574524
-0.038759708404541016 -0.06976741552352905 0.27509748935699463
-0.038759708404541016 -0.06976741552352905 0.35758429765701294
-0.038759708404541016 -0.06976741552352905 0.3795563876628876
-0.038759708404541016 -0.05426359176635742 0.22455660998821259
-0.038759708404541016 -0.05426359176635742 0.28411468863487244
-0.038759708404541016 -0.05426359176635742 0.33228883147239685
-0.038759708404541016 -0.05426359176635742 0.3781636655330658
-0.038759708404541016 -0.038759708404541016 0.08196287602186203
-0.038759708404541016 -0.038759708404541016 0.11953330785036087
-0.038759708404541016 -0.038759708404541016 0.2345832884311676
-0.038759708404541016 -0.038759708404541016 0.26257163286209106
-0.038759708404541016 -0.038759708404541016 0.330628901720047
-0.038759708404541016 -0.038759708404541016 0.3766325116157532
-0.038759708404541016 -0.02325582504272461 0.06638618558645248
-0.038759708404541016 -0.02325582690536976 0.1515270322561264
-0.038759708404541016 -0.02325582504272461 0.20366087555885315
-0.038759708404541016 -0.02325582504272461 0.25668543577194214
-0.038759708404541016 -0.02325582504272461 0.3359556496143341
-0.038759708404541016 -0.02325582504272461 0.37484222650527954
-0.038759708404541016 -0.007751941680908203 0.05410800501704216
-0.038759708404541016 -0.007751941680908203 0.2622767686843872
-0.038759708404541016 -0.00775194214656949 0.34947168827056885
-0.038759708404541016 -0.007751941680908203 0.3728283643722534
-0.038759708404541016 0.007751941680908203 0.050984181463718414
-0.038759708404541016 0.007751941680908203 0.2565300464630127
-0.038759708404541016 0.007751941680908203 0.3586598038673401
-0.038759708404541016 0.007751941680908203 0.3711128234863281
-0.038759708404541016 0.02325582504272461 0.04890650510787964
-0.038759708404541016 0.02325582504272461 0.16070587933063507
-0.038759708404541016 0.02325582504272461 0.19585993885993958
-0.038759708404541016 0.02325582504272461 0.24318063259124756
-0.038759708404541016 0.02325582504272461 0.3616184890270233
-0.038759708404541016 0.02325582504272461 0.36969053745269775
-0.038759708404541016 0.038759708404541016 0.04453521966934204
-0.038759708404541016 0.038759708404541016 0.14806443452835083
-0.038759708404541016 0.038759708404541016 0.36266395449638367
-0.038759708404541016 0.038759708404541016 0.3681986331939697
-0.038759708404541016 0.05426359176635742 0.03547832742333412
-0.038759708404541016 0.05426359176635742 0.12464721500873566
-0.038759708404541016 0.05426359176635742 0.36308175325393677
-0.038759708404541016 0.05426359176635742 0.36746594309806824
-0.038759708404541016 0.06976747512817383 0.02235046960413456
-0.038759708404541016 0.06976747512817383 0.11061123758554459
-0.038759708404541016 0.06976747512817383 0.36326271295547485
-0.038759708404541016 0.06976747512817383 0.3669743537902832
-0.038759708404541016 0.08527135848999023 0.018916970118880272
-0.038759708404541016 0.08527135848999023 0.10636065155267715
-0.038759708404541016 0.08527135848999023 0.3630596101284027
-0.038759708404541016 0.08527135848999023 0.3672415316104889
-0.038759708404541016 0.10077524185180664 0.02185376174747944
-0.038759708404541016 0.10077524185180664 0.10605711489915848
-0.038759708404541016 0.10077524185180664 0.36263203620910645
-0.038759708404541016 0.10077524185180664 0.3676452040672302
-0.038759708404541016 0.11627912521362305 0.03504977002739906
-0.038759708404541016 0.11627912521362305 0.12055309116840363
-0.038759708404541016 0.11627912521362305 0.3621881902217865
-0.038759708404541016 0.11627912521362305 0.36794885993003845
-0.038759708404541016 0.1317828893661499 0.03823239728808403
-0.038759708404541016 0.1317828893661499 0.13836556673049927
-0.038759708404541016 0.1317828893661499 0.21849921345710754
-0.038759708404541016 0.1317828893661499 0.22776547074317932
-0.038759708404541016 0.1317828893661499 0.36187469959259033
-0.038759708404541016 0.1317828893661499 0.36826273798942566
-0.038759708404541016 0.1472867727279663 0.03639138862490654
-0.038759708404541016 0.1472867727279663 0.14922910928726196
-0.038759708404541016 0.1472867727279663 0.18538938462734222
-0.038759708404541016 0.1472867727279663 0.24621684849262238
-0.038759708404541016 0.1472867727279663 0.361873984336853
-0.038759708404541016 0.1472867727279663 0.36856892704963684
-0.038759708404541016 0.16279065608978271 0.03793281689286232
-0.038759708404541016 0.16279065608978271 0.145307257771492
-0.038759708404541016 0.16279065608978271 0.17394518852233887
-0.038759708404541016 0.16279064118862152 0.2576628625392914
-0.038759708404541016 0.16279065608978271 0.36220583319664
-0.038759708404541016 0.16279065608978271 0.36867639422416687
-0.038759708404541016 0.17829453945159912 0.06064891442656517
-0.038759708404541016 0.17829453945159912 0.12516725063323975
-0.038759708404541016 0.17829453945159912 0.18074309825897217
-0.038759708404541016 0.17829453945159912 0.25926125049591064
-0.038759708404541016 0.17829453945159912 0.3625810146331787
-0.038759708404541016 0.17829453945159912 0.3682864308357239
-0.038759708404541016 0.19379842281341553 0.1926950365304947
-0.038759708404541016 0.19379840791225433 0.2560202479362488
-0.038759708404541016 0.19379842281341553 0.3628809154033661
-0.038759708404541016 0.19379842281341553 0.3672386705875397
-0.038759708404541016 0.20930230617523193 0.3630186915397644
-0.038759712129831314 0.20930230617523193 0.3668398857116699
-0.038759708404541016 0.22480618953704834 0.3631228804588318
-0.038759708404541016 0.22480618953704834 0.36672794818878174
-0.038759708404541016 0.24031007289886475 0.3631809949874878
-0.038759708404541016 0.24031007289886475 0.3662840723991394
-0.038759708404541016 0.25581395626068115 0.36280718445777893
-0.038759708404541016 0.25581395626068115 0.3660980463027954
-0.038759708404541016 0.27131783962249756 0.3615066707134247
-0.038759712129831314 0.27131783962249756 0.36593005061149597
-0.038759708404541016 0.28682172298431396 0.3562834858894348
-0.038759708404541016 0.28682172298431396 0.36567872762680054
-0.038759708404541016 0.30232560634613037 0.19139689207077026
-0.038759708404541016 0.30232560634613037 0.27802541851997375
-0.038759708404541016 0.30232560634613037 0.3482499122619629
-0.038759708404541016 0.30232560634613037 0.3656063973903656
-0.038759708404541016 0.3178294897079468 0.18778060376644135
-0.038759708404541016 0.3178294897079468 0.2815564274787903
-0.038759708404541016 0.3178294897079468 0.34706592559814453
-0.038759708404541016 0.3178294897079468 0.3658062815666199
-0.038759708404541016 0.3333333730697632 0.1913660764694214
-0.038759708404541016 0.3333333730697632 0.2771940231323242
-0.038759708404541016 0.3333333730697632 0.34697264432907104
-0.038759708404541016 0.33333340287208557 0.36620423197746277
-0.038759708404541016 0.3488372564315796 0.19304373860359192
-0.038759708404541016 0.3488372564315796 0.2740880250930786
-0.038759708404541016 0.3488372564315796 0.34635573625564575
-0.038759708404541016 0.3488372564315796 0.3669699430465698
-0.038759708404541016 0.364341139793396 0.20644104480743408
-0.038759708404541016 0.364341139793396 0.2734159529209137
-0.038759708404541016 0.364341139793396 0.34406113624572754
-0.038759708404541016 0.364341139793396 0.36809805035591125
-0.038759708404541016 0.37984490394592285 0.22211530804634094
-0.038759708404541016 0.37984490394592285 0.2614455223083496
-0.038759708404541016 0.37984490394592285 0.3446248471736908
-0.038759708404541016 0.37984490394592285 0.3697220981121063
-0.038759708404541016 0.39534878730773926 0.34856361150741577
-0.038759708404541016 0.39534878730773926 0.3723635971546173
-0.038759708404541016 0.41085267066955566 0.36023378372192383
-0.038759708404541016 0.41085267066955566 0.3793738782405853
-0.038759708404541016 0.42635655403137207 0.36384451389312744
-0.038759708404541016 0.42635655403137207 0.3807712495326996
-0.038759708404541016 0.4418604373931885 0.37562674283981323
-0.038759708404541016 0.44186046719551086 0.3813384175300598
-0.038759708404541016 0.4573643207550049 0.37871694564819336
-0.038759708404541016 0.4573643207550049 0.38169652223587036
-0.038759708404541016 0.4728682041168213 0.3793691098690033
-0.038759708404541016 0.4728682041168213 0.3827302157878876
-0.038759708404541016 0.4883720874786377 0.3911531865596771
-0.038759708404541016 0.4883720874786377 0.39565739035606384
-0.038759708404541016 0.5038759708404541 0.39182883501052856
-0.038759708404541016 0.5038759708404541 0.39742758870124817
-0.038759708404541016 0.5193798542022705 0.3932212293148041
-0.038759708404541016 0.5193798542022705 0.40285176038742065
-0.038759708404541016 0.5348837375640869 0.39352425932884216
-0.038759708404541016 0.5348837375640869 0.4125506281852722
-0.038759708404541016 0.5503876209259033 0.39383310079574585
-0.038759708404541016 0.5503876209259033 0.4160061180591583
-0.038759708404541016 0.5658915042877197 0.39435598254203796
-0.038759708404541016 0.5658915042877197 0.4218011498451233
-0.038759708404541016 0.5813953876495361 0.39510321617126465
-0.038759708404541016 0.5813953876495361 0.42762455344200134
-0.038759708404541016 0.5968992710113525 0.40358033776283264
-0.038759708404541016 0.5968992710113525 0.4292158782482147
-0.038759708404541016 0.612403154373169 0.4077244997024536
-0.038759708404541016 0.612403154373169 0.4302420914173126
-0.038759708404541016 0.6279069185256958 0.40957313776016235
-0.038759708404541016 0.6279069185256958 0.4313228130340576
-0.038759708404541016 0.6434108018875122 0.410529226064682
-0.038759708404541016 0.6434108018875122 0.4334968328475952
-0.038759708404541016 0.6589146852493286 0.41976213455200195
-0.038759708404541016 0.6589146852493286 0.4374389052391052
-0.038759708404541016 0.674418568611145 0.4235801100730896
-0.038759708404541016 0.674418568611145 0.4428076148033142
-0.038759708404541016 0.6899224519729614 0.4249648153781891
-0.038759708404541016 0.6899225115776062 0.4449573755264282
-0.038759708404541016 0.7054263353347778 0.42593368887901306
-0.038759708404541016 0.7054263353347778 0.44850173592567444
-0.038759708404541016 0.7209301590919495 0.4286515414714813
-0.038759708404541016 0.7209302186965942 0.4568139612674713
-0.038759708404541016 0.7364341020584106 0.4322919547557831
-0.038759708404541016 0.7364341020584106 0.4584099054336548
-0.038759708404541016 0.751937985420227 0.43456366658210754
-0.038759712129831314 0.751937985420227 0.4594276547431946
-0.038759708404541016 0.7674418687820435 0.43568408489227295
-0.038759708404541016 0.7674418687820435 0.460166871547699
-0.038759708404541016 0.7829457521438599 0.43679898977279663
-0.038759708404541016 0.7829457521438599 0.4604743719100952
-0.038759708404541016 0.7984496355056763 0.43787869811058044
-0.038759708404541016 0.7984496355056763 0.4604424238204956
-0.038759708404541016 0.8139535188674927 0.4392058551311493
-0.038759708404541016 0.8139535188674927 0.4602806568145752
-0.038759708404541016 0.8294574022293091 0.44009068608283997
-0.03875970467925072 0.8294574022293091 0.46010154485702515
-0.038759708404541016 0.8449612855911255 0.44077587127685547
-0.038759712129831314 0.8449613451957703 0.4598567485809326
-0.038759708404541016 0.8604651689529419 0.4411221146583557
-0.038759708404541016 0.8604651689529419 0.45954644680023193
-0.038759708404541016 0.8759689331054688 0.44122517108917236
-0.038759708404541016 0.8759689331054688 0.45902639627456665
-0.038759708404541016 0.8914728164672852 0.4411383271217346
-0.038759708404541016 0.8914728164672852 0.4579249322414398
-0.038759708404541016 0.9069766998291016 0.4413563907146454
-0.038759708404541016 0.9069766998291016 0.44593313336372375
-0.02325582504272461 -0.8604651093482971 0.7821120023727417
-0.02325582504272461 -0.8604650497436523 0.8189464807510376
-0.02325582504272461 -0.8449612855911255 0.7814965844154358
-0.02325582504272461 -0.8449612259864807 0.8495664596557617
-0.02325582504272461 -0.8294573426246643 0.7811941504478455
-0.02325582504272461 -0.8294573426246643 0.8444786071777344
-0.02325582504272461 -0.8139535188674927 0.7810913920402527
-0.02325582504272461 -0.8139535188674927 0.8391129970550537
-0.02325582504272461 -0.7984496355056763 0.7817175984382629
-0.02325582504272461 -0.7984496355056763 0.8310372829437256
-0.02325582504272461 -0.7829457521438599 0.7821401357650757
-0.02325582504272461 -0.7829457521438599 0.8280091285705566
-0.02325582504272461 -0.7674418687820435 0.7791286706924438
-0.02325582504272461 -0.7674418687820435 0.8223312497138977
-0.02325582504272461 -0.751937985420227 0.7673981785774231
-0.02325582504272461 -0.7519380450248718 0.8162699937820435
-0.02325582504272461 -0.7364341020584106 0.7645262479782104
-0.02325582504272461 -0.7364341020584106 0.8071283102035522
-0.02325582504272461 -0.7209302186965942 0.7625078558921814
-0.02325582504272461 -0.7209302186965942 0.7970689535140991
-0.02325582504272461 -0.7054263353347778 0.763929009437561
-0.02325582504272461 -0.7054263353347778 0.783306360244751
-0.02325582504272461 -0.6589146852493286 0.6858611702919006
-0.02325582318007946 -0.6589146852493286 0.7101855278015137
-0.02325582504272461 -0.643410861492157 0.6649748086929321
-0.02325582504272461 -0.643410861492157 0.7214910984039307
-0.02325582504272461 -0.6279069781303406 0.6541734933853149
-0.02325582504272461 -0.6279069781303406 0.721939742565155
-0.02325582504272461 -0.6124030947685242 0.6466513872146606
-0.02325582504272461 -0.6124030947685242 0.7202641367912292
-0.02325582504272461 -0.5968992710113525 0.6452125310897827
-0.02325582504272461 -0.5968992710113525 0.7125718593597412
-0.02325582504272461 -0.5813953876495361 0.6536348462104797
-0.02325582504272461 -0.5813953876495361 0.7082787156105042
-0.02325582504272461 -0.5658915638923645 0.6605960130691528
-0.02325582504272461 -0.5658915042877197 0.7024628520011902
-0.02325582504272461 -0.5503876209259033 0.670871913433075
-0.02325582504272461 -0.5503876209259033 0.6924562454223633
-0.02325582504272461 -0.5193798542022705 0.6093616485595703
-0.02325582504272461 -0.5193798542022705 0.6150245666503906
-0.02325582504272461 -0.5038759708404541 0.5925869345664978
-0.02325582504272461 -0.5038759708404541 0.6286770105361938
-0.02325582504272461 -0.4883720874786377 0.5794717073440552
-0.02325582504272461 -0.4883720874786377 0.6313822865486145
-0.02325582504272461 -0.4728682041168213 0.566012442111969
-0.02325582504272461 -0.4728682041168213 0.6307281255722046
-0.02325582504272461 -0.4573643207550049 0.5590479373931885
-0.02325582504272461 -0.4573643207550049 0.6308065056800842
-0.02325582504272461 -0.4418604373931885 0.5464202165603638
-0.02325582504272461 -0.4418604373931885 0.6317891478538513
-0.02325582504272461 -0.42635664343833923 0.520630955696106
-0.02325582504272461 -0.42635661363601685 0.6284116506576538
-0.02325582504272461 -0.41085273027420044 0.499011754989624
-0.02325582504272461 -0.41085273027420044 0.5502197742462158
-0.02325582504272461 -0.41085273027420044 0.5513396859169006
-0.02325582504272461 -0.41085273027420044 0.6048272252082825
-0.02325582504272461 -0.39534884691238403 0.4839630424976349
-0.02325582504272461 -0.39534884691238403 0.5295412540435791
-0.02325582504272461 -0.3798449635505676 0.4714294970035553
-0.02325582504272461 -0.3798449635505676 0.515812873840332
-0.02325582504272461 -0.3643410801887512 0.4623308777809143
-0.02325582504272461 -0.3643410801887512 0.5032596588134766
-0.02325582504272461 -0.3488371968269348 0.4514428973197937
-0.02325582504272461 -0.3488371968269348 0.4893637001514435
-0.02325582504272461 -0.3333333134651184 0.4377806782722473
-0.02325582504272461 -0.333333283662796 0.47580450773239136
-0.02325582504272461 -0.317829430103302 0.4236350357532501
-0.02325582504272461 -0.317829430103302 0.46282023191452026
-0.02325582504272461 -0.30232560634613037 0.4113375246524811
-0.02325582504272461 -0.30232560634613037 0.453457236289978
-0.02325582504272461 -0.28682172298431396 0.40373697876930237
-0.02325582504272461 -0.28682172298431396 0.44651681184768677
-0.02325582504272461 -0.27131783962249756 0.39495524764060974
-0.02325582504272461 -0.27131783962249756 0.4425341486930847
-0.02325582504272461 -0.25581395626068115 0.3917677104473114
-0.02325582504272461 -0.25581395626068115 0.43330109119415283
-0.02325582504272461 -0.24031007289886475 0.38542440533638
-0.02325582504272461 -0.24031007289886475 0.4283434748649597
-0.02325582504272461 -0.22480618953704834 0.37809622287750244
-0.02325582504272461 -0.22480618953704834 0.42014002799987793
-0.02325582504272461 -0.20930230617523193 0.37636637687683105
-0.02325582690536976 -0.20930230617523193 0.41451287269592285
-0.02325582504272461 -0.19379842281341553 0.3763166666030884
-0.02325582504272461 -0.19379842281341553 0.4092537760734558
-0.02325582504272461 -0.1782945990562439 0.3741004168987274
-0.02325582504272461 -0.1782945990562439 0.4013978838920593
-0.02325582504272461 -0.1627907156944275 0.37058597803115845
-0.02325582504272461 -0.1627907156944275 0.3979238271713257
-0.02325582504272461 -0.14728683233261108 0.37019073963165283
-0.02325582690536976 -0.14728683233261108 0.39570942521095276
-0.02325582504272461 -0.13178294897079468 0.37423449754714966
-0.02325582504272461 -0.13178294897079468 0.39006897807121277
-0.02325582504272461 -0.11627906560897827 0.3760257959365845
-0.02325582504272461 -0.11627906560897827 0.3866783380508423
-0.02325582504272461 -0.10077518224716187 0.37621358036994934
-0.02325582504272461 -0.10077518224716187 0.3850153088569641
-0.02325582504272461 -0.08527129888534546 0.37493643164634705
-0.02325582504272461 -0.08527129888534546 0.3841351568698883
-0.02325582504272461 -0.06976741552352905 0.36942148208618164
-0.02325582504272461 -0.06976741552352905 0.38315117359161377
-0.02325582504272461 -0.05426359176635742 0.36368393898010254
-0.02325582504272461 -0.05426359176635742 0.38218849897384644
-0.02325582504272461 -0.038759708404541016 0.08415377140045166
-0.02325582504272461 -0.038759708404541016 0.16836276650428772
-0.02325582504272461 -0.038759708404541016 0.20388945937156677
-0.02325582504272461 -0.038759708404541016 0.2300240695476532
-0.02325582504272461 -0.038759708404541016 0.36301642656326294
-0.02325582504272461 -0.038759708404541016 0.3814968168735504
-0.02325582504272461 -0.02325582504272461 0.06967765092849731
-0.02325582504272461 -0.02325582504272461 0.2562885284423828
-0.02325582504272461 -0.02325582504272461 0.3636798858642578
-0.02325582504272461 -0.02325582504272461 0.3809356093406677
-0.02325582504272461 -0.007751941680908203 0.061050910502672195
-0.02325582504272461 -0.007751941680908203 0.25757667422294617
-0.02325582504272461 -0.007751941680908203 0.3640417456626892
-0.02325582504272461 -0.007751941680908203 0.3802868127822876
-0.02325582504272461 0.007751941680908203 0.052719809114933014
-0.02325582504272461 0.007751941680908203 0.2529243528842926
-0.02325582504272461 0.007751941680908203 0.36418136954307556
-0.02325582504272461 0.007751941680908203 0.3703462779521942
-0.02325582504272461 0.02325582504272461 0.049891676753759384
-0.02325582504272461 0.02325582504272461 0.24239441752433777
-0.02325582504272461 0.02325582504272461 0.3641117811203003
-0.02325582504272461 0.02325582504272461 0.3666185438632965
-0.02325582504272461 0.038759708404541016 0.046107448637485504
-0.02325582504272461 0.038759708404541016 0.22736813127994537
-0.02325582504272461 0.038759708404541016 0.36431360244750977
-0.02325582504272461 0.038759708404541016 0.364509642124176
-0.02325582504272461 0.05426359176635742 0.037968412041664124
-0.02325582504272461 0.05426359176635742 0.14454123377799988
-0.02325582504272461 0.05426359176635742 0.36433565616607666
-0.02325582504272461 0.05426359176635742 0.3643687963485718
-0.02325582504272461 0.06976747512817383 0.028439059853553772
-0.02325582504272461 0.06976747512817383 0.12247122079133987
-0.02325582504272461 0.08527135848999023 0.0190105177462101
-0.02325582504272461 0.08527135848999023 0.11600044369697571
-0.02325582504272461 0.10077524185180664 0.01947699673473835
-0.02325582504272461 0.10077524185180664 0.11447970569133759
-0.02325582504272461 0.10077524185180664 0.3643088638782501
-0.02325582504272461 0.10077524185180664 0.3644554615020752
-0.02325582504272461 0.11627912521362305 0.0312481839209795
-0.02325582504272461 0.11627912521362305 0.12360858172178268
-0.02325582504272461 0.1317828893661499 0.037216104567050934
-0.02325582504272461 0.1317828893661499 0.1431964933872223
-0.02325582504272461 0.1472867727279663 0.037954263389110565
-0.02325582504272461 0.1472867727279663 0.15468382835388184
-0.02325582504272461 0.1472867727279663 0.19383199512958527
-0.02325582504272461 0.1472867727279663 0.22682352364063263
-0.02325582504272461 0.16279065608978271 0.04417245090007782
-0.02325582504272461 0.16279065608978271 0.15697412192821503
-0.02325582504272461 0.16279065608978271 0.18195344507694244
-0.02325582318007946 0.16279065608978271 0.2413385808467865
-0.02325582504272461 0.17829453945159912 0.05474603921175003
-0.02325582504272461 0.17829453945159912 0.14044754207134247
-0.02325582504272461 0.17829453945159912 0.1912723034620285
-0.02325582504272461 0.17829453945159912 0.24233859777450562
-0.02325582504272461 0.19379842281341553 0.0765133649110794
-0.02325582504272461 0.19379842281341553 0.12424297630786896
-0.02325582504272461 0.22480618953704834 0.3637900948524475
-0.02325582504272461 0.22480618953704834 0.36555707454681396
-0.02325582504272461 0.24031007289886475 0.3632707893848419
-0.02325582504272461 0.24031007289886475 0.36627495288848877
-0.02325582504272461 0.25581395626068115 0.16773824393749237
-0.02325582504272461 0.25581395626068115 0.18736803531646729
-0.02325582504272461 0.25581395626068115 0.36261919140815735
-0.02325582504272461 0.25581395626068115 0.3664011061191559
-0.02325582504272461 0.27131783962249756 0.15986168384552002
-0.02325582504272461 0.27131780982017517 0.1940719485282898
-0.02325582504272461 0.27131783962249756 0.36114558577537537
-0.02325582318007946 0.27131783962249756 0.3661389648914337
-0.02325582504272461 0.28682172298431396 0.16169121861457825
-0.02325582504272461 0.28682172298431396 0.19687102735042572
-0.02325582504272461 0.28682172298431396 0.35608604550361633
-0.02325582318007946 0.2868216931819916 0.3657678961753845
-0.02325582504272461 0.30232560634613037 0.17616236209869385
-0.02325582504272461 0.302325576543808 0.27206942439079285
-0.02325582504272461 0.30232560634613037 0.3479881286621094
-0.02325582504272461 0.30232560634613037 0.36574938893318176
-0.02325582504272461 0.3178294897079468 0.18560707569122314
-0.02325582504272461 0.3178294897079468 0.27654245495796204
-0.02325582504272461 0.3178294897079468 0.34566372632980347
-0.02325582318007946 0.3178294897079468 0.3661144971847534
-0.02325582504272461 0.3333333730697632 0.19219648838043213
-0.02325582504272461 0.3333333730697632 0.2780424952507019
-0.02325582504272461 0.3333333730697632 0.3435356914997101
-0.02325582504272461 0.3333333730697632 0.36660662293434143
-0.02325582504272461 0.3488372564315796 0.19302786886692047
-0.02325582504272461 0.3488372564315796 0.2758933901786804
-0.02325582504272461 0.3488372564315796 0.3375098705291748
-0.02325582504272461 0.3488372564315796 0.3673709034919739
-0.02325582504272461 0.364341139793396 0.205637589097023
-0.02325582504272461 0.364341139793396 0.27305305004119873
-0.02325582504272461 0.364341139793396 0.33306023478507996
-0.02325582504272461 0.364341139793396 0.3684113621711731
-0.02325582504272461 0.37984490394592285 0.22106704115867615
-0.02325582504272461 0.37984490394592285 0.25984716415405273
-0.02325582504272461 0.37984490394592285 0.3350561857223511
-0.02325582504272461 0.37984490394592285 0.3698289394378662
-0.02325582504272461 0.39534878730773926 0.34558960795402527
-0.02325582504272461 0.39534878730773926 0.37223386764526367
-0.02325582504272461 0.41085267066955566 0.3556378483772278
-0.02325582504272461 0.41085267066955566 0.37986186146736145
-0.02325582504272461 0.42635655403137207 0.36232009530067444
-0.02325582504272461 0.42635655403137207 0.3813633918762207
-0.02325582318007946 0.4418604373931885 0.3689568340778351
-0.02325582504272461 0.4418604373931885 0.382783442735672
-0.02325582504272461 0.4573643207550049 0.3768979609012604
-0.02325582504272461 0.4573643207550049 0.38479870557785034
-0.02325582504272461 0.4728682041168213 0.378164678812027
-0.02325582504272461 0.4728682041168213 0.3938460648059845
-0.02325582504272461 0.4883720874786377 0.3790218234062195
-0.02325582504272461 0.4883720874786377 0.3981117904186249
-0.02325582504272461 0.5038759708404541 0.38649389147758484
-0.02325582504272461 0.5038759708404541 0.4018443822860718
-0.02325582504272461 0.5193798542022705 0.39086711406707764
-0.02325582504272461 0.5193798542022705 0.4123622179031372
-0.02325582504272461 0.5348837375640869 0.3922589421272278
-0.02325582504272461 0.5348837375640869 0.4155699610710144
-0.02325582504272461 0.5503876209259033 0.3929885923862457
-0.02325582504272461 0.5503876209259033 0.4240938723087311
-0.02325582504272461 0.5658915042877197 0.39355340600013733
-0.02325582504272461 0.5658915042877197 0.4294285178184509
-0.02325582504272461 0.5813953876495361 0.394272118806839
-0.02325582504272461 0.5813953876495361 0.4323098063468933
-0.02325582504272461 0.5968992710113525 0.3960782587528229
-0.02325582504272461 0.5968992710113525 0.4369964003562927
-0.02325582504272461 0.612403154373169 0.40519148111343384
-0.02325582318007946 0.612403154373169 0.44242411851882935
-0.02325582504272461 0.6279069185256958 0.40803262591362
-0.02325582504272461 0.6279069185256958 0.4440076947212219
-0.02325582504272461 0.6434108018875122 0.40908485651016235
-0.02325582504272461 0.6434108018875122 0.44564005732536316
-0.02325582504272461 0.6589146852493286 0.4101601541042328
-0.02325582504272461 0.6589146852493286 0.4476298689842224
-0.02325582504272461 0.674418568611145 0.4172578454017639
-0.02325582504272461 0.674418568611145 0.45118218660354614
-0.02325582504272461 0.6899224519729614 0.42183810472488403
-0.02325582504272461 0.6899225115776062 0.45793357491493225
-0.02325582504272461 0.7054263353347778 0.4237297773361206
-0.02325582504272461 0.7054263353347778 0.4592030644416809
-0.02325582504272461 0.7209302186965942 0.42495548725128174
-0.02325582504272461 0.7209302186965942 0.46037477254867554
-0.02325582504272461 0.7364341020584106 0.4260666072368622
-0.02325582504272461 0.7364341020584106 0.4616658091545105
-0.02325582504272461 0.751937985420227 0.42993664741516113
-0.02325582504272461 0.751937985420227 0.46261686086654663
-0.02325582504272461 0.7674418687820435 0.432553231716156
-0.02325582504272461 0.7674418687820435 0.4629072844982147
-0.02325582504272461 0.7829457521438599 0.4348621070384979
-0.02325582504272461 0.7829457521438599 0.46272721886634827
-0.02325582504272461 0.7984496355056763 0.436870813369751
-0.02325582504272461 0.7984496355056763 0.4622149169445038
-0.02325582504272461 0.8139535188674927 0.43841180205345154
-0.02325582504272461 0.8139535188674927 0.4616824984550476
-0.02325582504272461 0.8294574022293091 0.43938329815864563
-0.02325582504272461 0.8294574618339539 0.4612627923488617
-0.02325582504272461 0.8449612855911255 0.4402239918708801
-0.02325582504272461 0.8449612855911255 0.46098893880844116
-0.02325582504272461 0.8604651689529419 0.4408215880393982
-0.02325582504272461 0.8604651689529419 0.460673063993454
-0.02325582504272461 0.8759689331054688 0.4411695599555969
-0.02325582504272461 0.8759689331054688 0.46036863327026367
-0.02325582504272461 0.8914728164672852 0.4411221444606781
-0.02325582504272461 0.8914728164672852 0.4599631428718567
-0.02325582504272461 0.9069766998291016 0.44093310832977295
-0.02325582504272461 0.9069766998291016 0.4590693414211273
-0.02325582504272461 0.922480583190918 0.44070565700531006
-0.02325582504272461 0.922480583190918 0.45498645305633545
-0.02325582504272461 0.9379844665527344 0.4408998489379883
-0.02325582318007946 0.9379844665527344 0.44641679525375366
-0.007751941680908203 -0.9534883499145508 0.7626665830612183
-0.007751941680908203 -0.9534883499145508 0.772412896156311
-0.007751941680908203 -0.9379844665527344 0.7636440396308899
-0.007751941215246916 -0.9379844069480896 0.7853519320487976
-0.007751941680908203 -0.9224806427955627 0.7722221612930298
-0.007751941680908203 -0.922480583190918 0.787800669670105
-0.007751941680908203 -0.8759689927101135 0.7856601476669312
-0.007751941680908203 -0.8759689927101135 0.8002191185951233
-0.007751941680908203 -0.8604651093482971 0.7812297940254211
-0.007751941680908203 -0.8604651093482971 0.8273665904998779
-0.007751941680908203 -0.8449612259864807 0.7792888283729553
-0.007751941680908203 -0.8449611663818359 0.8518401384353638
-0.007751941680908203 -0.8294573426246643 0.7785241007804871
-0.007751941680908203 -0.8294573426246643 0.8441884517669678
-0.007751941680908203 -0.8139535188674927 0.7786252498626709
-0.007751941680908203 -0.8139535188674927 0.8348019123077393
-0.007751941680908203 -0.7984496355056763 0.7797338962554932
-0.00775194214656949 -0.798449695110321 0.8299856185913086
-0.007751941680908203 -0.7829457521438599 0.7794448733329773
-0.007751941680908203 -0.7829457521438599 0.8266056776046753
-0.00775194214656949 -0.7674418687820435 0.7734147310256958
-0.007751941680908203 -0.7674418687820435 0.8216394186019897
-0.007751941680908203 -0.751937985420227 0.7653834223747253
-0.007751941680908203 -0.751937985420227 0.8164510726928711
-0.007751941680908203 -0.7364341020584106 0.7605761289596558
-0.007751941680908203 -0.7364341020584106 0.8088671565055847
-0.007751941680908203 -0.7209302186965942 0.7548877000808716
-0.007751941680908203 -0.7209302186965942 0.8025537133216858
-0.007751941680908203 -0.7054263353347778 0.754767894744873
-0.007751941680908203 -0.7054263353347778 0.7935742735862732
-0.007751941680908203 -0.6899224519729614 0.757380485534668
-0.00775194214656949 -0.6899224519729614 0.7855693101882935
-0.007751941680908203 -0.674418568611145 0.7614238262176514
-0.007751941680908203 -0.674418568611145 0.7734198570251465
-0.007751941680908203 -0.6589146852493286 0.6834427714347839
-0.007751941680908203 -0.6589146852493286 0.7126659154891968
-0.007751941680908203 -0.643410861492157 0.6617969274520874
-0.007751941680908203 -0.643410861492157 0.7275261878967285
-0.007751941680908203 -0.6279069781303406 0.6525646448135376
-0.007751941680908203 -0.6279069781303406 0.7367716431617737
-0.00775194214656949 -0.6124030947685242 0.6449010968208313
-0.007751941680908203 -0.6124030947685242 0.7349898815155029
-0.007751941680908203 -0.5968992114067078 0.6433172821998596
-0.007751941680908203 -0.5968992114067078 0.7281806468963623
-0.007751941680908203 -0.5813953876495361 0.6492801904678345
-0.007751941680908203 -0.5813953876495361 0.7236615419387817
-0.007751941680908203 -0.5658915042877197 0.6530430316925049
-0.007751941680908203 -0.5658915042877197 0.7159556746482849
-0.007751941680908203 -0.5503876209259033 0.6566091775894165
-0.007751941680908203 -0.5503876209259033 0.7072618007659912
-0.007751941680908203 -0.5348837375640869 0.6651663780212402
-0.007751941680908203 -0.5348837375640869 0.6936355829238892
-0.007751941680908203 -0.5193798542022705 0.6107983589172363
-0.007751941680908203 -0.5193798542022705 0.6150493621826172
-0.007751941680908203 -0.5038759708404541 0.5942822694778442
-0.00775194214656949 -0.5038759708404541 0.6300610303878784
-0.007751941680908203 -0.4883720874786377 0.5813466906547546
-0.007751941680908203 -0.4883720874786377 0.6333965063095093
-0.007751941680908203 -0.4728682041168213 0.5753129720687866
-0.007751941680908203 -0.4728682041168213 0.6311960220336914
-0.007751941680908203 -0.4573643207550049 0.564336359500885
-0.007751941680908203 -0.4573643207550049 0.6301113963127136
-0.007751941680908203 -0.4418604373931885 0.5597594976425171
-0.007751941215246916 -0.4418604373931885 0.629212498664856
-0.007751941680908203 -0.42635661363601685 0.5593832731246948
-0.007751941680908203 -0.42635661363601685 0.6151571869850159
-0.007751941680908203 -0.41085273027420044 0.5189499855041504
-0.007751941680908203 -0.41085273027420044 0.5200115442276001
-0.007751941680908203 -0.39534884691238403 0.49433284997940063
-0.007751941680908203 -0.39534884691238403 0.5211629271507263
-0.007751941680908203 -0.3798449635505676 0.4812656342983246
-0.007751941680908203 -0.3798449635505676 0.5089712142944336
-0.007751941680908203 -0.3643410801887512 0.4689520299434662
-0.007751941680908203 -0.3643410801887512 0.49579060077667236
-0.007751941680908203 -0.3488371968269348 0.45621976256370544
-0.007751941680908203 -0.3488371968269348 0.48209017515182495
-0.007751941680908203 -0.3333333134651184 0.4469451606273651
-0.007751941680908203 -0.3333333134651184 0.47110071778297424
-0.007751941680908203 -0.317829430103302 0.4345601201057434
-0.007751941680908203 -0.317829430103302 0.4604944586753845
-0.007751941680908203 -0.30232560634613037 0.42314866185188293
-0.007751941680908203 -0.30232560634613037 0.44957995414733887
-0.007751941680908203 -0.28682172298431396 0.4106760025024414
-0.007751941680908203 -0.28682172298431396 0.44441846013069153
-0.007751941680908203 -0.27131783962249756 0.40408384799957275
-0.007751941680908203 -0.27131783962249756 0.43643537163734436
-0.007751941680908203 -0.25581395626068115 0.393838495016098
-0.007751941680908203 -0.25581395626068115 0.4300489127635956
-0.007751941680908203 -0.24031008780002594 0.3872753381729126
-0.007751941680908203 -0.24031007289886475 0.424544095993042
-0.007751941680908203 -0.22480618953704834 0.2683139443397522
-0.007751941680908203 -0.22480618953704834 0.3110736608505249
-0.007751941680908203 -0.22480618953704834 0.3763394355773926
-0.007751941680908203 -0.22480620443820953 0.4161297082901001
-0.007751941680908203 -0.20930230617523193 0.2399364709854126
-0.007751941680908203 -0.20930230617523193 0.31155842542648315
-0.007751941680908203 -0.20930230617523193 0.37292033433914185
-0.007751941680908203 -0.20930230617523193 0.41203397512435913
-0.007751941680908203 -0.19379842281341553 0.22193466126918793
-0.007751941680908203 -0.19379842281341553 0.3049747049808502
-0.00775194214656949 -0.19379842281341553 0.3718283176422119
-0.007751941680908203 -0.19379842281341553 0.403258740901947
-0.007751941680908203 -0.1782945990562439 0.20784662663936615
-0.007751941680908203 -0.1782945990562439 0.29278451204299927
-0.007751941680908203 -0.1782945990562439 0.3665319085121155
-0.007751941680908203 -0.1782945990562439 0.39838525652885437
-0.007751941680908203 -0.1627907156944275 0.23895983397960663
-0.007751941680908203 -0.1627907156944275 0.2736560106277466
-0.007751941680908203 -0.1627907156944275 0.3640739917755127
-0.007751941680908203 -0.1627907156944275 0.3958779573440552
-0.007751941680908203 -0.14728683233261108 0.36816802620887756
-0.007751941680908203 -0.14728683233261108 0.3896734118461609
-0.007751941680908203 -0.13178294897079468 0.37499290704727173
-0.007751941680908203 -0.13178294897079468 0.38611429929733276
-0.007751941680908203 -0.11627906560897827 0.37689775228500366
-0.007751941680908203 -0.11627906560897827 0.38427475094795227
-0.007751941680908203 -0.10077518224716187 0.3772011399269104
-0.007751941680908203 -0.10077518224716187 0.383380264043808
-0.007751941680908203 -0.08527129888534546 0.3764306902885437
-0.007751941680908203 -0.08527129888534546 0.3829271197319031
-0.007751941680908203 -0.06976741552352905 0.37344181537628174
-0.007751941680908203 -0.06976741552352905 0.3823540508747101
-0.007751941215246916 -0.05426359176635742 0.36797666549682617
-0.007751941680908203 -0.05426359176635742 0.38169437646865845
-0.007751941680908203 -0.038759708404541016 0.0908830314874649
-0.007751941680908203 -0.038759708404541016 0.23068025708198547
-0.007751941680908203 -0.038759708404541016 0.36641958355903625
-0.007751941215246916 -0.038759708404541016 0.3811548948287964
-0.007751941680908203 -0.02325582504272461 0.07776506245136261
-0.007751941680908203 -0.02325582690536976 0.2563355267047882
-0.007751941680908203 -0.02325582504272461 0.3708082437515259
-0.007751941680908203 -0.02325582504272461 0.3806605041027069
-0.007751941680908203 -0.007751941680908203 0.06567364931106567
-0.007751941215246916 -0.007751941215246916 0.25714781880378723
-0.007751941680908203 -0.007751941680908203 0.3756389915943146
-0.007751941680908203 -0.007751941680908203 0.3799968957901001
-0.007751941680908203 0.007751941680908203 0.05522754415869713
-0.007751941680908203 0.007751941680908203 0.2501896619796753
-0.007751941680908203 0.02325582504272461 0.05186951532959938
-0.007751941680908203 0.02325582318007946 0.24077686667442322
-0.007751941680908203 0.038759708404541016 0.04942182078957558
-0.007751941680908203 0.038759708404541016 0.2245432734489441
-0.007751941680908203 0.05426359176635742 0.04327864572405815
-0.007751941680908203 0.05426359176635742 0.14714579284191132
-0.007751941680908203 0.06976747512817383 0.033864520490169525
-0.007751941680908203 0.06976747512817383 0.12212040275335312
-0.007751941680908203 0.08527135848999023 0.022384338080883026
-0.007751941680908203 0.08527135848999023 0.11161933839321136
-0.007751941680908203 0.10077524185180664 0.022386131808161736
-0.007751941680908203 0.10077524185180664 0.10773169249296188
-0.007751941680908203 0.11627912521362305 0.03598271682858467
-0.007751941680908203 0.11627912521362305 0.11232157051563263
