-0.02325582504272461 -0.21967503428459167 0.5038759708404541
-0.02325582504272461 -0.19814932346343994 0.3333333730697632
-0.02325582504272461 -0.19402875006198883 0.3488372564315796
-0.02325582504272461 -0.19815859198570251 0.4418604373931885
-0.02325582504272461 -0.20753180980682373 0.4883720874786377
-0.02325582504272461 -0.2003110945224762 0.5348837375640869
-0.02325582504272461 -0.18444103002548218 0.06976747512817383
-0.02325582504272461 -0.18392688035964966 0.364341139793396
-0.02325582504272461 -0.17952600121498108 0.37984490394592285
-0.02325582504272461 -0.18216124176979065 0.42635655403137207
-0.02325582504272461 -0.16558735072612762 0.39534878730773926
-0.02325582504272461 -0.1692359447479248 0.5193798542022705
-0.02325582504272461 -0.14693941175937653 0.39534878730773926
-0.02325582504272461 -0.13869893550872803 0.4883720874786377
-0.02325582690536976 -0.14564906060695648 0.5038759708404541
-0.02325582504272461 -0.12483423203229904 0.05426359176635742
-0.02325582504272461 -0.13009877502918243 0.4728682041168213
-0.02325582504272461 -0.10219760239124298 0.39534878730773926
-0.02325582504272461 -0.1040249913930893 0.4573643207550049
-0.02325582504272461 -0.09444305300712585 0.41085267066955566
-0.02325582504272461 -0.07702232897281647 0.038759708404541016
-0.02325582504272461 -0.07265206426382065 0.4418604373931885
-0.02325582504272461 -0.059893157333135605 0.42635655403137207
-0.02325582504272461 -0.049804817885160446 0.02325582504272461
-0.02325582504272461 -0.045104388147592545 0.41085267066955566
-0.02325582504272461 -0.02552758902311325 0.39534878730773926
-0.02325582504272461 -0.022859347984194756 0.007751941680908203
-0.02325582504272461 -0.007474700454622507 0.37984493374824524
-0.02325582504272461 0.010512720793485641 0.364341139793396
-0.02325582504272461 0.03160834312438965 0.3488372564315796
-0.02325582504272461 0.056568313390016556 0.3333333730697632
-0.02325582504272461 0.08234256505966187 0.3178294897079468
-0.02325582504272461 0.1074063628911972 0.30232560634613037
-0.02325582504272461 0.13048169016838074 0.28682172298431396
-0.02325582504272461 0.1510118544101715 0.27131783962249756
-0.02325582504272461 0.1741214543581009 -0.007751941680908203
-0.02325582504272461 0.17110086977481842 0.25581395626068115
-0.02325582504272461 0.1944529265165329 0.24031008780002594
-0.02325582318007946 0.21383744478225708 -0.007751941680908203
-0.02325582504272461 0.2140474021434784 0.22480618953704834
-0.02325582504272461 0.23297308385372162 0.20930230617523193
-0.02325582504272461 0.25514137744903564 0.19379842281341553
-0.02325582504272461 0.2843509912490845 0.17829453945159912
-0.02325582504272461 0.3184764087200165 0.16279065608978271
-0.02325582504272461 0.34958207607269287 0.1472867727279663
-0.02325582504272461 0.37808525562286377 0.1317828893661499
-0.02325582504272461 0.40571123361587524 0.11627912521362305
-0.02325582504272461 0.41177111864089966 0.00775194214656949
-0.02325582504272461 0.43634355068206787 0.10077524185180664
-0.02325582504272461 0.4759991765022278 0.08527135848999023
-0.02325582504272461 0.4967641234397888 0.02325582504272461
-0.02325582504272461 0.5532209277153015 0.06976747512817383
-0.02325582504272461 0.6410906910896301 0.05426359176635742
-0.02325582504272461 0.6692047119140625 0.02325582504272461
-0.02325582504272461 0.7141133546829224 0.038759708404541016
-0.02325582504272461 0.7323676347732544 0.007751941680908203
-0.02325582504272461 0.7731874585151672 0.02325582504272461
-0.02325582504272461 0.7970572113990784 -0.007751941680908203
-0.02325582504272461 0.8214088678359985 0.00775194214656949
-0.02325582504272461 0.8534195423126221 -0.007751941680908203
-0.02325582504272461 0.9795361757278442 -0.11627906560897827
-0.02325582504272461 0.9768697023391724 -0.10077518224716187
-0.02325582504272461 0.9868906736373901 -0.11627905815839767
-0.02325582504272461 0.9855595231056213 -0.10077518224716187
-0.007751941680908203 -0.8974180221557617 0.6279069185256958
-0.007751941680908203 -0.8734638690948486 0.6434108018875122
-0.007751941680908203 -0.8571546673774719 0.6279069185256958
-0.007751941680908203 -0.847671389579773 0.6589146852493286
-0.007751941680908203 -0.839950442314148 0.6434108018875122
-0.007751941680908203 -0.8295597434043884 0.674418568611145
-0.007751941680908203 -0.8031353950500488 0.6899224519729614
-0.007751941680908203 -0.7906494140625 0.7054263353347778
-0.007751941680908203 -0.7597338557243347 0.6899224519729614
-0.007751941680908203 -0.759148120880127 0.7209302186965942
-0.007751941680908203 -0.7420841455459595 0.6589146852493286
-0.007751941215246916 -0.7512280941009521 0.7054262757301331
-0.007751941680908203 -0.7088252305984497 0.7364341020584106
-0.00775194214656949 -0.7050352692604065 0.7209302186965942
-0.007751941680908203 -0.6782625913619995 0.751937985420227
-0.007751941680908203 -0.6698608994483948 0.6899224519729614
-0.007751941680908203 -0.6594234108924866 0.7054263353347778
-0.007751941680908203 -0.6707092523574829 0.7209302186965942
-0.007751941680908203 -0.6290412545204163 0.674418568611145
-0.007751941680908203 -0.5914081335067749 0.674418568611145
-0.007751941680908203 -0.5373696088790894 0.7209302186965942
-0.007751941680908203 -0.5332908630371094 0.720930278301239
-0.007751941680908203 -0.5080885291099548 0.6589146852493286
-0.007751941680908203 -0.4959844946861267 0.751937985420227
-0.007751941680908203 -0.48389238119125366 0.7364340424537659
-0.007751941680908203 -0.4675471782684326 0.6434108018875122
-0.007751941680908203 -0.4675579071044922 0.7209302186965942
-0.007751941680908203 -0.4536723494529724 0.6279069185256958
-0.007751941680908203 -0.4544926881790161 0.7054263353347778
-0.00775194214656949 -0.4409625828266144 0.612403154373169
-0.007751941680908203 -0.4394232928752899 0.6899224519729614
-0.007751941680908203 -0.4126669466495514 0.5968992710113525
-0.007751941680908203 -0.41904282569885254 0.674418568611145
-0.007751941680908203 -0.3932993412017822 0.6589146852493286
-0.007751941680908203 -0.364350289106369 0.5813953876495361
-0.007751941680908203 -0.36821800470352173 0.6434108018875122
-0.007751941680908203 -0.34624600410461426 0.6279069185256958
-0.007751941680908203 -0.3226027488708496 0.5658915042877197
-0.007751941680908203 -0.32734405994415283 0.612403154373169
-0.007751941680908203 -0.3070005178451538 0.5968992710113525
-0.007751941680908203 -0.2939479947090149 0.5503876209259033
-0.007751941680908203 -0.28392282128334045 0.5813953876495361
-0.007751941680908203 -0.25637298822402954 0.10077524185180664
-0.007751941680908203 -0.2579823434352875 0.11627912521362305
-0.007751941680908203 -0.25870978832244873 0.1317828893661499
-0.007751941680908203 -0.25921928882598877 0.1472867727279663
-0.007751941680908203 -0.2600918412208557 0.16279065608978271
-0.007751941680908203 -0.2611020803451538 0.17829453945159912
-0.007751941680908203 -0.26192960143089294 0.19379842281341553
-0.007751941680908203 -0.2623443305492401 0.20930230617523193
-0.007751941680908203 -0.26178106665611267 0.22480618953704834
-0.007751941680908203 -0.2599180340766907 0.24031007289886475
-0.007751941680908203 -0.25634050369262695 0.25581395626068115
-0.007751941680908203 -0.270864337682724 0.5348837375640869
-0.007751941680908203 -0.2608431279659271 0.5658915042877197
-0.007751941680908203 -0.2425081580877304 0.08527135848999023
-0.007751941680908203 -0.24468082189559937 0.27131783962249756
-0.007751941680908203 -0.240875244140625 0.5193798542022705
-0.007751941680908203 -0.23348291218280792 0.28682172298431396
-0.00775194214656949 -0.23501522839069366 0.5503876209259033
-0.007751941680908203 -0.22179850935935974 0.30232560634613037
-0.007751941680908203 -0.2104000300168991 0.3178294897079468
-0.007751941680908203 -0.21613579988479614 0.5038759708404541
-0.007751941680908203 -0.19858890771865845 0.3333333730697632
-0.007751941680908203 -0.19407881796360016 0.3488372564315796
-0.007751941680908203 -0.19453155994415283 0.4418604373931885
-0.007751941680908203 -0.20182985067367554 0.4573643207550049
-0.007751941680908203 -0.2011963427066803 0.4728682041168213
-0.007751941680908203 -0.19760696589946747 0.4883720874786377
-0.007751941215246916 -0.20451238751411438 0.5348837375640869
-0.007751941680908203 -0.18606390058994293 0.06976747512817383
-0.007751941680908203 -0.1846858412027359 0.364341139793396
-0.007751941680908203 -0.18019138276576996 0.37984490394592285
-0.007751941680908203 -0.18010900914669037 0.42635655403137207
-0.007751941680908203 -0.17125575244426727 0.39534878730773926
-0.007751941680908203 -0.16362226009368896 0.41085267066955566
-0.007751941680908203 -0.17414703965187073 0.5193798542022705
-0.007751941680908203 -0.15733161568641663 0.41085267066955566
-0.007751941680908203 -0.15090703964233398 0.5038759708404541
-0.007751941680908203 -0.1360192894935608 0.39534878730773926
-0.007751941680908203 -0.14322224259376526 0.4883720874786377
-0.007751941680908203 -0.12623873353004456 0.05426359176635742
-0.007751941680908203 -0.1304895430803299 0.4728682041168213
-0.007751941680908203 -0.10617446899414062 0.4573643207550049
-0.007751941680908203 -0.09300914406776428 0.39534878730773926
-0.007751941680908203 -0.08544067293405533 0.41085267066955566
-0.007751941680908203 -0.07642575353384018 0.038759708404541016
-0.007751941680908203 -0.07039325684309006 0.42635655403137207
-0.007751941215246916 -0.08523392677307129 0.4418604373931885
-0.007751941680908203 -0.047961119562387466 0.02325582504272461
-0.007751941680908203 -0.053606510162353516 0.41085267066955566
-0.007751941680908203 -0.03037887066602707 0.39534878730773926
-0.007751941680908203 -0.019717205315828323 0.007751941680908203
-0.007751941680908203 -0.012103128246963024 0.37984490394592285
-0.007751941680908203 0.008021850138902664 0.364341139793396
-0.007751941680908203 0.028536997735500336 0.3488372564315796
-0.007751941680908203 0.05439405143260956 0.3333333730697632
-0.007751941680908203 0.07930557429790497 0.3178294897079468
-0.00775194214656949 0.10532976686954498 0.30232560634613037
-0.007751941680908203 0.1275831013917923 0.28682172298431396
-0.007751941680908203 0.14933523535728455 0.27131783962249756
-0.007751941680908203 0.17138512432575226 -0.007751941680908203
-0.007751941680908203 0.16827677190303802 0.25581395626068115
-0.007751941680908203 0.18930581212043762 0.24031007289886475
-0.007751941680908203 0.20242588222026825 -0.007751941680908203
-0.007751941215246916 0.21022792160511017 0.22480618953704834
-0.007751941680908203 0.22797130048274994 0.20930230617523193
-0.007751941680908203 0.2477329522371292 0.19379842281341553
-0.007751941680908203 0.27484214305877686 0.17829453945159912
-0.007751941680908203 0.3099910020828247 0.16279065608978271
-0.007751941680908203 0.3422352075576782 0.1472867727279663
-0.00775194214656949 0.37111184000968933 0.1317828893661499
-0.007751941680908203 0.4003834128379822 0.11627912521362305
-0.007751941680908203 0.41111743450164795 0.007751941680908203
-0.007751941680908203 0.4308678209781647 0.10077524185180664
-0.007751941680908203 0.4719609320163727 0.02325582504272461
-0.007751941680908203 0.46919888257980347 0.08527135848999023
-0.007751941215246916 0.550444483757019 0.06976747512817383
-0.007751941680908203 0.6386128664016724 0.05426359176635742
-0.007751941680908203 0.6790561676025391 0.02325582504272461
-0.007751941680908203 0.7182124853134155 0.038759708404541016
-0.007751941680908203 0.7357080578804016 0.007751941680908203
-0.007751941680908203 0.7748664617538452 0.02325582504272461
-0.007751941680908203 0.8199809789657593 -0.007751941680908203
-0.007751941680908203 0.8245739936828613 0.007751941680908203
-0.00775194214656949 0.8495328426361084 -0.00775194214656949
-0.007751941680908203 0.9687790870666504 -0.08527129888534546
-0.007751941680908203 0.9801708459854126 -0.11627906560897827
-0.007751941680908203 0.9786835312843323 -0.10077518224716187
-0.007751941680908203 0.9694916605949402 -0.08527129888534546
-0.007751941680908203 0.9868799448013306 -0.11627906560897827
-0.007751941680908203 0.986005425453186 -0.10077518224716187
0.007751941680908203 -0.8916957378387451 0.6279069185256958
0.007751941680908203 -0.8694075345993042 0.6434108018875122
0.007751941680908203 -0.8593842387199402 0.6279069185256958
0.00775194214656949 -0.8444409370422363 0.643410861492157
0.007751941680908203 -0.8192226886749268 0.674418568611145
0.007751941680908203 -0.7986207008361816 0.6899224519729614
0.007751941680908203 -0.7922594547271729 0.6589146852493286
0.007751941680908203 -0.7898292541503906 0.7054263353347778
0.007751941215246916 -0.7657471895217896 0.6899224519729614
0.007751941680908203 -0.7560416460037231 0.7054263353347778
0.007751941680908203 -0.758367657661438 0.7209302186965942
0.007751941680908203 -0.7490776181221008 0.6589146852493286
0.007751941680908203 -0.7393503189086914 0.674418568611145
0.007751941680908203 -0.7155243158340454 0.7209302186965942
0.007751941680908203 -0.7060461640357971 0.7364341020584106
0.007751941680908203 -0.6752976775169373 0.674418568611145
0.007751941680908203 -0.6779989004135132 0.751937985420227
0.007751941680908203 -0.6726198196411133 0.674418568611145
0.007751941680908203 -0.6611823439598083 0.7209302186965942
0.007751941680908203 -0.6477161645889282 0.6899224519729614
0.007751941680908203 -0.6475790739059448 0.7054263353347778
0.007751941680908203 -0.6375097036361694 0.6899224519729614
0.007751941680908203 -0.5788094997406006 0.7054262757301331
0.007751941680908203 -0.5589516162872314 0.674418568611145
0.007751941680908203 -0.555355966091156 0.6899224519729614
0.007751941680908203 -0.5574716329574585 0.7209302186965942
0.007751941680908203 -0.5274320244789124 0.7054263353347778
0.007751941680908203 -0.5177608728408813 0.720930278301239
0.007751941680908203 -0.5079347491264343 0.7364341020584106
0.007751941680908203 -0.49984681606292725 0.6589146852493286
0.00775194214656949 -0.5027338266372681 0.7364341020584106
0.007751941680908203 -0.4956963062286377 0.751937985420227
0.007751941680908203 -0.48622387647628784 0.7364341020584106
0.007751941680908203 -0.4645231366157532 0.6434108018875122
0.007751941680908203 -0.4675838351249695 0.7209302186965942
0.007751941215246916 -0.45091453194618225 0.6279069185256958
0.007751941680908203 -0.4542387127876282 0.7054263353347778
0.007751941680908203 -0.4379972815513611 0.612403154373169
0.00775194214656949 -0.43966713547706604 0.6899224519729614
0.00775194214656949 -0.42049717903137207 0.674418568611145
0.007751941680908203 -0.4101226329803467 0.5968992710113525
0.007751941680908203 -0.39452803134918213 0.6589146852493286
0.007751941680908203 -0.36931082606315613 0.6434108018875122
0.007751941680908203 -0.359965443611145 0.5813953876495361
0.007751941680908203 -0.3467887341976166 0.6279069185256958
0.007751941680908203 -0.3215673565864563 0.5658915042877197
0.007751941680908203 -0.32760798931121826 0.612403154373169
0.007751941680908203 -0.3071633279323578 0.5968992710113525
0.007751941680908203 -0.29330623149871826 0.5503876209259033
0.007751941680908203 -0.2840046286582947 0.5813953876495361
0.007751941680908203 -0.2561988830566406 0.10077524185180664
0.007751941680908203 -0.2577817142009735 0.11627912521362305
0.007751941680908203 -0.2584342956542969 0.1317828893661499
0.007751941680908203 -0.258890837430954 0.1472867727279663
0.007751941680908203 -0.2597796320915222 0.16279065608978271
0.007751941680908203 -0.2608063220977783 0.17829453945159912
0.007751941680908203 -0.2615520656108856 0.19379842281341553
0.007751941680908203 -0.2618277668952942 0.20930230617523193
0.007751941680908203 -0.2612363398075104 0.22480618953704834
0.007751941680908203 -0.2593495845794678 0.24031007289886475
0.007751941680908203 -0.2558797001838684 0.25581395626068115
0.007751941680908203 -0.2704241871833801 0.5348836779594421
0.007751941680908203 -0.2608002722263336 0.5658915042877197
0.007751941680908203 -0.2423766404390335 0.08527135848999023
0.007751941680908203 -0.2437553107738495 0.27131783962249756
0.007751941680908203 -0.24147212505340576 0.5193798542022705
0.007751941680908203 -0.23204797506332397 0.28682172298431396
0.007751941680908203 -0.23502609133720398 0.5503876209259033
0.007751941680908203 -0.22032010555267334 0.30232560634613037
0.007751941680908203 -0.21024072170257568 0.3178294897079468
0.007751941680908203 -0.2163686454296112 0.5038759708404541
0.007751941680908203 -0.19847609102725983 0.3333333730697632
0.007751941680908203 -0.19413405656814575 0.3488372564315796
0.007751941680908203 -0.19457457959651947 0.4418604373931885
0.007751941680908203 -0.20216679573059082 0.4573643207550049
0.007751941680908203 -0.20154525339603424 0.4728682041168213
0.007751941680908203 -0.19776007533073425 0.4883720874786377
0.007751941680908203 -0.2046268880367279 0.5348837375640869
0.007751941680908203 -0.18634125590324402 0.06976747512817383
0.007751941680908203 -0.18465673923492432 0.364341139793396
0.007751941680908203 -0.18007415533065796 0.37984490394592285
0.007751941680908203 -0.18005789816379547 0.42635655403137207
0.007751941680908203 -0.1700766235589981 0.39534878730773926
0.007751941680908203 -0.162849560379982 0.41085267066955566
0.007751941680908203 -0.17423075437545776 0.5193798542022705
0.007751941680908203 -0.16231244802474976 0.41085267066955566
0.007751941680908203 -0.1518038660287857 0.5038759708404541
0.007751941680908203 -0.13945472240447998 0.39534878730773926
0.007751941680908203 -0.1439024657011032 0.4883720874786377
0.007751941680908203 -0.12574639916419983 0.05426359176635742
0.007751941680908203 -0.12978562712669373 0.4728682041168213
0.007751941680908203 -0.10469560325145721 0.4573643207550049
0.007751941680908203 -0.09069564938545227 0.39534878730773926
0.007751941680908203 -0.08536180108785629 0.41085267066955566
0.007751941680908203 -0.07515139132738113 0.038759708404541016
0.007751941680908203 -0.0841577872633934 0.4418604373931885
0.007751941680908203 -0.06921650469303131 0.42635655403137207
0.007751941680908203 -0.04622676968574524 0.02325582504272461
0.007751941680908203 -0.05336179584264755 0.41085267066955566
0.007751941680908203 -0.0304378941655159 0.39534878730773926
0.007751941680908203 -0.016584740951657295 0.007751941680908203
0.007751941680908203 -0.012338513508439064 0.37984490394592285
0.007751941680908203 0.007777085527777672 0.364341139793396
0.007751941680908203 0.028266120702028275 0.3488372564315796
0.007751941680908203 0.05393153429031372 0.16279065608978271
0.007751941680908203 0.05282863974571228 0.17829453945159912
0.007751941680908203 0.05461679771542549 0.3333333730697632
0.007751941215246916 0.06998148560523987 0.16279065608978271
0.007751941680908203 0.07230439782142639 0.17829453945159912
0.007751941680908203 0.08000221848487854 0.3178294897079468
0.007751941680908203 0.10628306865692139 0.30232560634613037
0.007751941680908203 0.12899722158908844 0.28682172298431396
0.007751941215246916 0.15028619766235352 0.27131783962249756
0.007751941680908203 0.16940131783485413 0.25581395626068115
0.007751941680908203 0.19104094803333282 -0.007751941680908203
0.007751941680908203 0.19116723537445068 0.24031007289886475
0.007751941215246916 0.19460639357566833 -0.007751941215246916
0.007751941215246916 0.21117842197418213 0.22480618953704834
0.007751941680908203 0.22905689477920532 0.20930230617523193
0.007751941680908203 0.24936313927173615 0.19379842281341553
0.007751941680908203 0.27645203471183777 0.17829453945159912
0.007751941680908203 0.3116726875305176 0.16279065608978271
0.007751941680908203 0.34402042627334595 0.1472867727279663
0.007751941680908203 0.37198394536972046 0.1317828893661499
0.007751941680908203 0.4105307161808014 0.007751941680908203
0.007751941680908203 0.40079063177108765 0.11627912521362305
0.007751941680908203 0.43130889534950256 0.10077524185180664
0.007751941680908203 0.468589186668396 0.02325582504272461
0.007751941680908203 0.47047847509384155 0.08527135848999023
0.007751941680908203 0.5543037056922913 0.06976747512817383
0.007751941680908203 0.6438378095626831 0.05426359176635742
0.007751941680908203 0.6818212270736694 0.02325582504272461
0.007751941680908203 0.7362927794456482 0.007751941680908203
0.007751941680908203 0.7216483950614929 0.038759708404541016
0.007751941680908203 0.776050329208374 0.02325582504272461
0.007751941680908203 0.8284234404563904 -0.007751941680908203
0.007751941680908203 0.8253222107887268 0.007751941680908203
0.007751941680908203 0.8481802344322205 -0.007751941680908203
0.007751941680908203 0.9534248113632202 -0.06976741552352905
0.007751941680908203 0.9687257409095764 -0.08527129888534546
0.007751941680908203 0.9535558819770813 -0.06976741552352905
0.007751941680908203 0.9805638790130615 -0.11627906560897827
0.007751941680908203 0.9793715476989746 -0.10077518224716187
0.007751941680908203 0.9696168303489685 -0.08527129888534546
0.007751941680908203 0.9867693185806274 -0.11627907305955887
0.007751941680908203 0.9859745502471924 -0.10077518224716187
0.02325582504272461 -0.7711113691329956 0.674418568611145
0.02325582504272461 -0.7664355039596558 0.674418568611145
0.02325582504272461 -0.6752471923828125 0.7364341020584106
0.02325582504272461 -0.6668893098831177 0.751937985420227
0.02325582504272461 -0.6367577314376831 0.7209302186965942
0.02325582504272461 -0.5987727046012878 0.7209302186965942
0.02325582504272461 -0.5607361197471619 0.7364341020584106
0.02325582504272461 -0.5107828378677368 0.751937985420227
0.02325582504272461 -0.49017104506492615 0.674418568611145
0.02325582504272461 -0.4920922815799713 0.6899224519729614
0.02325582504272461 -0.49017050862312317 0.7054263353347778
0.02325582504272461 -0.4700133800506592 0.6589146852493286
0.02325582504272461 -0.46593979001045227 0.7054263353347778
0.02325582504272461 -0.44690126180648804 0.6279069185256958
0.02325582504272461 -0.4546591639518738 0.6434108018875122
0.02325582504272461 -0.45357438921928406 0.6899224519729614
0.02325582318007946 -0.43798303604125977 0.612403154373169
0.02325582504272461 -0.43795034289360046 0.674418568611145
0.02325582504272461 -0.4051373600959778 0.5968992710113525
0.02325582504272461 -0.40824419260025024 0.6589147448539734
0.02325582504272461 -0.37800008058547974 0.6434108018875122
0.02325582504272461 -0.35601815581321716 0.5813953876495361
0.02325582504272461 -0.3521396517753601 0.6279069185256958
0.02325582504272461 -0.323560506105423 0.5658915042877197
0.02325582690536976 -0.3302118182182312 0.612403154373169
0.02325582504272461 -0.3096622824668884 0.5968992710113525
0.02325582504272461 -0.29363715648651123 0.5503876209259033
0.02325582504272461 -0.28581106662750244 0.5813953876495361
0.02325582504272461 -0.25641947984695435 0.10077524185180664
0.02325582504272461 -0.25826379656791687 0.11627912521362305
0.02325582504272461 -0.25897565484046936 0.1317828893661499
0.02325582504272461 -0.259412556886673 0.1472867727279663
0.02325582504272461 -0.26019415259361267 0.16279065608978271
0.02325582504272461 -0.26110920310020447 0.17829453945159912
0.02325582504272461 -0.26185131072998047 0.19379842281341553
0.02325582504272461 -0.26206591725349426 0.20930230617523193
0.02325582504272461 -0.26115143299102783 0.22480618953704834
0.02325582504272461 -0.2586571276187897 0.24031007289886475
0.02325582504272461 -0.2695233225822449 0.5348837375640869
0.02325582504272461 -0.26214513182640076 0.5658915042877197
0.02325582504272461 -0.24224214255809784 0.08527135848999023
0.02325582504272461 -0.2542314827442169 0.25581395626068115
0.02325582504272461 -0.24315965175628662 0.27131783962249756
0.02325582504272461 -0.24109530448913574 0.5193798542022705
0.02325582504272461 -0.23135797679424286 0.28682172298431396
0.02325582504272461 -0.2350166141986847 0.5503876209259033
0.02325582504272461 -0.21861696243286133 0.30232560634613037
0.02325582504272461 -0.2098054140806198 0.3178294897079468
0.02325582504272461 -0.21106892824172974 0.4573643207550049
0.02325582504272461 -0.21089142560958862 0.4728682041168213
0.02325582504272461 -0.2178705930709839 0.5038759708404541
0.02325582504272461 -0.19792011380195618 0.3333333730697632
0.02325582504272461 -0.1941050887107849 0.3488372564315796
0.02325582504272461 -0.19780373573303223 0.4418604373931885
0.02325582504272461 -0.20443470776081085 0.4883720874786377
0.02325582504272461 -0.2026800811290741 0.5348837375640869
0.02325582504272461 -0.1815311461687088 0.06976747512817383
0.02325582504272461 -0.18394681811332703 0.364341139793396
0.02325582504272461 -0.17949970066547394 0.37984490394592285
0.02325582504272461 -0.18182314932346344 0.42635655403137207
0.02325582504272461 -0.16491353511810303 0.39534878730773926
0.02325582504272461 -0.17136581242084503 0.5193798542022705
0.02325582504272461 -0.15236961841583252 0.39534878730773926
0.02325582504272461 -0.14926350116729736 0.5038759708404541
0.02325582504272461 -0.13483554124832153 0.4728682041168213
0.02325582504272461 -0.14395616948604584 0.4883720874786377
0.02325582504272461 -0.12081949412822723 0.05426359176635742
0.02325582504272461 -0.10735255479812622 0.4573643207550049
0.02325582504272461 -0.0968463271856308 0.39534878730773926
0.02325582504272461 -0.09052468836307526 0.41085267066955566
0.02325582504272461 -0.07371405512094498 0.038759708404541016
0.02325582504272461 -0.07618818432092667 0.4418604373931885
0.02325582504272461 -0.06190554425120354 0.42635655403137207
0.02325582504272461 -0.045182596892118454 0.02325582504272461
0.02325582504272461 -0.046660616993904114 0.41085267066955566
0.02325582504272461 -0.0271669402718544 0.39534878730773926
0.02325582504272461 -0.014938045293092728 0.007751941680908203
0.02325582504272461 -0.008897598832845688 0.37984490394592285
0.02325582504272461 0.009307334199547768 0.364341139793396
0.02325582504272461 0.030452009290456772 0.3488372564315796
0.02325582504272461 0.05183720588684082 0.1317828893661499
0.02325582504272461 0.043395280838012695 0.1472867727279663
0.02325582504272461 0.03950813412666321 0.1627906709909439
0.02325582504272461 0.040783170610666275 0.17829455435276031
0.02325582504272461 0.04686746746301651 0.19379842281341553
0.02325582504272461 0.059459149837493896 0.20930230617523193
0.02325582504272461 0.05652926117181778 0.3333333730697632
0.02325582504272461 0.07204722613096237 0.1317828893661499
0.02325582504272461 0.08260247111320496 0.1472867727279663
0.02325582504272461 0.0817282497882843 0.19379842281341553
0.02325582318007946 0.07141663134098053 0.20930229127407074
0.02325582504272461 0.08382699638605118 0.3178294897079468
0.02325582504272461 0.08799030631780624 0.16279065608978271
0.02325582504272461 0.08780529350042343 0.17829452455043793
0.02325582504272461 0.10957257449626923 0.30232560634613037
0.02325582504272461 0.13321687281131744 0.28682172298431396
0.02325582504272461 0.15358704328536987 0.27131783962249756
0.02325582504272461 0.1742793619632721 0.25581395626068115
0.02325582504272461 0.19671693444252014 0.24031007289886475
0.02325582504272461 0.21687620878219604 0.22480618953704834
0.02325582504272461 0.2368025928735733 0.20930230617523193
0.02325582504272461 0.2587137520313263 0.19379842281341553
0.02325582504272461 0.2893903851509094 0.17829453945159912
0.02325582504272461 0.32235878705978394 0.16279065608978271
0.02325582504272461 0.35265690088272095 0.1472867727279663
0.02325582504272461 0.38072308897972107 0.1317828893661499
0.02325582504272461 0.40590348839759827 0.007751941680908203
0.02325582504272461 0.4075849652290344 0.11627912521362305
0.02325582504272461 0.4378429651260376 0.10077524185180664
0.02325582504272461 0.47594624757766724 0.02325582504272461
0.02325582504272461 0.478228896856308 0.08527135848999023
0.02325582504272461 0.5612002611160278 0.06976747512817383
0.02325582504272461 0.6501821875572205 0.05426359176635742
0.02325582504272461 0.6798361539840698 0.02325582504272461
0.02325582504272461 0.7181970477104187 0.038759708404541016
0.02325582504272461 0.7360753417015076 0.007751941680908203
0.02325582504272461 0.7735127210617065 0.02325582504272461
0.02325582504272461 0.8045762181282043 -0.007751941680908203
0.02325582504272461 0.8235224485397339 0.007751941680908203
0.02325582504272461 0.8502975702285767 -0.007751941680908203
0.02325582504272461 0.9808297753334045 -0.11627906560897827
0.02325582504272461 0.9798568487167358 -0.10077518224716187
0.02325582504272461 0.9865739345550537 -0.11627906560897827
0.02325582318007946 0.9853954315185547 -0.10077518224716187
0.038759708404541016 -0.4425683915615082 0.6279069185256958
0.038759708404541016 -0.4398735463619232 0.612403154373169
0.038759708404541016 -0.4032214283943176 0.6279069185256958
0.038759708404541016 -0.3819897174835205 0.5968992710113525
0.038759708404541016 -0.3671783208847046 0.612403154373169
0.038759708404541016 -0.3517343997955322 0.5813953876495361
0.038759708404541016 -0.3361983299255371 0.5968992710113525
0.038759708404541016 -0.3199487328529358 0.5658915042877197
0.038759708404541016 -0.3118465840816498 0.5813953876495361
0.038759708404541016 -0.2910301685333252 0.5503876209259033
0.038759708404541016 -0.28217095136642456 0.5658915042877197
0.038759708404541016 -0.2560851275920868 0.10077524185180664
0.038759708404541016 -0.2582247257232666 0.11627912521362305
0.038759708404541016 -0.2590498924255371 0.1317828893661499
0.038759708404541016 -0.2595115303993225 0.1472867727279663
0.038759708404541016 -0.2602277100086212 0.16279065608978271
0.038759708404541016 -0.26098060607910156 0.17829453945159912
0.038759708404541016 -0.2614748477935791 0.19379842281341553
0.038759708404541016 -0.26125216484069824 0.20930230617523193
0.038759708404541016 -0.25978368520736694 0.22480618953704834
0.038759708404541016 -0.2572599947452545 0.24031007289886475
0.038759708404541016 -0.2597290873527527 0.5348837375640869
0.038759708404541016 -0.24086661636829376 0.08527135848999023
0.038759708404541016 -0.25177469849586487 0.25581395626068115
0.038759708404541016 -0.24282506108283997 0.27131783962249756
0.038759708404541016 -0.25253650546073914 0.5503876209259033
0.038759708404541016 -0.2316398024559021 0.28682172298431396
0.038759708404541016 -0.22670342028141022 0.5193798542022705
0.038759708404541016 -0.2177167534828186 0.30232560634613037
0.038759708404541016 -0.21320202946662903 0.4573643207550049
0.038759708404541016 -0.21349488198757172 0.4728682041168213
0.038759708404541016 -0.209307000041008 0.4883720874786377
0.038759708404541016 -0.21276605129241943 0.5038759708404541
0.038759708404541016 -0.22179614007472992 0.5348837375640869
0.038759708404541016 -0.20843550562858582 0.3178294897079468
0.038759708404541016 -0.19670313596725464 0.3333333730697632
0.038759708404541016 -0.20104742050170898 0.4418604373931885
0.038759708404541016 -0.19098100066184998 0.3488372564315796
0.038759708404541016 -0.18149718642234802 0.364341139793396
0.038759708404541016 -0.1817249357700348 0.42635655403137207
0.038759708404541016 -0.18187737464904785 0.5193798542022705
0.038759708404541016 -0.1716509461402893 0.06976747512817383
0.038759708404541016 -0.17449888586997986 0.37984490394592285
0.038759708404541016 -0.15133734047412872 0.4728682041168213
0.038759708404541016 -0.16062591969966888 0.4883720874786377
0.038759708404541016 -0.1605667620897293 0.5038759708404541
0.038759708404541016 -0.12203367054462433 0.1317828893661499
0.038759708404541016 -0.12230324000120163 0.1472867727279663
0.038759708404541016 -0.11927445232868195 0.16279065608978271
0.038759708404541016 -0.12989389896392822 0.42635655403137207
0.038759708404541016 -0.12486527115106583 0.4573643207550049
0.038759708404541016 -0.11401625722646713 0.05426359176635742
0.038759708404541016 -0.10102511942386627 0.39534878730773926
0.038759708404541016 -0.10725754499435425 0.42635655403137207
0.038759708404541016 -0.09945834428071976 0.1317828893661499
0.038759708404541016 -0.09697718173265457 0.1472867727279663
0.03875970467925072 -0.09787441045045853 0.16279064118862152
0.038759708404541016 -0.09064973890781403 0.41085267066955566
0.038759708404541016 -0.07283882051706314 0.038759708404541016
0.038759708404541016 -0.0555003322660923 0.42635655403137207
0.038759708404541016 -0.06816685199737549 0.4418604373931885
0.038759708404541016 -0.044786237180233 0.02325582504272461
0.038759708404541016 -0.04238848388195038 0.41085267066955566
0.038759708404541016 -0.02394348569214344 0.39534878730773926
0.038759708404541016 -0.014873024076223373 0.007751941680908203
0.038759712129831314 -0.006876174360513687 0.37984493374824524
0.038759708404541016 0.011206444352865219 0.364341139793396
0.038759708404541016 0.03731340914964676 0.1317828893661499
0.038759708404541016 0.031718283891677856 0.1472867727279663
0.038759708404541016 0.030110640451312065 0.16279065608978271
0.038759708404541016 0.031737152487039566 0.17829453945159912
0.038759708404541016 0.03701379522681236 0.19379842281341553
0.038759708404541016 0.032903045415878296 0.3488372564315796
0.038759708404541016 0.04972861707210541 0.11627912521362305
0.038759708404541016 0.0454438179731369 0.20930230617523193
0.038759708404541016 0.0540800504386425 0.22480618953704834
0.038759708404541016 0.057698220014572144 0.3333333730697632
0.038759708404541016 0.07705237716436386 0.11627912521362305
0.038759708404541016 0.07466486096382141 0.22480618953704834
0.038759708404541016 0.08992534130811691 0.1317828893661499
0.038759708404541016 0.09671938419342041 0.1472867727279663
0.038759708404541016 0.09470969438552856 0.19379842281341553
0.03875970467925072 0.08762098103761673 0.20930229127407074
0.038759708404541016 0.08581282943487167 0.3178294897079468
0.038759712129831314 0.10150523483753204 0.16279065608978271
0.038759708404541016 0.10086767375469208 0.17829453945159912
0.038759708404541016 0.11223501712083817 0.30232560634613037
0.038759708404541016 0.13555985689163208 0.28682172298431396
0.038759708404541016 0.1569269746541977 0.27131783962249756
0.038759708404541016 0.17939239740371704 0.25581395626068115
0.038759708404541016 0.20170100033283234 0.24031007289886475
0.038759708404541016 0.2224755883216858 0.22480618953704834
0.038759708404541016 0.2472958266735077 0.11627912521362305
0.038759708404541016 0.2439083307981491 0.1317828893661499
0.038759708404541016 0.2445095181465149 0.1472867727279663
0.038759708404541016 0.25380122661590576 0.16279065608978271
0.038759708404541016 0.2412811517715454 0.20930230617523193
0.038759708404541016 0.2693279981613159 0.11627912521362305
0.038759708404541016 0.26709088683128357 0.1317828893661499
0.038759708404541016 0.2635384202003479 0.1472867727279663
0.038759708404541016 0.2572604715824127 0.16279065608978271
0.038759708404541016 0.2584318220615387 0.19379842281341553
0.038759708404541016 0.29239147901535034 0.17829453945159912
0.038759708404541016 0.3295750916004181 0.16279065608978271
0.038759708404541016 0.35832881927490234 0.1472867727279663
0.038759708404541016 0.39165303111076355 0.007751941680908203
0.038759708404541016 0.3830448389053345 0.1317828893661499
0.038759708404541016 0.4072374105453491 0.11627912521362305
0.038759708404541016 0.43087971210479736 0.10077524185180664
0.038759708404541016 0.4662993252277374 0.02325582504272461
0.038759708404541016 0.4628589153289795 0.08527135848999023
0.038759708404541016 0.5691654682159424 0.06976747512817383
0.038759708404541016 0.6563408970832825 0.05426359176635742
0.038759708404541016 0.6982797384262085 0.02325582504272461
0.038759708404541016 0.7169434428215027 0.038759708404541016
0.038759708404541016 0.7512727975845337 0.007751941680908203
0.038759708404541016 0.7691961526870728 0.02325582504272461
0.038759708404541016 0.8113752603530884 -0.007751941680908203
0.038759708404541016 0.8183978199958801 0.007751941680908203
0.038759708404541016 0.831855297088623 -0.007751941680908203
0.05426359176635742 -0.2575310170650482 0.11627912521362305
0.05426359176635742 -0.2583056688308716 0.1317828893661499
0.05426359176635742 -0.258647620677948 0.1472867727279663
0.05426359176635742 -0.2591691017150879 0.16279065608978271
0.05426359176635742 -0.25952818989753723 0.17829453945159912
0.05426359176635742 -0.259344220161438 0.19379842281341553
0.05426359176635742 -0.25841984152793884 0.20930230617523193
0.05426359176635742 -0.25694796442985535 0.22480618953704834
0.05426359176635742 -0.2515302896499634 0.10077524185180664
0.05426359176635742 -0.2536409795284271 0.24031007289886475
0.05426359176635742 -0.24705365300178528 0.25581395626068115
0.05426359176635742 -0.24123796820640564 0.27131783962249756
0.05426359176635742 -0.22867774963378906 0.08527135848999023
0.05426359176635742 -0.2306155562400818 0.28682172298431396
0.05426359176635742 -0.2164997160434723 0.30232560634613037
0.05426359176635742 -0.21078766882419586 0.4573643207550049
0.05426359176635742 -0.20934142172336578 0.4728682041168213
0.05426359549164772 -0.2037343829870224 0.3178294897079468
0.05426359176635742 -0.19483527541160583 0.3333333730697632
0.05426359176635742 -0.1969299018383026 0.4418604373931885
0.05426359176635742 -0.18298345804214478 0.3488372564315796
0.05426359176635742 -0.1925821304321289 0.4728681743144989
0.05426359176635742 -0.17336589097976685 0.364341139793396
0.05426359176635742 -0.16101960837841034 0.06976747512817383
0.05426359176635742 -0.15158890187740326 0.4418604373931885
0.05426359176635742 -0.15616166591644287 0.4573643207550049
0.05426359176635742 -0.11836422234773636 0.1317828893661499
0.05426359176635742 -0.12002816051244736 0.1472867727279663
0.05426359176635742 -0.11779603362083435 0.16279065608978271
0.05426359176635742 -0.10729392617940903 0.05426359176635742
0.05426359176635742 -0.1086498349905014 0.1317828893661499
0.05426359176635742 -0.10722054541110992 0.37984490394592285
0.05426359176635742 -0.0997999757528305 0.1472867727279663
0.05426359176635742 -0.10054893791675568 0.16279065608978271
0.05426359176635742 -0.09087760746479034 0.39534878730773926
0.05426359176635742 -0.09180493652820587 0.42635655403137207
0.05426359176635742 -0.09581127762794495 0.4418604373931885
0.05426359176635742 -0.0714230164885521 0.038759708404541016
0.05426359176635742 -0.08247511833906174 0.41085267066955566
0.05426359176635742 -0.05516689643263817 0.42635655403137207
0.05426359549164772 -0.06781192868947983 0.4418604373931885
0.05426359176635742 -0.04402501508593559 0.02325582504272461
0.05426359176635742 -0.04234550893306732 0.41085267066955566
0.05426359176635742 -0.01569722220301628 0.007751941215246916
0.05426359176635742 -0.022475695237517357 0.39534878730773926
0.05426359176635742 0.003162182169035077 -0.7674418687820435
0.05426359176635742 -0.005441226996481419 0.37984490394592285
0.05426359176635742 0.013068551197648048 0.364341139793396
0.05426359176635742 0.02570156939327717 -0.007751941680908203
0.05426359176635742 0.03393596038222313 0.1472867727279663
0.05426359176635742 0.03235466033220291 0.16279065608978271
0.05426359176635742 0.03464652597904205 0.17829453945159912
0.05426359176635742 0.03519509732723236 0.3488372564315796
0.05426359176635742 0.051546622067689896 -0.7674418687820435
0.05426359176635742 0.04056256264448166 -0.02325582504272461
0.05426359176635742 0.05423504859209061 0.11627912521362305
0.05426359176635742 0.040612559765577316 0.1317828893661499
0.05426359176635742 0.04167728126049042 0.19379842281341553
0.05426359176635742 0.050511013716459274 0.20930230617523193
0.05426359176635742 0.06648459285497665 0.22480618953704834
0.05426359176635742 0.0596730038523674 0.3333333730697632
0.05426359176635742 0.07409627735614777 -0.02325582504272461
0.05426359176635742 0.07428579777479172 0.11627912521362305
0.05426359176635742 0.07145274430513382 0.22480617463588715
0.05426359176635742 0.0935468003153801 -0.007751941680908203
0.05426359176635742 0.08991748094558716 0.1317828893661499
0.05426359176635742 0.09781017899513245 0.1472867727279663
0.05426359176635742 0.09724020957946777 0.19379842281341553
0.05426359549164772 0.08819271624088287 0.20930230617523193
0.05426359176635742 0.08763764798641205 0.3178294897079468
0.05426359176635742 0.10354217886924744 0.16279065608978271
0.05426359176635742 0.10383156687021255 0.17829453945159912
0.05426359176635742 0.11510971188545227 0.30232560634613037
0.05426359176635742 0.13720941543579102 0.28682172298431396
0.05426359176635742 0.16032683849334717 0.27131783962249756
0.05426359176635742 0.18180352449417114 0.25581395626068115
0.05426359176635742 0.20663416385650635 0.24031007289886475
0.05426359176635742 0.22362437844276428 0.1317828893661499
0.05426359176635742 0.21924865245819092 0.1472867727279663
0.05426359176635742 0.21930812299251556 0.16279065608978271
0.05426359176635742 0.2371561974287033 0.10077524185180664
0.05426359176635742 0.229087695479393 0.11627912521362305
0.05426359176635742 0.22733783721923828 0.17829453945159912
0.05426359176635742 0.2384779453277588 0.19379842281341553
0.05426359176635742 0.23850248754024506 0.20930230617523193
0.05426359176635742 0.22613883018493652 0.22480618953704834
0.05426359176635742 0.2474600374698639 0.08527135848999023
0.05426359176635742 0.2902456521987915 0.08527135848999023
0.05426359176635742 0.29429394006729126 0.10077524185180664
0.05426359176635742 0.2958363890647888 0.11627912521362305
0.05426359176635742 0.2955086827278137 0.1317828893661499
0.05426359176635742 0.2963966727256775 0.1472867727279663
0.05426359176635742 0.30974724888801575 0.16279065608978271
0.05426359176635742 0.3183162212371826 0.16279065608978271
0.05426359176635742 0.3637191951274872 0.007751941680908203
0.05426359176635742 0.35301780700683594 0.1472867727279663
0.05426359176635742 0.3746646046638489 0.1317828893661499
0.05426359176635742 0.3938989043235779 0.11627912521362305
0.05426359176635742 0.405494749546051 0.08527135848999023
0.05426359176635742 0.40202057361602783 0.10077524185180664
0.05426359176635742 0.4561106264591217 0.02325582504272461
0.05426359549164772 0.5230344533920288 0.02325582504272461
0.05426359176635742 0.5575841665267944 0.02325582504272461
0.05426359176635742 0.5555444359779358 0.06976747512817383
0.05426359176635742 0.6212233304977417 0.038759708404541016
0.05426359176635742 0.6230587363243103 0.05426359176635742
0.06976747512817383 -0.2559354901313782 0.1317828893661499
0.06976747512817383 -0.24556630849838257 0.10077524185180664
0.06976747512817383 -0.25459611415863037 0.11627912521362305
0.06976747512817383 -0.25533923506736755 0.1472867727279663
0.06976747512817383 -0.25453224778175354 0.1627906709909439
0.06976747512817383 -0.2531842589378357 0.17829453945159912
0.06976747512817383 -0.25109633803367615 0.19379842281341553
0.06976747512817383 -0.2480306327342987 0.20930230617523193
0.06976747512817383 -0.2437303364276886 0.22480618953704834
0.06976747512817383 -0.23949719965457916 0.24031007289886475
0.06976747512817383 -0.23006799817085266 0.25581395626068115
0.06976747512817383 -0.22094061970710754 0.27131783962249756
0.06976747512817383 -0.21004441380500793 0.28682172298431396
0.06976747512817383 -0.1986376941204071 0.08527135848999023
0.06976747512817383 -0.197430819272995 0.30232560634613037
0.06976747512817383 -0.18262052536010742 0.3178294897079468
0.06976747512817383 -0.14781875908374786 0.06976747512817383
0.06976747512817383 -0.15813271701335907 0.3333333730697632
0.06976747512817383 -0.10124534368515015 0.05426359176635742
0.06976746767759323 -0.11603205651044846 0.3488372266292572
0.06976747512817383 -0.097624272108078 0.364341139793396
0.06976747512817383 -0.08560140430927277 0.37984490394592285
0.06976747512817383 -0.0705360397696495 0.39534878730773926
0.06976747512817383 -0.07167291641235352 0.42635655403137207
0.06976747512817383 -0.06591629236936569 0.038759708404541016
0.06976747512817383 -0.06796422600746155 0.42635655403137207
0.06976747512817383 -0.04073553904891014 0.02325582504272461
0.06976747512817383 -0.02838027849793434 0.39534878730773926
0.06976747512817383 -0.01333480142056942 0.007751941680908203
0.06976747512817383 -0.00632521091029048 0.37984490394592285
0.06976747512817383 0.017342692241072655 -0.7674418687820435
0.06976747512817383 0.01763949729502201 -0.038759708404541016
0.06976747512817383 0.014199009165167809 -0.02325582504272461
0.06976747512817383 0.014491172507405281 -0.007751941680908203
0.06976747512817383 0.013160108588635921 0.364341139793396
0.06976747512817383 0.036414600908756256 0.3488372564315796
0.06976747512817383 0.04649237543344498 -0.05426359176635742
0.06976747512817383 0.058439984917640686 -0.7674418687820435
0.06976747512817383 0.05836670100688934 0.16279065608978271
0.06976747512817383 0.062125638127326965 0.3333333730697632
0.06976747512817383 0.07506833970546722 0.16279065608978271
0.06976747512817383 0.0954221561551094 -0.06976741552352905
0.06976747512817383 0.0896262377500534 0.3178294897079468
0.06976747512817383 0.11539658159017563 -0.10077518224716187
0.06976747512817383 0.1108359694480896 -0.08527129888534546
0.06976747512817383 0.127665176987648 -0.13178294897079468
0.06976747512817383 0.11931775510311127 -0.11627906560897827
0.06976747512817383 0.11703217029571533 0.30232560634613037
0.06976747512817383 0.13681185245513916 -0.14728683233261108
0.06976747512817383 0.13918688893318176 0.28682172298431396
0.06976747512817383 0.15164080262184143 -0.14728683233261108
0.06976747512817383 0.16137520968914032 -0.13178294897079468
0.06976747512817383 0.1546173393726349 -0.02325582504272461
0.06976747512817383 0.14927785098552704 -0.007751941680908203
0.06976747512817383 0.16316944360733032 -0.11627905815839767
0.06976747512817383 0.16337724030017853 -0.10077518224716187
0.06976747512817383 0.1634473204612732 -0.08527129888534546
0.06976747512817383 0.16341286897659302 -0.06976741552352905
0.06976747512817383 0.1634524166584015 -0.05426359176635742
0.06976747512817383 0.16308090090751648 -0.038759708404541016
0.06976747512817383 0.16307324171066284 0.27131783962249756
0.06976747512817383 0.18519063293933868 0.25581395626068115
0.06976747512817383 0.2118663191795349 0.24031007289886475
0.06976747512817383 0.2360486388206482 0.1317828893661499
0.06976747512817383 0.23193377256393433 0.1472867727279663
0.06976747512817383 0.2345152199268341 0.16279065608978271
0.06976747512817383 0.23175135254859924 0.22480618953704834
0.06976747512817383 0.24553491175174713 0.11627912521362305
0.06976747512817383 0.24432384967803955 0.17829453945159912
0.06976747512817383 0.2530960142612457 0.19379842281341553
0.06976747512817383 0.2472490668296814 0.20930230617523193
0.06976747512817383 0.2581368684768677 0.007751941680908203
0.06976747512817383 0.2805901765823364 0.11627912521362305
0.06976747512817383 0.2879869341850281 0.1317828893661499
0.06976747512817383 0.29508286714553833 0.1472867727279663
0.06976747512817383 0.3393649458885193 0.1472867727279663
0.06976747512817383 0.3651280105113983 0.1317828893661499
0.06976747512817383 0.38213926553726196 0.11627912521362305
0.06976747512817383 0.40412700176239014 0.08527135848999023
0.06976747512817383 0.396000474691391 0.10077524185180664
0.06976747512817383 0.44861602783203125 0.02325582504272461
0.06976747512817383 0.4859132170677185 0.06976747512817383
0.06976747512817383 0.5148336887359619 0.02325582504272461
0.06976747512817383 0.5686195492744446 0.02325582504272461
0.06976747512817383 0.5763211250305176 0.05426359176635742
0.06976747512817383 0.5816550254821777 0.038759708404541016
0.08527135848999023 -0.2274947613477707 0.10077524185180664
0.08527135848999023 -0.22902464866638184 0.11627912521362305
0.08527135848999023 -0.22574318945407867 0.1317828893661499
0.08527135848999023 -0.22113139927387238 0.1472867727279663
0.08527135848999023 -0.21751633286476135 0.16279065608978271
0.08527135848999023 -0.21197707951068878 0.17829453945159912
0.08527135848999023 -0.206008642911911 0.19379842281341553
0.08527135848999023 -0.20044879615306854 0.20930230617523193
0.08527135848999023 -0.19526880979537964 0.22480618953704834
0.08527135848999023 -0.18189257383346558 0.08527135848999023
0.08527135848999023 -0.19006353616714478 0.24031005799770355
0.08527135848999023 -0.18181690573692322 0.25581395626068115
0.08527135848999023 -0.17175981402397156 0.27131783962249756
0.08527135848999023 -0.156746506690979 0.28682172298431396
