0.11106196790933609 0.06976747512817383 -0.14728683233261108
0.1122322529554367 0.06976747512817383 -0.13178294897079468
0.1076498031616211 0.06976747512817383 -0.11627906560897827
0.10407654941082001 0.06976747512817383 -0.10077518224716187
0.11404992640018463 0.06976747512817383 0.05426359176635742
0.10393034666776657 0.08527135848999023 -0.1627907156944275
0.10572806000709534 0.08527135848999023 -0.14728683233261108
0.10516360402107239 0.08527135848999023 -0.13178294897079468
0.1041126400232315 0.08527135848999023 -0.11627907305955887
0.10356765985488892 0.08527135848999023 -0.10077518224716187
0.10206843167543411 0.08527135103940964 -0.08527129888534546
0.11266109347343445 0.08527135848999023 0.05426359176635742
0.10829908400774002 0.08527135848999023 0.06976747512817383
0.10240432620048523 0.08527135848999023 0.08527135848999023
0.1140751987695694 0.10077524185180664 -0.751937985420227
0.10576042532920837 0.10077524185180664 -0.7364341020584106
0.10181786119937897 0.10077524185180664 -0.7209302186965942
0.101132832467556 0.10077524930238724 -0.1782945990562439
0.10346480458974838 0.10077524185180664 -0.1627907007932663
0.1054748073220253 0.10077524185180664 -0.14728683233261108
0.10625313222408295 0.10077524185180664 -0.13178294897079468
0.10590532422065735 0.10077524185180664 -0.11627906560897827
0.10516023635864258 0.10077524185180664 -0.10077518969774246
0.10370092839002609 0.10077524930238724 -0.08527129888534546
0.11451254785060883 0.10077524185180664 0.05426359176635742
0.10378120839595795 0.10077524185180664 0.08527135848999023
0.10152130573987961 0.10077524185180664 0.10077524185180664
0.10457714647054672 0.11627912521362305 -0.7829457521438599
0.10832345485687256 0.11627912521362305 -0.7674418687820435
0.11144741624593735 0.11627912521362305 -0.751937985420227
0.11578916758298874 0.11627912521362305 -0.7364341020584106
0.10854491591453552 0.11627912521362305 -0.7054263353347778
0.10271091759204865 0.11627912521362305 -0.6899224519729614
0.10152097046375275 0.11627912521362305 -0.19379842281341553
0.102811798453331 0.11627912521362305 -0.1782945990562439
0.10452567040920258 0.11627912521362305 -0.1627907156944275
0.10590465366840363 0.11627912521362305 -0.14728683233261108
0.1071493849158287 0.11627912521362305 -0.13178294897079468
0.10887738317251205 0.11627912521362305 -0.11627906560897827
0.10884363204240799 0.11627912521362305 -0.10077518224716187
0.10601198673248291 0.11627912521362305 -0.08527129888534546
0.10231763124465942 0.11627912521362305 -0.06976741552352905
0.10535280406475067 0.11627911776304245 0.06976747512817383
0.10345955938100815 0.11627913266420364 0.08527135848999023
0.10298913717269897 0.11627912521362305 0.10077524185180664
0.1009664312005043 0.1317828893661499 -0.643410861492157
0.10147683322429657 0.1317828893661499 -0.6279069781303406
0.10193139314651489 0.1317828893661499 -0.6124030947685242
0.10255331546068192 0.1317828893661499 -0.5968992710113525
0.10352066904306412 0.1317828893661499 -0.5813953876495361
0.10441412031650543 0.1317828893661499 -0.5658915042877197
0.1048787534236908 0.1317828893661499 -0.5503876209259033
0.1046532392501831 0.1317828893661499 -0.5348837375640869
0.10379039496183395 0.1317828893661499 -0.5193798542022705
0.1026357039809227 0.1317828893661499 -0.5038759708404541
0.10211849212646484 0.1317828893661499 -0.4883720576763153
0.10164332389831543 0.1317828893661499 -0.4728681743144989
0.10181600600481033 0.1317828893661499 -0.1782945990562439
0.10334870964288712 0.1317828893661499 -0.1627907156944275
0.10463505238294601 0.1317828893661499 -0.14728683233261108
0.10565309226512909 0.1317828893661499 -0.13178294897079468
0.10668839514255524 0.1317828893661499 -0.11627906560897827
0.10594981908798218 0.1317828893661499 -0.10077518224716187
0.1042475625872612 0.1317828893661499 -0.08527129888534546
0.10158292204141617 0.1317828893661499 -0.06976741552352905
0.10341233015060425 0.1317828893661499 0.10077524185180664
0.1011078953742981 0.1472867727279663 -0.14728683233261108
0.10210178047418594 0.1472867727279663 -0.13178294897079468
0.10214533656835556 0.1472867876291275 -0.11627906560897827
0.10135208815336227 0.1472867727279663 -0.10077518969774246
0.10184948891401291 0.1472867727279663 0.10077524185180664
0.1076563149690628 0.30232560634613037 0.05426359176635742
0.1065749004483223 0.3178294897079468 0.05426359176635742
0.10822968184947968 0.3178294897079468 0.06976747512817383
0.11401789635419846 0.3333333730697632 0.06976747512817383
0.11820127815008163 -0.11627906560897827 -0.02325582504272461
0.11695563048124313 -0.11627906560897827 -0.007751941680908203
0.12512829899787903 -0.10077518224716187 -0.038759708404541016
0.12295067310333252 -0.10077518224716187 -0.02325582504272461
0.11903192847967148 -0.10077518224716187 -0.007751941680908203
0.12901613116264343 -0.08527129888534546 -0.10077518224716187
0.12578077614307404 -0.08527129888534546 -0.08527129888534546
0.12741594016551971 -0.08527129888534546 -0.06976741552352905
0.11988537758588791 -0.08527129888534546 -0.05426359176635742
0.12295790016651154 -0.08527129888534546 -0.007751941680908203
0.11962248384952545 -0.08527129888534546 0.00775194214656949
0.11746200919151306 -0.08527129888534546 0.02325582504272461
0.12439487129449844 -0.06976741552352905 -0.14728683233261108
0.11923053860664368 -0.06976741552352905 -0.06976741552352905
0.1211388111114502 -0.06976741552352905 -0.05426359176635742
0.12401144206523895 -0.06976741552352905 0.007751941680908203
0.11917353421449661 -0.06976741552352905 0.02325582504272461
0.12963666021823883 -0.05426359176635742 -0.1627907156944275
0.12023059278726578 -0.05426359176635742 -0.06976741552352905
0.12659280002117157 -0.05426359176635742 -0.05426359176635742
0.12590566277503967 -0.05426359176635742 -0.038759708404541016
0.12463170289993286 -0.05426359176635742 -0.02325582504272461
0.12145228683948517 -0.05426359176635742 -0.007751941680908203
0.12199050188064575 -0.05426358804106712 0.02325582504272461
0.11828938126564026 -0.05426359176635742 0.038759708404541016
0.12960343062877655 -0.038759708404541016 -0.1627907156944275
0.12824711203575134 -0.038759708404541016 -0.06976741552352905
0.12573617696762085 -0.038759708404541016 0.007751941680908203
0.12695126235485077 -0.038759708404541016 0.02325582504272461
0.12027890980243683 -0.038759708404541016 0.038759708404541016
0.1272391974925995 -0.02325582504272461 -0.08527129888534546
0.12099748849868774 -0.02325582504272461 0.038759708404541016
0.11638074368238449 -0.02325582504272461 0.05426359176635742
0.12848804891109467 -0.007751941680908203 -0.11627906560897827
0.12178876996040344 -0.00775194214656949 0.038759708404541016
0.11690046638250351 -0.007751941680908203 0.05426359176635742
0.12570419907569885 0.007751941680908203 -0.14728683233261108
0.1215737983584404 0.007751941680908203 0.038759708404541016
0.117128387093544 0.007751941680908203 0.05426358804106712
0.12335225939750671 0.02325582504272461 -0.14728683233261108
0.13117560744285583 0.02325582504272461 -0.13178294897079468
0.12372033298015594 0.02325582504272461 0.038759708404541016
0.1174701675772667 0.02325582504272461 0.05426359176635742
0.11640898138284683 0.038759708404541016 -0.1627907156944275
0.1210864931344986 0.038759708404541016 -0.14728683233261108
0.12344247102737427 0.038759708404541016 -0.13178294897079468
0.121195949614048 0.038759708404541016 -0.11627906560897827
0.13064740598201752 0.038759708404541016 0.038759708404541016
0.11851797997951508 0.038759708404541016 0.05426359176635742
0.11707884073257446 0.05426359176635742 -0.14728683233261108
0.11813563108444214 0.05426359176635742 -0.13178294897079468
0.11804443597793579 0.05426359176635742 -0.11627906560897827
0.11799679696559906 0.05426358804106712 0.05426358804106712
0.11765901744365692 0.06976746767759323 0.05426359176635742
0.1211334764957428 0.08527135848999023 -0.7674418091773987
0.11822998523712158 0.08527135848999023 0.05426358804106712
0.11842424422502518 0.10077524185180664 -0.7829457521438599
0.11834971606731415 0.10077524185180664 -0.7674418687820435
0.11778059601783752 0.10077524185180664 0.05426359176635742
0.116630919277668 0.10077524185180664 0.06976747512817383
0.1162889376282692 0.11627912521362305 -0.7209302186965942
0.1167961061000824 0.11627912521362305 0.06976747512817383
0.11849058419466019 0.30232560634613037 0.08527135848999023
0.12463679909706116 0.3178294897079468 0.08527135848999023
0.13016757369041443 0.3333333730697632 0.08527135848999023
0.13047941029071808 0.3488372564315796 0.06976747512817383
0.13251633942127228 -0.08527129888534546 -0.08527129888534546
0.13304144144058228 -0.08527129888534546 -0.06976741552352905
0.13433407247066498 -0.08527129888534546 -0.05426359176635742
0.13403300940990448 -0.08527129888534546 -0.038759708404541016
0.1327304244041443 -0.08527129888534546 -0.02325582504272461
0.13495035469532013 -0.06976741552352905 -0.14728683233261108
0.13819824159145355 -0.06976741552352905 -0.13178294897079468
0.13907736539840698 -0.06976741552352905 -0.11627906560897827
0.14000052213668823 -0.06976741552352905 -0.10077518224716187
0.14107121527194977 -0.06976741552352905 -0.08527129888534546
0.14005683362483978 -0.06976741552352905 -0.06976741552352905
0.13936541974544525 -0.06976741552352905 -0.05426359176635742
0.1375514417886734 -0.06976741552352905 -0.038759708404541016
0.13539263606071472 -0.06976741552352905 -0.02325582504272461
0.13285580277442932 -0.06976741552352905 -0.007751941680908203
0.13897928595542908 -0.05426359176635742 -0.02325582504272461
0.13545818626880646 -0.05426359176635742 -0.007751941680908203
0.1322222799062729 -0.05426359176635742 0.007751941680908203
0.14033064246177673 -0.038759708404541016 -0.05426359176635742
0.14482824504375458 -0.038759708404541016 -0.038759708404541016
0.13414229452610016 -0.038759708404541016 0.007751941680908203
0.14181962609291077 -0.02325582504272461 -0.06976741552352905
0.13196729123592377 -0.02325582504272461 0.02325582504272461
0.1381261944770813 -0.007751941215246916 -0.10077518224716187
0.14492185413837433 -0.007751941680908203 -0.08527129888534546
0.13262340426445007 0.007751941680908203 -0.13178294897079468
0.14403724670410156 0.02325582504272461 -0.7829457521438599
0.13392338156700134 0.08527135848999023 -0.7829457521438599
0.14572027325630188 0.1472867727279663 0.05426359176635742
0.13497065007686615 0.28682172298431396 0.06976747512817383
0.1470244824886322 0.28682172298431396 0.08527135848999023
0.14553211629390717 0.30232560634613037 0.10077524185180664
0.1453322172164917 0.3178294897079468 0.10077524185180664
0.14607860147953033 0.3333333730697632 0.06976747512817383
0.145756334066391 0.3333333730697632 0.10077524185180664
0.13694070279598236 0.3488372564315796 0.06976747512817383
0.1438722461462021 0.3488372564315796 0.08527135848999023
0.1463497132062912 0.3488372564315796 0.10077524185180664
0.1454688012599945 0.364341139793396 0.08527135848999023
0.14891953766345978 -0.05426359549164772 -0.16279073059558868
0.14890751242637634 -0.05426358804106712 -0.1472868174314499
0.14914464950561523 -0.05426359176635742 -0.13178294897079468
0.14904825389385223 -0.05426359176635742 -0.11627906560897827
0.14884153008460999 -0.05426359176635742 -0.10077518224716187
0.14887163043022156 -0.05426359176635742 -0.08527129888534546
0.14934346079826355 -0.05426359549164772 -0.06976741552352905
0.1490381360054016 -0.05426359176635742 -0.05426359176635742
0.1475980132818222 -0.05426359176635742 -0.038759708404541016
0.151786208152771 -0.038759708404541016 -0.1627907156944275
0.1535569578409195 -0.038759708404541016 -0.14728683233261108
0.15309277176856995 -0.038759708404541016 -0.13178294897079468
0.15267470479011536 -0.038759708404541016 -0.11627906560897827
0.15252059698104858 -0.038759708404541016 -0.10077518224716187
0.15216493606567383 -0.038759708404541016 -0.08527129888534546
0.15216633677482605 -0.038759708404541016 -0.06976741552352905
0.15038013458251953 -0.038759708404541016 -0.05426359176635742
0.14822976291179657 -0.038759708404541016 -0.038759708404541016
0.15441246330738068 -0.02325582504272461 -0.14728683233261108
0.15634338557720184 -0.02325582504272461 -0.13178294897079468
0.15587034821510315 -0.02325582504272461 -0.11627906560897827
0.1564488559961319 -0.02325582504272461 -0.10077518224716187
0.15724074840545654 -0.02325582504272461 -0.08527129888534546
0.15287277102470398 -0.02325582504272461 -0.06976741552352905
0.14904490113258362 -0.007751941680908203 -0.14728683233261108
0.1522018313407898 -0.007751941680908203 -0.13178294897079468
0.15416157245635986 -0.007751941680908203 -0.11627907305955887
0.15520499646663666 -0.007751941680908203 -0.10077518224716187
0.1507248729467392 -0.007751941680908203 -0.08527129888534546
0.1492653489112854 0.06976747512817383 -0.7829457521438599
0.1481657773256302 0.1472867727279663 0.05426359176635742
0.16048665344715118 0.27131783962249756 0.10077524185180664
0.15435217320919037 0.28682172298431396 0.10077524185180664
0.1481504738330841 0.30232560634613037 0.06976748257875443
0.14813321828842163 0.3178294897079468 0.06976747512817383
0.15611949563026428 0.364341139793396 0.10077524185180664
0.15660977363586426 0.37984490394592285 0.08527135848999023
0.16089527308940887 0.37984490394592285 0.10077524185180664
0.17288342118263245 0.038759708404541016 -0.7829457521438599
0.1640411764383316 0.05426359176635742 -0.7829457521438599
0.17626658082008362 0.3488372564315796 0.11627912521362305
0.1763538271188736 0.364341139793396 0.11627912521362305
0.1737063229084015 0.37984490394592285 0.08527135848999023
0.1775921732187271 0.37984490394592285 0.11627912521362305
0.17024585604667664 0.39534878730773926 0.10077524185180664
0.17971698939800262 0.27131783962249756 0.10077524185180664
0.1792067289352417 0.28682172298431396 0.08527135848999023
0.19019164144992828 0.28682172298431396 0.10077524185180664
0.1809941679239273 0.30232560634613037 0.08527135103940964
0.18109381198883057 0.3178294897079468 0.08527135848999023
0.1806170493364334 0.3333333730697632 0.08527135848999023
0.18936367332935333 0.3333333730697632 0.11627912521362305
0.18031805753707886 0.3488372564315796 0.08527135103940964
0.1792670339345932 0.364341139793396 0.08527136594057083
0.18564003705978394 0.39534878730773926 0.11627912521362305
0.18939730525016785 0.41085267066955566 0.10077524185180664
0.19267302751541138 0.41085267066955566 0.11627912521362305
0.19625258445739746 0.30232560634613037 0.10077524185180664
0.19928044080734253 0.3178294897079468 0.10077524185180664
0.19576790928840637 0.3333333730697632 0.11627912521362305
0.20290875434875488 0.39534878730773926 0.10077524185180664
0.1969725489616394 0.41085267066955566 0.10077524930238724
0.2069331556558609 0.42635655403137207 0.11627912521362305
0.20951062440872192 0.3333333730697632 0.10077524185180664
0.2104862481355667 0.3488372564315796 0.10077524185180664
0.21190649271011353 0.3488372564315796 0.11627911776304245
0.21072418987751007 0.364341139793396 0.10077524185180664
0.2211572378873825 0.364341139793396 0.11627912521362305
0.21007882058620453 0.37984490394592285 0.10077524185180664
0.22736552357673645 0.37984490394592285 0.11627912521362305
0.22969132661819458 0.39534878730773926 0.11627912521362305
0.22820954024791718 0.4418604373931885 0.11627912521362305
0.2409256249666214 0.41085267066955566 0.11627912521362305
0.24303674697875977 0.42635655403137207 0.11627912521362305
0.2445991337299347 0.4418604373931885 0.11627912521362305
0.2659311592578888 0.4883720874786377 0.1317828893661499
0.267629474401474 0.5038759708404541 0.1317828893661499
0.26972007751464844 0.5193798542022705 0.1317828893661499
0.27448636293411255 0.4883720874786377 0.1317828893661499
0.28356197476387024 0.5038759708404541 0.1317828893661499
0.27693408727645874 0.5348837375640869 0.1317828893661499
0.28379127383232117 0.5503876209259033 0.1317828893661499
0.28627362847328186 0.5658915042877197 0.1317828893661499
0.2890821695327759 0.5193798542022705 0.1317828893661499
0.29278117418289185 0.5348837375640869 0.1317828893661499
0.2986852526664734 0.5813953876495361 0.1317828893661499
0.3038488030433655 0.5503876209259033 0.1317828893661499
0.30614450573921204 0.5658915042877197 0.1317828893661499
0.31561723351478577 0.5813953876495361 0.1317828893661499
0.3027632534503937 0.5968992710113525 0.1317828893661499
0.3172801434993744 0.5968992710113525 0.1472867727279663
0.31512147188186646 0.612403154373169 0.1317828893661499
0.31744009256362915 0.612403154373169 0.1472867727279663
0.3201562762260437 0.5968992710113525 0.1317828893661499
0.318569540977478 0.5968992710113525 0.1472867727279663
0.32126426696777344 0.612403154373169 0.1317828893661499
0.32238584756851196 0.612403154373169 0.1472867727279663
0.3265831470489502 0.6279069185256958 0.1472867727279663
0.3301013112068176 0.6434108018875122 0.1472867727279663
0.3326430022716522 0.6589146852493286 0.1472867727279663
0.3363696038722992 0.627906858921051 0.1472867727279663
0.3398294448852539 0.6434108018875122 0.1472867727279663
0.34418272972106934 0.674418568611145 0.1472867727279663
0.35057130455970764 0.6589146256446838 0.1472867727279663
0.35257887840270996 0.674418568611145 0.1472867727279663
0.3626461625099182 0.6899224519729614 0.16279065608978271
0.3607656955718994 0.7054263353347778 0.16279065608978271
0.36394748091697693 0.7209302186965942 0.16279065608978271
0.36480647325515747 0.6899224519729614 0.16279065608978271
0.36862850189208984 0.7054263949394226 0.16279065608978271
0.3656007945537567 0.7209301590919495 0.16279065608978271
0.3769111633300781 0.7364341020584106 0.17829453945159912
0.3829711377620697 0.7364341020584106 0.17829453945159912
-0.3333333134651184 0.6535593867301941 0.1472867727279663
-0.3333333134651184 0.6751752495765686 0.1472867727279663
-0.317829430103302 0.6098297238349915 0.1472867727279663
-0.317829430103302 0.6316853761672974 0.1472867727279663
-0.30232560634613037 0.5586216449737549 0.1317828893661499
-0.30232560634613037 0.6022666096687317 0.1317828893661499
-0.28682172298431396 0.5157026648521423 0.1317828893661499
-0.28682172298431396 0.570709228515625 0.1317828893661499
-0.27131783962249756 0.4807204604148865 0.1317828893661499
-0.27131783962249756 0.5381911993026733 0.1317828893661499
-0.25581395626068115 0.47028157114982605 0.1317828893661499
-0.25581395626068115 0.48913735151290894 0.1317828893661499
-0.24031007289886475 0.40328651666641235 0.11627912521362305
-0.24031007289886475 0.4607725143432617 0.11627912521362305
-0.22480618953704834 0.35899755358695984 0.11627912521362305
-0.22480618953704834 0.44297677278518677 0.11627912521362305
-0.20930230617523193 0.3306102752685547 0.11627912521362305
-0.20930230617523193 0.33815544843673706 0.10077524185180664
-0.20930230617523193 0.38912832736968994 0.10077524185180664
-0.20930230617523193 0.42763781547546387 0.11627912521362305
-0.19379842281341553 0.3002678453922272 0.10077524185180664
-0.19379842281341553 0.3249400854110718 0.11627912521362305
-0.19379842281341553 0.4019550681114197 0.10077524185180664
-0.19379842281341553 0.40430259704589844 0.11627912521362305
-0.1782945990562439 0.2834300100803375 0.10077524185180664
-0.1782945990562439 0.3962741792201996 0.10077524185180664
-0.1627907156944275 0.2841322422027588 0.10077524185180664
-0.1627907156944275 0.2979373335838318 0.08527135848999023
-0.1627907156944275 0.37098464369773865 0.08527135848999023
-0.1627907156944275 0.37744784355163574 0.10077524185180664
-0.14728683233261108 -0.029931601136922836 -0.13178294897079468
-0.14728683233261108 -0.028621304780244827 -0.11627906560897827
-0.14728683233261108 -0.028719361871480942 -0.10077518224716187
-0.14728683233261108 -0.02235654555261135 -0.13178294897079468
-0.14728684723377228 -0.022197818383574486 -0.11627906560897827
-0.14728683233261108 -0.022211262956261635 -0.10077517479658127
-0.14728683233261108 0.30562281608581543 0.08527135848999023
-0.14728683233261108 0.35296905040740967 0.08527135848999023
-0.13178294897079468 -0.07008908689022064 -0.10077518224716187
-0.13178294897079468 -0.07003872096538544 -0.08527129888534546
-0.13178294897079468 -0.0709824413061142 -0.05426359176635742
-0.13178294897079468 -0.07068387418985367 -0.038759708404541016
-0.13178294897079468 -0.05622800812125206 -0.14728683233261108
-0.13178294897079468 -0.0601830892264843 -0.13178294897079468
-0.13178294897079468 -0.06873910129070282 -0.11627906560897827
-0.13178294897079468 -0.06694938242435455 -0.06976741552352905
-0.13178294897079468 -0.04662374407052994 -0.06976741552352905
-0.13178294897079468 -0.052907876670360565 -0.05426359176635742
-0.13178294897079468 -0.05281892418861389 -0.038759712129831314
-0.13178294897079468 -0.029213741421699524 -0.08527129888534546
-0.13178294897079468 -0.013821989297866821 -0.14728683233261108
-0.13178294897079468 -0.01803705096244812 -0.11627906560897827
-0.13178294897079468 -0.019780753180384636 -0.10077518224716187
-0.13178294897079468 -0.0074444543570280075 -0.13178294897079468
-0.13178294897079468 0.03425572067499161 -0.7829457521438599
-0.13178294897079468 0.07278062403202057 -0.7829457521438599
-0.13178294897079468 0.30046534538269043 0.06976747512817383
-0.13178294897079468 0.333984911441803 0.06976747512817383
-0.11627906560897827 -0.10093503445386887 -0.038759708404541016
-0.11627906560897827 -0.10265906155109406 -0.02325582504272461
-0.11627906560897827 -0.08611443638801575 -0.05426359176635742
-0.11627906560897827 -0.08902285248041153 -0.007751941680908203
-0.11627906560897827 -0.07028105854988098 -0.13178294897079468
-0.11627906560897827 -0.07234582304954529 -0.11627906560897827
-0.11627906560897827 -0.07387883961200714 -0.10077518224716187
-0.11627906560897827 -0.07147044688463211 -0.08527129888534546
-0.11627905815839767 -0.08239840716123581 -0.05426359176635742
-0.11627906560897827 -0.07544057071208954 0.007751941680908203
-0.11627906560897827 -0.07250414788722992 0.02325582504272461
-0.11627906560897827 -0.05533117428421974 -0.14728683233261108
-0.11627906560897827 -0.06762076169252396 -0.038759712129831314
-0.11627906560897827 -0.06641572713851929 -0.02325582504272461
-0.11627906560897827 -0.06715303659439087 -0.007751941680908203
-0.11627906560897827 -0.049335774034261703 -0.08527129888534546
-0.11627906560897827 -0.05312533676624298 0.007751941680908203
-0.11627906560897827 -0.051501672714948654 0.038759708404541016
-0.11627906560897827 -0.03324129432439804 -0.10077518224716187
-0.11627906560897827 -0.033965058624744415 0.02325582504272461
-0.11627906560897827 -0.011429466307163239 -0.14728683233261108
-0.11627906560897827 -0.02320411615073681 -0.11627906560897827
-0.11627906560897827 -0.007493336219340563 -0.13178294897079468
-0.11627906560897827 -0.006105436012148857 0.038759708404541016
-0.11627906560897827 0.022438207641243935 -0.7829457521438599
-0.11627906560897827 0.03600417450070381 -0.14728683233261108
-0.11627906560897827 0.030895311385393143 -0.13178294897079468
-0.11627906560897827 0.04104319587349892 -0.14728683233261108
-0.11627906560897827 0.0439039021730423 -0.13178294897079468
-0.11627906560897827 0.09195983409881592 -0.7829457521438599
-0.11627906560897827 0.28797727823257446 0.06976747512817383
-0.11627905815839767 0.3338455855846405 0.06976747512817383
-0.10077518224716187 -0.09194104373455048 0.038759708404541016
-0.10077518224716187 -0.09091305732727051 0.05426359176635742
-0.10077518224716187 -0.0709606260061264 -0.11627906560897827
-0.10077518224716187 -0.07203345745801926 0.02325582504272461
-0.10077518224716187 -0.07251594215631485 0.06976747512817383
-0.10077518224716187 -0.0651465356349945 -0.13178294897079468
-0.10077518224716187 -0.06620359420776367 -0.10077518224716187
-0.10077518224716187 -0.050690632313489914 0.02325582504272461
-0.10077518224716187 -0.04080893099308014 0.06976747512817383
-0.10077518969774246 -0.03853464871644974 -0.14728683233261108
-0.10077518224716187 -0.030681971460580826 -0.10077518224716187
-0.10077518224716187 -0.01474776677787304 -0.14728683233261108
-0.10077518224716187 -0.01956106163561344 -0.11627906560897827
-0.10077518224716187 -0.019603891298174858 0.038759708404541016
-0.10077518224716187 0.0015149649698287249 -0.13178294897079468
-0.10077518224716187 0.02107776515185833 -0.7829457521438599
-0.10077518224716187 0.017012225463986397 -0.14728683233261108
-0.10077517479658127 0.01309147011488676 -0.13178294897079468
-0.10077518224716187 0.022179821506142616 0.05426359176635742
-0.10077518224716187 0.0369369238615036 -0.1627907156944275
-0.10077518224716187 0.03588658571243286 -0.11627906560897827
-0.10077518224716187 0.06604369729757309 -0.11627906560897827
-0.10077518224716187 0.07465534657239914 -0.1627907156944275
-0.10077518224716187 0.07970844209194183 -0.14728683233261108
-0.10077518224716187 0.07587677240371704 -0.13178294897079468
-0.10077518224716187 0.08697408437728882 -0.7674418687820435
-0.10077518224716187 0.09976506233215332 -0.751937985420227
-0.10077518224716187 0.10043419152498245 -0.7364341020584106
-0.10077518224716187 0.09556416422128677 -0.14728683233261108
-0.10077518224716187 0.09805725514888763 -0.13178294897079468
-0.10077518224716187 0.09941896051168442 -0.11627906560897827
-0.10077518224716187 0.10037722438573837 -0.10077518224716187
-0.10077518224716187 0.11463583260774612 -0.7829457521438599
-0.10077518224716187 0.10921715199947357 -0.7209302186965942
-0.10077518224716187 0.11565868556499481 -0.7054263353347778
-0.10077518224716187 0.11432376503944397 -0.1782945990562439
-0.10077518224716187 0.10833480954170227 -0.1627907156944275
-0.10077518224716187 0.11189351230859756 -0.08527129888534546
-0.10077518224716187 0.11311574280261993 0.10077524185180664
-0.10077518224716187 0.11701564490795135 -0.7674418687820435
-0.10077518224716187 0.11730749905109406 -0.751937985420227
-0.10077518224716187 0.11784540116786957 -0.7364341020584106
-0.10077518224716187 0.11809777468442917 -0.7209302186965942
-0.10077518224716187 0.1170804426074028 -0.7054263353347778
-0.10077518224716187 0.13109663128852844 -0.5503876209259033
-0.10077518224716187 0.13084174692630768 -0.5348837375640869
-0.10077518224716187 0.1312897801399231 -0.5193798542022705
-0.10077518224716187 0.12172854691743851 0.10077524185180664
-0.10077518224716187 0.13199132680892944 -0.5503876209259033
-0.10077518224716187 0.1320706158876419 -0.5348836779594421
-0.10077518224716187 0.13191412389278412 -0.5193798542022705
-0.10077518224716187 0.13231094181537628 -0.1782945990562439
-0.10077517479658127 0.1353950798511505 -0.1627907156944275
-0.10077518224716187 0.1402735412120819 -0.14728683233261108
-0.10077518224716187 0.13911330699920654 -0.10077518224716187
-0.10077518224716187 0.1326461136341095 -0.08527129888534546
-0.10077518224716187 0.14729374647140503 -0.13178294897079468
-0.10077518224716187 0.14734651148319244 -0.11627906560897827
-0.10077518224716187 0.2980256676673889 0.06976747512817383
-0.10077518224716187 0.30756300687789917 0.06976747512817383
-0.08527129888534546 -0.08649574220180511 -0.7829457521438599
-0.08527129888534546 -0.07140655815601349 -0.13178294897079468
-0.08527129888534546 -0.07349366694688797 -0.11627906560897827
-0.08527129888534546 -0.07207591831684113 -0.10077518224716187
-0.08527129888534546 -0.07417359203100204 0.038759708404541016
-0.08527129888534546 -0.08370722830295563 0.05426359176635742
-0.08527129888534546 -0.07728967070579529 0.06976747512817383
-0.08527129888534546 -0.06030752509832382 -0.7829457521438599
-0.08527129888534546 -0.05633288994431496 -0.14728683233261108
-0.08527129888534546 -0.057346589863300323 -0.08527129888534546
-0.08527129888534546 -0.04639030247926712 0.038759708404541016
-0.08527129888534546 -0.051295820623636246 0.06976747512817383
-0.08527129888534546 -0.03848899155855179 0.05426359549164772
-0.08527129888534546 -0.01804846152663231 -0.08527129888534546
-0.08527129888534546 0.004628399387001991 -0.14728683233261108
-0.08527129888534546 0.0042725419625639915 -0.11627906560897827
-0.08527129888534546 -0.005824579857289791 -0.10077518224716187
-0.08527129888534546 0.010168620385229588 -0.14728683233261108
-0.08527129888534546 0.013271946460008621 -0.11627906560897827
-0.08527129888534546 0.033242277801036835 -0.1627907156944275
-0.08527129888534546 0.05154721438884735 -0.1782945990562439
-0.08527129888534546 0.049224693328142166 -0.10077518224716187
-0.08527129888534546 0.05966605618596077 0.08527135848999023
-0.08527129888534546 0.06530684232711792 0.10077524185180664
-0.08527129888534546 0.07237289100885391 -0.1782945990562439
-0.08527129888534546 0.08354437351226807 -0.08527129888534546
-0.08527129888534546 0.06994900107383728 0.06976747512817383
-0.08527129888534546 0.09040452539920807 -0.1627907156944275
-0.08527129888534546 0.09566491842269897 -0.14728683233261108
-0.08527129888534546 0.09848213940858841 0.11627912521362305
-0.08527129888534546 0.10829038918018341 -0.7829457521438599
-0.08527129888534546 0.10914316773414612 -0.7674418687820435
-0.08527129888534546 0.11309584975242615 -0.751937985420227
-0.08527129888534546 0.11329928040504456 -0.7364341020584106
-0.08527129888534546 0.11460751295089722 -0.7209302186965942
-0.08527129888534546 0.11607220768928528 -0.7054263353347778
-0.08527129888534546 0.11472423374652863 -0.19379842281341553
-0.08527129888534546 0.11368704587221146 -0.1782945990562439
-0.08527129888534546 0.11142297089099884 -0.1627907156944275
-0.08527129888534546 0.10652713477611542 -0.14728683233261108
-0.08527129888534546 0.1171000525355339 -0.7829457521438599
-0.08527129888534546 0.11740671098232269 -0.7674418687820435
-0.08527130633592606 0.11726059019565582 -0.751937985420227
-0.08527129888534546 0.117611363530159 -0.7364341020584106
-0.08527129888534546 0.11767313629388809 -0.7209302186965942
-0.08527129888534546 0.11668366938829422 -0.7054263353347778
-0.08527129888534546 0.13166603446006775 -0.5658915042877197
-0.08527129888534546 0.13006271421909332 -0.5503876209259033
-0.08527129888534546 0.12952913343906403 -0.5348837375640869
-0.08527129888534546 0.1303924322128296 -0.5193798542022705
-0.08527129143476486 0.13187552988529205 -0.565891444683075
-0.08527129888534546 0.13346771895885468 -0.5503876209259033
-0.08527130633592606 0.13450385630130768 -0.5348837375640869
-0.08527129888534546 0.13342887163162231 -0.5193798542022705
-0.08527129888534546 0.13557514548301697 -0.19379842281341553
-0.08527129888534546 0.13232462108135223 0.06976747512817383
-0.08527129888534546 0.14788304269313812 -0.1782945990562439
-0.08527129888534546 0.14927887916564941 -0.1627907156944275
-0.08527129888534546 0.15140502154827118 -0.14728683233261108
-0.08527129888534546 0.15311068296432495 -0.13178294897079468
-0.08527129888534546 0.15083356201648712 -0.11627906560897827
-0.08527130633592606 0.14922621846199036 -0.10077518969774246
-0.08527129888534546 0.14752666652202606 -0.08527129888534546
-0.08527129888534546 0.15768858790397644 0.08527135848999023
-0.08527129888534546 0.1559285819530487 0.11627912521362305
-0.08527129888534546 0.19066359102725983 0.06976747512817383
-0.08527130633592606 0.17894750833511353 0.10077524185180664
-0.08527129888534546 0.21603338420391083 0.06976747512817383
-0.06976741552352905 -0.09642817825078964 -0.7829457521438599
-0.06976741552352905 -0.0876767635345459 -0.11627906560897827
-0.06976741552352905 -0.0891117975115776 -0.10077518224716187
-0.06976741552352905 -0.07081802189350128 -0.14728683233261108
-0.06976741552352905 -0.08231490105390549 -0.13178294897079468
-0.06976741552352905 -0.08406652510166168 -0.08527129888534546
-0.06976741552352905 -0.06704191863536835 -0.06976741552352905
-0.06976741552352905 -0.05687515065073967 0.05426359176635742
-0.06976741552352905 -0.0447319820523262 -0.1627907156944275
-0.06976741552352905 -0.04304518550634384 -0.05426359176635742
-0.06976741552352905 -0.0534370094537735 0.05426359176635742
-0.06976741552352905 -0.036862563341856 -0.7829457521438599
-0.06976741552352905 -0.01992151513695717 -0.16279073059558868
-0.06976741552352905 -0.010826487094163895 -0.05426359176635742
-0.06976741552352905 0.002116526709869504 -0.06976741552352905
-0.06976741552352905 0.022700482979416847 -0.1627907156944275
-0.06976741552352905 0.015601924620568752 -0.08527129888534546
-0.06976741552352905 0.05299539119005203 -0.1782945990562439
-0.06976741552352905 0.05218189209699631 0.10077524185180664
-0.06976741552352905 0.06787236779928207 -0.10077518224716187
-0.06976741552352905 0.0683281198143959 0.06976747512817383
-0.06976741552352905 0.05834908038377762 0.08527135848999023
-0.06976741552352905 0.06420397013425827 0.11627912521362305
-0.06976741552352905 0.07018131017684937 -0.1782945990562439
-0.06976741552352905 0.07734779268503189 -0.11627906560897827
-0.06976741552352905 0.08637435734272003 -0.1627907156944275
-0.06976741552352905 0.08687637746334076 -0.14728683233261108
-0.06976741552352905 0.08569890260696411 -0.13178294897079468
-0.06976741552352905 0.10023172944784164 0.11627912521362305
-0.06976741552352905 0.13102754950523376 -0.1627907156944275
-0.06976741552352905 0.12953318655490875 -0.14728683233261108
-0.06976741552352905 0.12944501638412476 -0.13178294897079468
-0.06976741552352905 0.14446713030338287 -0.1627907156944275
-0.06976741552352905 0.14545553922653198 0.05426359176635742
-0.06976741552352905 0.14868369698524475 -0.14728683233261108
-0.06976741552352905 0.1487765610218048 -0.13178294897079468
-0.06976741552352905 0.19609525799751282 0.05426359176635742
-0.06976741552352905 0.19561763107776642 0.10077524185180664
-0.06976741552352905 0.2154577672481537 0.08527135848999023
-0.06976741552352905 0.22540204226970673 0.06976747512817383
-0.05426359176635742 -0.8496519327163696 0.6899224519729614
-0.05426358804106712 -0.8561694025993347 0.7054263353347778
-0.05426359176635742 -0.8355043530464172 0.6899224519729614
-0.05426359176635742 -0.8393127918243408 0.7209302186965942
-0.05426359176635742 -0.7704125642776489 0.7054263353347778
-0.05426359176635742 -0.7605056166648865 0.7209302186965942
-0.05426359176635742 -0.692768931388855 0.7364341020584106
-0.05426359176635742 -0.6884556412696838 0.7209301590919495
-0.05426359176635742 -0.6789097785949707 0.751937985420227
-0.05426359176635742 -0.665026068687439 0.7674418687820435
-0.05426359176635742 -0.6455593705177307 0.7054263353347778
-0.05426359176635742 -0.638795018196106 0.7829457521438599
-0.05426359176635742 -0.6009752750396729 0.6899224519729614
-0.05426359176635742 -0.5505393743515015 0.6434108018875122
-0.05426359176635742 -0.5590749979019165 0.674418568611145
-0.05426359176635742 -0.556648850440979 0.7829457521438599
-0.05426358804106712 -0.5482875108718872 0.6589146256446838
-0.05426359176635742 -0.5435138940811157 0.674418568611145
-0.05426358804106712 -0.5326598882675171 0.6434108018875122
-0.05426359176635742 -0.5341675281524658 0.6589146852493286
-0.05426359176635742 -0.5311184525489807 0.6899224519729614
-0.05426359176635742 -0.5266537070274353 0.7674418687820435
-0.05426359176635742 -0.5085314512252808 0.7054263353347778
-0.05426359176635742 -0.4933267831802368 0.7054263353347778
-0.05426359176635742 -0.5015174150466919 0.751937985420227
-0.05426359176635742 -0.47433239221572876 0.6279069185256958
-0.05426359176635742 -0.4806465208530426 0.6434108018875122
-0.05426359176635742 -0.4817498028278351 0.6589146852493286
-0.05426359176635742 -0.4796205759048462 0.674418568611145
-0.05426359176635742 -0.48071807622909546 0.6899224519729614
-0.05426359176635742 -0.47559279203414917 0.7364341020584106
-0.05426359176635742 -0.4556618630886078 0.612403154373169
-0.05426359176635742 -0.44086065888404846 0.7209302186965942
-0.05426359176635742 -0.4260942041873932 0.612403154373169
-0.05426359176635742 -0.4179344177246094 0.6899224519729614
-0.05426359176635742 -0.42523452639579773 0.7054263353347778
-0.05426359176635742 -0.41056910157203674 0.6279069185256958
-0.05426359176635742 -0.40674179792404175 0.6434108018875122
-0.05426359176635742 -0.4074573516845703 0.6589146852493286
-0.05426358804106712 -0.4106728136539459 0.674418568611145
-0.05426359176635742 -0.21609927713871002 0.08527135848999023
-0.05426359176635742 -0.22165820002555847 0.10077524185180664
-0.05426359176635742 -0.22190287709236145 0.11627912521362305
-0.05426359176635742 -0.21067310869693756 0.1317828893661499
-0.05426359176635742 -0.21477538347244263 0.20930230617523193
-0.05426359176635742 -0.21941471099853516 0.22480618953704834
-0.05426359176635742 -0.2215500771999359 0.24031008780002594
-0.05426359176635742 -0.20996993780136108 0.25581395626068115
-0.05426359549164772 -0.20911861956119537 0.25581398606300354
-0.05426359176635742 -0.19164887070655823 0.08527135848999023
-0.05426359176635742 -0.1919175088405609 0.1317828893661499
-0.05426359176635742 -0.1929221749305725 0.20930230617523193
-0.05426359176635742 -0.19204048812389374 0.22480617463588715
-0.05426359176635742 -0.19355985522270203 0.24031007289886475
-0.05426359176635742 -0.16267049312591553 0.10077524185180664
-0.05426359176635742 -0.16228652000427246 0.11627912521362305
-0.05426359176635742 -0.10255470871925354 -0.11627906560897827
-0.05426359176635742 -0.108928382396698 -0.10077518224716187
-0.05426359176635742 -0.11298999190330505 -0.08527129888534546
-0.05426359176635742 -0.10267553478479385 -0.06976741552352905
-0.05426359176635742 -0.09088017046451569 -0.13178294897079468
-0.05426359176635742 -0.08670256286859512 -0.05426359176635742
-0.05426359176635742 -0.07849504053592682 -0.14728683233261108
-0.05426359176635742 -0.07348595559597015 -0.038759708404541016
-0.05426358804106712 -0.06448796391487122 -0.1627907156944275
-0.05426359176635742 -0.06390173733234406 -0.02325582504272461
-0.05426359176635742 -0.058854635804891586 -0.007751941680908203
-0.05426359176635742 -0.05609827861189842 0.007751941680908203
-0.05426359176635742 -0.057562872767448425 0.02325582504272461
-0.05426359176635742 -0.058913033455610275 0.038759708404541016
-0.05426359176635742 -0.04878707602620125 0.05426359176635742
-0.05426359176635742 -0.020871417596936226 0.05426359176635742
-0.05426359176635742 0.007428400218486786 0.11627912521362305
-0.05426359176635742 0.018697386607527733 -0.007751941680908203
-0.05426359176635742 0.01614047773182392 0.007751941680908203
-0.05426359176635742 0.014331021346151829 0.02325582504272461
-0.05426359176635742 0.008415134623646736 0.038759708404541016
-0.05426359176635742 0.0077997855842113495 0.11627912521362305
-0.05426359176635742 0.034596849232912064 -0.06976741552352905
-0.05426359176635742 0.027361629530787468 -0.05426359176635742
-0.05426359176635742 0.025266706943511963 -0.038759708404541016
-0.05426359549164772 0.023418979719281197 -0.02325582690536976
-0.05426359176635742 0.04174176976084709 -0.08527130633592606
-0.05426359176635742 0.05782157927751541 -0.10077518224716187
-0.05426359176635742 0.07335301488637924 -0.1627907156944275
-0.05426359176635742 0.0785219818353653 -0.14728683233261108
-0.05426359176635742 0.07374083995819092 -0.13178294897079468
-0.05426359176635742 0.07171592116355896 -0.11627906560897827
-0.05426359176635742 0.10430190712213516 0.08527135848999023
-0.05426359176635742 0.12813174724578857 0.06976747512817383
-0.05426359176635742 0.19259710609912872 0.06976747512817383
-0.05426359176635742 0.1858428418636322 0.08527135848999023
-0.038759708404541016 -0.8897954225540161 0.7209302186965942
-0.038759708404541016 -0.8781201839447021 0.7364341020584106
-0.038759708404541016 -0.8616738319396973 0.6899224519729614
-0.038759708404541016 -0.8744469881057739 0.7054263353347778
-0.038759708404541016 -0.837806761264801 0.751937985420227
-0.038759708404541016 -0.7651837468147278 0.6899224519729614
-0.038759708404541016 -0.7307073473930359 0.7674418687820435
-0.038759708404541016 -0.7151147723197937 0.7054263353347778
-0.038759708404541016 -0.6936875581741333 0.7054263353347778
-0.038759708404541016 -0.6820875406265259 0.7829457521438599
-0.038759708404541016 -0.6205558776855469 0.7984496355056763
-0.038759708404541016 -0.6090589761734009 0.6899225115776062
-0.038759708404541016 -0.5939308404922485 0.7984495759010315
-0.038759708404541016 -0.5799258351325989 0.674418568611145
-0.038759708404541016 -0.5523179173469543 0.6279069185256958
-0.038759708404541016 -0.5576933026313782 0.6434108018875122
-0.038759708404541016 -0.5636157393455505 0.6589146852493286
-0.038759708404541016 -0.5223109722137451 0.6279069185256958
-0.038759708404541016 -0.5319205522537231 0.7829457521438599
-0.038759708404541016 -0.5125351548194885 0.6434108018875122
-0.038759708404541016 -0.508415699005127 0.6589146852493286
-0.038759708404541016 -0.5102793574333191 0.674418568611145
-0.038759708404541016 -0.49445557594299316 0.6434108018875122
-0.038759708404541016 -0.5000964403152466 0.6589146852493286
-0.038759708404541016 -0.4995460510253906 0.674418568611145
-0.038759708404541016 -0.4948505163192749 0.7674418687820435
-0.038759708404541016 -0.481808066368103 0.6279069185256958
-0.038759708404541016 -0.4727201461791992 0.612403154373169
-0.038759708404541016 -0.45434123277664185 0.5968992710113525
-0.038759708404541016 -0.45700204372406006 0.751937985420227
-0.038759708404541016 -0.4252190887928009 0.7364341020584106
-0.038759708404541016 -0.3988710045814514 0.5813953876495361
-0.038759708404541016 -0.4078189730644226 0.7209302186965942
-0.038759708404541016 -0.3899390697479248 0.6899224519729614
-0.038759708404541016 -0.39459478855133057 0.7054262757301331
-0.038759708404541016 -0.3782976269721985 0.5813953876495361
-0.038759708404541016 -0.3652353286743164 0.5968992710113525
-0.038759708404541016 -0.3751769959926605 0.6589146852493286
-0.038759708404541016 -0.37966397404670715 0.674418568611145
-0.038759708404541016 -0.36030247807502747 0.612403154373169
-0.038759708404541016 -0.3613945245742798 0.6279069185256958
-0.038759708404541016 -0.3641257882118225 0.6434108018875122
-0.038759708404541016 -0.2560344934463501 0.17829453945159912
-0.038759708404541016 -0.2574186325073242 0.19379842281341553
-0.038759708404541016 -0.25928637385368347 0.20930230617523193
-0.038759708404541016 -0.2609013319015503 0.22480618953704834
-0.038759708404541016 -0.262866348028183 0.24031007289886475
-0.038759708404541016 -0.2640814781188965 0.25581395626068115
-0.038759708404541016 -0.26270318031311035 0.27131783962249756
-0.038759708404541016 -0.2580685317516327 0.28682172298431396
-0.038759708404541016 -0.24064815044403076 0.11627912521362305
-0.038759708404541016 -0.24140425026416779 0.1317828893661499
-0.038759708404541016 -0.2444802224636078 0.1472867727279663
-0.038759708404541016 -0.2494209110736847 0.16279065608978271
-0.038759708404541016 -0.22593405842781067 0.06976747512817383
-0.038759708404541016 -0.23117056488990784 0.08527135848999023
-0.038759708404541016 -0.23630870878696442 0.10077524185180664
-0.038759708404541016 -0.21009933948516846 0.038759708404541016
-0.038759708404541016 -0.21339963376522064 0.05426359176635742
-0.038759708404541016 -0.19490355253219604 0.007751941680908203
-0.038759708404541016 -0.2015109360218048 0.02325582504272461
-0.038759708404541016 -0.19476144015789032 0.27131783962249756
-0.038759708404541016 -0.20897971093654633 0.28682175278663635
-0.038759708404541016 -0.1841832995414734 -0.007751941680908203
-0.038759708404541016 -0.18812066316604614 0.06976747512817383
-0.038759708404541016 -0.18700134754180908 0.1317828893661499
-0.038759708404541016 -0.1930941343307495 0.1472867727279663
-0.038759708404541016 -0.1919480860233307 0.16279065608978271
-0.038759708404541016 -0.1877947300672531 0.17829453945159912
-0.038759708404541016 -0.18087632954120636 0.24031007289886475
-0.038759708404541016 -0.19116473197937012 0.25581395626068115
-0.038759708404541016 -0.16711696982383728 -0.038759708404541016
-0.038759708404541016 -0.17813242971897125 -0.02325582504272461
-0.038759708404541016 -0.1754329800605774 0.08527135848999023
-0.038759708404541016 -0.1779358834028244 0.19379842281341553
-0.038759708404541016 -0.17663876712322235 0.20930230617523193
-0.038759708404541016 -0.1769096851348877 0.22480618953704834
-0.038759708404541016 -0.15095245838165283 -0.06976741552352905
-0.038759708404541016 -0.15949809551239014 -0.05426359176635742
-0.038759708404541016 -0.16077052056789398 0.10077523440122604
-0.038759712129831314 -0.16222593188285828 0.11627912521362305
-0.038759708404541016 -0.1358111947774887 -0.08527129888534546
-0.038759708404541016 -0.1422346830368042 0.05426358804106712
-0.038759708404541016 -0.12167204171419144 -0.10077518224716187
-0.038759708404541016 -0.10127215832471848 -0.13178294897079468
-0.038759708404541016 -0.11026199162006378 -0.11627906560897827
-0.038759708404541016 -0.0877571627497673 -0.14728683233261108
-0.038759708404541016 -0.07318790256977081 -0.1627907156944275
-0.038759708404541016 -0.07594969868659973 0.05426359176635742
-0.038759708404541016 -0.05690837278962135 0.06976747512817383
-0.03875970467925072 -0.05179077386856079 -0.1782945841550827
-0.038759708404541016 -0.04297206923365593 0.08527135848999023
-0.038759708404541016 -0.04012829437851906 0.10077524185180664
-0.038759708404541016 -0.015801558271050453 0.08527135848999023
-0.038759708404541016 -0.019671671092510223 0.10077524185180664
-0.038759708404541016 -0.009317323565483093 0.11627912521362305
-0.038759708404541016 -0.003425054484978318 -0.1782945990562439
-0.038759708404541016 0.0025398496072739363 0.06976747512817383
-0.038759708404541016 0.014969832263886929 0.05426359176635742
-0.038759708404541016 0.008102856576442719 0.11627912521362305
-0.038759708404541016 0.03745194151997566 0.02325582504272461
-0.038759708404541016 0.026943840086460114 0.038759708404541016
-0.038759708404541016 0.048274073749780655 -0.05426359176635742
-0.038759708404541016 0.04613689333200455 -0.038759708404541016
-0.038759708404541016 0.04459270462393761 -0.02325582504272461
-0.038759708404541016 0.04225195571780205 -0.007751941680908203
-0.038759708404541016 0.040378496050834656 0.00775194214656949
-0.038759708404541016 0.05624349042773247 -0.08527129888534546
-0.038759708404541016 0.0543854646384716 -0.06976741552352905
-0.038759708404541016 0.07106564193964005 -0.1627907156944275
-0.038759708404541016 0.0741807147860527 -0.14728683233261108
-0.038759708404541016 0.07522113621234894 -0.13178294897079468
-0.038759708404541016 0.0722661241889 -0.11627906560897827
-0.03875970467925072 0.06984447687864304 -0.10077518224716187
-0.02325582504272461 -0.9742026329040527 0.674418568611145
-0.02325582504272461 -0.9590281248092651 0.674418568611145
-0.02325582504272461 -0.9636803269386292 0.6899224519729614
-0.02325582504272461 -0.9519847631454468 0.7054263353347778
-0.02325582504272461 -0.9390991926193237 0.7209302186965942
-0.02325582504272461 -0.929012656211853 0.6899224519729614
-0.02325582504272461 -0.9188656210899353 0.7364341020584106
-0.02325582504272461 -0.8915376663208008 0.7054263353347778
-0.02325582504272461 -0.8914076685905457 0.7054263353347778
-0.02325582504272461 -0.8804315328598022 0.751937985420227
-0.02325582504272461 -0.8624653816223145 0.6899224519729614
-0.02325582504272461 -0.7411149740219116 0.6899224519729614
-0.02325582504272461 -0.7438598871231079 0.7674418687820435
-0.02325582504272461 -0.6902762651443481 0.7829457521438599
-0.02325582690536976 -0.6393184065818787 0.7984496355056763
-0.02325582504272461 -0.6059491634368896 0.6899224519729614
-0.02325582504272461 -0.5663773417472839 0.6589146852493286
-0.02325582504272461 -0.575727641582489 0.674418568611145
-0.02325582504272461 -0.5785106420516968 0.7984496355056763
-0.02325582504272461 -0.5528507232666016 0.6279069185256958
-0.02325582504272461 -0.5602476596832275 0.6434108018875122
-0.02325582504272461 -0.5273155570030212 0.7829457521438599
-0.02325582504272461 -0.5164889097213745 0.6279069185256958
-0.02325582504272461 -0.49068641662597656 0.7674418687820435
-0.02325582504272461 -0.48383188247680664 0.6279069185256958
-0.02325582504272461 -0.4578283429145813 0.5968992710113525
-0.02325582318007946 -0.4718262851238251 0.612403154373169
-0.02325582504272461 -0.4569927752017975 0.751937985420227
-0.02325582504272461 -0.4361586272716522 0.5813953876495361
