-0.5348837375640869 -0.038759708404541016 0.6511602997779846
-0.5348837375640869 -0.038759708404541016 0.6913983821868896
-0.5348837375640869 -0.02325582504272461 -0.7029600143432617
-0.5348837375640869 -0.02325582504272461 0.6918122172355652
-0.5348837375640869 -0.007751941680908203 -0.7024305462837219
-0.5348837375640869 -0.007751941680908203 0.6919050216674805
-0.5348837375640869 0.007751941680908203 -0.7027056813240051
-0.5348837375640869 0.007751941680908203 0.691957950592041
-0.5348837375640869 0.02325582504272461 -0.7034288644790649
-0.5348837375640869 0.02325582504272461 0.6920485496520996
-0.5348837375640869 0.038759708404541016 -0.703320324420929
-0.5348837375640869 0.038759708404541016 0.6921190619468689
-0.5348837375640869 0.05426359176635742 -0.7028447985649109
-0.5348837375640869 0.05426359176635742 0.6921980977058411
-0.5348837375640869 0.06976747512817383 -0.7021828889846802
-0.5348837375640869 0.06976747512817383 0.6922237873077393
-0.5348837375640869 0.08527135848999023 -0.7017738819122314
-0.5348837375640869 0.08527135848999023 0.6922443509101868
-0.5348837375640869 0.10077524185180664 -0.7015430331230164
-0.5348837375640869 0.10077524185180664 0.6922349333763123
-0.5348837375640869 0.11627912521362305 -0.7014317512512207
-0.5348837375640869 0.11627912521362305 0.6921473741531372
-0.5348837375640869 0.1317828893661499 -0.701520562171936
-0.5348837375640869 0.1317828893661499 0.6919896006584167
-0.5348837375640869 0.1472867727279663 -0.7017409801483154
-0.5348837375640869 0.1472867876291275 0.6919309496879578
-0.5348837375640869 0.16279065608978271 -0.701974630355835
-0.5348837375640869 0.16279065608978271 0.69190514087677
-0.5348837375640869 0.17829453945159912 -0.701636552810669
-0.5348837375640869 0.17829453945159912 0.6918066143989563
-0.5348837375640869 0.19379842281341553 -0.7010918855667114
-0.5348837375640869 0.19379842281341553 0.6917815208435059
-0.5348837375640869 0.20930230617523193 -0.7004478573799133
-0.5348837375640869 0.20930230617523193 0.691840648651123
-0.5348837375640869 0.22480618953704834 -0.6997239589691162
-0.5348837375640869 0.22480620443820953 0.6918397545814514
-0.5348837375640869 0.24031007289886475 -0.6989705562591553
-0.5348837375640869 0.24031007289886475 0.6917598247528076
-0.5348837375640869 0.25581395626068115 -0.6983646750450134
-0.5348837375640869 0.25581395626068115 0.6916422843933105
-0.5348837375640869 0.27131783962249756 -0.698320746421814
-0.5348837375640869 0.27131783962249756 0.6915726065635681
-0.5348837375640869 0.28682172298431396 -0.698623538017273
-0.5348837375640869 0.28682172298431396 0.6915149688720703
-0.5348837375640869 0.30232560634613037 -0.6997111439704895
-0.5348837375640869 0.30232560634613037 0.6921225190162659
-0.5348837375640869 0.3178294897079468 -0.6982505321502686
-0.5348837375640869 0.3178294897079468 0.6938090324401855
-0.5193798542022705 -0.3333333134651184 0.03797737881541252
-0.5193798542022705 -0.3333333134651184 0.1199708878993988
-0.5193798542022705 -0.317829430103302 0.03594090789556503
-0.5193798542022705 -0.317829430103302 0.12801522016525269
-0.5193798542022705 -0.30232560634613037 0.03541869670152664
-0.5193798542022705 -0.30232560634613037 0.1294240653514862
-0.5193798542022705 -0.28682172298431396 0.03512094169855118
-0.5193798542022705 -0.28682172298431396 0.1340228021144867
-0.5193798542022705 -0.27131783962249756 0.03487755358219147
-0.5193798542022705 -0.27131783962249756 0.1437074840068817
-0.5193798542022705 -0.25581395626068115 0.03387504443526268
-0.5193798542022705 -0.25581395626068115 0.1486329585313797
-0.5193798542022705 -0.24031007289886475 0.03238305449485779
-0.5193798542022705 -0.24031008780002594 0.14960353076457977
-0.5193798542022705 -0.22480618953704834 0.031183108687400818
-0.5193798542022705 -0.22480618953704834 0.149262934923172
-0.5193798542022705 -0.20930230617523193 0.0308150015771389
-0.5193798542022705 -0.20930230617523193 0.1497267633676529
-0.5193798542022705 -0.19379842281341553 0.03113645687699318
-0.5193798542022705 -0.19379842281341553 0.15241284668445587
-0.5193798542022705 -0.1782945990562439 0.03199297934770584
-0.5193798542022705 -0.1782945990562439 0.15834137797355652
-0.5193798542022705 -0.1627907156944275 0.03334290534257889
-0.5193798542022705 -0.1627907156944275 0.1648048460483551
-0.5193798542022705 -0.14728683233261108 0.03499829024076462
-0.5193798542022705 -0.14728683233261108 0.17234791815280914
-0.5193798542022705 -0.13178294897079468 0.03662605956196785
-0.5193798542022705 -0.13178294897079468 0.19312161207199097
-0.5193798542022705 -0.13178294897079468 0.19627262651920319
-0.5193798542022705 -0.13178294897079468 0.2143625020980835
-0.5193798542022705 -0.11627906560897827 0.03782042860984802
-0.5193798542022705 -0.11627906560897827 0.31114572286605835
-0.5193798542022705 -0.10077518224716187 0.03719071298837662
-0.5193798542022705 -0.10077518224716187 0.3435438871383667
-0.5193798542022705 -0.08527129888534546 0.0342174656689167
-0.5193798542022705 -0.08527129888534546 0.3694518804550171
-0.5193798542022705 -0.06976741552352905 0.02442089281976223
-0.5193798542022705 -0.06976741552352905 0.423298180103302
-0.5193798542022705 -0.05426359176635742 -0.0026006551925092936
-0.5193798542022705 -0.05426359176635742 0.48210424184799194
-0.5193798542022705 -0.05426359176635742 0.6608396172523499
-0.5193798542022705 -0.05426359176635742 0.6887250542640686
-0.5193798542022705 -0.038759708404541016 -0.692573606967926
-0.5193798542022705 -0.038759708404541016 -0.6854995489120483
-0.5193798542022705 -0.038759708404541016 -0.3647797405719757
-0.5193798542022705 -0.038759708404541016 0.5412158370018005
-0.5193798542022705 -0.038759708404541016 0.6512175798416138
-0.5193798542022705 -0.038759708404541016 0.6914096474647522
-0.5193798542022705 -0.02325582504272461 -0.7029592394828796
-0.5193798542022705 -0.02325582504272461 0.6917874217033386
-0.5193798542022705 -0.007751941680908203 -0.7024530172348022
-0.5193798542022705 -0.007751941680908203 0.6918712258338928
-0.5193798542022705 0.00775194214656949 -0.7027943134307861
-0.5193798542022705 0.007751941680908203 0.6919233202934265
-0.5193798542022705 0.02325582504272461 -0.7035362720489502
-0.5193798542022705 0.02325582504272461 0.6920148134231567
-0.5193798542022705 0.038759708404541016 -0.7033749222755432
-0.5193798542022705 0.038759708404541016 0.6920838952064514
-0.5193798542022705 0.05426359549164772 -0.7028481960296631
-0.5193798542022705 0.05426359176635742 0.6921623349189758
-0.5193798542022705 0.06976747512817383 -0.7021341323852539
-0.5193798542022705 0.06976747512817383 0.6921899914741516
-0.5193798542022705 0.08527135848999023 -0.7017061710357666
-0.5193798542022705 0.08527135848999023 0.6922140717506409
-0.5193798542022705 0.10077524185180664 -0.701484739780426
-0.5193798542022705 0.10077524185180664 0.6922107338905334
-0.5193798542022705 0.11627913266420364 -0.7013700008392334
-0.5193798542022705 0.11627912521362305 0.692129373550415
-0.5193798542022705 0.1317828893661499 -0.7014502882957458
-0.5193798542022705 0.1317828893661499 0.6919716596603394
-0.5193798542022705 0.1472867727279663 -0.7016770243644714
-0.5193798542022705 0.1472867727279663 0.6919101476669312
-0.5193798542022705 0.16279065608978271 -0.7019073963165283
-0.5193798542022705 0.1627906709909439 0.6918873190879822
-0.5193798542022705 0.17829453945159912 -0.701571524143219
-0.5193798542022705 0.17829455435276031 0.6917906999588013
-0.5193798542022705 0.19379840791225433 -0.701031506061554
-0.5193798542022705 0.19379842281341553 0.6917636394500732
-0.5193798542022705 0.20930230617523193 -0.7003964185714722
-0.5193798542022705 0.20930229127407074 0.6918172836303711
-0.5193798542022705 0.22480618953704834 -0.6997350454330444
-0.5193798542022705 0.22480618953704834 0.6918095350265503
-0.5193798542022705 0.24031007289886475 -0.6990476846694946
-0.5193798542022705 0.24031007289886475 0.6917255520820618
-0.5193798542022705 0.25581395626068115 -0.6984454393386841
-0.5193798542022705 0.25581395626068115 0.6916109323501587
-0.5193798542022705 0.27131783962249756 -0.6984012722969055
-0.5193798542022705 0.27131783962249756 0.6915451288223267
-0.5193798542022705 0.28682172298431396 -0.6987071633338928
-0.5193798542022705 0.28682172298431396 0.6914965510368347
-0.5193798542022705 0.30232560634613037 -0.6998451948165894
-0.5193798542022705 0.30232560634613037 0.6921154260635376
-0.5193798542022705 0.3178294897079468 -0.6983811855316162
-0.5193798542022705 0.3178294897079468 0.6938040852546692
-0.5038759708404541 -0.3333333134651184 0.03775552287697792
-0.5038759708404541 -0.3333333134651184 0.11988645046949387
-0.5038759708404541 -0.317829430103302 0.035891398787498474
-0.5038759708404541 -0.317829430103302 0.12780465185642242
-0.5038759708404541 -0.30232560634613037 0.03540501371026039
-0.5038759708404541 -0.30232560634613037 0.12896965444087982
-0.5038759708404541 -0.28682172298431396 0.035105150192976
-0.5038759708404541 -0.28682172298431396 0.13332036137580872
-0.5038759708404541 -0.27131783962249756 0.03483620658516884
-0.5038759708404541 -0.27131783962249756 0.14150318503379822
-0.5038759708404541 -0.25581395626068115 0.033659789711236954
-0.5038759708404541 -0.25581395626068115 0.14805451035499573
-0.5038759708404541 -0.24031007289886475 0.03208572790026665
-0.5038759708404541 -0.24031007289886475 0.14893054962158203
-0.5038759708404541 -0.22480618953704834 0.031058641150593758
-0.5038759708404541 -0.22480618953704834 0.1486685425043106
-0.5038759708404541 -0.20930230617523193 0.030720941722393036
-0.5038759708404541 -0.20930230617523193 0.14932426810264587
-0.5038759708404541 -0.19379842281341553 0.030964776873588562
-0.5038759708404541 -0.19379842281341553 0.15170587599277496
-0.5038759708404541 -0.1782945990562439 0.03187220171093941
-0.5038759708404541 -0.1782945990562439 0.157246932387352
-0.5038759708404541 -0.1627907156944275 0.03330761939287186
-0.5038759708404541 -0.1627907156944275 0.1645052284002304
-0.5038759708404541 -0.14728683233261108 0.0350627601146698
-0.5038759708404541 -0.14728683233261108 0.1715724766254425
-0.5038759708404541 -0.13178294897079468 0.03672005236148834
-0.5038759708404541 -0.13178294897079468 0.1923718899488449
-0.5038759708404541 -0.13178294897079468 0.19810426235198975
-0.5038759708404541 -0.13178294897079468 0.21403296291828156
-0.5038759708404541 -0.11627906560897827 0.03779396414756775
-0.5038759708404541 -0.11627906560897827 0.3124455213546753
-0.5038759708404541 -0.10077518224716187 0.036923445761203766
-0.5038759708404541 -0.10077518224716187 0.343881219625473
-0.5038759708404541 -0.08527129888534546 0.03368446230888367
-0.5038759708404541 -0.08527129888534546 0.3697516620159149
-0.5038759708404541 -0.06976741552352905 0.02307513915002346
-0.5038759708404541 -0.06976741552352905 0.42489051818847656
-0.5038759708404541 -0.05426359176635742 -0.003818604163825512
-0.5038759708404541 -0.05426359176635742 0.4841926693916321
-0.5038759708404541 -0.05426359176635742 0.6591542959213257
-0.5038759708404541 -0.05426359176635742 0.6888189911842346
-0.5038759708404541 -0.038759708404541016 -0.6951662302017212
-0.5038759708404541 -0.038759708404541016 -0.6810365319252014
-0.5038759708404541 -0.038759708404541016 -0.3421591520309448
-0.5038759708404541 -0.038759708404541016 0.5452300310134888
-0.5038759708404541 -0.038759708404541016 0.6500034332275391
-0.5038759708404541 -0.038759708404541016 0.6913750171661377
-0.5038759708404541 -0.02325582504272461 -0.7030185461044312
-0.5038759708404541 -0.02325582318007946 0.6917248964309692
-0.5038759708404541 -0.00775194214656949 -0.7025768756866455
-0.5038759708404541 -0.007751941680908203 0.6918073296546936
-0.5038759708404541 0.007751941680908203 -0.7029531002044678
-0.5038759708404541 0.007751941680908203 0.691862940788269
-0.5038759708404541 0.02325582504272461 -0.7037584185600281
-0.5038759708404541 0.02325582504272461 0.6919586062431335
-0.5038759708404541 0.038759708404541016 -0.7035447359085083
-0.5038759708404541 0.038759708404541016 0.6920240521430969
-0.5038759708404541 0.05426359176635742 -0.7029298543930054
-0.5038759708404541 0.05426359176635742 0.6921007037162781
-0.5038759708404541 0.06976747512817383 -0.7021734118461609
-0.5038759708404541 0.06976747512817383 0.6921281814575195
-0.5038759708404541 0.08527135848999023 -0.7017511129379272
-0.5038759708404541 0.08527135848999023 0.6921561360359192
-0.5038759708404541 0.10077524185180664 -0.7015513181686401
-0.5038759708404541 0.10077524185180664 0.6921586394309998
-0.5038759708404541 0.11627912521362305 -0.7014324069023132
-0.5038759708404541 0.11627912521362305 0.6920846700668335
-0.5038759708404541 0.1317828893661499 -0.7014822363853455
-0.5038759708404541 0.1317828893661499 0.6919309496879578
-0.5038759708404541 0.1472867727279663 -0.7017016410827637
-0.5038759708404541 0.1472867727279663 0.6918712854385376
-0.5038759708404541 0.16279065608978271 -0.7019360065460205
-0.5038759708404541 0.16279065608978271 0.6918525695800781
-0.5038759708404541 0.17829453945159912 -0.7016180157661438
-0.5038759708404541 0.17829453945159912 0.6917552947998047
-0.5038759708404541 0.19379842281341553 -0.7010862231254578
-0.5038759708404541 0.19379842281341553 0.6917258501052856
-0.5038759708404541 0.20930230617523193 -0.7004563808441162
-0.5038759708404541 0.20930230617523193 0.6917736530303955
-0.5038759708404541 0.22480618953704834 -0.6998389959335327
-0.5038759708404541 0.22480618953704834 0.6917598247528076
-0.5038759708404541 0.24031007289886475 -0.6992242932319641
-0.5038759708404541 0.24031007289886475 0.6916673183441162
-0.5038759708404541 0.25581395626068115 -0.6986571550369263
-0.5038759708404541 0.25581395626068115 0.6915488243103027
-0.5038759708404541 0.27131783962249756 -0.6985877752304077
-0.5038759708404541 0.27131783962249756 0.691490650177002
-0.5038759708404541 0.28682172298431396 -0.698845386505127
-0.5038759708404541 0.28682172298431396 0.6914417147636414
-0.5038759708404541 0.30232560634613037 -0.6999838352203369
-0.5038759708404541 0.30232560634613037 0.6920705437660217
-0.5038759708404541 0.3178294897079468 -0.6986840963363647
-0.5038759708404541 0.3178294897079468 0.6937525272369385
-0.4883720874786377 -0.3333333134651184 0.03740950673818588
-0.4883720874786377 -0.3333333134651184 0.12009407579898834
-0.4883720874786377 -0.317829430103302 0.03572790324687958
-0.4883720874786377 -0.317829430103302 0.1280578374862671
-0.4883720874786377 -0.30232560634613037 0.03528008982539177
-0.4883720874786377 -0.30232560634613037 0.12895941734313965
-0.4883720874786377 -0.28682172298431396 0.03493078425526619
-0.4883720874786377 -0.28682172298431396 0.13313718140125275
-0.4883720874786377 -0.27131783962249756 0.034630436450242996
-0.4883720874786377 -0.27131783962249756 0.1402207314968109
-0.4883720874786377 -0.25581395626068115 0.03345143422484398
-0.4883720874786377 -0.25581395626068115 0.1475621610879898
-0.4883720874786377 -0.24031007289886475 0.03197670727968216
-0.4883720874786377 -0.24031005799770355 0.14840403199195862
-0.4883720874786377 -0.22480618953704834 0.031047839671373367
-0.4883721172809601 -0.22480618953704834 0.14831826090812683
-0.4883720874786377 -0.20930230617523193 0.030646145343780518
-0.4883720874786377 -0.20930229127407074 0.14906029403209686
-0.4883720874786377 -0.19379842281341553 0.03084355965256691
-0.4883720874786377 -0.19379842281341553 0.15122771263122559
-0.4883720874786377 -0.1782945990562439 0.03178759664297104
-0.4883720874786377 -0.1782945990562439 0.156478613615036
-0.4883720874786377 -0.1627907156944275 0.033175185322761536
-0.4883720576763153 -0.1627907156944275 0.16416041553020477
-0.4883720874786377 -0.14728683233261108 0.03492989018559456
-0.4883720874786377 -0.14728683233261108 0.17089375853538513
-0.4883720874786377 -0.13178294897079468 0.03656686842441559
-0.4883720874786377 -0.13178294897079468 0.18901550769805908
-0.4883720874786377 -0.13178294897079468 0.20271849632263184
-0.4883720874786377 -0.13178294897079468 0.2143043875694275
-0.4883720874786377 -0.11627906560897827 0.03743871673941612
-0.4883720874786377 -0.11627906560897827 0.3137301802635193
-0.4883720874786377 -0.10077518224716187 0.03636004030704498
-0.4883720874786377 -0.10077518224716187 0.34432491660118103
-0.4883720874786377 -0.08527129888534546 0.032965242862701416
-0.4883720874786377 -0.08527129888534546 0.36932092905044556
-0.4883720874786377 -0.06976741552352905 0.02258358709514141
-0.4883720874786377 -0.06976741552352905 0.4259840250015259
-0.4883720874786377 -0.05426359176635742 -0.0028717441018670797
-0.4883720874786377 -0.05426359176635742 0.48515015840530396
-0.4883720874786377 -0.05426359176635742 0.6586860418319702
-0.4883720874786377 -0.05426359176635742 0.6891500949859619
-0.4883720874786377 -0.038759708404541016 -0.6969911456108093
-0.4883720874786377 -0.038759708404541016 -0.6782165765762329
-0.4883720874786377 -0.038759708404541016 -0.3270565867424011
-0.4883720874786377 -0.038759708404541016 0.5460701584815979
-0.4883720874786377 -0.038759708404541016 0.5735220909118652
-0.4883720874786377 -0.038759708404541016 0.5871729850769043
-0.4883720874786377 -0.038759708404541016 0.6492460370063782
-0.4883720576763153 -0.038759708404541016 0.6914017200469971
-0.4883720874786377 -0.02325582690536976 -0.703203558921814
-0.4883720874786377 -0.02325582504272461 0.6917122006416321
-0.4883720874786377 -0.007751941680908203 -0.7027781009674072
-0.4883720874786377 -0.007751941680908203 0.6917738318443298
-0.4883720874786377 0.007751941680908203 -0.7030813694000244
-0.4883720874786377 0.007751941215246916 0.6918172836303711
-0.4883720874786377 0.02325582504272461 -0.7038954496383667
-0.4883720874786377 0.02325582504272461 0.6919130086898804
-0.4883720576763153 0.038759708404541016 -0.7036470174789429
-0.4883720874786377 0.038759708404541016 0.6919787526130676
-0.4883720874786377 0.05426359176635742 -0.7029696702957153
-0.4883720874786377 0.05426359176635742 0.6920560002326965
-0.4883720874786377 0.06976747512817383 -0.7022204995155334
-0.4883720874786377 0.06976747512817383 0.6920836567878723
-0.4883720576763153 0.08527135103940964 -0.7018271684646606
-0.4883720874786377 0.08527135848999023 0.6921138167381287
-0.4883721172809601 0.10077524185180664 -0.7016486525535583
-0.4883721172809601 0.10077524185180664 0.6921183466911316
-0.4883720874786377 0.11627912521362305 -0.7015198469161987
-0.4883720874786377 0.11627912521362305 0.6920473575592041
-0.4883720874786377 0.1317828893661499 -0.7015340328216553
-0.4883720874786377 0.1317828893661499 0.6918999552726746
-0.4883720874786377 0.1472867727279663 -0.7017481327056885
-0.4883720874786377 0.1472867727279663 0.6918426752090454
-0.4883720874786377 0.16279065608978271 -0.7019925117492676
-0.4883721172809601 0.16279065608978271 0.6918225884437561
-0.4883720874786377 0.17829453945159912 -0.7017046213150024
-0.4883720874786377 0.17829453945159912 0.6917268633842468
-0.4883720874786377 0.19379842281341553 -0.7011888027191162
-0.4883720874786377 0.19379843771457672 0.6916979551315308
-0.4883720874786377 0.20930230617523193 -0.7005780935287476
-0.4883720874786377 0.20930230617523193 0.6917453408241272
-0.4883720874786377 0.22480618953704834 -0.6999975442886353
-0.4883720874786377 0.22480618953704834 0.6917344927787781
-0.4883720874786377 0.24031008780002594 -0.6994501352310181
-0.4883720874786377 0.24031007289886475 0.6916458606719971
-0.4883720874786377 0.25581395626068115 -0.6989455223083496
-0.4883720874786377 0.25581395626068115 0.6915317177772522
-0.4883720874786377 0.27131783962249756 -0.6988484263420105
-0.4883720874786377 0.27131783962249756 0.6914768218994141
-0.4883720874786377 0.28682172298431396 -0.6990578174591064
-0.4883720874786377 0.28682172298431396 0.6914276480674744
-0.4883720874786377 0.30232560634613037 -0.7002387046813965
-0.4883720874786377 0.30232560634613037 0.6920675039291382
-0.4883720874786377 0.3178294897079468 -0.6989773511886597
-0.4883720874786377 0.3178294897079468 0.6937134265899658
-0.4728682041168213 -0.3333333134651184 0.037169449031353
-0.4728682041168213 -0.3333333134651184 0.12072288990020752
-0.4728682041168213 -0.317829430103302 0.03566017374396324
-0.4728682041168213 -0.317829430103302 0.1286306530237198
-0.4728682041168213 -0.30232560634613037 0.03523900359869003
-0.4728682041168213 -0.30232560634613037 0.12954190373420715
-0.4728682041168213 -0.28682172298431396 0.034844398498535156
-0.4728682041168213 -0.28682172298431396 0.13386881351470947
-0.4728682041168213 -0.27131783962249756 0.034478455781936646
-0.4728682041168213 -0.27131783962249756 0.14065295457839966
-0.4728682041168213 -0.25581395626068115 0.033318690955638885
-0.4728681743144989 -0.25581395626068115 0.14739419519901276
-0.4728682041168213 -0.24031007289886475 0.03195293992757797
-0.4728682041168213 -0.24031007289886475 0.14825168251991272
-0.4728682041168213 -0.22480618953704834 0.03106311336159706
-0.4728682041168213 -0.22480620443820953 0.1482408493757248
-0.4728682041168213 -0.20930230617523193 0.03062734752893448
-0.4728682041168213 -0.20930230617523193 0.14912638068199158
-0.4728682041168213 -0.19379842281341553 0.030813124030828476
-0.4728682041168213 -0.19379842281341553 0.15153846144676208
-0.4728682041168213 -0.1782945990562439 0.031750887632369995
-0.4728682041168213 -0.1782945990562439 0.1567893624305725
-0.4728682041168213 -0.1627907156944275 0.03308945149183273
-0.4728682041168213 -0.1627907156944275 0.16393452882766724
-0.4728682041168213 -0.14728683233261108 0.034738171845674515
-0.4728682041168213 -0.14728683233261108 0.1712527871131897
-0.4728682041168213 -0.13178294897079468 0.03626104071736336
-0.4728682041168213 -0.13178294897079468 0.1885022670030594
-0.4728682041168213 -0.13178294897079468 0.20597656071186066
-0.4728682041168213 -0.13178294897079468 0.2123369425535202
-0.4728682041168213 -0.11627906560897827 0.03703745827078819
-0.4728682041168213 -0.11627906560897827 0.3144289255142212
-0.4728682041168213 -0.10077518224716187 0.03594862297177315
-0.4728682041168213 -0.10077518224716187 0.34446942806243896
-0.4728682041168213 -0.08527129888534546 0.0326477512717247
-0.4728682041168213 -0.08527129888534546 0.3684593141078949
-0.4728682041168213 -0.06976741552352905 0.022533854469656944
-0.4728682041168213 -0.06976741552352905 0.4253910779953003
-0.4728682041168213 -0.05426359176635742 -0.0016728118062019348
-0.4728682041168213 -0.05426359176635742 0.48452726006507874
-0.4728682041168213 -0.05426359176635742 0.658782958984375
-0.4728682041168213 -0.05426359176635742 0.6893208026885986
-0.4728682041168213 -0.038759708404541016 -0.6973085403442383
-0.4728682041168213 -0.038759708404541016 -0.6780653595924377
-0.4728682041168213 -0.038759708404541016 -0.3160580098628998
-0.4728682041168213 -0.038759708404541016 0.5434244871139526
-0.4728682041168213 -0.038759708404541016 0.5748583674430847
-0.4728682041168213 -0.038759708404541016 0.5865912437438965
-0.4728682041168213 -0.038759708404541016 0.6493130326271057
-0.4728682041168213 -0.038759708404541016 0.6914067268371582
-0.4728682041168213 -0.02325582504272461 -0.7033480405807495
-0.4728682041168213 -0.02325582504272461 0.6917157769203186
-0.4728681743144989 -0.007751941680908203 -0.7029224634170532
-0.4728682041168213 -0.007751941680908203 0.6917804479598999
-0.4728682041168213 0.007751941680908203 -0.7031885981559753
-0.4728681743144989 0.007751941215246916 0.691825270652771
-0.4728682041168213 0.02325582504272461 -0.7040150165557861
-0.4728682041168213 0.02325582504272461 0.6919245719909668
-0.4728682041168213 0.038759708404541016 -0.703744113445282
-0.4728682041168213 0.038759708404541016 0.6919960379600525
-0.4728682041168213 0.05426359176635742 -0.7030222415924072
-0.4728681743144989 0.05426358804106712 0.6920769214630127
-0.4728682041168213 0.06976747512817383 -0.7022438645362854
-0.4728682041168213 0.06976747512817383 0.6921085715293884
-0.4728682041168213 0.08527135848999023 -0.70183265209198
-0.4728682041168213 0.08527135848999023 0.6921411752700806
-0.4728682041168213 0.10077524185180664 -0.7016540765762329
-0.4728682041168213 0.10077524185180664 0.6921507716178894
-0.4728682041168213 0.11627912521362305 -0.7015296816825867
-0.4728682041168213 0.11627912521362305 0.6920854449272156
-0.4728682041168213 0.1317828893661499 -0.7015693187713623
-0.4728681743144989 0.1317828893661499 0.6919401288032532
-0.4728682041168213 0.1472867727279663 -0.7018231153488159
-0.4728682041168213 0.1472867727279663 0.6918836832046509
-0.4728682041168213 0.16279065608978271 -0.7020806074142456
-0.4728682041168213 0.16279064118862152 0.6918634176254272
-0.4728682041168213 0.17829453945159912 -0.7018017172813416
-0.4728682041168213 0.17829453945159912 0.6917628049850464
-0.4728682041168213 0.19379840791225433 -0.7012789249420166
-0.4728682041168213 0.19379842281341553 0.6917285919189453
-0.4728682339191437 0.20930232107639313 -0.7006556987762451
-0.4728682041168213 0.20930230617523193 0.6917725801467896
-0.4728682041168213 0.22480618953704834 -0.7000739574432373
-0.4728681743144989 0.22480618953704834 0.6917606592178345
-0.4728682041168213 0.24031007289886475 -0.6995497941970825
-0.4728682339191437 0.24031007289886475 0.6916735768318176
-0.4728682041168213 0.25581395626068115 -0.6990435719490051
-0.4728682041168213 0.25581395626068115 0.6915532350540161
-0.4728682041168213 0.27131783962249756 -0.6988965272903442
-0.4728682041168213 0.27131783962249756 0.6914842128753662
-0.4728682041168213 0.28682172298431396 -0.6990861892700195
-0.4728681743144989 0.28682172298431396 0.6914271116256714
-0.4728682041168213 0.30232560634613037 -0.7003005146980286
-0.4728682041168213 0.30232560634613037 0.6920585036277771
-0.4728682041168213 0.3178294897079468 -0.6990936994552612
-0.4728682041168213 0.3178294897079468 0.6937180161476135
-0.4573643207550049 -0.3333333134651184 0.03712834045290947
-0.45736435055732727 -0.3333333134651184 0.12127617746591568
-0.4573643207550049 -0.317829430103302 0.035626769065856934
-0.4573643207550049 -0.317829430103302 0.12930680811405182
-0.4573643207550049 -0.30232560634613037 0.035186126828193665
-0.4573643207550049 -0.30232560634613037 0.13071221113204956
-0.4573643207550049 -0.28682172298431396 0.03479195386171341
-0.4573643207550049 -0.28682172298431396 0.13504177331924438
-0.4573643207550049 -0.27131783962249756 0.03446846455335617
-0.4573643207550049 -0.27131783962249756 0.14196226000785828
-0.4573643207550049 -0.25581395626068115 0.03365533798933029
-0.45736435055732727 -0.25581395626068115 0.14788083732128143
-0.4573643207550049 -0.24031007289886475 0.03265514597296715
-0.4573643207550049 -0.24031008780002594 0.1487627476453781
-0.4573643207550049 -0.22480618953704834 0.03182697296142578
-0.4573643207550049 -0.22480618953704834 0.14858469367027283
-0.4573643207550049 -0.20930230617523193 0.031260233372449875
-0.4573643207550049 -0.20930230617523193 0.14914625883102417
-0.4573643207550049 -0.19379842281341553 0.0312652625143528
-0.4573642909526825 -0.19379840791225433 0.15142232179641724
-0.4573643207550049 -0.1782945990562439 0.032066259533166885
-0.4573643207550049 -0.1782945990562439 0.15638254582881927
-0.4573643207550049 -0.1627907156944275 0.03335488960146904
-0.4573643207550049 -0.1627907007932663 0.1636280119419098
-0.4573643207550049 -0.14728683233261108 0.034962248057127
-0.4573643207550049 -0.14728683233261108 0.17131724953651428
-0.4573643207550049 -0.13178294897079468 0.03644293546676636
-0.4573643207550049 -0.13178294897079468 0.18895357847213745
-0.4573643207550049 -0.11627906560897827 0.03714387118816376
-0.4573643207550049 -0.11627906560897827 0.312517911195755
-0.4573643207550049 -0.10077518224716187 0.036041442304849625
-0.4573643207550049 -0.10077518224716187 0.3432714343070984
-0.4573643207550049 -0.08527129888534546 0.03281357139348984
-0.4573643207550049 -0.08527129888534546 0.36716973781585693
-0.4573643207550049 -0.06976741552352905 0.022681264206767082
-0.4573643207550049 -0.06976741552352905 0.4229928255081177
-0.4573643207550049 -0.05426359176635742 -0.00016293511725962162
-0.4573643207550049 -0.05426359176635742 0.4834575653076172
-0.4573643207550049 -0.05426359549164772 0.6591852903366089
-0.4573643207550049 -0.05426359176635742 0.6892238855361938
-0.4573643207550049 -0.038759708404541016 -0.6972277164459229
-0.4573643207550049 -0.038759708404541016 -0.6777249574661255
-0.4573643207550049 -0.038759708404541016 -0.32051318883895874
-0.4573643207550049 -0.038759708404541016 0.541246771812439
-0.4573643207550049 -0.038759708404541016 0.5795392394065857
-0.4573643207550049 -0.038759708404541016 0.5831066966056824
-0.4573642909526825 -0.038759708404541016 0.6488516330718994
-0.4573643207550049 -0.038759708404541016 0.6913529634475708
-0.4573643207550049 -0.02325582504272461 -0.7033792734146118
-0.4573643207550049 -0.02325582504272461 0.6916903257369995
-0.4573643207550049 -0.007751941680908203 -0.7029930353164673
-0.4573643207550049 -0.007751941680908203 0.6917709708213806
-0.4573643207550049 0.007751941680908203 -0.7032257318496704
-0.4573643207550049 0.007751941680908203 0.6918216347694397
-0.4573643207550049 0.02325582504272461 -0.7040326595306396
-0.4573643207550049 0.02325582318007946 0.6919263601303101
-0.45736435055732727 0.038759712129831314 -0.7037296295166016
-0.4573643207550049 0.038759708404541016 0.6919972896575928
-0.4573643207550049 0.05426359176635742 -0.7029659152030945
-0.4573643207550049 0.05426359176635742 0.6920802593231201
-0.4573643207550049 0.06976747512817383 -0.7021548748016357
-0.4573643207550049 0.06976747512817383 0.6921145915985107
-0.4573643207550049 0.08527135848999023 -0.7017278075218201
-0.4573643207550049 0.08527135848999023 0.6921507716178894
-0.4573643207550049 0.10077524185180664 -0.7015501260757446
-0.4573643207550049 0.10077523440122604 0.6921659111976624
-0.4573643207550049 0.11627912521362305 -0.7014429569244385
-0.4573643207550049 0.11627913266420364 0.6921060681343079
-0.4573643207550049 0.1317828893661499 -0.7015284895896912
-0.4573642909526825 0.1317828893661499 0.6919605731964111
-0.4573643207550049 0.1472867727279663 -0.7018300294876099
-0.4573643207550049 0.1472867727279663 0.6919023990631104
-0.4573643207550049 0.16279065608978271 -0.7021037936210632
-0.4573643207550049 0.16279065608978271 0.69188392162323
-0.4573643207550049 0.17829453945159912 -0.7018181085586548
-0.4573642909526825 0.17829453945159912 0.6917777061462402
-0.4573642909526825 0.19379842281341553 -0.7012817859649658
-0.4573643207550049 0.19379842281341553 0.6917390823364258
-0.4573643207550049 0.20930230617523193 -0.7006450891494751
-0.4573643207550049 0.20930230617523193 0.6917794346809387
-0.4573643207550049 0.22480618953704834 -0.7000452280044556
-0.4573643207550049 0.22480618953704834 0.6917614936828613
-0.4573643207550049 0.24031007289886475 -0.6995147466659546
-0.4573643207550049 0.24031007289886475 0.6916671991348267
-0.4573643207550049 0.25581395626068115 -0.6989911794662476
-0.4573643207550049 0.25581395626068115 0.6915386319160461
-0.4573643207550049 0.27131783962249756 -0.6988091468811035
-0.45736435055732727 0.27131783962249756 0.6914644241333008
-0.4573643207550049 0.28682172298431396 -0.6989976167678833
-0.4573643207550049 0.28682172298431396 0.6914069056510925
-0.4573643207550049 0.30232560634613037 -0.7002744078636169
-0.4573642909526825 0.302325576543808 0.6920163035392761
-0.4573643207550049 0.3178294897079468 -0.6989471316337585
-0.4573643207550049 0.3178294897079468 0.693676233291626
-0.4418604373931885 -0.3333333134651184 0.037150342017412186
-0.4418604373931885 -0.3333333134651184 0.1215895414352417
-0.4418604373931885 -0.317829430103302 0.03555420786142349
-0.4418604373931885 -0.317829430103302 0.1299709528684616
-0.4418604373931885 -0.30232560634613037 0.03502839431166649
-0.4418604373931885 -0.30232560634613037 0.13186274468898773
-0.4418604373931885 -0.28682172298431396 0.0345933772623539
-0.4418604373931885 -0.28682172298431396 0.13609720766544342
-0.4418604373931885 -0.27131783962249756 0.03429941087961197
-0.4418604373931885 -0.27131783962249756 0.14378361403942108
-0.4418604373931885 -0.25581395626068115 0.0336746945977211
-0.4418604373931885 -0.25581395626068115 0.14850403368473053
-0.4418604373931885 -0.24031007289886475 0.03292015194892883
-0.4418604373931885 -0.24031007289886475 0.1494666337966919
-0.4418604373931885 -0.22480618953704834 0.03221855312585831
-0.4418604373931885 -0.22480620443820953 0.1493779718875885
-0.4418604373931885 -0.20930230617523193 0.031674496829509735
-0.4418604373931885 -0.20930230617523193 0.14972800016403198
-0.4418604373931885 -0.19379842281341553 0.03170529752969742
-0.4418604373931885 -0.19379842281341553 0.15156324207782745
-0.4418604373931885 -0.1782945990562439 0.032528530806303024
-0.4418604373931885 -0.1782945990562439 0.15634870529174805
-0.4418604373931885 -0.1627907156944275 0.03379160910844803
-0.4418604373931885 -0.16279073059558868 0.16380473971366882
-0.4418604373931885 -0.14728683233261108 0.03528742492198944
-0.4418604373931885 -0.14728683233261108 0.17204822599887848
-0.4418604373931885 -0.13178294897079468 0.036610864102840424
-0.4418604373931885 -0.13178294897079468 0.19152304530143738
-0.4418604373931885 -0.11627906560897827 0.037167273461818695
-0.4418604373931885 -0.11627906560897827 0.31036338210105896
-0.4418604373931885 -0.10077518224716187 0.03603582829236984
-0.4418604373931885 -0.10077518224716187 0.3421633839607239
-0.4418604373931885 -0.08527129888534546 0.03281734138727188
-0.4418604373931885 -0.08527129888534546 0.366423100233078
-0.4418604373931885 -0.06976741552352905 0.022692063823342323
-0.4418604373931885 -0.06976741552352905 0.42124223709106445
-0.4418604373931885 -0.05426359176635742 0.0013511509168893099
-0.4418604373931885 -0.05426359176635742 0.48285478353500366
-0.4418604373931885 -0.05426359176635742 0.6593495607376099
-0.4418604373931885 -0.05426359176635742 0.6890223622322083
-0.4418604373931885 -0.038759708404541016 -0.6966338753700256
-0.4418604373931885 -0.038759708404541016 -0.6783570051193237
-0.4418604373931885 -0.038759708404541016 -0.3269971013069153
-0.4418604373931885 -0.038759708404541016 0.540321409702301
-0.4418604373931885 -0.038759708404541016 0.6475367546081543
-0.4418604373931885 -0.038759708404541016 0.6912886500358582
-0.4418604373931885 -0.02325582504272461 -0.7034397125244141
-0.4418604075908661 -0.02325582504272461 0.6916662454605103
-0.4418604373931885 -0.007751941680908203 -0.7031058669090271
-0.4418604075908661 -0.007751941680908203 0.6917499899864197
-0.4418604373931885 0.007751941680908203 -0.7032819986343384
-0.4418604373931885 0.007751941680908203 0.6918009519577026
-0.4418604373931885 0.02325582504272461 -0.7040225267410278
-0.4418604373931885 0.02325582504272461 0.691910982131958
-0.4418604075908661 0.03875970467925072 -0.7036862373352051
-0.4418604373931885 0.038759708404541016 0.6919845342636108
-0.4418604373931885 0.05426359176635742 -0.7029016613960266
-0.4418604373931885 0.05426359176635742 0.6920681595802307
-0.4418604373931885 0.06976747512817383 -0.7020758390426636
-0.4418604373931885 0.06976747512817383 0.69210284948349
-0.4418604373931885 0.08527135848999023 -0.7016383409500122
-0.4418604373931885 0.08527135848999023 0.692141056060791
-0.4418604373931885 0.10077523440122604 -0.7014731168746948
-0.4418604373931885 0.10077524185180664 0.6921606659889221
-0.4418604373931885 0.11627911776304245 -0.701399028301239
-0.4418604373931885 0.11627912521362305 0.6921045184135437
-0.44186046719551086 0.1317828893661499 -0.701537549495697
-0.4418604373931885 0.1317828893661499 0.6919625401496887
-0.4418604373931885 0.1472867727279663 -0.7018862962722778
-0.4418604373931885 0.1472867727279663 0.6919062733650208
-0.4418604373931885 0.16279065608978271 -0.7021843791007996
-0.4418604373931885 0.16279065608978271 0.6918895840644836
-0.4418604373931885 0.17829453945159912 -0.7019059658050537
-0.4418604373931885 0.17829453945159912 0.6917815208435059
-0.4418604373931885 0.19379842281341553 -0.7013711929321289
-0.4418604373931885 0.19379842281341553 0.691739022731781
-0.4418604373931885 0.20930230617523193 -0.7007372379302979
-0.44186046719551086 0.20930232107639313 0.6917732357978821
-0.4418604373931885 0.22480618953704834 -0.7001416683197021
-0.4418604373931885 0.22480620443820953 0.6917476654052734
-0.4418604373931885 0.24031007289886475 -0.6996121406555176
-0.4418604373931885 0.24031007289886475 0.6916454434394836
-0.4418604373931885 0.25581395626068115 -0.6990758180618286
-0.4418604373931885 0.25581395626068115 0.6915050745010376
-0.44186046719551086 0.27131783962249756 -0.6988552808761597
-0.4418604373931885 0.27131783962249756 0.6914200782775879
-0.4418604373931885 0.28682172298431396 -0.6990435123443604
-0.4418604373931885 0.28682172298431396 0.6913672685623169
-0.4418604075908661 0.30232560634613037 -0.7004010677337646
-0.4418604373931885 0.30232560634613037 0.6919592022895813
-0.4418604373931885 0.3178294897079468 -0.6989277601242065
-0.4418604373931885 0.3178294897079468 0.6935741901397705
-0.42635661363601685 -0.3333333134651184 0.037036288529634476
-0.42635661363601685 -0.3333333134651184 0.12196163833141327
-0.42635661363601685 -0.317829430103302 0.03555075451731682
-0.42635661363601685 -0.317829430103302 0.13027842342853546
-0.42635661363601685 -0.30232560634613037 0.03504152223467827
-0.42635661363601685 -0.30232560634613037 0.1314793974161148
-0.42635661363601685 -0.28682172298431396 0.03464825078845024
-0.42635661363601685 -0.28682172298431396 0.13486982882022858
-0.42635661363601685 -0.27131783962249756 0.034425877034664154
-0.42635661363601685 -0.27131783962249756 0.14173315465450287
-0.42635661363601685 -0.25581395626068115 0.0337212048470974
-0.42635661363601685 -0.25581395626068115 0.14773710072040558
-0.42635661363601685 -0.24031007289886475 0.03276585042476654
-0.42635664343833923 -0.24031007289886475 0.14882896840572357
-0.42635661363601685 -0.22480618953704834 0.03192584589123726
-0.42635661363601685 -0.22480620443820953 0.14906451106071472
-0.42635661363601685 -0.20930230617523193 0.031346555799245834
-0.42635661363601685 -0.20930230617523193 0.14935211837291718
-0.42635661363601685 -0.19379842281341553 0.03144839406013489
-0.42635661363601685 -0.19379842281341553 0.1506294310092926
-0.42635661363601685 -0.1782945990562439 0.032406728714704514
-0.42635661363601685 -0.1782945990562439 0.15473619103431702
-0.42635661363601685 -0.1627907156944275 0.03371678292751312
-0.42635664343833923 -0.16279073059558868 0.16340190172195435
-0.42635661363601685 -0.14728683233261108 0.03515752777457237
-0.42635661363601685 -0.14728683233261108 0.17118340730667114
-0.42635661363601685 -0.13178294897079468 0.03634624928236008
-0.42635661363601685 -0.13178294897079468 0.2009933590888977
-0.42635661363601685 -0.11627906560897827 0.03678734228014946
-0.42635661363601685 -0.11627907305955887 0.3085748851299286
-0.42635661363601685 -0.10077518224716187 0.03563208505511284
-0.42635661363601685 -0.10077518224716187 0.3411576747894287
-0.42635661363601685 -0.08527129888534546 0.03244258463382721
-0.42635661363601685 -0.08527129888534546 0.3654648959636688
-0.42635661363601685 -0.06976741552352905 0.02255277894437313
-0.42635661363601685 -0.06976741552352905 0.42010414600372314
-0.42635661363601685 -0.05426359176635742 0.00062550138682127
-0.42635661363601685 -0.05426359176635742 0.4826313555240631
-0.42635661363601685 -0.05426359176635742 0.6594272255897522
-0.42635661363601685 -0.05426359176635742 0.688483715057373
-0.42635661363601685 -0.038759708404541016 -0.6955786943435669
-0.42635661363601685 -0.038759708404541016 -0.6802316308021545
-0.42635661363601685 -0.038759708404541016 -0.32116904854774475
-0.42635661363601685 -0.038759708404541016 0.5382850170135498
-0.42635661363601685 -0.038759708404541016 0.6467081308364868
-0.42635661363601685 -0.038759708404541016 0.6911669373512268
-0.42635661363601685 -0.02325582318007946 -0.7035213112831116
-0.42635661363601685 -0.02325582504272461 0.6915977001190186
-0.42635661363601685 -0.007751941680908203 -0.7032485008239746
-0.42635661363601685 -0.007751941215246916 0.6916935443878174
-0.42635661363601685 0.007751941680908203 -0.7033655643463135
-0.42635661363601685 0.007751941680908203 0.6917553544044495
-0.42635661363601685 0.02325582504272461 -0.7040656208992004
-0.42635658383369446 0.02325582504272461 0.6918754577636719
-0.42635661363601685 0.038759708404541016 -0.7037131190299988
-0.42635661363601685 0.038759708404541016 0.6919549107551575
-0.42635661363601685 0.05426359176635742 -0.702922523021698
-0.42635661363601685 0.05426359176635742 0.692042350769043
-0.42635661363601685 0.06976747512817383 -0.7020936608314514
-0.42635658383369446 0.06976747512817383 0.6920832991600037
-0.42635661363601685 0.08527135848999023 -0.7016563415527344
-0.42635661363601685 0.08527135848999023 0.6921300292015076
-0.42635661363601685 0.10077523440122604 -0.7015094757080078
-0.42635661363601685 0.10077524185180664 0.6921600699424744
-0.42635661363601685 0.11627912521362305 -0.7014669179916382
-0.42635664343833923 0.11627912521362305 0.6921132802963257
-0.42635661363601685 0.1317828893661499 -0.701637327671051
-0.42635661363601685 0.1317828893661499 0.6919785737991333
-0.42635661363601685 0.1472867727279663 -0.7020061612129211
-0.42635661363601685 0.1472867727279663 0.691927433013916
-0.42635661363601685 0.16279065608978271 -0.7022994160652161
-0.42635661363601685 0.16279065608978271 0.6919124126434326
-0.42635661363601685 0.17829453945159912 -0.7020074129104614
-0.42635661363601685 0.17829453945159912 0.6918070316314697
-0.42635661363601685 0.19379842281341553 -0.7014591097831726
-0.42635661363601685 0.19379842281341553 0.6917650103569031
-0.42635661363601685 0.20930230617523193 -0.7008172869682312
-0.42635661363601685 0.20930230617523193 0.6917981505393982
-0.42635661363601685 0.22480618953704834 -0.7002224326133728
-0.42635661363601685 0.22480618953704834 0.691764235496521
-0.42635661363601685 0.24031007289886475 -0.6996962428092957
-0.42635664343833923 0.24031008780002594 0.6916454434394836
-0.42635661363601685 0.25581395626068115 -0.6991522312164307
-0.42635661363601685 0.25581395626068115 0.691483736038208
-0.42635661363601685 0.27131783962249756 -0.6989250183105469
-0.42635661363601685 0.27131783962249756 0.6913889050483704
-0.42635658383369446 0.28682172298431396 -0.6991342306137085
-0.42635661363601685 0.28682172298431396 0.6913409233093262
-0.42635661363601685 0.30232560634613037 -0.7005689740180969
-0.42635661363601685 0.30232560634613037 0.6919351816177368
-0.42635661363601685 0.3178294897079468 -0.6988548040390015
-0.42635658383369446 0.3178294897079468 0.6935297846794128
-0.41085273027420044 -0.3333333134651184 0.03676615282893181
-0.41085273027420044 -0.3333333134651184 0.12229210138320923
-0.41085273027420044 -0.317829430103302 0.03538375347852707
-0.41085273027420044 -0.317829430103302 0.1308133602142334
-0.41085273027420044 -0.30232560634613037 0.03480461239814758
-0.41085273027420044 -0.30232560634613037 0.13173282146453857
-0.41085273027420044 -0.28682172298431396 0.03427727892994881
-0.41085273027420044 -0.28682172298431396 0.13482612371444702
-0.41085273027420044 -0.27131783962249756 0.03390759602189064
-0.41085273027420044 -0.27131783962249756 0.14107629656791687
-0.41085273027420044 -0.25581395626068115 0.0329904705286026
-0.41085273027420044 -0.25581395626068115 0.1473330706357956
-0.41085273027420044 -0.24031007289886475 0.0318395160138607
-0.41085273027420044 -0.24031007289886475 0.1483769714832306
-0.41085273027420044 -0.22480618953704834 0.030964843928813934
-0.41085273027420044 -0.22480618953704834 0.14885827898979187
-0.41085273027420044 -0.20930230617523193 0.030531734228134155
-0.41085273027420044 -0.20930230617523193 0.14920468628406525
-0.41085273027420044 -0.19379842281341553 0.03087422624230385
-0.41085273027420044 -0.19379842281341553 0.15031221508979797
-0.41085273027420044 -0.1782945990562439 0.03200921043753624
-0.41085273027420044 -0.1782945990562439 0.15393638610839844
-0.41085273027420044 -0.1627907156944275 0.03336038812994957
-0.41085273027420044 -0.1627907156944275 0.1632305383682251
-0.41085273027420044 -0.14728683233261108 0.03473326191306114
-0.41085273027420044 -0.14728683233261108 0.17142854630947113
-0.41085273027420044 -0.13178294897079468 0.03577630966901779
-0.41085273027420044 -0.13178294897079468 0.2074953317642212
-0.41085273027420044 -0.11627906560897827 0.03607895225286484
-0.41085273027420044 -0.11627906560897827 0.30847761034965515
-0.41085273027420044 -0.10077518224716187 0.03491588309407234
-0.41085273027420044 -0.10077518224716187 0.34106361865997314
-0.41085273027420044 -0.08527129888534546 0.03169266879558563
-0.41085273027420044 -0.08527129888534546 0.3650539517402649
-0.41085273027420044 -0.06976741552352905 0.022310864180326462
-0.41085273027420044 -0.06976741552352905 0.42195624113082886
-0.41085273027420044 -0.05426359176635742 -0.000337270088493824
-0.41085273027420044 -0.05426359176635742 0.4837627410888672
-0.41085270047187805 -0.05426359176635742 0.6595370769500732
-0.41085273027420044 -0.05426359176635742 0.6878936290740967
-0.41085273027420044 -0.038759708404541016 -0.6961706876754761
-0.41085273027420044 -0.038759708404541016 -0.6781957745552063
-0.41085273027420044 -0.038759708404541016 -0.3326075077056885
-0.41085273027420044 -0.038759708404541016 0.5384510159492493
-0.41085273027420044 -0.038759708404541016 0.5793819427490234
-0.41085273027420044 -0.038759708404541016 0.5842132568359375
-0.41085273027420044 -0.038759712129831314 0.646295428276062
-0.41085273027420044 -0.038759708404541016 0.6909981966018677
-0.41085273027420044 -0.02325582504272461 -0.7036150097846985
-0.41085273027420044 -0.02325582504272461 0.6915032267570496
-0.41085273027420044 -0.007751941680908203 -0.7034405469894409
-0.41085273027420044 -0.007751941680908203 0.6916104555130005
-0.41085273027420044 0.007751941680908203 -0.7035462260246277
-0.41085273027420044 0.007751941215246916 0.6916795969009399
-0.41085273027420044 0.02325582690536976 -0.7042359709739685
-0.41085273027420044 0.02325582690536976 0.6918118596076965
-0.41085273027420044 0.038759708404541016 -0.7038715481758118
-0.41085273027420044 0.038759708404541016 0.6918922662734985
-0.41085273027420044 0.05426359176635742 -0.7030671834945679
-0.41085273027420044 0.05426359176635742 0.6919807195663452
-0.41085273027420044 0.06976747512817383 -0.7022101283073425
-0.41085270047187805 0.06976747512817383 0.6920222043991089
-0.41085273027420044 0.08527135848999023 -0.7017452716827393
-0.41085273027420044 0.08527135848999023 0.6920729875564575
-0.41085273027420044 0.10077524185180664 -0.7015948295593262
-0.41085273027420044 0.10077524930238724 0.6921079754829407
-0.41085273027420044 0.11627912521362305 -0.7015807628631592
-0.41085273027420044 0.11627912521362305 0.6920678615570068
-0.41085273027420044 0.1317828893661499 -0.7017990350723267
-0.41085273027420044 0.1317828893661499 0.6919365525245667
-0.41085270047187805 0.1472867727279663 -0.702179491519928
-0.41085273027420044 0.1472867727279663 0.691885232925415
-0.41085273027420044 0.16279065608978271 -0.7024639844894409
-0.41085273027420044 0.16279065608978271 0.6918714642524719
-0.41085273027420044 0.17829453945159912 -0.702158510684967
-0.41085273027420044 0.17829453945159912 0.6917691826820374
-0.41085273027420044 0.19379842281341553 -0.7016065120697021
-0.41085273027420044 0.19379842281341553 0.6917372345924377
-0.41085273027420044 0.20930232107639313 -0.7009563446044922
-0.41085273027420044 0.20930230617523193 0.6917803883552551
-0.41085273027420044 0.22480618953704834 -0.7003536224365234
-0.41085273027420044 0.22480618953704834 0.6917466521263123
-0.41085273027420044 0.24031007289886475 -0.6998274326324463
-0.41085273027420044 0.24031007289886475 0.6916146278381348
-0.41085273027420044 0.25581395626068115 -0.6992759704589844
-0.4108527600765228 0.25581395626068115 0.6914353370666504
-0.41085273027420044 0.27131783962249756 -0.6990280151367188
-0.4108527600765228 0.27131783962249756 0.6913377046585083
-0.41085273027420044 0.28682172298431396 -0.6992204189300537
