-0.4573643207550049 0.364341139793396 0.035005077719688416
-0.4573643207550049 0.364341139793396 0.19285635650157928
-0.4573643207550049 0.3643411695957184 0.2287597507238388
-0.4573643207550049 0.37984490394592285 -0.08617769926786423
-0.4573643207550049 0.37984490394592285 0.03395409137010574
-0.4573643207550049 0.37984490394592285 0.19336678087711334
-0.4573643207550049 0.37984490394592285 0.2289382964372635
-0.4573643207550049 0.39534878730773926 -0.08605025708675385
-0.4573643207550049 0.39534878730773926 0.03292619064450264
-0.4573643207550049 0.39534878730773926 0.19578203558921814
-0.4573643207550049 0.39534878730773926 0.22918114066123962
-0.4573643207550049 0.41085267066955566 -0.08593098819255829
-0.4573643207550049 0.41085267066955566 0.03152931481599808
-0.4573643207550049 0.41085267066955566 0.1984858512878418
-0.4573643207550049 0.41085267066955566 0.22936710715293884
-0.4573643207550049 0.42635655403137207 -0.08575976639986038
-0.4573643207550049 0.42635655403137207 0.029681243002414703
-0.4573643207550049 0.42635655403137207 0.20108260214328766
-0.4573643207550049 0.42635655403137207 0.2295612394809723
-0.4573643207550049 0.4418604373931885 -0.08564592152833939
-0.4573642909526825 0.4418604373931885 0.02797112986445427
-0.4573643207550049 0.4418604373931885 0.20264525711536407
-0.4573643207550049 0.4418604373931885 0.22989493608474731
-0.4573643207550049 0.4573643207550049 -0.08554039895534515
-0.4573642909526825 0.4573642909526825 0.02633802592754364
-0.4573643207550049 0.4573643207550049 0.20289084315299988
-0.4573643207550049 0.4573643207550049 0.23014533519744873
-0.4573643207550049 0.4728682041168213 -0.08546379953622818
-0.4573643207550049 0.4728682041168213 0.02537236176431179
-0.4573643207550049 0.4728682041168213 0.20264889299869537
-0.4573643207550049 0.4728682041168213 0.23047471046447754
-0.4573643207550049 0.4883720874786377 -0.08545531332492828
-0.4573643207550049 0.4883720874786377 0.02512315660715103
-0.4573643207550049 0.4883720874786377 0.20205974578857422
-0.4573643207550049 0.4883720874786377 0.23092767596244812
-0.4573643207550049 0.5038759708404541 -0.08534275740385056
-0.4573643207550049 0.5038759708404541 0.024788957089185715
-0.4573643207550049 0.5038759708404541 0.20149770379066467
-0.4573643207550049 0.5038759708404541 0.23109813034534454
-0.4573643207550049 0.5193798542022705 -0.08469650894403458
-0.4573643207550049 0.5193798542022705 0.02476446144282818
-0.4573643207550049 0.5193798542022705 0.20223531126976013
-0.4573643207550049 0.5193798542022705 0.23116636276245117
-0.4573643207550049 0.5348837375640869 -0.08378396183252335
-0.4573643207550049 0.5348837375640869 0.025097131729125977
-0.4573643207550049 0.5348837375640869 0.20307588577270508
-0.4573643207550049 0.5348837375640869 0.23117247223854065
-0.4573643207550049 0.5503876209259033 -0.08316697180271149
-0.4573643207550049 0.5503876209259033 0.02548057772219181
-0.4573643207550049 0.5503876209259033 0.20405671000480652
-0.4573643207550049 0.5503876209259033 0.23097378015518188
-0.4573643207550049 0.5658915042877197 -0.08253633975982666
-0.4573643207550049 0.5658915042877197 0.025064948946237564
-0.4573643207550049 0.5658915042877197 0.20514488220214844
-0.4573643207550049 0.5658915042877197 0.23079431056976318
-0.4573643207550049 0.5813953876495361 -0.08208160847425461
-0.4573643207550049 0.5813953876495361 0.024843089282512665
-0.4573643207550049 0.5813953876495361 0.2068222165107727
-0.4573643207550049 0.5813953876495361 0.23066860437393188
-0.4573643207550049 0.5968992710113525 -0.08187294006347656
-0.45736435055732727 0.5968992710113525 0.024696215987205505
-0.4573643207550049 0.5968992710113525 0.20832550525665283
-0.4573643207550049 0.5968992710113525 0.2304646074771881
-0.4573643207550049 0.612403154373169 -0.08145637810230255
-0.4573643207550049 0.612403154373169 0.024261241778731346
-0.4573643207550049 0.612403154373169 0.2120920717716217
-0.4573643207550049 0.612403154373169 0.2303904891014099
-0.4573643207550049 0.6279069185256958 -0.08136700838804245
-0.45736435055732727 0.6279069185256958 0.023701351135969162
-0.4573643207550049 0.6279069185256958 0.21598005294799805
-0.4573643207550049 0.6279069185256958 0.2303532361984253
-0.4573643207550049 0.6434108018875122 -0.08204889297485352
-0.4573643207550049 0.6434108018875122 0.023960286751389503
-0.4573643207550049 0.6434108018875122 0.21812450885772705
-0.4573643207550049 0.6434108018875122 0.23058931529521942
-0.4573643207550049 0.6589146852493286 -0.08353672921657562
-0.4573643207550049 0.6589146852493286 0.024769198149442673
-0.4573643207550049 0.6589146852493286 0.21896344423294067
-0.4573643207550049 0.6589146852493286 0.23115189373493195
-0.4573643207550049 0.674418568611145 -0.08528648316860199
-0.4573643207550049 0.674418568611145 0.025845283642411232
-0.4573643207550049 0.674418568611145 0.21875976026058197
-0.4573643207550049 0.674418568611145 0.23190173506736755
-0.4573643207550049 0.6899224519729614 -0.08559253066778183
-0.4573643207550049 0.6899224519729614 0.02785717323422432
-0.4573643207550049 0.6899224519729614 0.21840712428092957
-0.4573643207550049 0.6899224519729614 0.2326989322900772
-0.4573643207550049 0.7054263353347778 -0.08596283197402954
-0.4573643207550049 0.7054263353347778 0.03119891695678234
-0.4573643207550049 0.7054263353347778 0.21869584918022156
-0.4573643207550049 0.7054263353347778 0.2340490221977234
-0.4573643207550049 0.7209302186965942 -0.08644626289606094
-0.4573643207550049 0.7209302186965942 0.035933319479227066
-0.4573643207550049 0.7209302186965942 0.2187199592590332
-0.4573643207550049 0.7209302186965942 0.23503530025482178
-0.4573643207550049 0.7364341020584106 -0.08745120465755463
-0.4573642909526825 0.7364341020584106 0.04072566702961922
-0.4573643207550049 0.7364341020584106 0.21883398294448853
-0.4573643207550049 0.7364341020584106 0.2360740602016449
-0.4573643207550049 0.751937985420227 -0.08897070586681366
-0.4573643207550049 0.751937985420227 0.04337603971362114
-0.4573643207550049 0.751937985420227 0.21918466687202454
-0.4573643207550049 0.751937985420227 0.2372872233390808
-0.4573643207550049 0.7674418687820435 -0.09060080349445343
-0.4573643207550049 0.7674418687820435 0.04549107700586319
-0.4573643207550049 0.7674418687820435 0.22010666131973267
-0.4573643207550049 0.7674418687820435 0.23815110325813293
-0.4573643207550049 0.7829457521438599 -0.09179665148258209
-0.4573643207550049 0.7829457521438599 0.0475652702152729
-0.4573643207550049 0.7829457521438599 0.22131508588790894
-0.4573643207550049 0.7829457521438599 0.23797357082366943
-0.4573643207550049 0.7984496355056763 -0.09062927216291428
-0.4573643207550049 0.7984496355056763 0.04878871887922287
-0.4573643207550049 0.7984496355056763 0.2224029302597046
-0.4573643207550049 0.7984496355056763 0.2359234094619751
-0.4573643207550049 0.8139535188674927 -0.08813357353210449
-0.4573643207550049 0.8139535188674927 0.04947683960199356
-0.4573643207550049 0.8139535188674927 0.22321894764900208
-0.4573643207550049 0.8139535188674927 0.23407261073589325
-0.4573643207550049 0.8294574022293091 -0.08627626299858093
-0.4573643207550049 0.8294574022293091 0.050429895520210266
-0.4573643207550049 0.8294574022293091 0.22318077087402344
-0.4573643207550049 0.8294574022293091 0.2322944849729538
-0.4573643207550049 0.8449612855911255 -0.0855768695473671
-0.4573643207550049 0.8449612855911255 0.051324907690286636
-0.4573643207550049 0.8449612855911255 0.222488671541214
-0.4573643207550049 0.8449612855911255 0.23172049224376678
-0.4573643207550049 0.8604651689529419 -0.08528074622154236
-0.4573643207550049 0.8604651689529419 0.05175206437706947
-0.4573643207550049 0.8604651689529419 0.22157905995845795
-0.4573643207550049 0.8604651689529419 0.2316528856754303
-0.45736435055732727 0.8759689331054688 -0.0845467746257782
-0.4573643207550049 0.8759689331054688 0.05396465212106705
-0.4573643207550049 0.8759689331054688 0.22062519192695618
-0.4573643207550049 0.8759689331054688 0.23159641027450562
-0.4573643207550049 0.8914728164672852 -0.08344415575265884
-0.4573643207550049 0.8914728164672852 0.05662009119987488
-0.4573643207550049 0.8914728164672852 0.2192203551530838
-0.4573643207550049 0.8914728164672852 0.23114800453186035
-0.4573643207550049 0.9069766998291016 -0.0838886946439743
-0.4573643207550049 0.9069766998291016 0.06744995713233948
-0.4573643207550049 0.9069766998291016 0.21812134981155396
-0.4573643207550049 0.9069766998291016 0.2295583188533783
-0.4573643207550049 0.922480583190918 -0.08556760847568512
-0.4573643207550049 0.922480583190918 0.12820322811603546
-0.4573643207550049 0.9379844665527344 -0.08732978254556656
-0.4573643207550049 0.9379844665527344 0.12023001909255981
-0.4573643207550049 0.9534883499145508 -0.07639190554618835
-0.4573643207550049 0.9534883499145508 -0.06064225360751152
-0.4418604373931885 -0.9844961166381836 -0.10177503526210785
-0.4418604373931885 -0.9844961166381836 -0.03040900267660618
-0.4418604373931885 -0.9689922332763672 -0.09286388009786606
-0.4418604373931885 -0.9689922332763672 -0.03475275635719299
-0.4418604373931885 -0.9534883499145508 -0.0941479355096817
-0.4418604373931885 -0.9534883499145508 -0.031206659972667694
-0.44186046719551086 -0.9379844665527344 -0.09582598507404327
-0.4418604373931885 -0.9379844665527344 -0.02511436864733696
-0.4418604373931885 -0.9379844665527344 0.036015577614307404
-0.4418604373931885 -0.9379844665527344 0.045573506504297256
-0.4418604373931885 -0.922480583190918 -0.09698876738548279
-0.4418604373931885 -0.9224806427955627 -0.022874753922224045
-0.4418604373931885 -0.9224806427955627 0.019905278459191322
-0.4418604373931885 -0.9224807024002075 0.058993421494960785
-0.4418604373931885 -0.9069767594337463 -0.0983901396393776
-0.4418604373931885 -0.9069766998291016 -0.020312393084168434
-0.4418604373931885 -0.9069766998291016 0.01753142848610878
-0.4418604373931885 -0.9069766998291016 0.06393937766551971
-0.4418604075908661 -0.8914728760719299 -0.10042520612478256
-0.4418604373931885 -0.8914728760719299 -0.00014026020653545856
-0.4418604373931885 -0.8914728760719299 0.013600065372884274
-0.4418604373931885 -0.8914729356765747 0.06498502194881439
-0.4418604373931885 -0.8759689927101135 -0.10182064771652222
-0.4418604373931885 -0.8759689927101135 0.022643186151981354
-0.44186046719551086 -0.8759689927101135 0.025136753916740417
-0.44186046719551086 -0.8759689927101135 0.054991766810417175
-0.4418604373931885 -0.8604651093482971 -0.10406772047281265
-0.4418604373931885 -0.8604651093482971 0.01839900016784668
-0.4418604373931885 -0.8449612259864807 -0.10771674662828445
-0.4418604373931885 -0.8449612259864807 0.008832277730107307
-0.4418604373931885 -0.8294573426246643 -0.16456010937690735
-0.4418604373931885 -0.8294573426246643 -0.13196200132369995
-0.4418604373931885 -0.8294573426246643 -0.11438357830047607
-0.4418604373931885 -0.8294573426246643 -0.006284457631409168
-0.4418604373931885 -0.8139535188674927 -0.17748142778873444
-0.4418604373931885 -0.8139535188674927 -0.011014111340045929
-0.4418604373931885 -0.8139535784721375 0.013332314789295197
-0.4418604373931885 -0.8139535188674927 0.033632051199674606
-0.4418604373931885 -0.7984496355056763 -0.17994409799575806
-0.4418604373931885 -0.7984496355056763 0.03885519504547119
-0.4418604373931885 -0.7829457521438599 -0.18087759613990784
-0.44186046719551086 -0.7829457521438599 0.03951757401227951
-0.4418604373931885 -0.7674418687820435 -0.1811392903327942
-0.4418604373931885 -0.7674418687820435 0.05233151465654373
-0.4418604373931885 -0.751937985420227 -0.17994621396064758
-0.4418604373931885 -0.751937985420227 0.06560306251049042
-0.4418604373931885 -0.7364341020584106 -0.17559334635734558
-0.4418604373931885 -0.7364341020584106 0.08089356869459152
-0.4418604373931885 -0.7364341020584106 0.08760286867618561
-0.4418604373931885 -0.7364341020584106 0.11801743507385254
-0.4418604373931885 -0.7209302186965942 -0.16908326745033264
-0.4418604373931885 -0.7209302186965942 0.1295848786830902
-0.4418604373931885 -0.7054263353347778 -0.16619370877742767
-0.4418604373931885 -0.7054263353347778 0.13697820901870728
-0.4418604373931885 -0.6899224519729614 -0.16473519802093506
-0.4418604373931885 -0.6899224519729614 0.14114321768283844
-0.4418604373931885 -0.674418568611145 -0.16330963373184204
-0.4418604373931885 -0.674418568611145 0.13782911002635956
-0.4418604373931885 -0.6589146256446838 -0.16217480599880219
-0.4418604373931885 -0.6589146852493286 0.14044275879859924
-0.4418604373931885 -0.643410861492157 -0.1594463586807251
-0.4418604373931885 -0.643410861492157 0.15099786221981049
-0.4418604373931885 -0.6279069781303406 -0.1558806598186493
-0.4418604373931885 -0.6279069781303406 0.16358989477157593
-0.4418604373931885 -0.6124030947685242 -0.15236970782279968
-0.4418604075908661 -0.6124030947685242 0.16422809660434723
-0.4418604373931885 -0.596899151802063 -0.14970161020755768
-0.4418604373931885 -0.5968992114067078 0.16358041763305664
-0.4418604373931885 -0.5813953876495361 -0.1477522999048233
-0.4418604373931885 -0.5813953876495361 0.15196257829666138
-0.4418604373931885 -0.5658915042877197 -0.13659901916980743
-0.4418604373931885 -0.5658915042877197 0.14283601939678192
-0.4418604373931885 -0.5503876209259033 -0.13234809041023254
-0.4418604373931885 -0.5503876209259033 0.14620251953601837
-0.4418604373931885 -0.5348837375640869 -0.1068837121129036
-0.4418604373931885 -0.5348837375640869 0.15056268870830536
-0.4418604373931885 -0.5193798542022705 -0.10645130276679993
-0.4418604373931885 -0.5193798542022705 0.1530594825744629
-0.4418604373931885 -0.5038759708404541 -0.11268872022628784
-0.4418604373931885 -0.5038759708404541 0.1515544056892395
-0.4418604373931885 -0.4883720874786377 -0.12318263202905655
-0.4418604373931885 -0.4883721172809601 0.14742179214954376
-0.4418604373931885 -0.4728682041168213 -0.13223887979984283
-0.4418604373931885 -0.4728682041168213 0.14283935725688934
-0.4418604373931885 -0.4728682041168213 0.23296143114566803
-0.4418604373931885 -0.4728682041168213 0.24283495545387268
-0.4418604373931885 -0.4573643207550049 -0.13305586576461792
-0.4418604373931885 -0.4573643207550049 0.1494092494249344
-0.4418604373931885 -0.4573643207550049 0.21995455026626587
-0.4418604373931885 -0.4573643207550049 0.24422448873519897
-0.4418604373931885 -0.4418604373931885 -0.13267266750335693
-0.4418604373931885 -0.4418604373931885 0.1604343205690384
-0.4418604373931885 -0.4418604373931885 0.20587767660617828
-0.4418604373931885 -0.4418604373931885 0.2436562180519104
-0.4418604373931885 -0.42635661363601685 -0.1304866224527359
-0.4418604373931885 -0.42635661363601685 0.1772322803735733
-0.4418604373931885 -0.42635658383369446 0.18103942275047302
-0.4418604075908661 -0.42635661363601685 0.24346773326396942
-0.4418604373931885 -0.41085273027420044 -0.12178999185562134
-0.4418604373931885 -0.41085273027420044 0.24281437695026398
-0.44186046719551086 -0.39534884691238403 -0.11369790136814117
-0.4418604373931885 -0.39534884691238403 0.17742718756198883
-0.4418604373931885 -0.39534884691238403 0.18008388578891754
-0.4418604373931885 -0.39534884691238403 0.24204087257385254
-0.4418604373931885 -0.3798449635505676 -0.10553348809480667
-0.4418604373931885 -0.3798449635505676 0.17184332013130188
-0.4418604373931885 -0.3798449635505676 0.19640123844146729
-0.4418604373931885 -0.3798449635505676 0.2409166693687439
-0.4418604373931885 -0.3643410801887512 -0.10176776349544525
-0.4418604373931885 -0.3643410801887512 0.16758844256401062
-0.4418604373931885 -0.3643410801887512 0.20284634828567505
-0.4418604373931885 -0.3643410801887512 0.23959583044052124
-0.4418604373931885 -0.3488371968269348 -0.09867005050182343
-0.4418604373931885 -0.3488371968269348 0.16565614938735962
-0.4418604373931885 -0.3488371968269348 0.20824801921844482
-0.4418604373931885 -0.3488371968269348 0.23737996816635132
-0.4418604373931885 -0.3333333134651184 -0.09655973315238953
-0.4418604373931885 -0.3333333134651184 0.1659354269504547
-0.4418604373931885 -0.3333333134651184 0.2110748291015625
-0.4418604373931885 -0.3333333134651184 0.2364652454853058
-0.4418604373931885 -0.317829430103302 -0.09578605741262436
-0.4418604373931885 -0.317829430103302 0.16700807213783264
-0.4418604075908661 -0.3178294003009796 0.2112070918083191
-0.4418604373931885 -0.317829430103302 0.2376527488231659
-0.4418604075908661 -0.30232560634613037 -0.09579689055681229
-0.4418604373931885 -0.30232560634613037 0.16856203973293304
-0.4418604373931885 -0.30232560634613037 0.21073198318481445
-0.4418604373931885 -0.30232560634613037 0.23864874243736267
-0.4418604373931885 -0.28682172298431396 -0.09629467129707336
-0.4418604373931885 -0.28682172298431396 0.17047590017318726
-0.4418604373931885 -0.28682172298431396 0.20894590020179749
-0.4418604373931885 -0.28682172298431396 0.23884500563144684
-0.4418604373931885 -0.27131783962249756 -0.09677904844284058
-0.4418604373931885 -0.27131783962249756 0.17132185399532318
-0.4418604373931885 -0.27131783962249756 0.20735198259353638
-0.4418604373931885 -0.27131783962249756 0.23863182961940765
-0.4418604373931885 -0.25581395626068115 -0.09661789983510971
-0.4418604373931885 -0.25581395626068115 0.1694546639919281
-0.4418604075908661 -0.25581395626068115 0.2093110829591751
-0.4418604373931885 -0.25581395626068115 0.23774923384189606
-0.4418604373931885 -0.24031007289886475 -0.09634162485599518
-0.4418604373931885 -0.24031007289886475 0.1670435220003128
-0.4418604373931885 -0.24031007289886475 0.21401986479759216
-0.4418604373931885 -0.24031007289886475 0.23517730832099915
-0.4418604373931885 -0.22480618953704834 -0.09613336622714996
-0.4418604373931885 -0.22480618953704834 0.16469044983386993
-0.4418604373931885 -0.22480618953704834 0.2171221822500229
-0.4418604373931885 -0.22480618953704834 0.23317851126194
-0.4418604373931885 -0.20930230617523193 -0.09572084248065948
-0.4418604373931885 -0.20930230617523193 0.16074764728546143
-0.4418604373931885 -0.20930230617523193 0.21877726912498474
-0.4418604373931885 -0.20930230617523193 0.23149147629737854
-0.4418604373931885 -0.19379842281341553 -0.09519372880458832
-0.4418604373931885 -0.19379842281341553 0.1570064276456833
-0.4418604373931885 -0.19379842281341553 0.22043077647686005
-0.4418604373931885 -0.19379842281341553 0.22997358441352844
-0.4418604373931885 -0.1782945990562439 -0.09450235962867737
-0.4418604373931885 -0.1782945990562439 0.1534360647201538
-0.4418604373931885 -0.1782945990562439 0.22207941114902496
-0.4418604373931885 -0.1782945990562439 0.22853127121925354
-0.4418604373931885 -0.1627907156944275 -0.09409573674201965
-0.4418604075908661 -0.1627907156944275 0.1504262089729309
-0.4418604373931885 -0.1627907156944275 0.22340603172779083
-0.4418604373931885 -0.1627907156944275 0.2269628345966339
-0.4418604373931885 -0.14728683233261108 -0.09405741095542908
-0.4418604373931885 -0.14728683233261108 0.14909817278385162
-0.4418604373931885 -0.14728683233261108 0.22415009140968323
-0.4418604373931885 -0.14728683233261108 0.22587864100933075
-0.4418604373931885 -0.13178294897079468 -0.09468546509742737
-0.4418604373931885 -0.13178294897079468 0.1484440565109253
-0.4418604373931885 -0.13178294897079468 0.22401787340641022
-0.4418604373931885 -0.13178294897079468 0.22602474689483643
-0.4418604373931885 -0.11627906560897827 -0.0957484170794487
-0.4418604373931885 -0.11627906560897827 0.14847037196159363
-0.4418604373931885 -0.11627906560897827 0.2234196811914444
-0.4418604075908661 -0.11627906560897827 0.22688183188438416
-0.4418604373931885 -0.10077518224716187 -0.0971035361289978
-0.4418604373931885 -0.10077518224716187 0.1489933580160141
-0.4418604373931885 -0.10077518224716187 0.22083577513694763
-0.4418604373931885 -0.10077518224716187 0.22896911203861237
-0.4418604373931885 -0.08527129888534546 -0.09854649007320404
-0.4418604373931885 -0.08527129888534546 0.14989659190177917
-0.4418604373931885 -0.08527129888534546 0.21591031551361084
-0.4418604373931885 -0.08527129888534546 0.23027464747428894
-0.44186046719551086 -0.06976741552352905 -0.09915008395910263
-0.4418604373931885 -0.06976741552352905 0.15048816800117493
-0.4418604373931885 -0.06976741552352905 0.20780722796916962
-0.4418604373931885 -0.06976741552352905 0.23129883408546448
-0.4418604075908661 -0.05426359176635742 -0.09883382171392441
-0.4418604373931885 -0.05426359176635742 0.15006272494792938
-0.4418604373931885 -0.05426359176635742 0.20208081603050232
-0.4418604373931885 -0.05426359176635742 0.23222500085830688
-0.4418604373931885 -0.038759708404541016 -0.09817267209291458
-0.4418604373931885 -0.038759708404541016 0.1487828642129898
-0.4418604373931885 -0.038759708404541016 0.19775038957595825
-0.4418604373931885 -0.038759708404541016 0.2331775426864624
-0.4418604373931885 -0.02325582504272461 -0.09739741683006287
-0.4418604373931885 -0.02325582504272461 0.14717572927474976
-0.4418604373931885 -0.02325582504272461 0.1954120695590973
-0.4418604373931885 -0.02325582504272461 0.23395955562591553
-0.4418604373931885 -0.007751941680908203 -0.09596772491931915
-0.4418604373931885 -0.007751941680908203 0.14448778331279755
-0.4418604373931885 -0.007751941680908203 0.19484183192253113
-0.4418604373931885 -0.007751941680908203 0.23475614190101624
-0.4418604373931885 0.00775194214656949 -0.09433503448963165
-0.4418604373931885 0.007751941680908203 0.14159882068634033
-0.44186046719551086 0.007751941680908203 0.19737088680267334
-0.4418604373931885 0.007751941680908203 0.23602262139320374
-0.4418604373931885 0.02325582504272461 -0.09270552545785904
-0.4418604373931885 0.02325582504272461 0.13856631517410278
-0.4418604075908661 0.02325582504272461 0.19853410124778748
-0.4418604373931885 0.02325582504272461 0.23711279034614563
-0.4418604373931885 0.038759708404541016 -0.09117738902568817
-0.4418604373931885 0.038759708404541016 0.13675180077552795
-0.4418604373931885 0.038759708404541016 0.200296550989151
-0.4418604373931885 0.038759708404541016 0.23833197355270386
-0.4418604373931885 0.05426359176635742 -0.09014926850795746
-0.4418604373931885 0.05426359176635742 0.13614097237586975
-0.4418604373931885 0.05426359176635742 0.20066702365875244
-0.4418604075908661 0.05426358804106712 0.2404012680053711
-0.4418604373931885 0.06976747512817383 -0.08955919742584229
-0.4418604373931885 0.06976747512817383 0.1349775791168213
-0.4418604373931885 0.06976747512817383 0.19872872531414032
-0.4418604373931885 0.06976747512817383 0.24105505645275116
-0.4418604373931885 0.08527135848999023 -0.08920025080442429
-0.4418604373931885 0.08527135848999023 0.13282740116119385
-0.4418604373931885 0.08527135848999023 0.19456332921981812
-0.44186046719551086 0.08527135848999023 0.24140489101409912
-0.4418604373931885 0.10077524185180664 -0.08909088373184204
-0.4418604373931885 0.10077524185180664 0.1306183636188507
-0.4418604373931885 0.10077524185180664 0.19216038286685944
-0.4418604373931885 0.10077523440122604 0.2416304349899292
-0.4418604373931885 0.11627912521362305 -0.08898468315601349
-0.4418604373931885 0.11627912521362305 0.12763254344463348
-0.4418604373931885 0.11627912521362305 0.19108682870864868
-0.4418604373931885 0.11627912521362305 0.24155843257904053
-0.4418604373931885 0.1317828893661499 -0.08859294652938843
-0.4418604373931885 0.1317828893661499 0.12484832108020782
-0.4418604373931885 0.1317828893661499 0.19122056663036346
-0.44186046719551086 0.1317828893661499 0.24128518998622894
-0.4418604373931885 0.1472867727279663 -0.08819302171468735
-0.4418604373931885 0.1472867727279663 0.12018448114395142
-0.4418604373931885 0.1472867727279663 0.1920921504497528
-0.4418604373931885 0.1472867727279663 0.24106305837631226
-0.4418604373931885 0.16279065608978271 -0.0878702774643898
-0.4418604373931885 0.16279065608978271 0.07425990700721741
-0.4418604373931885 0.16279065608978271 0.1928033083677292
-0.4418604373931885 0.16279065608978271 0.24089479446411133
-0.4418604373931885 0.17829453945159912 -0.08742669224739075
-0.4418604373931885 0.17829453945159912 0.06514959037303925
-0.4418604373931885 0.17829453945159912 0.1936093121767044
-0.4418604373931885 0.17829453945159912 0.24064555764198303
-0.4418604373931885 0.19379842281341553 -0.0870024710893631
-0.4418604373931885 0.19379842281341553 0.05889959633350372
-0.4418604075908661 0.19379842281341553 0.19667549431324005
-0.4418604373931885 0.19379842281341553 0.23937378823757172
-0.4418604373931885 0.20930230617523193 -0.08669468015432358
-0.4418604373931885 0.20930230617523193 0.054588682949543
-0.4418604373931885 0.20930230617523193 0.20074453949928284
-0.4418604373931885 0.20930230617523193 0.23786650598049164
-0.4418604373931885 0.22480618953704834 -0.08638563007116318
-0.4418604373931885 0.22480618953704834 0.048769377171993256
-0.4418604373931885 0.22480618953704834 0.20397187769412994
-0.4418604373931885 0.22480618953704834 0.23684781789779663
-0.4418604373931885 0.24031007289886475 -0.08608425408601761
-0.4418604373931885 0.24031007289886475 0.04379282891750336
-0.4418604373931885 0.24031007289886475 0.2058035433292389
-0.4418604373931885 0.24031007289886475 0.2359108328819275
-0.4418604373931885 0.25581395626068115 -0.08594325929880142
-0.4418604373931885 0.25581395626068115 0.039420656859874725
-0.4418604373931885 0.25581395626068115 0.20603257417678833
-0.4418604373931885 0.25581395626068115 0.23479332029819489
-0.4418604373931885 0.27131783962249756 -0.08595801889896393
-0.4418604373931885 0.27131783962249756 0.03676553815603256
-0.4418604373931885 0.27131783962249756 0.20610922574996948
-0.4418604373931885 0.27131783962249756 0.2349410057067871
-0.4418604373931885 0.28682172298431396 -0.08591040968894958
-0.4418604373931885 0.28682172298431396 0.03493254631757736
-0.4418604373931885 0.28682172298431396 0.20525579154491425
-0.4418604373931885 0.28682172298431396 0.23486247658729553
-0.4418604373931885 0.30232560634613037 -0.08599825948476791
-0.4418604373931885 0.30232560634613037 0.03368706256151199
-0.4418604373931885 0.30232560634613037 0.20331501960754395
-0.4418604373931885 0.30232560634613037 0.23461386561393738
-0.4418604373931885 0.3178294897079468 -0.0860496312379837
-0.4418604373931885 0.3178294897079468 0.03420537710189819
-0.4418604373931885 0.3178294897079468 0.2031618356704712
-0.4418604373931885 0.3178294897079468 0.23483659327030182
-0.4418604373931885 0.3333333730697632 -0.08599728345870972
-0.4418604373931885 0.3333333730697632 0.03474529832601547
-0.4418604373931885 0.3333333730697632 0.2040763795375824
-0.4418604373931885 0.3333333730697632 0.23521539568901062
-0.4418604373931885 0.3488372564315796 -0.08606112003326416
-0.4418604373931885 0.3488372564315796 0.03503183275461197
-0.4418604373931885 0.3488372564315796 0.2048511803150177
-0.4418604373931885 0.3488372564315796 0.2360129952430725
-0.4418604373931885 0.364341139793396 -0.08615773171186447
-0.4418604373931885 0.364341139793396 0.03471020609140396
-0.4418604373931885 0.364341139793396 0.20522654056549072
-0.4418604373931885 0.364341139793396 0.23629365861415863
-0.4418604373931885 0.37984490394592285 -0.08620359003543854
-0.4418604373931885 0.37984490394592285 0.03358866274356842
-0.4418604373931885 0.37984490394592285 0.20614442229270935
-0.4418604373931885 0.37984490394592285 0.236677885055542
-0.4418604373931885 0.39534878730773926 -0.08610115200281143
-0.4418604373931885 0.39534878730773926 0.032471220940351486
-0.4418604373931885 0.39534878730773926 0.20835547149181366
-0.4418604373931885 0.39534878730773926 0.23769408464431763
-0.4418604373931885 0.41085267066955566 -0.08599074929952621
-0.4418604373931885 0.41085267066955566 0.03104924038052559
-0.4418604373931885 0.41085267066955566 0.2104785144329071
-0.4418604373931885 0.41085267066955566 0.23901544511318207
-0.4418604373931885 0.42635655403137207 -0.08583161979913712
-0.4418604373931885 0.42635655403137207 0.02917051687836647
-0.4418604075908661 0.42635655403137207 0.2125796675682068
-0.4418604373931885 0.42635655403137207 0.2403390109539032
-0.4418604373931885 0.4418604373931885 -0.08573199808597565
-0.4418604373931885 0.4418604373931885 0.02758990228176117
-0.4418604373931885 0.4418604373931885 0.21376565098762512
-0.4418604373931885 0.4418604373931885 0.24080076813697815
-0.4418604373931885 0.4573643207550049 -0.08562947064638138
-0.4418604373931885 0.4573643207550049 0.02616574801504612
-0.4418604373931885 0.4573643207550049 0.21373021602630615
-0.4418604373931885 0.4573643207550049 0.24107041954994202
-0.4418604373931885 0.4728682041168213 -0.0855565145611763
-0.4418604373931885 0.4728682041168213 0.025356709957122803
-0.4418604373931885 0.4728682041168213 0.21298828721046448
-0.4418604373931885 0.4728682041168213 0.24124333262443542
-0.4418604373931885 0.4883720874786377 -0.08554282039403915
-0.4418604373931885 0.4883720874786377 0.025256413966417313
-0.4418604373931885 0.4883720874786377 0.21186287701129913
-0.4418604373931885 0.4883720874786377 0.24161158502101898
-0.4418604373931885 0.5038759708404541 -0.08540842682123184
-0.4418604373931885 0.5038759708404541 0.02502400428056717
-0.4418604373931885 0.5038759708404541 0.21060097217559814
-0.44186046719551086 0.5038759708404541 0.2416907548904419
-0.4418604373931885 0.5193798542022705 -0.08495943248271942
-0.44186046719551086 0.5193798542022705 0.025024428963661194
-0.4418604373931885 0.5193798542022705 0.21107028424739838
-0.4418604373931885 0.5193798542022705 0.24190011620521545
-0.44186046719551086 0.5348837375640869 -0.08395994454622269
-0.4418604373931885 0.5348837375640869 0.025326650589704514
-0.4418604075908661 0.5348837375640869 0.21174363791942596
-0.4418604373931885 0.5348837375640869 0.24202266335487366
-0.44186046719551086 0.5503876209259033 -0.08332979679107666
-0.4418604373931885 0.5503876209259033 0.02570291981101036
-0.4418604373931885 0.5503876209259033 0.21261227130889893
-0.44186046719551086 0.5503876209259033 0.24189019203186035
-0.4418604373931885 0.5658915042877197 -0.08275502920150757
-0.4418604373931885 0.5658915042877197 0.025271203368902206
-0.4418604373931885 0.5658915042877197 0.2137446403503418
-0.4418604373931885 0.5658915042877197 0.24177546799182892
-0.4418604373931885 0.5813953876495361 -0.08241551369428635
-0.4418604373931885 0.5813953876495361 0.025059562176465988
-0.4418604373931885 0.5813953876495361 0.21624469757080078
-0.4418604075908661 0.5813953876495361 0.24185490608215332
-0.4418604373931885 0.5968992710113525 -0.08229291439056396
-0.4418604373931885 0.5968992710113525 0.02496444061398506
-0.4418604373931885 0.5968992710113525 0.21854904294013977
-0.4418604373931885 0.5968992710113525 0.24197764694690704
-0.4418604373931885 0.612403154373169 -0.08193998783826828
-0.4418604373931885 0.612403154373169 0.024547090753912926
-0.4418604373931885 0.612403154373169 0.22064509987831116
-0.4418604373931885 0.612403154373169 0.2422836422920227
-0.4418604373931885 0.6279069185256958 -0.08191214501857758
-0.4418604075908661 0.6279069185256958 0.024057937785983086
-0.4418604373931885 0.6279069185256958 0.22194558382034302
-0.4418604373931885 0.6279069185256958 0.24261288344860077
-0.4418604373931885 0.6434108018875122 -0.08269131183624268
-0.4418604373931885 0.6434108018875122 0.024265484884381294
-0.4418604373931885 0.6434108018875122 0.2228870689868927
-0.4418604373931885 0.6434108018875122 0.24312102794647217
-0.4418604373931885 0.6589146852493286 -0.08431505411863327
-0.4418604373931885 0.6589146852493286 0.025042768567800522
-0.4418604373931885 0.6589146852493286 0.22344928979873657
-0.4418604373931885 0.6589146852493286 0.2437019646167755
-0.4418604373931885 0.674418568611145 -0.08540219813585281
-0.4418604373931885 0.674418568611145 0.02608289010822773
-0.4418604373931885 0.674418568611145 0.22341468930244446
-0.44186046719551086 0.674418568611145 0.24412626028060913
-0.4418604373931885 0.6899224519729614 -0.08571670204401016
-0.4418604373931885 0.6899224519729614 0.028038088232278824
-0.4418604373931885 0.6899224519729614 0.22333011031150818
-0.4418604373931885 0.6899224519729614 0.2444564402103424
-0.4418604373931885 0.7054263353347778 -0.08612394332885742
-0.4418604373931885 0.7054263353347778 0.03132198750972748
-0.4418604373931885 0.7054263353347778 0.22372297942638397
-0.4418604373931885 0.7054263353347778 0.2448858618736267
-0.4418604373931885 0.7209302186965942 -0.08677668124437332
-0.4418604373931885 0.7209302186965942 0.03592829033732414
-0.4418604373931885 0.7209302186965942 0.2239178717136383
-0.4418604373931885 0.7209302186965942 0.24509891867637634
-0.4418604373931885 0.7364341020584106 -0.08838123083114624
-0.4418604373931885 0.7364341616630554 0.04059818759560585
-0.4418604373931885 0.7364341020584106 0.22417624294757843
-0.4418604373931885 0.7364341020584106 0.24532780051231384
-0.4418604373931885 0.751937985420227 -0.09075361490249634
-0.4418604373931885 0.751937985420227 0.04322753846645355
-0.4418604373931885 0.751937985420227 0.22453370690345764
-0.4418604373931885 0.751937985420227 0.24555663764476776
-0.4418604373931885 0.7674418687820435 -0.09234187006950378
-0.4418604373931885 0.7674418687820435 0.045514583587646484
-0.4418604373931885 0.7674418687820435 0.2263438105583191
-0.4418604373931885 0.7674418687820435 0.24565577507019043
-0.4418604373931885 0.7829457521438599 -0.09155883640050888
-0.4418604373931885 0.7829457521438599 0.04769516363739967
-0.4418604373931885 0.7829457521438599 0.22947874665260315
-0.4418604373931885 0.7829457521438599 0.24552606046199799
-0.4418604373931885 0.7984496355056763 -0.089638851583004
-0.4418604373931885 0.7984496355056763 0.04882248491048813
-0.4418604373931885 0.7984496355056763 0.23212704062461853
-0.44186046719551086 0.7984496355056763 0.2452722191810608
-0.4418604373931885 0.8139535188674927 -0.0878094881772995
-0.4418604373931885 0.8139535188674927 0.049398697912693024
-0.4418604373931885 0.8139535188674927 0.23398283123970032
-0.4418604373931885 0.8139535188674927 0.24524223804473877
-0.4418604373931885 0.8294574022293091 -0.08644507825374603
-0.4418604373931885 0.8294574022293091 0.05049790069460869
-0.4418604373931885 0.8294574022293091 0.23443210124969482
-0.4418604373931885 0.8294574022293091 0.24525924026966095
-0.4418604373931885 0.8449612855911255 -0.08589647710323334
-0.4418604373931885 0.8449612855911255 0.05168065428733826
-0.4418604373931885 0.8449612855911255 0.2339293658733368
-0.4418604373931885 0.8449612855911255 0.24516993761062622
-0.4418604373931885 0.8604651689529419 -0.08558497577905655
-0.4418604373931885 0.8604651689529419 0.05218512564897537
-0.4418604373931885 0.8604651689529419 0.23284107446670532
-0.4418604373931885 0.8604651689529419 0.24492153525352478
-0.4418604373931885 0.8759689331054688 -0.08540685474872589
-0.4418604373931885 0.8759689331054688 0.05413514003157616
-0.4418604373931885 0.8759689331054688 0.23106098175048828
-0.4418604373931885 0.8759689331054688 0.24424953758716583
-0.4418604373931885 0.8914727568626404 -0.08490952104330063
-0.4418604373931885 0.8914728164672852 0.05581405758857727
-0.4418604373931885 0.8914728164672852 0.22476695477962494
-0.44186046719551086 0.8914728760719299 0.24224303662776947
-0.4418604373931885 0.9069766998291016 -0.08458889275789261
-0.4418604373931885 0.9069766998291016 0.06036026403307915
-0.4418604373931885 0.9069766998291016 0.2233710139989853
-0.4418604373931885 0.9069766998291016 0.23430348932743073
-0.4418604373931885 0.922480583190918 -0.08537553995847702
-0.4418604373931885 0.922480583190918 0.08711723238229752
-0.4418604373931885 0.922480583190918 0.22265884280204773
-0.4418604373931885 0.922480583190918 0.23174935579299927
-0.4418604373931885 0.9379844665527344 -0.08646049350500107
-0.4418604373931885 0.9379844665527344 0.13348180055618286
-0.4418604373931885 0.9534883499145508 -0.08710696548223495
-0.4418604373931885 0.9534883499145508 0.03525330871343613
-0.42635661363601685 -0.9844961166381836 -0.10203036665916443
-0.42635661363601685 -0.9844961166381836 -0.030287321656942368
-0.42635661363601685 -0.9689922332763672 -0.0928424522280693
-0.42635661363601685 -0.9689922332763672 -0.034379661083221436
-0.42635661363601685 -0.9534883499145508 -0.09420125186443329
-0.42635661363601685 -0.9534883499145508 -0.03041684627532959
-0.42635661363601685 -0.9379844665527344 -0.09585874527692795
-0.42635661363601685 -0.9379844665527344 -0.02499503456056118
-0.42635661363601685 -0.9379844665527344 0.0357496552169323
-0.42635661363601685 -0.9379844665527344 0.04592231288552284
-0.42635661363601685 -0.9224806427955627 -0.09698019921779633
-0.42635661363601685 -0.9224806427955627 -0.02307492308318615
-0.42635661363601685 -0.9224806427955627 0.019486723467707634
-0.42635661363601685 -0.922480583190918 0.05914747714996338
-0.42635661363601685 -0.9069767594337463 -0.09840237349271774
-0.42635661363601685 -0.9069768190383911 -0.020817290991544724
-0.42635661363601685 -0.9069768190383911 0.016901770606637
-0.42635661363601685 -0.9069768190383911 0.06434294581413269
-0.42635661363601685 -0.8914728760719299 -0.10058848559856415
-0.42635661363601685 -0.8914729356765747 -0.0010180347599089146
-0.42635664343833923 -0.8914728760719299 0.01246877945959568
-0.42635661363601685 -0.8914728760719299 0.06594890356063843
-0.42635661363601685 -0.8759690523147583 -0.10216619074344635
-0.42635661363601685 -0.8759689927101135 0.055370889604091644
-0.42635661363601685 -0.8604651093482971 -0.10497663915157318
-0.42635661363601685 -0.8604651093482971 0.020691564306616783
-0.42635661363601685 -0.8449612259864807 -0.10944648832082748
-0.42635661363601685 -0.8449612259864807 0.010288827121257782
-0.42635661363601685 -0.8294573426246643 -0.16515687108039856
-0.42635661363601685 -0.8294573426246643 -0.005066814832389355
-0.42635661363601685 -0.8139535188674927 -0.17830432951450348
-0.42635661363601685 -0.8139535188674927 -0.008402236737310886
-0.42635661363601685 -0.8139535188674927 0.011916282586753368
-0.42635661363601685 -0.8139535188674927 0.03662148490548134
-0.42635661363601685 -0.7984496355056763 -0.1800667643547058
-0.42635661363601685 -0.7984496355056763 0.04058213531970978
-0.42635661363601685 -0.7829457521438599 -0.180975079536438
-0.42635661363601685 -0.7829457521438599 0.04216234013438225
-0.42635661363601685 -0.7674418687820435 -0.18114598095417023
-0.42635661363601685 -0.7674419283866882 0.05491606891155243
-0.42635661363601685 -0.751937985420227 -0.1800130307674408
-0.42635661363601685 -0.751937985420227 0.06726866215467453
-0.42635661363601685 -0.7364341020584106 -0.17683714628219604
-0.42635661363601685 -0.7364341020584106 0.08416607230901718
-0.42635658383369446 -0.7364341020584106 0.08583204448223114
-0.42635661363601685 -0.7364341020584106 0.11808061599731445
-0.42635661363601685 -0.7209302186965942 -0.17028261721134186
-0.42635661363601685 -0.7209302186965942 0.1295476257801056
-0.42635661363601685 -0.7054263353347778 -0.1670280396938324
-0.42635661363601685 -0.7054263353347778 0.13729222118854523
-0.42635661363601685 -0.6899224519729614 -0.16544152796268463
-0.42635661363601685 -0.6899224519729614 0.14190971851348877
-0.42635661363601685 -0.674418568611145 -0.1639995276927948
-0.42635661363601685 -0.674418568611145 0.1387898027896881
-0.42635661363601685 -0.6589146852493286 -0.16331394016742706
-0.42635661363601685 -0.6589146852493286 0.14128227531909943
-0.42635661363601685 -0.643410861492157 -0.16242851316928864
-0.42635661363601685 -0.643410861492157 0.15120527148246765
-0.42635661363601685 -0.6279069781303406 -0.15768620371818542
-0.42635661363601685 -0.6279069781303406 0.16355107724666595
-0.42635661363601685 -0.6124030947685242 -0.15341024100780487
-0.42635661363601685 -0.6124030947685242 0.16412758827209473
-0.42635661363601685 -0.5968992114067078 -0.150212362408638
-0.42635661363601685 -0.5968992114067078 0.1635015904903412
-0.42635661363601685 -0.5813953876495361 -0.14806519448757172
-0.42635661363601685 -0.5813953876495361 0.15191295742988586
-0.42635661363601685 -0.5658915042877197 -0.13780026137828827
-0.42635661363601685 -0.5658915042877197 0.1434878408908844
-0.42635661363601685 -0.5503876209259033 -0.1327364444732666
-0.42635661363601685 -0.5503876209259033 0.14725904166698456
-0.42635661363601685 -0.5348837375640869 -0.11062903702259064
-0.42635661363601685 -0.5348837375640869 0.15072357654571533
-0.42635661363601685 -0.5193798542022705 -0.1097889393568039
-0.42635658383369446 -0.5193798542022705 0.15338361263275146
-0.42635661363601685 -0.5038759708404541 -0.1165410578250885
-0.42635661363601685 -0.5038759708404541 0.15178702771663666
-0.42635661363601685 -0.4883720576763153 -0.12560638785362244
-0.42635661363601685 -0.4883720874786377 0.1478714495897293
-0.42635661363601685 -0.4728682041168213 -0.1324230134487152
-0.42635661363601685 -0.4728682041168213 0.14391756057739258
-0.42635661363601685 -0.4728682041168213 0.23992440104484558
-0.42635661363601685 -0.4728681743144989 0.24223266541957855
-0.42635661363601685 -0.4573643207550049 -0.1331760287284851
-0.42635661363601685 -0.4573643207550049 0.14990486204624176
-0.42635661363601685 -0.4573643207550049 0.23315083980560303
-0.42635661363601685 -0.4573643207550049 0.25275200605392456
-0.42635661363601685 -0.4418604373931885 -0.13272690773010254
-0.42635661363601685 -0.4418604373931885 0.15965569019317627
-0.42635661363601685 -0.4418604373931885 0.222270667552948
-0.42635661363601685 -0.4418604373931885 0.2510286271572113
-0.42635661363601685 -0.42635661363601685 -0.1306205838918686
-0.42635661363601685 -0.42635661363601685 0.16822190582752228
-0.42635661363601685 -0.42635661363601685 0.21301157772541046
-0.42635661363601685 -0.42635661363601685 0.2516736686229706
-0.42635661363601685 -0.41085273027420044 -0.12216515839099884
-0.42635661363601685 -0.41085273027420044 0.16978219151496887
-0.42635661363601685 -0.41085273027420044 0.20904730260372162
-0.42635661363601685 -0.41085273027420044 0.2511225640773773
-0.42635661363601685 -0.39534884691238403 -0.11449261009693146
-0.42635661363601685 -0.39534881711006165 0.1678026169538498
-0.42635661363601685 -0.39534884691238403 0.21241123974323273
-0.42635661363601685 -0.39534884691238403 0.2499360293149948
-0.42635661363601685 -0.3798449635505676 -0.1060863807797432
-0.42635661363601685 -0.3798449635505676 0.16649441421031952
-0.42635661363601685 -0.3798449635505676 0.217301607131958
-0.42635661363601685 -0.3798449635505676 0.2479877769947052
-0.42635661363601685 -0.3643410801887512 -0.10209491848945618
-0.42635661363601685 -0.3643410801887512 0.1651535928249359
-0.42635661363601685 -0.3643410801887512 0.220597505569458
-0.42635661363601685 -0.3643410801887512 0.246454656124115
-0.42635661363601685 -0.3488371968269348 -0.09909714013338089
-0.42635661363601685 -0.3488371968269348 0.16473521292209625
-0.42635661363601685 -0.3488371968269348 0.2234855741262436
-0.42635661363601685 -0.3488371968269348 0.24539178609848022
-0.42635661363601685 -0.3333333134651184 -0.09682131558656693
-0.42635661363601685 -0.3333333134651184 0.16514435410499573
-0.42635661363601685 -0.3333333134651184 0.22477668523788452
-0.42635661363601685 -0.3333333134651184 0.24485541880130768
-0.42635661363601685 -0.317829430103302 -0.09601669013500214
-0.42635658383369446 -0.317829430103302 0.16586795449256897
-0.42635661363601685 -0.317829430103302 0.22531911730766296
-0.42635661363601685 -0.317829430103302 0.24481168389320374
-0.42635661363601685 -0.30232560634613037 -0.09603263437747955
-0.42635664343833923 -0.30232560634613037 0.1667109727859497
-0.42635661363601685 -0.30232560634613037 0.22489456832408905
-0.42635661363601685 -0.30232560634613037 0.2448568493127823
-0.42635661363601685 -0.28682172298431396 -0.09659017622470856
-0.42635661363601685 -0.28682172298431396 0.16776666045188904
-0.42635661363601685 -0.28682172298431396 0.22391781210899353
-0.42635661363601685 -0.28682172298431396 0.2448948323726654
-0.42635658383369446 -0.27131783962249756 -0.09715478122234344
-0.42635661363601685 -0.27131783962249756 0.16806480288505554
-0.42635661363601685 -0.27131783962249756 0.22283416986465454
-0.42635661363601685 -0.27131783962249756 0.24491959810256958
-0.42635661363601685 -0.25581395626068115 -0.09703400731086731
-0.42635658383369446 -0.25581395626068115 0.16701924800872803
-0.42635661363601685 -0.25581395626068115 0.2237173467874527
-0.42635661363601685 -0.25581395626068115 0.24477416276931763
-0.42635661363601685 -0.24031008780002594 -0.09674692153930664
-0.42635661363601685 -0.24031007289886475 0.1656411737203598
-0.42635661363601685 -0.24031007289886475 0.22752533853054047
-0.42635658383369446 -0.24031007289886475 0.24420656263828278
-0.42635661363601685 -0.22480618953704834 -0.09656181931495667
-0.42635661363601685 -0.22480618953704834 0.16423366963863373
-0.42635661363601685 -0.22480618953704834 0.23143801093101501
-0.42635661363601685 -0.22480618953704834 0.24370504915714264
-0.42635661363601685 -0.20930230617523193 -0.09615014493465424
-0.42635661363601685 -0.20930230617523193 0.16160470247268677
-0.42635661363601685 -0.20930230617523193 0.23331373929977417
-0.42635661363601685 -0.20930230617523193 0.24327358603477478
-0.42635661363601685 -0.19379842281341553 -0.0955699160695076
-0.42635661363601685 -0.19379842281341553 0.1577640026807785
-0.42635661363601685 -0.19379842281341553 0.23513498902320862
-0.42635661363601685 -0.19379842281341553 0.24277237057685852
-0.42635661363601685 -0.1782945990562439 -0.0948147177696228
-0.42635661363601685 -0.1782945990562439 0.15421231091022491
-0.42635661363601685 -0.1782945990562439 0.2369847446680069
-0.42635661363601685 -0.1782945990562439 0.2421332597732544
-0.42635661363601685 -0.1627907156944275 -0.09437854588031769
-0.42635661363601685 -0.1627907156944275 0.15116986632347107
-0.42635661363601685 -0.1627907156944275 0.23852676153182983
-0.42635661363601685 -0.1627907156944275 0.24139434099197388
-0.42635661363601685 -0.14728683233261108 -0.09432592988014221
-0.42635661363601685 -0.14728683233261108 0.14985212683677673
-0.42635661363601685 -0.14728683233261108 0.23944495618343353
-0.42635661363601685 -0.14728683233261108 0.24086107313632965
-0.42635661363601685 -0.13178294897079468 -0.09496671706438065
-0.42635661363601685 -0.13178294897079468 0.14916254580020905
-0.42635661363601685 -0.13178294897079468 0.23924069106578827
-0.42635661363601685 -0.13178294897079468 0.2409558743238449
-0.42635661363601685 -0.11627907305955887 -0.09607219696044922
-0.42635661363601685 -0.11627906560897827 0.14915700256824493
-0.42635661363601685 -0.11627906560897827 0.23826155066490173
-0.42635661363601685 -0.11627906560897827 0.24147918820381165
-0.42635664343833923 -0.10077518969774246 -0.09749040752649307
-0.42635661363601685 -0.10077518224716187 0.14962926506996155
-0.42635661363601685 -0.10077518224716187 0.23534366488456726
-0.42635661363601685 -0.10077518224716187 0.24238529801368713
-0.42635661363601685 -0.08527129888534546 -0.09902995824813843
-0.42635661363601685 -0.08527129888534546 0.15035180747509003
-0.42635661363601685 -0.08527129888534546 0.2292999029159546
-0.42635661363601685 -0.08527129888534546 0.24295413494110107
-0.42635661363601685 -0.06976741552352905 -0.0997348502278328
-0.42635661363601685 -0.06976741552352905 0.15072530508041382
-0.42635661363601685 -0.06976741552352905 0.22226987779140472
-0.42635661363601685 -0.06976741552352905 0.24347515404224396
-0.42635661363601685 -0.05426359176635742 -0.0995161160826683
-0.42635661363601685 -0.05426359176635742 0.1501189023256302
-0.42635661363601685 -0.05426359176635742 0.2187211811542511
-0.42635661363601685 -0.05426359176635742 0.24407823383808136
-0.42635658383369446 -0.03875970467925072 -0.09890522062778473
-0.42635661363601685 -0.038759708404541016 0.14873668551445007
-0.42635661363601685 -0.038759708404541016 0.21574929356575012
-0.42635664343833923 -0.038759708404541016 0.24466560781002045
-0.42635661363601685 -0.02325582504272461 -0.0981927216053009
-0.42635661363601685 -0.02325582504272461 0.14713439345359802
-0.42635661363601685 -0.02325582504272461 0.21405762434005737
-0.42635661363601685 -0.02325582690536976 0.24503958225250244
-0.42635661363601685 -0.007751941215246916 -0.0966569259762764
