0.4883720874786377 -0.4137358069419861 -0.14728683233261108
0.4883720874786377 -0.4116235673427582 -0.06976741552352905
0.4883720874786377 -0.42105531692504883 -0.007751941680908203
0.4883720874786377 -0.403209388256073 -0.13178294897079468
0.4883720874786377 -0.4005119800567627 -0.11627906560897827
0.4883720874786377 -0.4009122848510742 -0.10077518224716187
0.4883720874786377 -0.4038161635398865 -0.08527129888534546
0.4883720874786377 -0.41081807017326355 0.007751941680908203
0.4883720874786377 -0.39704403281211853 0.02325582504272461
0.4883720874786377 -0.38567256927490234 -0.1627907156944275
0.4883720874786377 -0.38044875860214233 -0.06976741552352905
0.4883720874786377 -0.36471179127693176 -0.22480618953704834
0.4883720874786377 -0.3737347722053528 -0.14728683233261108
0.4883720576763153 -0.36212703585624695 -0.13178294897079468
0.4883720874786377 -0.3556568920612335 -0.08527129888534546
0.4883721172809601 -0.3151935935020447 0.02325582504272461
0.4883720874786377 -0.28499892354011536 -0.13178294897079468
0.4883720874786377 -0.26192525029182434 -0.14728683233261108
0.4883720874786377 -0.26775991916656494 0.02325582504272461
0.4883720874786377 -0.25022464990615845 -0.1627907156944275
0.4883720874786377 -0.2278127521276474 -0.1782945990562439
0.4883720874786377 -0.22145016491413116 -0.22480618953704834
0.4883720874786377 -0.21074965596199036 -0.08527129888534546
0.4883720874786377 -0.19780713319778442 -0.08527129888534546
0.4883720874786377 -0.10951292514801025 -0.1782945990562439
0.4883720874786377 -0.10684414952993393 0.6589146852493286
0.4883720874786377 -0.09250816702842712 -0.10077518224716187
0.4883720874786377 -0.09598550200462341 0.038759708404541016
0.4883720874786377 -0.08527929335832596 0.05426359176635742
0.4883720874786377 -0.08953286707401276 0.6434108018875122
0.4883720874786377 -0.07934094965457916 -0.1627907156944275
0.4883720874786377 -0.07648714631795883 -0.14728683233261108
0.4883720874786377 -0.08037929981946945 -0.13178294897079468
0.4883720874786377 -0.08007393032312393 -0.11627905815839767
0.4883720874786377 -0.07946249842643738 0.06976747512817383
0.4883720874786377 -0.07553008198738098 0.08527135848999023
0.4883720874786377 -0.07189565151929855 0.10077524185180664
0.4883720874786377 -0.07188385725021362 0.6279069185256958
0.4883720874786377 -0.06558363139629364 0.11627912521362305
0.4883720874786377 -0.05812743678689003 0.1317828893661499
0.4883720874786377 -0.05617523938417435 0.612403154373169
0.4883720874786377 -0.04664267599582672 0.1472867727279663
0.4883720874786377 -0.04210048168897629 0.5968992710113525
0.4883720874786377 -0.03252191096544266 -0.24031007289886475
0.4883720874786377 -0.033568188548088074 0.5503876209259033
0.4883720576763153 -0.035378798842430115 0.5658915042877197
0.4883721172809601 -0.033700522035360336 0.5813953876495361
0.4883720874786377 -0.0220319926738739 0.5348837375640869
0.4883720576763153 0.008677368052303791 0.14728675782680511
0.4883720576763153 0.008379120379686356 0.5193798542022705
0.4883720576763153 0.02928759530186653 0.1317828893661499
0.4883720874786377 0.045158304274082184 0.11627912521362305
0.4883720874786377 0.05835375562310219 0.10077524185180664
0.4883720874786377 0.07397561520338058 0.08527135848999023
0.4883720874786377 0.08095379918813705 0.6589146852493286
0.4883720874786377 0.09906981885433197 0.06976747512817383
0.4883720874786377 0.11239028722047806 0.5038759708404541
0.4883720874786377 0.13073228299617767 0.038759708404541016
0.4883720874786377 0.11949895322322845 0.05426359176635742
0.4883720874786377 0.12667600810527802 0.5038759708404541
0.4883720576763153 0.15457949042320251 0.02325582504272461
0.4883720576763153 0.1663707196712494 -0.14728683233261108
0.4883720874786377 0.16435912251472473 -0.13178294897079468
0.4883720874786377 0.16926658153533936 -0.11627906560897827
0.4883720874786377 0.18682515621185303 -0.10077518224716187
0.4883721172809601 0.1964736431837082 -0.1627907156944275
0.4883720874786377 0.19610053300857544 0.007751941680908203
0.4883720874786377 0.2059127688407898 0.5193798542022705
0.4883720874786377 0.23821353912353516 -0.1782945990562439
0.4883720874786377 0.24921397864818573 -0.08527129888534546
0.4883720874786377 0.25078052282333374 0.6434108018875122
0.4883720874786377 0.27105483412742615 0.5348837375640869
0.4883720874786377 0.2865622341632843 -0.007751941680908203
0.4883720874786377 0.2721245586872101 0.5348837375640869
0.4883720874786377 0.304537832736969 -0.08527129888534546
0.4883720874786377 0.3266564607620239 -0.11627906560897827
0.4883720874786377 0.3180336654186249 -0.10077518224716187
0.4883720874786377 0.33225324749946594 -0.007751941680908203
0.4883720874786377 0.3422951102256775 -0.11627906560897827
0.4883720874786377 0.34560590982437134 -0.08527129888534546
0.4883720874786377 0.3451196551322937 -0.06976741552352905
0.4883720874786377 0.35090622305870056 -0.10077518224716187
0.4883720874786377 0.3619273900985718 -0.05426359176635742
0.4883720874786377 0.37193676829338074 -0.038759708404541016
0.4883720874786377 0.37545523047447205 -0.02325582504272461
0.4883720874786377 0.37070584297180176 -0.007751941680908203
0.4883720576763153 0.39600488543510437 0.5348837375640869
0.4883720874786377 0.41405534744262695 -0.05426359176635742
0.4883720874786377 0.42028701305389404 -0.038759708404541016
0.4883720874786377 0.4375057816505432 -0.19379842281341553
0.4883720874786377 0.43542158603668213 0.5503876209259033
0.4883720874786377 0.4631938338279724 -0.05426359176635742
0.4883720874786377 0.46738386154174805 -0.038759708404541016
0.4883720874786377 0.4623273015022278 0.6279069185256958
0.4883720874786377 0.493965208530426 -0.19379842281341553
0.4883720874786377 0.4957730174064636 0.5658915042877197
0.4883720874786377 0.5525471568107605 -0.25581395626068115
0.4883720576763153 0.5576891899108887 0.612403154373169
0.4883720874786377 0.5695582032203674 -0.27131783962249756
0.4883720874786377 0.5757103562355042 -0.10077518224716187
0.4883720874786377 0.5701106786727905 -0.08527129888534546
0.4883720874786377 0.5962876081466675 -0.7209302186965942
0.4883720874786377 0.5929719805717468 -0.7054263353347778
0.4883720874786377 0.5926716923713684 -0.6899224519729614
0.4883720874786377 0.5941638946533203 -0.674418568611145
0.4883720874786377 0.59559565782547 -0.6589146852493286
0.4883720874786377 0.5964937210083008 -0.643410861492157
0.4883720874786377 0.5888122320175171 -0.27131783962249756
0.4883720874786377 0.583410382270813 -0.1782945990562439
0.4883720874786377 0.5890020728111267 -0.11627906560897827
0.4883720874786377 0.5858809947967529 -0.06976741552352905
0.4883720874786377 0.5888181924819946 -0.05426359176635742
0.4883720874786377 0.5937445163726807 -0.038759708404541016
0.4883720576763153 0.5970584154129028 -0.6279069781303406
0.4883721172809601 0.5980206727981567 -0.6124030947685242
0.4883720874786377 0.59827721118927 -0.5968992710113525
0.4883720874786377 0.6012277603149414 -0.5813953876495361
0.4883720874786377 0.6042685508728027 -0.5658915042877197
0.4883720874786377 0.6097428798675537 -0.5503876209259033
0.4883720874786377 0.6071896553039551 -0.25581395626068115
0.4883720874786377 0.6086803674697876 -0.1627907156944275
0.4883720874786377 0.6051415205001831 -0.13178294897079468
0.4883720874786377 0.6091992855072021 -0.02325582504272461
0.4883720874786377 0.6174546480178833 -0.7209302186965942
0.4883720874786377 0.6227116584777832 -0.7054263353347778
0.4883720874786377 0.6251690983772278 -0.6899224519729614
0.4883720874786377 0.6250951290130615 -0.674418568611145
0.4883720874786377 0.6235389709472656 -0.6589146852493286
0.4883720874786377 0.6221114993095398 -0.643410861492157
0.4883720874786377 0.6211636066436768 -0.6279069781303406
0.4883720874786377 0.6204847097396851 -0.6124030947685242
0.4883720874786377 0.6199349164962769 -0.5968992114067078
0.4883721172809601 0.6184065341949463 -0.5813953876495361
0.4883720874786377 0.6165657043457031 -0.5658915042877197
0.4883720874786377 0.6136484146118164 -0.5503876209259033
0.4883720576763153 0.6127529740333557 -0.14728683233261108
0.4883720874786377 0.6162924766540527 0.5968992710113525
0.4883720874786377 0.628274142742157 -0.007751941215246916
0.4883720874786377 0.6344161033630371 0.5813953876495361
0.4883720874786377 0.649909496307373 0.007751941680908203
0.4883720874786377 0.6682713031768799 0.02325582504272461
0.4883720874786377 0.6705697774887085 0.1472867727279663
0.4883720874786377 0.6669718623161316 0.16279065608978271
0.4883720874786377 0.6712558269500732 0.17829453945159912
0.4883720874786377 0.6745070815086365 0.038759708404541016
0.4883720874786377 0.6844625473022461 0.05426359176635742
0.4883720874786377 0.6866616606712341 0.06976747512817383
0.4883720874786377 0.6842546463012695 0.08527135848999023
0.4883720874786377 0.6812967658042908 0.10077524185180664
0.4883720874786377 0.6817431449890137 0.11627912521362305
0.4883720874786377 0.6765172481536865 0.1317828893661499
0.4883720874786377 0.683337390422821 0.19379842281341553
0.4883720874786377 0.6861392259597778 0.25581395626068115
0.4883720874786377 0.685038685798645 0.27131783962249756
0.4883720874786377 0.6880530118942261 0.28682172298431396
0.4883720874786377 0.6918959617614746 0.20930230617523193
0.4883720874786377 0.69298255443573 0.22480618953704834
0.4883720874786377 0.6905245184898376 0.24031007289886475
0.4883720874786377 0.6930321455001831 0.30232560634613037
0.4883720874786377 0.6976941823959351 0.3178294897079468
0.4883720874786377 0.700878381729126 0.3333333730697632
0.4883720874786377 0.7025654315948486 0.3488372564315796
0.4883720874786377 0.7026050090789795 0.364341139793396
0.4883720874786377 0.701622724533081 0.37984490394592285
0.4883720874786377 0.7002553939819336 0.39534878730773926
0.4883720874786377 0.7014409303665161 0.41085267066955566
0.4883720874786377 0.7060971260070801 0.42635655403137207
0.4883720874786377 0.7317677736282349 -0.24031007289886475
0.4883720874786377 0.7320137023925781 -0.22480618953704834
0.4883720874786377 0.7322389483451843 -0.20930230617523193
0.4883720874786377 0.732585072517395 -0.19379842281341553
0.4883720874786377 0.7327080965042114 -0.1782945990562439
0.4883720874786377 0.7328732013702393 -0.1627907156944275
0.4883720874786377 0.7328318953514099 -0.14728683233261108
0.4883720874786377 0.7326170802116394 -0.13178294897079468
0.4883720874786377 0.7326332330703735 -0.11627906560897827
0.4883720874786377 0.7330986857414246 -0.10077518224716187
0.4883720874786377 0.7335045337677002 -0.08527129888534546
0.4883720874786377 0.7337239384651184 -0.06976741552352905
0.4883720874786377 0.7340528964996338 -0.05426359176635742
0.4883720874786377 0.733860194683075 -0.038759708404541016
0.4883720874786377 0.7336919903755188 -0.02325582504272461
0.4883720874786377 0.7332265973091125 -0.007751941680908203
0.4883720874786377 0.7326182723045349 0.007751941680908203
0.4883720874786377 0.7320381999015808 0.02325582504272461
0.4883720874786377 0.7315571904182434 0.038759708404541016
0.4883720874786377 0.7310779094696045 0.05426359176635742
0.4883720874786377 0.7311044335365295 0.06976747512817383
0.4883720874786377 0.7317192554473877 0.08527135848999023
0.4883720874786377 0.7324142456054688 0.10077524185180664
0.4883720874786377 0.7330192923545837 0.11627912521362305
0.4883720874786377 0.7331933975219727 0.1317828893661499
0.4883720874786377 0.7333706617355347 0.1472867727279663
0.4883720874786377 0.7335164546966553 0.16279065608978271
0.4883720874786377 0.7335228323936462 0.17829453945159912
0.4883720874786377 0.7334402799606323 0.19379842281341553
0.4883720874786377 0.7334989905357361 0.20930230617523193
0.4883720874786377 0.7336593866348267 0.22480618953704834
0.4883720874786377 0.7340481281280518 0.24031007289886475
0.4883720874786377 0.7345433831214905 0.25581395626068115
0.4883720874786377 0.7349833250045776 0.27131783962249756
0.4883720874786377 0.735789954662323 0.28682172298431396
0.4883720874786377 0.7360842823982239 0.42635655403137207
0.4883720874786377 0.7366265654563904 0.30232560634613037
0.4883720576763153 0.7369703650474548 0.3178294897079468
0.4883720874786377 0.7370331287384033 0.3333333730697632
0.4883720576763153 0.7369021773338318 0.3488372564315796
0.4883721172809601 0.7366521954536438 0.3643411695957184
0.4883720874786377 0.736545741558075 0.37984490394592285
0.4883720874786377 0.7365895509719849 0.39534881711006165
0.4883720874786377 0.736657977104187 0.4108526408672333
0.5038759708404541 -0.7371801137924194 -0.20930230617523193
0.5038759708404541 -0.738606870174408 -0.19379842281341553
0.5038759708404541 -0.7379839420318604 -0.1782945990562439
0.5038759708404541 -0.7220721244812012 -0.25581395626068115
0.5038759708404541 -0.7291884422302246 -0.24031007289886475
0.5038759708404541 -0.7340636253356934 -0.22480620443820953
0.5038759708404541 -0.7340224981307983 -0.1627907156944275
0.5038759708404541 -0.7088748812675476 -0.27131783962249756
0.5038759708404541 -0.6688896417617798 -0.14728683233261108
0.5038759708404541 -0.6376795172691345 -0.27131783962249756
0.5038759708404541 -0.642677903175354 -0.13178294897079468
0.5038759708404541 -0.6141119003295898 -0.25581395626068115
0.5038759708404541 -0.6266037821769714 -0.11627906560897827
0.5038759708404541 -0.5981103777885437 -0.24031007289886475
0.5038759708404541 -0.5761359930038452 -0.22480617463588715
0.5038759708404541 -0.5786411762237549 -0.1627907156944275
0.5038759708404541 -0.5639950633049011 -0.1782945990562439
0.5038759708404541 -0.5523085594177246 -0.14728683233261108
0.5038759708404541 -0.5621650815010071 -0.11627906560897827
0.5038759708404541 -0.5437787771224976 -0.13178294897079468
0.5038759708404541 -0.4743926227092743 -0.1782945990562439
0.5038759708404541 -0.4605953097343445 -0.22480618953704834
0.5038759708404541 -0.4625968039035797 -0.14728683233261108
0.5038759708404541 -0.4672092795372009 -0.13178294897079468
0.5038759708404541 -0.4635573625564575 -0.11627906560897827
0.5038759708404541 -0.46017318964004517 -0.10077518224716187
0.5038759708404541 -0.45834946632385254 -0.08527129888534546
0.5038759708404541 -0.44708263874053955 -0.06976741552352905
0.5038759708404541 -0.43500977754592896 -0.05426359176635742
0.5038759708404541 -0.43275827169418335 -0.038759708404541016
0.5038759708404541 -0.4294317364692688 -0.02325582504272461
0.5038759708404541 -0.4123516380786896 -0.14728683233261108
0.5038759708404541 -0.41248074173927307 -0.06976741552352905
0.5038759708404541 -0.421017587184906 -0.007751941680908203
0.5038759708404541 -0.4025644063949585 -0.13178294897079468
0.5038759708404541 -0.4002797305583954 -0.11627906560897827
0.5038759708404541 -0.4009148180484772 -0.10077518224716187
0.5038759708404541 -0.40392279624938965 -0.08527129888534546
0.5038759708404541 -0.41076433658599854 0.00775194214656949
0.5038759708404541 -0.39648228883743286 0.02325582504272461
0.5038759708404541 -0.38632142543792725 -0.1627907156944275
0.5038759708404541 -0.3750208020210266 -0.14728683233261108
0.5038759708404541 -0.3796268403530121 -0.06976741552352905
0.5038759708404541 -0.3538219630718231 -0.22480618953704834
0.5038759708404541 -0.362236350774765 -0.13178294897079468
0.5038759708404541 -0.3552837073802948 -0.08527129888534546
0.5038759708404541 -0.31992197036743164 0.02325582504272461
0.5038759708404541 -0.27372002601623535 -0.22480618953704834
0.5038759708404541 -0.28536608815193176 -0.13178294897079468
0.5038759708404541 -0.26215261220932007 -0.14728683233261108
0.5038759708404541 -0.2614288032054901 0.02325582504272461
0.5038759708404541 -0.2497403919696808 -0.1627907156944275
0.5038759708404541 -0.22510655224323273 -0.1782945990562439
0.5038759708404541 -0.20993219316005707 -0.08527129888534546
0.5038759708404541 -0.20587849617004395 -0.08527129888534546
0.5038759708404541 -0.11123012006282806 -0.1782945990562439
0.5038759708404541 -0.10691378265619278 0.674418568611145
0.5038759708404541 -0.09276549518108368 -0.10077518224716187
0.5038759708404541 -0.09364036470651627 0.038759708404541016
0.5038759708404541 -0.0966482162475586 0.6589146852493286
0.5038759708404541 -0.0804988443851471 -0.1627907156944275
0.5038759708404541 -0.07779031991958618 -0.14728683233261108
0.5038759708404541 -0.08140049129724503 -0.13178294897079468
0.5038759708404541 -0.0803133025765419 -0.11627906560897827
0.5038759708404541 -0.08335509896278381 0.05426359176635742
0.5038759708404541 -0.07826682925224304 0.06976747512817383
0.5038759708404541 -0.07493418455123901 0.08527135848999023
0.5038759708404541 -0.07157895714044571 0.10077524185180664
0.5038759708404541 -0.08038172125816345 0.6434108018875122
0.5038759708404541 -0.06531958281993866 0.11627912521362305
0.5038759708404541 -0.058271050453186035 0.1317828893661499
0.5038759708404541 -0.062279973179101944 0.6279069185256958
0.5038759708404541 -0.0473429299890995 0.1472867727279663
0.5038759708404541 -0.04817488417029381 0.612403154373169
0.5038759708404541 -0.0347132682800293 -0.24031007289886475
0.5038759708404541 -0.023778483271598816 0.5658915042877197
0.5038759708404541 -0.0246770977973938 0.5813953876495361
0.5038759708404541 -0.035787638276815414 0.5968992710113525
0.5038759708404541 -0.0207196194678545 0.5503876209259033
0.5038759708404541 -0.02092958427965641 0.674418568611145
0.5038759708404541 -0.004736513830721378 0.5348837375640869
0.5038759708404541 0.010045256465673447 0.1472867727279663
0.5038759708404541 0.030987262725830078 0.1317828893661499
0.5038759708404541 0.035186123102903366 0.5193798542022705
0.5038759708404541 0.04669159650802612 0.11627912521362305
0.5038759708404541 0.06008899211883545 0.10077524185180664
0.5038759708404541 0.07520641386508942 0.08527135848999023
0.5038759708404541 0.09842987358570099 0.06976747512817383
0.5038759708404541 0.13038557767868042 0.038759708404541016
0.5038759708404541 0.11878102272748947 0.05426359176635742
0.5038759708404541 0.15611062943935394 0.02325582504272461
0.5038759708404541 0.17054858803749084 -0.14728683233261108
0.5038759708404541 0.166958287358284 -0.13178294897079468
0.5038759708404541 0.17187634110450745 -0.11627906560897827
0.5038759708404541 0.17810308933258057 0.5193798542022705
0.5038759708404541 0.16843758523464203 0.6589146852493286
0.5038759708404541 0.19150198996067047 -0.10077518224716187
0.5038759708404541 0.20017141103744507 -0.1627907156944275
0.5038759708404541 0.20269395411014557 0.007751941680908203
0.5038759708404541 0.22636927664279938 0.5348837375640869
0.5038759708404541 0.24746555089950562 -0.1782945990562439
0.5038759708404541 0.2968404293060303 -0.007751941680908203
0.5038759708404541 0.31209152936935425 -0.1782945990562439
0.5038759708404541 0.31390535831451416 -0.10077518224716187
0.5038759708404541 0.31899547576904297 -0.1782945990562439
0.5038759708404541 0.3208017349243164 -0.11627906560897827
0.5038759708404541 0.3285135328769684 -0.007751941680908203
0.5038759708404541 0.32626524567604065 0.5348837375640869
0.5038759708404541 0.3352924585342407 0.6434108018875122
0.5038759708404541 0.3488728702068329 -0.11627906560897827
0.5038759708404541 0.3529784083366394 -0.10077518224716187
0.5038759708404541 0.34953388571739197 -0.08527130633592606
0.5038759708404541 0.3495139181613922 -0.06976741552352905
0.5038759708404541 0.3500414788722992 0.5348837375640869
0.5038759708404541 0.36679935455322266 -0.05426359176635742
0.5038759708404541 0.37368541955947876 -0.038759708404541016
0.5038759708404541 0.37637218832969666 -0.02325582504272461
0.5038759708404541 0.3715311288833618 -0.00775194214656949
0.5038759708404541 0.415169894695282 -0.05426359176635742
0.5038759708404541 0.4215486943721771 -0.038759708404541016
0.5038759708404541 0.41744333505630493 0.5503876209259033
0.5038759708404541 0.46189481019973755 -0.05426359176635742
0.5038759708404541 0.4649696946144104 -0.038759708404541016
0.5038759708404541 0.47728461027145386 -0.19379842281341553
0.5038759708404541 0.47707343101501465 0.5658915042877197
0.5038759708404541 0.4890115559101105 -0.19379842281341553
0.5038759708404541 0.5141906142234802 0.6279069185256958
0.5038759708404541 0.5499411821365356 -0.27131783962249756
0.5038759708404541 0.5431711077690125 -0.25581395626068115
0.5038759708404541 0.5629861354827881 -0.3488371968269348
0.5038759708404541 0.5586974620819092 -0.3333333134651184
0.5038759708404541 0.554175615310669 -0.317829430103302
0.5038759708404541 0.5523292422294617 -0.30232560634613037
0.5038759708404541 0.5520591139793396 -0.2868216931819916
0.5038759708404541 0.5640236735343933 -0.10077518224716187
0.5038759708404541 0.5562788248062134 -0.08527129888534546
0.5038759708404541 0.5596215724945068 -0.06976741552352905
0.5038759708404541 0.5611675381660461 -0.05426359176635742
0.5038759708404541 0.579193115234375 -0.7209302186965942
0.5038759708404541 0.5779696702957153 -0.7054263353347778
0.5038759708404541 0.5785168409347534 -0.6899224519729614
0.5038759708404541 0.5797367691993713 -0.674418568611145
0.5038759708404541 0.580916702747345 -0.6589146852493286
0.5038759708404541 0.5721970796585083 -0.3643410801887512
0.5038759708404541 0.5675949454307556 -0.1782945990562439
0.5038759708404541 0.5776277780532837 -0.11627906560897827
0.5038759708404541 0.5667684674263 -0.038759708404541016
0.5038759708404541 0.596409022808075 -0.751937985420227
0.5038759708404541 0.5856125950813293 -0.7364341020584106
0.5038759708404541 0.5831711292266846 -0.643410861492157
0.5038759708404541 0.5842300653457642 -0.6279069781303406
0.5038759708404541 0.584335207939148 -0.6124030947685242
0.5038759708404541 0.583306074142456 -0.5968992114067078
0.5038759708404541 0.5832155346870422 -0.5813953876495361
0.5038759708404541 0.5827309489250183 -0.5658915042877197
0.5038759708404541 0.5832387804985046 -0.5503876209259033
0.5038759708404541 0.5855769515037537 -0.5348837375640869
0.5038759708404541 0.5882724523544312 -0.5193798542022705
0.5038759708404541 0.5911701321601868 -0.5038759708404541
0.5038759708404541 0.5936408638954163 -0.4883720874786377
0.5038759708404541 0.5963418483734131 -0.4728682041168213
0.5038759708404541 0.5896218419075012 -0.3643410801887512
0.5038759708404541 0.5941861867904663 -0.02325582504272461
0.5038759708404541 0.5942226648330688 0.612403154373169
0.5038759708404541 0.5982818007469177 -0.4728682041168213
0.5038759708404541 0.5982136726379395 -0.3488371670246124
0.5038759708404541 0.6013635993003845 -0.3333333134651184
0.5038759708404541 0.6054729223251343 -0.317829430103302
0.5038759708404541 0.6071046590805054 -0.30232560634613037
0.5038759708404541 0.6068201661109924 -0.28682172298431396
0.5038759708404541 0.6092924475669861 -0.27131783962249756
0.5038759708404541 0.6044723391532898 -0.1627907156944275
0.5038759708404541 0.60997474193573 -0.14728683233261108
0.5038759708404541 0.5985665321350098 -0.13178294897079468
0.5038759708404541 0.6156601905822754 -0.751937985420227
0.5038759708404541 0.6218349933624268 -0.7364341020584106
0.5038759708404541 0.6250054240226746 -0.5348837375640869
0.5038759708404541 0.6199795007705688 -0.5193798542022705
0.5038759708404541 0.6154137253761292 -0.5038759708404541
0.5038759708404541 0.6126812696456909 -0.4883720874786377
0.5038759708404541 0.6175734996795654 -0.25581395626068115
0.5038759708404541 0.6239587068557739 0.5968992710113525
0.5038759708404541 0.6282913684844971 -0.720930278301239
0.5038759708404541 0.6300147771835327 -0.7054263353347778
0.5038759708404541 0.6307181119918823 -0.6899224519729614
0.5038759708404541 0.6307106614112854 -0.674418568611145
0.5038759708404541 0.6302045583724976 -0.6589146852493286
0.5038759708404541 0.6297106146812439 -0.643410861492157
0.5038759708404541 0.629445493221283 -0.6279069781303406
0.5038759708404541 0.6292615532875061 -0.6124030947685242
0.5038759708404541 0.6291353106498718 -0.5968992114067078
0.5038759708404541 0.6289162039756775 -0.5813953876495361
0.5038759708404541 0.6285589337348938 -0.5658915042877197
0.5038759708404541 0.6280543804168701 -0.5503876805305481
0.5038759708404541 0.6295294761657715 -0.007751941215246916
0.5038759708404541 0.6312969923019409 0.5813953876495361
0.5038759708404541 0.6526507139205933 0.007751941680908203
0.5038759708404541 0.6709814071655273 0.02325582504272461
0.5038759708404541 0.6740648150444031 0.1472867727279663
0.5038759708404541 0.6697816252708435 0.16279065608978271
0.5038759708404541 0.6731140613555908 0.17829453945159912
0.5038759708404541 0.6779621243476868 0.038759708404541016
0.5038759708404541 0.6881968379020691 0.05426359176635742
0.5038759708404541 0.688330888748169 0.08527135848999023
0.5038759708404541 0.6852957606315613 0.10077524185180664
0.5038759708404541 0.6854202747344971 0.11627912521362305
0.5038759708404541 0.680591344833374 0.1317828893661499
0.5038759708404541 0.684432864189148 0.19379842281341553
0.5038759708404541 0.6865302920341492 0.25581395626068115
0.5038759708404541 0.6858900189399719 0.27131783962249756
0.5038759708404541 0.6888072490692139 0.28682172298431396
0.5038759708404541 0.6900238394737244 0.06976747512817383
0.5038759708404541 0.6920372247695923 0.20930230617523193
0.5038759708404541 0.6929583549499512 0.22480618953704834
0.5038759708404541 0.6904911994934082 0.24031005799770355
0.5038759708404541 0.6939455270767212 0.30232560634613037
0.5038759708404541 0.6986157894134521 0.3178294897079468
0.5038759708404541 0.7018063068389893 0.3333333730697632
0.5038759708404541 0.7034860849380493 0.3488372564315796
0.5038759708404541 0.7034908533096313 0.364341139793396
0.5038759708404541 0.7024540901184082 0.37984490394592285
0.5038759708404541 0.7011880874633789 0.39534878730773926
0.5038759708404541 0.7025625705718994 0.41085267066955566
0.5038759708404541 0.7069328427314758 0.42635655403137207
0.5038759708404541 0.7323253750801086 -0.24031007289886475
0.5038759708404541 0.7329456806182861 -0.22480618953704834
0.5038759708404541 0.7332074642181396 -0.20930230617523193
0.5038759708404541 0.7335687279701233 -0.19379842281341553
0.5038759708404541 0.7336621284484863 -0.1782945990562439
0.5038759708404541 0.7337722778320312 -0.1627907156944275
0.5038759708404541 0.7336903810501099 -0.14728683233261108
0.5038759708404541 0.7334404587745667 -0.13178294897079468
0.5038759708404541 0.7333922982215881 -0.11627906560897827
0.5038759708404541 0.7339237332344055 -0.10077518224716187
0.5038759708404541 0.7343713641166687 -0.08527129888534546
0.5038759708404541 0.7345900535583496 -0.06976741552352905
0.5038759708404541 0.7349357604980469 -0.05426359176635742
0.5038759708404541 0.7347503304481506 -0.038759708404541016
0.5038759708404541 0.7345712184906006 -0.02325582504272461
0.5038759708404541 0.7340959310531616 -0.007751941680908203
0.5038759708404541 0.7334636449813843 0.007751941680908203
0.5038759708404541 0.7328444719314575 0.02325582504272461
0.5038759708404541 0.7323294878005981 0.038759708404541016
0.5038759708404541 0.7317938804626465 0.05426359176635742
0.5038759708404541 0.7318249940872192 0.06976747512817383
0.5038759708404541 0.7325161695480347 0.08527135848999023
0.5038759708404541 0.7332891821861267 0.10077524185180664
0.5038759708404541 0.7339674234390259 0.11627912521362305
0.5038759708404541 0.7341330051422119 0.1317828893661499
0.5038759708404541 0.7343190312385559 0.1472867727279663
0.5038759708404541 0.7344570159912109 0.16279065608978271
0.5038759708404541 0.7344970703125 0.17829453945159912
0.5038759708404541 0.7344942092895508 0.19379842281341553
0.5038759708404541 0.7347026467323303 0.20930230617523193
0.5038759708404541 0.7349238991737366 0.22480618953704834
0.5038759708404541 0.7353192567825317 0.24031007289886475
0.5038759708404541 0.7358366847038269 0.25581395626068115
0.5038759708404541 0.7363239526748657 0.27131783962249756
0.5038759708404541 0.7368344664573669 0.28682172298431396
0.5038759708404541 0.7373473048210144 0.30232560634613037
0.5038759708404541 0.7376794815063477 0.31782951951026917
0.5038759708404541 0.7377367615699768 0.3333333730697632
0.5038759708404541 0.7376110553741455 0.3488372564315796
0.5038759708404541 0.7374033331871033 0.364341139793396
0.5038759708404541 0.7373219728469849 0.37984490394592285
0.5038759708404541 0.7373815774917603 0.39534878730773926
0.5038759708404541 0.7375016212463379 0.41085267066955566
0.5038759708404541 0.7371889352798462 0.42635655403137207
0.5193798542022705 -0.7372755408287048 -0.20930230617523193
0.5193798542022705 -0.7387195825576782 -0.19379842281341553
0.5193798542022705 -0.7381350994110107 -0.1782945990562439
0.5193798542022705 -0.7220908403396606 -0.25581395626068115
0.5193798542022705 -0.7292389869689941 -0.24031007289886475
0.5193798542022705 -0.7341171503067017 -0.22480618953704834
0.5193798542022705 -0.7342255115509033 -0.1627907156944275
0.5193798542022705 -0.7087912559509277 -0.27131783962249756
0.5193798542022705 -0.6673850417137146 -0.14728683233261108
0.5193798542022705 -0.6372646689414978 -0.27131783962249756
0.5193798542022705 -0.6426637172698975 -0.13178294897079468
0.5193798542022705 -0.6265952587127686 -0.11627906560897827
0.5193798542022705 -0.6122456789016724 -0.25581395626068115
0.5193798542022705 -0.5974910855293274 -0.24031007289886475
0.5193798542022705 -0.5758423805236816 -0.22480618953704834
0.5193798542022705 -0.580233097076416 -0.1627907156944275
0.5193798542022705 -0.5647954344749451 -0.1782945990562439
0.5193798542022705 -0.5528687834739685 -0.14728683233261108
0.5193798542022705 -0.5633866190910339 -0.11627906560897827
0.5193798542022705 -0.5448188781738281 -0.13178294897079468
0.5193798542022705 -0.4762827157974243 -0.1782945990562439
0.5193798542022705 -0.4625648260116577 -0.22480618953704834
0.5193798542022705 -0.46199101209640503 -0.14728683233261108
0.5193798542022705 -0.4666426181793213 -0.13178294897079468
0.5193798542022705 -0.4633120000362396 -0.11627906560897827
0.5193798542022705 -0.4601435363292694 -0.10077518224716187
0.5193798542022705 -0.45824161171913147 -0.08527129888534546
0.5193798542022705 -0.44695156812667847 -0.06976741552352905
0.5193798542022705 -0.4342302083969116 -0.05426359176635742
0.5193798542022705 -0.4325528144836426 -0.038759708404541016
0.5193798542022705 -0.42926347255706787 -0.02325582504272461
0.5193798542022705 -0.413614422082901 -0.14728683233261108
0.5193798542022705 -0.414284884929657 -0.06976741552352905
0.5193798542022705 -0.42063769698143005 -0.007751941680908203
0.5193798542022705 -0.4029664397239685 -0.13178294897079468
0.5193798542022705 -0.40086108446121216 -0.11627906560897827
0.5193798542022705 -0.4017309546470642 -0.10077518224716187
0.5193798542022705 -0.4045742154121399 -0.08527129888534546
0.5193798542022705 -0.41036155819892883 0.007751941680908203
0.5193798542022705 -0.38449010252952576 -0.1627907156944275
0.5193798542022705 -0.3949873745441437 0.02325582690536976
0.5193798542022705 -0.3726276159286499 -0.14728683233261108
0.5193798542022705 -0.3767054080963135 -0.06976741552352905
0.5193798542022705 -0.35978463292121887 -0.13178294897079468
0.5193798542022705 -0.35416465997695923 -0.08527129888534546
0.5193798542022705 -0.34609028697013855 -0.22480618953704834
0.5193798542022705 -0.3270115256309509 0.02325582504272461
0.5193798542022705 -0.2879387140274048 -0.22480618953704834
0.5193798542022705 -0.29037824273109436 -0.13178294897079468
0.5193798542022705 -0.26859432458877563 -0.14728683233261108
0.5193798542022705 -0.2534806430339813 -0.1627907156944275
0.5193798542022705 -0.25216129422187805 0.02325582504272461
0.5193798542022705 -0.21909865736961365 -0.1782945990562439
0.5193798542022705 -0.21352076530456543 -0.08527129888534546
0.5193798542022705 -0.19606024026870728 -0.08527129888534546
0.5193798542022705 -0.11651404947042465 -0.1782945990562439
0.5193798542022705 -0.10307281464338303 0.674418568611145
0.5193798542022705 -0.09212607145309448 -0.10077518224716187
0.5193798542022705 -0.09119479358196259 0.038759708404541016
0.5193798542022705 -0.0873928964138031 0.6589146852493286
0.5193798542022705 -0.08314619213342667 -0.1627907156944275
0.5193798542022705 -0.07922323048114777 -0.14728683233261108
0.5193798542022705 -0.08174733817577362 -0.13178294897079468
0.5193798542022705 -0.0803588479757309 -0.11627906560897827
0.5193798542022705 -0.08128263056278229 0.05426359176635742
0.5193798542022705 -0.07669483870267868 0.06976747512817383
0.5193798542022705 -0.07386429607868195 0.08527135848999023
0.5193798542022705 -0.07084822654724121 0.10077524185180664
0.5193798542022705 -0.07242485135793686 0.6434108018875122
0.5193798542022705 -0.06439422070980072 0.11627912521362305
0.5193798542022705 -0.05820111557841301 0.1317828893661499
0.5193798542022705 -0.05549951642751694 0.6279069185256958
0.5193798542022705 -0.03926075994968414 -0.24031007289886475
0.5193798542022705 -0.048387560993433 0.1472867727279663
0.5193798542022705 -0.042201265692710876 0.612403154373169
0.5193798542022705 -0.029643142595887184 0.16279065608978271
0.5193798542022705 -0.02879103273153305 0.5968992710113525
0.5193798542022705 -0.0180955957621336 0.16279065608978271
0.5193798542022705 -0.009087149053812027 0.5658915042877197
0.5193798542022705 -0.013938279822468758 0.5813953876495361
0.5193798542022705 -0.004355589859187603 0.5503876209259033
0.5193798542022705 0.012529908679425716 0.1472867727279663
0.5193798542022705 0.015894746407866478 0.5348837375640869
0.5193798542022705 0.033769093453884125 0.1317828893661499
0.5193798542022705 0.04928537458181381 0.11627912521362305
0.5193798542022705 0.06370759010314941 0.10077524185180664
0.5193798542022705 0.07931413501501083 0.08527135848999023
0.5193798542022705 0.06985361129045486 0.674418568611145
0.5193798542022705 0.10524407029151917 0.06976747512817383
0.5193798542022705 0.12361890077590942 0.05426359176635742
0.5193798542022705 0.13304659724235535 0.038759708404541016
0.5193798542022705 0.15867280960083008 0.02325582504272461
0.5193798542022705 0.18390321731567383 -0.14728683233261108
0.5193798542022705 0.1789253205060959 -0.13178294897079468
0.5193798542022705 0.18049567937850952 -0.11627907305955887
0.5193798542022705 0.20901606976985931 -0.1627907156944275
0.5193798542022705 0.196942538022995 0.5348837375640869
0.5193799138069153 0.20977266132831573 -0.10077518969774246
0.5193798542022705 0.20971408486366272 0.007751941680908203
0.5193798542022705 0.22688572108745575 0.5503876209259033
0.5193798542022705 0.24193540215492249 0.6589146852493286
0.5193798542022705 0.29954004287719727 0.5503876209259033
0.5193798542022705 0.3149875998497009 -0.11627906560897827
0.5193798542022705 0.30825477838516235 -0.10077518224716187
0.5193798542022705 0.3092237710952759 -0.007751941680908203
0.5193798542022705 0.32308101654052734 -0.007751941680908203
0.5193798542022705 0.35390305519104004 -0.1782945990562439
0.5193798542022705 0.3522203862667084 -0.11627906560897827
0.5193798542022705 0.35594940185546875 -0.10077518224716187
0.5193798542022705 0.3530809283256531 -0.08527129888534546
0.5193798542022705 0.3554564118385315 -0.06976741552352905
0.5193798542022705 0.37220048904418945 -0.05426359176635742
0.5193798542022705 0.3765111565589905 -0.038759708404541016
0.5193798542022705 0.3780015707015991 -0.02325582504272461
0.5193798542022705 0.3727719783782959 -0.007751941680908203
0.5193798542022705 0.4089709520339966 -0.05426359176635742
0.5193798542022705 0.39805957674980164 0.5503876209259033
0.5193798542022705 0.41768279671669006 -0.038759708404541016
0.5193798542022705 0.4534265697002411 0.6434108018875122
0.5193798542022705 0.46234241127967834 -0.05426359176635742
0.5193798542022705 0.4645327031612396 -0.038759708404541016
0.5193798542022705 0.4642395079135895 0.5658915042877197
0.5193798542022705 0.5490185022354126 -0.3643410801887512
0.5193798542022705 0.5465993881225586 -0.3488371968269348
0.5193798542022705 0.5448321104049683 -0.3333333134651184
0.5193798542022705 0.5438239574432373 -0.317829430103302
0.5193798542022705 0.5442817211151123 -0.30232560634613037
0.5193798542022705 0.5455988049507141 -0.28682172298431396
0.5193798542022705 0.5456500053405762 -0.27131783962249756
0.5193798542022705 0.5401463508605957 -0.25581395626068115
0.5193798542022705 0.5630683898925781 -0.39534884691238403
0.5193798542022705 0.5563245415687561 -0.3798449635505676
0.5193798542022705 0.5612932443618774 -0.1782945990562439
0.5193798542022705 0.5622539520263672 -0.10077518224716187
0.5193798542022705 0.5540985465049744 -0.08527129888534546
0.5193798542022705 0.5557431578636169 -0.06976741552352905
0.5193798542022705 0.5555124282836914 -0.05426359549164772
0.5193798542022705 0.561028242111206 -0.038759708404541016
0.5193798542022705 0.5585864782333374 0.6279069185256958
0.5193798542022705 0.5799320936203003 -0.7364341020584106
0.5193798542022705 0.5769408345222473 -0.7209302186965942
0.5193798542022705 0.5762868523597717 -0.7054263353347778
0.5193798542022705 0.5776041746139526 -0.6899224519729614
0.5193798542022705 0.579287588596344 -0.674418568611145
0.5193798542022705 0.5806455612182617 -0.6589146852493286
0.5193798542022705 0.5812479257583618 -0.5658915042877197
0.5193798542022705 0.5810444951057434 -0.5503876209259033
0.5193798542022705 0.5811951756477356 -0.5348837375640869
0.5193798542022705 0.5797693133354187 -0.42635661363601685
0.5193798542022705 0.5716530680656433 -0.41085273027420044
0.5193798542022705 0.5747364163398743 -0.11627906560897827
0.5193798542022705 0.576378583908081 -0.02325582504272461
0.5193798542022705 0.5921139121055603 -0.751937985420227
0.5193798542022705 0.5825450420379639 -0.643410861492157
0.5193798542022705 0.583816647529602 -0.6279069781303406
0.5193798542022705 0.5840852856636047 -0.6124030947685242
0.5193798542022705 0.5827344655990601 -0.5968992114067078
0.5193798542022705 0.5820841193199158 -0.5813953876495361
0.5193798542022705 0.5819280743598938 -0.5193798542022705
0.5193798542022705 0.5842301845550537 -0.5038759708404541
0.5193798542022705 0.5860353708267212 -0.4883720874786377
0.5193798542022705 0.5877954959869385 -0.4728682041168213
0.5193798542022705 0.5895509123802185 -0.4573643207550049
0.5193798542022705 0.5897297859191895 -0.4418604373931885
0.5193798542022705 0.5940794944763184 -0.13178294897079468
0.5193798542022705 0.6089792251586914 -0.4728682041168213
0.5193798542022705 0.6011472940444946 -0.4573643207550049
0.5193798542022705 0.5982729196548462 -0.4418604373931885
0.5193798542022705 0.5983490943908691 -0.42635664343833923
0.5193798542022705 0.5996881723403931 -0.41085273027420044
0.5193798542022705 0.6013185977935791 -0.39534884691238403
0.5193798542022705 0.604150116443634 -0.3798449635505676
0.5193798542022705 0.6090260744094849 -0.3643410801887512
0.5193798542022705 0.5998574495315552 -0.1627907156944275
0.5193798542022705 0.6063608527183533 -0.14728683233261108
0.5193798542022705 0.6094489693641663 0.612403154373169
0.5193798542022705 0.6166682243347168 -0.751937985420227
0.5193798542022705 0.6233159899711609 -0.7364341020584106
0.5193798542022705 0.6256217360496521 -0.5348837375640869
0.5193798542022705 0.6211457252502441 -0.5193798542022705
0.5193798542022705 0.6165310144424438 -0.5038759708404541
0.5193798542022705 0.6137735247612 -0.4883720874786377
0.5193798542022705 0.6138797998428345 -0.3488371968269348
0.5193798542022705 0.6159875392913818 -0.333333283662796
0.5193798542022705 0.6178637742996216 -0.317829430103302
0.5193798542022705 0.6176122426986694 -0.30232560634613037
0.5193798542022705 0.6165029406547546 -0.28682172298431396
0.5193798542022705 0.615793764591217 -0.27131783962249756
0.5193798542022705 0.6189215183258057 -0.25581395626068115
0.5193798542022705 0.6178297996520996 0.5813953876495361
0.5193798542022705 0.624546229839325 0.5968992710113525
0.5193798542022705 0.628849983215332 -0.7209302186965942
0.5193798542022705 0.6302412748336792 -0.7054263353347778
0.5193798542022705 0.6307553648948669 -0.6899224519729614
0.5193798542022705 0.6306499242782593 -0.674418568611145
0.5193798542022705 0.6301910281181335 -0.6589146852493286
0.5193798542022705 0.6297651529312134 -0.643410861492157
0.5193798542022705 0.6295494437217712 -0.6279070377349854
0.5193798542022705 0.6294188499450684 -0.6124030947685242
0.5193798542022705 0.6293376088142395 -0.5968992114067078
0.5193798542022705 0.6291566491127014 -0.5813953876495361
0.5193798542022705 0.628858208656311 -0.5658915042877197
0.5193798542022705 0.6284127831459045 -0.5503876209259033
0.5193798542022705 0.6315293312072754 -0.007751941680908203
0.5193798542022705 0.6565579175949097 0.007751941680908203
0.5193798542022705 0.6743445992469788 0.02325582504272461
0.5193798542022705 0.6709970831871033 0.16279065608978271
0.5193798542022705 0.6730589866638184 0.17829453945159912
0.5193798542022705 0.6817004680633545 0.038759708404541016
0.5193798542022705 0.68987637758255 0.08527135848999023
0.5193798542022705 0.6869617700576782 0.10077524185180664
0.5193798542022705 0.6865807771682739 0.11627912521362305
0.5193798542022705 0.6820656657218933 0.1317828893661499
0.5193798542022705 0.676077663898468 0.1472867727279663
0.5193798542022705 0.68204665184021 0.19379842281341553
0.5193798542022705 0.6894113421440125 0.20930230617523193
0.5193798542022705 0.6881468296051025 0.24031007289886475
0.5193798542022705 0.6851602792739868 0.25581395626068115
0.5193798542022705 0.6854791641235352 0.27131783962249756
0.5193798542022705 0.6887442469596863 0.28682172298431396
0.5193798542022705 0.6899433135986328 0.05426359176635742
0.5193798542022705 0.6903018355369568 0.06976747512817383
0.5193798542022705 0.6904406547546387 0.22480620443820953
0.5193798542022705 0.6941911578178406 0.30232560634613037
0.5193798542022705 0.6990554332733154 0.3178294897079468
0.5193798542022705 0.7022954821586609 0.3333333730697632
0.5193798542022705 0.7040309906005859 0.3488372564315796
0.5193798542022705 0.7040234804153442 0.364341139793396
0.5193798542022705 0.7029250860214233 0.37984490394592285
0.5193798542022705 0.7017979621887207 0.39534878730773926
0.5193798542022705 0.7033255100250244 0.41085267066955566
0.5193798542022705 0.7072919607162476 0.42635655403137207
0.5193798542022705 0.7323675155639648 -0.24031007289886475
0.5193798542022705 0.7330625057220459 -0.22480618953704834
0.5193798542022705 0.7333280444145203 -0.20930230617523193
0.5193798542022705 0.7336747646331787 -0.19379842281341553
0.5193798542022705 0.7337572574615479 -0.1782945990562439
0.5193798542022705 0.7338503003120422 -0.1627907156944275
0.5193798542022705 0.733782172203064 -0.14728683233261108
0.5193798542022705 0.7335437536239624 -0.13178294897079468
0.5193798542022705 0.7334303855895996 -0.11627906560897827
0.5193798542022705 0.73392653465271 -0.10077518224716187
0.5193798542022705 0.7343969345092773 -0.08527129888534546
0.5193798542022705 0.7346367835998535 -0.06976741552352905
0.5193798542022705 0.7349652051925659 -0.05426359176635742
0.5193798542022705 0.734765887260437 -0.038759708404541016
0.5193798542022705 0.7345664501190186 -0.02325582504272461
0.5193798542022705 0.7340863943099976 -0.007751941680908203
0.5193798542022705 0.7334559559822083 0.007751941680908203
0.5193798542022705 0.732846736907959 0.02325582504272461
0.5193798542022705 0.7323516607284546 0.038759708404541016
0.5193798542022705 0.731837272644043 0.05426359176635742
0.5193798542022705 0.7318888902664185 0.06976747512817383
0.5193798542022705 0.7325711250305176 0.08527135848999023
0.5193798542022705 0.7333304286003113 0.10077524185180664
0.5193798542022705 0.733988344669342 0.11627912521362305
0.5193798542022705 0.7341349124908447 0.1317828893661499
0.5193798542022705 0.7343120574951172 0.1472867727279663
0.5193798542022705 0.7344383597373962 0.16279065608978271
0.5193798542022705 0.7344982028007507 0.17829453945159912
0.5193798542022705 0.7345658540725708 0.19379842281341553
0.5193798542022705 0.734863817691803 0.20930230617523193
0.5193798542022705 0.7351090312004089 0.22480618953704834
0.5193798542022705 0.7354826927185059 0.24031007289886475
0.5193798542022705 0.7359853982925415 0.25581395626068115
0.5193798542022705 0.736462414264679 0.27131783962249756
0.5193798542022705 0.736930787563324 0.28682172298431396
0.5193798542022705 0.737445592880249 0.30232560634613037
0.5193798542022705 0.7377618551254272 0.3178294897079468
0.5193798542022705 0.7377960681915283 0.3333333730697632
0.5193798542022705 0.7376708984375 0.3488372564315796
0.5193798542022705 0.7375152111053467 0.364341139793396
0.5193798542022705 0.7375006079673767 0.37984493374824524
0.5193798542022705 0.7376265525817871 0.39534878730773926
0.5193798542022705 0.7378214597702026 0.41085267066955566
0.5193798542022705 0.7376141548156738 0.42635655403137207
0.5348837375640869 -0.7373194694519043 -0.20930230617523193
0.5348837375640869 -0.7387691736221313 -0.19379842281341553
0.5348837375640869 -0.7382180690765381 -0.1782945990562439
0.5348837375640869 -0.7221297025680542 -0.25581395626068115
0.5348837375640869 -0.7293254137039185 -0.24031007289886475
0.5348837375640869 -0.7341374754905701 -0.22480618953704834
0.5348837375640869 -0.7343339920043945 -0.16279073059558868
0.5348837375640869 -0.708551287651062 -0.27131783962249756
0.5348837375640869 -0.6659969091415405 -0.14728683233261108
0.5348837375640869 -0.6362959742546082 -0.27131783962249756
0.5348837375640869 -0.6418546438217163 -0.13178294897079468
0.5348837375640869 -0.6253364682197571 -0.11627906560897827
0.5348837375640869 -0.6113861203193665 -0.25581395626068115
0.5348837375640869 -0.5972754955291748 -0.24031007289886475
0.5348837375640869 -0.5833904147148132 -0.1627907156944275
0.5348837375640869 -0.5765136480331421 -0.22480618953704834
0.5348837375640869 -0.5671293139457703 -0.1782945990562439
0.5348837375640869 -0.5546227097511292 -0.14728683233261108
0.5348837375640869 -0.5658478140830994 -0.11627906560897827
0.5348837375640869 -0.5466539859771729 -0.13178294897079468
0.5348837375640869 -0.4757041931152344 -0.1782945990562439
0.5348837375640869 -0.46249160170555115 -0.22480618953704834
0.5348837375640869 -0.4609000086784363 -0.14728683233261108
0.5348837375640869 -0.46578875184059143 -0.13178294897079468
0.5348837375640869 -0.4629279375076294 -0.11627906560897827
0.5348837375640869 -0.4599994421005249 -0.10077518224716187
0.5348837375640869 -0.4580084979534149 -0.08527129888534546
0.5348837375640869 -0.44640159606933594 -0.06976741552352905
0.5348837375640869 -0.4322804808616638 -0.038759708404541016
0.5348837375640869 -0.4292581081390381 -0.02325582504272461
0.5348837375640869 -0.416002094745636 -0.14728683233261108
0.5348837375640869 -0.41721057891845703 -0.06976741552352905
0.5348837375640869 -0.4260936975479126 -0.05426359176635742
0.5348837375640869 -0.4205878973007202 -0.007751941680908203
0.5348837375640869 -0.40371641516685486 -0.13178294897079468
0.5348837375640869 -0.4019584357738495 -0.11627906560897827
0.5348837375640869 -0.40314871072769165 -0.10077518224716187
0.5348837375640869 -0.40560925006866455 -0.08527129888534546
0.5348837971687317 -0.4103427231311798 0.007751941680908203
0.5348837375640869 -0.3829116225242615 -0.1627907156944275
0.5348837375640869 -0.39280474185943604 0.02325582690536976
0.5348837375640869 -0.37103188037872314 -0.14728683233261108
0.5348837375640869 -0.3732210397720337 -0.06976741552352905
0.5348837375640869 -0.3578321635723114 -0.13178294897079468
0.5348837375640869 -0.3524467647075653 -0.08527129888534546
0.5348837375640869 -0.33808496594429016 -0.22480618953704834
0.5348837375640869 -0.3314751386642456 0.02325582504272461
0.5348837375640869 -0.3024878203868866 -0.22480618953704834
0.5348837375640869 -0.29245224595069885 -0.13178294897079468
0.5348837375640869 -0.2705584764480591 -0.14728683233261108
0.5348837375640869 -0.2546621263027191 -0.1627907156944275
0.5348837375640869 -0.2399786114692688 0.02325582318007946
0.5348837375640869 -0.21167677640914917 -0.1782945990562439
0.5348837375640869 -0.2156291902065277 -0.08527129888534546
0.5348837375640869 -0.19356344640254974 -0.08527129888534546
0.5348837375640869 -0.12155836820602417 -0.1782945990562439
0.5348837375640869 -0.10488957166671753 0.6899224519729614
0.5348837375640869 -0.08671315014362335 -0.1627907156944275
0.5348837375640869 -0.09006133675575256 -0.10077518224716187
0.5348837375640869 -0.08858911693096161 0.038759708404541016
0.5348837375640869 -0.09191691875457764 0.674418568611145
