-0.02325582504272461 -0.5193798542022705 -0.7109517455101013
-0.02325582504272461 -0.5193798542022705 -0.6418687701225281
-0.02325582504272461 -0.5193798542022705 -0.13507166504859924
-0.02325582504272461 -0.5193798542022705 -0.049282751977443695
-0.02325582504272461 -0.5193798542022705 0.020646562799811363
-0.02325582504272461 -0.5193798542022705 0.10279297083616257
-0.02325582504272461 -0.5038759708404541 -0.707822859287262
-0.02325582504272461 -0.5038759708404541 -0.6578771471977234
-0.02325582504272461 -0.5038759708404541 -0.13311107456684113
-0.02325582504272461 -0.5038759708404541 -0.05472571402788162
-0.02325582504272461 -0.5038759708404541 0.04625604301691055
-0.02325582504272461 -0.5038759708404541 0.09285350143909454
-0.02325582504272461 -0.4883720874786377 -0.7001040577888489
-0.02325582504272461 -0.4883720576763153 -0.6739482879638672
-0.02325582504272461 -0.4883720874786377 -0.1323908418416977
-0.02325582504272461 -0.4883720874786377 -0.06338867545127869
-0.02325582504272461 -0.4728682041168213 -0.7688618302345276
-0.02325582504272461 -0.4728682041168213 -0.7663009166717529
-0.02325582504272461 -0.4728682041168213 -0.1321595162153244
-0.02325582504272461 -0.4728682041168213 -0.04614582285284996
-0.02325582504272461 -0.4573643207550049 -0.7699775695800781
-0.02325582504272461 -0.4573643207550049 -0.7649355530738831
-0.02325582504272461 -0.4573643207550049 -0.13231870532035828
-0.02325582504272461 -0.4573643207550049 -0.03141496330499649
-0.02325582504272461 -0.4418604373931885 -0.7685856819152832
-0.02325582504272461 -0.4418604373931885 -0.7660037279129028
-0.02325582504272461 -0.4418604373931885 -0.13253842294216156
-0.02325582504272461 -0.4418604373931885 -0.018640633672475815
-0.02325582504272461 -0.42635661363601685 -0.13275466859340668
-0.02325582504272461 -0.42635661363601685 -0.010801464319229126
-0.02325582504272461 -0.42635661363601685 0.48817697167396545
-0.02325582504272461 -0.42635661363601685 0.48887839913368225
-0.02325582504272461 -0.41085273027420044 -0.13285617530345917
-0.02325582504272461 -0.41085273027420044 -0.005520354025065899
-0.02325582504272461 -0.41085273027420044 0.47324877977371216
-0.02325582504272461 -0.41085273027420044 0.5074240565299988
-0.02325582504272461 -0.39534884691238403 -0.13272082805633545
-0.02325582318007946 -0.39534881711006165 -0.006941767409443855
-0.02325582504272461 -0.39534884691238403 0.47131145000457764
-0.02325582504272461 -0.39534884691238403 0.5072662830352783
-0.02325582504272461 -0.3798449635505676 -0.13231699168682098
-0.02325582504272461 -0.3798449635505676 -0.017776716500520706
-0.02325582504272461 -0.3798449635505676 0.47012972831726074
-0.02325582504272461 -0.3798449635505676 0.506693959236145
-0.02325582504272461 -0.3643410801887512 -0.13038043677806854
-0.02325582504272461 -0.3643410801887512 -0.0367334745824337
-0.02325582504272461 -0.3643410801887512 0.4690942168235779
-0.02325582504272461 -0.3643410801887512 0.5062031149864197
-0.02325582504272461 -0.3488371968269348 -0.12543290853500366
-0.02325582504272461 -0.3488371968269348 -0.048592060804367065
-0.02325582504272461 -0.3488371968269348 0.4680246114730835
-0.02325582504272461 -0.3488371968269348 0.5057849287986755
-0.02325582504272461 -0.3333333134651184 -0.12258216738700867
-0.02325582504272461 -0.3333333134651184 -0.047576069831848145
-0.02325582504272461 -0.3333333134651184 0.46705156564712524
-0.02325582504272461 -0.3333333432674408 0.5055418610572815
-0.02325582504272461 -0.317829430103302 -0.12120421230792999
-0.02325582504272461 -0.317829430103302 -0.04299188405275345
-0.02325582504272461 -0.317829430103302 0.46584808826446533
-0.02325582504272461 -0.317829430103302 0.5050839781761169
-0.02325582504272461 -0.30232560634613037 -0.12070077657699585
-0.02325582504272461 -0.30232560634613037 -0.03352366387844086
-0.02325582504272461 -0.30232560634613037 0.4643997550010681
-0.02325582504272461 -0.30232560634613037 0.5045434832572937
-0.02325582504272461 -0.28682172298431396 -0.1209578663110733
-0.02325582504272461 -0.28682172298431396 -0.02189953438937664
-0.02325582504272461 -0.28682172298431396 0.4629553556442261
-0.02325582504272461 -0.28682172298431396 0.5038394331932068
-0.02325582504272461 -0.27131783962249756 -0.12145844101905823
-0.02325582504272461 -0.27131783962249756 -0.015220005065202713
-0.02325582504272461 -0.27131783962249756 0.4611671566963196
-0.02325582504272461 -0.27131783962249756 0.5012898445129395
-0.02325582504272461 -0.25581395626068115 -0.12202753871679306
-0.02325582318007946 -0.25581395626068115 -0.00673071201890707
-0.02325582504272461 -0.25581395626068115 0.45939281582832336
-0.02325582504272461 -0.25581395626068115 0.4994071424007416
-0.02325582504272461 -0.24031007289886475 -0.12259465456008911
-0.02325582504272461 -0.24031007289886475 -0.00213609985075891
-0.02325582504272461 -0.24031007289886475 0.4569076597690582
-0.02325582504272461 -0.24031007289886475 0.49720919132232666
-0.02325582504272461 -0.22480618953704834 -0.1230962723493576
-0.02325582504272461 -0.22480618953704834 0.0006387264002114534
-0.02325582504272461 -0.22480618953704834 0.4554101824760437
-0.02325582504272461 -0.22480618953704834 0.4953562021255493
-0.02325582504272461 -0.20930230617523193 -0.12287375330924988
-0.02325582504272461 -0.20930230617523193 -0.00024037878029048443
-0.02325582504272461 -0.20930230617523193 0.4538346529006958
-0.02325582504272461 -0.20930230617523193 0.49410849809646606
-0.02325582504272461 -0.19379842281341553 -0.12225759774446487
-0.02325582504272461 -0.19379842281341553 -0.004180175252258778
-0.02325582504272461 -0.19379842281341553 0.45272713899612427
-0.02325582504272461 -0.19379842281341553 0.4929806888103485
-0.02325582504272461 -0.1782945990562439 -0.12150032818317413
-0.02325582504272461 -0.1782945990562439 -0.009926511906087399
-0.02325582504272461 -0.1782945990562439 0.4522135257720947
-0.02325582504272461 -0.1782945990562439 0.4918549656867981
-0.02325582504272461 -0.1627907156944275 -0.12080491334199905
-0.02325582504272461 -0.1627907156944275 -0.016598820686340332
-0.02325582504272461 -0.1627907156944275 0.4526132047176361
-0.02325582504272461 -0.1627907156944275 0.49130162596702576
-0.02325582504272461 -0.14728683233261108 -0.12054070830345154
-0.02325582504272461 -0.14728683233261108 -0.01938619650900364
-0.02325582504272461 -0.14728683233261108 0.45299196243286133
-0.02325582504272461 -0.14728683233261108 0.49085313081741333
-0.02325582504272461 -0.13178294897079468 -0.12056508660316467
-0.02325582504272461 -0.13178294897079468 -0.019670771434903145
-0.02325582504272461 -0.13178294897079468 0.4527891278266907
-0.02325582504272461 -0.13178294897079468 0.490523099899292
-0.02325582504272461 -0.11627906560897827 -0.12083403766155243
-0.02325582504272461 -0.11627906560897827 -0.01668725721538067
-0.02325582504272461 -0.11627906560897827 0.45195236802101135
-0.02325582504272461 -0.11627906560897827 0.4901282489299774
-0.02325582504272461 -0.10077518224716187 -0.12169566005468369
-0.02325582504272461 -0.10077518224716187 -0.010265419259667397
-0.02325582504272461 -0.10077518224716187 0.4507110118865967
-0.02325582504272461 -0.10077518224716187 0.4898318648338318
-0.02325582504272461 -0.08527129888534546 -0.1230553686618805
-0.02325582504272461 -0.08527129888534546 -0.004378041718155146
-0.02325582504272461 -0.08527129888534546 0.44834595918655396
-0.02325582504272461 -0.08527129888534546 0.4895159602165222
-0.02325582504272461 -0.06976741552352905 -0.12533022463321686
-0.02325582504272461 -0.06976741552352905 0.004499367438256741
-0.02325582504272461 -0.06976741552352905 0.44488516449928284
-0.02325582504272461 -0.06976741552352905 0.4889119565486908
-0.02325582504272461 -0.05426359176635742 -0.12784625589847565
-0.02325582504272461 -0.05426359176635742 0.012400832027196884
-0.02325582504272461 -0.05426359176635742 0.4414026737213135
-0.02325582318007946 -0.05426359176635742 0.488378643989563
-0.02325582504272461 -0.038759708404541016 -0.13048675656318665
-0.02325582504272461 -0.038759708404541016 0.01913299597799778
-0.02325582504272461 -0.038759708404541016 0.4394552707672119
-0.02325582504272461 -0.038759708404541016 0.4869703948497772
-0.02325582504272461 -0.02325582504272461 -0.13198910653591156
-0.02325582504272461 -0.02325582504272461 0.02436588518321514
-0.02325582504272461 -0.02325582504272461 0.4370948076248169
-0.02325582504272461 -0.02325582504272461 0.4855425953865051
-0.02325582504272461 -0.007751941680908203 -0.13223247230052948
-0.02325582504272461 -0.007751941680908203 0.026633083820343018
-0.02325582504272461 -0.007751941680908203 0.4354420304298401
-0.02325582504272461 -0.007751941680908203 0.48476338386535645
-0.02325582504272461 0.007751941680908203 -0.13238951563835144
-0.02325582504272461 0.007751941680908203 0.027002662420272827
-0.02325582504272461 0.007751941680908203 0.43548011779785156
-0.02325582504272461 0.007751941680908203 0.4848558306694031
-0.02325582504272461 0.02325582504272461 -0.13233929872512817
-0.02325582504272461 0.02325582504272461 0.02609119936823845
-0.02325582504272461 0.02325582504272461 0.4359232783317566
-0.02325582504272461 0.02325582504272461 0.4848242402076721
-0.02325582504272461 0.038759708404541016 -0.13220453262329102
-0.02325582504272461 0.038759708404541016 0.025529535487294197
-0.02325582504272461 0.038759708404541016 0.4369262456893921
-0.02325582504272461 0.038759708404541016 0.48500633239746094
-0.02325582504272461 0.05426359176635742 -0.13201987743377686
-0.02325582504272461 0.05426359176635742 0.025229379534721375
-0.02325582504272461 0.05426359176635742 0.43786513805389404
-0.02325582504272461 0.05426359176635742 0.4855475425720215
-0.02325582504272461 0.06976747512817383 -0.1319161355495453
-0.02325582504272461 0.06976747512817383 0.02518659271299839
-0.02325582504272461 0.06976747512817383 0.4385111629962921
-0.02325582504272461 0.06976747512817383 0.4854421615600586
-0.02325582504272461 0.08527135848999023 -0.1315889060497284
-0.02325582504272461 0.08527135848999023 0.02596697211265564
-0.02325582504272461 0.08527135848999023 0.43856704235076904
-0.02325582504272461 0.08527135848999023 0.48561105132102966
-0.02325582504272461 0.10077524185180664 -0.13115563988685608
-0.02325582504272461 0.10077524185180664 0.028346262872219086
-0.02325582504272461 0.10077524185180664 0.43835824728012085
-0.02325582504272461 0.10077524185180664 0.4860408306121826
-0.02325582504272461 0.11627912521362305 -0.13073118031024933
-0.02325582504272461 0.11627912521362305 0.031028758734464645
-0.02325582504272461 0.11627912521362305 0.4381866455078125
-0.02325582504272461 0.11627912521362305 0.48612865805625916
-0.02325582504272461 0.1317828893661499 -0.129746675491333
-0.02325582504272461 0.1317828893661499 0.03461131826043129
-0.02325582504272461 0.1317828893661499 0.43830007314682007
-0.02325582504272461 0.1317828893661499 0.4866659641265869
-0.02325582318007946 0.1472867727279663 -0.12864002585411072
-0.02325582504272461 0.1472867727279663 0.037939075380563736
-0.02325582504272461 0.1472867727279663 0.4382242262363434
-0.02325582504272461 0.1472867727279663 0.4866868257522583
-0.02325582504272461 0.16279065608978271 -0.12743178009986877
-0.02325582690536976 0.16279065608978271 0.038883108645677567
-0.02325582504272461 0.16279065608978271 0.43812209367752075
-0.02325582504272461 0.16279065608978271 0.4865405261516571
-0.02325582504272461 0.17829453945159912 -0.12600430846214294
-0.02325582504272461 0.17829453945159912 0.03817778080701828
-0.02325582504272461 0.17829453945159912 0.43871867656707764
-0.02325582504272461 0.17829453945159912 0.4868675172328949
-0.02325582504272461 0.19379842281341553 -0.12430645525455475
-0.02325582504272461 0.19379842281341553 0.03569016605615616
-0.02325582504272461 0.19379842281341553 0.4396548271179199
-0.02325582504272461 0.19379842281341553 0.4864099621772766
-0.02325582504272461 0.20930230617523193 -0.1227264478802681
-0.02325582504272461 0.20930230617523193 0.03281417489051819
-0.02325582504272461 0.20930230617523193 0.4410828948020935
-0.02325582504272461 0.20930230617523193 0.4860801696777344
-0.02325582504272461 0.22480618953704834 -0.12105131894350052
-0.02325582504272461 0.22480618953704834 0.03005209192633629
-0.02325582504272461 0.22480618953704834 0.4453319311141968
-0.02325582504272461 0.22480618953704834 0.4873596429824829
-0.02325582504272461 0.24031007289886475 -0.11962239444255829
-0.02325582504272461 0.24031007289886475 0.027892334386706352
-0.02325582504272461 0.24031007289886475 0.4501132667064667
-0.02325582504272461 0.24031007289886475 0.48846137523651123
-0.02325582504272461 0.25581395626068115 -0.11855507642030716
-0.02325582504272461 0.25581395626068115 0.026000449433922768
-0.02325582504272461 0.25581395626068115 0.45179885625839233
-0.02325582690536976 0.25581395626068115 0.4885512590408325
-0.02325582504272461 0.27131783962249756 -0.11802750825881958
-0.02325582504272461 0.27131783962249756 0.026326142251491547
-0.02325582504272461 0.27131783962249756 0.45207667350769043
-0.02325582504272461 0.27131783962249756 0.48875686526298523
-0.02325582504272461 0.28682172298431396 -0.11790107190608978
-0.02325582504272461 0.28682172298431396 0.028699379414319992
-0.02325582504272461 0.28682172298431396 0.4513844847679138
-0.02325582504272461 0.28682172298431396 0.4887731075286865
-0.02325582504272461 0.30232560634613037 -0.11816773563623428
-0.02325582504272461 0.30232560634613037 0.03135056048631668
-0.02325582504272461 0.30232560634613037 0.45103520154953003
-0.02325582504272461 0.30232560634613037 0.4891994297504425
-0.02325582504272461 0.3178294897079468 -0.11877734959125519
-0.02325582504272461 0.3178294897079468 0.035105880349874496
-0.02325582504272461 0.3178294897079468 0.4501756429672241
-0.02325582318007946 0.3178294897079468 0.48955148458480835
-0.02325582504272461 0.3333333730697632 -0.11965810507535934
-0.02325582504272461 0.3333333730697632 0.03842761367559433
-0.02325582504272461 0.3333333730697632 0.44954514503479004
-0.02325582504272461 0.33333340287208557 0.49011796712875366
-0.02325582504272461 0.3488372564315796 -0.12056474387645721
-0.02325582690536976 0.3488372564315796 0.03968415781855583
-0.02325582504272461 0.3488372564315796 0.4495109021663666
-0.02325582504272461 0.3488372564315796 0.4908026158809662
-0.02325582504272461 0.364341139793396 -0.12125717103481293
-0.02325582504272461 0.364341139793396 0.040394652634859085
-0.02325582504272461 0.364341139793396 0.44933390617370605
-0.02325582504272461 0.364341139793396 0.49152690172195435
-0.02325582504272461 0.37984490394592285 -0.12152189016342163
-0.02325582504272461 0.37984490394592285 0.04007460176944733
-0.02325582504272461 0.37984490394592285 0.44976532459259033
-0.02325582318007946 0.37984490394592285 0.4923032522201538
-0.02325582504272461 0.39534878730773926 -0.12170550227165222
-0.02325582504272461 0.39534878730773926 0.03881809115409851
-0.02325582504272461 0.39534878730773926 0.45105910301208496
-0.02325582504272461 0.39534875750541687 0.4930502772331238
-0.02325582504272461 0.41085267066955566 -0.12160133570432663
-0.02325582504272461 0.41085267066955566 0.03434045985341072
-0.02325582504272461 0.41085267066955566 0.45302850008010864
-0.02325582504272461 0.41085267066955566 0.49376899003982544
-0.02325582504272461 0.42635655403137207 -0.121352918446064
-0.02325582504272461 0.42635655403137207 0.030207747593522072
-0.02325582504272461 0.42635655403137207 0.45484042167663574
-0.02325582504272461 0.42635655403137207 0.4943883717060089
-0.02325582504272461 0.4418604373931885 -0.12114627659320831
-0.02325582504272461 0.44186046719551086 0.026709944009780884
-0.02325582504272461 0.4418604373931885 0.45626115798950195
-0.02325582504272461 0.4418604373931885 0.4952092170715332
-0.02325582504272461 0.4573643207550049 -0.12114546447992325
-0.02325582504272461 0.4573643207550049 0.024337584152817726
-0.02325582504272461 0.4573643207550049 0.4572177827358246
-0.02325582504272461 0.4573643207550049 0.4959565997123718
-0.02325582504272461 0.4728682041168213 -0.12145406007766724
-0.02325582504272461 0.4728682041168213 0.023597324267029762
-0.02325582504272461 0.4728682041168213 0.45879927277565
-0.02325582504272461 0.4728682041168213 0.49646586179733276
-0.02325582504272461 0.4883720874786377 -0.1217525452375412
-0.02325582504272461 0.4883721172809601 0.024576492607593536
-0.02325582504272461 0.4883720874786377 0.45970070362091064
-0.02325582504272461 0.4883720874786377 0.49696624279022217
-0.02325582504272461 0.5038759708404541 -0.12196792662143707
-0.02325582504272461 0.5038759708404541 0.025176189839839935
-0.02325582504272461 0.5038759708404541 0.46137964725494385
-0.02325582504272461 0.5038759708404541 0.497365802526474
-0.02325582504272461 0.5193798542022705 -0.12175177782773972
-0.02325582504272461 0.5193798542022705 0.0263185016810894
-0.02325582504272461 0.5193798542022705 0.46263352036476135
-0.02325582504272461 0.5193798542022705 0.4970245957374573
-0.02325582504272461 0.5348837375640869 -0.12153013050556183
-0.02325582504272461 0.5348837375640869 0.02804337814450264
-0.02325582504272461 0.5348837375640869 0.4647976756095886
-0.02325582504272461 0.5348837375640869 0.49608302116394043
-0.02325582504272461 0.5503876209259033 -0.1210569441318512
-0.02325582504272461 0.5503876209259033 0.030362289398908615
-0.02325582504272461 0.5503876209259033 0.46681302785873413
-0.02325582504272461 0.5503876209259033 0.49483299255371094
-0.02325582504272461 0.5658915042877197 -0.12041527032852173
-0.02325582504272461 0.5658915042877197 0.03088267892599106
-0.02325582504272461 0.5658915042877197 0.46947619318962097
-0.02325582504272461 0.5658915042877197 0.4936215281486511
-0.02325582504272461 0.5813953876495361 -0.11987654864788055
-0.02325582504272461 0.5813953876495361 0.029681209474802017
-0.02325582504272461 0.5813953876495361 0.4713902175426483
-0.02325582504272461 0.5813953876495361 0.4925768971443176
-0.02325582504272461 0.5968992710113525 -0.11945407092571259
-0.02325582504272461 0.5968992710113525 0.025520045310258865
-0.02325582504272461 0.5968992710113525 0.47329092025756836
-0.02325582504272461 0.5968992710113525 0.49185556173324585
-0.02325582504272461 0.612403154373169 -0.11941985785961151
-0.02325582504272461 0.612403154373169 0.01478928979486227
-0.02325582504272461 0.612403154373169 0.47514814138412476
-0.02325582504272461 0.612403154373169 0.49109774827957153
-0.02325582504272461 0.6279069185256958 -0.12001357972621918
-0.02325582504272461 0.6279069185256958 0.00013607623986899853
-0.02325582504272461 0.6279069185256958 0.474596232175827
-0.02325582504272461 0.6279069185256958 0.49037113785743713
-0.02325582504272461 0.6434108018875122 -0.12063270807266235
-0.02325582504272461 0.6434108018875122 -0.017666231840848923
-0.02325582504272461 0.6434108018875122 0.4723970890045166
-0.02325582504272461 0.6434108018875122 0.48857659101486206
-0.02325582504272461 0.6589146852493286 -0.12108851224184036
-0.02325582504272461 0.6589146852493286 -0.004873896017670631
-0.02325582504272461 0.6589146852493286 0.47164011001586914
-0.02325582504272461 0.6589146852493286 0.4779752492904663
-0.02325582504272461 0.674418568611145 -0.12203241139650345
-0.02325582504272461 0.674418568611145 0.006483903154730797
-0.02325582504272461 0.674418568611145 0.4711030423641205
-0.02325582504272461 0.674418568611145 0.47668296098709106
-0.02325582504272461 0.6899224519729614 -0.12322467565536499
-0.02325582504272461 0.6899224519729614 0.018047988414764404
-0.02325582504272461 0.6899224519729614 0.47092729806900024
-0.02325582504272461 0.6899224519729614 0.4755258560180664
-0.02325582504272461 0.7054263353347778 -0.12402728199958801
-0.02325582504272461 0.7054263353347778 0.02873052842915058
-0.02325582504272461 0.7054263353347778 0.4722433090209961
-0.02325582318007946 0.7054262757301331 0.4734284281730652
-0.02325582504272461 0.7209302186965942 -0.12412189692258835
-0.02325582504272461 0.7209302186965942 0.03482533246278763
-0.02325582504272461 0.7364341020584106 -0.12391640245914459
-0.02325582504272461 0.7364341020584106 0.03785038739442825
-0.02325582504272461 0.751937985420227 -0.12392079830169678
-0.02325582504272461 0.751937985420227 0.03999653086066246
-0.02325582504272461 0.7674418687820435 -0.12423835694789886
-0.02325582504272461 0.7674418687820435 0.0416702963411808
-0.02325582504272461 0.7829457521438599 -0.12444134056568146
-0.02325582504272461 0.7829457521438599 0.041547760367393494
-0.02325582504272461 0.7984496355056763 -0.12467250972986221
-0.02325582504272461 0.7984496355056763 0.04240967333316803
-0.02325582504272461 0.8139535188674927 -0.1248311698436737
-0.02325582504272461 0.8139535188674927 0.04595056176185608
-0.02325582504272461 0.8294574022293091 -0.1251579225063324
-0.02325582504272461 0.8294574022293091 0.054447658360004425
-0.02325582504272461 0.8449612855911255 -0.12609487771987915
-0.02325582504272461 0.8449612855911255 0.11787159740924835
-0.02325582690536976 0.8604651689529419 -0.12800469994544983
-0.02325582504272461 0.8604651689529419 0.1323721706867218
-0.02325582504272461 0.8759689331054688 -0.1302306205034256
-0.02325582504272461 0.8759689331054688 0.13347101211547852
-0.02325582504272461 0.8914728164672852 -0.13197647035121918
-0.02325582504272461 0.8914728164672852 0.11732293665409088
-0.02325582504272461 0.9069766998291016 -0.12340836226940155
-0.02325582504272461 0.9069766998291016 -0.09770141541957855
-0.007751941680908203 -0.9844961166381836 -0.14051492512226105
-0.00775194214656949 -0.9844961166381836 -0.0937451422214508
-0.007751941680908203 -0.9689922332763672 -0.13420119881629944
-0.007751941680908203 -0.9689922332763672 -0.08557106554508209
-0.007751941680908203 -0.9534883499145508 -0.13645491003990173
-0.007751941680908203 -0.9534883499145508 -0.08164677023887634
-0.007751941680908203 -0.9379844665527344 -0.13849809765815735
-0.007751941680908203 -0.9379844665527344 -0.0776112824678421
-0.007751941680908203 -0.922480583190918 -0.13849137723445892
-0.007751941680908203 -0.9224806427955627 -0.07178519666194916
-0.007751941680908203 -0.9069767594337463 -0.13652142882347107
-0.007751941680908203 -0.9069767594337463 -0.070595882833004
-0.007751941680908203 -0.8914728760719299 -0.13364550471305847
-0.007751941680908203 -0.8914728760719299 -0.06787355989217758
-0.007751941680908203 -0.8759689927101135 -0.12313368916511536
-0.007751941680908203 -0.8759689927101135 -0.06632095575332642
-0.007751941680908203 -0.8604651093482971 -0.11849969625473022
-0.007751941680908203 -0.8604651093482971 -0.055595286190509796
-0.007751941680908203 -0.8449612259864807 -0.1172957643866539
-0.007751941680908203 -0.8449612855911255 -0.034515656530857086
-0.007751941680908203 -0.8294573426246643 -0.11682438850402832
-0.007751941680908203 -0.8294573426246643 -0.023013388738036156
-0.007751941680908203 -0.8139535188674927 -0.116832435131073
-0.007751941215246916 -0.8139535188674927 -0.021932357922196388
-0.007751941680908203 -0.7984496355056763 -0.11824492365121841
-0.007751941680908203 -0.7984496355056763 -0.012021413072943687
-0.007751941680908203 -0.7829457521438599 -0.12002125382423401
-0.007751941680908203 -0.7829457521438599 0.026944011449813843
-0.007751941680908203 -0.7674418687820435 -0.12277577817440033
-0.007751941680908203 -0.7674418687820435 0.04593551903963089
-0.007751941680908203 -0.751937985420227 -0.12864775955677032
-0.007751941680908203 -0.751937985420227 0.056772734969854355
-0.007751941680908203 -0.7364341020584106 -0.2783645987510681
-0.007751941680908203 -0.7364341020584106 -0.25197088718414307
-0.007751941680908203 -0.7364341020584106 -0.19628198444843292
-0.007751941680908203 -0.7364341020584106 -0.18552017211914062
-0.007751941680908203 -0.7364341020584106 -0.136860191822052
-0.007751941680908203 -0.7364341020584106 0.06801136583089828
-0.007751941680908203 -0.7209302186965942 -0.30370113253593445
-0.007751941680908203 -0.7209302186965942 0.07923926413059235
-0.007751941680908203 -0.7054263353347778 -0.3207358121871948
-0.007751941680908203 -0.7054263353347778 0.08884139358997345
-0.007751941680908203 -0.6899224519729614 -0.33556485176086426
-0.007751941680908203 -0.6899224519729614 0.0977921113371849
-0.007751941680908203 -0.6744186282157898 -0.3465277850627899
-0.007751941680908203 -0.674418568611145 0.09953495860099792
-0.007751941680908203 -0.6589146852493286 -0.6907303333282471
-0.007751941680908203 -0.6589146852493286 -0.6537951231002808
-0.007751941680908203 -0.6589146852493286 -0.34941935539245605
-0.007751941680908203 -0.6589146852493286 0.0868370309472084
-0.007751941680908203 -0.643410861492157 -0.7060824632644653
-0.007751941680908203 -0.643410861492157 -0.5979098081588745
-0.007751941680908203 -0.643410861492157 -0.5133597254753113
-0.007751941680908203 -0.643410861492157 -0.44418519735336304
-0.00775194214656949 -0.6434109210968018 -0.36254897713661194
-0.007751941680908203 -0.643410861492157 0.07719876617193222
-0.007751941680908203 -0.6279069781303406 -0.7245743870735168
-0.007751941680908203 -0.6279070377349854 0.07668145000934601
-0.007751941680908203 -0.6124030947685242 -0.77348792552948
-0.007751941680908203 -0.6124030947685242 0.08349190652370453
-0.007751941680908203 -0.5968992710113525 -0.7807493209838867
-0.007751941680908203 -0.5968992114067078 0.08855296671390533
-0.007751941680908203 -0.5813953876495361 -0.7789268493652344
-0.007751941680908203 -0.5813953876495361 0.09771598875522614
-0.007751941680908203 -0.5658915042877197 -0.769783079624176
-0.007751941680908203 -0.5658915042877197 0.10233128070831299
-0.00775194214656949 -0.5503876209259033 -0.7297948598861694
-0.007751941680908203 -0.5503876209259033 -0.4242430031299591
-0.007751941680908203 -0.5503876209259033 -0.3392542600631714
-0.007751941680908203 -0.5503876209259033 -0.27396997809410095
-0.007751941680908203 -0.5503876209259033 -0.20081253349781036
-0.007751941680908203 -0.5503876209259033 0.10259963572025299
-0.007751941680908203 -0.5348837375640869 -0.7217553853988647
-0.007751941680908203 -0.5348837375640869 -0.6199444532394409
-0.007751941215246916 -0.5348837375640869 -0.1587049961090088
-0.00775194214656949 -0.5348837375640869 -0.046682294458150864
-0.007751941680908203 -0.5348837375640869 -0.008789491839706898
-0.007751941680908203 -0.5348837375640869 0.10247896611690521
-0.007751941680908203 -0.5193798542022705 -0.7129398584365845
-0.007751941680908203 -0.5193798542022705 -0.6410524845123291
-0.007751941680908203 -0.5193798542022705 -0.13592027127742767
-0.007751941680908203 -0.5193798542022705 -0.04956109821796417
-0.007751941680908203 -0.5193798542022705 0.021730294451117516
-0.007751941680908203 -0.5193798542022705 0.09845170378684998
-0.007751941680908203 -0.5038759708404541 -0.7093361616134644
-0.007751941680908203 -0.5038759708404541 -0.6568537950515747
-0.007751941680908203 -0.5038759708404541 -0.13333795964717865
-0.007751941680908203 -0.5038759708404541 -0.05569429695606232
-0.007751941680908203 -0.5038759708404541 0.04836442321538925
-0.007751941680908203 -0.5038759708404541 0.08770237118005753
-0.007751941680908203 -0.4883720874786377 -0.7056141495704651
-0.007751941680908203 -0.4883720576763153 -0.672114908695221
-0.007751941680908203 -0.4883720874786377 -0.13244149088859558
-0.007751941680908203 -0.4883720874786377 -0.0640479028224945
-0.007751941680908203 -0.4728682041168213 -0.7704646587371826
-0.007751941680908203 -0.4728681743144989 -0.7647913694381714
-0.007751941680908203 -0.4728682041168213 -0.13213571906089783
-0.007751941680908203 -0.4728682041168213 -0.04736550152301788
-0.007751941680908203 -0.4573643207550049 -0.7710884809494019
-0.007751941680908203 -0.4573643207550049 -0.7631814479827881
-0.007751941680908203 -0.4573643207550049 -0.13225117325782776
-0.00775194214656949 -0.4573643207550049 -0.03238823264837265
-0.007751941680908203 -0.4418604373931885 -0.769881010055542
-0.00775194214656949 -0.4418604373931885 -0.7637298107147217
-0.007751941680908203 -0.4418604373931885 -0.1324484795331955
-0.00775194214656949 -0.44186046719551086 -0.01916160248219967
-0.007751941680908203 -0.42635661363601685 -0.13265754282474518
-0.007751941680908203 -0.42635661363601685 -0.011927545070648193
-0.007751941680908203 -0.41085273027420044 -0.13274599611759186
-0.007751941680908203 -0.4108527600765228 -0.006242016330361366
-0.007751941680908203 -0.41085273027420044 0.48023518919944763
-0.007751941680908203 -0.41085273027420044 0.5112194418907166
-0.007751941680908203 -0.39534884691238403 -0.1325967162847519
-0.007751941680908203 -0.39534884691238403 -0.008290110155940056
-0.007751941680908203 -0.39534884691238403 0.47791069746017456
-0.00775194214656949 -0.39534884691238403 0.511533796787262
-0.007751941680908203 -0.3798449635505676 -0.13216298818588257
-0.007751941215246916 -0.3798449635505676 -0.01963791809976101
-0.007751941680908203 -0.3798449635505676 0.47655683755874634
-0.007751941680908203 -0.3798449635505676 0.5107740759849548
-0.007751941215246916 -0.3643410801887512 -0.1291988641023636
-0.007751941680908203 -0.3643410801887512 -0.04069123417139053
-0.007751941680908203 -0.3643410801887512 0.47489768266677856
-0.007751941680908203 -0.3643410801887512 0.5100888609886169
-0.007751941680908203 -0.3488371968269348 -0.12471970915794373
-0.007751941680908203 -0.3488371968269348 -0.05166088417172432
-0.007751941680908203 -0.3488371968269348 0.47278332710266113
-0.007751941680908203 -0.3488371968269348 0.5096284747123718
-0.007751941680908203 -0.3333333134651184 -0.12210168689489365
-0.007751941680908203 -0.3333333134651184 -0.050948578864336014
-0.007751941680908203 -0.3333333134651184 0.47200846672058105
-0.007751941680908203 -0.3333333134651184 0.5095540285110474
-0.007751941680908203 -0.317829430103302 -0.12082231044769287
-0.007751941680908203 -0.317829430103302 -0.04740934073925018
-0.007751941680908203 -0.317829430103302 0.47115880250930786
-0.007751941680908203 -0.317829430103302 0.5092785954475403
-0.007751941680908203 -0.30232560634613037 -0.12033408880233765
-0.007751941680908203 -0.30232560634613037 -0.040097225457429886
-0.007751941680908203 -0.30232560634613037 0.47026756405830383
-0.007751941680908203 -0.30232560634613037 0.5088982582092285
-0.007751941680908203 -0.28682172298431396 -0.12055694311857224
-0.007751941680908203 -0.28682172298431396 -0.029873162508010864
-0.007751941680908203 -0.28682172298431396 0.469478964805603
-0.007751941215246916 -0.28682172298431396 0.508370578289032
-0.007751941680908203 -0.27131783962249756 -0.12100116163492203
-0.007751941680908203 -0.27131783962249756 -0.02090972661972046
-0.007751941680908203 -0.27131783962249756 0.4684497117996216
-0.007751941680908203 -0.27131783962249756 0.507676899433136
-0.007751941680908203 -0.25581395626068115 -0.12151720374822617
-0.007751941680908203 -0.25581395626068115 -0.011509107425808907
-0.007751941680908203 -0.25581395626068115 0.4675535261631012
-0.007751941680908203 -0.25581395626068115 0.5070182085037231
-0.007751941680908203 -0.24031007289886475 -0.12200470268726349
-0.007751941680908203 -0.24031007289886475 -0.004870117641985416
-0.007751941680908203 -0.24031007289886475 0.46601492166519165
-0.007751941680908203 -0.24031007289886475 0.506106436252594
-0.007751941680908203 -0.22480618953704834 -0.12243716418743134
-0.007751941680908203 -0.22480618953704834 -0.002502663293853402
-0.00775194214656949 -0.22480620443820953 0.4640980064868927
-0.007751941215246916 -0.22480618953704834 0.5051143169403076
-0.007751941680908203 -0.20930230617523193 -0.12221036851406097
-0.007751941680908203 -0.20930230617523193 -0.003365475917235017
-0.007751941680908203 -0.20930230617523193 0.461830198764801
-0.007751941680908203 -0.20930230617523193 0.5043559670448303
-0.007751941680908203 -0.19379842281341553 -0.12162408232688904
-0.007751941680908203 -0.19379842281341553 -0.007015259005129337
-0.007751941680908203 -0.19379840791225433 0.46003487706184387
-0.007751941680908203 -0.19379842281341553 0.5031207799911499
-0.007751941680908203 -0.1782945990562439 -0.12091444432735443
-0.007751941680908203 -0.1782945990562439 -0.01645348221063614
-0.007751941680908203 -0.1782946139574051 0.4587859809398651
-0.007751941680908203 -0.1782945990562439 0.5006146430969238
-0.007751941680908203 -0.1627907156944275 -0.12024345993995667
-0.007751941680908203 -0.1627907156944275 -0.022217927500605583
-0.007751941215246916 -0.1627907156944275 0.45890989899635315
-0.007751941680908203 -0.1627907156944275 0.49958762526512146
-0.007751941680908203 -0.14728683233261108 -0.12000048905611038
-0.007751941680908203 -0.14728683233261108 -0.025398623198270798
-0.007751941680908203 -0.14728683233261108 0.4589155614376068
-0.007751941680908203 -0.14728683233261108 0.4983797073364258
-0.007751941680908203 -0.13178294897079468 -0.12003341317176819
-0.007751941680908203 -0.13178294897079468 -0.025097008794546127
-0.007751941680908203 -0.13178294897079468 0.45821046829223633
-0.007751941680908203 -0.13178294897079468 0.49747350811958313
-0.007751941680908203 -0.11627906560897827 -0.12028256058692932
-0.007751941680908203 -0.11627906560897827 -0.021264130249619484
-0.007751941680908203 -0.11627906560897827 0.45714277029037476
-0.007751941680908203 -0.11627906560897827 0.49636805057525635
-0.007751941680908203 -0.10077518224716187 -0.12109309434890747
-0.007751941680908203 -0.10077518224716187 -0.015745991840958595
-0.007751941680908203 -0.10077518224716187 0.4564574360847473
-0.007751941680908203 -0.10077518224716187 0.49557989835739136
-0.007751941680908203 -0.08527129888534546 -0.12239426374435425
-0.007751941680908203 -0.08527129888534546 -0.007317076437175274
-0.007751941680908203 -0.08527129888534546 0.45516839623451233
-0.007751941680908203 -0.08527129888534546 0.4948003888130188
-0.00775194214656949 -0.06976741552352905 -0.12458254396915436
-0.007751941680908203 -0.06976741552352905 0.00037394766695797443
-0.007751941680908203 -0.06976741552352905 0.453448623418808
-0.007751941680908203 -0.06976741552352905 0.49385857582092285
-0.007751941680908203 -0.05426359176635742 -0.12697863578796387
-0.007751941680908203 -0.05426359176635742 0.009756326675415039
-0.007751941680908203 -0.05426359176635742 0.45145007967948914
-0.00775194214656949 -0.05426359176635742 0.4930962324142456
-0.007751941680908203 -0.038759708404541016 -0.12944641709327698
-0.007751941680908203 -0.038759708404541016 0.015455297194421291
-0.007751941680908203 -0.038759708404541016 0.44862234592437744
-0.007751941680908203 -0.038759708404541016 0.4923398792743683
-0.007751941680908203 -0.02325582504272461 -0.13148444890975952
-0.007751941680908203 -0.02325582504272461 0.020749971270561218
-0.007751941680908203 -0.02325582504272461 0.4452379047870636
-0.007751941680908203 -0.02325582504272461 0.4915781021118164
-0.007751941680908203 -0.007751941680908203 -0.13195213675498962
-0.007751941680908203 -0.007751941680908203 0.024080459028482437
-0.007751941680908203 -0.007751941680908203 0.44261786341667175
-0.007751941680908203 -0.007751941680908203 0.49108970165252686
-0.007751941680908203 0.007751941680908203 -0.1321057826280594
-0.007751941680908203 0.007751941680908203 0.02435622178018093
-0.007751941680908203 0.007751941680908203 0.4425086975097656
-0.007751941680908203 0.007751941680908203 0.49103879928588867
-0.007751941680908203 0.02325582504272461 -0.13204681873321533
-0.007751941680908203 0.02325582504272461 0.02364470437169075
-0.007751941680908203 0.02325582504272461 0.44288739562034607
-0.007751941680908203 0.02325582504272461 0.49091628193855286
-0.007751941680908203 0.038759708404541016 -0.1319078952074051
-0.007751941680908203 0.038759708404541016 0.02318337745964527
-0.007751941680908203 0.038759712129831314 0.4443821310997009
-0.007751941680908203 0.038759712129831314 0.49099183082580566
-0.00775194214656949 0.05426359549164772 -0.1314140111207962
-0.007751941680908203 0.05426359176635742 0.022665007039904594
-0.007751941680908203 0.05426359176635742 0.4460699260234833
-0.007751941680908203 0.05426359176635742 0.4912163019180298
-0.007751941680908203 0.06976747512817383 -0.1309075951576233
-0.007751941680908203 0.06976747512817383 0.022660458460450172
-0.007751941680908203 0.06976747512817383 0.4474008083343506
-0.007751941680908203 0.06976747512817383 0.4911431670188904
-0.00775194214656949 0.08527135848999023 -0.13011111319065094
-0.007751941680908203 0.08527135848999023 0.023679982870817184
-0.007751941680908203 0.08527135848999023 0.44773706793785095
-0.007751941680908203 0.08527135848999023 0.491202175617218
-0.007751941680908203 0.10077523440122604 -0.12976594269275665
-0.00775194214656949 0.10077524185180664 0.025761978700757027
-0.007751941680908203 0.10077524185180664 0.4476553797721863
-0.007751941680908203 0.10077524185180664 0.4914051592350006
-0.007751941680908203 0.11627912521362305 -0.1294492930173874
-0.007751941680908203 0.11627912521362305 0.028210967779159546
-0.007751941680908203 0.11627912521362305 0.4475235342979431
-0.007751941680908203 0.11627912521362305 0.4914528727531433
-0.00775194214656949 0.1317828893661499 -0.12857715785503387
-0.007751941680908203 0.1317828893661499 0.0314655639231205
-0.007751941680908203 0.1317828893661499 0.44772404432296753
-0.007751941680908203 0.1317828893661499 0.49159932136535645
-0.007751941680908203 0.1472867727279663 -0.12753745913505554
-0.007751941680908203 0.1472867727279663 0.03436828777194023
-0.007751941680908203 0.1472867727279663 0.4475484788417816
-0.007751941680908203 0.1472867727279663 0.491586834192276
-0.007751941215246916 0.16279065608978271 -0.1263996660709381
-0.007751941680908203 0.16279065608978271 0.03524264693260193
-0.007751941680908203 0.16279065608978271 0.44735416769981384
-0.007751941680908203 0.16279065608978271 0.4915735423564911
-0.007751941680908203 0.17829453945159912 -0.12508031725883484
-0.007751941680908203 0.17829453945159912 0.03442109376192093
-0.007751941680908203 0.17829453945159912 0.44843417406082153
-0.007751941680908203 0.17829452455043793 0.49167728424072266
-0.007751941680908203 0.19379842281341553 -0.12350289523601532
-0.007751941680908203 0.19379842281341553 0.03238009288907051
-0.007751941680908203 0.19379842281341553 0.4502301514148712
-0.007751941215246916 0.19379840791225433 0.4915214776992798
-0.007751941680908203 0.20930230617523193 -0.1220332682132721
-0.007751941680908203 0.20930230617523193 0.030069667845964432
-0.007751941680908203 0.20930230617523193 0.4528674781322479
-0.00775194214656949 0.20930232107639313 0.49135786294937134
-0.007751941680908203 0.22480618953704834 -0.12047050893306732
-0.007751941680908203 0.22480618953704834 0.027742091566324234
-0.007751941680908203 0.22480618953704834 0.4550842344760895
-0.007751941680908203 0.22480618953704834 0.4916338324546814
-0.007751941680908203 0.24031007289886475 -0.11913406103849411
-0.007751941680908203 0.24031008780002594 0.025913871824741364
-0.007751941680908203 0.24031007289886475 0.4566883146762848
-0.007751941680908203 0.24031008780002594 0.4918818473815918
-0.007751941680908203 0.25581395626068115 -0.11813116818666458
-0.007751941680908203 0.25581395626068115 0.024276454001665115
-0.007751941680908203 0.25581395626068115 0.45731255412101746
-0.00775194214656949 0.25581395626068115 0.49192625284194946
-0.007751941680908203 0.27131783962249756 -0.11763644963502884
-0.007751941680908203 0.27131783962249756 0.02440955489873886
-0.007751941215246916 0.27131783962249756 0.4578727185726166
-0.007751941680908203 0.27131783962249756 0.49214768409729004
-0.007751941680908203 0.28682172298431396 -0.11752434074878693
-0.007751941680908203 0.28682172298431396 0.02633419632911682
-0.007751941680908203 0.28682172298431396 0.45712727308273315
-0.007751941680908203 0.28682172298431396 0.4921663701534271
-0.007751941680908203 0.30232560634613037 -0.11777808517217636
-0.007751941680908203 0.30232560634613037 0.028507819399237633
-0.007751941680908203 0.30232560634613037 0.4570186734199524
-0.007751941215246916 0.30232560634613037 0.4925685226917267
-0.007751941680908203 0.3178294897079468 -0.11834729462862015
-0.007751941680908203 0.3178294897079468 0.03158336877822876
-0.007751941680908203 0.3178294897079468 0.45672348141670227
-0.007751941680908203 0.3178294897079468 0.49287378787994385
-0.007751941680908203 0.3333333730697632 -0.11917389929294586
-0.007751941680908203 0.3333333730697632 0.03420374542474747
-0.007751941680908203 0.3333333730697632 0.45659932494163513
-0.007751941680908203 0.3333333730697632 0.4934622049331665
-0.007751941680908203 0.3488372564315796 -0.12005127221345901
-0.007751941680908203 0.3488372564315796 0.03598570078611374
-0.007751941680908203 0.3488372564315796 0.45668601989746094
-0.007751941680908203 0.3488372564315796 0.49420976638793945
-0.007751941680908203 0.364341139793396 -0.12074971199035645
-0.007751941680908203 0.364341139793396 0.03703255206346512
-0.007751941680908203 0.364341139793396 0.4568060636520386
-0.007751941680908203 0.364341139793396 0.49522989988327026
-0.007751941680908203 0.37984490394592285 -0.1210428774356842
-0.007751941680908203 0.37984490394592285 0.03630589693784714
-0.007751941680908203 0.37984490394592285 0.4571416676044464
-0.007751941680908203 0.37984490394592285 0.4965208172798157
-0.007751941680908203 0.39534878730773926 -0.12123909592628479
-0.007751941680908203 0.39534878730773926 0.0343082956969738
-0.007751941680908203 0.39534878730773926 0.4585925042629242
-0.007751941680908203 0.39534878730773926 0.49792933464050293
-0.007751941680908203 0.41085267066955566 -0.12113890796899796
-0.007751941680908203 0.41085267066955566 0.030324963852763176
-0.007751941680908203 0.41085267066955566 0.461627334356308
-0.007751941680908203 0.41085267066955566 0.499569833278656
-0.007751941680908203 0.42635655403137207 -0.1208820641040802
-0.007751941680908203 0.42635658383369446 0.026786739006638527
-0.007751941680908203 0.42635655403137207 0.46419626474380493
-0.007751941680908203 0.42635655403137207 0.5012185573577881
-0.007751941680908203 0.4418604373931885 -0.12066685408353806
-0.007751941680908203 0.4418604373931885 0.02371438592672348
-0.007751941680908203 0.4418604373931885 0.4664211571216583
-0.007751941680908203 0.4418604373931885 0.5037401914596558
-0.007751941680908203 0.4573643207550049 -0.12066537141799927
-0.007751941680908203 0.4573643207550049 0.019689643755555153
-0.007751941680908203 0.4573643207550049 0.46757566928863525
-0.007751941680908203 0.4573643207550049 0.504091739654541
-0.007751941680908203 0.4728682041168213 -0.12095700204372406
-0.007751941680908203 0.4728682041168213 0.01863669417798519
-0.007751941680908203 0.4728682041168213 0.46839141845703125
-0.007751941680908203 0.4728682041168213 0.5042150020599365
-0.007751941680908203 0.4883720874786377 -0.12124857306480408
-0.007751941680908203 0.4883720874786377 0.020511269569396973
-0.007751941680908203 0.4883720874786377 0.4688858389854431
-0.007751941680908203 0.4883721172809601 0.5042904019355774
-0.007751941680908203 0.5038759708404541 -0.12147127836942673
-0.007751941680908203 0.5038759708404541 0.021661194041371346
-0.007751941680908203 0.5038759708404541 0.4696452021598816
-0.007751941680908203 0.5038759708404541 0.5043373703956604
-0.007751941680908203 0.5193798542022705 -0.12128867208957672
-0.007751941680908203 0.5193798542022705 0.023508504033088684
-0.007751941680908203 0.5193798542022705 0.47025659680366516
-0.007751941680908203 0.5193798542022705 0.5042427778244019
-0.007751941680908203 0.5348837375640869 -0.12110167741775513
-0.007751941680908203 0.5348837375640869 0.02520344778895378
-0.007751941680908203 0.5348837375640869 0.47146520018577576
-0.007751941680908203 0.5348837375640869 0.5040698051452637
-0.007751941680908203 0.5503876209259033 -0.12071581184864044
-0.007751941680908203 0.5503876209259033 0.027553323656320572
-0.007751941680908203 0.5503876209259033 0.47272437810897827
-0.007751941680908203 0.5503876209259033 0.5029152631759644
-0.007751941680908203 0.5658915042877197 -0.12017351388931274
-0.007751941680908203 0.5658915042877197 0.02854488231241703
-0.007751941680908203 0.5658915042877197 0.4753338694572449
-0.007751941680908203 0.5658915042877197 0.498940110206604
-0.007751941680908203 0.5813953876495361 -0.11970934271812439
-0.007751941680908203 0.5813953876495361 0.02793744206428528
-0.007751941680908203 0.5813953876495361 0.4769282042980194
-0.007751941680908203 0.5813953876495361 0.4954051077365875
-0.007751941680908203 0.5968992710113525 -0.11933562904596329
-0.007751941680908203 0.5968992710113525 0.024645762518048286
-0.007751941680908203 0.5968992710113525 0.4781908392906189
-0.007751941680908203 0.5968992710113525 0.4936772584915161
-0.007751941680908203 0.612403154373169 -0.11930205672979355
-0.007751941680908203 0.612403154373169 0.015465227887034416
-0.007751941680908203 0.612403154373169 0.47865748405456543
-0.007751941680908203 0.612403154373169 0.49212175607681274
-0.007751941680908203 0.6279069185256958 -0.11985233426094055
-0.007751941680908203 0.6279069185256958 0.0037429702933877707
-0.00775194214656949 0.6279069185256958 0.4778760075569153
-0.007751941680908203 0.6279069185256958 0.4909493029117584
-0.007751941680908203 0.6434108018875122 -0.12043018639087677
-0.007751941680908203 0.6434108018875122 -0.025956477969884872
-0.007751941680908203 0.6434108018875122 0.47884130477905273
-0.00775194214656949 0.6434108018875122 0.4886441230773926
-0.007751941680908203 0.6589146852493286 -0.12086640298366547
-0.007751941680908203 0.6589146852493286 -0.0018376859370619059
-0.007751941680908203 0.6589146852493286 0.47237440943717957
-0.007751941680908203 0.6589146852493286 0.4758431315422058
-0.007751941680908203 0.674418568611145 -0.12179094552993774
-0.007751941680908203 0.674418568611145 0.008871152065694332
-0.007751941680908203 0.674418568611145 0.4722892940044403
-0.007751941680908203 0.674418568611145 0.47453761100769043
-0.007751941680908203 0.6899224519729614 -0.1229817122220993
-0.007751941680908203 0.6899224519729614 0.019640246406197548
-0.007751941680908203 0.7054263353347778 -0.12381991744041443
-0.007751941680908203 0.7054263353347778 0.029312707483768463
-0.007751941680908203 0.7209302186965942 -0.12397821247577667
-0.007751941680908203 0.7209302186965942 0.035061340779066086
-0.007751941680908203 0.7364341020584106 -0.12382680177688599
-0.007751941680908203 0.7364341020584106 0.03773445263504982
-0.007751941680908203 0.751937985420227 -0.1238500103354454
-0.007751941215246916 0.751937985420227 0.03984712064266205
-0.007751941680908203 0.7674418687820435 -0.12412182986736298
-0.007751941680908203 0.7674418687820435 0.04179346188902855
-0.007751941680908203 0.7829457521438599 -0.12422424554824829
-0.007751941680908203 0.7829457521438599 0.04252617061138153
-0.007751941680908203 0.7984496355056763 -0.12437009066343307
-0.00775194214656949 0.7984496355056763 0.04515455663204193
-0.007751941215246916 0.8139535188674927 -0.12460867315530777
-0.007751941680908203 0.8139535188674927 0.052806347608566284
-0.007751941680908203 0.8294574022293091 -0.1254996508359909
-0.007751941680908203 0.8294574022293091 0.11743179708719254
-0.007751941680908203 0.8449612855911255 -0.12745517492294312
-0.007751941680908203 0.8449612855911255 0.13214939832687378
-0.007751941680908203 0.8604652285575867 -0.13005854189395905
-0.00775194214656949 0.8604651689529419 0.13342005014419556
-0.007751941680908203 0.8759689331054688 -0.13209399580955505
-0.007751941680908203 0.8759689331054688 0.1213083565235138
-0.007751941680908203 0.8914728164672852 -0.12478214502334595
-0.007751941680908203 0.8914728760719299 -0.09577251225709915
0.007751941680908203 -0.9844960570335388 -0.14056941866874695
0.007751941680908203 -0.9844960570335388 -0.09370091557502747
0.007751941680908203 -0.9689922332763672 -0.13417735695838928
0.007751941680908203 -0.9689922332763672 -0.08608436584472656
0.007751941680908203 -0.9534883499145508 -0.13628174364566803
0.007751941680908203 -0.9534883499145508 -0.08180143684148788
0.007751941680908203 -0.9379844665527344 -0.1382942646741867
0.007751941680908203 -0.9379844665527344 -0.07813134789466858
0.007751941680908203 -0.922480583190918 -0.1384134441614151
