0.5335726141929626 -0.14728683233261108 0.1472867727279663
0.5332229733467102 -0.14728683233261108 0.16279065608978271
0.5309407711029053 -0.14728683233261108 0.17829453945159912
0.5274543166160583 -0.14728683233261108 0.19379842281341553
0.5217942595481873 -0.14728683233261108 0.20930230617523193
0.5341628789901733 -0.14728683233261108 0.28682172298431396
0.532558798789978 -0.14728683233261108 0.42635655403137207
0.5225605964660645 -0.14728683233261108 0.4418604373931885
0.5233532190322876 -0.13178294897079468 0.007751941680908203
0.5221515893936157 -0.13178294897079468 0.30232560634613037
0.5297579765319824 -0.13178294897079468 0.42635655403137207
0.521925687789917 -0.11627906560897827 0.30232560634613037
0.5221721529960632 -0.11627906560897827 0.42635655403137207
0.5337190628051758 -0.10077518224716187 -0.007751941680908203
0.5270426869392395 -0.10077518224716187 0.28682172298431396
0.5278457403182983 -0.10077518224716187 0.41085267066955566
0.5211395025253296 -0.08527130633592606 -0.00775194214656949
0.5235157012939453 -0.08527129888534546 0.1317828893661499
0.5329399108886719 -0.08527129888534546 0.39534878730773926
0.5298017263412476 -0.06976741552352905 0.37984490394592285
0.5218256711959839 -0.05426359176635742 0.1472867727279663
0.5294087529182434 -0.038759708404541016 0.1472867727279663
0.5335865020751953 -0.02325582504272461 0.17829453945159912
0.5217040777206421 -0.02325582504272461 0.30232560634613037
0.5242162942886353 -0.007751941680908203 -0.08527129888534546
0.5283650159835815 -0.007751941680908203 0.27131783962249756
0.523236095905304 0.007751941680908203 -0.11627906560897827
0.5318529009819031 0.007751941680908203 -0.10077518224716187
0.5342590808868408 0.007751941680908203 0.24031007289886475
0.533143937587738 0.02325582504272461 -0.1627907156944275
0.5332621335983276 0.02325582504272461 -0.14728683233261108
0.5270241498947144 0.02325582504272461 0.19379842281341553
0.5274361371994019 0.05426359176635742 -0.22480618953704834
0.5277425646781921 0.05426359176635742 0.11627912521362305
0.524814784526825 0.08527135848999023 -0.20930230617523193
0.5314761400222778 0.1317828893661499 -0.20930230617523193
0.519927442073822 0.16279065608978271 -0.038759708404541016
0.533944845199585 0.17829453945159912 -0.20930230617523193
0.5310428142547607 0.19379842281341553 -0.1782945990562439
0.532071053981781 0.19379842281341553 -0.1627907156944275
0.5238120555877686 0.20930230617523193 -0.22480618953704834
0.534098744392395 0.20930230617523193 -0.05426359176635742
0.5294533371925354 0.22480618953704834 -0.24031007289886475
0.5342392325401306 0.24031007289886475 -0.25581395626068115
0.5322728157043457 0.24031007289886475 -0.06976741552352905
0.5341728925704956 0.25581395626068115 -0.27131783962249756
0.5218483805656433 0.25581395626068115 -0.25581395626068115
0.5339934825897217 0.27131783962249756 -0.30232560634613037
0.5271230936050415 0.27131783962249756 -0.28682172298431396
0.5291445255279541 0.28682172298431396 -0.3488371968269348
0.5236969590187073 0.28682172298431396 -0.3333333134651184
0.5212101340293884 0.30232560634613037 -0.39534881711006165
0.5307573080062866 0.3178294897079468 -0.317829430103302
0.5258447527885437 0.3178294897079468 -0.30232560634613037
0.5209096670150757 0.3178294897079468 -0.28682172298431396
0.5195106267929077 0.3333333730697632 -0.4573643207550049
0.5339106321334839 0.3333333730697632 -0.3798449635505676
0.5225936770439148 0.3333333730697632 -0.3643410801887512
0.5292612314224243 0.3488372564315796 -0.4883720874786377
0.5235744714736938 0.3488372564315796 -0.41085273027420044
0.5295099020004272 0.364341139793396 -0.5038759708404541
0.525851309299469 0.364341139793396 -0.4418604373931885
0.5344492793083191 0.37984490394592285 -0.5193798542022705
0.5288825035095215 0.42635655403137207 -0.5348837375640869
0.5335281491279602 0.42635655403137207 -0.5193798542022705
0.5258910655975342 0.4418604075908661 -0.5348837375640869
0.5200212597846985 0.4418604373931885 -0.5193798542022705
0.5207699537277222 0.4573643207550049 -0.5348837375640869
0.5362376570701599 -0.39534884691238403 0.06976747512817383
0.5385088920593262 -0.39534884691238403 0.08527135848999023
0.5382702946662903 -0.39534884691238403 0.10077524185180664
0.5378487706184387 -0.39534884691238403 0.11627912521362305
0.536785364151001 -0.39534884691238403 0.1317828893661499
0.540238082408905 -0.39534884691238403 0.1472867727279663
0.5470020174980164 -0.39534884691238403 0.16279065608978271
0.5426079034805298 -0.39534884691238403 0.20930230617523193
0.5446926355361938 -0.3798449635505676 0.02325582504272461
0.5493699908256531 -0.3798449635505676 0.24031007289886475
0.5437124967575073 -0.3798449635505676 0.25581395626068115
0.5371672511100769 -0.37984493374824524 0.27131783962249756
0.5436517000198364 -0.3643410801887512 0.007751941680908203
0.5498536229133606 -0.3643410801887512 0.28682172298431396
0.5365840196609497 -0.3643410801887512 0.30232560634613037
0.5349923968315125 -0.3488371968269348 -0.00775194214656949
0.5468785166740417 -0.3488371968269348 0.3178294897079468
0.5410188436508179 -0.3333333134651184 -0.007751941680908203
0.5401999950408936 -0.3333333134651184 0.3488372564315796
0.5482673048973083 -0.317829430103302 -0.007751941680908203
0.5476839542388916 -0.317829430103302 0.10077524185180664
0.5465136766433716 -0.317829430103302 0.19379842281341553
0.5372809767723083 -0.3178294003009796 0.22480618953704834
0.543847918510437 -0.317829430103302 0.24031007289886475
0.5425374507904053 -0.317829430103302 0.25581395626068115
0.5348905324935913 -0.317829430103302 0.27131783962249756
0.5467374324798584 -0.317829430103302 0.364341139793396
0.5411549806594849 -0.317829430103302 0.37984490394592285
0.53891521692276 -0.317829430103302 0.39534878730773926
0.5376982688903809 -0.3178294003009796 0.41085267066955566
0.536013126373291 -0.317829430103302 0.42635655403137207
0.549805760383606 -0.30232560634613037 0.27131783962249756
0.5498921871185303 -0.30232560634613037 0.37984490394592285
0.54283607006073 -0.30232560634613037 0.39534878730773926
0.5389179587364197 -0.30232560634613037 0.41085267066955566
0.5360588431358337 -0.30232560634613037 0.42635655403137207
0.5372934937477112 -0.28682172298431396 -0.6279069781303406
0.5437982678413391 -0.28682172298431396 0.39534878730773926
0.5382646322250366 -0.28682172298431396 0.41085267066955566
0.5435323715209961 -0.27131783962249756 -0.6279069781303406
0.5379106402397156 -0.27131783962249756 -0.038759708404541016
0.5446845889091492 -0.27131783962249756 0.39534878730773926
0.5381258726119995 -0.27131783962249756 0.41085267066955566
0.5450348258018494 -0.25581395626068115 0.39534878730773926
0.537996232509613 -0.25581395626068115 0.41085267066955566
0.5453953146934509 -0.24031007289886475 0.39534878730773926
0.5380795001983643 -0.24031007289886475 0.41085267066955566
0.5365673303604126 -0.22480618953704834 0.20930230617523193
0.5461463928222656 -0.22480618953704834 0.39534878730773926
0.5385876893997192 -0.22480620443820953 0.41085267066955566
0.5457566976547241 -0.20930230617523193 0.20930230617523193
0.5391169786453247 -0.20930230617523193 0.27131783962249756
0.5467323660850525 -0.20930230617523193 0.39534878730773926
0.5390506386756897 -0.20930230617523193 0.41085270047187805
0.5438152551651001 -0.19379842281341553 0.22480618953704834
0.5486207008361816 -0.19379842281341553 0.39534878730773926
0.5403729677200317 -0.19379842281341553 0.41085267066955566
0.5455219149589539 -0.1782945990562439 0.24031007289886475
0.5385318994522095 -0.1782945990562439 0.25581395626068115
0.5420781970024109 -0.1782945990562439 0.41085267066955566
0.5411409139633179 -0.1627907156944275 -0.007751941680908203
0.5395973324775696 -0.1627907156944275 0.24031007289886475
0.5434039235115051 -0.1627907156944275 0.41085267066955566
0.5349957346916199 -0.14728684723377228 0.28682172298431396
0.5438870191574097 -0.14728683233261108 0.41085267066955566
0.5396541953086853 -0.13178294897079468 0.10077524185180664
0.5438703298568726 -0.13178294897079468 0.28682172298431396
0.5422459840774536 -0.13178294897079468 0.41085267066955566
0.5497934222221375 -0.11627906560897827 -0.007751941680908203
0.5445601344108582 -0.11627906560897827 0.10077524185180664
0.5420655012130737 -0.11627906560897827 0.28682172298431396
0.5499972701072693 -0.11627906560897827 0.39534878730773926
0.5376508831977844 -0.11627906560897827 0.41085267066955566
0.5392357707023621 -0.10077518224716187 0.10077524185180664
0.5450260639190674 -0.10077518224716187 0.27131783962249756
0.5464161038398743 -0.10077518224716187 0.39534878730773926
0.5375107526779175 -0.08527129888534546 0.11627912521362305
0.539039671421051 -0.08527129888534546 0.25581395626068115
0.5382242202758789 -0.06976741552352905 0.1317828893661499
0.5357951521873474 -0.06976741552352905 0.24031007289886475
0.5437294244766235 -0.05426359176635742 0.1317828893661499
0.5352071523666382 -0.05426359176635742 0.22480617463588715
0.5390908122062683 -0.05426359549164772 0.3488372564315796
0.542411208152771 -0.038759708404541016 -0.038759708404541016
0.5501099824905396 -0.038759708404541016 0.1317828893661499
0.5351635217666626 -0.038759708404541016 0.20930232107639313
0.5428848266601562 -0.038759708404541016 0.3178294897079468
0.5398184657096863 -0.02325582504272461 -0.05426359176635742
0.546591579914093 -0.02325582504272461 0.28682172298431396
0.5399045944213867 -0.00775194214656949 -0.06976741552352905
0.5484028458595276 -0.007751941680908203 -0.05426359176635742
0.5406774282455444 0.007751941680908203 -0.08527129888534546
0.5491465926170349 0.007751941680908203 -0.06976741552352905
0.5349096059799194 0.02325582318007946 -0.22480618953704834
0.5372764468193054 0.02325582504272461 -0.20930230617523193
0.5361988544464111 0.02325582504272461 -0.19379842281341553
0.5352683663368225 0.02325582504272461 -0.1782945990562439
0.5363840460777283 0.02325582318007946 -0.13178294897079468
0.541411817073822 0.02325582504272461 -0.11627906560897827
0.5481792092323303 0.02325582504272461 -0.10077518224716187
0.5383175611495972 0.02325582318007946 0.17829453945159912
0.5491049885749817 0.038759708404541016 0.1317828893661499
0.5434243679046631 0.06976747512817383 -0.22480618953704834
0.5414062142372131 0.10077524185180664 -0.20930230617523193
0.5447745323181152 0.11627912521362305 0.007751941680908203
0.5436851978302002 0.1472867727279663 -0.20930230617523193
0.5392895340919495 0.1472867727279663 -0.02325582504272461
0.5432571768760681 0.16279065608978271 -0.20930230617523193
0.5421500205993652 0.17829453945159912 -0.20930230617523193
0.5374966859817505 0.17829453945159912 -0.19379842281341553
0.5381835103034973 0.17829453945159912 -0.1782945990562439
0.5474412441253662 0.17829453945159912 -0.1627907156944275
0.543165922164917 0.17829453945159912 -0.038759708404541016
0.5381918549537659 0.19379842281341553 -0.22480620443820953
0.5483005046844482 0.19379842281341553 -0.14728683233261108
0.5413259267807007 0.20930230617523193 -0.24031007289886475
0.547734260559082 0.22480618953704834 -0.25581395626068115
0.5476804971694946 0.24031007289886475 -0.27131783962249756
0.5483141541481018 0.25581395626068115 -0.30232560634613037
0.5418688058853149 0.25581395626068115 -0.28682172298431396
0.5490351915359497 0.27131783962249756 -0.3488371968269348
0.5438313484191895 0.27131783962249756 -0.3333333134651184
0.5393757820129395 0.27131783962249756 -0.317829430103302
0.5495445132255554 0.27131783962249756 -0.08527129888534546
0.5415216684341431 0.28682172298431396 -0.3798449635505676
0.5357298851013184 0.28682172298431396 -0.3643410801887512
0.5356185436248779 0.28682172298431396 -0.10077518224716187
0.5496776700019836 0.30232560634613037 -0.42635661363601685
0.5372368693351746 0.30232560634613037 -0.41085273027420044
0.5478730201721191 0.30232560634613037 -0.30232560634613037
0.5445921421051025 0.30232560634613037 -0.28682172298431396
0.5430618524551392 0.30232560634613037 -0.27131783962249756
0.5419975519180298 0.30232560634613037 -0.25581395626068115
0.5417289137840271 0.30232560634613037 -0.24031008780002594
0.542513906955719 0.30232560634613037 -0.22480618953704834
0.5442678332328796 0.30232560634613037 -0.20930230617523193
0.5471298098564148 0.30232560634613037 -0.19379842281341553
0.5464422106742859 0.3178294897079468 -0.4573643207550049
0.5360669493675232 0.3178294897079468 -0.4418604373931885
0.5451463460922241 0.3178294897079468 -0.3643410801887512
0.539272665977478 0.3178294897079468 -0.3488371968269348
0.5364753007888794 0.3178294897079468 -0.3333333134651184
0.5475341081619263 0.3333333730697632 -0.4883720874786377
0.5360069274902344 0.3333333730697632 -0.4728682041168213
0.5410016179084778 0.3333333730697632 -0.39534884691238403
0.5483171939849854 0.3488372564315796 -0.5038759708404541
0.5409096479415894 0.3488372564315796 -0.42635661363601685
0.5453681945800781 0.364341139793396 -0.4573643207550049
0.5355581641197205 0.37984490394592285 -0.5193798542022705
0.5384676456451416 0.37984490394592285 -0.4728682041168213
0.5440385341644287 0.39534878730773926 -0.5193798542022705
0.5456176400184631 0.39534878730773926 -0.5038759708404541
0.5354287028312683 0.39534878730773926 -0.4883720874786377
0.5400418639183044 0.41085267066955566 -0.5193798542022705
0.5348966717720032 0.41085267066955566 -0.5038759708404541
0.5532095432281494 -0.39534884691238403 0.17829453945159912
0.5516509413719177 -0.39534884691238403 0.19379842281341553
0.5551025867462158 -0.3798449635505676 0.038759708404541016
0.561582624912262 -0.3798449635505676 0.05426359176635742
0.5560429096221924 -0.3798449635505676 0.22480618953704834
0.5580503940582275 -0.3643410801887512 0.02325582504272461
0.5588046312332153 -0.3643410801887512 0.27131783962249756
0.5517726540565491 -0.3488371968269348 0.007751941215246916
0.560066282749176 -0.3488371968269348 0.30232560634613037
0.5612066984176636 -0.3333333134651184 0.007751941680908203
0.5547055006027222 -0.3333333134651184 0.3333333730697632
0.5517606139183044 -0.317829430103302 0.11627912521362305
0.5550065636634827 -0.317829430103302 0.1317828893661499
0.5598711967468262 -0.317829430103302 0.1472867727279663
0.560711681842804 -0.317829430103302 0.16279065608978271
0.5582807064056396 -0.317829430103302 0.17829453945159912
0.5567938685417175 -0.317829430103302 0.3488372564315796
0.563431441783905 -0.30232560634613037 -0.007751941680908203
0.5632932186126709 -0.30232560634613037 0.06976747512817383
0.5603899955749512 -0.30232560634613037 0.25581395626068115
0.5551471710205078 -0.30232560634613037 0.364341139793396
0.5510526895523071 -0.28682172298431396 -0.02325582504272461
0.5533856749534607 -0.28682172298431396 0.27131783962249756
0.5581349730491638 -0.28682172298431396 0.364341139793396
0.5519357919692993 -0.28682172298431396 0.37984490394592285
0.552640438079834 -0.27131783962249756 0.27131783962249756
0.5618191957473755 -0.27131783962249756 0.364341139793396
0.5533941388130188 -0.27131783962249756 0.37984490394592285
0.5570048689842224 -0.25581395626068115 -0.038759708404541016
0.5579324960708618 -0.25581395626068115 0.16279065608978271
0.5508027076721191 -0.25581395626068115 0.27131783962249756
0.5658676028251648 -0.25581395626068115 0.364341139793396
0.5546046495437622 -0.25581395626068115 0.37984490394592285
0.5515812039375305 -0.24031007289886475 0.27131783962249756
0.5558114051818848 -0.24031007289886475 0.37984490394592285
0.554706871509552 -0.22480618953704834 -0.612403154373169
0.5561485290527344 -0.22480618953704834 -0.5813953876495361
0.5647554993629456 -0.22480618953704834 0.19379842281341553
0.5513576865196228 -0.22480618953704834 0.27131783962249756
0.5570722222328186 -0.22480618953704834 0.37984490394592285
0.5570412874221802 -0.20930230617523193 -0.038759708404541016
0.5577821731567383 -0.20930230617523193 0.37984490394592285
0.5598300099372864 -0.19379842281341553 -0.02325582504272461
0.5588066577911377 -0.19379842281341553 0.25581395626068115
0.5593096613883972 -0.19379842281341553 0.37984490394592285
0.565416157245636 -0.1782945990562439 -0.007751941680908203
0.5535531640052795 -0.1782945990562439 0.24031007289886475
0.5532277822494507 -0.1782945990562439 0.25581395626068115
0.5610219240188599 -0.1782945990562439 0.37984490394592285
0.5509380102157593 -0.1782945990562439 0.39534878730773926
0.5512550473213196 -0.1627907156944275 -0.007751941680908203
0.5531985759735107 -0.1627907007932663 0.24031005799770355
0.5526909232139587 -0.1627907156944275 0.25581395626068115
0.5625669956207275 -0.1627907156944275 0.37984490394592285
0.5521445274353027 -0.1627907156944275 0.39534875750541687
0.5649726986885071 -0.14728683233261108 0.22480618953704834
0.5619999766349792 -0.14728683233261108 0.24031007289886475
0.5579396486282349 -0.14728683233261108 0.25581395626068115
0.5522662401199341 -0.14728683233261108 0.27131783962249756
0.5637048482894897 -0.14728683233261108 0.37984490394592285
0.5528748035430908 -0.14728683233261108 0.39534878730773926
0.561889111995697 -0.13178294897079468 0.25581395626068115
0.5547699928283691 -0.13178294897079468 0.27131783962249756
0.5641547441482544 -0.13178294897079468 0.37984490394592285
0.5522311925888062 -0.13178294897079468 0.39534878730773926
0.550492525100708 -0.11627906560897827 -0.007751941215246916
0.5627684593200684 -0.11627906560897827 0.25581395626068115
0.5541420578956604 -0.11627906560897827 0.27131783962249756
0.563991904258728 -0.11627906560897827 0.37984490394592285
0.5539475679397583 -0.10077518224716187 -0.007751941680908203
0.5570870041847229 -0.10077518224716187 0.25581395626068115
0.5621582269668579 -0.10077518224716187 0.37984490394592285
0.557692289352417 -0.08527129888534546 -0.007751941680908203
0.556931734085083 -0.08527129888534546 0.24031007289886475
0.5531132221221924 -0.08527129888534546 0.37984490394592285
0.5606808662414551 -0.06976741552352905 -0.007751941680908203
0.5642552971839905 -0.06976741552352905 0.11627912521362305
0.5564126968383789 -0.06976741552352905 0.22480618953704834
0.5530377626419067 -0.06976741552352905 0.364341139793396
0.550663411617279 -0.05426358804106712 -0.02325582504272461
0.5648604035377502 -0.05426359176635742 -0.007751941680908203
0.5577770471572876 -0.05426359176635742 0.20930230617523193
0.5594201683998108 -0.05426359176635742 0.3333333730697632
0.5551313757896423 -0.038759708404541016 -0.02325582504272461
0.5554068088531494 -0.038759708404541016 0.19379843771457672
0.5512455701828003 -0.02325582504272461 -0.03875970467925072
0.5578710436820984 -0.02325582504272461 -0.02325582504272461
0.5546280145645142 -0.007751941680908203 -0.038759708404541016
0.5623242855072021 -0.007751941680908203 -0.02325582504272461
0.554154634475708 -0.007751941680908203 0.25581395626068115
0.554882287979126 0.00775194214656949 -0.05426359176635742
0.5614333152770996 0.007751941680908203 -0.038759708404541016
0.5523234009742737 0.007751941680908203 0.22480618953704834
0.5543015599250793 0.02325582504272461 -0.08527130633592606
0.5600488781929016 0.02325582504272461 -0.06976741552352905
0.5523196458816528 0.02325582504272461 0.16279065608978271
0.5575907230377197 0.038759708404541016 -0.22480618953704834
0.5585467219352722 0.038759708404541016 -0.20930230617523193
0.5561119914054871 0.038759708404541016 -0.19379842281341553
0.5548619627952576 0.038759708404541016 -0.1782945990562439
0.553136944770813 0.038759708404541016 -0.1627907156944275
0.5527347326278687 0.038759708404541016 -0.14728683233261108
0.5544483065605164 0.038759708404541016 -0.13178294897079468
0.5578548312187195 0.038759708404541016 -0.11627906560897827
0.5621711611747742 0.038759708404541016 -0.10077518224716187
0.5608941912651062 0.08527135848999023 -0.22480618953704834
0.5649520754814148 0.10077524185180664 0.038759708404541016
0.5539143085479736 0.11627912521362305 -0.20930230617523193
0.5578049421310425 0.1317828893661499 -0.20930230617523193
0.5506380796432495 0.1317828893661499 -0.007751941680908203
0.5569321513175964 0.1472867727279663 -0.20930230617523193
0.5554100871086121 0.16279065608978271 -0.20930230617523193
0.560434877872467 0.17829453945159912 -0.22480618953704834
0.5525771379470825 0.17829453945159912 -0.19379842281341553
0.5578132271766663 0.17829453945159912 -0.1782945990562439
0.5531141757965088 0.17829452455043793 -0.1627907156944275
0.5573117136955261 0.19379842281341553 -0.1782945990562439
0.5635660886764526 0.19379842281341553 -0.1627907156944275
0.5524231195449829 0.19379842281341553 -0.14728683233261108
0.557590126991272 0.24031007289886475 -0.28682172298431396
0.5627900958061218 0.25581395626068115 -0.3333333134651184
0.5549463629722595 0.25581395626068115 -0.317829430103302
0.5650376081466675 0.27131783962249756 -0.3798449635505676
0.5550861358642578 0.27131783962249756 -0.3643410801887512
0.5508351922035217 0.27131783962249756 -0.08527129888534546
0.5625680685043335 0.28682172298431396 -0.41085273027420044
0.5513524413108826 0.28682172298431396 -0.39534884691238403
0.5643537640571594 0.28682172298431396 -0.27131783962249756
0.5627090334892273 0.28682172298431396 -0.25581395626068115
0.5624923706054688 0.28682172298431396 -0.24031007289886475
0.5636852383613586 0.28682172298431396 -0.22480618953704834
0.5543820858001709 0.28682172298431396 -0.10077518224716187
0.5596522092819214 0.30232560634613037 -0.4418604373931885
0.5568821430206299 0.30232560634613037 -0.3488371968269348
0.5538574457168579 0.30232560634613037 -0.3333333134651184
0.5517997145652771 0.30232560634613037 -0.317829430103302
0.5512144565582275 0.30232560634613037 -0.1782945990562439
0.5537123084068298 0.30232560634613037 -0.1627907156944275
0.5557746291160583 0.30232560634613037 -0.14728683233261108
0.5548293590545654 0.30232560634613037 -0.13178294897079468
0.556088387966156 0.3178294897079468 -0.4728682041168213
0.5594177842140198 0.3178294897079468 -0.39534884691238403
0.5530126094818115 0.3178294897079468 -0.3798449635505676
0.5603244304656982 0.3333333730697632 -0.42635661363601685
0.5524593591690063 0.3333333730697632 -0.41085270047187805
0.5518604516983032 0.3488372564315796 -0.5038759708404541
0.5612378120422363 0.3488372564315796 -0.4573643207550049
0.5534654259681702 0.348837286233902 -0.44186046719551086
0.5555988550186157 0.364341139793396 -0.5038759708404541
0.557686448097229 0.364341139793396 -0.4883720874786377
0.5547583699226379 0.364341139793396 -0.4728682041168213
0.5541677474975586 0.37984490394592285 -0.5038759708404541
0.5518999099731445 0.37984490394592285 -0.4883720874786377
0.5696573257446289 -0.3798449635505676 0.06976747512817383
0.5745251178741455 -0.3798449635505676 0.08527135848999023
0.5792678594589233 -0.3798449635505676 0.10077524185180664
0.5810462832450867 -0.3798449635505676 0.19379842281341553
0.569512128829956 -0.3798449635505676 0.20930230617523193
0.5721499919891357 -0.3643410801887512 0.038759708404541016
0.5775968432426453 -0.3643410801887512 0.22480618953704834
0.5703434348106384 -0.3643410801887512 0.24031007289886475
0.5668267011642456 -0.3643410801887512 0.25581395626068115
0.570942759513855 -0.3488371968269348 0.02325582504272461
0.5773301124572754 -0.3488371968269348 0.27131783962249756
0.5695715546607971 -0.3488371968269348 0.28682172298431396
0.5790513753890991 -0.3333333134651184 0.30232560634613037
0.568778932094574 -0.3333333134651184 0.3178294897079468
0.5767446756362915 -0.317829430103302 0.007751941680908203
0.5701959133148193 -0.317829430103302 0.3333333730697632
0.5799819231033325 -0.30232560634613037 0.17829453945159912
0.577374279499054 -0.30232560634613037 0.19379842281341553
0.5740509629249573 -0.30232560634613037 0.20930230617523193
0.5715769529342651 -0.30232560634613037 0.22480618953704834
0.5675724148750305 -0.30232560634613037 0.24031007289886475
0.5785247087478638 -0.30232560634613037 0.3333333730697632
0.5660625100135803 -0.30232560634613037 0.3488372564315796
0.581387996673584 -0.28682172298431396 0.24031007289886475
0.5690438747406006 -0.28682172298431396 0.25581395626068115
0.568334698677063 -0.28682172298431396 0.3488372564315796
0.5763263702392578 -0.27131783962249756 -0.02325582504272461
0.5734718441963196 -0.27131783962249756 0.25581395626068115
0.5739781856536865 -0.27131783962249756 0.3488372564315796
0.5792127847671509 -0.25581395626068115 0.10077524185180664
0.5759845972061157 -0.25581395626068115 0.19379842281341553
0.573695182800293 -0.25581395626068115 0.25581395626068115
0.5810404419898987 -0.25581395626068115 0.3488372564315796
0.5720933079719543 -0.24031007289886475 -0.038759708404541016
0.5691259503364563 -0.24031005799770355 0.19379840791225433
0.5724725723266602 -0.24031007289886475 0.25581395626068115
0.5687610507011414 -0.24031007289886475 0.364341139793396
0.5716745853424072 -0.22480618953704834 -0.038759708404541016
0.5699949860572815 -0.22480618953704834 0.25581395626068115
0.5710053443908691 -0.22480617463588715 0.364341139793396
0.5778354406356812 -0.20930230617523193 0.19379842281341553
0.5736837387084961 -0.20930230617523193 0.24031007289886475
0.5660757422447205 -0.20930230617523193 0.25581395626068115
0.5719779133796692 -0.20930230617523193 0.364341139793396
0.5693075060844421 -0.19379842281341553 0.22480618953704834
0.5667018294334412 -0.19379842281341553 0.24031007289886475
0.5733582973480225 -0.19379842281341553 0.364341139793396
0.574445903301239 -0.1782945990562439 0.364341139793396
0.5756217837333679 -0.1627907156944275 0.364341139793396
0.5709205865859985 -0.14728683233261108 0.007751941680908203
0.5738569498062134 -0.14728683233261108 0.11627912521362305
0.5803626775741577 -0.14728683233261108 0.1472867727279663
0.5697917938232422 -0.14728683233261108 0.16279065608978271
0.5665081739425659 -0.14728683233261108 0.17829453945159912
0.5662878751754761 -0.14728683233261108 0.19379840791225433
0.5673932433128357 -0.14728683233261108 0.20930230617523193
0.5770075917243958 -0.14728683233261108 0.364341139793396
0.5699346661567688 -0.13178294897079468 0.007751941680908203
0.5804446935653687 -0.13178294897079468 0.20930230617523193
0.5736721754074097 -0.13178294897079468 0.22480618953704834
0.5682312846183777 -0.13178294897079468 0.24031007289886475
0.5778139233589172 -0.13178294897079468 0.364341139793396
0.5742753744125366 -0.11627906560897827 0.007751941680908203
0.5796253085136414 -0.11627906560897827 0.22480618953704834
0.5711655020713806 -0.11627906560897827 0.24031007289886475
0.5775219798088074 -0.11627906560897827 0.364341139793396
0.5797100067138672 -0.10077518224716187 0.007751941680908203
0.5794157981872559 -0.10077518224716187 0.22480618953704834
0.5686959028244019 -0.10077518224716187 0.24031005799770355
0.5750848054885864 -0.10077518224716187 0.364341139793396
0.5780969858169556 -0.08527129888534546 0.11627912521362305
0.5711617469787598 -0.08527129888534546 0.22480618953704834
0.5796201229095459 -0.08527129888534546 0.3488372564315796
0.56693035364151 -0.08527129888534546 0.364341139793396
0.5674692988395691 -0.06976741552352905 0.11627912521362305
0.5742650032043457 -0.06976741552352905 0.20930230617523193
0.5685487985610962 -0.06976741552352905 0.3488372564315796
0.5752855539321899 -0.05426359176635742 0.19379842281341553
0.5764102935791016 -0.05426359176635742 0.3178294897079468
0.5679929852485657 -0.038759708404541016 -0.007751941680908203
0.58022540807724 -0.038759708404541016 0.1317828893661499
0.5699920654296875 -0.038759708404541016 0.17829453945159912
0.5666539072990417 -0.038759708404541016 0.30232560634613037
0.57026606798172 -0.02325582504272461 -0.007751941680908203
0.5706813931465149 -0.02325582504272461 0.27131783962249756
0.5768416523933411 -0.007751941680908203 -0.007751941680908203
0.5759991407394409 -0.007751941680908203 0.24031007289886475
0.5720718502998352 0.007751941680908203 -0.02325582504272461
0.5788693428039551 0.007751941680908203 0.19379842281341553
0.5669933557510376 0.007751941680908203 0.20930230617523193
0.5676252841949463 0.02325582504272461 -0.05426359176635742
0.5783752799034119 0.02325582504272461 -0.038759708404541016
0.5707831978797913 0.02325582504272461 0.1472867727279663
0.568511962890625 0.038759708404541016 -0.08527129888534546
0.5768814086914062 0.038759708404541016 -0.06976741552352905
0.5773448348045349 0.05426359176635742 -0.1782945990562439
0.5724257826805115 0.05426359176635742 -0.1627907156944275
0.570728063583374 0.05426359176635742 -0.14728683233261108
0.5731393098831177 0.05426359176635742 -0.13178294897079468
0.578803300857544 0.05426359176635742 -0.11627906560897827
0.5744491815567017 0.06976747512817383 0.08527135848999023
0.5744065642356873 0.10077524185180664 -0.22480618953704834
0.5788295269012451 0.16279065608978271 -0.22480618953704834
0.5670304298400879 0.19379842281341553 -0.24031007289886475
0.5753492712974548 0.20930230617523193 -0.25581395626068115
0.5792363882064819 0.22480618953704834 -0.28682172298431396
0.5695439577102661 0.22480618953704834 -0.27131783962249756
0.5762321352958679 0.24031007289886475 -0.317829430103302
0.567919909954071 0.24031007289886475 -0.30232560634613037
0.5716784596443176 0.24031007289886475 -0.06976741552352905
0.579694390296936 0.25581395626068115 -0.3643410801887512
0.5707719326019287 0.25581395626068115 -0.3488371968269348
0.5762908458709717 0.27131783962249756 -0.39534884691238403
0.5748645663261414 0.28682172298431396 -0.42635661363601685
0.5738004446029663 0.28682172298431396 -0.3333333134651184
0.570435643196106 0.28682172298431396 -0.317829430103302
0.5683916211128235 0.28682172298431396 -0.30232560634613037
0.5665642619132996 0.28682172298431396 -0.28682172298431396
0.566124439239502 0.2868216931819916 -0.20930230617523193
0.5678887963294983 0.28682172298431396 -0.19379842281341553
0.5717396140098572 0.28682172298431396 -0.1782945990562439
0.5769472122192383 0.28682172298431396 -0.1627907156944275
0.580605685710907 0.28682172298431396 -0.14728683233261108
0.5809434056282043 0.28682172298431396 -0.13178294897079468
0.5741082429885864 0.28682172298431396 -0.11627906560897827
0.570388913154602 0.30232560634613037 -0.4573643207550049
0.5709671378135681 0.30232560634613037 -0.3798449635505676
0.5661728978157043 0.30232560634613037 -0.3643410801887512
0.570027232170105 0.3178294897079468 -0.41085273027420044
0.5694010257720947 0.3333333730697632 -0.4883720874786377
0.5749067664146423 0.3333333730697632 -0.4728682041168213
0.5757855176925659 0.3333333730697632 -0.4573643207550049
0.5702602863311768 0.3333333730697632 -0.4418604373931885
0.567176878452301 0.3488372564315796 -0.4883720874786377
0.5675244927406311 0.3488372564315796 -0.4728682041168213
0.5842702388763428 -0.3798449635505676 0.11627912521362305
0.5858615636825562 -0.3798449635505676 0.1317828893661499
0.5870534777641296 -0.3798449635505676 0.1472867727279663
0.5878607034683228 -0.3798449635505676 0.16279065608978271
0.5867006778717041 -0.3798449635505676 0.17829453945159912
0.5833336114883423 -0.3643410801887512 0.05426358804106712
0.5927858352661133 -0.3643410801887512 0.06976747512817383
0.5865753889083862 -0.3643410801887512 0.20930230617523193
0.5895136594772339 -0.3488371968269348 0.038759708404541016
0.5958055853843689 -0.3488371968269348 0.22480618953704834
0.5875840783119202 -0.3488371968269348 0.24031007289886475
0.5837192535400391 -0.3488371968269348 0.25581395626068115
0.5878095030784607 -0.3333333134651184 0.02325582504272461
0.5925065875053406 -0.3333333134651184 0.27131783962249756
0.5863440036773682 -0.3333333134651184 0.28682172298431396
0.5943595767021179 -0.317829430103302 0.30232560634613037
0.5844157338142395 -0.317829430103302 0.3178294897079468
0.5875789523124695 -0.30232560634613037 0.08527135848999023
0.5912293791770935 -0.30232560634613037 0.10077524185180664
0.5914537310600281 -0.30232560634613037 0.11627912521362305
0.5899657011032104 -0.30232560634613037 0.1317828893661499
0.5879712104797363 -0.30232560634613037 0.1472867727279663
0.583087682723999 -0.30232560634613037 0.16279064118862152
0.5964761972427368 -0.28682172298431396 -0.007751941680908203
0.5948226451873779 -0.28682172298431396 0.17829453945159912
0.5913501977920532 -0.28682172298431396 0.19379842281341553
0.5899500846862793 -0.28682172298431396 0.20930230617523193
0.5871550440788269 -0.28682172298431396 0.22480618953704834
0.5822492241859436 -0.28682172298431396 0.3333333730697632
0.5916416645050049 -0.27131783962249756 0.08527135848999023
0.5875571966171265 -0.27131783962249756 0.24031005799770355
0.5933382511138916 -0.25581395626068115 0.17829453945159912
0.5883572101593018 -0.25581395626068115 0.24031007289886475
0.5848323702812195 -0.24031007289886475 -0.6124030947685242
0.5929718613624573 -0.24031007289886475 0.17829453945159912
0.5863107442855835 -0.24031007289886475 0.24031007289886475
0.5869952440261841 -0.24031007289886475 0.3488372564315796
0.5919841527938843 -0.22480618953704834 0.17829453945159912
0.5936546325683594 -0.22480618953704834 0.22480618953704834
0.5819689631462097 -0.22480618953704834 0.24031007289886475
0.5896502137184143 -0.22480618953704834 0.3488372564315796
0.5951883792877197 -0.20930230617523193 0.20930230617523193
0.5830514430999756 -0.20930230617523193 0.22480618953704834
0.5909337997436523 -0.20930230617523193 0.3488372564315796
0.591853141784668 -0.19379842281341553 0.3488372564315796
0.591474711894989 -0.1782945990562439 0.3488372564315796
0.5909487009048462 -0.1627907156944275 0.3488372564315796
0.5910851359367371 -0.14728683233261108 0.3488372564315796
0.5939276218414307 -0.13178294897079468 0.16279065608978271
0.5875311493873596 -0.13178294897079468 0.17829453945159912
0.5845396518707275 -0.13178294897079468 0.19379842281341553
0.5911989212036133 -0.13178294897079468 0.3488372564315796
0.5912767648696899 -0.11627906560897827 0.20930230617523193
0.5903627872467041 -0.11627906560897827 0.3488372564315796
0.5860569477081299 -0.10077518224716187 0.11627912521362305
0.5947244763374329 -0.10077518224716187 0.20930230617523193
0.5871880650520325 -0.10077518224716187 0.3488372564315796
0.5861315131187439 -0.08527129888534546 0.007751941680908203
0.5880560874938965 -0.08527129888534546 0.20930230617523193
0.5932360887527466 -0.08527129888534546 0.3333333730697632
0.5883304476737976 -0.06976741552352905 0.007751941680908203
0.5958383679389954 -0.06976741552352905 0.19379842281341553
0.5958996415138245 -0.06976741552352905 0.3178294897079468
0.5815227627754211 -0.06976741552352905 0.3333333730697632
0.5905860662460327 -0.05426359176635742 0.007751941680908203
0.5935839414596558 -0.05426359176635742 0.1317828893661499
0.5930266380310059 -0.05426359176635742 0.30232560634613037
0.5928837656974792 -0.038759708404541016 0.007751941680908203
0.5909990668296814 -0.038759708404541016 0.1472867727279663
0.5847653746604919 -0.038759708404541016 0.16279065608978271
0.5845102667808533 -0.038759708404541016 0.28682172298431396
0.5933940410614014 -0.02325582504272461 0.25581395626068115
0.5964764356613159 -0.007751941680908203 0.22480618953704834
0.5915728807449341 0.007751941680908203 0.17829453945159912
0.5886660218238831 0.038759708404541016 0.11627912521362305
0.5894933342933655 0.05426359176635742 -0.19379842281341553
0.5815944671630859 0.05426359176635742 0.10077524185180664
0.589267373085022 0.11627912521362305 -0.22480618953704834
0.5964110493659973 0.17829453945159912 -0.1627907156944275
0.5966676473617554 0.17829453945159912 -0.14728683233261108
0.5960114002227783 0.20930230617523193 -0.27131783962249756
0.5861072540283203 0.20930229127407074 -0.05426359176635742
0.5916959047317505 0.22480618953704834 -0.30232560634613037
0.5862212777137756 0.24031007289886475 -0.3333333134651184
0.5928611755371094 0.25581395626068115 -0.3798449635505676
0.5872887372970581 0.25581395626068115 -0.08527129888534546
0.5906176567077637 0.27131783962249756 -0.41085273027420044
0.5954280495643616 0.27131783962249756 -0.30232560634613037
0.5899670124053955 0.27131783962249756 -0.28682172298431396
0.5879581570625305 0.27131783962249756 -0.27131783962249756
0.5865731239318848 0.27131783962249756 -0.25581395626068115
0.5861519575119019 0.27131783962249756 -0.24031007289886475
0.5872067809104919 0.27131783962249756 -0.22480618953704834
0.5903337597846985 0.27131783962249756 -0.20930230617523193
0.5963132381439209 0.27131783962249756 -0.19379842281341553
0.588030993938446 0.27131783962249756 -0.10077518224716187
0.5861332416534424 0.28682172298431396 -0.4418604373931885
0.5897434949874878 0.28682172298431396 -0.3643410801887512
0.5829371809959412 0.28682172298431396 -0.3488371968269348
0.596809446811676 0.30232560634613037 -0.41085273027420044
0.5830156803131104 0.30232560634613037 -0.39534884691238403
0.5848349332809448 0.3178294897079468 -0.4728682041168213
0.5918198823928833 0.3178294897079468 -0.4573643207550049
0.590151846408844 0.3178294897079468 -0.4418604373931885
0.5821163058280945 0.3178294897079468 -0.42635661363601685
0.6006528735160828 -0.3643410801887512 0.08527135848999023
0.6055647134780884 -0.3643410801887512 0.10077524185180664
0.6082664132118225 -0.3643410801887512 0.11627912521362305
0.6093968152999878 -0.3643410801887512 0.1317828893661499
0.6092739105224609 -0.3643410801887512 0.1472867727279663
0.6073938608169556 -0.3643410801887512 0.16279065608978271
0.6033469438552856 -0.3643410801887512 0.17829453945159912
0.5972491502761841 -0.3643410801887512 0.19379842281341553
0.602257251739502 -0.3488371968269348 0.05426359176635742
0.6103844046592712 -0.3488371968269348 0.06976747512817383
0.6081218123435974 -0.3488371968269348 0.19379842281341553
0.6011714935302734 -0.3488371968269348 0.20930230617523193
0.6068966388702393 -0.3333333134651184 0.038759708404541016
0.6073704957962036 -0.3333333134651184 0.22480618953704834
0.6020404100418091 -0.3333333134651184 0.24031007289886475
0.5984545946121216 -0.3333333134651184 0.25581395626068115
0.60731440782547 -0.317829430103302 0.02325582504272461
0.611050546169281 -0.317829430103302 0.25581395626068115
0.6054056882858276 -0.317829430103302 0.27131783962249756
0.6006750464439392 -0.317829430103302 0.28682172298431396
0.6049137711524963 -0.30232560634613037 0.007751941680908203
0.6058480143547058 -0.30232560634613037 0.30232560634613037
0.5972524881362915 -0.30232560634613037 0.3178294897079468
0.6068187355995178 -0.28682172298431396 0.08527135848999023
0.6068674325942993 -0.28682172298431396 0.1472867727279663
0.6000424027442932 -0.28682172298431396 0.16279065608978271
0.6075122356414795 -0.28682172298431396 0.3178294897079468
0.6065950393676758 -0.27131783962249756 0.16279065608978271
0.5999732613563538 -0.27131783962249756 0.17829453945159912
0.6001007556915283 -0.27131783962249756 0.19379842281341553
0.600676417350769 -0.27131783962249756 0.20930230617523193
0.5979206562042236 -0.27131783962249756 0.22480618953704834
0.6000300645828247 -0.27131783962249756 0.3333333730697632
0.6099844574928284 -0.25581395626068115 -0.6124030947685242
0.6120781302452087 -0.25581395626068115 -0.5968992114067078
0.6042308807373047 -0.25581395626068115 0.16279065608978271
0.5988098978996277 -0.25581395626068115 0.17829453945159912
0.6053120493888855 -0.25581395626068115 0.19379842281341553
0.6048320531845093 -0.25581395626068115 0.20930230617523193
0.5994418859481812 -0.25581395626068115 0.22480618953704834
0.6080888509750366 -0.25581395626068115 0.3333333730697632
0.6109367609024048 -0.24031007289886475 0.17829453945159912
0.6068257093429565 -0.24031007289886475 0.20930230617523193
0.5986406803131104 -0.24031007289886475 0.22480618953704834
0.6098177433013916 -0.24031007289886475 0.3333333730697632
0.603749692440033 -0.22480618953704834 -0.038759708404541016
0.6042268872261047 -0.22480618953704834 0.20930230617523193
0.6115182638168335 -0.22480618953704834 0.3333333730697632
0.6080994606018066 -0.20930230617523193 -0.5968992114067078
0.6022074222564697 -0.20930230617523193 0.19379842281341553
0.6110035181045532 -0.1782945990562439 0.3333333730697632
0.6079235672950745 -0.1627907156944275 0.3333333730697632
0.6000694036483765 -0.14728683233261108 0.1317828893661499
0.606322705745697 -0.14728683233261108 0.3333333730697632
0.6035959720611572 -0.13178294897079468 0.11627913266420364
0.6095211505889893 -0.13178294897079468 0.1317828893661499
0.6044336557388306 -0.13178294897079468 0.1472867727279663
0.605238139629364 -0.13178294897079468 0.3333333730697632
0.5989261865615845 -0.11627906560897827 0.11627912521362305
0.6072434186935425 -0.11627906560897827 0.1317828893661499
0.6063258647918701 -0.11627906560897827 0.1472867727279663
0.6038761138916016 -0.11627906560897827 0.16279065608978271
0.6022253036499023 -0.11627906560897827 0.17829453945159912
0.5995455980300903 -0.11627906560897827 0.19379842281341553
0.6037120223045349 -0.11627906560897827 0.3333333730697632
0.6026301383972168 -0.10077518224716187 0.1317828893661499
0.6082680225372314 -0.10077518224716187 0.1472867727279663
0.6123155355453491 -0.10077518224716187 0.16279065608978271
0.6083561182022095 -0.10077518224716187 0.19379842281341553
0.5998153686523438 -0.10077518224716187 0.3333333730697632
0.5992264747619629 -0.08527129888534546 0.1317828893661499
0.611118733882904 -0.08527129888534546 0.1472867727279663
0.6079688668251038 -0.08527129888534546 0.19379842281341553
0.6082491874694824 -0.08527129888534546 0.3178294897079468
0.5976395010948181 -0.06976741552352905 0.1317828893661499
0.6114254593849182 -0.06976741552352905 0.30232560634613037
0.607857346534729 -0.05426359176635742 0.1472867727279663
0.5985216498374939 -0.05426359176635742 0.17829453945159912
0.6092013120651245 -0.05426359176635742 0.28682172298431396
0.6040329933166504 -0.038759708404541016 0.27131783962249756
0.6075472831726074 0.007751941680908203 0.16279065608978271
0.6022751331329346 0.02325582504272461 0.1317828893661499
0.6017223596572876 0.05426359176635742 -0.24031007289886475
0.6012957692146301 0.05426359176635742 -0.19379842281341553
0.6036871671676636 0.05426359176635742 -0.11627906560897827
0.6056567430496216 0.06976747512817383 -0.24031007289886475
0.6054952144622803 0.11627912521362305 0.02325582504272461
0.6065139174461365 0.1317828893661499 -0.22480618953704834
0.603168249130249 0.1472867727279663 -0.22480620443820953
0.6118471622467041 0.1472867727279663 -0.10077518224716187
0.6068070530891418 0.16279065608978271 -0.1782945990562439
0.6030080914497375 0.16279065608978271 -0.1627907156944275
0.6029393672943115 0.16279065608978271 -0.14728683233261108
0.6046110391616821 0.16279065608978271 -0.13178294897079468
0.6069837212562561 0.16279065608978271 -0.11627906560897827
0.6099905371665955 0.16279065608978271 -0.10077518224716187
0.6024618744850159 0.16279065608978271 -0.02325582504272461
0.6034010648727417 0.17829453945159912 -0.1782945990562439
0.5991963148117065 0.17829453945159912 -0.13178294897079468
0.6047646403312683 0.17829453945159912 -0.11627906560897827
0.6048516035079956 0.19379842281341553 -0.1627907156944275
0.6023802161216736 0.19379842281341553 -0.14728683233261108
0.6058391332626343 0.19379842281341553 -0.13178294897079468
0.6065634489059448 0.22480618953704834 -0.317829430103302
0.5988574028015137 0.24031007289886475 -0.3488371968269348
0.6103532910346985 0.25581395626068115 -0.39534884691238403
0.6045082211494446 0.27131783962249756 -0.42635661363601685
0.603474497795105 0.27131783962249756 -0.317829430103302
0.6071187257766724 0.27131783962249756 -0.1782945990562439
0.6081147789955139 0.27131783962249756 -0.11627906560897827
0.6053019762039185 0.28682172298431396 -0.3798449635505676
0.6057136058807373 0.30232560634613037 -0.4573643207550049
0.6166108846664429 -0.3488371968269348 0.08527135848999023
0.6207056641578674 -0.3488371968269348 0.10077524185180664
0.6228817105293274 -0.3488371968269348 0.11627912521362305
0.6231555342674255 -0.3488371968269348 0.1317828893661499
0.6222015023231506 -0.3488371968269348 0.1472867727279663
0.6192984580993652 -0.3488371968269348 0.16279065608978271
0.6147971153259277 -0.3488371968269348 0.17829452455043793
0.6173396706581116 -0.3333333134651184 0.05426359176635742
0.6243237257003784 -0.3333333134651184 0.06976747512817383
0.6244165897369385 -0.3333333134651184 0.17829453945159912
0.6190810203552246 -0.3333333134651184 0.19379842281341553
0.6139877438545227 -0.3333333134651184 0.20930230617523193
0.6223974227905273 -0.317829430103302 0.038759708404541016
0.624894380569458 -0.317829430103302 0.20930230617523193
0.619965136051178 -0.317829430103302 0.22480618953704834
0.6156306266784668 -0.317829430103302 0.24031007289886475
0.6259087324142456 -0.30232560634613037 0.02325582504272461
0.6234729290008545 -0.30232560634613037 0.25581395626068115
0.6184160113334656 -0.30232560634613037 0.27131783962249756
0.6134872436523438 -0.30232560634613037 0.28682172298431396
0.6139866709709167 -0.28682172298431396 0.10077524185180664
0.615041971206665 -0.28682172298431396 0.11627912521362305
0.6127333045005798 -0.28682172298431396 0.1317828893661499
0.6243083477020264 -0.28682172298431396 0.28682172298431396
0.6175883412361145 -0.28682172298431396 0.30232560634613037
0.6180209517478943 -0.27131783962249756 0.10077524185180664
0.6226845979690552 -0.27131783962249756 0.11627912521362305
0.6201467514038086 -0.27131783962249756 0.1317828893661499
0.6150549650192261 -0.27131783962249756 0.1472867727279663
0.6271077990531921 -0.27131783962249756 0.30232560634613037
0.6184406876564026 -0.27131783962249756 0.3178294897079468
0.6219848990440369 -0.25581395626068115 -0.02325582504272461
0.6174325346946716 -0.25581395626068115 0.11627912521362305
0.6178210377693176 -0.25581395626068115 0.1317828893661499
0.6139797568321228 -0.25581395626068115 0.1472867727279663
0.6238212585449219 -0.25581395626068115 0.3178294897079468
0.6128735542297363 -0.24031007289886475 0.19379840791225433
0.6254589557647705 -0.24031007289886475 0.3178294897079468
0.6129234433174133 -0.22480617463588715 -0.5813953876495361
0.6147037744522095 -0.22480618953704834 0.17829453945159912
0.6130051612854004 -0.22480618953704834 0.19379842281341553
0.6270815134048462 -0.22480618953704834 0.3178294897079468
0.6197620034217834 -0.20930230617523193 -0.038759708404541016
0.6132107377052307 -0.20930230617523193 0.3333333730697632
0.6244001984596252 -0.19379842281341553 -0.02325582504272461
0.6141750812530518 -0.19379842281341553 0.3333333730697632
0.6270025372505188 -0.1627907156944275 0.3178294897079468
0.6244844794273376 -0.14728683233261108 0.3178294897079468
0.6229243278503418 -0.13178294897079468 0.3178294897079468
0.6211948394775391 -0.11627906560897827 0.3178294897079468
0.613452672958374 -0.10077518224716187 0.17829453945159912
0.6168311238288879 -0.10077518224716187 0.3178294897079468
0.6249496936798096 -0.08527129888534546 0.007751941680908203
0.6189066767692566 -0.08527129888534546 0.16279065608978271
0.6184655427932739 -0.08527129888534546 0.17829453945159912
0.6262598037719727 -0.08527129888534546 0.30232560634613037
0.6229461431503296 -0.06976741552352905 0.007751941680908203
0.6128864288330078 -0.06976741552352905 0.1472867727279663
0.6215311884880066 -0.06976741552352905 0.16279065608978271
0.6164059042930603 -0.06976741552352905 0.17829453945159912
0.6221890449523926 -0.05426359176635742 0.007751941680908203
0.6129276752471924 -0.05426359176635742 0.16279065608978271
0.6207393407821655 -0.038759708404541016 0.007751941680908203
0.6265388131141663 -0.038759708404541016 0.25581395626068115
0.6159024238586426 -0.02325582504272461 0.24031007289886475
0.6142082810401917 -0.007751941680908203 0.20930230617523193
0.6232442259788513 0.02325582504272461 -0.27131783962249756
0.6213864684104919 0.038759708404541016 -0.27131783962249756
0.6159281730651855 0.038759708404541016 -0.25581395626068115
0.6236318945884705 0.038759708404541016 -0.24031007289886475
0.6262093782424927 0.038759708404541016 -0.08527129888534546
0.6148595809936523 0.038759708404541016 -0.06976741552352905
0.626487672328949 0.038759708404541016 0.007751941680908203
0.6252626180648804 0.038759708404541016 0.02325582504272461
0.6199480295181274 0.05426359176635742 -0.25581395626068115
0.6130457520484924 0.05426359176635742 -0.1782945990562439
0.6181657910346985 0.05426359176635742 -0.1627907156944275
0.6185855269432068 0.05426359176635742 -0.14728683233261108
0.6143662929534912 0.05426359176635742 -0.13178294897079468
