0.11094074696302414 0.06976747512817383 -0.007751941680908203
0.10802580416202545 0.06976747512817383 0.3178294897079468
0.10952723026275635 0.08527135848999023 -0.007751941680908203
0.10495053231716156 0.08527135848999023 0.3178294897079468
0.1103031188249588 0.10077524185180664 -0.007751941680908203
0.11526189744472504 0.10077524185180664 0.30232560634613037
0.1021294891834259 0.10077523440122604 0.3178294897079468
0.1129881739616394 0.11627912521362305 -0.007751941680908203
0.11299758404493332 0.11627912521362305 0.30232560634613037
0.1152488961815834 0.1317828893661499 -0.007751941680908203
0.11109259724617004 0.1317828893661499 0.30232560634613037
0.11529099196195602 0.1472867727279663 -0.007751941680908203
0.10930407047271729 0.1472867727279663 0.30232560634613037
0.11157681047916412 0.16279065608978271 -0.007751941680908203
0.10664854943752289 0.16279065608978271 0.30232560634613037
0.10302326083183289 0.17829453945159912 0.30232560634613037
0.113822340965271 0.19379842281341553 0.28682172298431396
0.1101096048951149 0.20930230617523193 0.28682172298431396
0.10754388570785522 0.22480618953704834 0.28682172298431396
0.10461266338825226 0.24031007289886475 0.28682172298431396
0.10101468861103058 0.25581395626068115 0.28682172298431396
0.11497416347265244 0.27131783962249756 0.27131783962249756
0.11237823963165283 0.28682172298431396 -0.5038759708404541
0.10374146699905396 0.28682172298431396 -0.13178294897079468
0.11126439273357391 0.28682172298431396 0.27131783962249756
0.11605419218540192 0.30232560634613037 -0.1627907156944275
0.10803002864122391 0.30232560634613037 0.27131783962249756
0.1115131601691246 0.3178294897079468 -0.4883720874786377
0.107297882437706 0.3178294897079468 -0.1782945990562439
0.1038680449128151 0.3178294897079468 0.27131783962249756
0.11407601088285446 0.3488372564315796 0.25581395626068115
0.10968627035617828 0.364341139793396 0.25581395626068115
0.10575838387012482 0.37984490394592285 0.25581395626068115
0.10128217190504074 0.39534878730773926 -0.41085273027420044
0.10511498153209686 0.39534881711006165 -0.3333333134651184
0.11171451956033707 0.41085267066955566 0.24031007289886475
0.1008366197347641 0.42635655403137207 -0.14728683233261108
0.10596054047346115 0.42635655403137207 0.24031007289886475
0.10757675766944885 0.4418604373931885 -0.4728682041168213
0.11307001858949661 0.4418604373931885 0.22480618953704834
0.10291575640439987 0.4573643207550049 -0.41085273027420044
0.1121898740530014 0.4573643207550049 -0.39534884691238403
0.10618006438016891 0.4573643207550049 -0.3798449635505676
0.11355755478143692 0.4573643207550049 -0.08527129888534546
0.10630393028259277 0.4573643207550049 0.22480618953704834
0.11013103276491165 0.4728682041168213 0.20930230617523193
0.1105855405330658 0.4883720874786377 0.19379842281341553
0.10203065723180771 0.4883720874786377 0.20930230617523193
0.10385623574256897 0.5038759708404541 0.05426359176635742
0.11176809668540955 0.5038759708404541 0.06976747512817383
0.11443085968494415 0.5038759708404541 0.08527135848999023
0.11283938586711884 0.5038759708404541 0.10077524185180664
0.11091908812522888 0.5038759708404541 0.11627912521362305
0.1113777905702591 0.5038759708404541 0.1317828893661499
0.11250824481248856 0.5038759708404541 0.1472867727279663
0.112481027841568 0.5038759708404541 0.16279065608978271
0.11002342402935028 0.5038759708404541 0.17829453945159912
0.10479186475276947 0.5038759708404541 0.19379842281341553
0.10124179720878601 0.5193798542022705 0.038759708404541016
0.1053585484623909 0.5193798542022705 0.05426359176635742
0.10853183269500732 0.5193798542022705 0.06976747512817383
0.10932022333145142 0.5193798542022705 0.08527135848999023
0.10834681987762451 0.5193798542022705 0.10077524185180664
0.10788300633430481 0.5193798542022705 0.11627912521362305
0.10889150202274323 0.5193798542022705 0.1317828893661499
0.10982828587293625 0.5193798542022705 0.1472867727279663
0.10965524613857269 0.5193798542022705 0.16279065608978271
0.10684289783239365 0.5193798542022705 0.17829453945159912
0.10461297631263733 0.5348837375640869 0.02325582504272461
0.10788340866565704 0.5348837375640869 0.038759708404541016
0.11014571785926819 0.5348837375640869 0.05426359176635742
0.11090625822544098 0.5348837375640869 0.06976747512817383
0.110013946890831 0.5348837375640869 0.08527135848999023
0.1087602972984314 0.5348837375640869 0.10077524185180664
0.10804061591625214 0.5348837375640869 0.11627912521362305
0.10830716788768768 0.5348837375640869 0.1317828893661499
0.10834313184022903 0.5348837375640869 0.1472867727279663
0.10731963813304901 0.5348837375640869 0.16279065608978271
0.10166654735803604 0.5348837375640869 0.17829453945159912
0.10266998410224915 0.5503876209259033 -0.007751941680908203
0.10706445574760437 0.5503876209259033 0.007751941680908203
0.11029808223247528 0.5503876209259033 0.02325582504272461
0.11261145770549774 0.5503876209259033 0.038759708404541016
0.11338616907596588 0.5503876209259033 0.05426359176635742
0.11232395470142365 0.5503876209259033 0.06976747512817383
0.11018761247396469 0.5503876209259033 0.08527135848999023
0.10803578048944473 0.5503876209259033 0.10077524185180664
0.10647393763065338 0.5503876209259033 0.11627912521362305
0.10606828331947327 0.5503876209259033 0.1317828893661499
0.10542557388544083 0.5503876209259033 0.1472867727279663
0.10184834897518158 0.5503876209259033 0.16279065608978271
0.10320687294006348 0.5658915042877197 -0.02325582504272461
0.10782752931118011 0.5658915042877197 -0.007751941680908203
0.11129817366600037 0.5658915042877197 0.007751941680908203
0.1134188324213028 0.5658915042877197 0.02325582504272461
0.11425960063934326 0.5658915042877197 0.038759708404541016
0.11335022002458572 0.5658915042877197 0.05426359176635742
0.11107268184423447 0.5658915042877197 0.06976747512817383
0.10826964676380157 0.5658915042877197 0.08527135848999023
0.10504452884197235 0.5658915042877197 0.10077524185180664
0.10263843089342117 0.5658915042877197 0.11627911776304245
0.10105501860380173 0.5658915042877197 0.1317828893661499
0.10101273655891418 0.5813953876495361 -0.038759708404541016
0.10588902235031128 0.5813953876495361 -0.02325582504272461
0.1096438616514206 0.5813953876495361 -0.007751941680908203
0.11206146329641342 0.5813953876495361 0.007751941680908203
0.11301694065332413 0.5813953876495361 0.02325582504272461
0.11252674460411072 0.5813953876495361 0.038759708404541016
0.11080224812030792 0.5813953876495361 0.05426359176635742
0.10810910910367966 0.5813953876495361 0.06976747512817383
0.1045452207326889 0.5813953876495361 0.08527135848999023
0.10139541327953339 0.5968992710113525 -0.038759712129831314
0.10561929643154144 0.5968992710113525 -0.02325582504272461
0.10849426686763763 0.5968992710113525 -0.007751941680908203
0.1100677102804184 0.5968992710113525 0.007751941680908203
0.11015516519546509 0.5968992710113525 0.02325582504272461
0.10903248190879822 0.5968992710113525 0.038759708404541016
0.10670949518680573 0.5968992710113525 0.05426359176635742
0.10352939367294312 0.5968992710113525 0.06976747512817383
0.10349120199680328 0.612403154373169 -0.02325582504272461
0.10568993538618088 0.612403154373169 -0.007751941680908203
0.10636776685714722 0.612403154373169 0.007751941680908203
0.10601907223463058 0.612403154373169 0.02325582504272461
0.1046241819858551 0.612403154373169 0.038759708404541016
0.10146695375442505 0.612403154373169 0.05426359176635742
0.10142640769481659 0.6279069781303406 -0.007751941680908203
0.1016768217086792 0.6279069781303406 0.00775194214656949
0.12998124957084656 -0.7829457521438599 0.364341139793396
0.130751371383667 -0.7829457521438599 0.42635655403137207
0.1190706193447113 -0.7829457521438599 0.4418604373931885
0.12615922093391418 -0.7674418687820435 0.4883720874786377
0.1260548233985901 -0.751937985420227 0.3333333730697632
0.12706193327903748 -0.751937985420227 0.4728682041168213
0.12121784687042236 -0.751937985420227 0.4883720874786377
0.12163972854614258 -0.7364341020584106 0.3333333730697632
0.13147783279418945 -0.7364341020584106 0.3488372564315796
0.12340188026428223 -0.7364341020584106 0.4573643207550049
0.11651723831892014 -0.7364341616630554 0.4728682041168213
0.11711130291223526 -0.7209302186965942 0.30232560634613037
0.11875112354755402 -0.7209302186965942 0.3178294599056244
0.11703795939683914 -0.7209302186965942 0.3333333730697632
0.11709462106227875 -0.7209302186965942 0.3488372564315796
0.12000076472759247 -0.7209302186965942 0.364341139793396
0.12235920131206512 -0.7209302186965942 0.37984490394592285
0.12419130653142929 -0.7209302186965942 0.39534878730773926
0.12472398579120636 -0.7209302186965942 0.41085267066955566
0.12245352566242218 -0.7209302186965942 0.42635655403137207
0.11645404249429703 -0.7209301590919495 0.4418604373931885
0.11895778775215149 -0.7054263353347778 0.30232560634613037
0.11790885031223297 -0.7054263949394226 0.3178294897079468
0.11761365085840225 -0.6899224519729614 0.24031007289886475
0.11764974147081375 -0.6899224519729614 0.25581395626068115
0.12139387428760529 -0.674418568611145 0.20930230617523193
0.1303698569536209 -0.674418568611145 0.22480618953704834
0.12988179922103882 -0.674418568611145 0.25581395626068115
0.12433790415525436 -0.674418568611145 0.27131783962249756
0.11909807473421097 -0.674418568611145 0.28682172298431396
0.1239720806479454 -0.6589146852493286 0.17829453945159912
0.12735003232955933 -0.6589146852493286 0.28682172298431396
0.12197998911142349 -0.6589146852493286 0.30232560634613037
0.11879348754882812 -0.6589146852493286 0.3178294897079468
0.11720003187656403 -0.6589146852493286 0.3333333730697632
0.11652326583862305 -0.6589146256446838 0.3488372564315796
0.1255769282579422 -0.643410861492157 0.1472867727279663
0.12793074548244476 -0.643410861492157 0.30232560634613037
0.12365910410881042 -0.643410861492157 0.3178294897079468
0.12081611156463623 -0.6434109210968018 0.3333333730697632
0.1191740557551384 -0.643410861492157 0.3488372564315796
0.11750936508178711 -0.643410861492157 0.364341139793396
0.12789933383464813 -0.6279069781303406 0.3178294897079468
0.12425564974546432 -0.6279069781303406 0.3333333730697632
0.1216081753373146 -0.6279069781303406 0.3488372564315796
0.11930876225233078 -0.6279069781303406 0.364341139793396
0.11669143289327621 -0.6279069781303406 0.37984490394592285
0.11631490290164948 -0.6124030947685242 0.10077524185180664
0.13146580755710602 -0.6124030947685242 0.3178294897079468
0.12691158056259155 -0.6124030947685242 0.3333333730697632
0.1235271543264389 -0.6124030947685242 0.3488372564315796
0.1207863986492157 -0.6124030947685242 0.364341139793396
0.11736845225095749 -0.6124030947685242 0.37984490394592285
0.11980537325143814 -0.5968992114067078 0.08527135848999023
0.12782718241214752 -0.5968992114067078 0.3333333730697632
0.12428377568721771 -0.5968992114067078 0.3488372564315796
0.121230848133564 -0.5968992114067078 0.364341139793396
0.11753194779157639 -0.5968992114067078 0.37984493374824524
0.11940477043390274 -0.5813953876495361 0.06976747512817383
0.12778426706790924 -0.5813953876495361 0.3333333730697632
0.12432411313056946 -0.5813953876495361 0.3488372564315796
0.1212676614522934 -0.5813953876495361 0.364341139793396
0.11758581548929214 -0.5813953876495361 0.37984490394592285
0.1277727633714676 -0.5658915042877197 0.3333333730697632
0.1244237869977951 -0.5658915042877197 0.3488372564315796
0.12138301134109497 -0.5658915042877197 0.364341139793396
0.11789288371801376 -0.5658915042877197 0.37984493374824524
0.12882615625858307 -0.5503876209259033 0.3333333730697632
0.12519489228725433 -0.5503876209259033 0.3488372564315796
0.121938057243824 -0.5503876209259033 0.364341139793396
0.11864575743675232 -0.5503876209259033 0.37984490394592285
0.127052903175354 -0.5348837375640869 0.3488372564315796
0.12315110862255096 -0.5348837375640869 0.364341139793396
0.11966919898986816 -0.5348837375640869 0.37984490394592285
0.12975117564201355 -0.5193798542022705 0.02325582504272461
0.131160169839859 -0.5193798542022705 0.3488372564315796
0.1253472864627838 -0.5193798542022705 0.364341139793396
0.12096196413040161 -0.5193798542022705 0.37984490394592285
0.1190468966960907 -0.5038759708404541 -0.5193798542022705
0.1282953917980194 -0.5038759708404541 0.364341139793396
0.1223016008734703 -0.5038759708404541 0.37984490394592285
0.13082000613212585 -0.4883720874786377 -0.5193798542022705
0.12798333168029785 -0.4883720874786377 -0.5038759708404541
0.13145552575588226 -0.4883720874786377 0.364341139793396
0.12316980212926865 -0.4883720874786377 0.37984490394592285
0.12208321690559387 -0.4728682041168213 -0.4883720874786377
0.12317333370447159 -0.4728682041168213 0.37984490394592285
0.1224709153175354 -0.4573642909526825 0.37984490394592285
0.12174250185489655 -0.4418604373931885 -0.4728682041168213
0.12082885205745697 -0.4418604373931885 0.37984490394592285
0.11816873401403427 -0.42635661363601685 -0.5193798542022705
0.126132994890213 -0.42635661363601685 -0.4728682041168213
0.11975465714931488 -0.42635661363601685 -0.4573643207550049
0.12479384243488312 -0.42635661363601685 -0.14728683233261108
0.1296539008617401 -0.42635661363601685 0.364341139793396
0.11691522598266602 -0.42635661363601685 0.37984490394592285
0.12483348697423935 -0.41085273027420044 -0.5038759708404541
0.12596511840820312 -0.41085273027420044 -0.4883720874786377
0.1252811849117279 -0.41085273027420044 -0.4728682041168213
0.12409298121929169 -0.41085273027420044 -0.4573643207550049
0.12424810975790024 -0.41085273027420044 -0.4418604373931885
0.12535636126995087 -0.41085273027420044 -0.42635661363601685
0.1265784502029419 -0.41085273027420044 -0.41085273027420044
0.127693310379982 -0.41085273027420044 -0.39534884691238403
0.12854516506195068 -0.41085273027420044 -0.3798449635505676
0.12897397577762604 -0.41085273027420044 -0.3643410801887512
0.12901127338409424 -0.41085273027420044 -0.3488371968269348
0.12875574827194214 -0.41085273027420044 -0.3333333134651184
0.12815706431865692 -0.41085273027420044 -0.317829430103302
0.12666606903076172 -0.41085273027420044 -0.30232560634613037
0.12565584480762482 -0.41085273027420044 -0.28682172298431396
0.126405268907547 -0.41085273027420044 -0.27131783962249756
0.1276787966489792 -0.41085273027420044 -0.25581395626068115
0.1301712840795517 -0.41085273027420044 -0.24031007289886475
0.12397348135709763 -0.41085273027420044 0.364341139793396
0.11913154274225235 -0.39534884691238403 -0.4883720874786377
0.1220327615737915 -0.39534884691238403 -0.4728682041168213
0.12331610172986984 -0.39534884691238403 -0.4573643207550049
0.12424664199352264 -0.39534884691238403 -0.4418604373931885
0.12508796155452728 -0.39534884691238403 -0.42635661363601685
0.1260526031255722 -0.39534884691238403 -0.41085273027420044
0.12820640206336975 -0.39534884691238403 -0.39534884691238403
0.12909652292728424 -0.39534884691238403 0.3488372564315796
0.11780376732349396 -0.39534884691238403 0.364341139793396
0.11682801693677902 -0.37984499335289 -0.4573643207550049
0.11907579749822617 -0.3798449635505676 -0.4418604373931885
0.12065431475639343 -0.3798449635505676 -0.42635664343833923
0.12224236875772476 -0.3798449635505676 -0.4108527600765228
0.12461218982934952 -0.3798449635505676 -0.39534884691238403
0.12754575908184052 -0.3798449635505676 -0.3798449635505676
0.12285579741001129 -0.3798449635505676 0.3488372564315796
0.11863276362419128 -0.3643410801887512 -0.3643410801887512
0.12220436334609985 -0.3643410801887512 -0.3488371968269348
0.1259172111749649 -0.3643410801887512 -0.3333333134651184
0.12994717061519623 -0.3643410801887512 -0.317829430103302
0.11900603771209717 -0.3643410801887512 0.3488372564315796
0.11760109663009644 -0.3488371968269348 -0.25581395626068115
0.1299472451210022 -0.3488371968269348 0.3333333730697632
0.12320607155561447 -0.3333333134651184 0.3333333730697632
0.12060192972421646 -0.317829430103302 -0.1627907156944275
0.11870613694190979 -0.317829430103302 0.3333333730697632
0.11895117163658142 -0.30232560634613037 -0.13178294897079468
0.126113623380661 -0.30232560634613037 0.3178294897079468
0.12136730551719666 -0.28682172298431396 -0.08527129888534546
0.12258343398571014 -0.28682172298431396 0.3178294897079468
0.12371876835823059 -0.27131783962249756 0.3178294897079468
0.12942937016487122 -0.25581395626068115 0.3178294897079468
0.11895632743835449 -0.25581395626068115 0.3333333730697632
0.1237337738275528 -0.24031007289886475 0.3333333730697632
0.1195899248123169 -0.22480618953704834 0.3488372564315796
0.12392087280750275 -0.20930230617523193 0.3488372564315796
0.1302485167980194 -0.19379842281341553 0.3488372564315796
0.12186374515295029 -0.10077518224716187 0.3488372564315796
0.12203793227672577 -0.06976741552352905 -0.02325582504272461
0.13025633990764618 -0.06976741552352905 0.3333333730697632
0.13089969754219055 -0.05426359176635742 -0.02325582504272461
0.12188941240310669 -0.05426359176635742 0.3333333730697632
0.11712557822465897 -0.038759708404541016 0.3333333730697632
0.12947344779968262 -0.02325582504272461 -0.02325582504272461
0.12723778188228607 -0.02325582504272461 0.3178294897079468
0.11639866977930069 -0.00775194214656949 -0.02325582504272461
0.12366785854101181 -0.007751941680908203 0.3178294897079468
0.11994794756174088 0.007751941680908203 0.3178294897079468
0.12806153297424316 0.02325582504272461 0.30232560634613037
0.11679670959711075 0.02325582504272461 0.3178294897079468
0.12328250706195831 0.038759708404541016 -0.007751941680908203
0.12536072731018066 0.038759708404541016 0.30232560634613037
0.12360266596078873 0.05426359176635742 0.30232560634613037
0.13105139136314392 0.06976747512817383 0.28682172298431396
0.12063474953174591 0.06976747512817383 0.30232560634613037
0.12829849123954773 0.08527135848999023 0.28682172298431396
0.11764013767242432 0.08527135848999023 0.30232560634613037
0.12689408659934998 0.10077524185180664 0.28682172298431396
0.12606875598430634 0.11627912521362305 0.28682172298431396
0.12518280744552612 0.1317828893661499 0.28682172298431396
0.1236797422170639 0.1472867727279663 0.28682172298431396
0.1211332231760025 0.16279065608978271 0.28682172298431396
0.13134197890758514 0.17829453945159912 0.27131783962249756
0.11776580661535263 0.17829453945159912 0.2868216931819916
0.12782683968544006 0.19379842281341553 0.27131783962249756
0.1251421719789505 0.20930230617523193 0.27131783962249756
0.12306705117225647 0.22480618953704834 0.27131783962249756
0.11777686327695847 0.24031007289886475 -0.02325582504272461
0.1207067221403122 0.24031005799770355 0.27131783962249756
0.1311342418193817 0.25581395626068115 0.25581395626068115
0.1179850623011589 0.25581395626068115 0.27131783962249756
0.12862631678581238 0.27131783962249756 0.25581395626068115
0.1262391209602356 0.28682172298431396 0.25581395626068115
0.12413996458053589 0.30232560634613037 0.25581395626068115
0.12349551916122437 0.3178294897079468 -0.4883720874786377
0.12150876969099045 0.3178294897079468 0.25581395626068115
0.11819890886545181 0.3333333730697632 0.25581395626068115
0.12986256182193756 0.3488372564315796 0.24031007289886475
0.12538178265094757 0.364341139793396 -0.4573643207550049
0.12047488987445831 0.364341139793396 -0.25581395626068115
0.125822514295578 0.364341139793396 0.24031007289886475
0.11798461526632309 0.37984493374824524 -0.4418604373931885
0.11730513721704483 0.37984490394592285 -0.2868216931819916
0.13171915709972382 0.37984490394592285 -0.27131783962249756
0.12239635735750198 0.37984490394592285 0.24031007289886475
0.12375286221504211 0.39534878730773926 -0.4418604373931885
0.11761537939310074 0.39534878730773926 -0.42635661363601685
0.11731326580047607 0.39534878730773926 -0.317829430103302
0.12440936267375946 0.39534878730773926 -0.30232560634613037
0.12901023030281067 0.39534878730773926 0.22480618953704834
0.1173870712518692 0.39534881711006165 0.24031007289886475
0.13018235564231873 0.41085267066955566 -0.4418604373931885
0.12810386717319489 0.41085267066955566 -0.42635661363601685
0.12663523852825165 0.41085267066955566 -0.41085273027420044
0.12540777027606964 0.41085267066955566 -0.39534884691238403
0.12437941133975983 0.41085267066955566 -0.3798449635505676
0.12387490272521973 0.41085267066955566 -0.3643410801887512
0.12369051575660706 0.41085267066955566 -0.3488371968269348
0.12453783303499222 0.41085267066955566 -0.3333333134651184
0.12666207551956177 0.41085267066955566 -0.317829430103302
0.13120119273662567 0.41085267066955566 -0.30232560634613037
0.12530429661273956 0.41085267066955566 0.22480618953704834
0.12563300132751465 0.42635655403137207 -0.5038759708404541
0.13030590116977692 0.42635655403137207 -0.4883720874786377
0.13097916543483734 0.42635655403137207 -0.42635661363601685
0.12985558807849884 0.42635655403137207 -0.41085273027420044
0.12884384393692017 0.42635655403137207 -0.39534884691238403
0.12797728180885315 0.42635655403137207 -0.3798449635505676
0.12734009325504303 0.42635655403137207 -0.3643410801887512
0.1268729716539383 0.42635655403137207 -0.3488371968269348
0.1271524280309677 0.42635655403137207 -0.3333333134651184
0.1283329278230667 0.42635655403137207 -0.317829430103302
0.131416916847229 0.42635655403137207 -0.30232560634613037
0.1254194974899292 0.42635655403137207 -0.22480618953704834
0.13130338490009308 0.42635655403137207 -0.1782945990562439
0.11628290265798569 0.42635655403137207 -0.1627907156944275
0.12916351854801178 0.42635655403137207 0.20930230617523193
0.1200454980134964 0.42635655403137207 0.22480618953704834
0.12304903566837311 0.4418604373931885 -0.4573643207550049
0.1272578090429306 0.4418604373931885 -0.4418604373931885
0.12805895507335663 0.4418604373931885 -0.42635661363601685
0.12805214524269104 0.4418604373931885 -0.41085273027420044
0.12750503420829773 0.4418604373931885 -0.39534884691238403
0.1267145872116089 0.4418604373931885 -0.3798449635505676
0.12571237981319427 0.4418604373931885 -0.3643410801887512
0.12451135367155075 0.4418604373931885 -0.3488371968269348
0.123354971408844 0.4418604373931885 -0.3333333134651184
0.1225636750459671 0.4418604373931885 -0.317829430103302
0.12231052666902542 0.4418604373931885 -0.30232560634613037
0.1201021820306778 0.4418604373931885 -0.28682172298431396
0.12943851947784424 0.4418604373931885 -0.13178294897079468
0.12481137365102768 0.4418604373931885 0.20930230617523193
0.12574253976345062 0.4573643207550049 0.19379842281341553
0.11745835095643997 0.4573643207550049 0.20930230617523193
0.1297377645969391 0.4728682041168213 0.02325582504272461
0.13056567311286926 0.4728682041168213 0.16279065608978271
0.12434528023004532 0.4728682041168213 0.17829453945159912
0.11848761886358261 0.4728682041168213 0.19379842281341553
0.12087610363960266 0.4883720874786377 0.05426359549164772
0.12477061152458191 0.4883720874786377 0.1317828893661499
0.12143119424581528 0.4883720874786377 0.1472867727279663
0.11949151009321213 0.4883720874786377 0.16279065608978271
0.116737961769104 0.4883720576763153 0.17829453945159912
0.13227339088916779 -0.7829457521438599 0.37984490394592285
0.13234949111938477 -0.7829457521438599 0.39534878730773926
0.13217806816101074 -0.7829457521438599 0.41085267066955566
0.13498741388320923 -0.7674418687820435 0.3488372564315796
0.13837355375289917 -0.7674418687820435 0.364341139793396
0.1410154402256012 -0.7674418687820435 0.37984490394592285
0.142940953373909 -0.7674418687820435 0.39534878730773926
0.1443236917257309 -0.7674418687820435 0.41085267066955566
0.144685298204422 -0.7674418687820435 0.42635655403137207
0.14179930090904236 -0.7674418687820435 0.4418604373931885
0.1374225616455078 -0.7674418687820435 0.4573643207550049
0.13365134596824646 -0.7674418687820435 0.4728682041168213
0.13645607233047485 -0.751937985420227 0.3488372564315796
0.13934560120105743 -0.751937985420227 0.364341139793396
0.14088931679725647 -0.751937985420227 0.37984490394592285
0.14224925637245178 -0.751937985420227 0.39534878730773926
0.143000990152359 -0.751937985420227 0.41085267066955566
0.14248815178871155 -0.751937985420227 0.42635655403137207
0.139606773853302 -0.751937985420227 0.4418604373931885
0.13500943779945374 -0.751937985420227 0.4573643207550049
0.13350647687911987 -0.7364341020584106 0.3643411695957184
0.13509546220302582 -0.7364341020584106 0.37984490394592285
0.13664528727531433 -0.7364341020584106 0.39534878730773926
0.1372714787721634 -0.7364341020584106 0.41085267066955566
0.13644680380821228 -0.7364341020584106 0.42635655403137207
0.13314509391784668 -0.7364341020584106 0.4418604373931885
0.13220246136188507 -0.674418568611145 0.24031005799770355
0.13479357957839966 -0.6589146852493286 0.19379842281341553
0.13794250786304474 -0.6589146852493286 0.20930230617523193
0.13875514268875122 -0.6589146852493286 0.22480618953704834
0.13821180164813995 -0.6589146852493286 0.24031007289886475
0.13605746626853943 -0.6589146852493286 0.25581395626068115
0.13275064527988434 -0.6589146852493286 0.27131783962249756
0.13797636330127716 -0.643410861492157 0.16279065608978271
0.14235827326774597 -0.643410861492157 0.17829453945159912
0.14466352760791779 -0.643410861492157 0.19379842281341553
0.14530237019062042 -0.6434109210968018 0.20930230617523193
0.14498232305049896 -0.643410861492157 0.22480618953704834
0.14365074038505554 -0.643410861492157 0.24031007289886475
0.14087709784507751 -0.643410861492157 0.25581395626068115
0.13673877716064453 -0.643410861492157 0.27131783962249756
0.13331282138824463 -0.643410861492157 0.28682172298431396
0.13450562953948975 -0.6279069781303406 0.1317828893661499
0.14445102214813232 -0.6279069781303406 0.1472867727279663
0.14570404589176178 -0.6279069781303406 0.25581395626068115
0.14077289402484894 -0.6279069781303406 0.27131783962249756
0.13631871342658997 -0.6279069781303406 0.28682172298431396
0.13265080749988556 -0.6279069781303406 0.30232560634613037
0.13895563781261444 -0.612403154373169 0.11627912521362305
0.14433519542217255 -0.6124030947685242 0.27131783962249756
0.13920751214027405 -0.6124030947685242 0.28682172298431396
0.13484570384025574 -0.6124030947685242 0.30232560634613037
0.1416393220424652 -0.5968992114067078 0.10077524185180664
0.14702680706977844 -0.5968992114067078 0.27131783962249756
0.14070990681648254 -0.5968992114067078 0.28682172298431396
0.13569119572639465 -0.5968992114067078 0.30232560634613037
0.13241204619407654 -0.5968992114067078 0.3178294897079468
0.1439521312713623 -0.5813953876495361 0.08527135848999023
0.14093288779258728 -0.5813953876495361 0.28682172298431396
0.1356632113456726 -0.5813953876495361 0.30232560634613037
0.13237756490707397 -0.5813953876495361 0.3178294599056244
0.145304337143898 -0.5658915042877197 0.06976747512817383
0.14065589010715485 -0.5658915042877197 0.28682172298431396
0.13540905714035034 -0.5658915042877197 0.30232560634613037
0.1322910487651825 -0.5658915042877197 0.3178294897079468
0.14641132950782776 -0.5503876209259033 0.05426359176635742
0.1409969925880432 -0.5503876209259033 0.28682172298431396
0.13579817116260529 -0.5503876209259033 0.30232560634613037
0.13284112513065338 -0.5503876209259033 0.3178294897079468
0.1427619308233261 -0.5348837375640869 0.038759708404541016
0.14291447401046753 -0.5348837375640869 0.28682172298431396
0.13754265010356903 -0.5348837375640869 0.30232560634613037
0.1343899965286255 -0.5348837375640869 0.3178294897079468
0.13186466693878174 -0.5348837375640869 0.3333333730697632
0.14154614508152008 -0.5193798542022705 0.30232560634613037
0.13736934959888458 -0.5193798542022705 0.3178294897079468
0.1344921737909317 -0.5193798542022705 0.3333333730697632
0.14224107563495636 -0.5038759708404541 0.3178294897079468
0.13787882030010223 -0.5038759708404541 0.3333333730697632
0.1341543197631836 -0.5038759708404541 0.3488372564315796
0.14408496022224426 -0.4883720874786377 0.007751941680908203
0.14195239543914795 -0.4883720874786377 0.3333333730697632
0.1372869908809662 -0.4883720874786377 0.3488372564315796
0.13303640484809875 -0.4728682041168213 -0.5193798542022705
0.13430550694465637 -0.4728682041168213 -0.5038759708404541
0.14132629334926605 -0.4728682041168213 -0.007751941680908203
0.14643354713916779 -0.4728682041168213 0.3333333730697632
0.1396031677722931 -0.4728682041168213 0.3488372564315796
0.13303031027317047 -0.4728682041168213 0.364341139793396
0.1332981139421463 -0.4573643207550049 -0.5193798542022705
0.13604643940925598 -0.4573643207550049 -0.5038759708404541
0.13234229385852814 -0.4573643207550049 -0.4883720874786377
0.14021219313144684 -0.4573643207550049 -0.038759708404541016
0.14103320240974426 -0.4573643207550049 0.3488372564315796
0.13389116525650024 -0.4573643207550049 0.364341139793396
0.13197070360183716 -0.4418604075908661 -0.5193798542022705
0.13578444719314575 -0.4418604373931885 -0.5038759708404541
0.1331423819065094 -0.4418604373931885 -0.4883721172809601
0.1434231996536255 -0.4418604373931885 -0.08527129888534546
0.14143377542495728 -0.4418604373931885 0.3488372564315796
0.13345962762832642 -0.4418604373931885 0.364341139793396
0.13347066938877106 -0.42635661363601685 -0.5038759708404541
0.13192051649093628 -0.42635661363601685 -0.4883720874786377
0.14280499517917633 -0.42635661363601685 -0.13178294897079468
0.13986468315124512 -0.42635661363601685 0.3488372564315796
0.13572870194911957 -0.41085273027420044 -0.22480618953704834
0.14279988408088684 -0.41085273027420044 -0.20930230617523193
0.1358095109462738 -0.41085273027420044 0.3488372266292572
0.13184988498687744 -0.39534884691238403 -0.3798449635505676
0.1330586075782776 -0.39534884691238403 -0.3643410801887512
0.13458669185638428 -0.39534884691238403 -0.3488371968269348
0.1361287385225296 -0.39534884691238403 -0.3333333134651184
0.1371525079011917 -0.39534884691238403 -0.317829430103302
0.13791492581367493 -0.39534884691238403 -0.30232560634613037
0.13881292939186096 -0.39534884691238403 -0.28682172298431396
0.14010003209114075 -0.39534884691238403 -0.27131783962249756
0.1420315057039261 -0.39534884691238403 -0.25581395626068115
0.14471685886383057 -0.39534884691238403 -0.24031007289886475
0.1408902108669281 -0.39534884691238403 0.3333333730697632
0.1319885551929474 -0.3798449635505676 -0.3643410801887512
0.13368383049964905 -0.3798449635505676 -0.3488371968269348
0.13548307120800018 -0.3798449635505676 -0.333333283662796
0.13666637241840363 -0.3798449635505676 -0.317829430103302
0.13751515746116638 -0.3798449635505676 -0.30232560634613037
0.13862013816833496 -0.3798449635505676 -0.28682172298431396
0.14042195677757263 -0.3798449635505676 -0.27131783962249756
0.14257073402404785 -0.3798449635505676 -0.25581395626068115
0.13659648597240448 -0.3798449635505676 0.3333333730697632
0.13283474743366241 -0.3643410801887512 -0.30232560634613037
0.13485127687454224 -0.3643410801887512 -0.28682172298431396
0.13688816130161285 -0.3643410801887512 -0.27131783962249756
0.13927844166755676 -0.3643410801887512 -0.25581395626068115
0.14279216527938843 -0.3643410801887512 -0.24031007289886475
0.14474643766880035 -0.3643410801887512 0.3178294897079468
0.13382665812969208 -0.3643410801887512 0.3333333730697632
0.13206130266189575 -0.3488371968269348 -0.24031007289886475
0.1386033594608307 -0.3488371968269348 -0.22480618953704834
0.13989832997322083 -0.3488371968269348 0.3178294897079468
0.13565143942832947 -0.3333333134651184 -0.19379842281341553
0.1465398073196411 -0.3333333134651184 0.30232560634613037
0.1362924873828888 -0.3333333134651184 0.3178294897079468
0.1402132213115692 -0.317829430103302 0.30232560634613037
0.13278764486312866 -0.3178294599056244 0.3178294897079468
0.1434994786977768 -0.30232560634613037 0.28682172298431396
0.1360417753458023 -0.30232560634613037 0.30232560634613037
0.13504961133003235 -0.28682172298431396 -0.06976741552352905
0.14063246548175812 -0.28682172298431396 -0.05426359176635742
0.14014312624931335 -0.28682172298431396 0.28682172298431396
0.1337338238954544 -0.28682172298431396 0.30232560634613037
0.1324435919523239 -0.27131783962249756 -0.02325582504272461
0.147037073969841 -0.27131783962249756 -0.007751941680908203
0.14267057180404663 -0.27131783962249756 0.28682172298431396
0.13457028567790985 -0.27131783962249756 0.30232560634613037
0.1432904601097107 -0.25581395626068115 -0.007751941680908203
0.1393153816461563 -0.25581395626068115 0.30232560634613037
0.13585473597049713 -0.24031007289886475 0.3178294897079468
0.14414149522781372 -0.22480618953704834 0.3178294897079468
0.13225823640823364 -0.22480618953704834 0.3333333730697632
0.138339102268219 -0.20930230617523193 0.3333333730697632
0.13576668500900269 -0.1782945990562439 0.3488372564315796
0.13881456851959229 -0.1627907156944275 0.3488372564315796
0.1400853395462036 -0.14728683233261108 0.3488372564315796
0.13824477791786194 -0.13178294897079468 0.3488372564315796
0.13309048116207123 -0.11627906560897827 0.3488372564315796
0.13994498550891876 -0.08527129888534546 0.3333333730697632
0.13913415372371674 -0.05426359176635742 0.3178294897079468
0.1326492726802826 -0.038759708404541016 -0.02325582318007946
0.14585013687610626 -0.038759708404541016 0.30232560634613037
0.1331518441438675 -0.038759708404541016 0.3178294897079468
0.14025023579597473 -0.02325582504272461 0.30232560634613037
0.14503811299800873 -0.007751941680908203 -0.007751941680908203
0.14620715379714966 -0.007751941680908203 0.28682172298431396
0.13600273430347443 -0.007751941680908203 0.30232560634613037
0.13851618766784668 0.007751941680908203 -0.007751941680908203
0.14178045094013214 0.007751941680908203 0.28682172298431396
0.1322345733642578 0.007751941680908203 0.30232560634613037
0.13292674720287323 0.02325582504272461 -0.007751941680908203
0.13933628797531128 0.02325582504272461 0.28682172298431396
0.14721184968948364 0.038759708404541016 0.007751941680908203
0.144300639629364 0.038759708404541016 0.27131783962249756
0.13608743250370026 0.038759708404541016 0.28682172298431396
0.1447238177061081 0.05426359176635742 0.007751941680908203
0.14182144403457642 0.05426359176635742 0.27131783962249756
0.13354985415935516 0.05426358804106712 0.2868216931819916
0.14329053461551666 0.06976747512817383 0.007751941680908203
0.14045670628547668 0.06976747512817383 0.27131783962249756
0.1429709941148758 0.08527135848999023 0.007751941680908203
0.13962918519973755 0.08527135848999023 0.27131783962249756
0.14384709298610687 0.10077524185180664 0.007751941680908203
0.13917601108551025 0.10077524185180664 0.27131783962249756
0.14582006633281708 0.11627912521362305 0.007751941680908203
0.13878056406974792 0.11627913266420364 0.27131783962249756
0.147274911403656 0.1317828893661499 0.25581395626068115
0.13790678977966309 0.1317828893661499 0.27131783962249756
0.14588038623332977 0.1472867727279663 0.25581395626068115
0.13625966012477875 0.1472867727279663 0.27131783962249756
0.14383727312088013 0.16279065608978271 0.25581395626068115
0.13402968645095825 0.16279065608978271 0.27131783962249756
0.14163176715373993 0.17829453945159912 0.25581395626068115
0.13987430930137634 0.19379842281341553 0.25581395626068115
0.14396235346794128 0.20930230617523193 0.007751941680908203
0.14622196555137634 0.20930230617523193 0.24031007289886475
0.13797059655189514 0.20930230617523193 0.25581395626068115
0.141659677028656 0.22480618953704834 0.007751941680908203
0.14354471862316132 0.22480618953704834 0.24031007289886475
0.1355019062757492 0.22480618953704834 0.25581395626068115
0.13263346254825592 0.24031007289886475 -0.007751941680908203
0.14609763026237488 0.24031007289886475 0.007751941680908203
0.1415768712759018 0.24031007289886475 0.24031007289886475
0.13329225778579712 0.24031007289886475 0.25581395626068115
0.1363215297460556 0.25581395626068115 -0.06976741552352905
0.14230157434940338 0.25581395626068115 -0.05426359176635742
0.1453888863325119 0.25581395626068115 -0.038759708404541016
0.14716416597366333 0.25581395626068115 -0.02325582504272461
0.1399618536233902 0.25581395626068115 0.24031007289886475
0.14403237402439117 0.27131783962249756 -0.10077518224716187
0.13910843431949615 0.27131783962249756 0.24031007289886475
0.13211017847061157 0.28682172298431396 -0.5038759708404541
0.1443917155265808 0.28682172298431396 -0.13178294897079468
0.1382676512002945 0.28682172298431396 0.24031007289886475
0.1421389877796173 0.30232560634613037 -0.5193798542022705
0.13841167092323303 0.30232560634613037 -0.1627907156944275
0.14655107259750366 0.30232560634613037 0.22480618953704834
0.13695596158504486 0.30232560634613037 0.24031007289886475
0.1410716325044632 0.3178294897079468 -0.5193798542022705
0.1455557644367218 0.3178294897079468 0.22480618953704834
0.13522838056087494 0.3178294897079468 0.24031008780002594
0.14441227912902832 0.3333333730697632 0.22480618953704834
0.13318563997745514 0.3333333730697632 0.24031007289886475
0.13555841147899628 0.3488372564315796 -0.4728682041168213
0.13336698710918427 0.3488372564315796 -0.22480618953704834
0.1420939862728119 0.3488372564315796 0.22480618953704834
0.14591971039772034 0.364341139793396 -0.4883720874786377
0.13837847113609314 0.364341139793396 -0.4728682041168213
0.13708224892616272 0.364341139793396 -0.24031007289886475
0.13919128477573395 0.364341139793396 0.22480618953704834
0.14484824240207672 0.37984490394592285 -0.5038759708404541
0.14120376110076904 0.37984490394592285 -0.4883720874786377
0.13730737566947937 0.37984490394592285 -0.4728682041168213
0.13214460015296936 0.37984490394592285 -0.4573643207550049
0.1389068067073822 0.37984490394592285 -0.25581395626068115
0.14665265381336212 0.37984490394592285 -0.24031007289886475
0.14275434613227844 0.37984490394592285 0.20930230617523193
0.1337948739528656 0.37984490394592285 0.22480618953704834
0.14046624302864075 0.39534878730773926 -0.5038759708404541
0.13837289810180664 0.39534878730773926 -0.4883720874786377
0.13564960658550262 0.39534878730773926 -0.4728682041168213
0.1320181041955948 0.39534878730773926 -0.4573643207550049
0.13249807059764862 0.39534878730773926 -0.28682172298431396
0.13765035569667816 0.39534878730773926 -0.27131783962249756
0.14297379553318024 0.39534878730773926 -0.25581395626068115
0.14687402546405792 0.39534878730773926 0.19379842281341553
0.13946902751922607 0.39534878730773926 0.20930230617523193
0.1358509361743927 0.41085267066955566 -0.5038759708404541
0.13567912578582764 0.41085267066955566 -0.4883720874786377
0.13373754918575287 0.41085267066955566 -0.4728682041168213
0.1321500688791275 0.4108526408672333 -0.4573643207550049
0.13469843566417694 0.41085267066955566 -0.28682172298431396
0.1385888010263443 0.41085267066955566 -0.27131783962249756
0.14313817024230957 0.41085267066955566 -0.25581395626068115
0.14239370822906494 0.41085267066955566 0.19379842281341553
0.134307399392128 0.41085267066955566 0.20930230617523193
0.1318274736404419 0.42635655403137207 -0.4728682339191437
0.13195982575416565 0.42635655403137207 -0.4573643207550049
0.1319061517715454 0.42635655403137207 -0.4418604373931885
0.1337648630142212 0.42635658383369446 -0.28682172298431396
0.1365218460559845 0.4263565242290497 -0.27131783962249756
0.139133483171463 0.42635655403137207 -0.25581395626068115
0.14121970534324646 0.42635655403137207 -0.24031007289886475
0.13821053504943848 0.42635655403137207 -0.22480618953704834
0.14639005064964294 0.42635655403137207 0.17829453945159912
0.1390591263771057 0.42635655403137207 0.19379842281341553
0.14097492396831512 0.4418604373931885 0.17829453945159912
0.13224652409553528 0.4418604373931885 0.19379842281341553
0.13213548064231873 0.4573643207550049 -0.08527129888534546
0.1453736275434494 0.4573643207550049 -0.06976741552352905
0.14090664684772491 0.4573643207550049 0.16279065608978271
0.1332080364227295 0.4573643207550049 0.17829453945159912
0.1372130811214447 0.4728682041168213 0.1472867727279663
0.13617797195911407 0.4883720874786377 0.06976747512817383
0.1404121220111847 0.4883720874786377 0.08527135848999023
0.137904092669487 0.4883720874786377 0.10077524185180664
0.13275977969169617 0.4883720874786377 0.11627912521362305
0.14898288249969482 -0.6279069781303406 0.16279065608978271
0.15129896998405457 -0.6279069781303406 0.17829453945159912
0.15196889638900757 -0.6279070377349854 0.19379842281341553
0.15120472013950348 -0.6279069781303406 0.20930230617523193
0.14994263648986816 -0.6279070377349854 0.22480618953704834
0.14858455955982208 -0.6279069781303406 0.24031007289886475
0.14872586727142334 -0.6124030947685242 0.1317828893661499
0.15331315994262695 -0.6124030351638794 0.1472867727279663
0.15561304986476898 -0.6124030947685242 0.16279065608978271
0.156662255525589 -0.6124030947685242 0.17829453945159912
0.156636044383049 -0.6124030947685242 0.19379842281341553
0.15534600615501404 -0.6124030947685242 0.20930230617523193
0.1531650871038437 -0.6124030947685242 0.22480617463588715
0.1511102020740509 -0.6124030947685242 0.24031005799770355
0.1489354521036148 -0.6124030947685242 0.25581395626068115
0.15111184120178223 -0.5968992114067078 0.11627912521362305
0.1554480791091919 -0.5968992114067078 0.1317828893661499
0.15804338455200195 -0.5968992114067078 0.1472867727279663
0.15965865552425385 -0.5968992114067078 0.16279065608978271
0.1602940708398819 -0.5968992114067078 0.17829453945159912
0.159939706325531 -0.5968992114067078 0.19379842281341553
0.15841281414031982 -0.5968992114067078 0.20930230617523193
0.15618617832660675 -0.5968992114067078 0.22480618953704834
0.15304674208164215 -0.596899151802063 0.24031007289886475
0.15038740634918213 -0.5968992114067078 0.25581395626068115
0.152849942445755 -0.5813953876495361 0.10077524185180664
0.15705230832099915 -0.5813953876495361 0.11627912521362305
0.15978899598121643 -0.5813953876495361 0.1317828893661499
0.16179174184799194 -0.5813953876495361 0.1472867727279663
0.16135765612125397 -0.5813953876495361 0.20930230617523193
0.158290833234787 -0.5813953876495361 0.22480618953704834
0.15491589903831482 -0.5813953876495361 0.24031007289886475
0.1511920988559723 -0.5813953876495361 0.25581395626068115
0.14761517941951752 -0.5813953876495361 0.27131783962249756
0.15458714962005615 -0.5658915042877197 0.08527135848999023
0.15861836075782776 -0.5658915042877197 0.10077524185180664
0.16138915717601776 -0.5658915042877197 0.11627912521362305
0.1604427695274353 -0.5658915042877197 0.22480618953704834
0.1563410460948944 -0.5658915042877197 0.24031007289886475
0.15168727934360504 -0.5658915042877197 0.25581395626068115
0.14762075245380402 -0.5658915638923645 0.27131783962249756
0.15670305490493774 -0.5503876209259033 0.06976747512817383
0.16136038303375244 -0.5503876209259033 0.08527135848999023
0.15777774155139923 -0.5503876209259033 0.24031007289886475
0.15240037441253662 -0.5503876209259033 0.25581395626068115
0.1478261798620224 -0.5503876209259033 0.27131780982017517
0.15911220014095306 -0.5348837375640869 0.05426359176635742
0.16009946167469025 -0.5348837375640869 0.24031007289886475
0.15409019589424133 -0.5348837375640869 0.25581395626068115
0.14887407422065735 -0.5348837375640869 0.27131783962249756
0.15876150131225586 -0.5193798542022705 0.038759708404541016
0.15766772627830505 -0.5193798542022705 0.25581395626068115
0.15150055289268494 -0.5193798542022705 0.27131783962249756
0.14744284749031067 -0.5193798542022705 0.28682172298431396
0.1538555920124054 -0.5038759708404541 0.02325582504272461
0.15608838200569153 -0.5038759708404541 0.27131783962249756
0.15115632116794586 -0.5038759708404541 0.28682172298431396
0.14747178554534912 -0.5038759708404541 0.30232560634613037
0.15610477328300476 -0.4883720874786377 0.28682172298431396
0.15140746533870697 -0.4883721172809601 0.30232560634613037
0.14768652617931366 -0.4883720874786377 0.31782951951026917
0.15632739663124084 -0.4728682041168213 0.30232560634613037
0.15104863047599792 -0.4728682041168213 0.3178294897079468
0.16011257469654083 -0.4573643207550049 -0.02325582504272461
0.1555568426847458 -0.4573643207550049 0.3178294897079468
0.14883479475975037 -0.4573643207550049 0.3333333730697632
0.15712182223796844 -0.4418604373931885 -0.06976741552352905
0.15958738327026367 -0.4418604373931885 0.3178294897079468
0.15109848976135254 -0.4418604373931885 0.33333340287208557
0.15574073791503906 -0.42635661363601685 -0.11627906560897827
0.16140027344226837 -0.42635661363601685 0.3178294897079468
0.15120449662208557 -0.42635664343833923 0.3333333730697632
0.14847664535045624 -0.4108527600765228 -0.19379843771457672
0.15229344367980957 -0.41085273027420044 -0.1782945990562439
0.15522964298725128 -0.41085273027420044 -0.1627907156944275
0.15903981029987335 -0.41085273027420044 -0.14728683233261108
0.15799134969711304 -0.41085273027420044 0.3178294897079468
0.14804205298423767 -0.41085270047187805 0.3333333730697632
0.14880023896694183 -0.39534884691238403 -0.22480618953704834
0.15385539829730988 -0.39534884691238403 -0.20930230617523193
0.1571681946516037 -0.39534884691238403 -0.19379842281341553
0.1610300987958908 -0.39534884691238403 -0.1782945990562439
0.1536683738231659 -0.39534884691238403 0.3178294897079468
0.14746998250484467 -0.3798449635505676 -0.24031007289886475
0.15115544199943542 -0.3798449635505676 -0.22480618953704834
0.15462812781333923 -0.3798449635505676 -0.20930230617523193
0.15879279375076294 -0.3798449635505676 -0.19379842281341553
0.15688112378120422 -0.3798449635505676 0.30232560634613037
0.14882154762744904 -0.3798449635505676 0.3178294897079468
0.14871953427791595 -0.3643411099910736 -0.22480620443820953
0.15309685468673706 -0.3643410801887512 -0.20930230617523193
0.15726938843727112 -0.3643410801887512 -0.19379842281341553
0.1598678082227707 -0.3643410801887512 0.28682172298431396
0.15263515710830688 -0.3643410801887512 0.30232560634613037
0.14785601198673248 -0.3488371968269348 -0.20930230617523193
0.1531486213207245 -0.3488371968269348 -0.19379842281341553
0.15831102430820465 -0.3488371968269348 -0.1782945990562439
0.16217200458049774 -0.3488371968269348 0.27131783962249756
0.15499739348888397 -0.3488371968269348 0.28682172298431396
0.1493498682975769 -0.3488371968269348 0.30232560634613037
0.14830033481121063 -0.3333333134651184 -0.1782945990562439
0.15543590486049652 -0.3333333134651184 -0.1627907156944275
0.1562739461660385 -0.3333333134651184 0.27131783962249756
0.15094104409217834 -0.3333333134651184 0.28682172298431396
0.14776639640331268 -0.3178294599056244 -0.14728683233261108
0.161610946059227 -0.317829430103302 -0.13178294897079468
0.15766632556915283 -0.317829430103302 0.25581395626068115
0.15221327543258667 -0.317829430103302 0.27131783962249756
0.14825576543807983 -0.317829430103302 0.28682172298431396
0.14744983613491058 -0.30232560634613037 -0.11627906560897827
0.1568576991558075 -0.30232560634613037 -0.10077518224716187
0.16241009533405304 -0.30232560634613037 0.20930230617523193
0.16083118319511414 -0.30232560634613037 0.22480618953704834
0.15749257802963257 -0.30232560634613037 0.24031007289886475
0.15359878540039062 -0.30232560634613037 0.25581395626068115
0.14925223588943481 -0.30232560634613037 0.27131783962249756
0.14755931496620178 -0.28682172298431396 -0.038759708404541016
0.15072302520275116 -0.28682172298431396 -0.02325582504272461
0.155664324760437 -0.28682172298431396 -0.007751941680908203
0.1623794436454773 -0.28682172298431396 0.007751941680908203
0.16126284003257751 -0.28682172298431396 0.17829453945159912
0.1585271656513214 -0.28682172298431396 0.19379842281341553
0.15635427832603455 -0.28682172298431396 0.20930230617523193
0.15622103214263916 -0.28682172298431396 0.22480618953704834
0.15472185611724854 -0.28682172298431396 0.24031007289886475
0.15197792649269104 -0.28682172298431396 0.25581395626068115
0.1481357365846634 -0.28682172298431396 0.27131783962249756
0.15540458261966705 -0.27131783962249756 0.007751941680908203
0.15876147150993347 -0.27131783962249756 0.17829453945159912
0.15690521895885468 -0.27131783962249756 0.19379842281341553
0.156207874417305 -0.27131783962249756 0.20930230617523193
0.1579580157995224 -0.27131783962249756 0.22480618953704834
0.15784111618995667 -0.27131783962249756 0.24031007289886475
0.15500596165657043 -0.27131783962249756 0.25581395626068115
0.15063296258449554 -0.27131783962249756 0.27131783962249756
0.15747828781604767 -0.25581395626068115 0.007751941680908203
