-0.3643410801887512 -0.19379842281341553 -0.5173447132110596
-0.3643410801887512 -0.1782945990562439 -0.5226740837097168
-0.3643410801887512 -0.1782945990562439 -0.5173608064651489
-0.3643410801887512 -0.1627907156944275 -0.5227336287498474
-0.3643410801887512 -0.1627907156944275 -0.5173583030700684
-0.3643410801887512 -0.14728683233261108 -0.5228203535079956
-0.3643410801887512 -0.14728683233261108 -0.5173835754394531
-0.3643410801887512 -0.13178294897079468 -0.5229452252388
-0.3643410801887512 -0.13178294897079468 -0.5173631906509399
-0.3643410801887512 -0.11627906560897827 -0.5230990648269653
-0.3643410801887512 -0.11627906560897827 -0.5172871351242065
-0.3643410801887512 -0.10077518224716187 -0.5232747793197632
-0.3643410801887512 -0.10077518224716187 -0.51719069480896
-0.3643410801887512 -0.08527129888534546 -0.5234624147415161
-0.3643410801887512 -0.08527129888534546 -0.5169970393180847
-0.3643410801887512 -0.06976741552352905 -0.523604154586792
-0.3643410801887512 -0.06976741552352905 -0.516665518283844
-0.3643410801887512 -0.05426359176635742 -0.5237505435943604
-0.3643410801887512 -0.05426359176635742 -0.5162473917007446
-0.3643410801887512 -0.038759708404541016 -0.5239384174346924
-0.3643410801887512 -0.038759708404541016 -0.5157433152198792
-0.3643410801887512 -0.02325582504272461 -0.5241157412528992
-0.3643411099910736 -0.02325582690536976 -0.5153189301490784
-0.3643410801887512 -0.007751941680908203 -0.5242211222648621
-0.3643410801887512 -0.007751941680908203 -0.5150820016860962
-0.3643410801887512 0.007751941680908203 -0.5243703722953796
-0.3643410801887512 0.007751941680908203 -0.514907956123352
-0.3643410801887512 0.02325582504272461 -0.5245115160942078
-0.3643410801887512 0.02325582504272461 -0.5148475766181946
-0.3643410801887512 0.038759708404541016 -0.5246129631996155
-0.3643410801887512 0.038759708404541016 -0.5146568417549133
-0.3643410801887512 0.05426359176635742 -0.5247376561164856
-0.3643410801887512 0.05426359176635742 -0.5143179297447205
-0.3643410801887512 0.06976747512817383 -0.5249902606010437
-0.3643410801887512 0.06976747512817383 -0.514089047908783
-0.3643410801887512 0.08527135848999023 -0.525261640548706
-0.3643410801887512 0.08527135848999023 -0.5137665271759033
-0.3643410801887512 0.10077524185180664 -0.5255921483039856
-0.3643410801887512 0.10077524185180664 -0.5134998559951782
-0.3643410801887512 0.11627912521362305 -0.5260215401649475
-0.3643410801887512 0.11627912521362305 -0.5136102437973022
-0.3643410801887512 0.1317828893661499 -0.5265602469444275
-0.3643410801887512 0.1317828893661499 -0.5139948725700378
-0.3643410801887512 0.1472867727279663 -0.5271902084350586
-0.3643410801887512 0.1472867727279663 -0.5146009922027588
-0.3643410801887512 0.16279065608978271 -0.5278763175010681
-0.3643410801887512 0.16279065608978271 -0.5154033899307251
-0.3643410801887512 0.17829453945159912 -0.5288233757019043
-0.3643410801887512 0.17829453945159912 -0.5160565972328186
-0.3643410801887512 0.19379842281341553 -0.5299900770187378
-0.3643410801887512 0.19379842281341553 -0.5166383385658264
-0.3643410801887512 0.20930230617523193 -0.5314960479736328
-0.3643410801887512 0.20930230617523193 -0.517099142074585
-0.3643410801887512 0.22480618953704834 -0.5331972241401672
-0.36434105038642883 0.22480618953704834 -0.5173856019973755
-0.3643410801887512 0.24031007289886475 -0.5351107120513916
-0.3643410801887512 0.24031005799770355 -0.5176352858543396
-0.3643410801887512 0.25581395626068115 -0.5355615019798279
-0.3643411099910736 0.25581395626068115 -0.5178975462913513
-0.3643410801887512 0.27131783962249756 -0.5359402894973755
-0.3643410801887512 0.27131783962249756 -0.5181781053543091
-0.3643410801887512 0.28682172298431396 -0.5362769365310669
-0.3643410801887512 0.28682172298431396 -0.5184892416000366
-0.3643410801887512 0.30232560634613037 -0.5365776419639587
-0.3643410801887512 0.302325576543808 -0.5187038779258728
-0.3643410801887512 0.3178294897079468 -0.536794900894165
-0.3643410801887512 0.3178294897079468 -0.5187997817993164
-0.3643410801887512 0.3333333730697632 -0.5371063947677612
-0.36434105038642883 0.3333333730697632 -0.5188198089599609
-0.3643410801887512 0.3488372564315796 -0.5374065637588501
-0.3643410801887512 0.348837286233902 -0.5186405181884766
-0.3643410801887512 0.364341139793396 -0.5376443862915039
-0.3643410801887512 0.364341139793396 -0.5185275077819824
-0.3643410801887512 0.37984490394592285 -0.5378513336181641
-0.3643410801887512 0.37984490394592285 -0.5185717344284058
-0.3643410801887512 0.39534878730773926 -0.5379358530044556
-0.3643410801887512 0.39534881711006165 -0.5185219645500183
-0.3643410801887512 0.41085267066955566 -0.5378731489181519
-0.3643410801887512 0.41085267066955566 -0.5183573961257935
-0.3643410801887512 0.42635655403137207 -0.5375791788101196
-0.3643411099910736 0.42635655403137207 -0.5181633830070496
-0.3643410801887512 0.4418604373931885 -0.5369690656661987
-0.3643410801887512 0.4418604373931885 -0.5178693532943726
-0.3643410801887512 0.4573643207550049 -0.5358923673629761
-0.3643410801887512 0.45736435055732727 -0.5174494385719299
-0.3643410801887512 0.4728682041168213 -0.5309038162231445
-0.3643410801887512 0.4728682041168213 -0.5166403651237488
-0.3643410801887512 0.4883720874786377 -0.5262255072593689
-0.3643410801887512 0.4883720874786377 -0.5150414705276489
-0.3643410801887512 0.5038759708404541 -0.5239773392677307
-0.3643410801887512 0.5038759708404541 -0.5127561688423157
-0.3643410801887512 0.5193798542022705 -0.5221668481826782
-0.3643410801887512 0.5193798542022705 -0.5094332695007324
-0.3643410801887512 0.5348837375640869 -0.5213470458984375
-0.3643410801887512 0.5348837375640869 -0.5037391781806946
-0.3643410801887512 0.5503876209259033 -0.5218961834907532
-0.3643410801887512 0.5503876209259033 -0.5035136938095093
-0.3643410801887512 0.5658915042877197 -0.5236031413078308
-0.3643410801887512 0.5658915042877197 -0.504990816116333
-0.3643410801887512 0.5813953876495361 -0.5258353352546692
-0.3643410801887512 0.5813953876495361 -0.5100411176681519
-0.3643411099910736 0.5968992710113525 -0.5301806926727295
-0.3643410801887512 0.5968992710113525 -0.5137981176376343
-0.3643410801887512 0.612403154373169 -0.5359733700752258
-0.3643410801887512 0.612403154373169 -0.5151740312576294
-0.3643410801887512 0.6279069185256958 -0.5373567342758179
-0.3643410801887512 0.6279069185256958 -0.5153870582580566
-0.3643410801887512 0.6434108018875122 -0.5385090708732605
-0.3643410801887512 0.6434108018875122 -0.5152119398117065
-0.3643410801887512 0.6589146852493286 -0.5395969152450562
-0.3643410801887512 0.6589146852493286 -0.5150671005249023
-0.3643410801887512 0.674418568611145 -0.5408519506454468
-0.3643410801887512 0.674418568611145 -0.5151212215423584
-0.3643410801887512 0.6899224519729614 -0.5422568321228027
-0.3643410801887512 0.6899224519729614 -0.5150529146194458
-0.3643410801887512 0.7054263353347778 -0.5441937446594238
-0.3643410801887512 0.7054263353347778 -0.5147618651390076
-0.3643410801887512 0.7209302186965942 -0.5466781854629517
-0.3643410801887512 0.7209302186965942 -0.5140052437782288
-0.36434105038642883 0.7364340424537659 -0.5494673848152161
-0.3643410801887512 0.7364341020584106 -0.5127265453338623
-0.3643410801887512 0.751937985420227 -0.5506215691566467
-0.3643410801887512 0.751937985420227 -0.5124450922012329
-0.3643410801887512 0.7674418687820435 -0.5507773160934448
-0.3643410801887512 0.7674418687820435 -0.5150110721588135
-0.3643410801887512 0.7829457521438599 -0.5507403016090393
-0.36434105038642883 0.7829457521438599 -0.5190525650978088
-0.3643410801887512 0.7984496355056763 -0.5508422255516052
-0.3643410801887512 0.7984496355056763 -0.5259501934051514
-0.3643410801887512 0.8139535188674927 -0.5510674118995667
-0.3643410801887512 0.8139535188674927 -0.5290666222572327
-0.3643410801887512 0.8294574022293091 -0.5513525605201721
-0.3643410801887512 0.8294574022293091 -0.530415415763855
-0.3643410801887512 0.8449612855911255 -0.551587700843811
-0.3643410801887512 0.8449612855911255 -0.5305601358413696
-0.3643410801887512 0.8604651689529419 -0.5514241456985474
-0.3643410801887512 0.8604651689529419 -0.5299502015113831
-0.3643410801887512 0.8759689331054688 -0.5507996678352356
-0.3643410801887512 0.8759689331054688 -0.527736485004425
-0.3643410801887512 0.8914728164672852 -0.5494006872177124
-0.3643410801887512 0.8914728164672852 -0.5233901739120483
-0.3643410801887512 0.9069766998291016 -0.5441822409629822
-0.3643410801887512 0.9069766998291016 -0.5234694480895996
-0.3488371968269348 -0.751937985420227 -0.5207767486572266
-0.3488371968269348 -0.751937985420227 -0.5182539224624634
-0.3488371968269348 -0.7364341020584106 -0.5215500593185425
-0.3488371968269348 -0.7364341020584106 -0.5175166130065918
-0.3488371968269348 -0.7209302186965942 -0.5211969614028931
-0.3488371968269348 -0.7209302186965942 -0.517478346824646
-0.3488371968269348 -0.7054263353347778 -0.5207008123397827
-0.3488371968269348 -0.7054263353347778 -0.5175980925559998
-0.3488371968269348 -0.6899224519729614 -0.5198770761489868
-0.3488371968269348 -0.6899224519729614 -0.5184664130210876
-0.3488371968269348 -0.643410861492157 -0.5194215178489685
-0.3488371968269348 -0.643410861492157 -0.5192210674285889
-0.3488371968269348 -0.6279070377349854 -0.5198758840560913
-0.3488371968269348 -0.6279069185256958 -0.5178976058959961
-0.3488371968269348 -0.6124030947685242 -0.5202898383140564
-0.3488371968269348 -0.6124030947685242 -0.5173336267471313
-0.3488371968269348 -0.5968992114067078 -0.5205400586128235
-0.3488371968269348 -0.5968992114067078 -0.5172028541564941
-0.3488371968269348 -0.5813953876495361 -0.520656406879425
-0.3488371968269348 -0.5813953876495361 -0.5172053575515747
-0.3488371968269348 -0.5658915042877197 -0.5206164717674255
-0.3488371968269348 -0.5658915042877197 -0.517275869846344
-0.3488371968269348 -0.5503876209259033 -0.5204306244850159
-0.3488371968269348 -0.5503876209259033 -0.5174461007118225
-0.3488371968269348 -0.5348837375640869 -0.5203043818473816
-0.3488371968269348 -0.5348837375640869 -0.5175937414169312
-0.3488371968269348 -0.5193798542022705 -0.5201401710510254
-0.3488371968269348 -0.5193798542022705 -0.5178682208061218
-0.3488371968269348 -0.5038759708404541 -0.5200796127319336
-0.3488371968269348 -0.5038759708404541 -0.5180413722991943
-0.3488371968269348 -0.4883720874786377 -0.520183801651001
-0.3488371968269348 -0.4883720874786377 -0.5180111527442932
-0.3488371968269348 -0.4728682041168213 -0.5203836560249329
-0.3488372266292572 -0.4728682041168213 -0.5179280042648315
-0.3488371968269348 -0.4573643207550049 -0.5206466913223267
-0.3488371968269348 -0.45736435055732727 -0.5178415179252625
-0.3488371968269348 -0.4418604373931885 -0.5209055542945862
-0.3488371968269348 -0.4418604373931885 -0.5178128480911255
-0.3488371968269348 -0.42635661363601685 -0.5211822390556335
-0.3488371670246124 -0.42635661363601685 -0.5176739692687988
-0.3488371968269348 -0.41085273027420044 -0.5214308500289917
-0.3488371968269348 -0.41085273027420044 -0.517432689666748
-0.3488371968269348 -0.39534884691238403 -0.5215287208557129
-0.3488371968269348 -0.39534884691238403 -0.5172440409660339
-0.3488371968269348 -0.3798449635505676 -0.5215187668800354
-0.3488372266292572 -0.3798449635505676 -0.5171064734458923
-0.3488371968269348 -0.3643410801887512 -0.5215446949005127
-0.3488371968269348 -0.3643410801887512 -0.5169510245323181
-0.3488371968269348 -0.3488371968269348 -0.5214869379997253
-0.3488371968269348 -0.3488371968269348 -0.5167597532272339
-0.3488371968269348 -0.3333333134651184 -0.5214130282402039
-0.3488371968269348 -0.3333333134651184 -0.5165655016899109
-0.3488371968269348 -0.317829430103302 -0.5214129090309143
-0.3488371968269348 -0.317829430103302 -0.5165174007415771
-0.3488371968269348 -0.30232560634613037 -0.5214399695396423
-0.3488371968269348 -0.30232560634613037 -0.5165818929672241
-0.3488371968269348 -0.28682172298431396 -0.521528959274292
-0.3488371968269348 -0.28682172298431396 -0.5166735053062439
-0.3488371968269348 -0.27131783962249756 -0.5217709541320801
-0.3488371670246124 -0.27131783962249756 -0.5167814493179321
-0.3488371968269348 -0.25581395626068115 -0.5221140384674072
-0.3488371968269348 -0.25581395626068115 -0.5168349146842957
-0.3488371968269348 -0.24031007289886475 -0.5223919749259949
-0.3488371968269348 -0.24031007289886475 -0.5169187188148499
-0.3488371968269348 -0.22480618953704834 -0.5225707292556763
-0.3488371968269348 -0.22480618953704834 -0.5170387625694275
-0.3488371968269348 -0.20930230617523193 -0.5226572751998901
-0.3488371968269348 -0.20930230617523193 -0.5171527862548828
-0.3488371968269348 -0.19379842281341553 -0.5227396488189697
-0.3488371968269348 -0.19379842281341553 -0.5172306895256042
-0.3488371968269348 -0.1782945990562439 -0.5228015184402466
-0.3488371968269348 -0.1782945990562439 -0.5172562599182129
-0.3488371968269348 -0.1627907156944275 -0.522843599319458
-0.3488371968269348 -0.1627907156944275 -0.5172618627548218
-0.3488371968269348 -0.14728683233261108 -0.5229089856147766
-0.3488371968269348 -0.14728683233261108 -0.5172971487045288
-0.3488371968269348 -0.13178294897079468 -0.5230149030685425
-0.3488371968269348 -0.13178294897079468 -0.5172799825668335
-0.3488371968269348 -0.11627906560897827 -0.5231553316116333
-0.3488371968269348 -0.11627906560897827 -0.5172045230865479
-0.3488371968269348 -0.10077518224716187 -0.5233246088027954
-0.3488371968269348 -0.10077518224716187 -0.5171082019805908
-0.3488371968269348 -0.08527129888534546 -0.5235170722007751
-0.3488371968269348 -0.08527129888534546 -0.5168993473052979
-0.3488371968269348 -0.06976741552352905 -0.5236724615097046
-0.3488371968269348 -0.06976741552352905 -0.5165327787399292
-0.3488371968269348 -0.05426359176635742 -0.523833692073822
-0.3488371968269348 -0.05426359176635742 -0.516059935092926
-0.3488371968269348 -0.038759708404541016 -0.5240345001220703
-0.3488372266292572 -0.038759708404541016 -0.515487551689148
-0.3488371968269348 -0.02325582504272461 -0.5242125391960144
-0.3488371670246124 -0.02325582504272461 -0.5150238871574402
-0.3488371968269348 -0.007751941680908203 -0.5243331789970398
-0.3488371968269348 -0.007751941680908203 -0.5147843956947327
-0.3488371968269348 0.007751941680908203 -0.5245038270950317
-0.3488371968269348 0.007751941680908203 -0.5146286487579346
-0.3488371968269348 0.02325582504272461 -0.5246655941009521
-0.3488371968269348 0.02325582504272461 -0.5146207809448242
-0.3488371968269348 0.038759708404541016 -0.5247798562049866
-0.3488371968269348 0.038759708404541016 -0.5144948959350586
-0.3488371968269348 0.05426359176635742 -0.5249279737472534
-0.3488371968269348 0.05426359176635742 -0.5142414569854736
-0.3488371968269348 0.06976747512817383 -0.5252072215080261
-0.3488371968269348 0.06976747512817383 -0.5141662359237671
-0.3488371968269348 0.08527135848999023 -0.5255182385444641
-0.3488371968269348 0.08527135848999023 -0.5140208005905151
-0.3488371968269348 0.10077524185180664 -0.5258967876434326
-0.3488371968269348 0.10077524185180664 -0.5140262246131897
-0.3488371968269348 0.11627912521362305 -0.5263736248016357
-0.3488371968269348 0.11627912521362305 -0.514380156993866
-0.3488371968269348 0.1317828893661499 -0.5269638895988464
-0.3488371968269348 0.1317828893661499 -0.5149535536766052
-0.3488371968269348 0.1472867727279663 -0.5276464223861694
-0.3488371968269348 0.1472867727279663 -0.515623927116394
-0.3488371968269348 0.16279065608978271 -0.5284239649772644
-0.3488371968269348 0.16279065608978271 -0.5162910223007202
-0.3488371968269348 0.17829453945159912 -0.5296298265457153
-0.3488371968269348 0.17829453945159912 -0.516754686832428
-0.3488371968269348 0.19379842281341553 -0.531276524066925
-0.3488371968269348 0.19379842281341553 -0.5171061754226685
-0.3488371968269348 0.20930230617523193 -0.5335257053375244
-0.3488371968269348 0.20930230617523193 -0.5173872709274292
-0.3488371968269348 0.22480618953704834 -0.5351033806800842
-0.3488371968269348 0.22480620443820953 -0.5176056027412415
-0.3488371968269348 0.24031007289886475 -0.5356801152229309
-0.3488371968269348 0.24031007289886475 -0.5179661512374878
-0.3488371968269348 0.25581395626068115 -0.5361248254776001
-0.3488371968269348 0.25581395626068115 -0.5185070037841797
-0.3488371968269348 0.27131783962249756 -0.5364788770675659
-0.3488371968269348 0.27131780982017517 -0.5190585255622864
-0.3488371968269348 0.28682172298431396 -0.5367757678031921
-0.3488371968269348 0.28682172298431396 -0.5215467214584351
-0.3488371968269348 0.30232560634613037 -0.5370539426803589
-0.3488371968269348 0.30232560634613037 -0.5236278176307678
-0.3488371968269348 0.3178294897079468 -0.5372540354728699
-0.3488371968269348 0.3178294897079468 -0.5239945650100708
-0.3488371968269348 0.3333333730697632 -0.537539541721344
-0.3488371968269348 0.3333333730697632 -0.52338707447052
-0.3488371968269348 0.3488372564315796 -0.5377797484397888
-0.3488371968269348 0.3488372564315796 -0.5205752849578857
-0.3488371968269348 0.364341139793396 -0.5379437804222107
-0.3488371968269348 0.364341139793396 -0.5192859768867493
-0.3488371968269348 0.37984490394592285 -0.5380511283874512
-0.3488371968269348 0.37984490394592285 -0.5192784070968628
-0.3488371968269348 0.39534878730773926 -0.5379844903945923
-0.3488371968269348 0.39534881711006165 -0.5191137194633484
-0.3488371968269348 0.41085267066955566 -0.5377286076545715
-0.3488371968269348 0.41085267066955566 -0.5187886357307434
-0.3488371968269348 0.42635655403137207 -0.5371718406677246
-0.3488371968269348 0.42635655403137207 -0.5184093117713928
-0.3488371968269348 0.4418604373931885 -0.5362592935562134
-0.3488371968269348 0.4418604373931885 -0.5178613066673279
-0.3488371968269348 0.4573643207550049 -0.5336217284202576
-0.3488371968269348 0.4573643207550049 -0.5170933604240417
-0.3488371968269348 0.4728682041168213 -0.5267419815063477
-0.3488371968269348 0.4728682041168213 -0.5157453417778015
-0.3488371968269348 0.4883720874786377 -0.5237730145454407
-0.3488371968269348 0.4883720874786377 -0.5135036706924438
-0.3488371968269348 0.5038759708404541 -0.5210623145103455
-0.3488371968269348 0.5038759708404541 -0.5103980898857117
-0.3488371968269348 0.5193798542022705 -0.5131903886795044
-0.3488371968269348 0.5193798542022705 -0.5032413601875305
-0.3488371968269348 0.5348837375640869 -0.5115259289741516
-0.3488371968269348 0.5348837375640869 -0.5028050541877747
-0.3488371968269348 0.5503876209259033 -0.5141555070877075
-0.3488371968269348 0.5503876209259033 -0.5024746656417847
-0.3488371968269348 0.5658915042877197 -0.5203237533569336
-0.3488371968269348 0.5658915638923645 -0.5024715065956116
-0.3488371968269348 0.5813953876495361 -0.5230696797370911
-0.3488371968269348 0.5813953876495361 -0.503341555595398
-0.3488371968269348 0.5968992710113525 -0.5257304906845093
-0.3488371968269348 0.5968992710113525 -0.5091060400009155
-0.3488371968269348 0.612403154373169 -0.5308256149291992
-0.3488371968269348 0.612403154373169 -0.5129201412200928
-0.3488371968269348 0.6279069185256958 -0.5360074043273926
-0.3488371968269348 0.6279069185256958 -0.5139002203941345
-0.3488371968269348 0.6434108018875122 -0.5372341871261597
-0.3488371968269348 0.6434108018875122 -0.5137391090393066
-0.3488371968269348 0.6589146852493286 -0.5383719205856323
-0.3488371968269348 0.6589146852493286 -0.5132538080215454
-0.3488371968269348 0.674418568611145 -0.5397585034370422
-0.3488371968269348 0.674418568611145 -0.5127959251403809
-0.3488371968269348 0.6899224519729614 -0.5413074493408203
-0.3488371968269348 0.6899224519729614 -0.5119466185569763
-0.3488371968269348 0.7054263353347778 -0.543297290802002
-0.3488371968269348 0.7054263353347778 -0.5105205774307251
-0.3488371968269348 0.7209302186965942 -0.5456550121307373
-0.3488371968269348 0.7209302186965942 -0.50801020860672
-0.3488371670246124 0.7364341020584106 -0.5481261610984802
-0.3488371968269348 0.7364341020584106 -0.5041120648384094
-0.3488371968269348 0.751937985420227 -0.5498203635215759
-0.3488372266292572 0.751937985420227 -0.5034716725349426
-0.3488371968269348 0.7674418687820435 -0.5504045486450195
-0.3488371968269348 0.7674418687820435 -0.5047469735145569
-0.3488371968269348 0.7829457521438599 -0.5502482056617737
-0.3488371968269348 0.7829457521438599 -0.5117284059524536
-0.3488371968269348 0.7984496355056763 -0.5504465699195862
-0.3488371968269348 0.7984496355056763 -0.516767144203186
-0.3488371968269348 0.8139535188674927 -0.5506841540336609
-0.3488371968269348 0.8139535188674927 -0.5206670165061951
-0.3488371968269348 0.8294574022293091 -0.5509471297264099
-0.3488371968269348 0.8294574022293091 -0.5241357684135437
-0.3488371968269348 0.8449612855911255 -0.5510655045509338
-0.3488371968269348 0.8449612855911255 -0.5232924222946167
-0.3488371968269348 0.8604651689529419 -0.5506258010864258
-0.3488371968269348 0.8604651689529419 -0.5191951990127563
-0.3488371968269348 0.8759689331054688 -0.547491729259491
-0.3488371968269348 0.8759689331054688 -0.5123815536499023
-0.3488371968269348 0.8914728164672852 -0.5440983772277832
-0.3488372266292572 0.8914728164672852 -0.5027655959129333
-0.3488371968269348 0.9069766998291016 -0.5399295091629028
-0.3488371968269348 0.9069766998291016 -0.49156832695007324
-0.3488371968269348 0.922480583190918 -0.5064955949783325
-0.3488371968269348 0.922480583190918 -0.5022419095039368
-0.3333333134651184 -0.751937985420227 -0.5210369825363159
-0.3333333134651184 -0.751937985420227 -0.5180104970932007
-0.3333333134651184 -0.7364341020584106 -0.5216017365455627
-0.3333333134651184 -0.7364341020584106 -0.5173754692077637
-0.3333333134651184 -0.7209302186965942 -0.5211718678474426
-0.333333283662796 -0.7209302186965942 -0.5172839760780334
-0.3333333134651184 -0.7054263353347778 -0.520667314529419
-0.3333333134651184 -0.7054263353347778 -0.5173357725143433
-0.3333333134651184 -0.6899224519729614 -0.5198866724967957
-0.3333333134651184 -0.6899224519729614 -0.5182034373283386
-0.3333333134651184 -0.643410861492157 -0.5194106101989746
-0.3333333134651184 -0.6434109210968018 -0.5191843509674072
-0.3333333134651184 -0.6279069185256958 -0.519864022731781
-0.3333333134651184 -0.6279069781303406 -0.5172825455665588
-0.3333333134651184 -0.6124030947685242 -0.5203176736831665
-0.3333333134651184 -0.6124030947685242 -0.5166515707969666
-0.3333333134651184 -0.5968992114067078 -0.5206325650215149
-0.3333333134651184 -0.5968992114067078 -0.5165547132492065
-0.3333333134651184 -0.5813953876495361 -0.5207961797714233
-0.3333333134651184 -0.5813953876495361 -0.5166264772415161
-0.3333333134651184 -0.5658915042877197 -0.5207910537719727
-0.333333283662796 -0.5658915042877197 -0.5167181491851807
-0.3333333134651184 -0.5503876209259033 -0.5206382870674133
-0.3333333134651184 -0.5503876209259033 -0.5168424248695374
-0.3333333134651184 -0.5348837375640869 -0.5205358862876892
-0.3333333134651184 -0.5348837375640869 -0.5169618129730225
-0.3333333134651184 -0.5193798542022705 -0.5204004049301147
-0.3333333432674408 -0.5193798542022705 -0.5172039866447449
-0.3333333134651184 -0.5038759708404541 -0.5203498601913452
-0.3333333134651184 -0.5038759708404541 -0.5174051523208618
-0.3333333134651184 -0.4883720874786377 -0.5204358100891113
-0.3333333134651184 -0.4883720874786377 -0.5174795985221863
-0.3333333134651184 -0.4728682041168213 -0.5206074118614197
-0.3333333134651184 -0.4728682041168213 -0.5175175666809082
-0.3333333134651184 -0.4573643207550049 -0.5208308696746826
-0.3333333134651184 -0.4573643207550049 -0.517545223236084
-0.3333333134651184 -0.4418604373931885 -0.5210535526275635
-0.3333333134651184 -0.4418604373931885 -0.5176070332527161
-0.3333333134651184 -0.42635661363601685 -0.521318793296814
-0.3333333134651184 -0.42635661363601685 -0.5174934267997742
-0.3333333134651184 -0.41085273027420044 -0.5215471982955933
-0.3333333134651184 -0.41085270047187805 -0.5172334313392639
-0.3333333134651184 -0.39534884691238403 -0.5216268301010132
-0.3333333134651184 -0.3953488767147064 -0.5169984102249146
-0.3333333134651184 -0.3798449635505676 -0.5216130018234253
-0.333333283662796 -0.3798449635505676 -0.5167895555496216
-0.3333333134651184 -0.3643410801887512 -0.5216526985168457
-0.3333333134651184 -0.3643410801887512 -0.5165650844573975
-0.3333333134651184 -0.3488371968269348 -0.521597683429718
-0.3333333134651184 -0.3488371968269348 -0.5162699222564697
-0.3333333134651184 -0.3333333134651184 -0.5215170383453369
-0.3333333134651184 -0.3333333134651184 -0.5159634351730347
-0.3333333134651184 -0.317829430103302 -0.5214999318122864
-0.333333283662796 -0.317829430103302 -0.5159156322479248
-0.3333333134651184 -0.30232560634613037 -0.5215036869049072
-0.3333333134651184 -0.30232560634613037 -0.5160514712333679
-0.3333333134651184 -0.28682172298431396 -0.521568775177002
-0.3333333134651184 -0.28682172298431396 -0.5162544846534729
-0.3333333134651184 -0.27131783962249756 -0.5217963457107544
-0.3333333134651184 -0.27131783962249756 -0.5164878964424133
-0.3333333134651184 -0.25581395626068115 -0.5221445560455322
-0.333333283662796 -0.25581395626068115 -0.5166244506835938
-0.3333333134651184 -0.24031007289886475 -0.5224611759185791
-0.3333333134651184 -0.24031007289886475 -0.5167295932769775
-0.3333333134651184 -0.22480618953704834 -0.5226866006851196
-0.3333333134651184 -0.22480618953704834 -0.5168402194976807
-0.3333333134651184 -0.20930230617523193 -0.5228106379508972
-0.3333333134651184 -0.20930230617523193 -0.5169389843940735
-0.3333333134651184 -0.19379842281341553 -0.5229285359382629
-0.3333333134651184 -0.19379843771457672 -0.5170003771781921
-0.3333333134651184 -0.1782945990562439 -0.5230071544647217
-0.3333333134651184 -0.1782945990562439 -0.517012894153595
-0.3333333134651184 -0.1627907156944275 -0.5230515003204346
-0.3333333134651184 -0.1627907156944275 -0.5170135498046875
-0.3333333134651184 -0.14728683233261108 -0.5231000185012817
-0.3333333134651184 -0.14728683233261108 -0.5170609354972839
-0.3333333134651184 -0.13178294897079468 -0.5231752395629883
-0.3333333134651184 -0.13178294897079468 -0.5170596837997437
-0.3333333134651184 -0.11627906560897827 -0.523288905620575
-0.3333333432674408 -0.11627907305955887 -0.517002284526825
-0.3333333134651184 -0.10077518224716187 -0.5234415531158447
-0.3333333134651184 -0.10077518224716187 -0.5169227123260498
-0.3333333134651184 -0.08527129888534546 -0.5236413478851318
-0.3333333134651184 -0.08527130633592606 -0.516694188117981
-0.3333333134651184 -0.06976741552352905 -0.5238233208656311
-0.3333333134651184 -0.06976741552352905 -0.5162729024887085
-0.3333333134651184 -0.05426359176635742 -0.5240175127983093
-0.3333333134651184 -0.05426359176635742 -0.5157055854797363
-0.3333333134651184 -0.038759708404541016 -0.5242398977279663
-0.3333333134651184 -0.038759708404541016 -0.5150120258331299
-0.3333333134651184 -0.02325582504272461 -0.5244244337081909
-0.3333333134651184 -0.02325582504272461 -0.5144853591918945
-0.3333333134651184 -0.007751941680908203 -0.5245518684387207
-0.3333333134651184 -0.007751941680908203 -0.5142849683761597
-0.3333333134651184 0.007751941680908203 -0.5247320532798767
-0.3333333134651184 0.007751941680908203 -0.5142480731010437
-0.3333333134651184 0.02325582504272461 -0.5249080061912537
-0.3333333134651184 0.02325582318007946 -0.5143832564353943
-0.3333333134651184 0.038759708404541016 -0.5250169634819031
-0.3333333134651184 0.038759708404541016 -0.5144447088241577
-0.3333333134651184 0.05426359176635742 -0.5251811146736145
-0.3333333134651184 0.05426359176635742 -0.5144062042236328
-0.3333333134651184 0.06976747512817383 -0.5254985094070435
-0.3333333134651184 0.06976747512817383 -0.5146011114120483
-0.3333333134651184 0.08527135848999023 -0.5258798599243164
-0.3333333134651184 0.08527135848999023 -0.5147188901901245
-0.3333333134651184 0.10077524185180664 -0.5263667702674866
-0.3333333134651184 0.10077524185180664 -0.5150431990623474
-0.3333333134651184 0.11627912521362305 -0.5269750356674194
-0.3333333134651184 0.11627912521362305 -0.5155765414237976
-0.3333333134651184 0.1317828893661499 -0.5277088284492493
-0.3333333134651184 0.1317828893661499 -0.5161768198013306
-0.3333333134651184 0.1472867727279663 -0.5285179018974304
-0.333333283662796 0.1472867727279663 -0.5166824460029602
-0.3333333134651184 0.16279065608978271 -0.5294684171676636
-0.3333333134651184 0.16279065608978271 -0.5170471668243408
-0.3333333134651184 0.17829453945159912 -0.5309632420539856
-0.333333283662796 0.17829453945159912 -0.5172674655914307
-0.3333333134651184 0.19379842281341553 -0.533037543296814
-0.3333333134651184 0.19379842281341553 -0.5174628496170044
-0.3333333134651184 0.20930230617523193 -0.5351053476333618
-0.3333333134651184 0.20930230617523193 -0.5178132653236389
-0.3333333134651184 0.22480618953704834 -0.5356294512748718
-0.3333333134651184 0.22480618953704834 -0.5184453725814819
-0.3333333134651184 0.24031007289886475 -0.5361953973770142
-0.3333333134651184 0.24031007289886475 -0.5212818384170532
-0.3333333134651184 0.25581395626068115 -0.5365990996360779
-0.3333333134651184 0.25581395626068115 -0.5277508497238159
-0.3333333134651184 0.27131783962249756 -0.536893904209137
-0.3333333134651184 0.27131783962249756 -0.5291292071342468
-0.3333333134651184 0.28682172298431396 -0.5371313095092773
-0.3333333134651184 0.28682172298431396 -0.5295658707618713
-0.3333333134651184 0.30232560634613037 -0.5373947024345398
-0.3333333134651184 0.30232560634613037 -0.5294798016548157
-0.3333333134651184 0.3178294897079468 -0.5375893115997314
-0.3333333134651184 0.3178294897079468 -0.5291962623596191
-0.3333333134651184 0.3333333730697632 -0.5378710031509399
-0.3333333134651184 0.3333333730697632 -0.528523325920105
-0.3333333134651184 0.3488372564315796 -0.5380712747573853
-0.3333333134651184 0.3488372564315796 -0.5268082618713379
-0.3333333134651184 0.364341139793396 -0.5381519198417664
-0.3333333134651184 0.364341139793396 -0.5251371264457703
-0.3333333134651184 0.37984490394592285 -0.5381357669830322
-0.3333333134651184 0.37984490394592285 -0.5241816639900208
-0.3333333134651184 0.39534878730773926 -0.537901759147644
-0.3333333134651184 0.39534878730773926 -0.5219319462776184
-0.3333333134651184 0.41085267066955566 -0.5374607443809509
-0.3333333134651184 0.41085267066955566 -0.5191217660903931
-0.3333333134651184 0.42635655403137207 -0.5367438793182373
-0.333333283662796 0.4263565242290497 -0.5185309052467346
-0.3333333134651184 0.4418604373931885 -0.5356530547142029
-0.3333333134651184 0.4418604373931885 -0.5178061127662659
-0.3333333134651184 0.4573643207550049 -0.529395580291748
-0.3333333134651184 0.4573643207550049 -0.5168941020965576
-0.3333333134651184 0.4728682041168213 -0.5248335599899292
-0.3333333134651184 0.4728682041168213 -0.5154308080673218
-0.3333333134651184 0.4883720874786377 -0.5217598676681519
-0.3333333134651184 0.4883720874786377 -0.5145261287689209
-0.3333333134651184 0.5503876209259033 -0.5057981014251709
-0.3333333134651184 0.5503876209259033 -0.5034199953079224
-0.3333333134651184 0.5658915042877197 -0.5116562247276306
-0.333333283662796 0.5658915042877197 -0.5026681423187256
-0.3333333134651184 0.5813953876495361 -0.5208846926689148
-0.3333333134651184 0.5813953876495361 -0.5027514100074768
-0.3333333134651184 0.5968992710113525 -0.5237900018692017
-0.3333333134651184 0.5968992710113525 -0.5054682493209839
-0.3333333134651184 0.612403154373169 -0.5264562368392944
-0.3333333134651184 0.612403154373169 -0.5109037160873413
-0.3333333134651184 0.6279069185256958 -0.5330615043640137
-0.3333333134651184 0.6279069185256958 -0.5128045082092285
-0.3333333134651184 0.6434108018875122 -0.536059558391571
-0.3333333134651184 0.6434108018875122 -0.5128026008605957
-0.3333333134651184 0.6589146852493286 -0.5371073484420776
-0.3333333134651184 0.6589146852493286 -0.5119857788085938
-0.3333333134651184 0.674418568611145 -0.5383614301681519
-0.3333333134651184 0.674418568611145 -0.5109423995018005
-0.3333333134651184 0.6899224519729614 -0.5398244261741638
-0.3333333134651184 0.6899224519729614 -0.5090864896774292
-0.3333333134651184 0.7054263353347778 -0.5417519807815552
-0.3333333134651184 0.7054263353347778 -0.5061721205711365
-0.3333333134651184 0.7209302186965942 -0.5439771413803101
-0.3333333134651184 0.7209302186965942 -0.5034394860267639
-0.3333333134651184 0.7364341020584106 -0.5461527109146118
-0.3333333134651184 0.7364341020584106 -0.5022158622741699
-0.3333333134651184 0.751937985420227 -0.547594428062439
-0.3333333134651184 0.751937985420227 -0.5011439919471741
-0.3333333134651184 0.7674419283866882 -0.5480704307556152
-0.3333333134651184 0.7674418687820435 -0.5015376210212708
-0.333333283662796 0.7829457521438599 -0.547921895980835
-0.3333333134651184 0.7829457521438599 -0.5031611919403076
-0.3333333432674408 0.7984496355056763 -0.5482380986213684
-0.3333333134651184 0.7984496355056763 -0.5075443983078003
-0.3333333134651184 0.8139535188674927 -0.5491434335708618
-0.3333333134651184 0.8139535188674927 -0.5123692750930786
-0.3333333134651184 0.8294574022293091 -0.5502027273178101
-0.3333333134651184 0.8294574022293091 -0.5150733590126038
-0.3333333134651184 0.8449612855911255 -0.5503806471824646
-0.3333333134651184 0.8449612855911255 -0.5125297904014587
-0.3333333134651184 0.8604651689529419 -0.548166811466217
-0.3333333134651184 0.8604651689529419 -0.5052564144134521
-0.3333333134651184 0.875968873500824 -0.5448250770568848
-0.3333333134651184 0.8759689331054688 -0.500403642654419
-0.3333333134651184 0.8914728164672852 -0.5408596992492676
-0.3333333134651184 0.8914728164672852 -0.48830142617225647
-0.3333333134651184 0.9069766998291016 -0.5365530848503113
-0.3333333134651184 0.9069766998291016 -0.48207923769950867
-0.3333333134651184 0.922480583190918 -0.5209618806838989
-0.3333333134651184 0.922480583190918 -0.47468963265419006
-0.317829430103302 -0.751937985420227 -0.5212556719779968
-0.317829430103302 -0.751937985420227 -0.5178670883178711
-0.317829430103302 -0.7364341020584106 -0.5217194557189941
-0.317829430103302 -0.7364341020584106 -0.517248272895813
-0.317829430103302 -0.7209302186965942 -0.5212334990501404
-0.317829430103302 -0.7209301590919495 -0.5171053409576416
-0.317829430103302 -0.7054263353347778 -0.5207548141479492
-0.317829430103302 -0.7054263353347778 -0.5170259475708008
-0.317829430103302 -0.6899224519729614 -0.5200579762458801
-0.317829430103302 -0.6899224519729614 -0.5176297426223755
-0.317829430103302 -0.674418568611145 -0.5193874835968018
-0.317829430103302 -0.674418568611145 -0.5193431377410889
-0.317829430103302 -0.643410861492157 -0.5194811820983887
-0.3178294599056244 -0.643410861492157 -0.5183777213096619
-0.317829430103302 -0.6279069781303406 -0.5198790431022644
-0.317829430103302 -0.6279069781303406 -0.516309916973114
-0.317829430103302 -0.6124030947685242 -0.5203371047973633
-0.317829430103302 -0.6124030947685242 -0.5157839059829712
-0.317829430103302 -0.596899151802063 -0.5206894874572754
-0.317829430103302 -0.5968992114067078 -0.5158193707466125
-0.317829430103302 -0.5813953876495361 -0.52088463306427
-0.317829430103302 -0.5813953876495361 -0.5160378217697144
-0.317829430103302 -0.5658915042877197 -0.5208994150161743
-0.317829430103302 -0.5658915042877197 -0.5162167549133301
-0.317829430103302 -0.5503876209259033 -0.5207576751708984
-0.317829430103302 -0.5503876209259033 -0.5163604617118835
-0.317829430103302 -0.5348837375640869 -0.5206564664840698
-0.317829430103302 -0.5348837375640869 -0.5165152549743652
-0.317829430103302 -0.5193798542022705 -0.5205256938934326
-0.317829430103302 -0.5193798542022705 -0.5167790651321411
-0.317829430103302 -0.5038759708404541 -0.5204693078994751
-0.317829430103302 -0.5038759708404541 -0.5170314311981201
-0.317829430103302 -0.4883720874786377 -0.520534873008728
-0.317829430103302 -0.4883720874786377 -0.5171888470649719
-0.317829430103302 -0.4728682041168213 -0.5206817388534546
-0.317829430103302 -0.4728682041168213 -0.5173080563545227
-0.317829430103302 -0.4573643207550049 -0.520877480506897
-0.317829430103302 -0.45736435055732727 -0.5174030661582947
-0.317829430103302 -0.4418604373931885 -0.5210828185081482
-0.317829430103302 -0.4418604373931885 -0.5175030827522278
-0.317829430103302 -0.42635661363601685 -0.521344780921936
-0.317829430103302 -0.42635661363601685 -0.5173808336257935
-0.317829430103302 -0.41085273027420044 -0.5215805768966675
-0.317829430103302 -0.41085273027420044 -0.5170550346374512
-0.317829430103302 -0.39534884691238403 -0.5216660499572754
-0.317829430103302 -0.39534884691238403 -0.5167219638824463
-0.317829430103302 -0.3798449635505676 -0.5216647386550903
-0.317829430103302 -0.3798449635505676 -0.5164000988006592
-0.317829430103302 -0.3643410801887512 -0.521732747554779
-0.317829430103302 -0.3643410801887512 -0.5160760283470154
-0.317829430103302 -0.3488371968269348 -0.5216928124427795
-0.317829430103302 -0.3488371968269348 -0.515640139579773
-0.317829430103302 -0.3333333134651184 -0.5216153860092163
-0.317829430103302 -0.3333333134651184 -0.5151647925376892
-0.317829430103302 -0.317829430103302 -0.5215869545936584
-0.317829430103302 -0.317829430103302 -0.5150831937789917
-0.317829430103302 -0.30232560634613037 -0.5215682983398438
-0.317829430103302 -0.30232560634613037 -0.5152829885482788
-0.317829430103302 -0.28682172298431396 -0.5216066241264343
-0.317829430103302 -0.28682172298431396 -0.5156164169311523
-0.317829430103302 -0.27131783962249756 -0.5218040943145752
-0.317829430103302 -0.27131783962249756 -0.5160245895385742
-0.317829430103302 -0.25581395626068115 -0.5221242904663086
-0.317829430103302 -0.25581395626068115 -0.5163147449493408
-0.317829430103302 -0.24031007289886475 -0.5224303007125854
-0.317829430103302 -0.24031007289886475 -0.5165097713470459
-0.317829430103302 -0.22480618953704834 -0.522657036781311
-0.317829430103302 -0.22480618953704834 -0.5166549682617188
-0.317829430103302 -0.20930230617523193 -0.5227946639060974
-0.317829430103302 -0.20930230617523193 -0.5167528390884399
-0.317829430103302 -0.19379842281341553 -0.5229594111442566
-0.317829430103302 -0.19379842281341553 -0.5167781710624695
-0.317829430103302 -0.1782945990562439 -0.5230847597122192
-0.317829430103302 -0.1782945841550827 -0.5167415738105774
-0.317829430103302 -0.1627907156944275 -0.5231719017028809
-0.317829430103302 -0.1627907156944275 -0.5166958570480347
-0.317829430103302 -0.14728683233261108 -0.5232657790184021
-0.317829430103302 -0.14728683233261108 -0.5167021751403809
-0.317829430103302 -0.13178294897079468 -0.5233281254768372
-0.317829430103302 -0.13178294897079468 -0.5166964530944824
-0.317829430103302 -0.11627906560897827 -0.5234063267707825
-0.317829430103302 -0.11627906560897827 -0.5166594982147217
-0.317829430103302 -0.10077518224716187 -0.5235282182693481
-0.317829430103302 -0.10077518224716187 -0.5166069269180298
-0.317829430103302 -0.08527129888534546 -0.5237221717834473
-0.317829430103302 -0.08527129888534546 -0.516358494758606
-0.317829430103302 -0.06976741552352905 -0.523932158946991
-0.317829430103302 -0.06976741552352905 -0.5158753395080566
-0.317829430103302 -0.05426359176635742 -0.5241667032241821
-0.317829430103302 -0.05426359176635742 -0.5151944160461426
-0.317829430103302 -0.038759708404541016 -0.5244083404541016
-0.317829430103302 -0.038759708404541016 -0.5143370628356934
-0.317829430103302 -0.02325582504272461 -0.5245861411094666
-0.317829430103302 -0.02325582504272461 -0.513756513595581
-0.317829430103302 -0.007751941680908203 -0.524709939956665
-0.317829430103302 -0.007751941680908203 -0.5136752724647522
-0.317829430103302 0.007751941680908203 -0.5248901844024658
-0.317829430103302 0.007751941680908203 -0.5138765573501587
-0.317829430103302 0.02325582504272461 -0.5250727534294128
-0.317829430103302 0.02325582504272461 -0.5142450928688049
-0.317829430103302 0.038759708404541016 -0.5251772999763489
-0.317829430103302 0.038759708404541016 -0.5146133899688721
-0.317829430103302 0.05426359176635742 -0.5253650546073914
-0.317829430103302 0.05426359176635742 -0.5148995518684387
-0.317829430103302 0.06976747512817383 -0.5257458686828613
-0.317829430103302 0.06976747512817383 -0.5153927206993103
-0.317829430103302 0.08527135848999023 -0.5262306928634644
-0.317829430103302 0.08527135848999023 -0.5157378315925598
-0.317829430103302 0.10077524185180664 -0.5268937349319458
-0.317829430103302 0.10077524185180664 -0.5162002444267273
-0.317829430103302 0.11627911776304245 -0.5277342796325684
-0.317829430103302 0.11627913266420364 -0.5166502594947815
-0.317829430103302 0.1317828893661499 -0.5287622809410095
-0.317829430103302 0.1317828893661499 -0.5170286893844604
-0.317829430103302 0.1472867727279663 -0.5298290252685547
-0.317829430103302 0.1472867727279663 -0.5172897577285767
-0.317829430103302 0.16279065608978271 -0.5309227705001831
-0.317829430103302 0.16279065608978271 -0.5175130367279053
-0.3178294003009796 0.17829452455043793 -0.5324147939682007
-0.317829430103302 0.17829453945159912 -0.5178506970405579
-0.317829430103302 0.19379842281341553 -0.5349525213241577
-0.317829430103302 0.19379842281341553 -0.5186157822608948
-0.317829430103302 0.20930230617523193 -0.5355401039123535
-0.317829430103302 0.20930230617523193 -0.5282684564590454
-0.317829430103302 0.22480618953704834 -0.535979688167572
-0.317829430103302 0.22480618953704834 -0.5310875177383423
-0.317829430103302 0.24031007289886475 -0.5363865494728088
-0.3178294599056244 0.24031008780002594 -0.5319510102272034
-0.317829430103302 0.25581395626068115 -0.5366039276123047
-0.317829430103302 0.25581395626068115 -0.5323935151100159
-0.317829430103302 0.27131783962249756 -0.5367470979690552
-0.317829430103302 0.27131783962249756 -0.5325750112533569
-0.317829430103302 0.28682172298431396 -0.5368998050689697
-0.317829430103302 0.28682172298431396 -0.5325353145599365
-0.317829430103302 0.30232560634613037 -0.5371851325035095
-0.3178294003009796 0.30232560634613037 -0.5322490930557251
-0.317829430103302 0.3178294897079468 -0.5374456644058228
-0.317829430103302 0.3178294897079468 -0.5318617224693298
-0.317829430103302 0.3333333730697632 -0.5378428101539612
-0.317829430103302 0.3333333730697632 -0.5311509370803833
-0.317829430103302 0.3488372564315796 -0.5381274223327637
-0.317829430103302 0.3488372564315796 -0.529704749584198
-0.317829430103302 0.364341139793396 -0.5381630659103394
-0.317829430103302 0.364341139793396 -0.5281941890716553
-0.317829430103302 0.37984490394592285 -0.5380339026451111
-0.317829430103302 0.37984490394592285 -0.5268319249153137
-0.317829430103302 0.39534878730773926 -0.5376541614532471
-0.317829430103302 0.39534878730773926 -0.5239495038986206
-0.317829430103302 0.41085267066955566 -0.537100076675415
-0.317829430103302 0.41085270047187805 -0.519096851348877
-0.317829430103302 0.42635655403137207 -0.5363417863845825
-0.317829430103302 0.42635655403137207 -0.5183908343315125
-0.317829430103302 0.4418604373931885 -0.5351547002792358
-0.317829430103302 0.44186046719551086 -0.5177482962608337
-0.317829430103302 0.4573643207550049 -0.5271769762039185
-0.317829430103302 0.4573642909526825 -0.5170149803161621
-0.317829430103302 0.4728682041168213 -0.523423433303833
-0.317829430103302 0.4728682041168213 -0.5161389708518982
-0.317829430103302 0.4883720874786377 -0.5199437737464905
-0.317829430103302 0.4883720874786377 -0.5182820558547974
-0.317829430103302 0.5813953876495361 -0.5136362314224243
-0.3178294599056244 0.5813954472541809 -0.5035193562507629
-0.317829430103302 0.5968992710113525 -0.5223805904388428
-0.317829430103302 0.5968992710113525 -0.5063450336456299
-0.317829430103302 0.612403154373169 -0.5245515704154968
-0.317829430103302 0.612403154373169 -0.5099210143089294
-0.317829430103302 0.6279069185256958 -0.5279345512390137
-0.317829430103302 0.6279069185256958 -0.5116601586341858
-0.317829430103302 0.6434108018875122 -0.5346269011497498
-0.317829430103302 0.6434108018875122 -0.5116429924964905
-0.317829430103302 0.6589146852493286 -0.5358709096908569
-0.317829430103302 0.6589146852493286 -0.5105970501899719
-0.317829430103302 0.674418568611145 -0.536922812461853
-0.317829430103302 0.674418568611145 -0.5092533230781555
-0.317829430103302 0.6899224519729614 -0.5380702614784241
-0.317829430103302 0.6899224519729614 -0.5067561864852905
-0.317829430103302 0.7054263353347778 -0.5396435260772705
-0.317829430103302 0.7054263353347778 -0.5037160515785217
-0.317829430103302 0.7209302186965942 -0.5415763258934021
-0.3178294003009796 0.7209302186965942 -0.5027387142181396
-0.317829430103302 0.7364341020584106 -0.5433916449546814
-0.317829430103302 0.7364341020584106 -0.5010547041893005
-0.317829430103302 0.751937985420227 -0.5445475578308105
-0.317829430103302 0.751937985420227 -0.49924635887145996
-0.317829430103302 0.7674418687820435 -0.5449829697608948
-0.317829430103302 0.7674418091773987 -0.49953198432922363
-0.317829430103302 0.7829457521438599 -0.5449355840682983
-0.317829430103302 0.7829457521438599 -0.5016140937805176
-0.317829430103302 0.7984496355056763 -0.5453749895095825
-0.317829430103302 0.7984496355056763 -0.503226637840271
-0.317829430103302 0.8139535188674927 -0.5464983582496643
-0.317829430103302 0.8139535188674927 -0.5065696239471436
-0.317829430103302 0.8294574022293091 -0.5476757884025574
-0.317829430103302 0.8294574022293091 -0.5095968246459961
-0.317829430103302 0.8449612855911255 -0.5480510592460632
-0.317829430103302 0.8449612855911255 -0.5052592754364014
-0.317829430103302 0.8604651689529419 -0.5463918447494507
-0.317829430103302 0.8604651689529419 -0.5015820860862732
-0.317829430103302 0.8759689331054688 -0.5432203412055969
-0.317829430103302 0.8759689331054688 -0.4937692880630493
-0.317829430103302 0.8914728164672852 -0.5393503308296204
-0.3178294599056244 0.8914728164672852 -0.48508721590042114
-0.317829430103302 0.9069766998291016 -0.5360071063041687
-0.3178294599056244 0.9069767594337463 -0.4716987907886505
-0.317829430103302 0.922480583190918 -0.5221416354179382
-0.317829430103302 0.922480583190918 -0.4670853018760681
-0.30232560634613037 -0.751937985420227 -0.521560549736023
-0.30232563614845276 -0.751937985420227 -0.5177186727523804
-0.30232560634613037 -0.7364341020584106 -0.5219039916992188
-0.30232560634613037 -0.7364341020584106 -0.5171350836753845
-0.30232560634613037 -0.7209302186965942 -0.5213804244995117
-0.30232560634613037 -0.7209302186965942 -0.5169251561164856
-0.30232560634613037 -0.7054263353347778 -0.5209338665008545
-0.30232560634613037 -0.7054263353347778 -0.5167074799537659
-0.30232560634613037 -0.6899224519729614 -0.5203782320022583
-0.30232560634613037 -0.6899224519729614 -0.5168287754058838
-0.30232560634613037 -0.674418568611145 -0.5198067426681519
-0.30232560634613037 -0.674418568611145 -0.517341136932373
-0.30232560634613037 -0.6589146852493286 -0.5195527672767639
-0.30232560634613037 -0.6589146852493286 -0.5175873041152954
-0.30232560634613037 -0.643410861492157 -0.519705593585968
-0.30232560634613037 -0.643410861492157 -0.5152009725570679
-0.30232560634613037 -0.6279069781303406 -0.5200151801109314
-0.30232560634613037 -0.6279069781303406 -0.5140536427497864
-0.30232560634613037 -0.6124030351638794 -0.5204432606697083
-0.30232560634613037 -0.6124030947685242 -0.5141363143920898
-0.30232560634613037 -0.5968992114067078 -0.5207896828651428
-0.30232560634613037 -0.5968992114067078 -0.5146481990814209
-0.30232560634613037 -0.5813953876495361 -0.5209842324256897
-0.30232560634613037 -0.5813953876495361 -0.5152747631072998
-0.30232560634613037 -0.5658915042877197 -0.520996630191803
-0.30232560634613037 -0.5658915042877197 -0.5157008767127991
-0.30232560634613037 -0.5503876209259033 -0.5208435654640198
-0.30232560634613037 -0.5503876209259033 -0.5159712433815002
-0.30232560634613037 -0.5348837375640869 -0.5207316875457764
-0.30232560634613037 -0.5348837375640869 -0.5162403583526611
-0.30232560634613037 -0.5193798542022705 -0.5205937027931213
-0.30232560634613037 -0.5193798542022705 -0.5165672302246094
-0.30232560634613037 -0.5038759708404541 -0.5205227732658386
-0.302325576543808 -0.5038759708404541 -0.5168780088424683
-0.30232560634613037 -0.4883720874786377 -0.5205693244934082
-0.30232560634613037 -0.4883720874786377 -0.5170876383781433
