-0.038759708404541016 0.7674418687820435 -0.5393638610839844
-0.038759708404541016 0.7674418687820435 -0.3695322275161743
-0.038759708404541016 0.7674418687820435 -0.3439675569534302
-0.038759708404541016 0.7674418687820435 0.11624464392662048
-0.038759708404541016 0.7829457521438599 -0.5461674332618713
-0.038759708404541016 0.7829458117485046 -0.3603905737400055
-0.038759708404541016 0.7829457521438599 -0.16898727416992188
-0.038759708404541016 0.7829457521438599 0.1030380129814148
-0.038759708404541016 0.7984496355056763 -0.5502004623413086
-0.038759708404541016 0.7984496355056763 -0.36005306243896484
-0.038759708404541016 0.7984496355056763 -0.13363653421401978
-0.038759708404541016 0.7984496355056763 0.08380734175443649
-0.038759708404541016 0.8139535188674927 -0.5519954562187195
-0.038759708404541016 0.8139535188674927 -0.36388546228408813
-0.038759708404541016 0.8139535188674927 -0.0724683478474617
-0.038759708404541016 0.8139535188674927 0.0549195222556591
-0.038759708404541016 0.8294574022293091 -0.5525562167167664
-0.038759708404541016 0.8294574022293091 -0.3708369731903076
-0.038759708404541016 0.8294574022293091 -0.019379861652851105
-0.038759708404541016 0.8294574022293091 0.012481091544032097
-0.038759708404541016 0.8449612855911255 -0.5525758266448975
-0.038759708404541016 0.8449612855911255 -0.3727980852127075
-0.038759708404541016 0.8604651689529419 -0.5525985956192017
-0.038759708404541016 0.8604651689529419 -0.36891138553619385
-0.038759708404541016 0.8759689331054688 -0.5522224307060242
-0.038759708404541016 0.8759689331054688 -0.3480727970600128
-0.038759708404541016 0.8914728164672852 -0.5503197312355042
-0.038759708404541016 0.8914728164672852 -0.30027034878730774
-0.038759708404541016 0.9069766998291016 -0.5458937287330627
-0.038759708404541016 0.9069766998291016 -0.2671068012714386
-0.038759708404541016 0.922480583190918 -0.5350955724716187
-0.038759708404541016 0.922480583190918 -0.23748020827770233
-0.038759708404541016 0.9379844665527344 -0.5046695470809937
-0.038759708404541016 0.9379844665527344 -0.24051649868488312
-0.02325582504272461 -0.8759689927101135 0.20925840735435486
-0.02325582504272461 -0.8759689927101135 0.3276778757572174
-0.02325582504272461 -0.8604651093482971 0.18814244866371155
-0.02325582504272461 -0.8604651093482971 0.36329346895217896
-0.02325582690536976 -0.8449612259864807 0.06994511932134628
-0.02325582504272461 -0.8449612855911255 0.3986318111419678
-0.02325582504272461 -0.8294573426246643 0.03511524200439453
-0.02325582504272461 -0.8294573426246643 0.42482656240463257
-0.02325582504272461 -0.8139535188674927 0.013297454454004765
-0.02325582504272461 -0.8139535188674927 0.44011884927749634
-0.02325582504272461 -0.7984496355056763 -0.006577940657734871
-0.02325582504272461 -0.7984496355056763 0.45267453789711
-0.02325582504272461 -0.7829457521438599 -0.02390408329665661
-0.02325582504272461 -0.7829457521438599 0.4650474190711975
-0.02325582504272461 -0.7674418687820435 -0.03907196596264839
-0.02325582504272461 -0.7674418687820435 0.481558620929718
-0.02325582504272461 -0.751937985420227 -0.04842806234955788
-0.02325582504272461 -0.751937985420227 0.5030257701873779
-0.02325582504272461 -0.7364341020584106 -0.05705919489264488
-0.02325582504272461 -0.7364341020584106 0.5251135230064392
-0.02325582504272461 -0.7209302186965942 -0.06546971946954727
-0.02325582504272461 -0.7209302186965942 0.5271006226539612
-0.02325582504272461 -0.7054263353347778 -0.07492409646511078
-0.02325582504272461 -0.7054263353347778 0.5277116894721985
-0.02325582504272461 -0.6899224519729614 -0.0862322598695755
-0.02325582504272461 -0.6899224519729614 0.525894284248352
-0.02325582504272461 -0.6744185090065002 -0.09863323718309402
-0.02325582504272461 -0.674418568611145 0.5242376327514648
-0.02325582504272461 -0.6589146852493286 -0.10928316414356232
-0.02325582504272461 -0.6589146852493286 0.5250179767608643
-0.02325582504272461 -0.643410861492157 -0.11741117388010025
-0.02325582504272461 -0.643410861492157 0.5259734392166138
-0.02325582504272461 -0.6279069781303406 -0.12597596645355225
-0.02325582504272461 -0.6279069781303406 0.5277605652809143
-0.02325582504272461 -0.6124030947685242 -0.1348932683467865
-0.02325582504272461 -0.6124030947685242 0.5293683409690857
-0.02325582318007946 -0.596899151802063 -0.14478659629821777
-0.02325582504272461 -0.5968992114067078 0.5299463868141174
-0.02325582504272461 -0.5813953876495361 -0.15020349621772766
-0.02325582504272461 -0.5813953876495361 0.528953492641449
-0.02325582504272461 -0.5658915042877197 -0.15314675867557526
-0.02325582504272461 -0.5658915042877197 0.5268634557723999
-0.02325582504272461 -0.5503876209259033 -0.15464872121810913
-0.02325582504272461 -0.5503876209259033 0.5245212316513062
-0.02325582504272461 -0.5348837375640869 -0.1553054302930832
-0.02325582504272461 -0.5348837375640869 0.522335410118103
-0.02325582504272461 -0.5193798542022705 -0.15693750977516174
-0.02325582504272461 -0.5193798542022705 0.5211859345436096
-0.02325582504272461 -0.5038759708404541 -0.16038326919078827
-0.02325582504272461 -0.5038759708404541 0.5207033157348633
-0.02325582504272461 -0.4883720874786377 -0.1633252650499344
-0.02325582504272461 -0.4883720874786377 0.5207386612892151
-0.02325582504272461 -0.4728682041168213 -0.16546425223350525
-0.02325582504272461 -0.4728682041168213 0.5211579203605652
-0.02325582504272461 -0.4573643207550049 -0.16957727074623108
-0.02325582504272461 -0.4573643207550049 0.04979725554585457
-0.02325582504272461 -0.4573643207550049 0.0938909500837326
-0.02325582504272461 -0.4573643207550049 0.24521808326244354
-0.02325582504272461 -0.4573643207550049 0.2894788384437561
-0.02325582504272461 -0.4573643207550049 0.5220757722854614
-0.02325582690536976 -0.4418604373931885 -0.17611730098724365
-0.02325582504272461 -0.4418604373931885 0.017577039077878
-0.02325582504272461 -0.4418604373931885 0.1197119653224945
-0.02325582504272461 -0.4418604373931885 0.23044894635677338
-0.02325582504272461 -0.4418604373931885 0.31022506952285767
-0.02325582504272461 -0.4418604373931885 0.5231488943099976
-0.02325582504272461 -0.42635661363601685 -0.1792246550321579
-0.02325582504272461 -0.42635661363601685 0.022243361920118332
-0.02325582504272461 -0.42635658383369446 0.15149137377738953
-0.02325582504272461 -0.42635661363601685 0.22080595791339874
-0.02325582504272461 -0.42635661363601685 0.3207584619522095
-0.02325582504272461 -0.42635661363601685 0.5233078002929688
-0.02325582504272461 -0.41085273027420044 -0.18044766783714294
-0.02325582504272461 -0.41085273027420044 0.0348476804792881
-0.02325582504272461 -0.41085273027420044 0.18919000029563904
-0.02325582504272461 -0.41085273027420044 0.19993925094604492
-0.02325582504272461 -0.41085273027420044 0.3285125195980072
-0.02325582504272461 -0.41085273027420044 0.5219666957855225
-0.02325582504272461 -0.39534884691238403 -0.18012063205242157
-0.02325582504272461 -0.39534884691238403 0.04896332696080208
-0.02325582504272461 -0.39534884691238403 0.3238126039505005
-0.02325582504272461 -0.39534884691238403 0.5197551846504211
-0.02325582504272461 -0.3798449635505676 -0.1787596344947815
-0.02325582504272461 -0.3798449635505676 0.06504984945058823
-0.02325582504272461 -0.3798449635505676 0.3132457435131073
-0.02325582504272461 -0.3798449635505676 0.5164694786071777
-0.02325582504272461 -0.3643410801887512 -0.17571915686130524
-0.02325582504272461 -0.3643410801887512 0.07952049374580383
-0.02325582504272461 -0.3643410801887512 0.28133076429367065
-0.02325582504272461 -0.3643410801887512 0.5131890773773193
-0.02325582504272461 -0.3488371968269348 -0.17252327501773834
-0.02325582504272461 -0.3488371968269348 0.08619532734155655
-0.02325582504272461 -0.3488371968269348 0.18685156106948853
-0.02325582504272461 -0.3488371968269348 0.5071633458137512
-0.02325582504272461 -0.3333333134651184 -0.17229348421096802
-0.02325582504272461 -0.3333333134651184 0.08382931351661682
-0.02325582504272461 -0.3333333134651184 0.16636694967746735
-0.02325582504272461 -0.3333333134651184 0.5024110078811646
-0.02325582504272461 -0.317829430103302 -0.17557241022586823
-0.02325582504272461 -0.317829430103302 0.07103526592254639
-0.02325582504272461 -0.317829430103302 0.16573147475719452
-0.02325582504272461 -0.317829430103302 0.4987499713897705
-0.02325582504272461 -0.30232560634613037 -0.18001578748226166
-0.02325582504272461 -0.30232560634613037 0.027971912175416946
-0.02325582504272461 -0.30232560634613037 0.17212462425231934
-0.02325582504272461 -0.30232560634613037 0.4938547611236572
-0.02325582504272461 -0.28682172298431396 -0.18802078068256378
-0.02325582504272461 -0.28682172298431396 -0.004294135142117739
-0.02325582504272461 -0.28682172298431396 0.1852821409702301
-0.02325582504272461 -0.28682172298431396 0.48913121223449707
-0.02325582504272461 -0.27131783962249756 -0.1969095766544342
-0.02325582504272461 -0.27131783962249756 -0.03574351221323013
-0.02325582504272461 -0.27131783962249756 0.2000131756067276
-0.02325582504272461 -0.27131783962249756 0.48499026894569397
-0.02325582504272461 -0.25581395626068115 -0.20730406045913696
-0.02325582504272461 -0.25581395626068115 -0.040347032248973846
-0.02325582504272461 -0.25581395626068115 0.21827661991119385
-0.02325582504272461 -0.25581395626068115 0.48091813921928406
-0.02325582504272461 -0.24031007289886475 -0.21597670018672943
-0.02325582504272461 -0.24031007289886475 -0.03893232345581055
-0.02325582504272461 -0.24031007289886475 0.23444592952728271
-0.02325582504272461 -0.24031007289886475 0.47464823722839355
-0.02325582504272461 -0.22480618953704834 -0.2258410006761551
-0.02325582690536976 -0.22480620443820953 -0.036274317651987076
-0.02325582504272461 -0.22480617463588715 0.22682976722717285
-0.02325582504272461 -0.22480618953704834 0.469254732131958
-0.02325582504272461 -0.20930230617523193 -0.23297888040542603
-0.02325582690536976 -0.20930230617523193 -0.035452354699373245
-0.02325582504272461 -0.20930229127407074 0.21020005643367767
-0.02325582504272461 -0.20930230617523193 0.4637910723686218
-0.02325582504272461 -0.19379842281341553 -0.23839424550533295
-0.02325582504272461 -0.19379842281341553 -0.03656286746263504
-0.02325582504272461 -0.19379842281341553 0.19933104515075684
-0.02325582504272461 -0.19379842281341553 0.45622557401657104
-0.02325582504272461 -0.1782945990562439 -0.24070583283901215
-0.02325582504272461 -0.1782945990562439 -0.03657858073711395
-0.02325582504272461 -0.1782945990562439 0.19008591771125793
-0.02325582504272461 -0.1782945990562439 0.45066267251968384
-0.02325582504272461 -0.1627907156944275 -0.2405315637588501
-0.02325582504272461 -0.1627907156944275 -0.035502154380083084
-0.02325582504272461 -0.1627907156944275 0.18103280663490295
-0.02325582504272461 -0.1627907156944275 0.4426434636116028
-0.02325582504272461 -0.14728683233261108 -0.2392629235982895
-0.02325582504272461 -0.14728683233261108 -0.03250546380877495
-0.02325582504272461 -0.14728683233261108 0.17199048399925232
-0.02325582504272461 -0.14728683233261108 0.4373074769973755
-0.02325582504272461 -0.13178294897079468 -0.2375665009021759
-0.02325582504272461 -0.13178294897079468 -0.029574308544397354
-0.02325582504272461 -0.13178294897079468 0.16170766949653625
-0.02325582504272461 -0.13178294897079468 0.4313809275627136
-0.02325582504272461 -0.11627906560897827 -0.23643939197063446
-0.02325582504272461 -0.11627906560897827 -0.026741135865449905
-0.02325582504272461 -0.11627906560897827 0.14903974533081055
-0.02325582504272461 -0.11627906560897827 0.4254782795906067
-0.02325582504272461 -0.10077518224716187 -0.23595677316188812
-0.02325582504272461 -0.10077518224716187 -0.026448547840118408
-0.02325582504272461 -0.10077518224716187 0.13269761204719543
-0.02325582504272461 -0.10077518224716187 0.42230018973350525
-0.02325582504272461 -0.08527129888534546 -0.23636828362941742
-0.02325582504272461 -0.08527129888534546 -0.03246050700545311
-0.02325582504272461 -0.08527129888534546 0.09544339030981064
-0.02325582504272461 -0.08527129888534546 0.41948145627975464
-0.02325582504272461 -0.06976741552352905 -0.2363486886024475
-0.02325582504272461 -0.06976741552352905 -0.04064313322305679
-0.02325582504272461 -0.06976741552352905 0.06446092575788498
-0.02325582504272461 -0.06976741552352905 0.41549167037010193
-0.02325582504272461 -0.05426359176635742 -0.23560857772827148
-0.02325582504272461 -0.05426359176635742 -0.044322311878204346
-0.02325582504272461 -0.05426359176635742 0.051592305302619934
-0.02325582504272461 -0.05426359176635742 0.4111788868904114
-0.02325582504272461 -0.038759708404541016 -0.23496893048286438
-0.02325582504272461 -0.038759708404541016 -0.04332205653190613
-0.02325582504272461 -0.038759708404541016 0.043475739657878876
-0.02325582504272461 -0.038759708404541016 0.40790703892707825
-0.02325582504272461 -0.02325582504272461 -0.23387667536735535
-0.02325582690536976 -0.02325582690536976 -0.038118667900562286
-0.02325582504272461 -0.02325582504272461 0.03909007087349892
-0.02325582504272461 -0.02325582504272461 0.4055679440498352
-0.02325582504272461 -0.007751941680908203 -0.23164258897304535
-0.02325582504272461 -0.007751941680908203 -0.024771276861429214
-0.02325582504272461 -0.007751941680908203 0.03928389027714729
-0.02325582504272461 -0.007751941680908203 0.4017491340637207
-0.02325582504272461 0.007751941680908203 -0.22890177369117737
-0.02325582504272461 0.007751941680908203 -0.017456168308854103
-0.02325582504272461 0.007751941680908203 0.06500442326068878
-0.02325582504272461 0.007751941680908203 0.3951294422149658
-0.02325582504272461 0.02325582504272461 -0.2271556258201599
-0.02325582504272461 0.02325582504272461 -0.02006504498422146
-0.02325582504272461 0.02325582504272461 0.08936034888029099
-0.02325582504272461 0.02325582504272461 0.3909483253955841
-0.02325582504272461 0.038759708404541016 -0.2250884622335434
-0.02325582504272461 0.038759708404541016 -0.029507078230381012
-0.02325582504272461 0.038759708404541016 0.09565170854330063
-0.02325582504272461 0.038759708404541016 0.38592103123664856
-0.02325582504272461 0.05426359176635742 -0.2234174758195877
-0.02325582504272461 0.05426359176635742 -0.04030856862664223
-0.02325582504272461 0.05426359176635742 0.09421149641275406
-0.02325582504272461 0.05426359176635742 0.3788600564002991
-0.02325582504272461 0.06976747512817383 -0.22245758771896362
-0.02325582504272461 0.06976747512817383 -0.048415496945381165
-0.02325582504272461 0.06976747512817383 0.08440584689378738
-0.02325582504272461 0.06976747512817383 0.37545379996299744
-0.02325582504272461 0.08527135848999023 -0.22230301797389984
-0.02325582504272461 0.08527135848999023 -0.05347360298037529
-0.02325582504272461 0.08527135848999023 0.08139248192310333
-0.02325582504272461 0.08527135848999023 0.10654839873313904
-0.02325582504272461 0.08527135848999023 0.16149964928627014
-0.02325582504272461 0.08527135848999023 0.37220466136932373
-0.02325582504272461 0.10077524185180664 -0.22251376509666443
-0.02325582504272461 0.10077524185180664 -0.05668758600950241
-0.02325582504272461 0.10077524185180664 0.17624494433403015
-0.02325582504272461 0.10077524185180664 0.3674429655075073
-0.02325582504272461 0.11627912521362305 -0.22218194603919983
-0.02325582504272461 0.11627912521362305 -0.06007102131843567
-0.02325582504272461 0.11627912521362305 0.18215902149677277
-0.02325582504272461 0.11627912521362305 0.36246439814567566
-0.02325582504272461 0.1317828893661499 -0.22092416882514954
-0.02325582504272461 0.1317828893661499 -0.0646577775478363
-0.02325582504272461 0.1317828893661499 0.18253998458385468
-0.02325582504272461 0.1317828893661499 0.35979363322257996
-0.02325582504272461 0.1472867727279663 -0.2193821668624878
-0.02325582504272461 0.1472867727279663 -0.07082296907901764
-0.02325582504272461 0.1472867727279663 0.18166190385818481
-0.02325582504272461 0.1472867727279663 0.35666316747665405
-0.02325582504272461 0.16279065608978271 -0.21781888604164124
-0.02325582504272461 0.16279065608978271 -0.07794713973999023
-0.02325582504272461 0.16279065608978271 0.17826059460639954
-0.02325582504272461 0.16279065608978271 0.3519982099533081
-0.02325582504272461 0.17829453945159912 -0.21592451632022858
-0.02325582504272461 0.17829453945159912 -0.08320031315088272
-0.02325582504272461 0.17829453945159912 0.16901645064353943
-0.02325582504272461 0.17829453945159912 0.346083402633667
-0.02325582504272461 0.19379842281341553 -0.21296042203903198
-0.02325582504272461 0.19379842281341553 -0.08666843175888062
-0.02325582504272461 0.19379842281341553 0.1549326777458191
-0.02325582504272461 0.19379842281341553 0.3430989384651184
-0.02325582504272461 0.20930230617523193 -0.21010150015354156
-0.02325582504272461 0.20930230617523193 -0.08956041932106018
-0.02325582504272461 0.20930230617523193 0.12315207719802856
-0.02325582504272461 0.20930230617523193 0.33879464864730835
-0.02325582504272461 0.22480618953704834 -0.2067449390888214
-0.02325582504272461 0.22480618953704834 -0.09306775033473969
-0.02325582504272461 0.22480618953704834 0.09038496017456055
-0.02325582504272461 0.22480618953704834 0.3324543833732605
-0.02325582504272461 0.24031007289886475 -0.2046372890472412
-0.02325582504272461 0.24031007289886475 -0.0987909734249115
-0.02325582504272461 0.24031007289886475 0.0832863450050354
-0.02325582504272461 0.24031007289886475 0.328583300113678
-0.02325582504272461 0.25581395626068115 -0.20386731624603271
-0.02325582504272461 0.25581395626068115 -0.1061549186706543
-0.02325582504272461 0.25581395626068115 0.08009683340787888
-0.02325582504272461 0.25581395626068115 0.3258722722530365
-0.02325582504272461 0.27131783962249756 -0.20378196239471436
-0.02325582504272461 0.27131783962249756 -0.11321354657411575
-0.02325582504272461 0.27131783962249756 0.07917715609073639
-0.02325582504272461 0.27131783962249756 0.32226064801216125
-0.02325582504272461 0.28682172298431396 -0.20395967364311218
-0.02325582504272461 0.28682172298431396 -0.12060162425041199
-0.02325582504272461 0.28682172298431396 0.07739798724651337
-0.02325582504272461 0.28682172298431396 0.318461149930954
-0.02325582504272461 0.30232560634613037 -0.20478761196136475
-0.02325582504272461 0.30232560634613037 -0.12743441760540009
-0.02325582504272461 0.30232560634613037 0.07305377721786499
-0.02325582504272461 0.30232560634613037 0.31469830870628357
-0.02325582504272461 0.3178294897079468 -0.20631706714630127
-0.02325582504272461 0.3178294897079468 -0.13304537534713745
-0.02325582504272461 0.3178294897079468 0.06872092932462692
-0.02325582504272461 0.3178294897079468 0.31248000264167786
-0.02325582504272461 0.3333333432674408 -0.20872685313224792
-0.02325582504272461 0.3333333730697632 -0.1352950632572174
-0.02325582504272461 0.3333333730697632 0.061809368431568146
-0.02325582504272461 0.3333333730697632 0.30983421206474304
-0.02325582504272461 0.3488372564315796 -0.2112336903810501
-0.02325582504272461 0.3488372564315796 -0.13176210224628448
-0.02325582504272461 0.3488372564315796 0.04742610454559326
-0.02325582504272461 0.3488372564315796 0.30579718947410583
-0.02325582504272461 0.364341139793396 -0.2121170163154602
-0.02325582504272461 0.364341139793396 -0.1191575825214386
-0.02325582504272461 0.364341139793396 0.022443408146500587
-0.02325582504272461 0.364341139793396 0.3006620705127716
-0.02325582504272461 0.37984490394592285 -0.21010641753673553
-0.02325582318007946 0.37984490394592285 -0.0996091291308403
-0.02325582504272461 0.37984490394592285 -0.038428883999586105
-0.02325582504272461 0.37984490394592285 0.29702451825141907
-0.02325582504272461 0.39534878730773926 -0.20659014582633972
-0.02325582504272461 0.39534878730773926 0.29281312227249146
-0.02325582504272461 0.41085267066955566 -0.20349493622779846
-0.02325582504272461 0.41085267066955566 0.2871069312095642
-0.02325582504272461 0.42635655403137207 -0.19872015714645386
-0.02325582504272461 0.42635655403137207 0.28257888555526733
-0.02325582504272461 0.4418604373931885 -0.19392751157283783
-0.02325582504272461 0.4418604373931885 0.27954334020614624
-0.02325582504272461 0.4573643207550049 -0.19082124531269073
-0.02325582504272461 0.4573643207550049 0.2753355801105499
-0.02325582504272461 0.4728682041168213 -0.1930500864982605
-0.02325582504272461 0.4728682041168213 0.2703304588794708
-0.02325582504272461 0.4883720874786377 -0.2053566724061966
-0.02325582504272461 0.4883720874786377 0.2664758861064911
-0.02325582504272461 0.5038759708404541 -0.2261672019958496
-0.02325582504272461 0.5038759708404541 0.2620139718055725
-0.02325582504272461 0.5193798542022705 -0.25964224338531494
-0.02325582504272461 0.5193798542022705 0.2550758719444275
-0.02325582504272461 0.5348837375640869 -0.29639482498168945
-0.02325582504272461 0.5348837375640869 0.24993446469306946
-0.02325582504272461 0.5503876209259033 -0.316472589969635
-0.02325582504272461 0.5503876209259033 0.24247613549232483
-0.02325582504272461 0.5658915042877197 -0.32962581515312195
-0.02325582504272461 0.5658915042877197 0.23542720079421997
-0.02325582504272461 0.5813953876495361 -0.33985891938209534
-0.02325582504272461 0.5813953876495361 0.2279943823814392
-0.02325582504272461 0.5968992710113525 -0.3488452434539795
-0.02325582504272461 0.5968992710113525 0.22015590965747833
-0.02325582504272461 0.612403154373169 -0.35687685012817383
-0.02325582504272461 0.612403154373169 0.21225711703300476
-0.02325582504272461 0.6279069185256958 -0.36548978090286255
-0.02325582504272461 0.6279069185256958 0.20450642704963684
-0.02325582504272461 0.6434108018875122 -0.3719712495803833
-0.02325582504272461 0.6434108018875122 0.19572961330413818
-0.02325582504272461 0.6589146852493286 -0.37842056155204773
-0.02325582504272461 0.6589146852493286 0.18759801983833313
-0.02325582504272461 0.674418568611145 -0.3817313611507416
-0.02325582504272461 0.674418568611145 0.17645874619483948
-0.02325582504272461 0.6899224519729614 -0.38143932819366455
-0.02325582318007946 0.6899224519729614 0.16729645431041718
-0.02325582504272461 0.7054263353347778 -0.5121956467628479
-0.02325582504272461 0.7054263353347778 -0.4773179292678833
-0.02325582690536976 0.7054263353347778 -0.3753843307495117
-0.02325582504272461 0.7054263353347778 0.1568673849105835
-0.02325582504272461 0.7209302186965942 -0.5256488919258118
-0.02325582318007946 0.7209302186965942 -0.4525415301322937
-0.02325582504272461 0.7209302186965942 -0.367583692073822
-0.02325582504272461 0.7209302186965942 0.1453530341386795
-0.02325582504272461 0.7364341020584106 -0.5363270044326782
-0.02325582504272461 0.7364341020584106 -0.4285129904747009
-0.02325582504272461 0.7364341020584106 -0.35736167430877686
-0.02325582504272461 0.7364341020584106 0.1356283724308014
-0.02325582504272461 0.751937985420227 -0.5443607568740845
-0.02325582504272461 0.751937985420227 -0.4076988995075226
-0.02325582504272461 0.751937985420227 -0.348616361618042
-0.02325582504272461 0.751937985420227 0.12555758655071259
-0.02325582504272461 0.7674418687820435 -0.5524014830589294
-0.02325582504272461 0.7674418687820435 -0.39008083939552307
-0.02325582504272461 0.7674419283866882 -0.3311772346496582
-0.02325582504272461 0.7674418687820435 0.1133001372218132
-0.02325582504272461 0.7829457521438599 -0.5584267377853394
-0.02325582504272461 0.7829457521438599 -0.3767002522945404
-0.02325582504272461 0.7829457521438599 -0.1739111840724945
-0.02325582504272461 0.7829457521438599 0.09841804951429367
-0.02325582504272461 0.7984496355056763 -0.5609725713729858
-0.02325582504272461 0.7984496355056763 -0.3724609613418579
-0.02325582504272461 0.7984496355056763 -0.14604395627975464
-0.02325582504272461 0.7984496355056763 0.07778608798980713
-0.02325582504272461 0.8139535188674927 -0.5615123510360718
-0.02325582504272461 0.8139535188674927 -0.3757041096687317
-0.02325582504272461 0.8139535188674927 -0.12372805923223495
-0.02325582504272461 0.8139535188674927 0.047227270901203156
-0.02325582504272461 0.8294574022293091 -0.5613923072814941
-0.02325582504272461 0.8294574022293091 -0.3795686960220337
-0.02325582504272461 0.8294574022293091 -0.049268223345279694
-0.02325582504272461 0.8294574022293091 0.0026538006495684385
-0.02325582504272461 0.8449612855911255 -0.5610516667366028
-0.02325582504272461 0.8449612855911255 -0.3804938495159149
-0.02325582504272461 0.8604651689529419 -0.5609729290008545
-0.02325582504272461 0.8604651689529419 -0.3761000335216522
-0.02325582504272461 0.8759689331054688 -0.5612194538116455
-0.02325582504272461 0.8759689331054688 -0.35233521461486816
-0.02325582504272461 0.8914728164672852 -0.5606185793876648
-0.02325582504272461 0.8914728164672852 -0.3003922998905182
-0.02325582504272461 0.9069766998291016 -0.5586704015731812
-0.02325582318007946 0.9069766998291016 -0.2696383595466614
-0.02325582504272461 0.9069766998291016 -0.137243390083313
-0.02325582504272461 0.9069766998291016 -0.109074667096138
-0.02325582504272461 0.922480583190918 -0.5498760938644409
-0.02325582504272461 0.922480583190918 -0.24076524376869202
-0.02325582504272461 0.922480583190918 -0.16181020438671112
-0.02325582504272461 0.922480583190918 -0.12128311395645142
-0.02325582504272461 0.9379844665527344 -0.5256214141845703
-0.02325582504272461 0.9379844665527344 -0.23544952273368835
-0.007751941680908203 -0.8604651093482971 0.22392617166042328
-0.007751941680908203 -0.8604651093482971 0.34235212206840515
-0.007751941680908203 -0.8449612259864807 0.20553302764892578
-0.00775194214656949 -0.8449612259864807 0.3808874189853668
-0.007751941680908203 -0.8294573426246643 0.10981524735689163
-0.007751941680908203 -0.8294574022293091 0.15063199400901794
-0.007751941680908203 -0.8294573426246643 0.18538707494735718
-0.007751941680908203 -0.8294572830200195 0.4111213982105255
-0.007751941680908203 -0.8139535188674927 0.04876026138663292
-0.007751941680908203 -0.8139535188674927 0.4308127164840698
-0.007751941680908203 -0.7984496355056763 0.01819419115781784
-0.007751941680908203 -0.7984496355056763 0.44352099299430847
-0.007751941680908203 -0.7829457521438599 -0.005551970563828945
-0.007751941680908203 -0.7829457521438599 0.4564635455608368
-0.007751941680908203 -0.7674418687820435 -0.024653684347867966
-0.007751941680908203 -0.7674418687820435 0.4722151458263397
-0.007751941680908203 -0.751937985420227 -0.0392448827624321
-0.007751941680908203 -0.751937985420227 0.4892628490924835
-0.007751941680908203 -0.7364341020584106 -0.047448329627513885
-0.007751941680908203 -0.7364340424537659 0.5046023726463318
-0.007751941680908203 -0.7209302186965942 -0.056234851479530334
-0.007751941680908203 -0.7209302186965942 0.5091053247451782
-0.007751941680908203 -0.7054263353347778 -0.0644678995013237
-0.007751941215246916 -0.7054263353347778 0.5115163326263428
-0.007751941680908203 -0.6899224519729614 -0.07422072440385818
-0.007751941680908203 -0.6899224519729614 0.5118094682693481
-0.007751941680908203 -0.6744186282157898 -0.08508461713790894
-0.007751941680908203 -0.674418568611145 0.5128366947174072
-0.007751941680908203 -0.6589146852493286 -0.09732045233249664
-0.007751941680908203 -0.6589146852493286 0.5144923329353333
-0.007751941680908203 -0.643410861492157 -0.10558350384235382
-0.007751941680908203 -0.643410861492157 0.5160966515541077
-0.007751941680908203 -0.6279069781303406 -0.11622920632362366
-0.007751941680908203 -0.6279069781303406 0.518761157989502
-0.007751941680908203 -0.6124030947685242 -0.1274421215057373
-0.007751941680908203 -0.6124030947685242 0.5198073983192444
-0.007751941680908203 -0.5968992114067078 -0.1392253339290619
-0.007751941680908203 -0.5968992114067078 0.5200051069259644
-0.007751941680908203 -0.5813953876495361 -0.1477002203464508
-0.007751941680908203 -0.5813953876495361 0.5196094512939453
-0.007751941680908203 -0.5658915042877197 -0.15001952648162842
-0.007751941680908203 -0.5658915042877197 0.5174761414527893
-0.007751941680908203 -0.5503876209259033 -0.14988406002521515
-0.007751941680908203 -0.5503876209259033 0.5151649117469788
-0.007751941680908203 -0.5348837375640869 -0.1486867517232895
-0.007751941680908203 -0.5348837375640869 0.5127265453338623
-0.007751941680908203 -0.5193798542022705 -0.14780861139297485
-0.007751941680908203 -0.5193798542022705 0.5110720992088318
-0.007751941680908203 -0.5038759708404541 -0.14789363741874695
-0.007751941680908203 -0.5038759708404541 0.5102655291557312
-0.007751941680908203 -0.4883720874786377 -0.14884154498577118
-0.007751941680908203 -0.4883720874786377 0.5106934309005737
-0.007751941680908203 -0.4728682041168213 -0.1513163298368454
-0.007751941680908203 -0.4728682041168213 0.5119819641113281
-0.007751941215246916 -0.4573642909526825 -0.1565769910812378
-0.007751941680908203 -0.4573643207550049 0.5138130187988281
-0.007751941680908203 -0.4418604373931885 -0.1632736772298813
-0.007751941680908203 -0.4418604373931885 0.2406448870897293
-0.007751941680908203 -0.4418604373931885 0.28504905104637146
-0.007751941680908203 -0.4418604373931885 0.5153471827507019
-0.007751941680908203 -0.42635661363601685 -0.16601142287254333
-0.007751941680908203 -0.42635661363601685 0.08090593665838242
-0.007751941680908203 -0.42635661363601685 0.1592731922864914
-0.007751941680908203 -0.42635661363601685 0.22411756217479706
-0.007751941680908203 -0.42635661363601685 0.29954832792282104
-0.007751941680908203 -0.42635661363601685 0.5159680247306824
-0.007751941680908203 -0.41085273027420044 -0.16804134845733643
-0.007751941680908203 -0.41085273027420044 0.07746481150388718
-0.007751941680908203 -0.41085273027420044 0.31206560134887695
-0.007751941680908203 -0.41085273027420044 0.5155710577964783
-0.007751941680908203 -0.39534884691238403 -0.167918860912323
-0.007751941680908203 -0.39534884691238403 0.08056880533695221
-0.007751941680908203 -0.39534884691238403 0.3165530860424042
-0.007751941680908203 -0.39534884691238403 0.5140721797943115
-0.007751941680908203 -0.3798449635505676 -0.16637203097343445
-0.007751941680908203 -0.3798449635505676 0.09131532907485962
-0.007751941680908203 -0.3798449635505676 0.3125993609428406
-0.007751941680908203 -0.3798449635505676 0.5109429359436035
-0.007751941680908203 -0.3643410801887512 -0.1646130084991455
-0.007751941680908203 -0.3643411099910736 0.10501886159181595
-0.007751941680908203 -0.3643410801887512 0.29645586013793945
-0.007751941680908203 -0.3643410801887512 0.5060529112815857
-0.007751941680908203 -0.3488371968269348 -0.16326554119586945
-0.007751941680908203 -0.3488371968269348 0.11341427266597748
-0.007751941680908203 -0.3488371968269348 0.13870368897914886
-0.007751941680908203 -0.3488371968269348 0.5018206834793091
-0.007751941680908203 -0.3333333134651184 -0.16300548613071442
-0.007751941680908203 -0.3333333134651184 0.11490809172391891
-0.007751941680908203 -0.3333333134651184 0.12878254055976868
-0.007751941680908203 -0.3333333134651184 0.49783527851104736
-0.007751941680908203 -0.317829430103302 -0.1645890474319458
-0.007751941680908203 -0.317829430103302 0.11474277079105377
-0.007751941680908203 -0.317829430103302 0.12673312425613403
-0.007751941680908203 -0.317829430103302 0.4924626350402832
-0.007751941680908203 -0.30232560634613037 -0.16973203420639038
-0.007751941680908203 -0.30232560634613037 0.1090879887342453
-0.007751941680908203 -0.30232560634613037 0.13650086522102356
-0.007751941680908203 -0.30232560634613037 0.48842597007751465
-0.007751941680908203 -0.28682172298431396 -0.17939084768295288
-0.007751941680908203 -0.28682172298431396 0.09143026173114777
-0.007751941680908203 -0.28682172298431396 0.1492926925420761
-0.007751941680908203 -0.28682172298431396 0.4845399260520935
-0.007751941680908203 -0.27131783962249756 -0.18875646591186523
-0.007751941680908203 -0.27131783962249756 -0.003409602679312229
-0.007751941680908203 -0.27131783962249756 0.15883605182170868
-0.007751941680908203 -0.27131783962249756 0.4812469482421875
-0.007751941680908203 -0.25581395626068115 -0.1980869174003601
-0.007751941680908203 -0.25581395626068115 -0.015516730025410652
-0.007751941680908203 -0.25581395626068115 0.1720598191022873
-0.007751941680908203 -0.25581395626068115 0.2543240487575531
-0.007751941680908203 -0.25581395626068115 0.2819901406764984
-0.007751941680908203 -0.25581395626068115 0.47601035237312317
-0.007751941680908203 -0.24031005799770355 -0.20903022587299347
-0.007751941680908203 -0.24031007289886475 -0.014436179772019386
-0.007751941680908203 -0.24031008780002594 0.18280364573001862
-0.007751941680908203 -0.24031007289886475 0.22050969302654266
-0.00775194214656949 -0.24031007289886475 0.2898999750614166
-0.007751941680908203 -0.24031007289886475 0.470765084028244
-0.007751941680908203 -0.22480618953704834 -0.2167423665523529
-0.007751941680908203 -0.22480618953704834 -0.012053506448864937
-0.007751941680908203 -0.22480618953704834 0.18455563485622406
-0.007751941680908203 -0.22480618953704834 0.21852213144302368
-0.007751941680908203 -0.22480618953704834 0.2852519154548645
-0.007751941680908203 -0.22480618953704834 0.46639883518218994
-0.007751941680908203 -0.20930230617523193 -0.22518616914749146
-0.007751941680908203 -0.20930230617523193 -0.011834296397864819
-0.007751941680908203 -0.20930230617523193 0.17748905718326569
-0.007751941680908203 -0.20930230617523193 0.4594985246658325
-0.007751941680908203 -0.19379842281341553 -0.2286829650402069
-0.007751941680908203 -0.19379842281341553 -0.013889504596590996
-0.007751941680908203 -0.19379842281341553 0.17283228039741516
-0.007751941680908203 -0.19379842281341553 0.4534328579902649
-0.007751941680908203 -0.1782945990562439 -0.23056814074516296
-0.007751941680908203 -0.1782945990562439 -0.015805760398507118
-0.00775194214656949 -0.1782946139574051 0.16597144305706024
-0.007751941680908203 -0.1782945990562439 0.44690871238708496
-0.007751941680908203 -0.1627907156944275 -0.23038722574710846
-0.00775194214656949 -0.1627907156944275 -0.016171663999557495
-0.007751941680908203 -0.1627907156944275 0.15824881196022034
-0.007751941680908203 -0.1627907156944275 0.43942034244537354
-0.007751941680908203 -0.14728683233261108 -0.22967225313186646
-0.007751941680908203 -0.14728683233261108 -0.014728972688317299
-0.007751941680908203 -0.14728683233261108 0.14967328310012817
-0.007751941680908203 -0.14728683233261108 0.43456152081489563
-0.007751941680908203 -0.13178294897079468 -0.22882455587387085
-0.007751941680908203 -0.13178294897079468 -0.0126489894464612
-0.007751941680908203 -0.13178294897079468 0.13764958083629608
-0.007751941680908203 -0.13178294897079468 0.4277324080467224
-0.007751941680908203 -0.11627906560897827 -0.22828075289726257
-0.007751941680908203 -0.11627906560897827 -0.010219034738838673
-0.007751941680908203 -0.11627906560897827 0.11665225028991699
-0.007751941680908203 -0.11627906560897827 0.4231540560722351
-0.007751941680908203 -0.10077518224716187 -0.2280859798192978
-0.007751941680908203 -0.10077518224716187 -0.009875472635030746
-0.007751941680908203 -0.10077518224716187 0.06482040882110596
-0.007751941680908203 -0.10077518224716187 0.42007726430892944
-0.007751941680908203 -0.08527129888534546 -0.22857041656970978
-0.007751941680908203 -0.08527129888534546 -0.016315462067723274
-0.007751941680908203 -0.08527129888534546 0.05389375612139702
-0.007751941680908203 -0.08527129888534546 0.41651856899261475
-0.007751941680908203 -0.06976741552352905 -0.22863484919071198
-0.007751941680908203 -0.06976741552352905 -0.027135860174894333
-0.007751941680908203 -0.06976741552352905 0.0476120226085186
-0.007751941680908203 -0.06976741552352905 0.41219764947891235
-0.007751941680908203 -0.05426359176635742 -0.22802601754665375
-0.007751941680908203 -0.05426359176635742 -0.03341279178857803
-0.00775194214656949 -0.05426359176635742 0.040970172733068466
-0.007751941680908203 -0.05426359176635742 0.40874695777893066
-0.007751941680908203 -0.038759708404541016 -0.2275031954050064
-0.007751941680908203 -0.038759708404541016 -0.03461211547255516
-0.007751941680908203 -0.038759708404541016 0.03475429490208626
-0.007751941680908203 -0.038759708404541016 0.4063612222671509
-0.007751941680908203 -0.02325582504272461 -0.2265932261943817
-0.007751941680908203 -0.02325582504272461 -0.031022217124700546
-0.007751941680908203 -0.02325582504272461 0.029864663258194923
-0.007751941680908203 -0.02325582504272461 0.40334123373031616
-0.007751941680908203 -0.007751941680908203 -0.2250477820634842
-0.007751941215246916 -0.007751941215246916 -0.01959904097020626
-0.007751941680908203 -0.007751941680908203 0.027114130556583405
-0.007751941680908203 -0.007751941680908203 0.3983835279941559
-0.007751941680908203 0.007751941680908203 -0.22208437323570251
-0.007751941680908203 0.007751941680908203 -0.009958640672266483
-0.007751941680908203 0.007751941680908203 0.034344494342803955
-0.007751941680908203 0.007751941680908203 0.3927832245826721
-0.007751941680908203 0.02325582504272461 -0.2201821208000183
-0.007751941680908203 0.02325582504272461 -0.00797745119780302
-0.007751941680908203 0.02325582504272461 0.056646257638931274
-0.007751941680908203 0.02325582504272461 0.38942950963974
-0.007751941680908203 0.038759708404541016 -0.21804706752300262
-0.007751941680908203 0.038759708404541016 -0.02418363280594349
-0.007751941680908203 0.038759708404541016 0.07779084891080856
-0.007751941215246916 0.038759708404541016 0.3830096423625946
-0.007751941680908203 0.05426359176635742 -0.21685363352298737
-0.007751941680908203 0.05426359176635742 -0.036656446754932404
-0.007751941680908203 0.05426359176635742 0.0821516290307045
-0.007751941680908203 0.05426359176635742 0.37711960077285767
-0.007751941680908203 0.06976747512817383 -0.2162790596485138
-0.007751941680908203 0.06976747512817383 -0.04542432352900505
-0.007751941680908203 0.06976747512817383 0.07659909129142761
-0.007751941680908203 0.06976747512817383 0.37413179874420166
-0.007751941680908203 0.08527135848999023 -0.21631698310375214
-0.007751941680908203 0.08527135848999023 -0.05016560107469559
-0.007751941680908203 0.08527135848999023 0.0685623362660408
-0.007751941680908203 0.08527135848999023 0.37013310194015503
-0.007751941680908203 0.10077524185180664 -0.21667996048927307
-0.007751941680908203 0.10077524185180664 -0.05343840271234512
-0.007751941680908203 0.10077524185180664 0.06832661479711533
-0.007751941680908203 0.10077524185180664 0.3650277853012085
-0.007751941680908203 0.11627912521362305 -0.21658775210380554
-0.007751941680908203 0.11627912521362305 -0.0563160702586174
-0.007751941680908203 0.11627912521362305 0.07443919032812119
-0.007751941680908203 0.11627912521362305 0.361125648021698
-0.007751941680908203 0.1317828893661499 -0.2156519591808319
-0.007751941680908203 0.1317828893661499 -0.059489935636520386
-0.007751941680908203 0.1317828893661499 0.08291101455688477
-0.007751941680908203 0.1317828893661499 0.11190637946128845
-0.007751941680908203 0.1317828893661499 0.13839370012283325
-0.007751941680908203 0.1317828893661499 0.35860899090766907
-0.007751941680908203 0.1472867727279663 -0.2140876203775406
-0.007751941680908203 0.1472867727279663 -0.06352362781763077
-0.007751941680908203 0.1472867727279663 0.1500304937362671
-0.007751941680908203 0.1472867727279663 0.3548122048377991
-0.007751941680908203 0.16279065608978271 -0.21236470341682434
-0.007751941680908203 0.16279065608978271 -0.06878439337015152
-0.007751941680908203 0.16279065608978271 0.15101492404937744
-0.007751941680908203 0.16279065608978271 0.3497142791748047
-0.007751941680908203 0.17829453945159912 -0.21051707863807678
-0.007751941680908203 0.17829453945159912 -0.07298874855041504
-0.007751941680908203 0.17829453945159912 0.14085990190505981
-0.007751941680908203 0.17829453945159912 0.34481292963027954
-0.007751941680908203 0.19379842281341553 -0.2073451578617096
-0.007751941680908203 0.19379842281341553 -0.07682298123836517
-0.007751941680908203 0.19379842281341553 0.09394221752882004
-0.007751941680908203 0.19379842281341553 0.3418106436729431
-0.007751941680908203 0.20930230617523193 -0.20406270027160645
-0.007751941680908203 0.20930230617523193 -0.08082065731287003
-0.007751941680908203 0.20930230617523193 0.08120168000459671
-0.007751941680908203 0.20930230617523193 0.3364926278591156
-0.007751941680908203 0.22480618953704834 -0.20203933119773865
-0.00775194214656949 0.22480618953704834 -0.08520862460136414
-0.007751941680908203 0.22480618953704834 0.07595683634281158
-0.007751941680908203 0.22480618953704834 0.3302333354949951
-0.007751941680908203 0.24031007289886475 -0.20071330666542053
-0.007751941680908203 0.24031007289886475 -0.09137444198131561
-0.007751941680908203 0.24031007289886475 0.07443693280220032
-0.007751941680908203 0.24031007289886475 0.3275797367095947
-0.007751941680908203 0.25581395626068115 -0.19996130466461182
-0.00775194214656949 0.25581395626068115 -0.09858498722314835
-0.007751941680908203 0.25581395626068115 0.07405678927898407
-0.007751941680908203 0.25581395626068115 0.3241557478904724
-0.007751941680908203 0.27131783962249756 -0.19958414137363434
-0.007751941680908203 0.27131783962249756 -0.10581432282924652
-0.007751941680908203 0.27131783962249756 0.07371741533279419
-0.007751941680908203 0.27131783962249756 0.3199722170829773
-0.007751941680908203 0.28682172298431396 -0.19925829768180847
-0.007751941680908203 0.28682172298431396 -0.11294028162956238
-0.007751941680908203 0.2868216931819916 0.0713154599070549
-0.007751941680908203 0.28682172298431396 0.3162655234336853
-0.007751941680908203 0.30232560634613037 -0.19953379034996033
-0.007751941680908203 0.30232560634613037 -0.11867278814315796
-0.007751941680908203 0.30232560634613037 0.06632958352565765
-0.007751941680908203 0.30232560634613037 0.3134465515613556
-0.007751941680908203 0.3178294897079468 -0.20055101811885834
-0.007751941680908203 0.3178294897079468 -0.12240758538246155
-0.007751941680908203 0.3178294897079468 0.06063391640782356
-0.007751941680908203 0.3178294897079468 0.31142494082450867
-0.007751941680908203 0.3333333730697632 -0.20212258398532867
-0.007751941680908203 0.3333333730697632 -0.12212668359279633
-0.007751941680908203 0.3333333730697632 0.050580885261297226
-0.007751941680908203 0.3333333730697632 0.3083581030368805
-0.007751941680908203 0.3488372564315796 -0.2038785070180893
-0.007751941680908203 0.3488372564315796 -0.11482250690460205
-0.007751941680908203 0.3488372564315796 0.03369756415486336
-0.007751941680908203 0.348837286233902 0.3042083978652954
-0.007751941680908203 0.364341139793396 -0.20445629954338074
-0.007751941215246916 0.364341139793396 -0.09982259571552277
-0.007751941680908203 0.364341139793396 0.002402067184448242
-0.007751941680908203 0.364341139793396 0.29927706718444824
-0.007751941680908203 0.37984490394592285 -0.2032189965248108
-0.007751941680908203 0.37984490394592285 0.296028196811676
-0.007751941680908203 0.39534878730773926 -0.19979560375213623
-0.007751941680908203 0.39534878730773926 0.29104727506637573
-0.007751941680908203 0.41085267066955566 -0.19657324254512787
-0.007751941680908203 0.41085267066955566 0.28494152426719666
-0.007751941680908203 0.42635655403137207 -0.1941131204366684
-0.007751941680908203 0.42635655403137207 0.28135743737220764
-0.007751941680908203 0.4418604373931885 -0.18971042335033417
-0.007751941680908203 0.4418604373931885 0.277329683303833
-0.007751941680908203 0.4573643207550049 -0.1876085102558136
-0.007751941680908203 0.4573643207550049 0.2724183201789856
-0.007751941680908203 0.4728682041168213 -0.19002696871757507
-0.007751941680908203 0.4728682041168213 0.2678942084312439
-0.007751941680908203 0.4883720874786377 -0.20089396834373474
-0.007751941680908203 0.4883720874786377 0.26451876759529114
-0.007751941680908203 0.5038759708404541 -0.2170245200395584
-0.007751941680908203 0.5038759708404541 0.2586204409599304
-0.00775194214656949 0.5193798542022705 -0.23633961379528046
-0.007751941680908203 0.5193798542022705 0.25233253836631775
-0.007751941680908203 0.5348837375640869 -0.2673196494579315
-0.00775194214656949 0.5348837375640869 0.24693572521209717
-0.007751941680908203 0.5503876209259033 -0.2957850694656372
-0.007751941680908203 0.5503876209259033 0.23857629299163818
-0.007751941680908203 0.5658915042877197 -0.3133186399936676
-0.007751941680908203 0.5658915042877197 0.2320719063282013
-0.007751941680908203 0.5813953876495361 -0.3247511088848114
-0.007751941680908203 0.5813953876495361 0.22308583557605743
-0.007751941680908203 0.5968992710113525 -0.33410969376564026
-0.007751941680908203 0.5968992710113525 0.21604733169078827
-0.007751941680908203 0.612403154373169 -0.3423423171043396
-0.007751941680908203 0.612403154373169 0.20652417838573456
-0.007751941680908203 0.6279069185256958 -0.35058385133743286
-0.007751941680908203 0.6279069185256958 0.1993214190006256
-0.007751941680908203 0.6434108018875122 -0.35651665925979614
-0.007751941680908203 0.6434108018875122 0.19009828567504883
-0.00775194214656949 0.6589146852493286 -0.36249852180480957
-0.007751941680908203 0.6589146256446838 0.18122604489326477
-0.007751941680908203 0.674418568611145 -0.36569488048553467
-0.007751941680908203 0.674418568611145 0.17216335237026215
-0.007751941680908203 0.6899224519729614 -0.5227857828140259
-0.007751941680908203 0.6899224519729614 -0.459556519985199
-0.007751941680908203 0.6899224519729614 -0.36703914403915405
-0.007751941680908203 0.6899224519729614 0.16089463233947754
-0.00775194214656949 0.7054263353347778 -0.5321413278579712
-0.007751941680908203 0.7054263353347778 -0.4500599503517151
-0.007751941680908203 0.7054263353347778 -0.36378246545791626
-0.007751941680908203 0.7054263353347778 0.1508510410785675
-0.007751941680908203 0.7209302186965942 -0.5397230386734009
-0.007751941680908203 0.7209302186965942 -0.4415522515773773
-0.007751941680908203 0.7209302186965942 -0.355782151222229
-0.007751941680908203 0.7209302186965942 0.14111389219760895
-0.007751941680908203 0.7364341020584106 -0.5503584146499634
-0.007751941680908203 0.7364341020584106 -0.4318769872188568
-0.007751941680908203 0.7364341020584106 -0.3449985086917877
-0.007751941680908203 0.7364341020584106 0.1299678236246109
-0.007751941680908203 0.751937985420227 -0.5581880807876587
-0.007751941215246916 0.751937985420227 -0.41911739110946655
-0.007751941680908203 0.751937985420227 -0.3328467011451721
-0.007751941680908203 0.751937985420227 0.11944524943828583
-0.007751941680908203 0.7674418687820435 -0.5659805536270142
-0.007751941680908203 0.7674418687820435 -0.40584927797317505
-0.007751941215246916 0.7674418687820435 -0.263754665851593
-0.007751941680908203 0.7674418687820435 0.10676926374435425
-0.007751941680908203 0.7829457521438599 -0.569374144077301
-0.007751941680908203 0.7829457521438599 -0.39295899868011475
-0.007751941680908203 0.7829457521438599 -0.19677197933197021
-0.007751941680908203 0.7829457521438599 0.0901525616645813
-0.007751941680908203 0.7984496355056763 -0.5701295733451843
-0.007751941680908203 0.7984496355056763 -0.3866932988166809
-0.007751941680908203 0.7984496355056763 -0.16344556212425232
-0.007751941680908203 0.7984496355056763 0.0654035285115242
-0.007751941680908203 0.8139535188674927 -0.569541871547699
-0.007751941680908203 0.8139535188674927 -0.38704901933670044
-0.007751941680908203 0.8139535188674927 -0.14754915237426758
-0.007751941680908203 0.8139535188674927 0.03394303843379021
-0.007751941680908203 0.8294574022293091 -0.5686043500900269
-0.007751941680908203 0.8294574022293091 -0.38990962505340576
-0.007751941680908203 0.8294574022293091 -0.12712641060352325
-0.007751941680908203 0.8294574022293091 -0.004452484659850597
-0.007751941680908203 0.8449612855911255 -0.5677544474601746
-0.007751941680908203 0.8449612855911255 -0.38841965794563293
-0.007751941680908203 0.8449612855911255 -0.09583719819784164
-0.007751941680908203 0.8449612855911255 -0.05212995782494545
-0.007751941680908203 0.8604651689529419 -0.5673323273658752
-0.007751941680908203 0.8604651689529419 -0.3797681927680969
-0.007751941680908203 0.8759689331054688 -0.5673125386238098
-0.007751941680908203 0.8759689331054688 -0.35386908054351807
-0.007751941680908203 0.8914728164672852 -0.5669394731521606
-0.007751941680908203 0.8914727568626404 -0.3010175824165344
