-0.05426359176635742 -0.024151112884283066 0.16279065608978271
-0.05426359176635742 -0.024754498153924942 0.17829453945159912
-0.05426359176635742 -0.006571741309016943 0.1627906709909439
-0.05426359176635742 -0.005891895852982998 0.17829453945159912
-0.05426359176635742 0.037733662873506546 0.3178294897079468
-0.05426359176635742 0.05260896682739258 -0.25581395626068115
-0.05426359176635742 0.038926947861909866 0.3178294897079468
-0.05426359176635742 0.059533875435590744 -0.24031007289886475
-0.05426359176635742 0.10229697078466415 -0.22480618953704834
-0.05426359176635742 0.12686973810195923 -0.06976741552352905
-0.05426359176635742 0.11893396079540253 -0.05426359176635742
-0.05426359176635742 0.12679915130138397 -0.038759708404541016
-0.05426359176635742 0.12179284542798996 0.06976747512817383
-0.05426359176635742 0.14655140042304993 -0.08527129888534546
-0.05426359176635742 0.13584062457084656 -0.02325582504272461
-0.05426359176635742 0.147291362285614 -0.007751941680908203
-0.05426359176635742 0.15364573895931244 0.007751941680908203
-0.05426359176635742 0.1722155064344406 -0.20930230617523193
-0.05426359176635742 0.17556585371494293 -0.19379842281341553
-0.05426359176635742 0.1757819950580597 -0.1782945990562439
-0.05426359176635742 0.1749088615179062 -0.1627907156944275
-0.05426359176635742 0.17610006034374237 -0.14728683233261108
-0.05426359176635742 0.17422081530094147 -0.13178294897079468
-0.05426358804106712 0.16830745339393616 -0.11627906560897827
-0.05426359176635742 0.16388551890850067 -0.10077518224716187
-0.05426358804106712 0.1633257269859314 0.02325582318007946
-0.05426359176635742 0.16554152965545654 0.038759712129831314
-0.05426359176635742 0.16561555862426758 0.05426359176635742
-0.038759708404541016 -0.16657891869544983 -0.20930230617523193
-0.038759708404541016 -0.17322519421577454 -0.19379842281341553
-0.038759708404541016 -0.17545610666275024 -0.1782945990562439
-0.038759708404541016 -0.17457124590873718 -0.1627907156944275
-0.038759708404541016 -0.1742447167634964 -0.14728683233261108
-0.038759708404541016 -0.17213380336761475 -0.13178294897079468
-0.038759708404541016 -0.16897960007190704 -0.11627906560897827
-0.038759708404541016 -0.1658007651567459 -0.10077518224716187
-0.038759708404541016 -0.1628996729850769 -0.08527129888534546
-0.038759708404541016 -0.16408805549144745 -0.007751941680908203
-0.038759708404541016 -0.16440817713737488 0.007751941680908203
-0.038759708404541016 -0.1633671522140503 0.02325582504272461
-0.038759708404541016 -0.16232813894748688 -0.02325582504272461
-0.038759708404541016 -0.16099318861961365 0.038759708404541016
-0.038759708404541016 -0.15471825003623962 0.05426359176635742
-0.038759708404541016 -0.14517098665237427 -0.06976741552352905
-0.038759708404541016 -0.1396367847919464 -0.038759708404541016
-0.038759708404541016 -0.1373073160648346 0.06976747512817383
-0.038759708404541016 -0.12751293182373047 -0.05426359176635742
-0.038759708404541016 -0.09426195919513702 -0.22480618953704834
-0.038759708404541016 -0.05705193802714348 -0.25581395626068115
-0.03875970467925072 -0.0677875280380249 -0.24031007289886475
-0.038759708404541016 -0.04498477280139923 0.08527135848999023
-0.038759708404541016 -0.04273524135351181 0.10077524185180664
-0.038759708404541016 -0.04414227977395058 0.11627912521362305
-0.038759708404541016 -0.04499860107898712 0.1317828893661499
-0.038759708404541016 -0.0468527190387249 0.1472867727279663
-0.038759708404541016 -0.04790619760751724 0.16279065608978271
-0.038759708404541016 -0.048353955149650574 0.17829453945159912
-0.038759708404541016 -0.0461806058883667 0.19379842281341553
-0.038759708404541016 -0.04279562085866928 0.20930230617523193
-0.038759708404541016 -0.039881348609924316 0.22480618953704834
-0.038759708404541016 -0.03624492883682251 0.24031007289886475
-0.038759708404541016 -0.02371486835181713 0.25581395626068115
-0.038759708404541016 -0.007875507697463036 0.25581395626068115
-0.038759708404541016 0.0028321535792201757 0.24031007289886475
-0.038759708404541016 0.009557369165122509 0.08527135848999023
-0.03875970467925072 0.008698472753167152 0.10077524185180664
-0.038759708404541016 0.011245268397033215 0.11627912521362305
-0.038759708404541016 0.012541341595351696 0.1317828893661499
-0.038759708404541016 0.01608959771692753 0.1472867727279663
-0.038759708404541016 0.017957432195544243 0.16279065608978271
-0.038759708404541016 0.018302446231245995 0.17829453945159912
-0.038759708404541016 0.015127879567444324 0.19379842281341553
-0.038759708404541016 0.011267322115600109 0.20930230617523193
-0.038759708404541016 0.00857639778405428 0.22480618953704834
-0.038759708404541016 0.02359325811266899 0.3178294897079468
-0.038759708404541016 0.05227794125676155 -0.25581395626068115
-0.038759708404541016 0.040146246552467346 0.3178294897079468
-0.038759708404541016 0.06468889117240906 -0.24031007289886475
-0.038759708404541016 0.10540533065795898 -0.22480618953704834
-0.038759708404541016 0.13010181486606598 -0.05426359176635742
-0.038759708404541016 0.12916447222232819 0.06976747512817383
-0.038759708404541016 0.13656306266784668 -0.06976741552352905
-0.038759708404541016 0.1350976824760437 -0.038759708404541016
-0.038759708404541016 0.14273281395435333 -0.02325582504272461
-0.038759708404541016 0.15380381047725677 -0.08527129888534546
-0.038759708404541016 0.1514117419719696 -0.00775194214656949
-0.038759708404541016 0.16026203334331512 0.007751941680908203
-0.038759708404541016 0.17396652698516846 -0.20930230617523193
-0.038759708404541016 0.17195391654968262 -0.11627906560897827
-0.038759708404541016 0.16607776284217834 -0.10077518224716187
-0.038759708404541016 0.16566576063632965 0.02325582504272461
-0.038759708404541016 0.16865350306034088 0.038759708404541016
-0.038759708404541016 0.17077873647212982 0.05426359176635742
-0.038759708404541016 0.17851217091083527 -0.19379842281341553
-0.038759708404541016 0.17854057252407074 -0.1782945990562439
-0.038759708404541016 0.1783813089132309 -0.16279073059558868
-0.038759708404541016 0.1785993129014969 -0.14728683233261108
-0.038759708404541016 0.17838412523269653 -0.13178294897079468
-0.02325582504272461 -0.1783163994550705 -0.1782945990562439
-0.02325582504272461 -0.16756649315357208 -0.20930230617523193
-0.02325582504272461 -0.1758299618959427 -0.19379842281341553
-0.02325582504272461 -0.1773623526096344 -0.1627907156944275
-0.02325582504272461 -0.17693912982940674 -0.14728683233261108
-0.02325582504272461 -0.17471428215503693 -0.13178294897079468
-0.02325582504272461 -0.17106114327907562 -0.11627906560897827
-0.02325582504272461 -0.1673436015844345 -0.10077518224716187
-0.02325582504272461 -0.16396035254001617 -0.08527129888534546
-0.02325582504272461 -0.16459432244300842 -0.02325582504272461
-0.02325582504272461 -0.16645357012748718 -0.007751941680908203
-0.02325582504272461 -0.16692757606506348 0.007751941680908203
-0.02325582504272461 -0.16538220643997192 0.02325582504272461
-0.02325582504272461 -0.1636785864830017 0.038759708404541016
-0.02325582504272461 -0.15146653354167938 -0.06976741552352905
-0.02325582504272461 -0.15324151515960693 -0.038759708404541016
-0.02325582504272461 -0.1598474681377411 0.05426359176635742
-0.02325582504272461 -0.13521040976047516 -0.05426359176635742
-0.02325582504272461 -0.1455276608467102 0.06976747512817383
-0.02325582504272461 -0.09644386172294617 -0.22480618953704834
-0.02325582504272461 -0.07017084211111069 -0.24031007289886475
-0.02325582504272461 -0.05527148395776749 -0.25581395626068115
-0.02325582504272461 -0.06251280754804611 0.08527135848999023
-0.02325582504272461 -0.05860930308699608 0.10077524185180664
-0.02325582504272461 -0.057613663375377655 0.11627912521362305
-0.02325582504272461 -0.05711539462208748 0.1317828893661499
-0.02325582504272461 -0.057159461081027985 0.1472867727279663
-0.02325582504272461 -0.05767076089978218 0.16279065608978271
-0.02325582504272461 -0.058095067739486694 0.17829453945159912
-0.02325582504272461 -0.057084545493125916 0.19379842281341553
-0.02325582504272461 -0.0561477430164814 0.20930230617523193
-0.02325582504272461 -0.055367786437273026 0.22480618953704834
-0.02325582504272461 -0.05448564887046814 0.24031007289886475
-0.02325582504272461 -0.04760906472802162 0.25581395626068115
-0.02325582504272461 -0.03886684402823448 0.27131783962249756
-0.02325582504272461 -0.040721792727708817 0.3178294897079468
-0.02325582504272461 0.0049369968473911285 0.27131783962249756
-0.02325582504272461 0.01392294093966484 0.25581395626068115
-0.02325582504272461 0.028672989457845688 0.08527135848999023
-0.02325582504272461 0.02521243318915367 0.10077524185180664
-0.02325582504272461 0.025878427550196648 0.11627912521362305
-0.02325582504272461 0.025638308376073837 0.1317828893661499
-0.02325582504272461 0.02668767422437668 0.1472867727279663
-0.02325582690536976 0.027382826432585716 0.16279065608978271
-0.02325582504272461 0.027660220861434937 0.17829453945159912
-0.02325582504272461 0.02638017199933529 0.19379842281341553
-0.02325582504272461 0.025404291227459908 0.20930230617523193
-0.02325582504272461 0.024485081434249878 0.22480618953704834
-0.02325582690536976 0.023318376392126083 0.24031008780002594
-0.02325582504272461 0.05075419321656227 -0.25581395626068115
-0.02325582504272461 0.04207751154899597 0.3178294897079468
-0.02325582504272461 0.06988649070262909 -0.24031007289886475
-0.02325582504272461 0.10810375213623047 -0.22480618953704834
-0.02325582504272461 0.1461806446313858 -0.06976741552352905
-0.02325582504272461 0.13853338360786438 -0.05426359176635742
-0.02325582504272461 0.14354202151298523 -0.038759708404541016
-0.02325582504272461 0.1415814310312271 0.06976747512817383
-0.02325582504272461 0.1509726643562317 -0.02325582504272461
-0.02325582504272461 0.15848560631275177 -0.007751941680908203
-0.02325582504272461 0.17603376507759094 -0.20930230617523193
-0.02325582504272461 0.17609409987926483 -0.11627906560897827
-0.02325582504272461 0.1683812141418457 -0.10077518224716187
-0.02325582504272461 0.16287526488304138 -0.08527129888534546
-0.02325582504272461 0.1642065942287445 0.007751941680908203
-0.02325582504272461 0.16988451778888702 0.02325582504272461
-0.02325582504272461 0.17463570833206177 0.038759708404541016
-0.02325582504272461 0.17893290519714355 -0.19379842281341553
-0.02325582504272461 0.17899887263774872 -0.1782945990562439
-0.02325582504272461 0.17891058325767517 -0.1627907156944275
-0.02325582504272461 0.17919154465198517 -0.14728683233261108
-0.02325582504272461 0.1789245307445526 -0.13178294897079468
-0.02325582504272461 0.17883047461509705 0.05426358804106712
-0.007751941680908203 -0.17830319702625275 -0.19379842281341553
-0.007751941680908203 -0.1786806732416153 -0.1782945990562439
-0.007751941680908203 -0.17854800820350647 -0.1627907156944275
-0.007751941680908203 -0.1784909963607788 -0.14728683233261108
-0.007751941680908203 -0.16848471760749817 -0.20930230617523193
-0.007751941680908203 -0.1771061271429062 -0.13178294897079468
-0.007751941680908203 -0.17343291640281677 -0.11627906560897827
-0.007751941680908203 -0.1689578890800476 -0.10077518224716187
-0.007751941680908203 -0.1648438274860382 -0.08527129888534546
-0.007751941680908203 -0.16285757720470428 -0.038759708404541016
-0.007751941680908203 -0.16594700515270233 -0.02325582504272461
-0.007751941680908203 -0.16848549246788025 -0.007751941680908203
-0.007751941680908203 -0.16893532872200012 0.007751941680908203
-0.007751941680908203 -0.1671958863735199 0.02325582504272461
-0.007751941680908203 -0.1651032418012619 0.038759708404541016
-0.007751941680908203 -0.16328869760036469 0.05426359176635742
-0.007751941680908203 -0.1552649736404419 -0.06976741552352905
-0.007751941680908203 -0.14869502186775208 0.06976747512817383
-0.007751941680908203 -0.14144328236579895 -0.05426359176635742
-0.007751941680908203 -0.0983198955655098 -0.22480618953704834
-0.007751941680908203 -0.07099239528179169 -0.24031007289886475
-0.007751941680908203 -0.06706825643777847 0.08527135848999023
-0.007751941680908203 -0.06339360773563385 0.10077524185180664
-0.007751941680908203 -0.06393261253833771 0.11627911776304245
-0.007751941680908203 -0.062263187021017075 0.1317828893661499
-0.007751941680908203 -0.06153654307126999 0.1472867727279663
-0.007751941680908203 -0.06223470717668533 0.16279065608978271
-0.007751941680908203 -0.06313003599643707 0.17829453945159912
-0.007751941680908203 -0.06309597939252853 0.19379842281341553
-0.007751941680908203 -0.06301132589578629 0.20930230617523193
-0.007751941680908203 -0.061925213783979416 0.22480618953704834
-0.007751941680908203 -0.058672573417425156 0.24031007289886475
-0.007751941680908203 -0.05525825917720795 0.25581395626068115
-0.007751941680908203 -0.05011385306715965 -0.25581395626068115
-0.007751941680908203 -0.04570695757865906 0.27131783962249756
-0.007751941680908203 -0.043516144156455994 0.3178294897079468
-0.007751941680908203 -0.03587520867586136 0.28682172298431396
-0.007751941680908203 0.002124645048752427 0.28682172298431396
-0.007751941680908203 0.01214552391320467 0.27131783962249756
-0.007751941680908203 0.03443598002195358 0.08527135848999023
-0.007751941680908203 0.030701257288455963 0.10077524185180664
-0.007751941680908203 0.03140237182378769 0.11627912521362305
-0.007751941680908203 0.02999802678823471 0.1317828893661499
-0.007751941680908203 0.030744392424821854 0.1472867727279663
-0.007751941680908203 0.03159071505069733 0.16279065608978271
-0.007751941680908203 0.03244314715266228 0.17829453945159912
-0.007751941680908203 0.03243924677371979 0.19379842281341553
-0.007751941680908203 0.03255561739206314 0.20930230617523193
-0.007751941680908203 0.031255971640348434 0.22480618953704834
-0.007751941680908203 0.027452729642391205 0.24031007289886475
-0.007751941680908203 0.02387487329542637 0.25581395626068115
-0.007751941680908203 0.04651709273457527 -0.25581395626068115
-0.007751941680908203 0.04101669043302536 0.3178294897079468
-0.007751941680908203 0.07107170671224594 -0.24031007289886475
-0.007751941680908203 0.1100149005651474 -0.22480618953704834
-0.007751941680908203 0.14678286015987396 -0.05426359176635742
-0.007751941680908203 0.15221118927001953 -0.06976741552352905
-0.007751941680908203 0.15208324790000916 -0.038759708404541016
-0.007751941680908203 0.15837563574314117 -0.02325582504272461
-0.007751941680908203 0.1776505410671234 -0.20930230617523193
-0.007751941680908203 0.17000995576381683 -0.10077518224716187
-0.007751941680908203 0.16457515954971313 -0.08527129888534546
-0.007751941680908203 0.16380146145820618 -0.007751941680908203
-0.007751941680908203 0.1687813699245453 0.007751941680908203
-0.007751941680908203 0.17504753172397614 0.02325582504272461
-0.007751941680908203 0.17925530672073364 -0.19379842281341553
-0.007751941680908203 0.17940840125083923 -0.1782945990562439
-0.007751941680908203 0.17939771711826324 -0.1627907156944275
-0.007751941680908203 0.17971165478229523 -0.14728683233261108
-0.007751941680908203 0.17937171459197998 -0.13178294897079468
-0.007751941680908203 0.17834149301052094 -0.11627906560897827
-0.007751941215246916 0.17873317003250122 0.038759708404541016
-0.007751941680908203 0.1798047125339508 0.05426359176635742
-0.007751941680908203 0.17857055366039276 0.06976747512817383
0.007751941680908203 -0.1784776896238327 -0.19379842281341553
0.007751941680908203 -0.1788780689239502 -0.1782945990562439
0.007751941680908203 -0.17881138622760773 -0.1627907156944275
0.007751941680908203 -0.17878921329975128 -0.14728683233261108
0.007751941680908203 -0.17832091450691223 -0.13178294897079468
0.007751941680908203 -0.16902515292167664 -0.20930230617523193
0.007751941680908203 -0.17488816380500793 -0.11627906560897827
0.007751941680908203 -0.1696452498435974 -0.10077518224716187
0.007751941680908203 -0.16501297056674957 -0.08527129888534546
0.007751941680908203 -0.16339431703090668 -0.038759708404541016
0.007751941680908203 -0.16669869422912598 -0.02325582504272461
0.007751941680908203 -0.16935625672340393 -0.007751941680908203
0.007751941680908203 -0.16967670619487762 0.007751941680908203
0.007751941680908203 -0.16794030368328094 0.02325582504272461
0.007751941680908203 -0.1658259928226471 0.038759708404541016
0.007751941680908203 -0.16388140618801117 0.05426359176635742
0.007751941680908203 -0.157051220536232 -0.06976741552352905
0.007751941680908203 -0.14828459918498993 -0.05426359176635742
0.007751941680908203 -0.14995093643665314 0.06976747512817383
0.007751941680908203 -0.1000877246260643 -0.22480620443820953
0.007751941680908203 -0.07174134254455566 -0.24031007289886475
0.007751941680908203 -0.06661373376846313 0.08527135848999023
0.007751941680908203 -0.06262566149234772 0.10077524185180664
0.007751941680908203 -0.0620415061712265 0.11627912521362305
0.007751941680908203 -0.06034757196903229 0.1317828893661499
0.007751941680908203 -0.06020055711269379 0.1472867727279663
0.007751941680908203 -0.06153787299990654 0.16279065608978271
0.007751941680908203 -0.06278228759765625 0.17829453945159912
0.007751941680908203 -0.06276798248291016 0.19379842281341553
0.007751941680908203 -0.06261026114225388 0.20930230617523193
0.007751941680908203 -0.06155174598097801 0.22480618953704834
0.007751941680908203 -0.05832792818546295 0.24031007289886475
0.007751941680908203 -0.055133722722530365 0.25581395626068115
0.007751941680908203 -0.045539259910583496 -0.25581395626068115
0.007751941680908203 -0.04524967819452286 0.27131783962249756
0.007751941680908203 -0.04345345497131348 0.3178294897079468
0.007751941680908203 -0.035529959946870804 0.28682172298431396
0.007751941680908203 0.001814626855775714 0.28682172298431396
0.007751941680908203 0.011668465100228786 0.27131783962249756
0.007751941680908203 0.019177645444869995 0.3178294897079468
0.007751941680908203 0.033502206206321716 0.08527135848999023
0.007751941680908203 0.029326949268579483 0.10077524185180664
0.00775194214656949 0.02882319688796997 0.11627913266420364
0.007751941680908203 0.02759569138288498 0.1317828893661499
0.007751941680908203 0.028918009251356125 0.1472867727279663
0.007751941680908203 0.03055901825428009 0.16279065608978271
0.007751941680908203 0.03188527375459671 0.17829453945159912
0.007751941680908203 0.03204720839858055 0.19379842281341553
0.007751941680908203 0.032145798206329346 0.20930230617523193
0.007751941680908203 0.03092663176357746 0.22480618953704834
0.007751941680908203 0.027174241840839386 0.24031007289886475
0.007751941680908203 0.023736493661999702 0.25581395626068115
0.007751941680908203 0.04360847920179367 -0.25581395626068115
0.007751941680908203 0.07218262553215027 -0.24031007289886475
0.007751941680908203 0.11132066696882248 -0.22480618953704834
0.007751941680908203 0.15557608008384705 -0.06976741552352905
0.007751941680908203 0.15124398469924927 -0.05426359176635742
0.007751941680908203 0.15691974759101868 -0.038759708404541016
0.007751941680908203 0.17785905301570892 -0.20930230617523193
0.007751941680908203 0.17112718522548676 -0.10077518224716187
0.007751941680908203 0.16535434126853943 -0.08527129888534546
0.007751941680908203 0.16355013847351074 -0.02325582504272461
0.007751941680908203 0.1662682294845581 -0.007751941680908203
0.007751941680908203 0.1722830981016159 0.007751941680908203
0.007751941680908203 0.17942124605178833 -0.19379842281341553
0.007751941680908203 0.17967933416366577 -0.1782945990562439
0.007751941680908203 0.17976069450378418 -0.1627907156944275
0.007751941680908203 0.18010126054286957 -0.14728683233261108
0.007751941215246916 0.1797187328338623 -0.13178294897079468
0.007751941680908203 0.1786024570465088 -0.11627906560897827
0.007751941680908203 0.17846553027629852 0.02325582504272461
0.007751941680908203 0.1800386607646942 0.038759708404541016
0.007751941680908203 0.180791974067688 0.05426359176635742
0.00775194214656949 0.17960816621780396 0.06976748257875443
0.02325582504272461 -0.1786007285118103 -0.19379842281341553
0.02325582504272461 -0.17900685966014862 -0.1782945990562439
0.02325582504272461 -0.17893247306346893 -0.1627907156944275
0.02325582504272461 -0.17889457941055298 -0.14728683233261108
0.02325582504272461 -0.17842161655426025 -0.13178294897079468
0.02325582504272461 -0.16953542828559875 -0.20930230617523193
0.02325582504272461 -0.17550145089626312 -0.11627907305955887
0.02325582504272461 -0.17011389136314392 -0.10077518224716187
0.02325582504272461 -0.1652323603630066 -0.08527129888534546
0.02325582504272461 -0.16368339955806732 -0.038759708404541016
0.02325582504272461 -0.16710084676742554 -0.02325582504272461
0.02325582504272461 -0.16972488164901733 -0.007751941680908203
0.02325582504272461 -0.16996951401233673 0.007751941680908203
0.02325582504272461 -0.1682688593864441 0.02325582504272461
0.02325582504272461 -0.16618862748146057 0.038759708404541016
0.02325582504272461 -0.16409073770046234 0.05426359176635742
0.02325582504272461 -0.1590864658355713 -0.06976741552352905
0.02325582504272461 -0.15080934762954712 -0.05426359176635742
0.02325582504272461 -0.15063220262527466 0.06976747512817383
0.02325582504272461 -0.10060318559408188 -0.22480618953704834
0.02325582504272461 -0.07127641141414642 -0.24031007289886475
0.02325582504272461 -0.059472355991601944 0.08527135848999023
0.02325582504272461 -0.054462991654872894 0.1317828893661499
0.02325582504272461 -0.05552319064736366 0.1472867727279663
0.02325582504272461 -0.05637253075838089 0.16279065608978271
0.02325582504272461 -0.05721896514296532 0.17829453945159912
0.02325582504272461 -0.05662412568926811 0.19379842281341553
0.02325582504272461 -0.05582037940621376 0.20930230617523193
0.02325582504272461 -0.05511504039168358 0.22480618953704834
0.02325582504272461 -0.04094884172081947 -0.25581395626068115
0.02325582504272461 -0.05370441824197769 0.10077524185180664
0.02325582504272461 -0.053122732788324356 0.11627912521362305
0.02325582504272461 -0.05399142578244209 0.24031007289886475
0.02325582504272461 -0.045373838394880295 0.25581395626068115
0.02325582504272461 -0.04206777364015579 0.3178294897079468
0.02325582504272461 -0.03468063473701477 0.27131783962249756
0.02325582504272461 0.001246134052053094 0.27131783962249756
0.02325582504272461 0.022651486098766327 0.08527135848999023
0.02325582504272461 0.019564444199204445 0.10077524185180664
0.02325582504272461 0.020387951284646988 0.11627912521362305
0.02325582504272461 0.02157376892864704 0.1317828893661499
0.02325582504272461 0.021926430985331535 0.24031007289886475
0.02325582504272461 0.01245462242513895 0.25581395626068115
0.02325582504272461 0.017027700319886208 0.3178294897079468
0.02325582504272461 0.024162305518984795 0.1472867876291275
0.02325582504272461 0.025270989164710045 0.16279065608978271
0.02325582504272461 0.026186315342783928 0.17829453945159912
0.02325582504272461 0.02565048262476921 0.19379842281341553
0.02325582504272461 0.02490386925637722 0.20930230617523193
0.02325582504272461 0.024112120270729065 0.22480618953704834
0.02325582504272461 0.04048480466008186 -0.25581395626068115
0.02325582504272461 0.07116281241178513 -0.24031007289886475
0.02325582504272461 0.11098183691501617 -0.22480618953704834
0.02325582504272461 0.15571992099285126 -0.06976741552352905
0.02325582504272461 0.1512587070465088 -0.05426359176635742
0.02325582504272461 0.15754249691963196 -0.038759708404541016
0.02325582504272461 0.17729879915714264 -0.20930230617523193
0.02325582504272461 0.17135432362556458 -0.10077518224716187
0.02325582504272461 0.1654129922389984 -0.08527129888534546
0.02325582318007946 0.16390256583690643 -0.02325582318007946
0.02325582504272461 0.16703380644321442 -0.007751941680908203
0.02325582504272461 0.17329594492912292 0.007751941680908203
0.02325582504272461 0.1794195920228958 -0.19379842281341553
0.02325582504272461 0.17974047362804413 -0.1782945990562439
0.02325582318007946 0.17988720536231995 -0.1627907156944275
0.02325582504272461 0.1802348494529724 -0.14728683233261108
0.02325582504272461 0.17982915043830872 -0.13178294897079468
0.02325582690536976 0.1787046641111374 -0.11627906560897827
0.02325582504272461 0.17889270186424255 0.02325582504272461
0.02325582504272461 0.18056420981884003 0.038759712129831314
0.02325582504272461 0.1809503436088562 0.05426359176635742
0.02325582504272461 0.17973265051841736 0.06976748257875443
0.038759708404541016 -0.17868821322917938 -0.19379842281341553
0.038759708404541016 -0.1790626496076584 -0.1782945990562439
0.038759708404541016 -0.17892596125602722 -0.1627907156944275
0.038759708404541016 -0.17882154881954193 -0.14728683233261108
0.038759708404541016 -0.17835620045661926 -0.13178294897079468
0.038759708404541016 -0.17021214962005615 -0.20930230617523193
0.038759708404541016 -0.17539824545383453 -0.11627906560897827
0.038759708404541016 -0.17038235068321228 -0.10077518224716187
0.038759708404541016 -0.16552680730819702 -0.08527129888534546
0.038759708404541016 -0.16279485821723938 -0.06976741552352905
0.038759708404541016 -0.1635780781507492 -0.038759708404541016
0.038759708404541016 -0.16666555404663086 -0.02325582504272461
0.038759708404541016 -0.1693006306886673 -0.007751941680908203
0.038759708404541016 -0.16958071291446686 0.007751941680908203
0.038759708404541016 -0.1680673509836197 0.02325582504272461
0.038759708404541016 -0.16618730127811432 0.038759708404541016
0.038759708404541016 -0.16401925683021545 0.05426359176635742
0.038759708404541016 -0.1536283940076828 -0.05426359176635742
0.038759708404541016 -0.1516040563583374 0.06976747512817383
0.038759708404541016 -0.10046979784965515 -0.22480618953704834
0.038759708404541016 -0.07037429511547089 -0.24031007289886475
0.038759708404541016 -0.03951475769281387 -0.25581395626068115
0.038759708404541016 -0.041164249181747437 0.08527135848999023
0.038759708404541016 -0.03960118815302849 0.1317828893661499
0.038759708404541016 -0.043523892760276794 0.1472867727279663
0.038759708404541016 -0.04731498658657074 0.16279065608978271
0.038759708404541016 -0.05010275915265083 0.17829453945159912
0.038759708404541016 -0.04769352823495865 0.19379842281341553
0.038759708404541016 -0.04337954521179199 0.20930230617523193
0.038759708404541016 -0.03987212851643562 0.22480618953704834
0.038759708404541016 -0.03535614162683487 0.10077524185180664
0.038759708404541016 -0.03491692245006561 0.11627912521362305
0.038759708404541016 -0.0334743894636631 0.24031007289886475
0.038759708404541016 -0.03441904857754707 0.3178294897079468
0.038759708404541016 0.004524818621575832 0.08527135848999023
0.038759708404541016 0.0008567243348807096 0.10077524185180664
0.038759708404541016 0.0009559895843267441 0.11627912521362305
0.038759708404541016 0.006494289264082909 0.1317828893661499
0.038759708404541016 0.0010036060120910406 0.24031007289886475
0.038759708404541016 0.011225179769098759 0.1472867727279663
0.038759708404541016 0.015427017584443092 0.16279065608978271
0.038759708404541016 0.01795393042266369 0.17829453945159912
0.038759708404541016 0.015567053109407425 0.19379842281341553
0.038759708404541016 0.011378893628716469 0.20930230617523193
0.038759708404541016 0.008504889905452728 0.22480617463588715
0.038759708404541016 0.012319207191467285 0.3178294897079468
0.038759708404541016 0.03876620531082153 -0.25581395626068115
0.038759708404541016 0.06936110556125641 -0.24031007289886475
0.038759708404541016 0.11026240885257721 -0.22480618953704834
0.038759708404541016 0.15446479618549347 -0.06976741552352905
0.038759708404541016 0.1498841941356659 -0.05426359176635742
0.038759708404541016 0.1562781035900116 -0.038759708404541016
0.038759708404541016 0.17724671959877014 -0.20930230617523193
0.038759708404541016 0.17093217372894287 -0.10077518224716187
0.038759708404541016 0.1651141494512558 -0.08527129888534546
0.038759708404541016 0.16357944905757904 -0.02325582504272461
0.038759708404541016 0.16629140079021454 -0.007751941680908203
0.038759708404541016 0.17271611094474792 0.007751941680908203
0.038759708404541016 0.17940348386764526 -0.19379843771457672
0.03875970467925072 0.1797197312116623 -0.1782945990562439
0.038759708404541016 0.17986181378364563 -0.1627907156944275
0.038759708404541016 0.18018393218517303 -0.14728683233261108
0.038759708404541016 0.17976896464824677 -0.13178294897079468
0.038759708404541016 0.1786818653345108 -0.11627907305955887
0.038759708404541016 0.17865219712257385 0.02325582504272461
0.038759708404541016 0.18014752864837646 0.038759708404541016
0.038759708404541016 0.18039336800575256 0.05426359549164772
0.038759708404541016 0.17921137809753418 0.06976747512817383
0.05426359176635742 -0.17873410880565643 -0.19379842281341553
0.05426359176635742 -0.17907501757144928 -0.1782945990562439
0.05426359176635742 -0.17889176309108734 -0.1627907156944275
0.05426359176635742 -0.1787412166595459 -0.14728683233261108
0.05426359176635742 -0.170888751745224 -0.20930230617523193
0.05426359549164772 -0.17820551991462708 -0.13178296387195587
0.05426359176635742 -0.17508560419082642 -0.11627906560897827
0.05426359176635742 -0.17048731446266174 -0.10077518224716187
0.05426359176635742 -0.16569364070892334 -0.08527129888534546
0.05426359176635742 -0.16312892735004425 -0.06976741552352905
0.05426359176635742 -0.1630096733570099 -0.038759708404541016
0.05426359176635742 -0.16552896797657013 -0.02325582504272461
0.05426359176635742 -0.16800303757190704 -0.007751941680908203
0.05426359176635742 -0.168609619140625 0.007751941680908203
0.05426359176635742 -0.16763123869895935 0.02325582504272461
0.05426359176635742 -0.16615726053714752 0.038759708404541016
0.05426359176635742 -0.16397908329963684 0.05426359176635742
0.05426359176635742 -0.155439555644989 -0.05426359176635742
0.05426359176635742 -0.15272843837738037 0.06976747512817383
0.05426359176635742 -0.09943065792322159 -0.22480618953704834
0.05426359176635742 -0.06804932653903961 -0.24031007289886475
0.05426358804106712 -0.03752121329307556 -0.25581395626068115
0.05426359176635742 -0.02877243235707283 0.16279065608978271
0.05426359176635742 -0.0339924618601799 0.17829453945159912
0.05426359176635742 -0.029418639838695526 0.19379842281341553
0.05426359176635742 -0.0030553604010492563 0.16279065608978271
0.05426359176635742 0.00116173573769629 0.17829453945159912
0.05426359176635742 -0.0027712828014045954 0.19379842281341553
0.05426359176635742 0.03516729921102524 -0.25581395626068115
0.05426359176635742 0.06460589170455933 -0.24031007289886475
0.05426359176635742 0.10879850387573242 -0.22480618953704834
0.05426359176635742 0.1529449075460434 -0.06976741552352905
0.05426358804106712 0.14829467236995697 -0.05426358804106712
0.05426359176635742 0.15476560592651367 -0.038759708404541016
0.05426359176635742 0.17736679315567017 -0.20930230617523193
0.05426359176635742 0.17043305933475494 -0.10077518224716187
0.05426359176635742 0.16473102569580078 -0.08527129888534546
0.05426359176635742 0.163155198097229 -0.02325582690536976
0.05426359176635742 0.16543073952198029 -0.007751941680908203
0.05426359176635742 0.17182114720344543 0.007751941680908203
0.05426359176635742 0.1782020777463913 0.02325582504272461
0.05426359176635742 0.17937511205673218 -0.19379842281341553
0.05426359176635742 0.17965510487556458 -0.1782945990562439
0.05426359176635742 0.17975255846977234 -0.1627907007932663
0.05426359176635742 0.18004150688648224 -0.14728684723377228
0.05426359176635742 0.17963621020317078 -0.13178294897079468
0.05426359176635742 0.1785915642976761 -0.11627906560897827
0.05426358804106712 0.17963126301765442 0.038759708404541016
0.05426359176635742 0.1799059510231018 0.05426359176635742
0.05426359176635742 0.1787141114473343 0.06976747512817383
0.06976747512817383 -0.17870783805847168 -0.19379842281341553
0.06976747512817383 -0.17901436984539032 -0.1782945990562439
0.06976747512817383 -0.1788102388381958 -0.1627907156944275
0.06976747512817383 -0.17864380776882172 -0.14728683233261108
0.06976747512817383 -0.17139513790607452 -0.20930230617523193
0.06976747512817383 -0.1777207851409912 -0.13178294897079468
0.06976747512817383 -0.17462870478630066 -0.11627905815839767
0.06976747512817383 -0.1705213189125061 -0.10077518224716187
0.06976747512817383 -0.1657831370830536 -0.08527129888534546
0.06976747512817383 -0.16317681968212128 -0.06976741552352905
0.06976747512817383 -0.1641850471496582 -0.02325582504272461
0.06976747512817383 -0.16615766286849976 -0.007751941680908203
0.06976747512817383 -0.1672344207763672 0.007751941680908203
0.06976747512817383 -0.16709665954113007 0.02325582504272461
0.06976747512817383 -0.16615617275238037 0.038759708404541016
0.06976747512817383 -0.1640397012233734 0.05426359176635742
0.06976747512817383 -0.15516281127929688 -0.05426359176635742
0.06976747512817383 -0.1587163805961609 -0.038759708404541016
0.06976747512817383 -0.15361934900283813 0.06976747512817383
0.06976747512817383 -0.098668672144413 -0.22480617463588715
0.06976747512817383 -0.06629614531993866 -0.24031007289886475
0.06976747512817383 -0.04010343179106712 -0.25581395626068115
0.06976747512817383 0.03884180262684822 -0.25581395626068115
0.06976747512817383 0.06088143587112427 -0.24031007289886475
0.06976747512817383 0.10749218612909317 -0.22480618953704834
0.06976747512817383 0.14705777168273926 -0.05426359176635742
0.06976747512817383 0.15211021900177002 -0.06976741552352905
0.06976747512817383 0.1534387767314911 -0.038759708404541016
0.06976747512817383 0.17713822424411774 -0.20930230617523193
0.06976747512817383 0.17018014192581177 -0.10077518224716187
0.06976747512817383 0.16463018953800201 -0.08527129888534546
0.06976748257875443 0.16282980144023895 -0.02325582504272461
0.06976747512817383 0.16486047208309174 -0.007751941680908203
0.06976747512817383 0.17093276977539062 0.007751941680908203
0.06976747512817383 0.17681089043617249 0.02325582504272461
0.06976747512817383 0.17922455072402954 -0.19379842281341553
0.06976747512817383 0.1794438660144806 -0.1782945990562439
0.06976747512817383 0.17945653200149536 -0.1627907156944275
0.06976747512817383 0.179692342877388 -0.14728683233261108
0.06976747512817383 0.17933258414268494 -0.13178294897079468
0.06976747512817383 0.1783822774887085 -0.11627906560897827
0.06976747512817383 0.1791972517967224 0.038759708404541016
0.06976747512817383 0.17956803739070892 0.05426359176635742
0.06976747512817383 0.17839601635932922 0.06976747512817383
0.08527135848999023 -0.17873017489910126 -0.19379842281341553
0.08527135848999023 -0.17899870872497559 -0.1782945990562439
0.08527135848999023 -0.17880180478096008 -0.1627907156944275
0.08527135848999023 -0.17863446474075317 -0.14728683233261108
0.08527135848999023 -0.17182815074920654 -0.20930230617523193
0.08527135848999023 -0.17764057219028473 -0.13178294897079468
0.08527135848999023 -0.17458055913448334 -0.11627906560897827
0.08527135848999023 -0.1708698570728302 -0.10077518224716187
0.08527135848999023 -0.16613753139972687 -0.08527129888534546
0.08527135848999023 -0.1634145826101303 -0.06976741552352905
0.08527135848999023 -0.16336148977279663 -0.02325582504272461
0.08527135848999023 -0.16498655080795288 -0.007751941680908203
0.08527135848999023 -0.16636519134044647 0.007751941680908203
0.08527135848999023 -0.166927769780159 0.02325582504272461
0.08527135848999023 -0.16631697118282318 0.038759708404541016
0.08527135848999023 -0.1642041951417923 0.05426359176635742
0.08527135848999023 -0.15607833862304688 -0.05426359176635742
0.08527135848999023 -0.15768951177597046 -0.038759708404541016
0.08527135848999023 -0.15450605750083923 0.06976747512817383
0.08527135848999023 -0.09753900021314621 -0.22480618953704834
0.08527135848999023 -0.06480859220027924 -0.24031007289886475
0.08527135848999023 -0.04414243996143341 -0.25581395626068115
0.08527135848999023 0.04012216627597809 -0.25581395626068115
0.08527135848999023 0.057541340589523315 -0.24031008780002594
0.08527135848999023 0.10634422302246094 -0.22480618953704834
0.08527135848999023 0.14612437784671783 -0.05426359176635742
0.08527135848999023 0.15244948863983154 -0.06976741552352905
0.08527135848999023 0.15293191373348236 -0.038759708404541016
0.08527135848999023 0.161989226937294 -0.02325582504272461
0.08527135848999023 0.1769530177116394 -0.20930230617523193
0.08527135848999023 0.1777724325656891 -0.11627906560897827
0.08527135848999023 0.17034178972244263 -0.10077518224716187
0.08527135848999023 0.16488441824913025 -0.08527129888534546
0.08527135848999023 0.16458985209465027 -0.007751941680908203
0.08527135848999023 0.17012646794319153 0.007751941680908203
0.08527135848999023 0.17562994360923767 0.02325582504272461
0.08527135848999023 0.17534205317497253 0.06976747512817383
0.08527135848999023 0.1790972203016281 -0.19379842281341553
0.08527136594057083 0.17926882207393646 -0.1782945990562439
0.08527136594057083 0.17922161519527435 -0.1627907156944275
0.08527135848999023 0.17942748963832855 -0.14728683233261108
0.08527136594057083 0.17908738553524017 -0.13178294897079468
0.08527135103940964 0.17882651090621948 0.038759708404541016
0.08527135848999023 0.17928341031074524 0.05426359176635742
0.10077524185180664 -0.1788938045501709 -0.19379842281341553
0.10077524185180664 -0.17912118136882782 -0.1782945990562439
0.10077524185180664 -0.17894211411476135 -0.1627907156944275
0.10077524185180664 -0.178809255361557 -0.14728683233261108
0.10077524185180664 -0.17832401394844055 -0.13178294897079468
0.10077524185180664 -0.1724451780319214 -0.20930230617523193
0.10077524185180664 -0.175138920545578 -0.11627906560897827
0.10077524185180664 -0.17140689492225647 -0.10077518224716187
0.10077524185180664 -0.16658499836921692 -0.08527129888534546
0.10077524185180664 -0.16360725462436676 -0.06976741552352905
0.10077524185180664 -0.16305790841579437 -0.02325582504272461
0.10077524185180664 -0.16450205445289612 -0.007751941680908203
0.10077524185180664 -0.1661127507686615 0.007751941680908203
0.10077524185180664 -0.1669824719429016 0.02325582504272461
0.10077524185180664 -0.16647624969482422 0.038759708404541016
0.10077524185180664 -0.16440463066101074 0.05426359176635742
0.10077524185180664 -0.1559426486492157 -0.05426359176635742
0.10077524185180664 -0.1577148735523224 -0.038759708404541016
0.10077524185180664 -0.15479865670204163 0.06976747512817383
0.10077524185180664 -0.09582830220460892 -0.22480618953704834
0.10077524185180664 -0.062277697026729584 -0.24031007289886475
0.10077524185180664 -0.04570648819208145 -0.25581395626068115
0.10077523440122604 0.03989868611097336 -0.25581395626068115
0.10077524185180664 0.0544573999941349 -0.24031008780002594
0.10077524185180664 0.10493150353431702 -0.22480618953704834
0.10077524185180664 0.14257758855819702 -0.05426359176635742
0.10077524185180664 0.15136639773845673 -0.06976741552352905
0.10077524185180664 0.15166467428207397 -0.038759708404541016
0.10077524185180664 0.1607120782136917 -0.02325582504272461
0.10077524185180664 0.17682911455631256 -0.20930230617523193
0.10077524185180664 0.17669115960597992 -0.11627906560897827
0.10077524185180664 0.17038896679878235 -0.10077518224716187
0.10077523440122604 0.16495589911937714 -0.08527129143476486
0.10077524185180664 0.16434501111507416 -0.007751941680908203
0.10077524185180664 0.16921836137771606 0.007751941680908203
0.10077524185180664 0.17469897866249084 0.02325582504272461
0.10077524185180664 0.17236977815628052 0.06976747512817383
0.10077524185180664 0.1790350377559662 -0.19379842281341553
0.10077524185180664 0.1791646033525467 -0.1782945990562439
0.10077524185180664 0.17905408143997192 -0.1627907156944275
0.10077524185180664 0.1791955828666687 -0.14728683233261108
0.10077524185180664 0.17883461713790894 -0.13178294897079468
0.10077524185180664 0.1785699874162674 0.038759708404541016
0.10077524185180664 0.1791238635778427 0.05426359176635742
0.11627912521362305 -0.17901578545570374 -0.19379842281341553
0.11627912521362305 -0.17921553552150726 -0.1782945990562439
0.11627912521362305 -0.1790090948343277 -0.1627907156944275
0.11627912521362305 -0.17890897393226624 -0.14728683233261108
0.11627912521362305 -0.1784123033285141 -0.13178294897079468
0.11627912521362305 -0.17279650270938873 -0.20930230617523193
0.11627912521362305 -0.17544257640838623 -0.11627906560897827
0.11627912521362305 -0.17143309116363525 -0.10077518224716187
0.11627912521362305 -0.16651132702827454 -0.08527129888534546
0.11627912521362305 -0.16341426968574524 -0.06976741552352905
0.11627912521362305 -0.16285385191440582 -0.02325582504272461
0.11627912521362305 -0.16418567299842834 -0.007751941680908203
0.11627912521362305 -0.165922611951828 0.007751941680908203
0.11627912521362305 -0.1668885499238968 0.02325582504272461
0.11627912521362305 -0.1664123237133026 0.038759708404541016
0.11627912521362305 -0.16447077691555023 0.05426359176635742
0.11627912521362305 -0.1537630259990692 -0.05426359176635742
0.11627912521362305 -0.15641161799430847 -0.038759708404541016
0.11627912521362305 -0.15432009100914001 0.06976747512817383
0.11627912521362305 -0.09461197257041931 -0.22480618953704834
0.11627912521362305 -0.06140328198671341 -0.24031007289886475
0.11627911776304245 -0.04857342317700386 -0.25581395626068115
0.11627912521362305 0.04026076942682266 -0.25581395626068115
0.11627912521362305 0.052769385278224945 -0.24031007289886475
0.11627912521362305 0.10385888069868088 -0.22480618953704834
0.11627912521362305 0.13959090411663055 -0.05426359176635742
0.11627912521362305 0.15005747973918915 -0.06976741552352905
0.11627912521362305 0.1506708860397339 -0.038759708404541016
0.11627912521362305 0.16049551963806152 -0.02325582504272461
0.11627912521362305 0.1763937771320343 -0.20930230617523193
0.11627912521362305 0.176093190908432 -0.11627906560897827
0.11627912521362305 0.1704181432723999 -0.10077518224716187
0.11627912521362305 0.16492335498332977 -0.08527129888534546
0.11627912521362305 0.1642892062664032 -0.007751941680908203
0.11627912521362305 0.1686955988407135 0.007751941680908203
0.11627912521362305 0.17421948909759521 0.02325582504272461
0.11627912521362305 0.17274536192417145 0.06976747512817383
0.11627911776304245 0.17896299064159393 -0.19379842281341553
0.11627912521362305 0.17907880246639252 -0.1782945990562439
0.11627913266420364 0.17894726991653442 -0.16279073059558868
0.11627912521362305 0.17902550101280212 -0.14728683233261108
0.11627912521362305 0.17864762246608734 -0.13178294897079468
0.11627912521362305 0.17849864065647125 0.038759708404541016
0.11627912521362305 0.17917019128799438 0.05426359176635742
0.1317828893661499 -0.1793045997619629 -0.19379842281341553
0.1317828893661499 -0.17947198450565338 -0.1782945990562439
0.1317828893661499 -0.17919233441352844 -0.1627907156944275
0.1317828893661499 -0.17908459901809692 -0.14728683233261108
0.1317828893661499 -0.17858079075813293 -0.13178294897079468
0.1317828893661499 -0.1737423837184906 -0.20930230617523193
0.1317828893661499 -0.176023930311203 -0.11627906560897827
0.1317828893661499 -0.171401709318161 -0.10077518224716187
0.1317828893661499 -0.16637468338012695 -0.08527129888534546
0.1317828893661499 -0.16334427893161774 -0.06976741552352905
0.1317828893661499 -0.1629125326871872 -0.02325582504272461
0.1317828893661499 -0.1643023043870926 -0.007751941680908203
0.1317828893661499 -0.16620296239852905 0.007751941680908203
0.1317828893661499 -0.16718363761901855 0.02325582504272461
0.1317828893661499 -0.16661548614501953 0.038759708404541016
0.1317828893661499 -0.16471144556999207 0.05426359176635742
0.1317828893661499 -0.1535409539937973 -0.05426359176635742
0.1317828893661499 -0.15665370225906372 -0.038759708404541016
0.1317828893661499 -0.15437456965446472 0.06976747512817383
0.1317828893661499 -0.09547296166419983 -0.22480618953704834
0.1317828893661499 -0.06323865056037903 -0.24031008780002594
0.1317828893661499 -0.05336754396557808 -0.25581395626068115
0.1317828893661499 0.04070841521024704 -0.25581395626068115
0.1317828893661499 0.054711561650037766 -0.24031007289886475
0.1317828893661499 0.1044781431555748 -0.22480618953704834
0.1317828893661499 0.13700367510318756 -0.05426359176635742
0.1317828893661499 0.1479819416999817 -0.06976741552352905
0.1317828893661499 0.14970766007900238 -0.038759708404541016
0.1317828893661499 0.16125716269016266 -0.02325582504272461
0.1317828893661499 0.17670461535453796 -0.20930230617523193
0.1317828893661499 0.17613385617733002 -0.11627906560897827
0.1317828893661499 0.17010030150413513 -0.10077518224716187
0.1317828893661499 0.1644844114780426 -0.08527129888534546
0.1317828893661499 0.16445289552211761 -0.007751941680908203
0.1317828893661499 0.1686500459909439 0.007751941680908203
0.1317828893661499 0.17431233823299408 0.02325582504272461
0.1317828893661499 0.17903172969818115 -0.19379842281341553
0.1317828893661499 0.17915044724941254 -0.1782945990562439
0.1317828893661499 0.1790287345647812 -0.1627907007932663
0.1317828893661499 0.1790650486946106 -0.14728683233261108
0.1317828893661499 0.17866761982440948 -0.13178294897079468
0.1317828893661499 0.17864003777503967 0.038759708404541016
0.1317828893661499 0.17936810851097107 0.05426359176635742
0.1317828893661499 0.17834673821926117 0.06976747512817383
0.1472867727279663 -0.1794167459011078 -0.19379842281341553
0.1472867727279663 -0.17954041063785553 -0.1782945990562439
0.1472867727279663 -0.17916974425315857 -0.1627907156944275
0.1472867727279663 -0.17901481688022614 -0.14728683233261108
0.1472867727279663 -0.1785186231136322 -0.13178294897079468
0.1472867727279663 -0.17415070533752441 -0.20930230617523193
0.1472867727279663 -0.1754961758852005 -0.11627906560897827
0.1472867727279663 -0.1706814169883728 -0.10077518224716187
0.1472867727279663 -0.16583958268165588 -0.08527129888534546
0.1472867727279663 -0.16299045085906982 -0.06976741552352905
0.1472867727279663 -0.16416440904140472 -0.007751941680908203
0.1472867727279663 -0.16612768173217773 0.007751941680908203
0.1472867727279663 -0.1670703887939453 0.02325582504272461
0.1472867727279663 -0.1665281355381012 0.038759708404541016
0.1472867727279663 -0.16472558677196503 0.05426359176635742
0.1472867727279663 -0.15137284994125366 -0.05426359176635742
0.1472867727279663 -0.15520772337913513 -0.038759708404541016
0.1472867727279663 -0.1623583287000656 -0.02325582504272461
0.1472867727279663 -0.15447849035263062 0.06976747512817383
0.1472867727279663 -0.09596863389015198 -0.22480618953704834
0.1472867727279663 -0.05648547038435936 -0.25581395626068115
0.1472867727279663 -0.06385141611099243 -0.24031007289886475
0.1472867727279663 0.04164937138557434 -0.25581395626068115
0.1472867727279663 0.055060308426618576 -0.24031007289886475
0.1472867727279663 0.10486885160207748 -0.22480618953704834
0.1472867727279663 0.14401361346244812 -0.06976741552352905
0.1472867727279663 0.13441762328147888 -0.05426359176635742
0.1472867727279663 0.13656003773212433 0.3333333730697632
0.1472867727279663 0.14854323863983154 -0.038759708404541016
0.1472867727279663 0.1623583734035492 -0.02325582504272461
0.1472867727279663 0.15366488695144653 0.3333333730697632
0.1472867727279663 0.17717453837394714 -0.20930230617523193
0.1472867727279663 0.17615488171577454 -0.11627906560897827
0.1472867727279663 0.16957658529281616 -0.10077518224716187
0.1472867727279663 0.16377981007099152 -0.08527130633592606
0.1472867727279663 0.16472171247005463 -0.007751941680908203
0.1472867727279663 0.16907235980033875 0.007751941680908203
0.1472867727279663 0.17500756680965424 0.02325582504272461
0.14728675782680511 0.1791180819272995 -0.19379842281341553
0.1472867727279663 0.1792333424091339 -0.1782945990562439
0.1472867727279663 0.1791156530380249 -0.1627907156944275
0.1472867727279663 0.1791260838508606 -0.14728684723377228
0.1472867727279663 0.17870688438415527 -0.13178294897079468
0.14728675782680511 0.17890238761901855 0.03875970467925072
0.1472867727279663 0.17971645295619965 0.05426359176635742
0.1472867727279663 0.1787784844636917 0.06976747512817383
0.16279065608978271 -0.17931896448135376 -0.19379842281341553
0.16279065608978271 -0.17939460277557373 -0.1782945990562439
0.16279065608978271 -0.17894011735916138 -0.1627907156944275
0.16279065608978271 -0.1787189096212387 -0.14728683233261108
0.16279065608978271 -0.17407755553722382 -0.20930230617523193
