-0.10077518224716187 0.1378386914730072 -0.1782945990562439
-0.10077518224716187 0.1360737830400467 -0.1627907156944275
-0.10077517479658127 0.13260133564472198 -0.1472868174314499
-0.08527129888534546 -0.21592801809310913 0.17829453945159912
-0.08527129888534546 -0.14107118546962738 -0.1782945990562439
-0.08527129888534546 -0.14100956916809082 -0.1627907156944275
-0.08527129888534546 -0.13945509493350983 -0.14728683233261108
-0.08527129888534546 -0.13895320892333984 -0.13178294897079468
-0.08527129888534546 -0.13899868726730347 -0.11627906560897827
-0.08527129888534546 -0.1394215226173401 -0.10077518224716187
-0.08527129888534546 -0.13405373692512512 -0.08527129888534546
-0.08527129888534546 -0.12206441164016724 -0.06976741552352905
-0.08527129888534546 -0.11991574615240097 -0.05426359176635742
-0.08527129888534546 -0.11850214749574661 -0.038759708404541016
-0.08527129888534546 -0.11785943806171417 -0.02325582504272461
-0.08527129888534546 -0.11840071529150009 -0.007751941680908203
-0.08527129888534546 -0.1199374794960022 0.007751941680908203
-0.08527129888534546 -0.12188678979873657 0.02325582504272461
-0.08527129888534546 -0.12308122217655182 0.038759708404541016
-0.08527129888534546 -0.1192454844713211 0.05426359176635742
-0.08527129888534546 -0.08590023964643478 0.06976747512817383
-0.08527129888534546 -0.06674560904502869 0.17829453945159912
-0.08527129888534546 -0.025401899591088295 -0.08527129888534546
-0.08527129888534546 -0.030925855040550232 0.17829453945159912
-0.08527129888534546 -0.012669522315263748 0.17829453945159912
-0.08527129888534546 0.06416747719049454 -0.06976741552352905
-0.08527129888534546 0.05991734564304352 0.06976747512817383
-0.08527130633592606 0.08703333139419556 -0.05426359176635742
-0.08527129888534546 0.09368833899497986 -0.038759708404541016
-0.08527129888534546 0.09654128551483154 -0.02325582504272461
-0.08527129888534546 0.09808435291051865 -0.007751941680908203
-0.08527129888534546 0.09915784001350403 0.007751941680908203
-0.08527129888534546 0.10006353259086609 0.038759708404541016
-0.08527129888534546 0.08993867039680481 0.05426359176635742
-0.08527129888534546 0.10096573084592819 0.02325582504272461
-0.08527129888534546 0.13073572516441345 -0.13178294897079468
-0.08527129888534546 0.12801668047904968 -0.11627906560897827
-0.08527129888534546 0.1290050446987152 -0.10077518224716187
-0.08527129888534546 0.13764500617980957 -0.1782945990562439
-0.08527129888534546 0.1355208456516266 -0.1627907156944275
-0.08527129888534546 0.13279683887958527 -0.14728683233261108
-0.06976741552352905 -0.1416805386543274 -0.1782945990562439
-0.06976741552352905 -0.1404992789030075 -0.1627907156944275
-0.06976741552352905 -0.13934236764907837 -0.14728683233261108
-0.06976741552352905 -0.13908502459526062 -0.13178294897079468
-0.06976741552352905 -0.1388721466064453 -0.11627906560897827
-0.06976741552352905 -0.1388721913099289 -0.10077518224716187
-0.06976741552352905 -0.1343841701745987 -0.08527129888534546
-0.06976741552352905 -0.12357823550701141 -0.06976741552352905
-0.06976741552352905 -0.12022766470909119 -0.05426359176635742
-0.06976741552352905 -0.1186463013291359 -0.038759708404541016
-0.06976741552352905 -0.11810078471899033 -0.02325582504272461
-0.06976741552352905 -0.11874411255121231 -0.007751941680908203
-0.06976741552352905 -0.12019509077072144 0.007751941680908203
-0.06976741552352905 -0.12185019254684448 0.02325582504272461
-0.06976741552352905 -0.12276962399482727 0.038759708404541016
-0.06976741552352905 -0.11930778622627258 0.05426359176635742
-0.06976741552352905 -0.09257923811674118 0.06976747512817383
-0.06976741552352905 -0.026597965508699417 0.17829453945159912
-0.06976741552352905 -0.015308908186852932 0.17829453945159912
-0.06976741552352905 0.0663386881351471 0.06976747512817383
-0.06976741552352905 0.07492905855178833 -0.08527129888534546
-0.06976741552352905 0.08468317240476608 -0.06976741552352905
-0.06976741552352905 0.0938565582036972 -0.05426359176635742
-0.06976741552352905 0.0910605788230896 0.05426359176635742
-0.06976742297410965 0.10093400627374649 -0.038759708404541016
-0.06976741552352905 0.10114642232656479 -0.02325582504272461
-0.06976741552352905 0.1012224555015564 -0.007751941680908203
-0.06976741552352905 0.10127297043800354 0.007751941680908203
-0.06976741552352905 0.10158497840166092 0.02325582504272461
-0.06976741552352905 0.10110513865947723 0.038759708404541016
-0.06976741552352905 0.1299295425415039 -0.11627906560897827
-0.06976741552352905 0.12940974533557892 -0.10077518224716187
-0.06976741552352905 0.1371418833732605 -0.1782945990562439
-0.06976741552352905 0.13500316441059113 -0.1627907156944275
-0.06976741552352905 0.13286368548870087 -0.14728683233261108
-0.06976741552352905 0.13194546103477478 -0.13178294897079468
-0.05426359176635742 -0.14149796962738037 -0.1782945990562439
-0.05426359176635742 -0.13983330130577087 -0.1627907156944275
-0.05426359176635742 -0.13940244913101196 -0.14728683233261108
-0.05426359176635742 -0.13949257135391235 -0.13178294897079468
-0.05426359176635742 -0.13901853561401367 -0.11627906560897827
-0.05426359176635742 -0.13837073743343353 -0.10077518224716187
-0.05426359176635742 -0.13463611900806427 -0.08527129888534546
-0.05426359176635742 -0.1235378310084343 -0.06976741552352905
-0.05426359176635742 -0.11937595158815384 -0.05426359176635742
-0.05426359176635742 -0.11815567314624786 -0.038759708404541016
-0.05426359176635742 -0.11782737821340561 -0.02325582504272461
-0.05426359176635742 -0.11860087513923645 -0.007751941680908203
-0.05426359176635742 -0.11995137482881546 0.007751941680908203
-0.05426359176635742 -0.12118320167064667 0.02325582504272461
-0.05426359176635742 -0.12162410467863083 0.038759708404541016
-0.05426359176635742 -0.11851722002029419 0.05426359176635742
-0.05426359176635742 -0.10081809759140015 0.06976747512817383
-0.05426359176635742 -0.025982089340686798 0.17829453945159912
-0.05426359176635742 -0.01579943485558033 0.17829453945159912
-0.05426358804106712 0.07092717289924622 0.06976746767759323
-0.05426359176635742 0.08591216057538986 -0.08527129888534546
-0.05426359549164772 0.08927948772907257 -0.06976741552352905
-0.05426359176635742 0.093320831656456 0.05426359176635742
-0.05426359549164772 0.10087578743696213 -0.05426359549164772
-0.05426359176635742 0.10171018540859222 -0.038759708404541016
-0.05426359176635742 0.10191261768341064 -0.02325582504272461
-0.05426359176635742 0.10226427018642426 -0.007751941215246916
-0.05426359176635742 0.10248507559299469 0.007751941680908203
-0.05426359549164772 0.10277920216321945 0.02325582504272461
-0.05426359176635742 0.1020156517624855 0.038759712129831314
-0.05426359176635742 0.13667404651641846 -0.1782945990562439
-0.05426358804106712 0.13463670015335083 -0.1627907007932663
-0.05426359176635742 0.13295337557792664 -0.14728683233261108
-0.05426359176635742 0.13237027823925018 -0.13178294897079468
-0.05426359549164772 0.13200461864471436 -0.11627906560897827
-0.05426359176635742 0.1319425106048584 -0.10077518224716187
-0.038759708404541016 -0.1429186761379242 -0.1782945990562439
-0.038759708404541016 -0.14074261486530304 -0.1627907156944275
-0.038759708404541016 -0.1401311755180359 -0.14728683233261108
-0.038759708404541016 -0.1403852105140686 -0.13178294897079468
-0.038759708404541016 -0.13943885266780853 -0.11627906560897827
-0.038759708404541016 -0.1378406137228012 -0.10077518224716187
-0.038759708404541016 -0.13473330438137054 -0.08527129888534546
-0.038759708404541016 -0.12396712601184845 -0.06976741552352905
-0.038759708404541016 -0.11928259581327438 -0.05426359176635742
-0.038759708404541016 -0.11811032146215439 -0.038759708404541016
-0.038759708404541016 -0.11786273121833801 -0.02325582504272461
-0.038759708404541016 -0.11877578496932983 -0.007751941680908203
-0.038759708404541016 -0.1200273334980011 0.007751941680908203
-0.038759708404541016 -0.12094132602214813 0.02325582504272461
-0.038759708404541016 -0.12114036828279495 0.038759708404541016
-0.038759708404541016 -0.11828641593456268 0.05426359176635742
-0.038759708404541016 -0.1020369827747345 0.06976747512817383
-0.038759708404541016 -0.025873856619000435 0.17829453945159912
-0.038759708404541016 -0.01792658120393753 0.17829453945159912
-0.038759708404541016 0.07438518106937408 0.06976747512817383
-0.038759708404541016 0.09453772008419037 -0.08527129888534546
-0.038759708404541016 0.09590832144021988 -0.06976741552352905
-0.038759708404541016 0.09821833670139313 0.05426359176635742
-0.038759708404541016 0.10175535082817078 -0.05426359176635742
-0.038759708404541016 0.1027403324842453 -0.038759708404541016
-0.038759708404541016 0.10325847566127777 -0.02325582504272461
-0.038759708404541016 0.10406175255775452 -0.007751941680908203
-0.038759708404541016 0.10432678461074829 0.007751941680908203
-0.038759708404541016 0.10446059703826904 0.02325582504272461
-0.038759708404541016 0.10339856147766113 0.038759708404541016
-0.038759708404541016 0.13671091198921204 -0.1782945990562439
-0.038759708404541016 0.13520199060440063 -0.1627907156944275
-0.038759708404541016 0.13400235772132874 -0.14728683233261108
-0.03875970467925072 0.133440300822258 -0.13178294897079468
-0.038759708404541016 0.13285064697265625 -0.11627906560897827
-0.038759708404541016 0.13236549496650696 -0.10077518224716187
-0.02325582504272461 -0.14764422178268433 -0.24031007289886475
-0.02325582504272461 -0.14782370626926422 -0.22480618953704834
-0.02325582504272461 -0.13749593496322632 -0.25581395626068115
-0.02325582504272461 -0.14617598056793213 -0.1782945990562439
-0.02325582504272461 -0.14205121994018555 -0.1627907156944275
-0.02325582504272461 -0.14092503488063812 -0.14728683233261108
-0.02325582504272461 -0.14131586253643036 -0.13178294897079468
-0.02325582504272461 -0.13997820019721985 -0.11627906560897827
-0.02325582504272461 -0.13737046718597412 -0.10077518224716187
-0.02325582504272461 -0.13448548316955566 -0.08527129888534546
-0.02325582504272461 -0.11983215808868408 -0.25581395626068115
-0.02325582504272461 -0.1182161271572113 -0.22480618953704834
-0.02325582504272461 -0.12380088865756989 -0.06976741552352905
-0.02325582504272461 -0.11910310387611389 -0.05426359176635742
-0.02325582504272461 -0.11784125119447708 -0.038759708404541016
-0.02325582504272461 -0.11754554510116577 -0.02325582504272461
-0.02325582504272461 -0.11840140074491501 -0.007751941680908203
-0.02325582504272461 -0.11950457096099854 0.007751941680908203
-0.02325582504272461 -0.12022077292203903 0.02325582504272461
-0.02325582504272461 -0.1201993077993393 0.038759708404541016
-0.02325582504272461 -0.11744493246078491 0.05426359176635742
-0.02325582504272461 -0.11452717334032059 -0.24031007289886475
-0.02325582504272461 -0.10204437375068665 0.06976747512817383
-0.02325582504272461 -0.02588636800646782 0.17829453945159912
-0.02325582690536976 -0.018952656537294388 0.17829453945159912
-0.02325582504272461 0.07777048647403717 0.06976747512817383
-0.02325582504272461 0.10011148452758789 -0.08527129888534546
-0.02325582504272461 0.1130763590335846 -0.24031007289886475
-0.02325582504272461 0.11512333154678345 -0.22480618953704834
-0.02325582504272461 0.10107158124446869 -0.06976741552352905
-0.02325582504272461 0.10279810428619385 -0.05426359176635742
-0.02325582504272461 0.10405778884887695 -0.038759708404541016
-0.02325582504272461 0.10459862649440765 -0.02325582504272461
-0.02325582504272461 0.10558214783668518 -0.007751941680908203
-0.02325582690536976 0.10579125583171844 0.007751941680908203
-0.02325582318007946 0.10560254752635956 0.02325582318007946
-0.02325582318007946 0.10445395112037659 0.038759708404541016
-0.02325582690536976 0.10115832835435867 0.05426359176635742
-0.02325582504272461 0.13573066890239716 -0.24031007289886475
-0.02325582504272461 0.13548889756202698 -0.22480617463588715
-0.02325582504272461 0.13690993189811707 -0.1782945990562439
-0.02325582504272461 0.13602164387702942 -0.1627907156944275
-0.02325582504272461 0.13529632985591888 -0.14728683233261108
-0.02325582504272461 0.13484600186347961 -0.13178294897079468
-0.02325582504272461 0.13409805297851562 -0.11627906560897827
-0.02325582504272461 0.13289766013622284 -0.10077518224716187
-0.007751941680908203 -0.14751869440078735 -0.1782945990562439
-0.007751941680908203 -0.14345629513263702 -0.24031007289886475
-0.007751941680908203 -0.1469317227602005 -0.22480618953704834
-0.007751941680908203 -0.14419279992580414 -0.1627907156944275
-0.007751941680908203 -0.1419132947921753 -0.14728683233261108
-0.007751941680908203 -0.14226409792900085 -0.13178294897079468
-0.00775194214656949 -0.14074592292308807 -0.11627906560897827
-0.007751941680908203 -0.13746705651283264 -0.10077518224716187
-0.007751941680908203 -0.13433346152305603 -0.08527129888534546
-0.007751941680908203 -0.11783340573310852 -0.22480618953704834
-0.007751941680908203 -0.12406963109970093 -0.06976741552352905
-0.007751941680908203 -0.11918289959430695 -0.05426359176635742
-0.007751941680908203 -0.11753813922405243 -0.038759708404541016
-0.007751941680908203 -0.1170722022652626 -0.02325582504272461
-0.007751941680908203 -0.11779346317052841 -0.007751941680908203
-0.007751941680908203 -0.11871422082185745 0.007751941680908203
-0.007751941680908203 -0.11917804926633835 0.02325582504272461
-0.007751941680908203 -0.11861255019903183 0.038759708404541016
-0.007751941680908203 -0.11497306078672409 -0.24031007289886475
-0.00775194214656949 -0.11576088517904282 0.05426359176635742
-0.007751941680908203 -0.10061489045619965 0.06976747512817383
-0.007751941680908203 -0.025860631838440895 0.17829453945159912
-0.007751941680908203 -0.019115060567855835 0.17829453945159912
-0.007751941680908203 0.07388357073068619 0.06976747512817383
-0.007751941680908203 0.11464443802833557 -0.24031007289886475
-0.007751941680908203 0.11607294529676437 -0.22480618953704834
-0.007751941680908203 0.10572967678308487 -0.08527129888534546
-0.007751941680908203 0.10230110585689545 -0.06976741552352905
-0.007751941680908203 0.10372786223888397 -0.05426359176635742
-0.007751941680908203 0.10496494174003601 -0.038759708404541016
-0.007751941680908203 0.10518071055412292 -0.02325582504272461
-0.007751941680908203 0.10595114529132843 -0.007751941680908203
-0.00775194214656949 0.10609261691570282 0.00775194214656949
-0.007751941680908203 0.10548718273639679 0.02325582504272461
-0.007751941680908203 0.10411733388900757 0.038759708404541016
-0.007751941680908203 0.10095459967851639 0.05426358804106712
-0.00775194214656949 0.134255513548851 -0.24031007289886475
-0.007751941680908203 0.13469800353050232 -0.22480618953704834
-0.007751941680908203 0.13843560218811035 -0.1782945990562439
-0.007751941680908203 0.13743816316127777 -0.1627907156944275
-0.007751941680908203 0.13648033142089844 -0.14728683233261108
-0.007751941680908203 0.13578173518180847 -0.13178294897079468
-0.007751941680908203 0.13490863144397736 -0.11627906560897827
-0.007751941680908203 0.13357551395893097 -0.10077517479658127
0.007751941680908203 -0.14761625230312347 -0.1782945990562439
0.007751941680908203 -0.14623650908470154 -0.16279073059558868
0.007751941680908203 -0.1424914300441742 -0.14728683233261108
0.007751941680908203 -0.14255152642726898 -0.13178294897079468
0.007751941680908203 -0.14099498093128204 -0.11627906560897827
0.007751941680908203 -0.13795357942581177 -0.10077518224716187
0.007751941680908203 -0.13376885652542114 -0.08527129888534546
0.007751941680908203 -0.12318935990333557 -0.06976741552352905
0.007751941680908203 -0.11887059360742569 -0.05426359176635742
0.007751941680908203 -0.11713315546512604 -0.038759708404541016
0.007751941680908203 -0.11657072603702545 -0.02325582504272461
0.007751941680908203 -0.11712554097175598 -0.007751941680908203
0.007751941680908203 -0.11778121441602707 0.007751941680908203
0.007751941680908203 -0.117813341319561 0.02325582504272461
0.007751941680908203 -0.11672735959291458 0.038759708404541016
0.007751941680908203 -0.11070290207862854 0.05426359176635742
0.007751941680908203 -0.08973827958106995 0.06976747512817383
0.007751941680908203 -0.02615298144519329 0.17829453945159912
0.007751941680908203 -0.018166031688451767 0.17829453945159912
0.007751941680908203 0.0651538223028183 0.06976747512817383
0.007751941680908203 0.09695152938365936 0.05426359176635742
0.007751941680908203 0.1054440587759018 -0.08527129888534546
0.007751941680908203 0.10228869318962097 -0.06976741552352905
0.007751941680908203 0.10384736955165863 -0.05426359176635742
0.007751941680908203 0.10497231036424637 -0.038759708404541016
0.007751941680908203 0.10487517714500427 -0.02325582504272461
0.007751941680908203 0.1053493469953537 -0.007751941680908203
0.007751941680908203 0.10541616380214691 0.007751941680908203
0.00775194214656949 0.1045573353767395 0.02325582504272461
0.007751941680908203 0.1029735803604126 0.038759708404541016
0.007751941680908203 0.1395658552646637 -0.1782945990562439
0.007751941680908203 0.1384478509426117 -0.1627907156944275
0.007751941680908203 0.13658881187438965 -0.14728683233261108
0.007751941680908203 0.13553458452224731 -0.13178294897079468
0.007751941680908203 0.13448290526866913 -0.11627906560897827
0.007751941680908203 0.13344502449035645 -0.10077518224716187
0.02325582504272461 -0.1476559042930603 -0.1782945990562439
0.02325582504272461 -0.14733374118804932 -0.1627907156944275
0.02325582318007946 -0.14263653755187988 -0.14728683233261108
0.02325582504272461 -0.14238415658473969 -0.13178294897079468
0.02325582504272461 -0.14086179435253143 -0.11627905815839767
0.02325582504272461 -0.13858291506767273 -0.10077518224716187
0.02325582504272461 -0.13275088369846344 -0.08527129888534546
0.02325582504272461 -0.12091132998466492 -0.06976741552352905
0.02325582504272461 -0.11837466061115265 -0.05426359176635742
0.02325582504272461 -0.11710520088672638 -0.038759708404541016
0.02325582504272461 -0.11640488356351852 -0.02325582504272461
0.02325582504272461 -0.11677411198616028 -0.007751941680908203
0.02325582504272461 -0.1171545758843422 0.007751941680908203
0.02325582504272461 -0.11681365221738815 0.02325582504272461
0.02325582504272461 -0.11412055790424347 0.038759708404541016
0.02325582504272461 -0.10616493225097656 0.05426359176635742
0.02325582504272461 -0.08544068783521652 0.06976747512817383
0.02325582504272461 -0.026521090418100357 0.17829453945159912
0.02325582504272461 -0.016946084797382355 0.17829453945159912
0.02325582504272461 0.047562092542648315 0.06976747512817383
0.02325582504272461 0.10067619383335114 -0.08527129888534546
0.02325582504272461 0.09181651473045349 0.05426359176635742
0.02325582504272461 0.1011008694767952 -0.06976741552352905
0.02325582690536976 0.10302355885505676 -0.05426359176635742
0.02325582504272461 0.10405133664608002 -0.038759708404541016
0.02325582504272461 0.10367818176746368 -0.02325582504272461
0.02325582504272461 0.10393525660037994 -0.007751941680908203
0.02325582318007946 0.10390085726976395 0.007751941680908203
0.02325582504272461 0.10301432013511658 0.02325582504272461
0.02325582504272461 0.10156885534524918 0.038759708404541016
0.02325582504272461 0.13987252116203308 -0.1782945990562439
0.02325582504272461 0.13878174126148224 -0.1627907156944275
0.02325582504272461 0.1361730694770813 -0.14728683233261108
0.02325582504272461 0.1348099559545517 -0.13178294897079468
0.02325582504272461 0.13359345495700836 -0.11627906560897827
0.02325582504272461 0.1328628808259964 -0.10077518224716187
0.038759708404541016 -0.1473824828863144 -0.1782945990562439
0.038759708404541016 -0.1473695933818817 -0.1627907156944275
0.038759708404541016 -0.14250880479812622 -0.14728683233261108
0.038759708404541016 -0.1420932561159134 -0.13178294897079468
0.038759708404541016 -0.140741229057312 -0.11627906560897827
0.038759708404541016 -0.1391845941543579 -0.10077518224716187
0.038759708404541016 -0.12780418992042542 -0.08527130633592606
0.038759708404541016 -0.11798486858606339 -0.06976741552352905
0.038759708404541016 -0.11691361665725708 -0.05426359176635742
0.038759708404541016 -0.1164485290646553 -0.038759708404541016
0.038759708404541016 -0.11417264491319656 -0.02325582504272461
0.038759708404541016 -0.11417903006076813 -0.007751941680908203
0.038759708404541016 -0.11439860612154007 0.00775194214656949
0.038759708404541016 -0.11335951089859009 0.02325582504272461
0.038759708404541016 -0.10948026180267334 0.038759708404541016
0.038759708404541016 -0.10048475116491318 0.05426359176635742
0.038759708404541016 -0.02587437443435192 0.17829453945159912
0.038759708404541016 -0.008134535513818264 0.06976747512817383
0.038759708404541016 -0.01713501662015915 0.17829453945159912
0.038759708404541016 -0.004188693128526211 0.06976747512817383
0.038759708404541016 0.09526319056749344 -0.08527129888534546
0.038759708404541016 0.09438847005367279 -0.06976741552352905
0.038759708404541016 0.09478665888309479 0.038759708404541016
0.038759708404541016 0.08572888374328613 0.05426359549164772
0.038759708404541016 0.10164212435483932 -0.05426359176635742
0.038759708404541016 0.10231225192546844 -0.038759708404541016
0.038759708404541016 0.10177206248044968 -0.02325582504272461
0.038759708404541016 0.10165348649024963 -0.007751941680908203
0.038759708404541016 0.10140050947666168 0.007751941680908203
0.038759712129831314 0.10081729292869568 0.02325582504272461
0.038759708404541016 0.13947555422782898 -0.1782945990562439
0.038759708404541016 0.13845676183700562 -0.1627907156944275
0.038759708404541016 0.13571688532829285 -0.14728683233261108
0.038759708404541016 0.1342191994190216 -0.13178294897079468
0.038759708404541016 0.1330702155828476 -0.11627906560897827
0.038759708404541016 0.13246285915374756 -0.10077518224716187
0.05426359176635742 -0.14744357764720917 -0.1627907156944275
0.05426359176635742 -0.14575019478797913 -0.1782946139574051
0.05426359176635742 -0.14269688725471497 -0.14728683233261108
0.05426359176635742 -0.14193257689476013 -0.13178294897079468
0.05426359176635742 -0.140901118516922 -0.11627906560897827
0.05426359176635742 -0.13968731462955475 -0.10077518224716187
0.05426359176635742 -0.11518532782793045 -0.08527129143476486
0.05426359176635742 -0.10957969725131989 -0.06976741552352905
0.05426359176635742 -0.11214607954025269 -0.05426359176635742
0.05426359176635742 -0.11177130043506622 -0.038759708404541016
0.05426359176635742 -0.10870520770549774 -0.02325582504272461
0.05426359176635742 -0.1069348156452179 -0.007751941680908203
0.05426359176635742 -0.10357663035392761 0.007751941680908203
0.05426359176635742 -0.09671548753976822 0.02325582504272461
0.05426359176635742 -0.08565352112054825 0.038759708404541016
0.05426359176635742 -0.025151502341032028 0.17829453945159912
0.05426359176635742 -0.017920080572366714 0.17829453945159912
0.05426359176635742 0.023532116785645485 0.038759708404541016
0.05426359176635742 0.050918612629175186 0.02325582504272461
0.05426359176635742 0.08796807378530502 -0.08527129888534546
0.05426359176635742 0.08689219504594803 -0.06976741552352905
0.05426359176635742 0.0961744636297226 -0.05426359176635742
0.05426359176635742 0.09895958751440048 -0.038759708404541016
0.05426359176635742 0.09488403797149658 -0.02325582504272461
0.05426359176635742 0.09204661101102829 -0.007751941680908203
0.05426359176635742 0.08672543615102768 0.007751941680908203
0.05426359176635742 0.13938665390014648 -0.1782945990562439
0.05426359176635742 0.13848306238651276 -0.1627907156944275
0.05426359176635742 0.13547949492931366 -0.14728683233261108
0.05426359176635742 0.13375838100910187 -0.13178294897079468
0.05426359176635742 0.13279810547828674 -0.11627906560897827
0.05426359176635742 0.13222916424274445 -0.10077518224716187
0.06976747512817383 -0.14769510924816132 -0.1627907156944275
0.06976747512817383 -0.1466778963804245 -0.1782945990562439
0.06976747512817383 -0.14434368908405304 -0.14728683233261108
0.06976747512817383 -0.14321663975715637 -0.13178294897079468
0.06976747512817383 -0.14225928485393524 -0.11627906560897827
0.06976747512817383 -0.13996240496635437 -0.10077518224716187
0.06976747512817383 -0.09758909046649933 -0.08527129888534546
0.06976747512817383 -0.08932486176490784 -0.06976741552352905
0.06976747512817383 -0.09007755666971207 -0.05426359176635742
0.06976747512817383 -0.06618852913379669 -0.038759708404541016
0.06976747512817383 -0.024448972195386887 0.17829453945159912
0.06976747512817383 -0.020102065056562424 0.17829453945159912
0.06976747512817383 0.023727016523480415 -0.038759708404541016
0.06976747512817383 0.07791590690612793 -0.08527129888534546
0.06976747512817383 0.07147112488746643 -0.06976741552352905
0.06976747512817383 0.07284856587648392 -0.05426358804106712
0.06976747512817383 0.13991329073905945 -0.1782945990562439
0.06976747512817383 0.13913555443286896 -0.1627907156944275
0.06976747512817383 0.13597099483013153 -0.14728683233261108
0.06976747512817383 0.13410469889640808 -0.13178294897079468
0.06976747512817383 0.13313478231430054 -0.11627906560897827
0.06976747512817383 0.13221371173858643 -0.10077518224716187
0.08527135848999023 -0.14771007001399994 -0.1627907156944275
0.08527135848999023 -0.14607557654380798 -0.1782945990562439
0.08527135848999023 -0.14574414491653442 -0.14728683233261108
0.08527135103940964 -0.14484341442584991 -0.13178294897079468
0.08527135848999023 -0.1436566263437271 -0.11627906560897827
0.08527135848999023 -0.13965623080730438 -0.10077518224716187
0.08527135848999023 -0.0704743042588234 -0.08527129888534546
0.08527135848999023 0.03716547414660454 -0.08527129888534546
0.08527135848999023 0.13964176177978516 -0.1782945990562439
0.08527135848999023 0.13911917805671692 -0.1627907156944275
0.08527135848999023 0.1369921714067459 -0.14728683233261108
0.08527135848999023 0.1353202611207962 -0.13178294897079468
0.08527135848999023 0.13414645195007324 -0.11627906560897827
0.08527135848999023 0.13244706392288208 -0.10077518224716187
0.10077524185180664 -0.1415160745382309 -0.1782945990562439
0.10077524185180664 -0.14506767690181732 -0.1627907156944275
0.10077524185180664 -0.1421297788619995 -0.14728683233261108
0.10077524185180664 -0.14155063033103943 -0.13178294897079468
0.10077524185180664 -0.1410185545682907 -0.11627906560897827
0.10077524185180664 -0.13712623715400696 -0.10077518224716187
0.10077524185180664 0.13715718686580658 -0.1782945990562439
0.10077524185180664 0.13691936433315277 -0.1627907156944275
0.10077524185180664 0.13584190607070923 -0.14728683233261108
0.10077524185180664 0.13502508401870728 -0.13178294897079468
0.10077524185180664 0.13386954367160797 -0.11627906560897827
0.10077524185180664 0.13190241158008575 -0.10077518224716187
0.1472867727279663 -0.023568151518702507 0.17829453945159912
0.1472867727279663 -0.02218102291226387 0.17829453945159912
0.16279065608978271 -0.023449640721082687 0.17829453945159912
0.16279065608978271 -0.022480536252260208 0.17829453945159912
0.17829453945159912 -0.02333724871277809 0.17829453945159912
0.17829453945159912 -0.02289254404604435 0.17829453945159912
0.8759689331054688 -0.02337741106748581 0.17829453945159912
0.8759689331054688 -0.010722920298576355 0.17829453945159912
0.8914728164672852 -0.023549294099211693 0.17829453945159912
0.8914728164672852 -0.007551219314336777 0.17829453945159912
0.9069766998291016 -0.02356971986591816 0.17829453945159912
0.9069766998291016 -0.00754861393943429 0.17829453945159912
0.922480583190918 -0.023408927023410797 0.17829453945159912
0.922480583190918 -0.015880459919571877 0.17829453945159912
0.9379844665527344 -0.023557942360639572 0.17829453945159912
0.9379844665527344 -0.01704513467848301 0.17829453945159912
0.9534883499145508 -0.024581464007496834 0.17829453945159912
0.9534883499145508 -0.007733910344541073 0.17829452455043793
0.9689922332763672 -0.025194602087140083 0.17829453945159912
0.9689922332763672 -0.005488532595336437 0.17829455435276031
0.9844961166381836 -0.05448044091463089 0.17829453945159912
0.9844961166381836 0.06433512270450592 0.17829453945159912
-0.8449612259864807 -0.038759708404541016 0.17789757251739502
-0.8449612259864807 -0.038759708404541016 0.17885778844356537
-0.8449612259864807 -0.02325582504272461 0.17820899188518524
-0.8449612259864807 -0.02325582318007946 0.17840279638767242
-0.8294573426246643 -0.02325582504272461 0.17719650268554688
-0.8294573426246643 -0.02325582504272461 0.17972296476364136
-0.8139535188674927 -0.02325582504272461 0.176963672041893
-0.8139535188674927 -0.02325582504272461 0.18018031120300293
-0.7984496355056763 -0.02325582504272461 0.176914781332016
-0.7984496355056763 -0.02325582318007946 0.18044494092464447
-0.7829457521438599 -0.02325582504272461 0.17691119015216827
-0.7829457521438599 -0.02325582504272461 0.1806286871433258
-0.7674418687820435 -0.11627906560897827 -0.17879250645637512
-0.7674418687820435 -0.11627906560897827 -0.17106807231903076
-0.7674418687820435 -0.10077518224716187 -0.17906010150909424
-0.7674418687820435 -0.10077518224716187 -0.16770626604557037
-0.7674418687820435 -0.08527129888534546 -0.17955642938613892
-0.7674418687820435 -0.08527129888534546 -0.16536058485507965
-0.7674418687820435 -0.06976741552352905 -0.1800156533718109
-0.7674418687820435 -0.06976741552352905 -0.16532202064990997
-0.7674418687820435 -0.05426359176635742 -0.18035732209682465
-0.7674418687820435 -0.05426359176635742 -0.16583643853664398
-0.7674418687820435 -0.038759708404541016 -0.1805405616760254
-0.7674418687820435 -0.038759708404541016 -0.16531217098236084
-0.7674418687820435 -0.02325582504272461 -0.18047399818897247
-0.7674418687820435 -0.02325582504272461 -0.1640262007713318
-0.7674418687820435 -0.02325582504272461 0.17690086364746094
-0.7674419283866882 -0.02325582504272461 0.18073445558547974
-0.7674418687820435 -0.007751941680908203 -0.18031559884548187
-0.7674418091773987 -0.007751941215246916 -0.16155724227428436
-0.7674418687820435 0.007751941680908203 -0.18025505542755127
-0.7674418687820435 0.007751941680908203 -0.160344198346138
-0.7674418687820435 0.02325582504272461 -0.18032149970531464
-0.7674419283866882 0.02325582504272461 -0.1609913855791092
-0.7674418687820435 0.038759708404541016 -0.18014401197433472
-0.7674418687820435 0.038759708404541016 -0.16112267971038818
-0.7674418687820435 0.05426359176635742 -0.18008676171302795
-0.7674418687820435 0.05426359176635742 -0.1588561236858368
-0.7674418687820435 0.06976747512817383 -0.18000507354736328
-0.7674418687820435 0.06976747512817383 -0.15471728146076202
-0.7674418687820435 0.08527135848999023 -0.1799125373363495
-0.7674418687820435 0.08527135848999023 -0.14914409816265106
-0.7674418687820435 0.10077524185180664 -0.17981941998004913
-0.7674418687820435 0.10077524185180664 -0.14048588275909424
-0.7674418687820435 0.11627912521362305 -0.1796618402004242
-0.7674418687820435 0.11627912521362305 -0.13908685743808746
-0.7674418687820435 0.1317828893661499 -0.17958210408687592
-0.7674418687820435 0.1317828893661499 -0.13182170689105988
-0.751937985420227 -0.14728683233261108 -0.1799040138721466
-0.751937985420227 -0.14728683233261108 -0.08937153220176697
-0.751937985420227 -0.13178294897079468 -0.18181797862052917
-0.751937985420227 -0.13178294897079468 -0.06768912076950073
-0.751937985420227 -0.11627906560897827 -0.18207937479019165
-0.7519379258155823 -0.11627906560897827 -0.06635266542434692
-0.751937985420227 -0.10077518224716187 -0.18178033828735352
-0.7519380450248718 -0.10077518224716187 -0.06800366938114166
-0.751937985420227 -0.08527129888534546 -0.18177330493927002
-0.751937985420227 -0.08527129888534546 -0.07289185374975204
-0.751937985420227 -0.06976741552352905 -0.18223118782043457
-0.751937985420227 -0.06976741552352905 -0.075114905834198
-0.751937985420227 -0.05426359176635742 -0.18284161388874054
-0.751937985420227 -0.05426359176635742 -0.07627555727958679
-0.751937985420227 -0.038759708404541016 -0.18297433853149414
-0.751937985420227 -0.038759708404541016 -0.07743728160858154
-0.751937985420227 -0.02325582504272461 -0.1826152801513672
-0.751937985420227 -0.02325582504272461 -0.07860889285802841
-0.751937985420227 -0.02325582504272461 0.17686372995376587
-0.751937985420227 -0.02325582504272461 0.1807488203048706
-0.751937985420227 -0.007751941680908203 -0.18215081095695496
-0.751937985420227 -0.00775194214656949 -0.07820667326450348
-0.751937985420227 0.007751941680908203 -0.18206152319908142
-0.751937985420227 0.007751941680908203 -0.07680122554302216
-0.751937985420227 0.02325582504272461 -0.18218164145946503
-0.751937985420227 0.02325582504272461 -0.07686896622180939
-0.751937985420227 0.038759708404541016 -0.18218326568603516
-0.751937985420227 0.038759708404541016 -0.07657510787248611
-0.751937985420227 0.05426359176635742 -0.181736558675766
-0.751937985420227 0.05426359176635742 -0.07422664761543274
-0.751937985420227 0.06976747512817383 -0.181106835603714
-0.751937985420227 0.06976747512817383 -0.06986422836780548
-0.751937985420227 0.08527135848999023 -0.1806361824274063
-0.751937985420227 0.08527135848999023 -0.06492960453033447
-0.751937985420227 0.10077524185180664 -0.1803441196680069
-0.751937985420227 0.10077524185180664 -0.05809952691197395
-0.751937985420227 0.11627912521362305 -0.18019266426563263
-0.751937985420227 0.11627912521362305 -0.06491521745920181
-0.751937985420227 0.1317828893661499 -0.18025021255016327
-0.751937985420227 0.1317828893661499 -0.07165360450744629
-0.7364341020584106 -0.14728683233261108 -0.1799587458372116
-0.7364341020584106 -0.14728683233261108 -0.11097364127635956
-0.7364341020584106 -0.13178294897079468 -0.18106961250305176
-0.7364341020584106 -0.13178294897079468 -0.023395134136080742
-0.7364341020584106 -0.11627906560897827 -0.18100860714912415
-0.7364341020584106 -0.11627906560897827 -0.016276106238365173
-0.7364341020584106 -0.10077518224716187 -0.18078698217868805
-0.7364341020584106 -0.10077518224716187 -0.00956263579428196
-0.7364341020584106 -0.08527129888534546 -0.1807653307914734
-0.7364341020584106 -0.08527129888534546 -0.004695244133472443
-0.7364341020584106 -0.06976741552352905 -0.1811293512582779
-0.7364341020584106 -0.06976741552352905 -0.002786636585369706
-0.7364341020584106 -0.05426359176635742 -0.18173670768737793
-0.7364341020584106 -0.05426359176635742 -0.0041884323582053185
-0.7364341020584106 -0.038759708404541016 -0.18185830116271973
-0.7364341020584106 -0.038759708404541016 -0.007252302952110767
-0.7364341020584106 -0.02325582504272461 -0.1815129667520523
-0.7364341020584106 -0.02325582504272461 -0.011633520014584064
-0.7364341020584106 -0.02325582504272461 0.1768999844789505
-0.7364341020584106 -0.02325582504272461 0.18070268630981445
-0.7364341020584106 -0.007751941680908203 -0.18131117522716522
-0.7364341020584106 -0.007751941680908203 -0.015968479216098785
-0.7364341020584106 0.007751941680908203 -0.18127045035362244
-0.7364341020584106 0.007751941680908203 -0.018727952614426613
-0.7364341020584106 0.02325582504272461 -0.18112097680568695
-0.7364341020584106 0.02325582504272461 -0.020888639613986015
-0.7364341020584106 0.038759708404541016 -0.18104426562786102
-0.7364341020584106 0.038759708404541016 -0.022954490035772324
-0.7364341020584106 0.05426359176635742 -0.18075650930404663
-0.7364341020584106 0.05426359176635742 -0.024130355566740036
-0.7364341020584106 0.06976747512817383 -0.18042020499706268
-0.7364341020584106 0.06976747512817383 -0.02619035914540291
-0.7364341020584106 0.08527135848999023 -0.1802140474319458
-0.7364341020584106 0.08527135848999023 -0.02350226603448391
-0.7364341020584106 0.10077524185180664 -0.18013423681259155
-0.7364341020584106 0.10077524185180664 -0.024528205394744873
-0.7364341020584106 0.11627912521362305 -0.18011638522148132
-0.7364341020584106 0.11627912521362305 -0.042555373162031174
-0.7364341020584106 0.1317828893661499 -0.1802201122045517
-0.7364341020584106 0.1317828893661499 -0.06971638649702072
-0.7209302186965942 -0.14728683233261108 -0.17979328334331512
-0.7209302186965942 -0.14728683233261108 -0.11648768186569214
-0.7209302186965942 -0.13178294897079468 -0.18092602491378784
-0.7209302186965942 -0.13178294897079468 -0.022042447701096535
-0.7209302186965942 -0.11627906560897827 -0.18077722191810608
-0.7209302186965942 -0.11627906560897827 -0.006078343838453293
-0.7209302186965942 -0.10077518224716187 -0.1805225908756256
-0.7209302186965942 -0.10077518224716187 0.0033761749509721994
-0.7209302186965942 -0.08527129888534546 -0.18044662475585938
-0.7209302186965942 -0.08527129888534546 0.01192709244787693
-0.7209302186965942 -0.06976741552352905 -0.18077681958675385
-0.7209302186965942 -0.06976741552352905 0.017798148095607758
-0.7209302186965942 -0.05426359176635742 -0.18139545619487762
-0.7209302186965942 -0.05426359176635742 0.020321300253272057
-0.7209302186965942 -0.038759708404541016 -0.181502103805542
-0.7209302186965942 -0.038759708404541016 0.02119630016386509
-0.7209302186965942 -0.02325582504272461 -0.18113484978675842
-0.7209302186965942 -0.02325582504272461 0.02093382738530636
-0.7209302186965942 -0.02325582504272461 0.17698316276073456
-0.720930278301239 -0.02325582504272461 0.18064811825752258
-0.7209302186965942 -0.007751941680908203 -0.1809801608324051
-0.7209302186965942 -0.007751941680908203 0.016913767904043198
-0.7209302186965942 0.007751941680908203 -0.18093477189540863
-0.7209302186965942 0.007751941680908203 0.012871800921857357
-0.7209302186965942 0.02325582504272461 -0.18073540925979614
-0.7209302186965942 0.02325582504272461 0.011833598837256432
-0.7209302186965942 0.038759708404541016 -0.18063199520111084
-0.7209302186965942 0.038759708404541016 0.0071732476353645325
-0.7209302186965942 0.05426359176635742 -0.18037575483322144
-0.7209302186965942 0.05426359176635742 0.0014630767982453108
-0.7209302186965942 0.06976747512817383 -0.1801307201385498
-0.7209301590919495 0.06976747512817383 -0.004338099621236324
-0.7209302186965942 0.08527135848999023 -0.18001843988895416
-0.7209302186965942 0.08527135848999023 -0.008977499790489674
-0.7209302186965942 0.10077524185180664 -0.18002435564994812
-0.7209302186965942 0.10077524185180664 -0.017965145409107208
-0.7209302186965942 0.11627912521362305 -0.18007324635982513
-0.7209302186965942 0.11627911776304245 -0.03841554373502731
-0.7209302186965942 0.1317828893661499 -0.18019771575927734
-0.720930278301239 0.1317829042673111 -0.0696280375123024
-0.7054263353347778 -0.14728683233261108 -0.17907589673995972
-0.7054263353347778 -0.14728683233261108 -0.12477590143680573
-0.7054263353347778 -0.13178294897079468 -0.180576354265213
-0.7054263353347778 -0.13178294897079468 -0.022373024374246597
-0.7054263353347778 -0.11627906560897827 -0.18049634993076324
-0.7054263353347778 -0.11627906560897827 -0.005282515659928322
-0.7054263353347778 -0.10077518224716187 -0.18026702105998993
-0.7054263353347778 -0.10077518224716187 0.008452586829662323
-0.7054263353347778 -0.08527129888534546 -0.18021155893802643
-0.7054263353347778 -0.08527129888534546 0.01696018874645233
-0.7054263353347778 -0.06976741552352905 -0.18052521347999573
-0.7054263353347778 -0.06976741552352905 0.023421388119459152
-0.7054263353347778 -0.05426359176635742 -0.18110792338848114
-0.7054263353347778 -0.05426359176635742 0.02717730775475502
-0.7054263353347778 -0.038759708404541016 -0.1811937838792801
-0.7054263353347778 -0.038759708404541016 0.030993610620498657
-0.7054263353347778 -0.02325582504272461 -0.18080845475196838
-0.7054263353347778 -0.02325582504272461 0.03286534547805786
-0.7054263353347778 -0.02325582504272461 0.17700789868831635
-0.7054263353347778 -0.02325582318007946 0.18070682883262634
-0.7054263353347778 -0.007751941680908203 -0.18066591024398804
-0.7054263353347778 -0.007751941680908203 0.030996138229966164
-0.7054263353347778 0.007751941680908203 -0.1806262880563736
-0.7054263353347778 0.007751941680908203 0.027544653043150902
-0.7054263353347778 0.02325582504272461 -0.18040111660957336
-0.7054263353347778 0.02325582504272461 0.025492187589406967
-0.7054263353347778 0.038759708404541016 -0.18028496205806732
-0.7054263353347778 0.038759708404541016 0.01985594630241394
-0.7054263353347778 0.05426359176635742 -0.18007759749889374
-0.7054263353347778 0.05426359176635742 0.013787513598799706
-0.7054263353347778 0.06976747512817383 -0.17990589141845703
-0.7054263353347778 0.06976747512817383 0.0037181004881858826
-0.7054263353347778 0.08527135848999023 -0.17984329164028168
-0.7054263353347778 0.08527135848999023 -0.003533860668540001
-0.7054263353347778 0.10077524185180664 -0.17988421022891998
-0.7054263353347778 0.10077524185180664 -0.012224327772855759
-0.7054263353347778 0.11627912521362305 -0.17996126413345337
-0.7054263353347778 0.11627912521362305 -0.03597775846719742
-0.7054263353347778 0.1317828893661499 -0.18007956445217133
-0.7054263353347778 0.1317828893661499 -0.07009691745042801
-0.6899224519729614 -0.14728683233261108 -0.17794819176197052
-0.6899224519729614 -0.14728683233261108 -0.14091597497463226
-0.6899224519729614 -0.13178294897079468 -0.18001659214496613
-0.6899224519729614 -0.13178294897079468 -0.02048920840024948
-0.6899224519729614 -0.11627906560897827 -0.18004830181598663
-0.6899224519729614 -0.11627907305955887 -0.0028205113485455513
-0.6899224519729614 -0.10077518224716187 -0.17993518710136414
-0.6899224519729614 -0.10077518224716187 0.01182282529771328
-0.6899224519729614 -0.08527129888534546 -0.17996156215667725
-0.6899224519729614 -0.08527129888534546 0.02152770757675171
-0.6899224519729614 -0.06976741552352905 -0.18028846383094788
-0.6899224519729614 -0.06976741552352905 0.02727564051747322
-0.6899224519729614 -0.05426359176635742 -0.1808294802904129
-0.6899224519729614 -0.05426359176635742 0.03228532895445824
-0.6899224519729614 -0.038759708404541016 -0.18087591230869293
-0.6899224519729614 -0.038759708404541016 0.035977017134428024
-0.6899224519729614 -0.02325582504272461 -0.1805042177438736
-0.6899224519729614 -0.02325582504272461 0.0380563959479332
-0.6899224519729614 -0.02325582504272461 0.17702758312225342
-0.6899224519729614 -0.02325582504272461 0.18080104887485504
-0.6899224519729614 -0.007751941680908203 -0.1803354024887085
-0.6899224519729614 -0.007751941680908203 0.03747411072254181
-0.6899224519729614 0.007751941680908203 -0.18028663098812103
-0.6899224519729614 0.007751941680908203 0.03533388674259186
-0.6899224519729614 0.02325582504272461 -0.18007409572601318
-0.6899224519729614 0.02325582504272461 0.03375986963510513
-0.6899224519729614 0.038759708404541016 -0.17992863059043884
-0.6899224519729614 0.038759708404541016 0.029690898954868317
-0.6899224519729614 0.05426359176635742 -0.179727241396904
-0.6899224519729614 0.05426359176635742 0.02090461365878582
-0.6899224519729614 0.06976747512817383 -0.17956915497779846
-0.6899224519729614 0.06976747512817383 0.011813491582870483
-0.6899224519729614 0.08527135848999023 -0.17951816320419312
-0.6899224519729614 0.08527135848999023 0.0015568037051707506
-0.6899224519729614 0.10077524185180664 -0.1795767992734909
-0.6899224519729614 0.10077524185180664 -0.006330661475658417
-0.6899224519729614 0.11627912521362305 -0.17967721819877625
-0.6899224519729614 0.11627912521362305 -0.02168232388794422
-0.6899224519729614 0.1317828893661499 -0.17978458106517792
-0.6899224519729614 0.1317828893661499 -0.07104994356632233
-0.674418568611145 -0.14728683233261108 -0.1692628413438797
-0.674418568611145 -0.14728683233261108 -0.15210390090942383
-0.674418568611145 -0.13178294897079468 -0.17970141768455505
-0.674418568611145 -0.13178294897079468 -0.011720540001988411
-0.674418568611145 -0.11627906560897827 -0.17981469631195068
-0.674418568611145 -0.11627906560897827 0.005337473936378956
-0.674418568611145 -0.10077518224716187 -0.17977163195610046
-0.674418568611145 -0.10077518224716187 0.016752708703279495
-0.674418568611145 -0.08527129888534546 -0.17985588312149048
-0.6744185090065002 -0.08527129888534546 0.025966839864850044
-0.674418568611145 -0.06976741552352905 -0.1802222579717636
-0.674418568611145 -0.06976741552352905 0.03227286413311958
-0.674418568611145 -0.05426359176635742 -0.18076260387897491
-0.674418568611145 -0.05426359176635742 0.03741438686847687
-0.674418568611145 -0.038759708404541016 -0.18077704310417175
-0.674418568611145 -0.038759708404541016 0.03960823640227318
-0.674418568611145 -0.02325582504272461 -0.18037697672843933
-0.674418568611145 -0.02325582504272461 0.04160286858677864
-0.674418568611145 -0.02325582504272461 0.17706097662448883
-0.6744186282157898 -0.02325582690536976 0.18088671565055847
-0.674418568611145 -0.007751941680908203 -0.18016554415225983
-0.674418568611145 -0.007751941680908203 0.04121335223317146
-0.674418568611145 0.007751941680908203 -0.18011775612831116
-0.674418568611145 0.007751941680908203 0.040001556277275085
-0.674418568611145 0.02325582504272461 -0.1799333542585373
-0.674418568611145 0.02325582504272461 0.03920210525393486
-0.674418568611145 0.038759708404541016 -0.17978617548942566
-0.674418568611145 0.038759708404541016 0.03496115282177925
-0.674418568611145 0.05426359176635742 -0.17957726120948792
-0.674418568611145 0.05426358804106712 0.02868516370654106
-0.674418568611145 0.06976747512817383 -0.17940907180309296
-0.674418568611145 0.06976747512817383 0.018517199903726578
-0.674418568611145 0.08527135848999023 -0.1793537586927414
-0.674418568611145 0.08527135848999023 0.008571751415729523
-0.674418568611145 0.10077524185180664 -0.17941418290138245
-0.674418568611145 0.10077524185180664 -0.001971763325855136
-0.674418568611145 0.11627912521362305 -0.1795048862695694
-0.674418568611145 0.11627911776304245 -0.016197100281715393
-0.674418568611145 0.1317828893661499 -0.1795652061700821
-0.674418568611145 0.1317828893661499 -0.07047722488641739
-0.6589146852493286 -0.14728683233261108 -0.16769863665103912
-0.6589146852493286 -0.14728683233261108 -0.15266644954681396
-0.6589146852493286 -0.13178294897079468 -0.1797039955854416
-0.6589146852493286 -0.13178294897079468 -0.004667513072490692
-0.6589146852493286 -0.11627906560897827 -0.17988130450248718
-0.6589146852493286 -0.11627906560897827 0.01190837100148201
-0.6589146852493286 -0.10077518224716187 -0.1798611879348755
-0.6589146852493286 -0.10077518224716187 0.023992598056793213
-0.6589146852493286 -0.08527129888534546 -0.17997117340564728
-0.6589146852493286 -0.08527129888534546 0.03158893808722496
-0.6589146852493286 -0.06976741552352905 -0.18038064241409302
-0.6589146852493286 -0.06976741552352905 0.03732076659798622
-0.6589146852493286 -0.05426359176635742 -0.18095806241035461
-0.6589146852493286 -0.05426359176635742 0.040125634521245956
-0.6589146852493286 -0.038759708404541016 -0.1809532791376114
-0.6589146852493286 -0.038759708404541016 0.042881451547145844
-0.6589146852493286 -0.02325582504272461 -0.18050365149974823
-0.6589146852493286 -0.02325582504272461 0.04594409465789795
-0.6589146852493286 -0.02325582504272461 0.17703984677791595
-0.6589146852493286 -0.02325582504272461 0.18095505237579346
-0.6589146852493286 -0.007751941680908203 -0.1802290678024292
-0.6589146852493286 -0.007751941680908203 0.04549912363290787
-0.6589146852493286 0.007751941680908203 -0.18018537759780884
-0.6589146852493286 0.007751941680908203 0.04392736405134201
-0.6589146852493286 0.02325582504272461 -0.18004612624645233
-0.6589146852493286 0.02325582504272461 0.04301663860678673
-0.6589146852493286 0.038759708404541016 -0.17992225289344788
-0.6589146852493286 0.038759708404541016 0.03960960730910301
-0.6589146852493286 0.05426359176635742 -0.17969471216201782
-0.6589146852493286 0.05426359176635742 0.034086212515830994
-0.6589146852493286 0.06976747512817383 -0.1794968992471695
-0.6589147448539734 0.06976747512817383 0.02551218867301941
-0.6589146852493286 0.08527135848999023 -0.17941901087760925
-0.6589146852493286 0.08527135848999023 0.01503070630133152
-0.6589146852493286 0.10077524185180664 -0.17945031821727753
-0.6589146852493286 0.10077524185180664 0.004397495649755001
-0.6589146852493286 0.11627912521362305 -0.1794978380203247
-0.6589146852493286 0.11627912521362305 -0.006664608605206013
-0.6589146852493286 0.1317828893661499 -0.17951016128063202
-0.6589146852493286 0.1317828893661499 -0.06781195849180222
-0.643410861492157 -0.14728683233261108 -0.16907036304473877
