-0.11627906560897827 0.1472867727279663 -0.35097330808639526
-0.11627907305955887 0.1472867727279663 -0.3330726623535156
-0.11627906560897827 0.1472867727279663 -0.13889139890670776
-0.11627906560897827 0.1472867727279663 -0.1026824414730072
-0.11627906560897827 0.1472867727279663 -0.0013505276292562485
-0.11627906560897827 0.1472867727279663 0.0588480569422245
-0.11627906560897827 0.16279065608978271 -0.35117873549461365
-0.11627906560897827 0.16279065608978271 -0.3331097662448883
-0.11627906560897827 0.16279065608978271 0.0016284182202070951
-0.11627906560897827 0.16279065608978271 0.058085232973098755
-0.11627906560897827 0.17829453945159912 -0.3513643741607666
-0.11627906560897827 0.17829453945159912 -0.33308953046798706
-0.11627906560897827 0.17829453945159912 0.005396888591349125
-0.11627906560897827 0.17829453945159912 0.057111479341983795
-0.11627906560897827 0.19379842281341553 -0.35157161951065063
-0.11627905815839767 0.19379842281341553 -0.3330515921115875
-0.11627906560897827 0.19379840791225433 0.011832127347588539
-0.11627906560897827 0.19379842281341553 0.054512958973646164
-0.11627906560897827 0.20930230617523193 -0.3517128825187683
-0.11627906560897827 0.20930230617523193 -0.3329453766345978
-0.11627906560897827 0.20930230617523193 0.017267810180783272
-0.11627906560897827 0.20930230617523193 0.04544726014137268
-0.11627906560897827 0.22480618953704834 -0.3518054485321045
-0.11627906560897827 0.22480618953704834 -0.33290618658065796
-0.11627906560897827 0.24031007289886475 -0.35189107060432434
-0.11627906560897827 0.24031007289886475 -0.3328695595264435
-0.11627906560897827 0.25581395626068115 -0.3518213927745819
-0.11627905815839767 0.25581395626068115 -0.33281904458999634
-0.11627906560897827 0.27131783962249756 -0.3517182767391205
-0.11627906560897827 0.27131783962249756 -0.33288562297821045
-0.11627906560897827 0.28682172298431396 -0.35168886184692383
-0.11627906560897827 0.28682172298431396 -0.3329792320728302
-0.11627906560897827 0.30232560634613037 -0.3516407608985901
-0.11627907305955887 0.30232560634613037 -0.33301854133605957
-0.11627906560897827 0.3178294897079468 -0.35158050060272217
-0.11627907305955887 0.3178294897079468 -0.33306360244750977
-0.11627906560897827 0.3333333730697632 -0.3515888750553131
-0.11627907305955887 0.3333333730697632 -0.33317455649375916
-0.11627906560897827 0.3488372564315796 -0.3515560030937195
-0.11627907305955887 0.3488372564315796 -0.3331499993801117
-0.11627906560897827 0.364341139793396 -0.35154372453689575
-0.11627906560897827 0.364341139793396 -0.33316782116889954
-0.11627906560897827 0.37984490394592285 -0.35152414441108704
-0.11627906560897827 0.37984487414360046 -0.3331317603588104
-0.11627906560897827 0.39534878730773926 -0.3515162467956543
-0.11627906560897827 0.39534878730773926 -0.3331201672554016
-0.11627906560897827 0.41085267066955566 -0.35145923495292664
-0.11627907305955887 0.41085267066955566 -0.33307987451553345
-0.11627906560897827 0.42635655403137207 -0.35139769315719604
-0.11627905815839767 0.4263565242290497 -0.33305850625038147
-0.11627906560897827 0.4418604373931885 -0.3512899875640869
-0.11627906560897827 0.4418604373931885 -0.3330865502357483
-0.11627906560897827 0.4573643207550049 -0.35118794441223145
-0.11627906560897827 0.4573643207550049 -0.3331628441810608
-0.11627906560897827 0.4728682041168213 -0.3510735332965851
-0.11627905815839767 0.4728682041168213 -0.33324918150901794
-0.11627906560897827 0.4883720874786377 -0.35096457600593567
-0.11627906560897827 0.4883720874786377 -0.3333302438259125
-0.11627906560897827 0.5038759708404541 -0.35093608498573303
-0.11627906560897827 0.5038759708404541 -0.33442509174346924
-0.11627906560897827 0.5193798542022705 -0.35092559456825256
-0.11627906560897827 0.5193798542022705 -0.3350699543952942
-0.11627906560897827 0.5348837375640869 -0.35090863704681396
-0.11627906560897827 0.5348837375640869 -0.335664838552475
-0.11627906560897827 0.5503876209259033 -0.35091036558151245
-0.11627906560897827 0.5503876209259033 -0.33587661385536194
-0.11627906560897827 0.5658915042877197 -0.35095730423927307
-0.11627906560897827 0.5658915042877197 -0.336055725812912
-0.11627906560897827 0.5813953876495361 -0.35096976161003113
-0.11627906560897827 0.5813953876495361 -0.33594879508018494
-0.11627906560897827 0.5968992710113525 -0.3509865999221802
-0.11627906560897827 0.5968992710113525 -0.33533644676208496
-0.11627906560897827 0.612403154373169 -0.3510032296180725
-0.11627906560897827 0.612403154373169 -0.3347811996936798
-0.11627906560897827 0.6279069185256958 -0.351053923368454
-0.11627906560897827 0.6279069185256958 -0.33464479446411133
-0.11627906560897827 0.6434108018875122 -0.35107919573783875
-0.11627906560897827 0.6434108018875122 -0.3343149721622467
-0.11627906560897827 0.6589146852493286 -0.3510889708995819
-0.11627906560897827 0.6589146852493286 -0.3351750671863556
-0.11627906560897827 0.674418568611145 -0.3510686159133911
-0.11627906560897827 0.674418568611145 -0.33628448843955994
-0.11627906560897827 0.6899224519729614 -0.3510116934776306
-0.11627906560897827 0.6899224519729614 -0.33728355169296265
-0.11627906560897827 0.7054263353347778 -0.3509499728679657
-0.11627906560897827 0.7054263353347778 -0.33803924918174744
-0.11627906560897827 0.7209302186965942 -0.3509445786476135
-0.11627906560897827 0.7209302186965942 -0.3386983871459961
-0.11627906560897827 0.7364341020584106 -0.3509412407875061
-0.11627906560897827 0.7364341020584106 -0.3391115069389343
-0.11627906560897827 0.751937985420227 -0.35094109177589417
-0.11627906560897827 0.751937985420227 -0.33942070603370667
-0.11627906560897827 0.7674418687820435 -0.35099858045578003
-0.11627906560897827 0.7674418687820435 -0.3393145799636841
-0.11627906560897827 0.7829457521438599 -0.3510167896747589
-0.11627906560897827 0.7829457521438599 -0.33885887265205383
-0.11627906560897827 0.7984496355056763 -0.35106104612350464
-0.11627906560897827 0.7984496355056763 -0.338400661945343
-0.11627906560897827 0.8139535188674927 -0.35105472803115845
-0.11627906560897827 0.8139535188674927 -0.33794862031936646
-0.11627906560897827 0.8294574022293091 -0.3510187566280365
-0.11627906560897827 0.8294574022293091 -0.33826038241386414
-0.11627906560897827 0.8449612855911255 -0.3509688079357147
-0.11627906560897827 0.8449612855911255 -0.3387978971004486
-0.11627906560897827 0.8604651689529419 -0.35091182589530945
-0.11627906560897827 0.8604651689529419 -0.33979129791259766
-0.11627906560897827 0.8759689331054688 -0.3509909510612488
-0.11627906560897827 0.8759689331054688 -0.3402192294597626
-0.11627906560897827 0.8914728164672852 -0.3512064218521118
-0.11627906560897827 0.8914728164672852 -0.3387956917285919
-0.11627906560897827 0.9069766998291016 -0.3489425778388977
-0.11627906560897827 0.9069766998291016 -0.34797045588493347
-0.10077518224716187 -0.8294573426246643 -0.3503541946411133
-0.10077518224716187 -0.8294573426246643 -0.340764582157135
-0.10077518224716187 -0.8139535188674927 -0.35075825452804565
-0.10077518224716187 -0.8139535188674927 -0.34182122349739075
-0.10077518224716187 -0.7984496355056763 -0.35037708282470703
-0.10077518224716187 -0.7984496355056763 -0.3428068161010742
-0.10077518224716187 -0.7829457521438599 -0.35039305686950684
-0.10077518224716187 -0.7829457521438599 -0.34231138229370117
-0.10077518224716187 -0.7674418687820435 -0.3505387008190155
-0.10077518224716187 -0.7674418687820435 -0.34167635440826416
-0.10077518224716187 -0.751937985420227 -0.3507840633392334
-0.10077518224716187 -0.751937985420227 -0.3409089744091034
-0.10077518224716187 -0.7364341020584106 -0.35106536746025085
-0.10077518224716187 -0.7364341020584106 -0.3401135802268982
-0.10077518224716187 -0.7209302186965942 -0.3512912690639496
-0.10077518224716187 -0.7209302186965942 -0.3395613133907318
-0.10077518224716187 -0.7054263353347778 -0.3514544367790222
-0.10077518224716187 -0.7054263353347778 -0.3391571044921875
-0.10077518224716187 -0.6899224519729614 -0.3514785170555115
-0.10077518224716187 -0.6899224519729614 -0.3390345275402069
-0.10077518224716187 -0.674418568611145 -0.35138067603111267
-0.10077518224716187 -0.674418568611145 -0.3392590284347534
-0.10077518224716187 -0.6589146852493286 -0.35129231214523315
-0.10077518224716187 -0.6589146852493286 -0.3398064374923706
-0.10077518224716187 -0.643410861492157 -0.35119858384132385
-0.10077518224716187 -0.643410861492157 -0.3402361273765564
-0.10077518224716187 -0.6279069781303406 -0.3511674404144287
-0.10077518224716187 -0.6279069781303406 -0.34055691957473755
-0.10077518224716187 -0.6124030947685242 -0.3511616289615631
-0.10077518224716187 -0.6124030947685242 -0.3403891324996948
-0.10077518224716187 -0.5968992710113525 -0.3512464463710785
-0.10077518224716187 -0.5968992114067078 -0.3401767611503601
-0.10077518224716187 -0.5813953876495361 -0.3513815999031067
-0.10077518224716187 -0.5813953876495361 -0.33952802419662476
-0.10077518224716187 -0.5658915042877197 -0.35148191452026367
-0.10077518224716187 -0.5658915042877197 -0.3386566638946533
-0.10077518224716187 -0.5503876209259033 -0.3515298366546631
-0.10077518224716187 -0.5503876209259033 -0.33791258931159973
-0.10077518224716187 -0.5348837375640869 -0.3516403138637543
-0.10077518224716187 -0.5348837375640869 -0.3372448682785034
-0.10077518224716187 -0.5193798542022705 -0.35168570280075073
-0.10077518224716187 -0.5193798542022705 -0.33589044213294983
-0.10077518224716187 -0.5038759708404541 -0.3516523838043213
-0.10077518224716187 -0.5038759708404541 -0.3345012664794922
-0.10077518224716187 -0.4883720874786377 -0.3516063988208771
-0.10077518224716187 -0.4883720874786377 -0.33332496881484985
-0.10077518224716187 -0.4728682041168213 -0.351534903049469
-0.10077517479658127 -0.4728682041168213 -0.3331220746040344
-0.10077518224716187 -0.4573643207550049 -0.35150277614593506
-0.10077518224716187 -0.4573643207550049 -0.33294790983200073
-0.10077518224716187 -0.4418604373931885 -0.3515586853027344
-0.10077518224716187 -0.4418604373931885 -0.3327605426311493
-0.10077518224716187 -0.42635661363601685 -0.3515987992286682
-0.10077518969774246 -0.42635661363601685 -0.3326879143714905
-0.10077518224716187 -0.41085273027420044 -0.35163795948028564
-0.10077518224716187 -0.41085273027420044 -0.33259573578834534
-0.10077518224716187 -0.39534884691238403 -0.3516930937767029
-0.10077518224716187 -0.39534884691238403 -0.33252641558647156
-0.10077518224716187 -0.3798449635505676 -0.3517112731933594
-0.10077517479658127 -0.3798449635505676 -0.33245226740837097
-0.10077518224716187 -0.3643410801887512 -0.35172080993652344
-0.10077518224716187 -0.3643410801887512 -0.3324812948703766
-0.10077518224716187 -0.3488371968269348 -0.3516043722629547
-0.10077518224716187 -0.3488371968269348 -0.33256080746650696
-0.10077518224716187 -0.3333333134651184 -0.3514421880245209
-0.10077518224716187 -0.333333283662796 -0.33272063732147217
-0.10077518224716187 -0.317829430103302 -0.3512853980064392
-0.10077518224716187 -0.317829430103302 -0.3329235911369324
-0.10077518224716187 -0.30232560634613037 -0.3511136472225189
-0.10077518224716187 -0.30232560634613037 -0.33311519026756287
-0.10077518224716187 -0.30232560634613037 -0.12422951310873032
-0.10077518224716187 -0.30232560634613037 -0.10081768035888672
-0.10077518224716187 -0.30232560634613037 0.01609814539551735
-0.10077518224716187 -0.30232560634613037 0.028198715299367905
-0.10077518224716187 -0.28682172298431396 -0.3508950471878052
-0.10077518969774246 -0.28682172298431396 -0.3332519829273224
-0.10077518224716187 -0.28682172298431396 -0.132547989487648
-0.10077518224716187 -0.28682172298431396 -0.0853424072265625
-0.10077518224716187 -0.28682172298431396 0.007479449734091759
-0.10077518224716187 -0.28682172298431396 0.0379689522087574
-0.10077518224716187 -0.27131783962249756 -0.3507354259490967
-0.10077518224716187 -0.27131783962249756 -0.3337094783782959
-0.10077518224716187 -0.27131783962249756 -0.13578957319259644
-0.10077518224716187 -0.27131783962249756 -0.06902764737606049
-0.10077518224716187 -0.27131783962249756 -0.001757665304467082
-0.10077518224716187 -0.27131783962249756 0.040423620492219925
-0.10077518224716187 -0.25581395626068115 -0.35066258907318115
-0.10077518224716187 -0.25581395626068115 -0.334105521440506
-0.10077518224716187 -0.25581395626068115 -0.13956601917743683
-0.10077518224716187 -0.25581395626068115 0.04322381317615509
-0.10077518224716187 -0.24031007289886475 -0.350650429725647
-0.10077518224716187 -0.24031007289886475 -0.33428359031677246
-0.10077518224716187 -0.24031007289886475 -0.14339479804039001
-0.10077518224716187 -0.24031007289886475 0.04548739641904831
-0.10077518224716187 -0.22480618953704834 -0.35065460205078125
-0.10077518224716187 -0.22480618953704834 -0.33331283926963806
-0.10077518969774246 -0.22480618953704834 -0.14642341434955597
-0.10077518224716187 -0.22480618953704834 0.04628266021609306
-0.10077518224716187 -0.20930230617523193 -0.35066983103752136
-0.10077518224716187 -0.20930230617523193 -0.33322370052337646
-0.10077518224716187 -0.20930230617523193 -0.1473868042230606
-0.10077518224716187 -0.20930230617523193 0.045995183289051056
-0.10077518224716187 -0.19379842281341553 -0.3507367968559265
-0.10077518224716187 -0.19379842281341553 -0.33315587043762207
-0.10077518224716187 -0.19379842281341553 -0.14756827056407928
-0.10077518224716187 -0.19379842281341553 0.04753640294075012
-0.10077518224716187 -0.1782945990562439 -0.35075119137763977
-0.10077518224716187 -0.1782945990562439 -0.33297255635261536
-0.10077518224716187 -0.1782945990562439 -0.14761966466903687
-0.10077518224716187 -0.1782945990562439 0.05160607397556305
-0.10077518224716187 -0.1627907156944275 -0.3507594168186188
-0.10077518224716187 -0.1627907156944275 -0.33276239037513733
-0.10077518224716187 -0.1627907156944275 -0.1476394534111023
-0.10077518224716187 -0.1627907156944275 0.055311419069767
-0.10077518224716187 -0.14728683233261108 -0.350837379693985
-0.10077518224716187 -0.14728684723377228 -0.3324078321456909
-0.10077518224716187 -0.14728683233261108 -0.1480366736650467
-0.10077518224716187 -0.14728683233261108 -0.03982654958963394
-0.10077518224716187 -0.14728683233261108 -0.021322889253497124
-0.10077518224716187 -0.14728683233261108 0.058233849704265594
-0.10077518224716187 -0.13178294897079468 -0.3509630858898163
-0.10077518224716187 -0.13178294897079468 -0.33198320865631104
-0.10077518224716187 -0.13178294897079468 -0.15019406378269196
-0.10077518224716187 -0.13178294897079468 0.06344552338123322
-0.10077518224716187 -0.11627906560897827 -0.3509681820869446
-0.10077518224716187 -0.11627906560897827 -0.33162498474121094
-0.10077518224716187 -0.11627906560897827 -0.1551896631717682
-0.10077518224716187 -0.11627906560897827 0.07079916447401047
-0.10077518224716187 -0.10077518224716187 -0.3509279191493988
-0.10077517479658127 -0.10077517479658127 -0.3314739167690277
-0.10077518224716187 -0.10077518224716187 -0.16005393862724304
-0.10077518224716187 -0.10077518224716187 0.07303597033023834
-0.10077518224716187 -0.08527129888534546 -0.3508966267108917
-0.10077518224716187 -0.08527129888534546 -0.33126842975616455
-0.10077518224716187 -0.08527129888534546 -0.16343241930007935
-0.10077518969774246 -0.08527129888534546 0.07430325448513031
-0.10077518224716187 -0.06976741552352905 -0.35089075565338135
-0.10077518224716187 -0.06976741552352905 -0.3313097655773163
-0.10077518224716187 -0.06976741552352905 -0.16574157774448395
-0.10077518224716187 -0.06976741552352905 0.07929157465696335
-0.10077518224716187 -0.05426359176635742 -0.35087358951568604
-0.10077518224716187 -0.05426359176635742 -0.33151692152023315
-0.10077518224716187 -0.05426359176635742 -0.1689807027578354
-0.10077518224716187 -0.05426359176635742 0.0939316675066948
-0.10077518224716187 -0.038759708404541016 -0.35084497928619385
-0.10077518224716187 -0.038759708404541016 -0.3317471444606781
-0.10077518224716187 -0.038759708404541016 -0.17107649147510529
-0.10077518224716187 -0.038759708404541016 0.11851866543292999
-0.10077518224716187 -0.02325582504272461 -0.3508373498916626
-0.10077518224716187 -0.02325582504272461 -0.33197081089019775
-0.10077518224716187 -0.02325582504272461 -0.17171479761600494
-0.10077518224716187 -0.02325582504272461 0.12702473998069763
-0.10077518224716187 -0.007751941680908203 -0.3508410155773163
-0.10077518224716187 -0.007751941215246916 -0.33210378885269165
-0.10077518224716187 -0.007751941680908203 -0.170845627784729
-0.10077518224716187 -0.007751941680908203 0.12405181676149368
-0.10077518224716187 0.007751941680908203 -0.35086846351623535
-0.10077518224716187 0.007751941680908203 -0.3322005569934845
-0.10077518224716187 0.007751941680908203 -0.16915687918663025
-0.10077518224716187 0.007751941680908203 0.1021130234003067
-0.10077518224716187 0.02325582504272461 -0.3508865237236023
-0.10077518224716187 0.02325582504272461 -0.3321996331214905
-0.10077518224716187 0.02325582504272461 -0.1670285016298294
-0.10077518224716187 0.02325582504272461 0.08438686281442642
-0.10077518224716187 0.038759708404541016 -0.3509179949760437
-0.10077518969774246 0.038759712129831314 -0.3322902321815491
-0.10077518224716187 0.038759708404541016 -0.16551442444324493
-0.10077518224716187 0.038759708404541016 0.0806887149810791
-0.10077518224716187 0.05426359176635742 -0.35093653202056885
-0.10077518224716187 0.05426359176635742 -0.33240991830825806
-0.10077518224716187 0.05426359176635742 -0.16454428434371948
-0.10077518224716187 0.05426359176635742 0.07929538190364838
-0.10077518224716187 0.06976747512817383 -0.3509826362133026
-0.10077518224716187 0.06976746767759323 -0.332568496465683
-0.10077518224716187 0.06976747512817383 -0.16386860609054565
-0.10077518224716187 0.06976747512817383 0.07764412462711334
-0.10077518224716187 0.08527135848999023 -0.3509456515312195
-0.10077518969774246 0.08527135848999023 -0.332655131816864
-0.10077518224716187 0.08527135848999023 -0.16339948773384094
-0.10077518224716187 0.08527135848999023 0.07503992319107056
-0.10077518224716187 0.10077524185180664 -0.3508942723274231
-0.10077517479658127 0.10077524185180664 -0.3328079283237457
-0.10077518224716187 0.10077524185180664 -0.16322575509548187
-0.10077518224716187 0.10077524185180664 0.07285021990537643
-0.10077518224716187 0.11627912521362305 -0.3508746027946472
-0.10077518224716187 0.11627911776304245 -0.33296269178390503
-0.10077518224716187 0.11627912521362305 -0.16316279768943787
-0.10077518224716187 0.11627912521362305 0.0715092197060585
-0.10077518224716187 0.1317828893661499 -0.35095885396003723
-0.10077518224716187 0.1317828893661499 -0.33305859565734863
-0.10077518224716187 0.1317828893661499 -0.1630610227584839
-0.10077518224716187 0.1317828893661499 0.07123468816280365
-0.10077518224716187 0.1472867727279663 -0.3510931730270386
-0.10077518224716187 0.1472867727279663 -0.33310604095458984
-0.10077518224716187 0.1472867727279663 -0.16277068853378296
-0.10077518224716187 0.1472867727279663 0.07106854021549225
-0.10077518224716187 0.16279065608978271 -0.35130229592323303
-0.10077517479658127 0.16279064118862152 -0.33314719796180725
-0.10077518224716187 0.16279065608978271 -0.15820184350013733
-0.10077518224716187 0.1627906709909439 0.07039008289575577
-0.10077518224716187 0.17829453945159912 -0.35149863362312317
-0.10077518969774246 0.17829453945159912 -0.33312493562698364
-0.10077518224716187 0.17829453945159912 -0.15368717908859253
-0.10077518224716187 0.17829453945159912 -0.05601563677191734
-0.10077518224716187 0.17829453945159912 -0.04826086014509201
-0.10077518224716187 0.17829453945159912 0.06849418580532074
-0.10077518224716187 0.19379842281341553 -0.3517068326473236
-0.10077518224716187 0.19379842281341553 -0.33308398723602295
-0.10077518224716187 0.19379842281341553 -0.14926855266094208
-0.10077518224716187 0.19379842281341553 -0.07597170770168304
-0.10077518224716187 0.19379842281341553 -0.025472024455666542
-0.10077518224716187 0.19379842281341553 0.06441716849803925
-0.10077518224716187 0.20930230617523193 -0.3518352806568146
-0.10077518224716187 0.20930230617523193 -0.3329654932022095
-0.10077518224716187 0.20930230617523193 -0.14770308136940002
-0.10077518224716187 0.20930229127407074 -0.08439311385154724
-0.10077518224716187 0.20930230617523193 -0.01999366097152233
-0.10077518224716187 0.20930230617523193 0.06056351587176323
-0.10077518224716187 0.22480618953704834 -0.35190942883491516
-0.10077518969774246 0.22480618953704834 -0.3329147398471832
-0.10077518224716187 0.22480618953704834 -0.14306244254112244
-0.10077518224716187 0.22480618953704834 -0.0935727059841156
-0.10077518224716187 0.22480618953704834 -0.014537656679749489
-0.10077518224716187 0.22480618953704834 0.05749846249818802
-0.10077518224716187 0.24031007289886475 -0.3520001769065857
-0.10077518224716187 0.24031007289886475 -0.33287373185157776
-0.10077518224716187 0.24031007289886475 -0.13396014273166656
-0.10077518224716187 0.24031007289886475 -0.1230962723493576
-0.10077518224716187 0.24031007289886475 0.004619968123733997
-0.10077518224716187 0.24031007289886475 0.051054008305072784
-0.10077518224716187 0.25581395626068115 -0.3519257605075836
-0.10077518224716187 0.25581395626068115 -0.3328305780887604
-0.10077518224716187 0.27131783962249756 -0.3517935872077942
-0.10077517479658127 0.27131780982017517 -0.332903116941452
-0.10077518224716187 0.28682172298431396 -0.35174208879470825
-0.10077518224716187 0.28682172298431396 -0.33299562335014343
-0.10077518224716187 0.30232560634613037 -0.35168248414993286
-0.10077517479658127 0.30232560634613037 -0.33303534984588623
-0.10077518224716187 0.3178294897079468 -0.35161828994750977
-0.10077517479658127 0.3178294897079468 -0.33308276534080505
-0.10077518224716187 0.3333333730697632 -0.35162869095802307
-0.10077518224716187 0.3333333730697632 -0.33319875597953796
-0.10077518224716187 0.3488372564315796 -0.3516009747982025
-0.10077518224716187 0.3488372564315796 -0.3331771492958069
-0.10077518224716187 0.364341139793396 -0.3515860140323639
-0.10077518224716187 0.3643411099910736 -0.3332004249095917
-0.10077518224716187 0.37984490394592285 -0.35155582427978516
-0.10077517479658127 0.37984487414360046 -0.33317479491233826
-0.10077518224716187 0.39534878730773926 -0.3515361547470093
-0.10077518224716187 0.39534878730773926 -0.33317050337791443
-0.10077518224716187 0.41085267066955566 -0.35145992040634155
-0.10077518224716187 0.41085270047187805 -0.33314070105552673
-0.10077518224716187 0.42635655403137207 -0.35138794779777527
-0.10077517479658127 0.42635655403137207 -0.3331279456615448
-0.10077518224716187 0.4418604373931885 -0.3512667417526245
-0.10077518224716187 0.4418604373931885 -0.33316078782081604
-0.10077518224716187 0.4573643207550049 -0.3511495888233185
-0.10077518224716187 0.4573643207550049 -0.3332410752773285
-0.10077518224716187 0.4728682041168213 -0.35102659463882446
-0.10077518224716187 0.4728682041168213 -0.33332353830337524
-0.10077518224716187 0.4883720874786377 -0.350910484790802
-0.10077518224716187 0.4883720874786377 -0.3339484632015228
-0.10077518224716187 0.5038759708404541 -0.3508819043636322
-0.10077518224716187 0.5038759708404541 -0.3349153399467468
-0.10077518224716187 0.5193798542022705 -0.3508793115615845
-0.10077518224716187 0.5193798542022705 -0.3353938162326813
-0.10077518224716187 0.5348837375640869 -0.35087481141090393
-0.10077518224716187 0.5348837375640869 -0.33581995964050293
-0.10077518224716187 0.5503876209259033 -0.3508826494216919
-0.10077518224716187 0.5503876209259033 -0.3358420431613922
-0.10077518224716187 0.5658915042877197 -0.3509334921836853
-0.10077518224716187 0.5658915042877197 -0.3359050750732422
-0.10077518224716187 0.5813953876495361 -0.3509506285190582
-0.10077518224716187 0.5813953876495361 -0.33568868041038513
-0.10077518224716187 0.5968992710113525 -0.35096779465675354
-0.10077518224716187 0.5968992710113525 -0.33494511246681213
-0.10077518224716187 0.612403154373169 -0.3509860038757324
-0.10077518224716187 0.612403154373169 -0.3341977596282959
-0.10077518224716187 0.6279069185256958 -0.35104668140411377
-0.10077518224716187 0.6279069185256958 -0.33386942744255066
-0.10077518224716187 0.6434108018875122 -0.3510863184928894
-0.10077518224716187 0.6434108018875122 -0.3333330452442169
-0.10077518224716187 0.6589146852493286 -0.35110077261924744
-0.10077518224716187 0.6589146852493286 -0.3340712785720825
-0.10077518224716187 0.674418568611145 -0.3510793447494507
-0.10077518224716187 0.674418568611145 -0.3352240025997162
-0.10077518224716187 0.674418568611145 -0.14729413390159607
-0.10077518224716187 0.674418568611145 -0.13147476315498352
-0.10077518224716187 0.6899224519729614 -0.3510161340236664
-0.10077518224716187 0.6899224519729614 -0.33635377883911133
-0.10077518224716187 0.6899224519729614 -0.14758004248142242
-0.10077518224716187 0.6899224519729614 -0.13083088397979736
-0.10077518224716187 0.7054263353347778 -0.350953072309494
-0.10077518224716187 0.7054263353347778 -0.33726638555526733
-0.10077518224716187 0.7054263353347778 -0.14773477613925934
-0.10077518224716187 0.7054263353347778 -0.13052329421043396
-0.10077518224716187 0.7209302186965942 -0.35096070170402527
-0.10077518224716187 0.7209302186965942 -0.3381415009498596
-0.10077518224716187 0.7209302186965942 -0.14763082563877106
-0.10077518224716187 0.7209302186965942 -0.1306602656841278
-0.10077518224716187 0.7364341020584106 -0.35097774863243103
-0.10077518224716187 0.7364341020584106 -0.3387368321418762
-0.10077518224716187 0.7364341020584106 -0.14738427102565765
-0.10077518224716187 0.7364341020584106 -0.13093093037605286
-0.10077518224716187 0.751937985420227 -0.3509870171546936
-0.10077518224716187 0.751937985420227 -0.3391841650009155
-0.10077518224716187 0.7519379258155823 -0.14375871419906616
-0.10077518224716187 0.751937985420227 -0.13104963302612305
-0.10077518224716187 0.7674418687820435 -0.351041316986084
-0.10077518224716187 0.7674418687820435 -0.3391878604888916
-0.10077518224716187 0.7674418687820435 -0.13885444402694702
-0.10077518224716187 0.7674418687820435 -0.13129891455173492
-0.10077518224716187 0.7829457521438599 -0.35105273127555847
-0.10077518224716187 0.7829457521438599 -0.33887556195259094
-0.10077518224716187 0.7984496355056763 -0.35108867287635803
-0.10077518224716187 0.7984496355056763 -0.338569313287735
-0.10077518224716187 0.8139535188674927 -0.35108059644699097
-0.10077518224716187 0.8139535188674927 -0.33822572231292725
-0.10077518224716187 0.8294574022293091 -0.35105159878730774
-0.10077518224716187 0.8294574022293091 -0.3385224938392639
-0.10077518224716187 0.8449612855911255 -0.3510105609893799
-0.10077518224716187 0.8449612855911255 -0.3389664888381958
-0.10077518224716187 0.8604651689529419 -0.3509637713432312
-0.10077518224716187 0.8604651689529419 -0.3398303985595703
-0.10077518224716187 0.8759689331054688 -0.35102808475494385
-0.10077518224716187 0.8759689331054688 -0.3402414321899414
-0.10077518224716187 0.8914728164672852 -0.351296603679657
-0.10077518224716187 0.8914728164672852 -0.3388563096523285
-0.10077518224716187 0.9069766998291016 -0.3495193123817444
-0.10077518224716187 0.9069766998291016 -0.3439691960811615
-0.08527129888534546 -0.8449612259864807 -0.3488450050354004
-0.08527129888534546 -0.8449612855911255 -0.3487994968891144
-0.08527129888534546 -0.8294573426246643 -0.3507123589515686
-0.08527129888534546 -0.8294573426246643 -0.3406146168708801
-0.08527129888534546 -0.8139535188674927 -0.3506637215614319
-0.08527129888534546 -0.8139535188674927 -0.3424068093299866
-0.08527129888534546 -0.7984496355056763 -0.35032108426094055
-0.08527129888534546 -0.7984496355056763 -0.343091756105423
-0.08527129888534546 -0.7829457521438599 -0.3503359854221344
-0.08527129888534546 -0.7829457521438599 -0.34262728691101074
-0.08527129888534546 -0.7674418687820435 -0.3504718244075775
-0.08527129888534546 -0.7674418687820435 -0.34207916259765625
-0.08527129888534546 -0.751937985420227 -0.3507077991962433
-0.08527129888534546 -0.751937985420227 -0.34139126539230347
-0.08527129888534546 -0.7364341020584106 -0.35098984837532043
-0.08527129888534546 -0.7364341020584106 -0.3406652808189392
-0.08527129888534546 -0.7209302186965942 -0.3512277603149414
-0.08527129888534546 -0.7209302186965942 -0.3401433825492859
-0.08527129888534546 -0.7054263353347778 -0.3514087200164795
-0.08527129888534546 -0.7054263353347778 -0.3397427797317505
-0.08527129888534546 -0.6899224519729614 -0.351441890001297
-0.08527129888534546 -0.6899224519729614 -0.33962634205818176
-0.08527129888534546 -0.674418568611145 -0.35134267807006836
-0.08527129888534546 -0.674418568611145 -0.33988186717033386
-0.08527129888534546 -0.6589146852493286 -0.3512457013130188
-0.08527129888534546 -0.6589146852493286 -0.34044384956359863
-0.08527129888534546 -0.643410861492157 -0.3511374592781067
-0.08527129888534546 -0.643410861492157 -0.34089380502700806
-0.08527129888534546 -0.6279069781303406 -0.35109958052635193
-0.08527129888534546 -0.6279069781303406 -0.3412149250507355
-0.08527129888534546 -0.6124030351638794 -0.35109472274780273
-0.08527129888534546 -0.6124030947685242 -0.3410772681236267
-0.08527129888534546 -0.5968992114067078 -0.35118821263313293
-0.08527129888534546 -0.5968992114067078 -0.34087181091308594
-0.08527129888534546 -0.5813953876495361 -0.3513372540473938
-0.08527129888534546 -0.5813953876495361 -0.34024348855018616
-0.08527129888534546 -0.5658915042877197 -0.35145479440689087
-0.08527129888534546 -0.5658915042877197 -0.33936071395874023
-0.08527129888534546 -0.5503876209259033 -0.3515205979347229
-0.08527129888534546 -0.5503876209259033 -0.3385741710662842
-0.08527129888534546 -0.5348837375640869 -0.35164862871170044
-0.08527129888534546 -0.5348837375640869 -0.33786851167678833
-0.08527129888534546 -0.5193798542022705 -0.3517046570777893
-0.08527129888534546 -0.5193798542022705 -0.3366573452949524
-0.08527129888534546 -0.5038759708404541 -0.3516736626625061
-0.08527129888534546 -0.5038759708404541 -0.33558565378189087
-0.08527129888534546 -0.4883720874786377 -0.3516330122947693
-0.08527129888534546 -0.4883720874786377 -0.33485227823257446
-0.08527129888534546 -0.4728682041168213 -0.3515562415122986
-0.08527129888534546 -0.4728682041168213 -0.3336634039878845
-0.08527129888534546 -0.4573643207550049 -0.3514924645423889
-0.08527129888534546 -0.4573643207550049 -0.3332710862159729
-0.08527129888534546 -0.4418604373931885 -0.3514977693557739
-0.08527129888534546 -0.44186046719551086 -0.33316752314567566
-0.08527129888534546 -0.4418604373931885 -0.12074541300535202
-0.08527129888534546 -0.4418604373931885 -0.1036873608827591
-0.08527129888534546 -0.4418604373931885 -0.012955332174897194
-0.08527129888534546 -0.4418604373931885 0.014821335673332214
-0.08527129888534546 -0.42635661363601685 -0.3514879047870636
-0.08527129888534546 -0.42635658383369446 -0.3331616520881653
-0.08527129888534546 -0.42635661363601685 -0.13060101866722107
-0.08527129888534546 -0.42635661363601685 -0.0939549133181572
-0.08527129888534546 -0.42635661363601685 -0.026395248249173164
-0.08527129888534546 -0.42635661363601685 0.02459910325706005
-0.08527129888534546 -0.41085273027420044 -0.35149264335632324
-0.08527129888534546 -0.4108527600765228 -0.33312055468559265
-0.08527129888534546 -0.41085273027420044 -0.13365568220615387
-0.08527129888534546 -0.41085273027420044 -0.08763142675161362
-0.08527129888534546 -0.41085273027420044 -0.03997933492064476
-0.08527129888534546 -0.41085273027420044 0.02855820022523403
-0.08527129888534546 -0.39534884691238403 -0.3515450954437256
-0.08527129888534546 -0.39534884691238403 -0.3330507278442383
-0.08527129888534546 -0.39534884691238403 -0.13601821660995483
-0.08527129888534546 -0.39534884691238403 -0.08174283802509308
-0.08527129888534546 -0.39534884691238403 -0.04633486270904541
-0.08527129888534546 -0.39534884691238403 0.032303497195243835
-0.08527129888534546 -0.3798449635505676 -0.351584255695343
-0.08527129888534546 -0.3798449635505676 -0.33293986320495605
-0.08527129888534546 -0.3798449635505676 -0.13769099116325378
-0.08527129888534546 -0.3798449635505676 -0.07552321255207062
-0.08527129888534546 -0.3798449635505676 -0.05011754110455513
-0.08527129888534546 -0.3798449635505676 0.036646947264671326
-0.08527129888534546 -0.3643410801887512 -0.3516257107257843
-0.08527129888534546 -0.3643410801887512 -0.33291348814964294
-0.08527129888534546 -0.3643410801887512 -0.13884621858596802
-0.08527129888534546 -0.3643410801887512 0.04041440784931183
-0.08527129888534546 -0.3488371968269348 -0.3515443205833435
-0.08527129888534546 -0.3488371968269348 -0.33291879296302795
-0.08527129888534546 -0.3488371968269348 -0.13995246589183807
-0.08527129888534546 -0.3488371968269348 0.04361514747142792
-0.08527129888534546 -0.3333333134651184 -0.3514197766780853
-0.08527129888534546 -0.3333333134651184 -0.3329971730709076
-0.08527129888534546 -0.3333333134651184 -0.14139331877231598
-0.08527129888534546 -0.3333333134651184 0.04616537690162659
-0.08527129888534546 -0.317829430103302 -0.3512972891330719
-0.08527129888534546 -0.317829430103302 -0.33311736583709717
-0.08527129888534546 -0.317829430103302 -0.14363405108451843
-0.08527129888534546 -0.317829430103302 0.04885190352797508
-0.08527129888534546 -0.30232560634613037 -0.3511459231376648
-0.08527129888534546 -0.30232560634613037 -0.33324483036994934
-0.08527129888534546 -0.30232560634613037 -0.14668244123458862
-0.08527129888534546 -0.30232560634613037 0.0518537312746048
-0.08527129888534546 -0.28682172298431396 -0.3509330451488495
-0.08527129888534546 -0.28682172298431396 -0.33337080478668213
-0.08527129888534546 -0.28682172298431396 -0.1479921191930771
-0.08527129888534546 -0.28682172298431396 0.05435685068368912
-0.08527129888534546 -0.27131783962249756 -0.35077592730522156
-0.08527129888534546 -0.27131783962249756 -0.3343091607093811
-0.08527129888534546 -0.27131783962249756 -0.14935694634914398
-0.08527129888534546 -0.27131786942481995 0.055028967559337616
-0.08527129888534546 -0.25581395626068115 -0.35070204734802246
-0.08527129888534546 -0.25581395626068115 -0.3345471918582916
-0.08527129888534546 -0.25581395626068115 -0.1513947993516922
-0.08527129888534546 -0.25581395626068115 0.05636582523584366
-0.08527129888534546 -0.24031007289886475 -0.35069340467453003
-0.08527129888534546 -0.24031007289886475 -0.3347001373767853
-0.08527129888534546 -0.24031007289886475 -0.15334472060203552
-0.08527129888534546 -0.24031007289886475 0.05797996371984482
-0.08527129888534546 -0.22480618953704834 -0.35070496797561646
-0.08527129888534546 -0.22480618953704834 -0.33358466625213623
-0.08527129888534546 -0.22480618953704834 -0.15465983748435974
-0.08527129888534546 -0.22480618953704834 0.058666616678237915
-0.08527129888534546 -0.20930230617523193 -0.35073065757751465
-0.08527129888534546 -0.20930232107639313 -0.3332674205303192
-0.08527129888534546 -0.20930230617523193 -0.1552186757326126
-0.08527129888534546 -0.20930230617523193 0.058806564658880234
-0.08527129888534546 -0.19379842281341553 -0.35081472992897034
-0.08527129888534546 -0.19379843771457672 -0.3332066535949707
-0.08527129888534546 -0.19379842281341553 -0.15561598539352417
-0.08527129888534546 -0.19379842281341553 0.06037774682044983
-0.08527129888534546 -0.1782945990562439 -0.350848913192749
-0.08527129888534546 -0.1782945990562439 -0.33302533626556396
-0.08527129888534546 -0.1782945990562439 -0.155847430229187
-0.08527129888534546 -0.1782945990562439 0.06295503675937653
-0.08527129888534546 -0.1627907156944275 -0.35088837146759033
-0.08527129888534546 -0.1627907156944275 -0.33281248807907104
-0.08527129888534546 -0.1627907156944275 -0.15642286837100983
-0.08527129888534546 -0.1627907156944275 0.06569989770650864
-0.08527129888534546 -0.14728683233261108 -0.3510165810585022
-0.08527129888534546 -0.14728683233261108 -0.33244845271110535
-0.08527129888534546 -0.14728683233261108 -0.15817439556121826
-0.08527129888534546 -0.14728683233261108 0.0699353963136673
-0.08527129888534546 -0.13178294897079468 -0.3511921465396881
-0.08527129143476486 -0.13178294897079468 -0.33204230666160583
-0.08527129888534546 -0.13178294897079468 -0.16283613443374634
-0.08527129888534546 -0.13178294897079468 0.07296528667211533
-0.08527129888534546 -0.11627906560897827 -0.35119563341140747
-0.08527129888534546 -0.11627906560897827 -0.3317228853702545
-0.08527129888534546 -0.11627906560897827 -0.16456308960914612
-0.08527129888534546 -0.11627906560897827 0.07729130983352661
-0.08527129888534546 -0.10077518224716187 -0.3511252701282501
-0.08527129888534546 -0.10077518224716187 -0.33163538575172424
-0.08527129888534546 -0.10077518224716187 -0.16712096333503723
-0.08527129888534546 -0.10077518224716187 0.07971897721290588
-0.08527129888534546 -0.08527129888534546 -0.35109743475914
-0.08527129888534546 -0.08527129888534546 -0.3314206600189209
-0.08527129888534546 -0.08527129888534546 -0.17134419083595276
-0.08527129888534546 -0.08527129888534546 0.0810481533408165
-0.08527129888534546 -0.06976741552352905 -0.35110998153686523
-0.08527129888534546 -0.06976741552352905 -0.33139538764953613
-0.08527129888534546 -0.06976741552352905 -0.1753942221403122
-0.08527129888534546 -0.06976741552352905 0.08885364979505539
-0.08527129888534546 -0.05426359176635742 -0.351052850484848
-0.08527129888534546 -0.05426359176635742 -0.33159446716308594
-0.08527129888534546 -0.05426359176635742 -0.1783772110939026
-0.08527129888534546 -0.05426359176635742 0.11718542128801346
-0.08527129888534546 -0.038759708404541016 -0.35096073150634766
-0.08527129888534546 -0.038759708404541016 -0.3318747878074646
-0.08527129888534546 -0.038759708404541016 -0.17882739007472992
-0.08527129888534546 -0.038759708404541016 0.13253892958164215
-0.08527129888534546 -0.02325582504272461 -0.3509237468242645
-0.08527129888534546 -0.02325582504272461 -0.33209356665611267
-0.08527129888534546 -0.02325582504272461 -0.17887140810489655
-0.08527129888534546 -0.02325582504272461 0.13515806198120117
-0.08527129888534546 -0.007751941680908203 -0.35093092918395996
-0.08527129888534546 -0.007751941215246916 -0.3321689963340759
-0.08527129888534546 -0.007751941680908203 -0.17849725484848022
-0.08527129888534546 -0.007751941680908203 0.13405437767505646
-0.08527129888534546 0.007751941680908203 -0.35097044706344604
-0.08527129888534546 0.007751941680908203 -0.33220911026000977
-0.08527129888534546 0.007751941680908203 -0.17642474174499512
-0.08527129888534546 0.007751941680908203 0.12670323252677917
-0.08527129888534546 0.02325582504272461 -0.3509972095489502
-0.08527129888534546 0.02325582504272461 -0.332183837890625
-0.08527129888534546 0.02325582504272461 -0.1738206148147583
-0.08527129888534546 0.02325582504272461 0.09843882918357849
-0.08527129888534546 0.038759708404541016 -0.35102370381355286
-0.08527129143476486 0.038759708404541016 -0.33226388692855835
-0.08527129888534546 0.038759708404541016 -0.17194369435310364
-0.08527129888534546 0.038759708404541016 0.0873481035232544
-0.08527129888534546 0.05426359176635742 -0.35104799270629883
-0.08527129888534546 0.05426359176635742 -0.33236974477767944
-0.08527129888534546 0.05426359176635742 -0.1710464060306549
-0.08527129888534546 0.05426359176635742 0.08374414592981339
-0.08527129888534546 0.06976747512817383 -0.35110703110694885
-0.08527129888534546 0.06976747512817383 -0.33251523971557617
-0.08527129888534546 0.06976747512817383 -0.17032955586910248
-0.08527129888534546 0.06976747512817383 0.0820789709687233
-0.08527129888534546 0.08527135848999023 -0.35107123851776123
-0.08527129888534546 0.08527135848999023 -0.33259880542755127
-0.08527129888534546 0.08527135848999023 -0.16946683824062347
-0.08527129888534546 0.08527135848999023 0.08026468008756638
-0.08527129888534546 0.10077524185180664 -0.3510117530822754
-0.08527129888534546 0.10077524185180664 -0.33276915550231934
-0.08527129888534546 0.10077524185180664 -0.16876518726348877
-0.08527129888534546 0.10077524185180664 0.07868323475122452
-0.08527129888534546 0.11627912521362305 -0.350983202457428
-0.08527129888534546 0.11627912521362305 -0.33294540643692017
-0.08527129888534546 0.11627912521362305 -0.1680489182472229
-0.08527129888534546 0.11627912521362305 0.07763028144836426
-0.08527129888534546 0.1317828893661499 -0.35105472803115845
-0.08527129888534546 0.1317828893661499 -0.33304327726364136
-0.08527129888534546 0.1317828893661499 -0.16705679893493652
-0.08527129888534546 0.1317828893661499 0.07741968333721161
-0.08527129888534546 0.1472867727279663 -0.35117706656455994
-0.08527129888534546 0.1472867727279663 -0.33309105038642883
-0.08527129888534546 0.1472867727279663 -0.16588065028190613
-0.08527129888534546 0.1472867727279663 0.07704706490039825
-0.08527129888534546 0.16279065608978271 -0.3513835072517395
-0.08527129888534546 0.16279065608978271 -0.33314239978790283
-0.08527129888534546 0.16279065608978271 -0.16445240378379822
-0.08527129888534546 0.16279065608978271 0.0755535140633583
-0.08527129888534546 0.17829453945159912 -0.3515738844871521
-0.08527129888534546 0.17829453945159912 -0.3331262171268463
-0.08527129888534546 0.17829453945159912 -0.1632574200630188
-0.08527129888534546 0.17829452455043793 0.072466641664505
-0.08527129888534546 0.19379842281341553 -0.35177409648895264
-0.08527129888534546 0.19379842281341553 -0.33308547735214233
-0.08527129888534546 0.19379842281341553 -0.15771523118019104
-0.08527129888534546 0.19379842281341553 0.0679844319820404
-0.08527129888534546 0.20930230617523193 -0.3518839180469513
-0.08527129143476486 0.20930230617523193 -0.3329527974128723
-0.08527129888534546 0.20930230617523193 -0.15366342663764954
-0.08527129888534546 0.20930230617523193 0.06257066875696182
-0.08527129888534546 0.22480618953704834 -0.35194486379623413
-0.08527129888534546 0.22480617463588715 -0.332886278629303
-0.08527129888534546 0.22480618953704834 -0.1513410359621048
-0.08527129888534546 0.22480618953704834 0.05895666033029556
-0.08527129888534546 0.24031007289886475 -0.35205307602882385
-0.08527129888534546 0.24031007289886475 -0.3328346312046051
-0.08527129888534546 0.24031007289886475 -0.14944203197956085
-0.08527129888534546 0.24031007289886475 -0.07909874618053436
-0.08527129888534546 0.24031007289886475 -0.014931624755263329
-0.08527129888534546 0.24031007289886475 0.05728914216160774
-0.08527129888534546 0.25581395626068115 -0.3519992232322693
-0.08527129888534546 0.25581395626068115 -0.33279725909233093
-0.08527129888534546 0.25581395626068115 -0.14831683039665222
-0.08527129888534546 0.25581395626068115 -0.10755617916584015
-0.08527129888534546 0.27131783962249756 -0.3518696427345276
-0.08527129888534546 0.27131783962249756 -0.3328731954097748
-0.08527129888534546 0.27131783962249756 -0.1480415314435959
-0.08527129888534546 0.27131783962249756 -0.11570338159799576
-0.08527129888534546 0.28682172298431396 -0.35180848836898804
-0.08527129888534546 0.28682172298431396 -0.33296236395835876
-0.08527129888534546 0.28682172298431396 -0.14812308549880981
-0.08527129888534546 0.28682172298431396 -0.11893904954195023
-0.08527129888534546 0.30232560634613037 -0.35173651576042175
-0.08527130633592606 0.30232560634613037 -0.3329983055591583
-0.08527129888534546 0.30232560634613037 -0.148285910487175
-0.08527129888534546 0.30232560634613037 -0.12023364752531052
-0.08527129888534546 0.3178294897079468 -0.35165712237358093
-0.08527129888534546 0.3178294897079468 -0.3330431580543518
-0.08527129888534546 0.3178294897079468 -0.14839240908622742
-0.08527129888534546 0.3178294897079468 -0.12127929925918579
-0.08527129888534546 0.3333333730697632 -0.3516524136066437
-0.08527130633592606 0.3333333730697632 -0.3331643342971802
-0.08527129888534546 0.3333333730697632 -0.14852796494960785
-0.08527129888534546 0.3333333730697632 -0.12208263576030731
-0.08527129888534546 0.3488372564315796 -0.3516140580177307
-0.08527129888534546 0.3488372564315796 -0.333152174949646
-0.08527129888534546 0.3488372564315796 -0.14866933226585388
-0.08527129888534546 0.3488372564315796 -0.12293192744255066
-0.08527129888534546 0.364341139793396 -0.35159289836883545
-0.08527129888534546 0.364341139793396 -0.3331860303878784
-0.08527129888534546 0.364341139793396 -0.14893068373203278
-0.08527129888534546 0.364341139793396 -0.12298838794231415
-0.08527129888534546 0.37984490394592285 -0.3515617847442627
-0.08527129888534546 0.37984490394592285 -0.333173930644989
-0.08527129888534546 0.37984490394592285 -0.14932303130626678
-0.08527129888534546 0.37984490394592285 -0.1219303160905838
-0.08527129888534546 0.39534878730773926 -0.35153740644454956
-0.08527129888534546 0.39534878730773926 -0.33317920565605164
-0.08527129888534546 0.39534878730773926 -0.14976456761360168
-0.08527129888534546 0.39534878730773926 -0.12067149579524994
-0.08527129888534546 0.41085267066955566 -0.35145825147628784
-0.08527129888534546 0.41085267066955566 -0.33315861225128174
-0.08527129888534546 0.41085267066955566 -0.150436669588089
-0.08527129888534546 0.41085267066955566 -0.11935046315193176
-0.08527129888534546 0.42635655403137207 -0.35138219594955444
-0.08527129888534546 0.42635655403137207 -0.3331494927406311
-0.08527129888534546 0.42635655403137207 -0.1512979120016098
-0.08527129888534546 0.42635655403137207 -0.11882651597261429
-0.08527129888534546 0.4418604373931885 -0.35126182436943054
-0.08527129888534546 0.4418604373931885 -0.33317846059799194
-0.08527129888534546 0.4418604373931885 -0.15234413743019104
-0.08527129888534546 0.4418604373931885 -0.1186554878950119
-0.08527129888534546 0.4573643207550049 -0.3511490225791931
-0.08527129143476486 0.4573642909526825 -0.3332521617412567
-0.08527129888534546 0.4573643207550049 -0.15333735942840576
-0.08527129888534546 0.4573643207550049 -0.11881323158740997
-0.08527129888534546 0.4728682041168213 -0.35102808475494385
-0.08527129888534546 0.4728682339191437 -0.33332359790802
-0.08527129888534546 0.4728682041168213 -0.15427152812480927
-0.08527129888534546 0.4728682041168213 -0.11860710382461548
-0.08527129888534546 0.4883720874786377 -0.3509119749069214
-0.08527129888534546 0.4883720874786377 -0.33381497859954834
-0.08527129888534546 0.4883720874786377 -0.15532106161117554
-0.08527129888534546 0.4883720874786377 -0.1177268773317337
-0.08527129888534546 0.5038759708404541 -0.35088038444519043
-0.08527129888534546 0.5038759708404541 -0.33467748761177063
-0.08527129888534546 0.5038759708404541 -0.15675298869609833
-0.08527129888534546 0.5038759708404541 -0.11619781702756882
-0.08527129888534546 0.5193798542022705 -0.3508739471435547
-0.08527129888534546 0.5193798542022705 -0.33504828810691833
-0.08527129888534546 0.5193798542022705 -0.15885159373283386
-0.08527130633592606 0.5193799138069153 -0.11597590148448944
-0.08527129888534546 0.5348837375640869 -0.3508653938770294
-0.08527129888534546 0.5348837375640869 -0.33538782596588135
-0.08527129143476486 0.5348837375640869 -0.1609351933002472
-0.08527129888534546 0.5348837375640869 -0.1157509908080101
-0.08527129888534546 0.5503876209259033 -0.3508702218532562
-0.08527129888534546 0.5503876209259033 -0.3353211581707001
-0.08527129888534546 0.5503876209259033 -0.16283941268920898
-0.08527129888534546 0.5503876209259033 -0.11556432396173477
-0.08527129888534546 0.5658915042877197 -0.3509196937084198
-0.08527129888534546 0.5658915042877197 -0.33536022901535034
-0.08527129888534546 0.5658915042877197 -0.16297055780887604
-0.08527129888534546 0.5658915042877197 -0.11539015918970108
-0.08527129888534546 0.5813953876495361 -0.3509375751018524
-0.08527129888534546 0.5813953876495361 -0.33508309721946716
-0.08527129888534546 0.5813953876495361 -0.16301947832107544
-0.08527129888534546 0.5813953876495361 -0.11523999273777008
-0.08527129888534546 0.5968992710113525 -0.3509587347507477
-0.08527129888534546 0.5968992710113525 -0.33423417806625366
-0.08527129888534546 0.5968992710113525 -0.16301342844963074
-0.08527129888534546 0.5968992710113525 -0.11504266411066055
-0.08527129888534546 0.612403154373169 -0.35098278522491455
-0.08527129888534546 0.612403154373169 -0.3333284556865692
-0.08527129888534546 0.612403154373169 -0.16290795803070068
-0.08527129888534546 0.612403154373169 -0.11484479904174805
