0.13042722642421722 0.27131783962249756 0.05426359176635742
0.11847775429487228 0.28682172298431396 -0.038759708404541016
0.12222088128328323 0.28682172298431396 -0.02325582504272461
0.1272476315498352 0.28682172298431396 -0.007751941680908203
0.12649354338645935 0.28682172298431396 0.05426359176635742
0.13028167188167572 0.30232560634613037 -0.10077518224716187
0.11696522682905197 0.30232560634613037 -0.08527129888534546
0.11692539602518082 0.30232560634613037 -0.06976741552352905
0.11731359362602234 0.302325576543808 -0.05426358804106712
0.11901995539665222 0.30232560634613037 -0.038759708404541016
0.12209068238735199 0.30232560634613037 -0.02325582504272461
0.12577322125434875 0.30232560634613037 -0.007751941680908203
0.12961682677268982 0.30232560634613037 0.007751941680908203
0.13037477433681488 0.30232560634613037 0.038759708404541016
0.12360111624002457 0.30232560634613037 0.05426359176635742
0.12120262533426285 0.3178294897079468 -0.10077518224716187
0.11932111531496048 0.3178294897079468 -0.08527129888534546
0.11833474040031433 0.3178294897079468 -0.06976741552352905
0.11747878789901733 0.3178294897079468 -0.05426359176635742
0.11833187937736511 0.3178294897079468 -0.038759712129831314
0.12042379379272461 0.3178294897079468 -0.02325582690536976
0.12291017919778824 0.3178294897079468 -0.007751941680908203
0.12635792791843414 0.3178294897079468 0.007751941680908203
0.12833499908447266 0.3178294897079468 0.02325582504272461
0.1267072558403015 0.3178294897079468 0.038759708404541016
0.12119356542825699 0.3178294897079468 0.05426359176635742
0.11770102381706238 0.3333333730697632 -0.08527129888534546
0.11752662807703018 0.33333340287208557 -0.06976741552352905
0.11681320518255234 0.3333333730697632 -0.05426358804106712
0.11749566346406937 0.3333333730697632 -0.038759708404541016
0.1192580834031105 0.3333333730697632 -0.02325582504272461
0.12102926522493362 0.3333333730697632 -0.007751941680908203
0.1239573210477829 0.3333333730697632 0.007751941680908203
0.12588055431842804 0.3333333730697632 0.02325582504272461
0.12419378757476807 0.3333333730697632 0.038759708404541016
0.1194828599691391 0.3333333730697632 0.05426359176635742
0.11661326885223389 0.3488372564315796 -0.038759708404541016
0.11818161606788635 0.3488372564315796 -0.02325582504272461
0.11991311609745026 0.3488372564315796 -0.007751941680908203
0.12198073416948318 0.3488372564315796 0.007751941680908203
0.12374337017536163 0.3488372564315796 0.02325582504272461
0.12238337099552155 0.3488372564315796 0.038759708404541016
0.11806461960077286 0.348837286233902 0.05426359549164772
0.11688029021024704 0.364341139793396 -0.02325582504272461
0.1186501532793045 0.364341139793396 -0.007751941680908203
0.12041890621185303 0.364341139793396 0.007751941680908203
0.12156131863594055 0.364341139793396 0.02325582504272461
0.12067650258541107 0.364341139793396 0.038759708404541016
0.11641217768192291 0.364341139793396 0.05426359176635742
0.11735380440950394 0.37984490394592285 -0.007751941680908203
0.1191646009683609 0.37984490394592285 0.007751941680908203
0.1201368123292923 0.37984490394592285 0.02325582504272461
0.11892709136009216 0.37984490394592285 0.038759708404541016
0.11629270017147064 0.39534878730773926 -0.007751941680908203
0.11797119677066803 0.39534878730773926 0.007751941680908203
0.11883147060871124 0.39534878730773926 0.02325582504272461
0.11727380752563477 0.39534878730773926 0.038759708404541016
0.11637886613607407 0.41085267066955566 0.00775194214656949
0.11693662405014038 0.41085267066955566 0.02325582504272461
0.13560359179973602 -0.674418568611145 -0.14728683233261108
0.13730710744857788 -0.6589146852493286 -0.1782945990562439
0.14663778245449066 -0.643410861492157 -0.1782945990562439
0.1428343802690506 -0.643410861492157 -0.038759708404541016
0.14557696878910065 -0.6279069781303406 -0.038759708404541016
0.14148172736167908 -0.6124030947685242 -0.038759708404541016
0.1434929370880127 -0.6124030947685242 -0.02325582504272461
0.13355499505996704 -0.5968992114067078 -0.19379842281341553
0.13336551189422607 -0.5813953876495361 -0.20930230617523193
0.1387464702129364 -0.5813953876495361 -0.19379842281341553
0.1374041736125946 -0.5813953876495361 0.02325582504272461
0.1326380968093872 -0.5658915042877197 -0.20930232107639313
0.1377636045217514 -0.5658915042877197 -0.19379842281341553
0.14665347337722778 -0.5658915042877197 0.02325582504272461
0.14485621452331543 -0.5348837375640869 -0.1782945990562439
0.1320692002773285 -0.5348837375640869 0.038759708404541016
0.1432080864906311 -0.5193798542022705 -0.1782945990562439
0.13737869262695312 -0.5193798542022705 0.038759708404541016
0.14433392882347107 -0.5038759708404541 -0.1782945990562439
0.14129212498664856 -0.5038759708404541 0.038759708404541016
0.14695119857788086 -0.4883720874786377 -0.1782945990562439
0.14296430349349976 -0.4883720874786377 0.038759708404541016
0.13267293572425842 -0.4883720874786377 0.05426359176635742
0.1443823277950287 -0.4728682041168213 0.038759708404541016
0.1370459794998169 -0.4728682041168213 0.05426359176635742
0.1450044959783554 -0.4573643207550049 -0.1782945990562439
0.14045123755931854 -0.4573643207550049 0.05426359176635742
0.14124011993408203 -0.4418604373931885 -0.1782945990562439
0.14466209709644318 -0.4418604373931885 0.05426359176635742
0.13731740415096283 -0.42635661363601685 -0.1782945990562439
0.1323373019695282 -0.42635661363601685 0.06976747512817383
0.13535915315151215 -0.41085270047187805 -0.1782945990562439
0.13377375900745392 -0.41085273027420044 0.06976747512817383
0.13503606617450714 -0.39534884691238403 -0.1782945990562439
0.1465648114681244 -0.39534884691238403 -0.007751941680908203
0.14592969417572021 -0.39534884691238403 0.05426359176635742
0.13298198580741882 -0.39534884691238403 0.06976747512817383
0.13654199242591858 -0.37984499335289 -0.1782945990562439
0.1420290321111679 -0.3798449635505676 -0.007751941680908203
0.1436498761177063 -0.3798449635505676 0.007751941680908203
0.1459321230649948 -0.3798449635505676 0.02325582504272461
0.14612191915512085 -0.3798449635505676 0.038759708404541016
0.14259742200374603 -0.3798449635505676 0.05426359176635742
0.138724684715271 -0.3643410801887512 -0.1782945990562439
0.13724848628044128 -0.3643410801887512 -0.007751941680908203
0.13987095654010773 -0.3643410801887512 0.007751941680908203
0.1420532464981079 -0.3643410801887512 0.02325582504272461
0.14195306599140167 -0.3643410801887512 0.038759708404541016
0.13886068761348724 -0.3643410801887512 0.05426359176635742
0.14102166891098022 -0.3488371968269348 -0.1782945990562439
0.14091362059116364 -0.3488371968269348 -0.02325582504272461
0.1329018920660019 -0.3488371968269348 -0.007751941680908203
0.13644728064537048 -0.3488371968269348 0.007751941680908203
0.1391257345676422 -0.3488371968269348 0.02325582504272461
0.13881784677505493 -0.3488371968269348 0.038759708404541016
0.135882169008255 -0.3488371968269348 0.05426359176635742
0.14431901276111603 -0.3333333134651184 -0.1782945990562439
0.1370968371629715 -0.3333333134651184 -0.02325582504272461
0.13381698727607727 -0.3333333134651184 0.007751941680908203
0.1369502991437912 -0.3333333134651184 0.02325582504272461
0.13649190962314606 -0.3333333134651184 0.038759708404541016
0.1341346651315689 -0.3333333134651184 0.05426359176635742
0.1370564103126526 -0.317829430103302 -0.02325582504272461
0.13285326957702637 -0.317829430103302 0.007751941215246916
0.13606008887290955 -0.317829430103302 0.02325582690536976
0.13548032939434052 -0.317829430103302 0.038759708404541016
0.1335994452238083 -0.3178294599056244 0.05426359176635742
0.14077948033809662 -0.30232560634613037 -0.02325582504272461
0.132982075214386 -0.30232560634613037 0.007751941680908203
0.1357918083667755 -0.30232560634613037 0.02325582318007946
0.13502302765846252 -0.30232560634613037 0.038759708404541016
0.13351044058799744 -0.30232560634613037 0.05426359176635742
0.1447915881872177 -0.28682172298431396 -0.02325582504272461
0.13335388898849487 -0.28682172298431396 0.00775194214656949
0.13563065230846405 -0.28682172298431396 0.02325582504272461
0.1347937434911728 -0.28682172298431396 0.038759708404541016
0.1336568146944046 -0.28682172298431396 0.05426359176635742
0.13198226690292358 -0.27131783962249756 -0.007751941215246916
0.13373684883117676 -0.27131783962249756 0.007751941680908203
0.13535210490226746 -0.27131783962249756 0.02325582504272461
0.13456164300441742 -0.27131783962249756 0.038759708404541016
0.13387708365917206 -0.27131783962249756 0.05426359549164772
0.13355186581611633 -0.25581395626068115 -0.007751941680908203
0.13466179370880127 -0.25581395626068115 0.007751941680908203
0.13570630550384521 -0.25581395626068115 0.02325582504272461
0.13498829305171967 -0.25581395626068115 0.038759708404541016
0.1346001923084259 -0.25581395626068115 0.05426359176635742
0.1470394879579544 -0.24031007289886475 -0.02325582504272461
0.1338547021150589 -0.24031007289886475 -0.007751941680908203
0.13509397208690643 -0.24031007289886475 0.00775194214656949
0.1361248940229416 -0.24031007289886475 0.02325582504272461
0.1359981894493103 -0.24031007289886475 0.038759708404541016
0.13601818680763245 -0.24031007289886475 0.05426359176635742
0.1424979716539383 -0.22480618953704834 -0.02325582504272461
0.13400249183177948 -0.22480617463588715 -0.007751941215246916
0.13601678609848022 -0.22480617463588715 0.007751941215246916
0.1375080794095993 -0.22480618953704834 0.02325582504272461
0.13837483525276184 -0.22480618953704834 0.038759708404541016
0.13928960263729095 -0.22480618953704834 0.05426359176635742
0.13425461947917938 -0.22480617463588715 0.06976747512817383
0.13693833351135254 -0.20930232107639313 -0.02325582504272461
0.13459670543670654 -0.20930230617523193 -0.00775194214656949
0.1375819444656372 -0.20930230617523193 0.007751941680908203
0.13980677723884583 -0.20930230617523193 0.02325582504272461
0.14211395382881165 -0.20930230617523193 0.038759708404541016
0.14458784461021423 -0.20930230617523193 0.05426359176635742
0.13938188552856445 -0.20930230617523193 0.06976747512817383
0.1448555439710617 -0.19379842281341553 -0.038759708404541016
0.13334344327449799 -0.19379842281341553 -0.02325582690536976
0.13533636927604675 -0.19379842281341553 -0.007751941680908203
0.13884124159812927 -0.19379842281341553 0.007751941680908203
0.14206849038600922 -0.19379842281341553 0.02325582504272461
0.146581768989563 -0.19379842281341553 0.038759708404541016
0.1443207859992981 -0.19379842281341553 0.06976747512817383
0.1428469866514206 -0.1782945990562439 -0.06976741552352905
0.13922801613807678 -0.1782945990562439 -0.05426359176635742
0.13389934599399567 -0.1782945990562439 -0.038759708404541016
0.1351742297410965 -0.1782945990562439 -0.007751941680908203
0.13892170786857605 -0.1782945990562439 0.007751941680908203
0.1428583264350891 -0.1782945990562439 0.02325582504272461
0.13872991502285004 -0.1627907156944275 -0.06976741552352905
0.1328495591878891 -0.1627907156944275 -0.05426359176635742
0.13495725393295288 -0.1627907156944275 -0.007751941680908203
0.13879090547561646 -0.1627907156944275 0.007751941680908203
0.14314144849777222 -0.1627907156944275 0.02325582504272461
0.1392209529876709 -0.14728683233261108 -0.06976741552352905
0.1324680596590042 -0.14728683233261108 -0.05426359176635742
0.1318000853061676 -0.14728683233261108 -0.02325582504272461
0.1356508433818817 -0.14728683233261108 -0.007751941680908203
0.13959088921546936 -0.14728683233261108 0.007751941680908203
0.14463511109352112 -0.14728683233261108 0.02325582504272461
0.1418871432542801 -0.13178294897079468 -0.06976741552352905
0.13356857001781464 -0.13178294897079468 -0.05426359176635742
0.13274215161800385 -0.13178294897079468 -0.02325582504272461
0.13702553510665894 -0.13178294897079468 -0.007751941680908203
0.14139191806316376 -0.13178294897079468 0.007751941680908203
0.13613978028297424 -0.11627906560897827 -0.05426359176635742
0.13280873000621796 -0.11627906560897827 -0.038759708404541016
0.13345129787921906 -0.11627906560897827 -0.02325582504272461
0.13867413997650146 -0.11627906560897827 -0.007751941215246916
0.14381954073905945 -0.11627906560897827 0.007751941680908203
0.1323166787624359 -0.11627906560897827 0.08527135848999023
0.14163270592689514 -0.10077518224716187 -0.05426359176635742
0.1356121301651001 -0.10077518224716187 -0.038759708404541016
0.1343759000301361 -0.10077518224716187 -0.02325582504272461
0.1402510404586792 -0.10077518224716187 -0.007751941680908203
0.14608605206012726 -0.10077518224716187 0.007751941680908203
0.1346704065799713 -0.10077518224716187 0.08527135848999023
0.13875339925289154 -0.08527129888534546 -0.038759708404541016
0.13521605730056763 -0.08527129888534546 -0.02325582504272461
0.14102129638195038 -0.08527129888534546 -0.007751941680908203
0.1471356600522995 -0.08527129888534546 0.007751941680908203
0.135493665933609 -0.08527129888534546 0.08527135848999023
0.14034566283226013 -0.06976741552352905 -0.038759708404541016
0.13557489216327667 -0.06976741552352905 -0.02325582504272461
0.1410144567489624 -0.06976741552352905 -0.007751941680908203
0.1469060480594635 -0.06976741552352905 0.007751941680908203
0.1342901885509491 -0.06976741552352905 0.08527135848999023
0.14078733325004578 -0.05426359176635742 -0.038759708404541016
0.13642257452011108 -0.05426359176635742 -0.02325582504272461
0.1414782851934433 -0.05426359176635742 -0.007751941680908203
0.13198933005332947 -0.05426359176635742 0.08527135848999023
0.14632652699947357 -0.038759708404541016 -0.05426359176635742
0.13914814591407776 -0.038759708404541016 -0.038759708404541016
0.1365204006433487 -0.038759708404541016 -0.02325582504272461
0.14244523644447327 -0.038759708404541016 -0.007751941680908203
0.14230215549468994 -0.02325582504272461 -0.05426359176635742
0.13746243715286255 -0.02325582504272461 -0.038759708404541016
0.13623292744159698 -0.02325582504272461 -0.02325582504272461
0.1421322375535965 -0.02325582504272461 -0.007751941680908203
0.1457223892211914 -0.007751941680908203 -0.06976741552352905
0.1375502198934555 -0.007751941680908203 -0.05426359176635742
0.13470007479190826 -0.007751941680908203 -0.038759708404541016
0.13520051538944244 -0.007751941680908203 -0.02325582504272461
0.14097470045089722 -0.007751941680908203 -0.007751941680908203
0.14198820292949677 0.007751941680908203 -0.06976741552352905
0.13339249789714813 0.007751941680908203 -0.05426359176635742
0.1329633593559265 0.007751941680908203 -0.02325582504272461
0.1392001509666443 0.007751941680908203 -0.007751941680908203
0.14520850777626038 0.007751941680908203 0.007751941680908203
0.1450006663799286 0.007751941680908203 0.06976747512817383
0.13945913314819336 0.02325582504272461 -0.06976741552352905
0.13727419078350067 0.02325582504272461 -0.007751941680908203
0.1429808884859085 0.02325582504272461 0.007751941680908203
0.13844649493694305 0.02325582504272461 0.06976747512817383
0.1379292905330658 0.038759708404541016 -0.06976741552352905
0.1359117180109024 0.038759708404541016 -0.007751941680908203
0.14092549681663513 0.038759708404541016 0.007751941680908203
0.14634785056114197 0.038759708404541016 0.02325582504272461
0.14633968472480774 0.038759708404541016 0.05426359176635742
0.13274839520454407 0.038759708404541016 0.06976748257875443
0.13570068776607513 0.05426359176635742 -0.06976741552352905
0.13285991549491882 0.05426359176635742 -0.007751941680908203
0.1374831348657608 0.05426359176635742 0.007751941680908203
0.1413288414478302 0.05426359176635742 0.02325582504272461
0.14293013513088226 0.05426359176635742 0.038759708404541016
0.14031361043453217 0.05426359176635742 0.05426359176635742
0.1338556855916977 0.06976747512817383 -0.06976741552352905
0.13440635800361633 0.06976747512817383 0.007751941680908203
0.1379626989364624 0.06976747512817383 0.02325582504272461
0.1395859718322754 0.06976747512817383 0.038759708404541016
0.13626128435134888 0.06976747512817383 0.05426359176635742
0.1323346197605133 0.08527135848999023 0.007751941680908203
0.13599979877471924 0.08527135848999023 0.02325582504272461
0.137486070394516 0.08527135848999023 0.038759708404541016
0.13366185128688812 0.08527135848999023 0.05426359176635742
0.13519690930843353 0.10077524185180664 0.02325582504272461
0.1363806426525116 0.10077524185180664 0.038759708404541016
0.13262197375297546 0.10077524185180664 0.05426359176635742
0.14650091528892517 0.11627912521362305 -0.08527129888534546
0.13259531557559967 0.11627912521362305 0.00775194214656949
0.13580548763275146 0.11627912521362305 0.02325582504272461
0.1363670527935028 0.11627912521362305 0.038759708404541016
0.13278181850910187 0.11627912521362305 0.05426359176635742
0.14535079896450043 0.1317828893661499 -0.08527129888534546
0.13412423431873322 0.1317828893661499 0.007751941215246916
0.1370295286178589 0.1317828893661499 0.02325582504272461
0.1369810551404953 0.1317828893661499 0.038759708404541016
0.13328871130943298 0.1317828893661499 0.05426359176635742
0.13879045844078064 0.1472867727279663 -0.20930230617523193
0.1435733139514923 0.1472867727279663 -0.19379842281341553
0.14445582032203674 0.1472867727279663 -0.08527129888534546
0.13547256588935852 0.1472867727279663 0.007751941680908203
0.13824671506881714 0.1472867727279663 0.02325582504272461
0.13789214193820953 0.1472867727279663 0.038759708404541016
0.13392329216003418 0.1472867727279663 0.05426359176635742
0.14545856416225433 0.16279065608978271 -0.19379842281341553
0.14375130832195282 0.16279065608978271 -0.08527129888534546
0.13695140182971954 0.16279065608978271 0.007751941680908203
0.13946974277496338 0.16279065608978271 0.02325582504272461
0.13904796540737152 0.16279065608978271 0.038759708404541016
0.1349925398826599 0.16279065608978271 0.05426359176635742
0.1323263943195343 0.17829453945159912 -0.20930230617523193
0.14383679628372192 0.17829453945159912 -0.1782945990562439
0.14241957664489746 0.17829453945159912 -0.08527129888534546
0.13235296308994293 0.17829453945159912 -0.007751941680908203
0.13811886310577393 0.17829453945159912 0.007751941680908203
0.14057022333145142 0.17829453945159912 0.02325582504272461
0.1400585174560547 0.17829453945159912 0.038759708404541016
0.13590943813323975 0.17829452455043793 0.05426358804106712
0.14040294289588928 0.19379842281341553 -0.08527129888534546
0.1320982426404953 0.19379842281341553 -0.007751941215246916
0.13816753029823303 0.19379842281341553 0.007751941680908203
0.1409653276205063 0.19379842281341553 0.02325582504272461
0.14051200449466705 0.19379842281341553 0.038759708404541016
0.13624458014965057 0.19379842281341553 0.05426359176635742
0.1365080028772354 0.20930230617523193 -0.08527129888534546
0.13676825165748596 0.20930230617523193 0.007751941680908203
0.14010749757289886 0.20930230617523193 0.02325582504272461
0.14006997644901276 0.20930230617523193 0.038759708404541016
0.13576018810272217 0.20930230617523193 0.05426359176635742
0.134554922580719 0.22480618953704834 0.007751941680908203
0.1385626643896103 0.22480620443820953 0.02325582504272461
0.1395222693681717 0.22480618953704834 0.038759708404541016
0.13544413447380066 0.22480618953704834 0.05426359176635742
0.13277685642242432 0.24031007289886475 0.007751941680908203
0.13704854249954224 0.24031007289886475 0.02325582504272461
0.13874635100364685 0.24031007289886475 0.038759708404541016
0.13522112369537354 0.24031007289886475 0.05426359176635742
0.13353995978832245 0.25581395626068115 -0.19379842281341553
0.14430782198905945 0.25581395626068115 -0.1782945990562439
0.1329479217529297 0.25581395626068115 0.007751941215246916
0.136683851480484 0.25581395626068115 0.02325582504272461
0.13770577311515808 0.25581395626068115 0.038759708404541016
0.13388337194919586 0.25581395626068115 0.05426359176635742
0.1425924301147461 0.27131783962249756 -0.14728683233261108
0.13287396728992462 0.27131783962249756 0.007751941680908203
0.13580317795276642 0.27131783962249756 0.02325582504272461
0.13562949001789093 0.27131783962249756 0.038759708404541016
0.1400585174560547 0.28682172298431396 -0.10077518224716187
0.1321520358324051 0.28682175278663635 0.007751941680908203
0.13411164283752441 0.28682172298431396 0.02325582504272461
0.1332683563232422 0.28682172298431396 0.03875970467925072
0.14055080711841583 0.30232560634613037 -0.11627906560897827
0.13212639093399048 0.30232560634613037 0.02325582690536976
0.14973405003547668 -0.674418568611145 -0.16279073059558868
0.15954622626304626 -0.6589146852493286 -0.13178294897079468
0.15851159393787384 -0.6589146852493286 -0.11627906560897827
0.15632715821266174 -0.6589146852493286 -0.10077518224716187
0.15245649218559265 -0.6589146852493286 -0.08527129888534546
0.1482079029083252 -0.6589146852493286 -0.06976741552352905
0.16209928691387177 -0.643410861492157 -0.13178294897079468
0.16260185837745667 -0.643410861492157 -0.11627906560897827
0.16127362847328186 -0.643410861492157 -0.10077518224716187
0.15756641328334808 -0.643410861492157 -0.08527129888534546
0.1552596390247345 -0.643410861492157 -0.06976741552352905
0.1527622640132904 -0.643410861492157 -0.05426359176635742
0.14781197905540466 -0.6279069781303406 -0.1782945990562439
0.16221120953559875 -0.6279069781303406 -0.14728683233261108
0.16000571846961975 -0.6279069781303406 -0.13178294897079468
0.15956005454063416 -0.6279069781303406 -0.11627906560897827
0.15771101415157318 -0.6279069781303406 -0.10077518224716187
0.15469728410243988 -0.6279069781303406 -0.08527129888534546
0.15319347381591797 -0.6279069781303406 -0.06976741552352905
0.15182648599147797 -0.6279069781303406 -0.05426359176635742
0.14766402542591095 -0.6124030947685242 -0.1782946139574051
0.16203489899635315 -0.6124030947685242 -0.14728683233261108
0.15896765887737274 -0.6124030947685242 -0.13178294897079468
0.15771272778511047 -0.6124030947685242 -0.11627906560897827
0.15599361062049866 -0.6124030947685242 -0.10077518224716187
0.15359821915626526 -0.6124030947685242 -0.08527129888534546
0.15189556777477264 -0.6124030947685242 -0.06976741552352905
0.15048450231552124 -0.6124030947685242 -0.05426359176635742
0.14749294519424438 -0.6124030351638794 -0.007751941215246916
0.14992313086986542 -0.5968992114067078 -0.1782945990562439
0.16230861842632294 -0.5968992114067078 -0.1627907156944275
0.16140873730182648 -0.5968992114067078 -0.14728683233261108
0.1582547128200531 -0.5968992114067078 -0.13178294897079468
0.15685275197029114 -0.5968992114067078 -0.11627906560897827
0.15566524863243103 -0.5968992114067078 -0.10077518224716187
0.15368106961250305 -0.5968992114067078 -0.08527129888534546
0.15174797177314758 -0.5968992114067078 -0.06976741552352905
0.15035560727119446 -0.5968992114067078 -0.05426359176635742
0.14857590198516846 -0.5968992114067078 -0.038759708404541016
0.15056873857975006 -0.5968992114067078 -0.02325582504272461
0.1526019126176834 -0.5968992114067078 -0.007751941680908203
0.1490751951932907 -0.5968992114067078 0.007751941680908203
0.15140467882156372 -0.5813953876495361 -0.1782945990562439
0.1609656810760498 -0.5813953876495361 -0.1627907156944275
0.1604187786579132 -0.5813953876495361 -0.14728683233261108
0.15731653571128845 -0.5813953876495361 -0.13178294897079468
0.15600495040416718 -0.5813953876495361 -0.11627906560897827
0.15507209300994873 -0.5813953876495361 -0.10077518224716187
0.15355341136455536 -0.5813953876495361 -0.08527129888534546
0.15190252661705017 -0.5813953876495361 -0.06976741552352905
0.15063916146755219 -0.5813953876495361 -0.05426359176635742
0.15009303390979767 -0.5813953876495361 -0.038759708404541016
0.1524525284767151 -0.5813953876495361 -0.02325582504272461
0.15383297204971313 -0.5813953876495361 -0.007751941215246916
0.15218670666217804 -0.5813953876495361 0.007751941680908203
0.14983227849006653 -0.5658915042877197 -0.1782946139574051
0.1600586175918579 -0.5658915042877197 -0.1627907156944275
0.1595505326986313 -0.5658915042877197 -0.14728683233261108
0.15639232099056244 -0.5658915042877197 -0.13178294897079468
0.15518906712532043 -0.5658915042877197 -0.11627906560897827
0.15433508157730103 -0.5658915042877197 -0.10077518224716187
0.15313157439231873 -0.5658915042877197 -0.08527129888534546
0.1518115997314453 -0.5658915042877197 -0.06976741552352905
0.1505204290151596 -0.5658915042877197 -0.05426358804106712
0.15010595321655273 -0.5658915042877197 -0.038759708404541016
0.15197792649269104 -0.5658915042877197 -0.02325582318007946
0.1532226800918579 -0.5658915042877197 -0.007751941680908203
0.15228071808815002 -0.5658915042877197 0.00775194214656949
0.14770850539207458 -0.5503876209259033 -0.1782945990562439
0.1593020260334015 -0.5503876209259033 -0.1627907156944275
0.1588059812784195 -0.5503876209259033 -0.14728683233261108
0.1557895392179489 -0.5503876209259033 -0.13178294897079468
0.154686838388443 -0.5503876209259033 -0.11627906560897827
0.1538381725549698 -0.5503876209259033 -0.10077518224716187
0.15275830030441284 -0.5503876209259033 -0.08527129888534546
0.15166649222373962 -0.5503876209259033 -0.06976741552352905
0.15041577816009521 -0.5503876209259033 -0.05426359176635742
0.14985260367393494 -0.5503876209259033 -0.038759708404541016
0.15086029469966888 -0.5503876209259033 -0.02325582504272461
0.15192431211471558 -0.5503876209259033 -0.007751941680908203
0.15145674347877502 -0.5503876209259033 0.007751941680908203
0.14843158423900604 -0.5503876209259033 0.02325582504272461
0.1587221473455429 -0.5348837375640869 -0.1627907156944275
0.1582203209400177 -0.5348837375640869 -0.14728683233261108
0.15537306666374207 -0.5348837375640869 -0.13178294897079468
0.15430712699890137 -0.5348837375640869 -0.11627906560897827
0.15341150760650635 -0.5348837375640869 -0.10077518224716187
0.15243704617023468 -0.5348837375640869 -0.08527129888534546
0.15143950283527374 -0.5348837375640869 -0.06976741552352905
0.15018753707408905 -0.5348837375640869 -0.05426359549164772
0.14936885237693787 -0.5348837375640869 -0.038759708404541016
0.14965716004371643 -0.5348837375640869 -0.02325582504272461
0.15045905113220215 -0.5348837375640869 -0.007751941680908203
0.15040503442287445 -0.5348837375640869 0.007751941680908203
0.1484849900007248 -0.5348837375640869 0.02325582504272461
0.15864554047584534 -0.5193798542022705 -0.1627907156944275
0.15792182087898254 -0.5193798542022705 -0.14728683233261108
0.15513432025909424 -0.5193798542022705 -0.13178294897079468
0.15410205721855164 -0.5193798542022705 -0.11627906560897827
0.15313981473445892 -0.5193798542022705 -0.10077518224716187
0.1521909236907959 -0.5193798542022705 -0.08527129888534546
0.1512010395526886 -0.5193798542022705 -0.06976741552352905
0.14995382726192474 -0.5193798542022705 -0.05426359176635742
0.14886868000030518 -0.5193798542022705 -0.038759708404541016
0.14868459105491638 -0.5193798542022705 -0.02325582504272461
0.14923326671123505 -0.5193798542022705 -0.007751941680908203
0.14936219155788422 -0.5193798542022705 0.007751941680908203
0.14807385206222534 -0.5193798542022705 0.02325582504272461
0.15881012380123138 -0.5038759708404541 -0.1627907156944275
0.15783673524856567 -0.5038759708404541 -0.14728683233261108
0.15512001514434814 -0.5038759708404541 -0.13178294897079468
0.15403547883033752 -0.5038759708404541 -0.11627906560897827
0.15298043191432953 -0.5038759708404541 -0.10077518224716187
0.15204887092113495 -0.5038759708404541 -0.08527129888534546
0.15103237330913544 -0.5038759708404541 -0.06976741552352905
0.14990003407001495 -0.5038759708404541 -0.05426359176635742
0.1484997421503067 -0.5038759708404541 -0.038759708404541016
0.1479245275259018 -0.5038759708404541 -0.02325582504272461
0.14833980798721313 -0.5038759708404541 -0.007751941680908203
0.1485275775194168 -0.5038759708404541 0.007751941680908203
0.14769159257411957 -0.5038759708404541 0.02325582504272461
0.15906430780887604 -0.4883720874786377 -0.1627907156944275
0.1579216718673706 -0.4883720874786377 -0.14728683233261108
0.15535250306129456 -0.4883720874786377 -0.13178294897079468
0.1542060375213623 -0.4883720874786377 -0.11627906560897827
0.15301617980003357 -0.4883720874786377 -0.10077518224716187
0.1520722210407257 -0.4883720874786377 -0.08527129888534546
0.15122683346271515 -0.4883720874786377 -0.06976741552352905
0.1504892110824585 -0.4883720874786377 -0.05426359176635742
0.14872632920742035 -0.4883720874786377 -0.038759708404541016
0.1475445032119751 -0.4883720874786377 -0.02325582504272461
0.1478566825389862 -0.4883720874786377 -0.007751941680908203
0.1480548083782196 -0.4883720874786377 0.007751941680908203
0.14746077358722687 -0.4883720874786377 0.02325582504272461
0.14743193984031677 -0.4728682041168213 -0.1782945990562439
0.15934425592422485 -0.4728682041168213 -0.1627907156944275
0.1581684648990631 -0.4728682041168213 -0.14728683233261108
0.1556689292192459 -0.4728682041168213 -0.13178294897079468
0.15446296334266663 -0.4728682041168213 -0.11627906560897827
0.15319466590881348 -0.4728682041168213 -0.10077518224716187
0.15228736400604248 -0.4728682041168213 -0.08527129888534546
0.1518968641757965 -0.4728682041168213 -0.06976741552352905
0.15169978141784668 -0.4728682041168213 -0.05426359176635742
0.14970874786376953 -0.4728682041168213 -0.038759708404541016
0.1475364714860916 -0.4728682041168213 -0.02325582504272461
0.14769409596920013 -0.4728682041168213 -0.00775194214656949
0.14793656766414642 -0.4728681743144989 0.007751941680908203
0.14753510057926178 -0.4728682041168213 0.02325582504272461
0.15952961146831512 -0.4573643207550049 -0.1627907156944275
0.15856051445007324 -0.4573643207550049 -0.14728683233261108
0.15602605044841766 -0.4573643207550049 -0.13178294897079468
0.15476608276367188 -0.4573643207550049 -0.11627906560897827
0.1535000205039978 -0.4573643207550049 -0.10077518224716187
0.1526859849691391 -0.4573643207550049 -0.08527129888534546
0.1530364453792572 -0.4573643207550049 -0.06976741552352905
0.15346795320510864 -0.4573643207550049 -0.05426359176635742
0.15149198472499847 -0.4573643207550049 -0.038759708404541016
0.1480364203453064 -0.4573643207550049 -0.02325582504272461
0.1477666199207306 -0.4573643207550049 -0.007751941680908203
0.1481718122959137 -0.4573643207550049 0.007751941680908203
0.1480492800474167 -0.4573643207550049 0.02325582504272461
0.1473144292831421 -0.4573643207550049 0.038759708404541016
0.15956348180770874 -0.4418604373931885 -0.1627907156944275
0.15894815325737 -0.4418604373931885 -0.14728683233261108
0.15627610683441162 -0.4418604373931885 -0.13178294897079468
0.1549280881881714 -0.4418604373931885 -0.11627906560897827
0.15369731187820435 -0.4418604373931885 -0.10077518224716187
0.15316882729530334 -0.4418604373931885 -0.08527129888534546
0.1543462723493576 -0.4418604373931885 -0.06976741552352905
0.15542766451835632 -0.4418604373931885 -0.05426359176635742
0.15369537472724915 -0.4418604373931885 -0.038759708404541016
0.1491948664188385 -0.4418604373931885 -0.02325582504272461
0.14798392355442047 -0.4418604373931885 -0.007751941680908203
0.14864422380924225 -0.4418604373931885 0.007751941680908203
0.1489032357931137 -0.4418604373931885 0.02325582504272461
0.14850099384784698 -0.4418604075908661 0.038759708404541016
0.15929681062698364 -0.42635661363601685 -0.1627907156944275
0.15906807780265808 -0.42635661363601685 -0.14728683233261108
0.15626433491706848 -0.42635661363601685 -0.13178294897079468
0.15481841564178467 -0.42635661363601685 -0.11627906560897827
0.1536334753036499 -0.42635661363601685 -0.10077518224716187
0.15359020233154297 -0.42635661363601685 -0.08527129888534546
0.15563637018203735 -0.42635661363601685 -0.06976741552352905
0.157183438539505 -0.42635661363601685 -0.05426359176635742
0.15549327433109283 -0.42635661363601685 -0.038759708404541016
0.15054382383823395 -0.42635661363601685 -0.02325582504272461
0.14807745814323425 -0.42635658383369446 -0.007751941215246916
0.14879919588565826 -0.42635661363601685 0.007751941680908203
0.14932729303836823 -0.42635661363601685 0.02325582504272461
0.14921262860298157 -0.42635661363601685 0.038759708404541016
0.14740963280200958 -0.42635664343833923 0.05426359549164772
0.15908968448638916 -0.41085273027420044 -0.1627907156944275
0.1590324491262436 -0.41085273027420044 -0.14728683233261108
0.15601453185081482 -0.41085273027420044 -0.13178294897079468
0.1543685793876648 -0.41085273027420044 -0.11627906560897827
0.15326981246471405 -0.41085273027420044 -0.10077518224716187
0.15380552411079407 -0.41085273027420044 -0.08527129888534546
0.15655304491519928 -0.41085273027420044 -0.06976741552352905
0.15821227431297302 -0.41085273027420044 -0.05426359176635742
0.15664169192314148 -0.41085273027420044 -0.038759708404541016
0.1515914499759674 -0.41085273027420044 -0.02325582504272461
0.1479177623987198 -0.41085273027420044 -0.007751941680908203
0.14847059547901154 -0.41085273027420044 0.007751941680908203
0.14906975626945496 -0.41085273027420044 0.02325582504272461
0.1490829586982727 -0.41085273027420044 0.038759708404541016
0.14750541746616364 -0.41085273027420044 0.05426359176635742
0.1589544117450714 -0.39534884691238403 -0.1627907156944275
0.15886470675468445 -0.39534884691238403 -0.14728683233261108
0.15547820925712585 -0.39534884691238403 -0.13178294897079468
0.15355037152767181 -0.39534884691238403 -0.11627906560897827
0.15262068808078766 -0.39534884691238403 -0.10077518969774246
0.1535492241382599 -0.39534884691238403 -0.08527129888534546
0.1566161811351776 -0.39534884691238403 -0.06976741552352905
0.15837827324867249 -0.39534884691238403 -0.05426359176635742
0.15683168172836304 -0.39534884691238403 -0.038759708404541016
0.15131065249443054 -0.39534884691238403 -0.02325582504272461
0.14753387868404388 -0.39534884691238403 0.007751941680908203
0.14818526804447174 -0.39534884691238403 0.02325582504272461
0.1482744961977005 -0.39534884691238403 0.038759708404541016
0.1592671126127243 -0.3798449635505676 -0.1627907156944275
0.15883450210094452 -0.3798449635505676 -0.14728683233261108
0.15502887964248657 -0.3798449635505676 -0.13178294897079468
0.1527693271636963 -0.3798449635505676 -0.11627907305955887
0.15192940831184387 -0.3798449635505676 -0.10077518224716187
0.1528759002685547 -0.3798449635505676 -0.08527129888534546
0.1559010148048401 -0.3798449635505676 -0.06976741552352905
0.15776173770427704 -0.3798449635505676 -0.05426359176635742
0.1560697853565216 -0.3798449635505676 -0.038759708404541016
0.14983291923999786 -0.3798449635505676 -0.02325582504272461
0.15971195697784424 -0.3643410801887512 -0.1627907156944275
0.15896877646446228 -0.3643410801887512 -0.14728683233261108
0.15490810573101044 -0.3643410801887512 -0.13178294897079468
0.1522931605577469 -0.3643410801887512 -0.11627906560897827
0.15125970542430878 -0.3643410801887512 -0.10077518224716187
0.15190939605236053 -0.3643410801887512 -0.08527129888534546
0.15484943985939026 -0.3643410801887512 -0.06976741552352905
0.15665040910243988 -0.3643410801887512 -0.05426359176635742
0.15466541051864624 -0.3643410801887512 -0.038759708404541016
0.14748676121234894 -0.3643410801887512 -0.02325582504272461
0.16021330654621124 -0.3488371968269348 -0.1627907156944275
0.1592935025691986 -0.3488371968269348 -0.14728683233261108
0.15512076020240784 -0.3488371968269348 -0.13178294897079468
0.15211570262908936 -0.3488371968269348 -0.11627906560897827
0.15071454644203186 -0.3488371968269348 -0.10077518224716187
0.1510482132434845 -0.3488371968269348 -0.08527129888534546
0.154230996966362 -0.3488371968269348 -0.06976741552352905
0.15587785840034485 -0.3488371968269348 -0.05426359176635742
0.15348267555236816 -0.3488371968269348 -0.038759708404541016
0.16093489527702332 -0.3333333134651184 -0.1627907156944275
0.15991708636283875 -0.3333333134651184 -0.14728683233261108
0.15564608573913574 -0.3333333134651184 -0.13178294897079468
0.15231505036354065 -0.3333333134651184 -0.11627906560897827
0.15052294731140137 -0.3333333134651184 -0.10077518224716187
0.1508241891860962 -0.3333333134651184 -0.08527129888534546
0.1543918251991272 -0.3333333134651184 -0.06976741552352905
0.15597978234291077 -0.3333333134651184 -0.05426359176635742
0.15321829915046692 -0.3333333134651184 -0.038759708404541016
0.1476554274559021 -0.317829430103302 -0.1782946139574051
0.16219374537467957 -0.317829430103302 -0.1627907156944275
0.1610269993543625 -0.317829430103302 -0.14728683233261108
0.15654852986335754 -0.317829430103302 -0.13178294897079468
0.1529870480298996 -0.317829430103302 -0.11627906560897827
0.1507745385169983 -0.317829430103302 -0.10077518224716187
0.15133878588676453 -0.317829430103302 -0.08527129888534546
0.1553647816181183 -0.317829430103302 -0.06976741552352905
0.156772643327713 -0.317829430103302 -0.05426359176635742
0.15393312275409698 -0.317829430103302 -0.038759708404541016
0.1488400101661682 -0.30232560634613037 -0.1782946139574051
0.16202418506145477 -0.30232560634613037 -0.14728683233261108
0.1574198454618454 -0.30232560634613037 -0.13178294897079468
0.15367475152015686 -0.30232560634613037 -0.11627906560897827
0.15126174688339233 -0.30232560634613037 -0.10077518224716187
0.15216125547885895 -0.30232560634613037 -0.08527129888534546
0.15625332295894623 -0.30232560634613037 -0.06976741552352905
0.15732307732105255 -0.30232560634613037 -0.05426359176635742
0.15470179915428162 -0.30232560634613037 -0.038759708404541016
0.14966538548469543 -0.28682172298431396 -0.1782945990562439
0.1627761423587799 -0.28682172298431396 -0.14728683233261108
0.1581701636314392 -0.28682172298431396 -0.13178294897079468
0.15431541204452515 -0.28682172298431396 -0.11627906560897827
0.15185073018074036 -0.28682172298431396 -0.10077518224716187
0.15302670001983643 -0.28682172298431396 -0.08527129888534546
0.15693244338035583 -0.28682172298431396 -0.06976741552352905
0.15769857168197632 -0.28682172298431396 -0.05426359176635742
0.15529674291610718 -0.28682172298431396 -0.038759708404541016
0.1503370851278305 -0.27131783962249756 -0.1782945990562439
0.15873712301254272 -0.27131783962249756 -0.13178294897079468
0.1548248678445816 -0.27131783962249756 -0.11627906560897827
0.15235748887062073 -0.27131783962249756 -0.10077518224716187
0.15363538265228271 -0.27131783962249756 -0.08527129888534546
0.1572207361459732 -0.27131783962249756 -0.06976741552352905
0.15781359374523163 -0.27131783962249756 -0.05426359176635742
0.15556442737579346 -0.27131783962249756 -0.038759708404541016
0.14747527241706848 -0.27131783962249756 -0.02325582504272461
0.1509615033864975 -0.25581395626068115 -0.1782945990562439
0.15948942303657532 -0.25581395626068115 -0.13178294897079468
0.15544801950454712 -0.25581395626068115 -0.11627906560897827
0.15285226702690125 -0.25581395626068115 -0.10077518224716187
0.15385538339614868 -0.25581395626068115 -0.08527129888534546
0.1571597158908844 -0.25581395626068115 -0.06976741552352905
0.15771818161010742 -0.25581395626068115 -0.05426359176635742
0.1554425209760666 -0.25581395626068115 -0.038759708404541016
0.1478569060564041 -0.25581395626068115 -0.02325582504272461
0.15129275619983673 -0.24031007289886475 -0.1782945990562439
0.16010898351669312 -0.24031007289886475 -0.13178294897079468
0.155951589345932 -0.24031007289886475 -0.11627906560897827
0.15303254127502441 -0.24031007289886475 -0.10077518224716187
0.1533224880695343 -0.24031007289886475 -0.08527129888534546
0.1561773270368576 -0.24031007289886475 -0.06976741552352905
0.15682551264762878 -0.24031007289886475 -0.05426359176635742
0.1543351411819458 -0.24031007289886475 -0.038759708404541016
0.1513543725013733 -0.22480618953704834 -0.1782945841550827
0.16085588932037354 -0.22480618953704834 -0.13178294897079468
0.1565297245979309 -0.22480618953704834 -0.11627906560897827
0.1531563699245453 -0.22480618953704834 -0.10077518224716187
0.1525699496269226 -0.22480618953704834 -0.08527129888534546
0.15472742915153503 -0.22480618953704834 -0.06976741552352905
0.15559746325016022 -0.22480618953704834 -0.05426359176635742
0.1530502587556839 -0.22480618953704834 -0.038759708404541016
0.15129642188549042 -0.20930229127407074 -0.1782945990562439
0.16141775250434875 -0.20930230617523193 -0.13178294897079468
0.15694430470466614 -0.20930230617523193 -0.11627906560897827
0.15309834480285645 -0.20930230617523193 -0.10077518224716187
0.15147192776203156 -0.20930230617523193 -0.08527129888534546
0.15263265371322632 -0.20930230617523193 -0.06976741552352905
0.15355055034160614 -0.20930230617523193 -0.05426359176635742
0.15080639719963074 -0.20930230617523193 -0.038759708404541016
0.15104685723781586 -0.19379842281341553 -0.1782946139574051
0.16172190010547638 -0.19379842281341553 -0.13178294897079468
0.1571427881717682 -0.19379842281341553 -0.11627906560897827
0.15288449823856354 -0.19379842281341553 -0.10077518224716187
0.15004996955394745 -0.19379842281341553 -0.08527129143476486
0.1495327651500702 -0.19379842281341553 -0.06976741552352905
0.14990749955177307 -0.19379843771457672 -0.05426359549164772
0.14896124601364136 -0.19379842281341553 0.05426359176635742
0.15059800446033478 -0.1782945990562439 -0.1782945990562439
0.1619771271944046 -0.1782945990562439 -0.13178294897079468
0.15724466741085052 -0.1782945990562439 -0.11627906560897827
0.15263307094573975 -0.1782945990562439 -0.10077517479658127
0.14886724948883057 -0.1782945990562439 -0.08527129888534546
0.147835835814476 -0.1782945990562439 0.038759708404541016
0.15012627840042114 -0.1782945990562439 0.05426359176635742
0.14788073301315308 -0.1782945841550827 0.06976747512817383
0.1502985805273056 -0.1627907156944275 -0.1782946139574051
0.1625458151102066 -0.1627907156944275 -0.13178294897079468
0.15768977999687195 -0.1627907156944275 -0.11627906560897827
0.15272794663906097 -0.1627907156944275 -0.10077518224716187
0.14846865832805634 -0.1627907156944275 -0.08527129888534546
0.14818356931209564 -0.1627907156944275 0.038759708404541016
0.1505012810230255 -0.1627907156944275 0.05426358804106712
0.1488085687160492 -0.1627907156944275 0.06976746767759323
0.15010616183280945 -0.14728683233261108 -0.1782945990562439
0.15863363444805145 -0.14728683233261108 -0.11627906560897827
0.15342338383197784 -0.14728683233261108 -0.10077518224716187
0.14891260862350464 -0.14728683233261108 -0.08527129143476486
0.1488397717475891 -0.14728684723377228 0.038759708404541016
0.15112420916557312 -0.14728683233261108 0.05426359176635742
0.14979815483093262 -0.14728683233261108 0.06976747512817383
0.15035854279994965 -0.13178294897079468 -0.1782945990562439
0.160441592335701 -0.13178294897079468 -0.11627906560897827
0.15491846203804016 -0.13178294897079468 -0.10077518224716187
0.15003207325935364 -0.13178294897079468 -0.08527129143476486
0.147494837641716 -0.13178294897079468 0.02325582504272461
0.1499965935945511 -0.13178294897079468 0.038759708404541016
0.1524670124053955 -0.13178294897079468 0.05426359176635742
0.15144920349121094 -0.13178294897079468 0.06976747512817383
0.15181860327720642 -0.11627906560897827 -0.1782945990562439
0.16218705475330353 -0.11627906560897827 -0.11627906560897827
0.15657608211040497 -0.11627906560897827 -0.10077518224716187
0.15148431062698364 -0.11627906560897827 -0.08527129888534546
0.14739777147769928 -0.11627906560897827 -0.06976741552352905
0.14862759411334991 -0.11627906560897827 0.02325582504272461
0.15118874609470367 -0.11627906560897827 0.038759708404541016
0.15448406338691711 -0.11627906560897827 0.05426359176635742
0.1532895565032959 -0.11627906560897827 0.06976747512817383
0.1541658192873001 -0.10077518224716187 -0.1782945990562439
0.15785105526447296 -0.10077518224716187 -0.10077518224716187
0.15267053246498108 -0.10077518224716187 -0.08527129888534546
0.14919859170913696 -0.10077518224716187 -0.06976741552352905
0.14940685033798218 -0.10077518224716187 0.02325582504272461
0.1519509255886078 -0.10077518224716187 0.038759708404541016
0.15614894032478333 -0.10077518224716187 0.05426359176635742
0.15511712431907654 -0.10077518224716187 0.06976747512817383
0.15555694699287415 -0.08527129888534546 -0.1782945990562439
0.158519446849823 -0.08527129888534546 -0.10077518224716187
0.15325087308883667 -0.08527129888534546 -0.08527129888534546
0.15027505159378052 -0.08527129888534546 -0.06976741552352905
0.14739710092544556 -0.08527129888534546 -0.05426358804106712
0.14962849020957947 -0.08527129888534546 0.02325582504272461
0.15226443111896515 -0.08527129888534546 0.038759708404541016
0.15689700841903687 -0.08527129888534546 0.05426359176635742
0.15619578957557678 -0.08527129888534546 0.06976747512817383
0.1568402349948883 -0.06976741552352905 -0.1782945990562439
0.15826702117919922 -0.06976741552352905 -0.10077518224716187
0.15307185053825378 -0.06976741552352905 -0.08527129888534546
0.15052056312561035 -0.06976741552352905 -0.06976741552352905
0.14791177213191986 -0.06976741552352905 -0.05426359176635742
0.14952027797698975 -0.06976741552352905 0.02325582504272461
0.1521679311990738 -0.06976741552352905 0.038759708404541016
0.1566741168498993 -0.06976741552352905 0.05426359176635742
0.15566052496433258 -0.06976741552352905 0.06976747512817383
0.15904992818832397 -0.05426359176635742 -0.1782945990562439
0.15773479640483856 -0.05426359176635742 -0.10077518224716187
0.1525076925754547 -0.05426359176635742 -0.08527129888534546
0.15011301636695862 -0.05426359176635742 -0.06976741552352905
0.14782656729221344 -0.05426359176635742 -0.05426359176635742
0.14732564985752106 -0.05426359176635742 0.007751941680908203
0.14970462024211884 -0.05426359176635742 0.02325582504272461
0.1521148830652237 -0.05426359176635742 0.038759708404541016
0.15579712390899658 -0.05426359176635742 0.05426359176635742
0.15415403246879578 -0.05426359176635742 0.06976747512817383
0.162469282746315 -0.038759708404541016 -0.1782945990562439
0.15730056166648865 -0.038759708404541016 -0.10077518224716187
0.1518399566411972 -0.038759708404541016 -0.08527129888534546
0.14924871921539307 -0.038759708404541016 -0.06976741552352905
0.1479131281375885 -0.038759712129831314 0.00775194214656949
0.15018099546432495 -0.038759708404541016 0.02325582504272461
0.1522710919380188 -0.038759708404541016 0.038759708404541016
0.1548502892255783 -0.038759708404541016 0.05426359176635742
0.15270377695560455 -0.038759708404541016 0.06976747512817383
0.15728241205215454 -0.02325582504272461 -0.10077518224716187
0.15132756531238556 -0.02325582504272461 -0.08527129888534546
0.1483461856842041 -0.02325582504272461 -0.06976741552352905
0.14785291254520416 -0.02325582504272461 0.007751941680908203
0.15014202892780304 -0.02325582690536976 0.02325582690536976
0.15208351612091064 -0.02325582504272461 0.038759708404541016
0.15388429164886475 -0.02325582504272461 0.05426359176635742
0.15121090412139893 -0.02325582504272461 0.06976747512817383
0.1573842167854309 -0.007751941680908203 -0.10077518224716187
0.15087397396564484 -0.007751941680908203 -0.08527129888534546
0.147319495677948 -0.007751941680908203 0.007751941680908203
0.14986427128314972 -0.007751941680908203 0.02325582504272461
0.15173332393169403 -0.007751941680908203 0.038759708404541016
0.15295925736427307 -0.007751941680908203 0.05426359176635742
0.14929962158203125 -0.007751941680908203 0.06976747512817383
0.15935580432415009 0.007751941680908203 -0.1782945990562439
0.15773813426494598 0.007751941680908203 -0.10077518224716187
0.1505075842142105 0.007751941680908203 -0.08527129143476486
0.14923769235610962 0.007751941680908203 0.02325582504272461
0.1509111225605011 0.007751941680908203 0.038759708404541016
0.1516159176826477 0.007751941680908203 0.05426359176635742
0.15693365037441254 0.02325582504272461 -0.1782945990562439
0.15770186483860016 0.02325582504272461 -0.10077518224716187
0.15005303919315338 0.02325582318007946 -0.08527129888534546
0.14819400012493134 0.02325582504272461 0.02325582504272461
0.14950568974018097 0.02325582504272461 0.038759708404541016
0.1495237946510315 0.02325582318007946 0.05426358804106712
0.15651200711727142 0.038759708404541016 -0.1782945990562439
0.15756824612617493 0.038759708404541016 -0.10077518224716187
0.14978690445423126 0.038759708404541016 -0.08527129888534546
0.147661954164505 0.038759708404541016 0.038759708404541016
0.15605595707893372 0.05426359176635742 -0.1782945990562439
0.15692409873008728 0.05426359176635742 -0.10077518224716187
0.1492173820734024 0.05426359176635742 -0.08527129888534546
