0.10077524185180664 0.1324627846479416 -0.9379845261573792
0.10077524930238724 0.13223238289356232 -0.9224806427955627
0.10077524185180664 0.13213355839252472 -0.9069767594337463
0.10077524185180664 0.132141575217247 -0.8914728760719299
0.10077524185180664 0.13225510716438293 -0.8759689927101135
0.10077524930238724 0.1323358714580536 -0.8604651689529419
0.10077524185180664 0.13234183192253113 -0.8449612259864807
0.10077524185180664 0.13231289386749268 -0.8294573426246643
0.10077524185180664 0.1323322057723999 -0.8139535188674927
0.10077524930238724 0.13237351179122925 -0.7984496355056763
0.10077524185180664 0.13232703506946564 -0.7829456925392151
0.10077524185180664 0.1322147250175476 -0.7674418687820435
0.10077524185180664 0.13221979141235352 -0.751937985420227
0.10077524185180664 0.1323137730360031 -0.7364341020584106
0.10077524185180664 0.1324070394039154 -0.7209302186965942
0.10077524930238724 0.1325480341911316 -0.7054263353347778
0.10077524185180664 0.13271988928318024 -0.6899223923683167
0.10077524930238724 0.13290144503116608 -0.674418568611145
0.10077524185180664 0.1330173909664154 -0.6589146852493286
0.10077524185180664 0.13328014314174652 -0.643410861492157
0.10077524185180664 0.13325001299381256 -0.6279069781303406
0.10077524185180664 0.13300690054893494 -0.6124030947685242
0.10077524185180664 0.13304293155670166 -0.5968992114067078
0.10077524185180664 0.13325905799865723 -0.5813953876495361
0.10077524185180664 0.13310030102729797 -0.5658915042877197
0.10077524930238724 0.1329561471939087 -0.5503876209259033
0.10077524185180664 0.13302165269851685 -0.5348837375640869
0.10077524185180664 0.13304702937602997 -0.5193798542022705
0.10077524185180664 0.13308173418045044 -0.5038759708404541
0.10077523440122604 0.13317431509494781 -0.4883720874786377
0.10077524185180664 0.13328099250793457 -0.4728682041168213
0.10077524185180664 0.13335049152374268 -0.4573643207550049
0.10077523440122604 0.13343212008476257 -0.4418604373931885
0.10077524930238724 0.13347865641117096 -0.42635661363601685
0.10077524185180664 0.1335081309080124 -0.41085273027420044
0.10077524185180664 0.1335069239139557 -0.39534884691238403
0.10077524930238724 0.13345131278038025 -0.3798449635505676
0.10077524185180664 0.13345927000045776 -0.3643410801887512
0.10077524930238724 0.13349372148513794 -0.3488371968269348
0.10077524185180664 0.1335086077451706 -0.3333333134651184
0.10077524185180664 0.1335737109184265 -0.317829430103302
0.10077524185180664 0.13366371393203735 -0.30232560634613037
0.10077524185180664 0.13382560014724731 -0.28682172298431396
0.10077524185180664 0.13391482830047607 -0.27131783962249756
0.10077524185180664 0.13391637802124023 -0.25581395626068115
0.10077524185180664 0.13386574387550354 -0.24031007289886475
0.10077524185180664 0.13380074501037598 -0.22480618953704834
0.10077524185180664 0.13368159532546997 -0.20930230617523193
0.10077524185180664 0.13355912268161774 -0.19379843771457672
0.10077523440122604 0.13350288569927216 -0.1782945990562439
0.10077524185180664 0.1333351731300354 -0.1627907156944275
0.10077524185180664 0.1333170384168625 -0.14728683233261108
0.10077524185180664 0.13324294984340668 -0.13178294897079468
0.10077524185180664 0.13315902650356293 -0.11627906560897827
0.10077524185180664 0.13316412270069122 -0.10077518224716187
0.10077524185180664 0.1331602931022644 -0.08527129888534546
0.10077524185180664 0.13314159214496613 -0.06976741552352905
0.10077524185180664 0.13307181000709534 -0.05426359176635742
0.10077524185180664 0.1330329179763794 -0.038759708404541016
0.10077524185180664 0.13299894332885742 -0.02325582504272461
0.10077524185180664 0.13300126791000366 -0.007751941680908203
0.10077524930238724 0.132978156208992 0.00775194214656949
0.10077524185180664 0.13296890258789062 0.02325582504272461
0.10077524185180664 0.13304510712623596 0.038759708404541016
0.10077524185180664 0.1329750120639801 0.05426359176635742
0.11627912521362305 -0.06205013021826744 -0.9689922332763672
0.11627912521362305 -0.060185909271240234 -0.9534883499145508
0.11627912521362305 -0.05638473108410835 -0.9379844665527344
0.11627912521362305 -0.05536320060491562 -0.9224806427955627
0.11627912521362305 -0.05506359040737152 -0.9069767594337463
0.11627912521362305 -0.05500132963061333 -0.8914728760719299
0.11627912521362305 -0.054995134472846985 -0.8759689927101135
0.11627912521362305 -0.0550529882311821 -0.8604651093482971
0.11627912521362305 -0.05522812157869339 -0.8449612259864807
0.11627912521362305 -0.05584406107664108 -0.8294573426246643
0.11627912521362305 -0.05695793777704239 -0.8139535188674927
0.11627912521362305 -0.058491747826337814 -0.7984496355056763
0.11627912521362305 -0.05912154167890549 -0.7829457521438599
0.11627912521362305 -0.05979960411787033 -0.7674418687820435
0.11627912521362305 -0.06005224585533142 -0.751937985420227
0.11627912521362305 -0.06022708863019943 -0.7364341020584106
0.11627912521362305 -0.05977647379040718 -0.7209302186965942
0.11627912521362305 -0.058961767703294754 -0.7054263353347778
0.11627912521362305 -0.057728081941604614 -0.6899224519729614
0.11627912521362305 -0.056648142635822296 -0.674418568611145
0.11627912521362305 -0.05604665353894234 -0.6589146852493286
0.11627912521362305 -0.055846065282821655 -0.643410861492157
0.11627912521362305 -0.05590575560927391 -0.6279069781303406
0.11627912521362305 -0.05634228140115738 -0.6124030947685242
0.11627912521362305 -0.05688360705971718 -0.5968992114067078
0.11627912521362305 -0.057815369218587875 -0.5813953876495361
0.11627912521362305 -0.059011247009038925 -0.5658915042877197
0.11627912521362305 -0.059870049357414246 -0.5503876209259033
0.11627912521362305 -0.06072009354829788 -0.5348837375640869
0.11627912521362305 -0.06053701788187027 -0.5193798542022705
0.11627912521362305 -0.060011327266693115 -0.5038759708404541
0.11627912521362305 -0.05901823192834854 -0.4883720874786377
0.11627912521362305 -0.05801866203546524 -0.4728682041168213
0.11627912521362305 -0.05727902054786682 -0.4573643207550049
0.11627912521362305 -0.05700436607003212 -0.4418604373931885
0.11627912521362305 -0.05684809014201164 -0.42635661363601685
0.11627912521362305 -0.05660014972090721 -0.41085273027420044
0.11627912521362305 -0.05671358108520508 -0.39534884691238403
0.11627912521362305 -0.057249587029218674 -0.3798449635505676
0.11627912521362305 -0.058402881026268005 -0.3643410801887512
0.11627912521362305 -0.05980537086725235 -0.3488371968269348
0.11627912521362305 -0.06090160831809044 -0.3333333134651184
0.11627912521362305 -0.060684725642204285 -0.317829430103302
0.11627912521362305 -0.059468939900398254 -0.30232560634613037
0.11627912521362305 -0.05834224447607994 -0.28682172298431396
0.11627912521362305 -0.05759640783071518 -0.27131783962249756
0.11627912521362305 -0.05713358521461487 -0.25581395626068115
0.11627912521362305 -0.05692741647362709 -0.24031007289886475
0.11627912521362305 -0.057023413479328156 -0.22480618953704834
0.11627912521362305 -0.05715818330645561 -0.20930230617523193
0.11627912521362305 -0.05735710635781288 -0.19379842281341553
0.11627912521362305 -0.05781376361846924 -0.1782945990562439
0.11627912521362305 -0.058262769132852554 -0.1627907156944275
0.11627912521362305 -0.058623138815164566 -0.14728683233261108
0.11627912521362305 -0.058794084936380386 -0.13178294897079468
0.11627912521362305 -0.05879334732890129 -0.11627906560897827
0.11627912521362305 -0.058651551604270935 -0.10077518224716187
0.11627912521362305 -0.058330900967121124 -0.08527129888534546
0.11627912521362305 -0.05818508565425873 -0.06976741552352905
0.11627912521362305 -0.0580119788646698 -0.05426359176635742
0.11627912521362305 -0.05768851563334465 -0.038759708404541016
0.11627912521362305 -0.057276852428913116 -0.02325582504272461
0.11627912521362305 -0.05683926120400429 -0.007751941680908203
0.11627912521362305 -0.056283559650182724 0.007751941680908203
0.11627912521362305 -0.05549782142043114 0.02325582504272461
0.11627912521362305 -0.05378628894686699 0.038759708404541016
0.11627912521362305 0.10399460792541504 0.05426359176635742
0.11627912521362305 0.13495813310146332 -0.9689922332763672
0.11627912521362305 0.13371917605400085 -0.9534883499145508
0.11627912521362305 0.13254256546497345 -0.9379844665527344
0.11627912521362305 0.1322794109582901 -0.9224806427955627
0.11627911776304245 0.13216885924339294 -0.9069766998291016
0.11627912521362305 0.13217777013778687 -0.8914728760719299
0.11627912521362305 0.1322895735502243 -0.8759689927101135
0.11627912521362305 0.13236624002456665 -0.8604651093482971
0.11627912521362305 0.13237038254737854 -0.8449612259864807
0.11627912521362305 0.13233527541160583 -0.8294573426246643
0.11627912521362305 0.13235889375209808 -0.8139535188674927
0.11627911776304245 0.13240917026996613 -0.7984496355056763
0.11627912521362305 0.13237343728542328 -0.7829457521438599
0.11627912521362305 0.13226668536663055 -0.7674418687820435
0.11627912521362305 0.13227611780166626 -0.751937985420227
0.11627911776304245 0.13237200677394867 -0.7364341020584106
0.11627912521362305 0.13246411085128784 -0.7209302186965942
0.11627912521362305 0.13260427117347717 -0.7054263949394226
0.11627912521362305 0.1327742487192154 -0.6899224519729614
0.11627912521362305 0.13295318186283112 -0.674418568611145
0.11627912521362305 0.1330677717924118 -0.6589146852493286
0.11627912521362305 0.13333790004253387 -0.643410861492157
0.11627912521362305 0.13328775763511658 -0.6279069781303406
0.11627912521362305 0.1330462098121643 -0.6124030947685242
0.11627912521362305 0.1330733299255371 -0.5968992114067078
0.11627912521362305 0.13330313563346863 -0.5813953876495361
0.11627911776304245 0.13315261900424957 -0.5658915042877197
0.11627912521362305 0.13300858438014984 -0.5503875613212585
0.11627912521362305 0.13307619094848633 -0.5348837375640869
0.11627912521362305 0.1331094354391098 -0.5193798542022705
0.11627912521362305 0.1331459879875183 -0.5038759708404541
0.11627912521362305 0.1332274079322815 -0.4883720874786377
0.11627912521362305 0.13331186771392822 -0.4728682041168213
0.11627912521362305 0.13336224853992462 -0.4573643207550049
0.11627911776304245 0.1334211826324463 -0.4418604075908661
0.11627912521362305 0.1334613710641861 -0.42635664343833923
0.11627912521362305 0.1334982067346573 -0.41085273027420044
0.11627912521362305 0.13350528478622437 -0.39534884691238403
0.11627912521362305 0.13345126807689667 -0.3798449635505676
0.11627912521362305 0.13343408703804016 -0.3643410801887512
0.11627912521362305 0.13342010974884033 -0.3488371968269348
0.11627913266420364 0.1333848536014557 -0.3333333134651184
0.11627912521362305 0.13340908288955688 -0.317829430103302
0.11627913266420364 0.133461594581604 -0.30232560634613037
0.11627913266420364 0.13359642028808594 -0.28682172298431396
0.11627911776304245 0.13368281722068787 -0.27131783962249756
0.11627912521362305 0.133690744638443 -0.25581395626068115
0.11627912521362305 0.13366006314754486 -0.24031005799770355
0.11627912521362305 0.13361364603042603 -0.22480618953704834
0.11627911776304245 0.13349348306655884 -0.20930229127407074
0.11627912521362305 0.13338933885097504 -0.19379842281341553
0.11627912521362305 0.13336049020290375 -0.1782945990562439
0.11627912521362305 0.13321106135845184 -0.1627907156944275
0.11627912521362305 0.1331881284713745 -0.14728683233261108
0.11627911776304245 0.13310949504375458 -0.13178294897079468
0.11627911776304245 0.13302215933799744 -0.11627906560897827
0.11627912521362305 0.1330169439315796 -0.10077518224716187
0.11627912521362305 0.13300830125808716 -0.08527129888534546
0.11627912521362305 0.13299694657325745 -0.06976741552352905
0.11627912521362305 0.13292630016803741 -0.05426359176635742
0.11627912521362305 0.13289044797420502 -0.038759708404541016
0.11627912521362305 0.1328737735748291 -0.02325582504272461
0.11627912521362305 0.13288913667201996 -0.007751941215246916
0.11627911776304245 0.1328839212656021 0.007751941680908203
0.11627912521362305 0.1329091638326645 0.02325582504272461
0.11627912521362305 0.13301129639148712 0.038759708404541016
0.11627912521362305 0.13286647200584412 0.05426359176635742
0.1317828893661499 -0.05983005464076996 -0.9689922332763672
0.1317828893661499 -0.06080827862024307 -0.9534883499145508
0.1317828893661499 -0.05676472187042236 -0.9379844665527344
0.1317828893661499 -0.05558314919471741 -0.9224806427955627
0.1317828893661499 -0.05526021122932434 -0.9069767594337463
0.1317828893661499 -0.05520954728126526 -0.8914728760719299
0.1317828893661499 -0.05521448329091072 -0.8759689927101135
0.1317828893661499 -0.05527447536587715 -0.8604651093482971
0.1317828893661499 -0.05544675886631012 -0.8449612259864807
0.1317828893661499 -0.05602886900305748 -0.8294573426246643
0.1317828893661499 -0.05690823495388031 -0.8139535188674927
0.1317828893661499 -0.058037932962179184 -0.7984496355056763
0.1317828893661499 -0.058645352721214294 -0.7829457521438599
0.1317828893661499 -0.05920947343111038 -0.7674418687820435
0.1317828893661499 -0.05953313410282135 -0.751937985420227
0.1317828893661499 -0.05987764894962311 -0.7364341020584106
0.1317828893661499 -0.05966433882713318 -0.7209302186965942
0.1317828893661499 -0.05903564393520355 -0.7054263353347778
0.1317828893661499 -0.057920604944229126 -0.6899224519729614
0.1317828893661499 -0.056876253336668015 -0.674418568611145
0.1317828893661499 -0.05622747167944908 -0.6589146852493286
0.1317828893661499 -0.0559471994638443 -0.6434108018875122
0.1317828893661499 -0.055936917662620544 -0.6279069781303406
0.1317828893661499 -0.05628887563943863 -0.6124030947685242
0.1317828893661499 -0.05673329159617424 -0.5968992114067078
0.1317828893661499 -0.05760504677891731 -0.5813953876495361
0.1317828893661499 -0.05869317427277565 -0.5658915042877197
0.1317828893661499 -0.05942174047231674 -0.5503876209259033
0.1317828893661499 -0.060161590576171875 -0.5348837375640869
0.1317828893661499 -0.06003429740667343 -0.5193798542022705
0.1317828893661499 -0.0596136674284935 -0.5038759708404541
0.1317828893661499 -0.058572202920913696 -0.4883720874786377
0.1317828893661499 -0.057556524872779846 -0.4728682041168213
0.1317828893661499 -0.05688004195690155 -0.4573643207550049
0.1317828893661499 -0.0566314160823822 -0.4418604373931885
0.1317828893661499 -0.05656156688928604 -0.42635661363601685
0.1317828893661499 -0.056467924267053604 -0.41085273027420044
0.1317828893661499 -0.05687299370765686 -0.39534884691238403
0.1317828893661499 -0.057860661298036575 -0.3798449635505676
0.1317828893661499 -0.05982673168182373 -0.3643410801887512
0.1317828893661499 -0.062020398676395416 -0.3488371968269348
0.1317828893661499 -0.06365244090557098 -0.3333333134651184
0.1317828893661499 -0.06359118223190308 -0.317829430103302
0.1317828893661499 -0.061803270131349564 -0.30232560634613037
0.1317828893661499 -0.06002536788582802 -0.28682172298431396
0.1317828893661499 -0.05878380313515663 -0.27131783962249756
0.1317828893661499 -0.05801618844270706 -0.25581395626068115
0.1317828893661499 -0.05755980312824249 -0.24031007289886475
0.1317828893661499 -0.05745912343263626 -0.22480618953704834
0.1317828893661499 -0.0573897622525692 -0.20930230617523193
0.1317828893661499 -0.05739888548851013 -0.19379842281341553
0.1317828893661499 -0.0576905682682991 -0.1782945990562439
0.1317828893661499 -0.05797645449638367 -0.1627907156944275
0.1317828893661499 -0.05821499228477478 -0.14728683233261108
0.1317828893661499 -0.05830560624599457 -0.13178294897079468
0.1317828893661499 -0.05827272683382034 -0.11627906560897827
0.1317828893661499 -0.05808713659644127 -0.10077518224716187
0.1317828893661499 -0.057778455317020416 -0.08527129888534546
0.1317828893661499 -0.057693857699632645 -0.06976741552352905
0.1317828893661499 -0.05763823166489601 -0.05426359176635742
0.1317828893661499 -0.057453688234090805 -0.038759708404541016
0.1317828893661499 -0.057091064751148224 -0.02325582504272461
0.1317828893661499 -0.05667593330144882 -0.007751941680908203
0.1317828893661499 -0.0561719685792923 0.007751941680908203
0.1317828893661499 -0.05548757687211037 0.02325582504272461
0.1317828893661499 -0.054088886827230453 0.038759708404541016
0.1317828893661499 0.10476115345954895 0.05426359176635742
0.1317828893661499 0.13424599170684814 -0.9689922332763672
0.1317828893661499 0.13409000635147095 -0.9534883499145508
0.1317828893661499 0.13265861570835114 -0.9379844665527344
0.1317828893661499 0.13234847784042358 -0.9224806427955627
0.1317828893661499 0.1322258859872818 -0.9069767594337463
0.1317828893661499 0.13223139941692352 -0.8914728760719299
0.1317828893661499 0.13234300911426544 -0.8759689331054688
0.1317828893661499 0.1324174553155899 -0.8604651093482971
0.1317828893661499 0.1324378401041031 -0.8449612259864807
0.1317828893661499 0.1324128806591034 -0.8294573426246643
0.1317829042673111 0.13243809342384338 -0.8139535188674927
0.1317828893661499 0.13247233629226685 -0.7984496355056763
0.1317828893661499 0.1324365735054016 -0.7829457521438599
0.1317828893661499 0.13233311474323273 -0.7674418687820435
0.1317828893661499 0.13234351575374603 -0.751937985420227
0.1317828893661499 0.1324356496334076 -0.7364341020584106
0.1317828893661499 0.1325228363275528 -0.7209302186965942
0.1317828893661499 0.13265864551067352 -0.7054263353347778
0.1317828893661499 0.13282465934753418 -0.6899224519729614
0.1317828893661499 0.13299158215522766 -0.6744185090065002
0.1317828893661499 0.1330891102552414 -0.6589146852493286
0.1317828893661499 0.1333325058221817 -0.643410861492157
0.1317828893661499 0.133214071393013 -0.6279069781303406
0.1317828893661499 0.13296686112880707 -0.6124030947685242
0.1317828893661499 0.13298311829566956 -0.5968992114067078
0.1317828893661499 0.13324277102947235 -0.5813953876495361
0.1317828893661499 0.13313695788383484 -0.5658915042877197
0.1317828893661499 0.13299892842769623 -0.5503876209259033
0.1317828893661499 0.13306614756584167 -0.5348837375640869
0.1317828893661499 0.1331024169921875 -0.5193798542022705
0.1317828893661499 0.13314756751060486 -0.5038759708404541
0.1317828893661499 0.13322706520557404 -0.4883720874786377
0.1317828893661499 0.13329769670963287 -0.4728681743144989
0.1317828893661499 0.1333330124616623 -0.4573643207550049
0.1317828893661499 0.13337677717208862 -0.4418604373931885
0.1317828893661499 0.13342496752738953 -0.42635661363601685
0.1317828893661499 0.13348615169525146 -0.41085273027420044
0.1317828893661499 0.13352183997631073 -0.39534884691238403
0.1317828893661499 0.1334628313779831 -0.3798449635505676
0.1317828893661499 0.13341066241264343 -0.3643411099910736
0.1317828893661499 0.1333368867635727 -0.3488371968269348
0.1317828893661499 0.13323241472244263 -0.3333333134651184
0.1317828893661499 0.13319893181324005 -0.317829430103302
0.1317828893661499 0.13319769501686096 -0.30232560634613037
0.1317828893661499 0.1332884281873703 -0.2868216931819916
0.1317828893661499 0.13335004448890686 -0.27131783962249756
0.1317828893661499 0.1333557367324829 -0.25581395626068115
0.1317828893661499 0.13334687054157257 -0.24031007289886475
0.1317828893661499 0.1333329826593399 -0.22480618953704834
0.1317828893661499 0.13324350118637085 -0.20930230617523193
0.1317828893661499 0.13317446410655975 -0.19379842281341553
0.1317828893661499 0.13317906856536865 -0.1782945990562439
0.1317828893661499 0.1330493837594986 -0.16279073059558868
0.1317828893661499 0.1330297291278839 -0.14728683233261108
0.1317828893661499 0.13295793533325195 -0.13178294897079468
0.1317828893661499 0.13287420570850372 -0.11627905815839767
0.1317828893661499 0.1328565776348114 -0.10077518224716187
0.1317828893661499 0.13282835483551025 -0.08527129888534546
0.1317828893661499 0.132822185754776 -0.06976741552352905
0.1317828893661499 0.13276790082454681 -0.05426359176635742
0.1317828893661499 0.13274864852428436 -0.038759708404541016
0.1317828893661499 0.13274428248405457 -0.02325582504272461
0.1317828893661499 0.13276678323745728 -0.007751941680908203
0.1317828893661499 0.13275830447673798 0.00775194214656949
0.1317828893661499 0.1327914148569107 0.02325582690536976
0.1317828893661499 0.1329105645418167 0.038759708404541016
0.1317828893661499 0.13275401294231415 0.05426359176635742
0.1472867727279663 -0.05744633823633194 -0.9689922332763672
0.1472867727279663 -0.06116481125354767 -0.9534883499145508
0.1472867727279663 -0.05717349052429199 -0.9379844665527344
0.1472867727279663 -0.055772654712200165 -0.9224806427955627
0.1472867727279663 -0.055392805486917496 -0.9069767594337463
0.1472867727279663 -0.055346108973026276 -0.8914728760719299
0.1472867727279663 -0.05537505820393562 -0.8759689927101135
0.1472867727279663 -0.055445510894060135 -0.8604651093482971
0.1472867727279663 -0.05560340732336044 -0.8449612259864807
0.1472867727279663 -0.0560910701751709 -0.8294573426246643
0.1472867727279663 -0.05669422447681427 -0.8139535188674927
0.1472867727279663 -0.057455021888017654 -0.7984496355056763
0.1472867727279663 -0.05792148411273956 -0.7829457521438599
0.1472867727279663 -0.05830768495798111 -0.7674418687820435
0.1472867727279663 -0.05856866389513016 -0.751937985420227
0.1472867727279663 -0.05888935178518295 -0.7364341020584106
0.1472867727279663 -0.058833081275224686 -0.7209302186965942
0.1472867727279663 -0.0584343746304512 -0.7054263353347778
0.1472867727279663 -0.057628560811281204 -0.6899224519729614
0.1472867727279663 -0.05678337439894676 -0.674418568611145
0.1472867727279663 -0.056194767355918884 -0.6589146852493286
0.1472867727279663 -0.055895671248435974 -0.643410861492157
0.1472867727279663 -0.05584093928337097 -0.6279069781303406
0.1472867727279663 -0.056132927536964417 -0.6124030947685242
0.1472867727279663 -0.05652150511741638 -0.5968992710113525
0.1472867727279663 -0.05725829675793648 -0.5813953876495361
0.1472867727279663 -0.05813155323266983 -0.5658915042877197
0.1472867727279663 -0.05872301012277603 -0.5503876209259033
0.1472867727279663 -0.059372588992118835 -0.5348837375640869
0.1472867727279663 -0.0593288280069828 -0.5193798542022705
0.1472867727279663 -0.05899949371814728 -0.5038759708404541
0.1472867727279663 -0.058006349951028824 -0.4883720874786377
0.1472867727279663 -0.05703812092542648 -0.4728682041168213
0.1472867727279663 -0.05642182379961014 -0.4573643207550049
0.1472867727279663 -0.056159187108278275 -0.4418604373931885
0.1472867727279663 -0.056078508496284485 -0.42635661363601685
0.1472867727279663 -0.05601878464221954 -0.41085273027420044
0.1472867727279663 -0.05640076845884323 -0.39534884691238403
0.1472867727279663 -0.05726451426744461 -0.3798449635505676
0.1472867727279663 -0.05900287628173828 -0.3643410801887512
0.1472867727279663 -0.06101031228899956 -0.3488371968269348
0.1472867727279663 -0.06277935951948166 -0.3333333134651184
0.1472867727279663 -0.06329237669706345 -0.317829430103302
0.1472867727279663 -0.06178557872772217 -0.30232560634613037
0.1472867727279663 -0.05993019789457321 -0.28682172298431396
0.1472867727279663 -0.05871199816465378 -0.27131783962249756
0.1472867727279663 -0.05803956091403961 -0.25581395626068115
0.1472867727279663 -0.057591840624809265 -0.24031007289886475
0.1472867727279663 -0.05740761011838913 -0.22480618953704834
0.1472867727279663 -0.05723267048597336 -0.20930230617523193
0.1472867727279663 -0.057135388255119324 -0.19379842281341553
0.1472867727279663 -0.05730137974023819 -0.1782945990562439
0.1472867727279663 -0.057510413229465485 -0.1627907156944275
0.1472867727279663 -0.05766710638999939 -0.14728683233261108
0.1472867727279663 -0.057674702256917953 -0.13178294897079468
0.1472867727279663 -0.05752839148044586 -0.11627906560897827
0.1472867727279663 -0.0572102926671505 -0.10077518224716187
0.1472867727279663 -0.05682607367634773 -0.08527129888534546
0.1472867727279663 -0.05670398846268654 -0.06976741552352905
0.1472867727279663 -0.056740786880254745 -0.05426359176635742
0.1472867727279663 -0.05674649775028229 -0.038759708404541016
0.1472867727279663 -0.05658899247646332 -0.02325582504272461
0.1472867727279663 -0.056316789239645004 -0.007751941680908203
0.1472867727279663 -0.055948272347450256 0.007751941680908203
0.1472867727279663 -0.05544717237353325 0.02325582504272461
0.1472867727279663 -0.05444345250725746 0.038759708404541016
0.1472867727279663 0.10896290838718414 0.05426359176635742
0.1472867727279663 0.13334792852401733 -0.9689922332763672
0.1472867727279663 0.13446636497974396 -0.9534883499145508
0.1472867727279663 0.1327667236328125 -0.9379844665527344
0.1472867727279663 0.13237370550632477 -0.9224806427955627
0.1472867727279663 0.13223238289356232 -0.9069767594337463
0.14728675782680511 0.13223125040531158 -0.8914728760719299
0.1472867727279663 0.13234321773052216 -0.8759690523147583
0.1472867727279663 0.13241791725158691 -0.8604651093482971
0.1472867727279663 0.13245123624801636 -0.8449612259864807
0.1472867727279663 0.13244812190532684 -0.8294573426246643
0.1472867727279663 0.13247334957122803 -0.8139535188674927
0.1472867876291275 0.1324951946735382 -0.798449695110321
0.1472867727279663 0.13246816396713257 -0.7829457521438599
0.1472867727279663 0.13236896693706512 -0.7674418687820435
0.1472867727279663 0.13238240778446198 -0.751937985420227
0.1472867727279663 0.13247232139110565 -0.7364341020584106
0.1472867727279663 0.132552832365036 -0.7209302186965942
0.1472867727279663 0.13267368078231812 -0.7054263353347778
0.1472867727279663 0.13282258808612823 -0.6899224519729614
0.1472867727279663 0.13296596705913544 -0.674418568611145
0.1472867727279663 0.1330409198999405 -0.6589146852493286
0.14728675782680511 0.13324984908103943 -0.643410861492157
0.1472867727279663 0.13307860493659973 -0.6279069781303406
0.1472867727279663 0.1328309029340744 -0.6124030947685242
0.1472867727279663 0.13283877074718475 -0.596899151802063
0.1472867727279663 0.13310101628303528 -0.5813953876495361
0.1472867727279663 0.13303197920322418 -0.5658915042877197
0.1472867727279663 0.13290631771087646 -0.5503876209259033
0.1472867727279663 0.13297279179096222 -0.5348837375640869
0.1472867727279663 0.13301588594913483 -0.5193798542022705
0.1472867727279663 0.13307221233844757 -0.5038759708404541
0.1472867727279663 0.13315783441066742 -0.4883720874786377
0.1472867727279663 0.13321636617183685 -0.4728682041168213
0.1472867876291275 0.13322874903678894 -0.4573643207550049
0.1472867727279663 0.13325223326683044 -0.4418604373931885
0.1472867727279663 0.133295938372612 -0.42635664343833923
0.1472867727279663 0.13336166739463806 -0.41085273027420044
0.1472867727279663 0.13339504599571228 -0.39534884691238403
0.1472867727279663 0.1333291232585907 -0.3798449635505676
0.1472867727279663 0.13325296342372894 -0.3643410801887512
0.1472867727279663 0.13311752676963806 -0.3488371968269348
0.1472867727279663 0.13293829560279846 -0.3333333134651184
0.1472867727279663 0.13282521069049835 -0.317829430103302
0.1472867727279663 0.13275623321533203 -0.30232560634613037
0.14728675782680511 0.13279713690280914 -0.2868216931819916
0.1472867727279663 0.13284555077552795 -0.27131783962249756
0.1472867727279663 0.13284598290920258 -0.25581395626068115
0.1472867727279663 0.1328684389591217 -0.24031007289886475
0.1472867727279663 0.13290175795555115 -0.22480618953704834
0.1472867727279663 0.13285759091377258 -0.20930230617523193
0.1472867727279663 0.1328296661376953 -0.19379842281341553
0.1472867727279663 0.13287317752838135 -0.1782945990562439
0.1472867727279663 0.13278155028820038 -0.1627907156944275
0.1472867727279663 0.13278412818908691 -0.14728683233261108
0.1472867727279663 0.1327458918094635 -0.13178294897079468
0.1472867727279663 0.13269011676311493 -0.11627906560897827
0.1472867727279663 0.1326739341020584 -0.10077517479658127
0.1472867727279663 0.13262997567653656 -0.08527130633592606
0.1472867727279663 0.13261717557907104 -0.06976741552352905
0.1472867727279663 0.13257981836795807 -0.05426359176635742
0.1472867876291275 0.1325712651014328 -0.038759708404541016
0.1472867727279663 0.13255557417869568 -0.02325582504272461
0.1472867727279663 0.13256987929344177 -0.007751941215246916
0.1472867727279663 0.13258540630340576 0.007751941680908203
0.1472867727279663 0.13266253471374512 0.02325582504272461
0.1472867876291275 0.13282270729541779 0.038759708404541016
0.1472867727279663 0.13233894109725952 0.05426359549164772
0.16279065608978271 -0.054644498974084854 -0.9689922332763672
0.16279065608978271 -0.061763178557157516 -0.9534883499145508
0.16279065608978271 -0.05822966247797012 -0.9379844665527344
0.16279065608978271 -0.0562250018119812 -0.9224806427955627
0.16279065608978271 -0.055622898042201996 -0.9069768190383911
0.16279065608978271 -0.0555151142179966 -0.8914728760719299
0.16279065608978271 -0.055549249053001404 -0.8759689927101135
0.16279065608978271 -0.05563150346279144 -0.8604651093482971
0.16279065608978271 -0.05578848719596863 -0.8449612259864807
0.16279065608978271 -0.05623611807823181 -0.8294573426246643
0.16279065608978271 -0.056716978549957275 -0.8139535188674927
0.16279065608978271 -0.057293832302093506 -0.7984496355056763
0.16279065608978271 -0.057597607374191284 -0.7829457521438599
0.16279065608978271 -0.05791000649333 -0.7674418687820435
0.16279065608978271 -0.05813034623861313 -0.751937985420227
0.16279065608978271 -0.05833153799176216 -0.7364341020584106
0.16279065608978271 -0.05829073488712311 -0.7209302186965942
0.16279065608978271 -0.057987190783023834 -0.7054263353347778
0.16279065608978271 -0.05737261846661568 -0.6899224519729614
0.16279065608978271 -0.05666308477520943 -0.674418568611145
0.16279065608978271 -0.05613281577825546 -0.6589146852493286
0.16279065608978271 -0.055851586163043976 -0.643410861492157
0.16279065608978271 -0.05580638349056244 -0.6279069781303406
0.16279065608978271 -0.05607011914253235 -0.6124030947685242
0.16279065608978271 -0.056423235684633255 -0.5968992114067078
0.16279065608978271 -0.05706170201301575 -0.5813953876495361
0.16279065608978271 -0.05780135095119476 -0.5658915042877197
0.16279065608978271 -0.05836205184459686 -0.5503876209259033
0.16279065608978271 -0.05902646481990814 -0.5348837375640869
0.16279065608978271 -0.059104613959789276 -0.5193798542022705
0.16279065608978271 -0.058850448578596115 -0.5038759708404541
0.16279065608978271 -0.057894594967365265 -0.4883720874786377
0.16279065608978271 -0.056920990347862244 -0.4728682041168213
0.16279065608978271 -0.05630534514784813 -0.4573643207550049
0.16279065608978271 -0.056016359478235245 -0.4418604373931885
0.16279065608978271 -0.055886160582304 -0.42635661363601685
0.16279065608978271 -0.0557730533182621 -0.41085273027420044
0.16279065608978271 -0.05605881288647652 -0.39534884691238403
0.16279065608978271 -0.05691148713231087 -0.3798449635505676
0.16279065608978271 -0.058778390288352966 -0.3643410801887512
0.16279065608978271 -0.06105782091617584 -0.3488371968269348
0.16279065608978271 -0.06315057724714279 -0.3333333134651184
0.16279065608978271 -0.06394556164741516 -0.317829430103302
0.16279065608978271 -0.06224505230784416 -0.30232560634613037
0.16279065608978271 -0.059879377484321594 -0.28682172298431396
0.16279065608978271 -0.05834398418664932 -0.27131783962249756
0.16279065608978271 -0.05765698105096817 -0.25581395626068115
0.16279065608978271 -0.057293083518743515 -0.24031007289886475
0.16279065608978271 -0.057124026119709015 -0.22480618953704834
0.16279065608978271 -0.05692707747220993 -0.20930230617523193
0.16279065608978271 -0.05680267885327339 -0.19379842281341553
0.16279065608978271 -0.05692535266280174 -0.1782945990562439
0.16279065608978271 -0.05712446570396423 -0.1627907156944275
0.16279065608978271 -0.0572495236992836 -0.14728683233261108
0.16279065608978271 -0.05720662325620651 -0.13178294897079468
0.16279065608978271 -0.05697602406144142 -0.11627906560897827
0.16279065608978271 -0.05655929818749428 -0.10077518224716187
0.16279065608978271 -0.05611095577478409 -0.08527129888534546
0.16279065608978271 -0.055929891765117645 -0.06976741552352905
0.16279065608978271 -0.05596427991986275 -0.05426359176635742
0.16279065608978271 -0.056053631007671356 -0.038759708404541016
0.16279065608978271 -0.05608057230710983 -0.02325582504272461
0.16279065608978271 -0.055972203612327576 -0.007751941680908203
0.16279065608978271 -0.055733878165483475 0.007751941680908203
0.16279065608978271 -0.05541003495454788 0.02325582504272461
0.16279065608978271 -0.054716452956199646 0.038759708404541016
0.16279065608978271 -0.040112122893333435 0.05426359176635742
0.16279065608978271 -0.03774969279766083 -0.9689922332763672
0.16279065608978271 -0.03407483547925949 0.05426359176635742
0.16279065608978271 0.13474169373512268 -0.953488290309906
0.16279065608978271 0.1329910308122635 -0.9379845261573792
0.16279065608978271 0.1324314922094345 -0.9224807024002075
0.16279065608978271 0.13224413990974426 -0.9069767594337463
0.16279065608978271 0.13223032653331757 -0.8914728760719299
0.16279065608978271 0.13233111798763275 -0.8759689927101135
0.16279065608978271 0.1324046403169632 -0.8604651093482971
0.16279065608978271 0.1324414312839508 -0.8449612259864807
0.16279065608978271 0.1324523389339447 -0.8294573426246643
0.16279065608978271 0.1324796974658966 -0.8139535188674927
0.16279065608978271 0.13250257074832916 -0.7984496355056763
0.16279065608978271 0.1324954628944397 -0.7829457521438599
0.16279065608978271 0.13241130113601685 -0.7674418687820435
0.16279065608978271 0.13243263959884644 -0.751937985420227
0.16279065608978271 0.1325184404850006 -0.7364341020584106
0.16279065608978271 0.13257768750190735 -0.7209302186965942
0.16279064118862152 0.13266654312610626 -0.7054263353347778
0.16279065608978271 0.13278941810131073 -0.6899224519729614
0.16279065608978271 0.13290490210056305 -0.674418568611145
0.16279065608978271 0.13294735550880432 -0.6589147448539734
0.16279065608978271 0.13312405347824097 -0.643410861492157
0.16279065608978271 0.13296106457710266 -0.6279069781303406
0.16279065608978271 0.1327265202999115 -0.6124030947685242
0.16279065608978271 0.1327195018529892 -0.5968992114067078
0.16279064118862152 0.13294105231761932 -0.5813953876495361
0.1627906709909439 0.13288114964962006 -0.5658915042877197
0.16279065608978271 0.13279062509536743 -0.5503876209259033
0.16279065608978271 0.13287492096424103 -0.5348837375640869
0.16279065608978271 0.13293229043483734 -0.5193798542022705
0.16279065608978271 0.13299645483493805 -0.5038759708404541
0.16279065608978271 0.13307398557662964 -0.4883720874786377
0.16279065608978271 0.13310688734054565 -0.4728682041168213
0.16279065608978271 0.13308215141296387 -0.4573643207550049
0.16279064118862152 0.1330653876066208 -0.4418604373931885
0.16279065608978271 0.13307949900627136 -0.42635664343833923
0.16279065608978271 0.13313302397727966 -0.4108527600765228
0.16279065608978271 0.1331721693277359 -0.3953488767147064
0.16279065608978271 0.13312381505966187 -0.3798449635505676
0.16279065608978271 0.1330055147409439 -0.3643410801887512
0.16279065608978271 0.13276325166225433 -0.3488371968269348
0.16279065608978271 0.13247083127498627 -0.3333333134651184
0.16279065608978271 0.13225987553596497 -0.317829430103302
0.16279065608978271 0.13212457299232483 -0.30232560634613037
0.16279065608978271 0.13211672008037567 -0.28682172298431396
0.16279065608978271 0.13219043612480164 -0.27131783962249756
0.16279065608978271 0.1322387009859085 -0.25581395626068115
0.16279065608978271 0.13232868909835815 -0.24031007289886475
0.16279065608978271 0.13242606818675995 -0.22480618953704834
0.16279065608978271 0.1324377954006195 -0.20930230617523193
0.16279065608978271 0.13245940208435059 -0.19379842281341553
0.16279065608978271 0.13254790008068085 -0.1782945990562439
0.16279065608978271 0.13250572979450226 -0.1627907156944275
0.16279065608978271 0.13254182040691376 -0.14728683233261108
0.16279065608978271 0.13253755867481232 -0.13178294897079468
0.16279065608978271 0.13250553607940674 -0.11627906560897827
0.16279065608978271 0.13249017298221588 -0.10077518969774246
0.16279065608978271 0.13242876529693604 -0.08527129888534546
0.16279064118862152 0.13240298628807068 -0.06976741552352905
0.16279065608978271 0.13237226009368896 -0.05426359176635742
0.16279065608978271 0.13237731158733368 -0.038759708404541016
0.16279065608978271 0.13237115740776062 -0.02325582504272461
0.16279065608978271 0.13239869475364685 -0.007751941680908203
0.16279065608978271 0.13249540328979492 0.007751941680908203
0.16279065608978271 0.1327018439769745 0.02325582504272461
0.16279065608978271 0.1329132318496704 0.038759708404541016
0.17829453945159912 -0.06992337852716446 -0.3643410801887512
0.17829453945159912 -0.07016454637050629 -0.3488371968269348
0.17829453945159912 -0.07005809992551804 -0.3333333134651184
0.17829453945159912 -0.06982384622097015 -0.317829430103302
0.17829453945159912 -0.061520159244537354 -0.9534883499145508
0.17829453945159912 -0.06073347106575966 -0.9379844665527344
0.17829453945159912 -0.057769592851400375 -0.9224806427955627
0.17829453945159912 -0.05628455802798271 -0.9069767594337463
0.17829453945159912 -0.055756762623786926 -0.8914729356765747
0.17829453945159912 -0.05567116662859917 -0.8759689927101135
0.17829453945159912 -0.055702973157167435 -0.8604651689529419
0.17829453945159912 -0.05581894516944885 -0.8449612259864807
0.17829453945159912 -0.05619518831372261 -0.8294573426246643
0.17829453945159912 -0.05657936632633209 -0.8139535188674927
0.17829453945159912 -0.057035256177186966 -0.7984496355056763
0.17829453945159912 -0.057223446667194366 -0.7829457521438599
0.17829453945159912 -0.05745710805058479 -0.7674418687820435
0.17829453945159912 -0.05757424980401993 -0.751937985420227
0.17829453945159912 -0.05763905122876167 -0.7364341020584106
0.17829453945159912 -0.05759312957525253 -0.7209302186965942
0.17829453945159912 -0.05738941207528114 -0.7054263353347778
0.17829453945159912 -0.056980639696121216 -0.6899224519729614
0.17829453945159912 -0.05645357072353363 -0.674418568611145
0.17829453945159912 -0.056030772626399994 -0.6589146852493286
0.17829453945159912 -0.055792491883039474 -0.643410861492157
0.17829453945159912 -0.055774204432964325 -0.6279069781303406
0.17829453945159912 -0.056020587682724 -0.6124030947685242
0.17829453945159912 -0.056363511830568314 -0.5968992114067078
0.17829453945159912 -0.0569525882601738 -0.5813953876495361
0.17829453945159912 -0.05762780085206032 -0.5658915042877197
0.17829453945159912 -0.05818198621273041 -0.5503876209259033
0.17829453945159912 -0.0588429793715477 -0.5348837375640869
0.17829453945159912 -0.058997176587581635 -0.5193798542022705
0.17829453945159912 -0.058816276490688324 -0.5038759708404541
0.17829453945159912 -0.057924166321754456 -0.4883720874786377
0.17829453945159912 -0.05695168301463127 -0.4728682041168213
0.17829453945159912 -0.05632598325610161 -0.4573643207550049
0.17829453945159912 -0.05602020397782326 -0.4418604373931885
0.17829453945159912 -0.05589369684457779 -0.42635661363601685
0.17829453945159912 -0.05597556382417679 -0.41085273027420044
0.17829453945159912 -0.05745239183306694 -0.39534884691238403
0.17829453945159912 -0.06344578415155411 -0.3798449635505676
0.17829453945159912 -0.06441608816385269 -0.30232560634613037
0.17829453945159912 -0.06029648333787918 -0.28682172298431396
0.17829453945159912 -0.05818963795900345 -0.27131783962249756
0.17829453945159912 -0.05714595317840576 -0.25581395626068115
0.17829453945159912 -0.056640103459358215 -0.24031007289886475
0.17829453945159912 -0.05643109977245331 -0.22480618953704834
0.17829453945159912 -0.05624092370271683 -0.20930230617523193
0.17829453945159912 -0.05612881854176521 -0.19379842281341553
0.17829453945159912 -0.056250594556331635 -0.1782945990562439
0.17829453945159912 -0.05646427348256111 -0.1627907156944275
0.17829453945159912 -0.05661454051733017 -0.14728683233261108
0.17829453945159912 -0.056605033576488495 -0.13178294897079468
0.17829453945159912 -0.05640863627195358 -0.11627906560897827
0.17829453945159912 -0.056046321988105774 -0.10077518224716187
0.17829453945159912 -0.05566798895597458 -0.08527129888534546
0.17829453945159912 -0.05551205202937126 -0.06976741552352905
0.17829453945159912 -0.05552150681614876 -0.05426359176635742
0.17829453945159912 -0.055560749024152756 -0.038759708404541016
0.17829453945159912 -0.055595383048057556 -0.02325582504272461
0.17829453945159912 -0.05555807054042816 -0.007751941680908203
0.17829453945159912 -0.05542478710412979 0.007751941680908203
0.17829453945159912 -0.05521685257554054 0.02325582504272461
0.17829453945159912 -0.054514750838279724 0.038759708404541016
0.17829453945159912 0.021959317848086357 0.038759708404541016
0.17829453945159912 0.10315997898578644 0.038759708404541016
0.17829453945159912 0.1313399225473404 -0.30232560634613037
0.17829453945159912 0.13109803199768066 -0.28682172298431396
0.17829453945159912 0.13152101635932922 -0.27131783962249756
0.17829452455043793 0.1342846155166626 -0.9534883499145508
0.17829453945159912 0.13335900008678436 -0.9379844665527344
0.17829452455043793 0.1324877142906189 -0.922480583190918
0.17829455435276031 0.13220831751823425 -0.9069768190383911
0.17829453945159912 0.13216756284236908 -0.8914728164672852
0.17829453945159912 0.13224688172340393 -0.8759689927101135
0.17829453945159912 0.13231509923934937 -0.8604651093482971
0.17829453945159912 0.13235309720039368 -0.8449612259864807
0.17829453945159912 0.13236798346042633 -0.8294573426246643
0.17829453945159912 0.1323983371257782 -0.8139535188674927
0.17829453945159912 0.1324274092912674 -0.7984496355056763
0.17829453945159912 0.13244502246379852 -0.7829456925392151
0.17829453945159912 0.132381409406662 -0.7674418687820435
0.17829453945159912 0.13241088390350342 -0.751937985420227
0.17829452455043793 0.13249139487743378 -0.7364341020584106
0.17829453945159912 0.1325293332338333 -0.7209302186965942
0.17829453945159912 0.1325903683900833 -0.7054263353347778
0.17829452455043793 0.13269177079200745 -0.6899223923683167
0.17829453945159912 0.13278643786907196 -0.674418568611145
0.17829453945159912 0.13280098140239716 -0.6589146852493286
0.17829453945159912 0.13294589519500732 -0.643410861492157
0.17829453945159912 0.1328326165676117 -0.6279069781303406
0.17829453945159912 0.1326211541891098 -0.6124030947685242
0.17829453945159912 0.13259395956993103 -0.5968992114067078
0.17829453945159912 0.13275042176246643 -0.5813953876495361
0.17829453945159912 0.13268490135669708 -0.5658915042877197
0.17829453945159912 0.1326339989900589 -0.5503876209259033
0.17829453945159912 0.1327344924211502 -0.5348837971687317
0.17829453945159912 0.1327979415655136 -0.5193798542022705
0.17829455435276031 0.13284896314144135 -0.5038759708404541
0.17829453945159912 0.13289082050323486 -0.4883720874786377
0.17829453945159912 0.1328856647014618 -0.4728682041168213
0.17829453945159912 0.13283205032348633 -0.4573643207550049
0.17829453945159912 0.13278566300868988 -0.4418604373931885
0.17829453945159912 0.13279670476913452 -0.42635658383369446
0.17829453945159912 0.13288956880569458 -0.41085273027420044
0.17829452455043793 0.13300621509552002 -0.39534884691238403
0.17829453945159912 0.13300205767154694 -0.3798449635505676
0.17829453945159912 0.13281412422657013 -0.3643410801887512
0.17829453945159912 0.1324736773967743 -0.3488372266292572
0.17829453945159912 0.132103830575943 -0.3333333134651184
0.17829455435276031 0.1318613886833191 -0.317829430103302
0.17829453945159912 0.13182158768177032 -0.25581395626068115
0.17829453945159912 0.1319548338651657 -0.24031007289886475
0.17829453945159912 0.13207629323005676 -0.22480618953704834
0.17829453945159912 0.1321120411157608 -0.20930230617523193
0.17829455435276031 0.13215909898281097 -0.19379842281341553
0.17829455435276031 0.13226038217544556 -0.1782945990562439
0.17829452455043793 0.13223931193351746 -0.1627907156944275
0.17829453945159912 0.13228991627693176 -0.14728683233261108
0.17829453945159912 0.13229785859584808 -0.13178294897079468
0.17829453945159912 0.13226854801177979 -0.11627906560897827
0.17829453945159912 0.13225670158863068 -0.10077518224716187
0.17829453945159912 0.13220202922821045 -0.08527129888534546
0.17829453945159912 0.1321878433227539 -0.06976741552352905
0.17829453945159912 0.13217028975486755 -0.05426358804106712
0.17829453945159912 0.1321905553340912 -0.038759708404541016
0.17829453945159912 0.1322324424982071 -0.02325582318007946
0.17829452455043793 0.13234828412532806 -0.007751941680908203
0.17829453945159912 0.1325920969247818 0.007751941680908203
0.17829453945159912 0.1329469084739685 0.02325582504272461
0.17829453945159912 0.13245230913162231 0.038759708404541016
0.19379842281341553 -0.07246716320514679 -0.3798449635505676
0.19379842281341553 -0.07350941747426987 -0.3643410801887512
0.19379842281341553 -0.07234010100364685 -0.3488371968269348
0.19379842281341553 -0.07110849767923355 -0.3333333134651184
0.19379842281341553 -0.0703529641032219 -0.317829430103302
0.19379842281341553 -0.057547349482774734 -0.9534883499145508
0.19379842281341553 -0.06164789944887161 -0.9379844665527344
0.19379842281341553 -0.05914219468832016 -0.9224806427955627
0.19379842281341553 -0.05711108818650246 -0.9069767594337463
0.19379842281341553 -0.05614538863301277 -0.8914728760719299
0.19379842281341553 -0.05584876611828804 -0.8759689927101135
0.19379842281341553 -0.05579407140612602 -0.8604651093482971
0.19379842281341553 -0.055871352553367615 -0.8449611663818359
0.19379842281341553 -0.056217409670352936 -0.8294573426246643
0.19379842281341553 -0.056563131511211395 -0.8139535188674927
0.19379842281341553 -0.05697552487254143 -0.7984496355056763
0.19379842281341553 -0.057077910751104355 -0.7829457521438599
0.19379842281341553 -0.05719393119215965 -0.7674418687820435
0.19379842281341553 -0.057213131338357925 -0.751937985420227
0.19379842281341553 -0.057255953550338745 -0.7364341020584106
0.19379842281341553 -0.057239215821027756 -0.7209302186965942
0.19379842281341553 -0.05711054801940918 -0.7054263353347778
0.19379842281341553 -0.05682046711444855 -0.6899224519729614
0.19379842281341553 -0.05639556422829628 -0.674418568611145
0.19379842281341553 -0.05604594573378563 -0.6589146852493286
0.19379842281341553 -0.055854592472314835 -0.643410861492157
0.19379842281341553 -0.05587829649448395 -0.6279069781303406
0.19379842281341553 -0.05611139163374901 -0.6124030947685242
0.19379842281341553 -0.05644272267818451 -0.5968992114067078
0.19379842281341553 -0.05699007213115692 -0.5813953876495361
0.19379842281341553 -0.057634420692920685 -0.5658915042877197
0.19379842281341553 -0.05816236510872841 -0.5503876209259033
0.19379842281341553 -0.058816514909267426 -0.5348837375640869
0.19379842281341553 -0.059044551104307175 -0.5193798542022705
0.19379842281341553 -0.05897059664130211 -0.5038759708404541
0.19379842281341553 -0.05813659727573395 -0.4883720874786377
0.19379842281341553 -0.0571523942053318 -0.4728682041168213
0.19379842281341553 -0.0565364696085453 -0.4573643207550049
0.19379842281341553 -0.056317828595638275 -0.4418604373931885
0.19379842281341553 -0.056525811553001404 -0.42635661363601685
0.19379842281341553 -0.058225855231285095 -0.41085273027420044
0.19379842281341553 -0.06884469091892242 -0.39534884691238403
0.19379843771457672 -0.06744755059480667 -0.30232560634613037
0.19379842281341553 -0.06107504665851593 -0.28682172298431396
0.19379842281341553 -0.058517877012491226 -0.27131783962249756
0.19379842281341553 -0.057158902287483215 -0.25581395626068115
0.19379842281341553 -0.056369051337242126 -0.24031007289886475
0.19379842281341553 -0.05596935749053955 -0.22480618953704834
0.19379842281341553 -0.05568361282348633 -0.20930230617523193
0.19379842281341553 -0.05553019791841507 -0.19379842281341553
0.19379842281341553 -0.05560293421149254 -0.1782945990562439
0.19379842281341553 -0.055791955441236496 -0.1627907156944275
0.19379842281341553 -0.05595660209655762 -0.14728683233261108
0.19379842281341553 -0.05600062012672424 -0.13178294897079468
0.19379842281341553 -0.05588093772530556 -0.11627906560897827
0.19379842281341553 -0.055624499917030334 -0.10077518224716187
0.19379842281341553 -0.055341172963380814 -0.08527129888534546
0.19379842281341553 -0.05521484464406967 -0.06976741552352905
0.19379842281341553 -0.0551934540271759 -0.05426359176635742
0.19379842281341553 -0.055168963968753815 -0.038759708404541016
0.19379842281341553 -0.05517210811376572 -0.02325582504272461
