0.09993354976177216 -0.20930230617523193 -0.8914728760719299
0.09749294072389603 -0.20930230617523193 -0.5503876209259033
0.09179645776748657 -0.20930230617523193 -0.5348837375640869
0.08715301752090454 -0.20930230617523193 -0.5193798542022705
0.09547766298055649 -0.19379842281341553 -0.42635661363601685
0.08636923134326935 -0.19379842281341553 -0.41085273027420044
0.0972803384065628 -0.1782945990562439 -0.8914728164672852
0.09440501034259796 -0.1782945990562439 -0.3333333134651184
0.09536462277173996 -0.1627907156944275 -0.8914728164672852
0.09847626090049744 -0.1627907156944275 -0.24031007289886475
0.09760833531618118 -0.14728683233261108 -0.8914728760719299
0.0947071760892868 -0.13178294897079468 -0.11627906560897827
0.08872631192207336 -0.11627906560897827 -0.11627906560897827
0.09439371526241302 -0.11627906560897827 -0.10077518224716187
0.09945837408304214 -0.11627906560897827 -0.08527129888534546
0.08675189316272736 -0.10077518224716187 -0.11627906560897827
0.09515507519245148 -0.10077518224716187 -0.10077518224716187
0.09336407482624054 -0.08527129888534546 -0.10077518224716187
0.08773215860128403 -0.06976741552352905 -0.10077518224716187
0.09937263280153275 -0.05426359176635742 -0.08527129888534546
0.0985504537820816 -0.038759708404541016 -0.08527129888534546
0.09823615849018097 -0.02325582504272461 -0.08527129888534546
0.09956181794404984 -0.007751941680908203 -0.08527129888534546
0.10028349608182907 0.007751941680908203 -0.08527129888534546
0.08595115691423416 0.02325582504272461 -0.10077518224716187
0.09039925783872604 0.038759708404541016 -0.10077518224716187
0.09259529411792755 0.05426359176635742 -0.612403154373169
0.09530843794345856 0.05426359176635742 -0.10077518224716187
0.09769411385059357 0.06976747512817383 -0.10077518224716187
0.0960875004529953 0.08527135848999023 -0.10077518224716187
0.08535147458314896 0.10077524185180664 -0.10077518224716187
0.09289528429508209 0.10077524185180664 0.7984496355056763
0.09530560672283173 0.10077524185180664 0.8139535188674927
0.09650368243455887 0.11627912521362305 -0.1627907156944275
0.09680389612913132 0.11627912521362305 -0.10077518224716187
0.09102632105350494 0.11627912521362305 0.8294574022293091
0.08674395829439163 0.1317828893661499 0.8449613451957703
0.09075723588466644 0.1472867727279663 0.8604651689529419
0.08677548170089722 0.16279065608978271 0.8604651689529419
0.10944025218486786 -0.22480618953704834 -0.6899224519729614
0.10278782248497009 -0.22480618953704834 -0.674418568611145
0.10515958815813065 -0.20930230617523193 -0.5658915042877197
0.10115358978509903 -0.19379842281341553 -0.8914728760719299
0.1066637933254242 -0.19379842281341553 -0.4418604373931885
0.1071668341755867 -0.1782945990562439 -0.3488371968269348
0.11400075256824493 -0.1627907156944275 -0.25581395626068115
0.1085841953754425 -0.14728683233261108 -0.1782945990562439
0.1037701889872551 -0.13178294897079468 -0.8914728164672852
0.1144452914595604 -0.13178294897079468 -0.11627906560897827
0.11043499410152435 -0.11627906560897827 -0.8914728760719299
0.11419817805290222 -0.11627906560897827 -0.06976741552352905
0.10270437598228455 -0.10077518224716187 -0.08527129888534546
0.11363957077264786 -0.10077518224716187 -0.06976741552352905
0.10436774045228958 -0.08527129888534546 -0.08527129888534546
0.11585357040166855 -0.08527129888534546 -0.06976741552352905
0.10145703703165054 -0.06976741552352905 -0.08527129888534546
0.11532813310623169 -0.06976741552352905 -0.06976741552352905
0.11400655657052994 -0.05426359176635742 -0.06976741552352905
0.11366365104913712 -0.038759708404541016 -0.06976741552352905
0.11412499099969864 -0.02325582504272461 -0.06976741552352905
0.11582028120756149 -0.007751941680908203 -0.06976741552352905
0.11304032802581787 0.007751941680908203 -0.8914728164672852
0.1032550260424614 0.02325582504272461 -0.08527130633592606
0.10848638415336609 0.038759708404541016 -0.08527129888534546
0.10919630527496338 0.05426359176635742 -0.5968992114067078
0.11391933262348175 0.05426359176635742 -0.08527129888534546
0.11617938429117203 0.10077524185180664 -0.08527129888534546
0.10161694884300232 0.10077524185180664 0.7984496355056763
0.10205856710672379 0.10077524185180664 0.8139535188674927
0.10452688485383987 0.11627912521362305 0.8139535188674927
0.10230819135904312 0.11627912521362305 0.8294574022293091
0.12329792976379395 -0.22480618953704834 -0.7054263353347778
0.11635410040616989 -0.20930232107639313 -0.5813953876495361
0.11916311830282211 -0.19379840791225433 -0.4573643207550049
0.12697428464889526 -0.1782945990562439 -0.3643410801887512
0.11641185730695724 -0.10077518224716187 -0.8914728760719299
0.12385360896587372 -0.10077518224716187 -0.05426359176635742
0.12986095249652863 -0.10077518224716187 -0.038759708404541016
0.12601631879806519 -0.08527129888534546 -0.8914729356765747
0.1260540783405304 -0.08527129888534546 -0.05426359176635742
0.12934806942939758 -0.08527129888534546 -0.038759708404541016
0.13018541038036346 -0.08527129888534546 -0.02325582504272461
0.13045884668827057 -0.08527129888534546 -0.007751941680908203
0.13125380873680115 -0.08527129888534546 0.007751941680908203
0.12463975697755814 -0.06976741552352905 -0.05426359176635742
0.12718620896339417 -0.06976741552352905 -0.038759708404541016
0.12710019946098328 -0.06976741552352905 -0.02325582504272461
0.12665288150310516 -0.06976741552352905 -0.007751941680908203
0.12726916372776031 -0.06976741552352905 0.007751941680908203
0.1292373389005661 -0.06976741552352905 0.02325582504272461
0.13165283203125 -0.06976741552352905 0.038759708404541016
0.12224936485290527 -0.05426359176635742 -0.05426359176635742
0.12465804815292358 -0.05426359176635742 -0.038759708404541016
0.12421339750289917 -0.05426359176635742 -0.02325582504272461
0.12381047010421753 -0.05426359176635742 -0.007751941680908203
0.12517793476581573 -0.05426359176635742 0.007751941680908203
0.1277344524860382 -0.05426359176635742 0.02325582504272461
0.13061799108982086 -0.05426359176635742 0.038759708404541016
0.12799321115016937 -0.038759708404541016 -0.8914728760719299
0.12148039042949677 -0.038759708404541016 -0.05426359176635742
0.12382136285305023 -0.038759708404541016 -0.038759708404541016
0.12361520528793335 -0.038759708404541016 -0.02325582504272461
0.1237909197807312 -0.038759708404541016 -0.007751941680908203
0.12572325766086578 -0.038759708404541016 0.007751941680908203
0.12850762903690338 -0.038759708404541016 0.02325582504272461
0.13154882192611694 -0.038759708404541016 0.038759708404541016
0.1235007792711258 -0.02325582504272461 -0.8914728760719299
0.12190613150596619 -0.02325582504272461 -0.05426359176635742
0.12377166002988815 -0.02325582504272461 -0.038759708404541016
0.12377980351448059 -0.02325582504272461 -0.02325582504272461
0.1247672587633133 -0.02325582504272461 -0.007751941680908203
0.12734664976596832 -0.02325582504272461 0.007751941680908203
0.1305718868970871 -0.02325582504272461 0.02325582504272461
0.11816959083080292 -0.00775194214656949 -0.8914729356765747
0.12310037761926651 -0.007751941680908203 -0.05426359176635742
0.12388209998607635 -0.007751941680908203 -0.038759708404541016
0.12355189025402069 -0.007751941680908203 -0.02325582504272461
0.12495523691177368 -0.007751941680908203 -0.007751941680908203
0.1282927244901657 -0.007751941680908203 0.007751941680908203
0.1171213909983635 0.007751941680908203 -0.06976741552352905
0.12457574158906937 0.007751941680908203 -0.05426359176635742
0.12524288892745972 0.007751941680908203 -0.038759708404541016
0.12486065179109573 0.007751941680908203 -0.02325582504272461
0.12614724040031433 0.007751941680908203 -0.007751941680908203
0.1294269859790802 0.007751941680908203 0.007751941680908203
0.11644294857978821 0.02325582504272461 -0.8914728760719299
0.1190858781337738 0.02325582504272461 -0.06976741552352905
0.1267562061548233 0.02325582504272461 -0.05426359176635742
0.12773916125297546 0.02325582504272461 -0.038759708404541016
0.12744975090026855 0.02325582504272461 -0.02325582504272461
0.12815003097057343 0.02325582504272461 -0.007751941680908203
0.1305101066827774 0.02325582504272461 0.007751941680908203
0.12867754697799683 0.038759708404541016 -0.8914728760719299
0.12206722795963287 0.038759708404541016 -0.06976741552352905
0.12825077772140503 0.038759708404541016 -0.05426359176635742
0.12892356514930725 0.038759708404541016 -0.038759708404541016
0.12818950414657593 0.038759708404541016 -0.02325582504272461
0.1282586306333542 0.038759708404541016 -0.007751941680908203
0.13006408512592316 0.038759708404541016 0.007751941680908203
0.12662088871002197 0.05426359176635742 -0.06976741552352905
0.13048654794692993 0.05426359176635742 -0.05426359176635742
0.13041062653064728 0.05426359176635742 -0.038759708404541016
0.12920507788658142 0.05426359176635742 -0.02325582504272461
0.12851810455322266 0.05426359176635742 -0.007751941680908203
0.12974122166633606 0.05426359176635742 0.007751941680908203
0.11732674390077591 0.06976747512817383 -0.08527129888534546
0.13008016347885132 0.06976747512817383 -0.06976741552352905
0.13078932464122772 0.06976747512817383 -0.02325582504272461
0.1298375278711319 0.06976747512817383 -0.007751941680908203
0.13055461645126343 0.06976747512817383 0.007751941680908203
0.11979739367961884 0.08527135848999023 -0.08527129888534546
0.1312810629606247 0.08527135848999023 -0.007751941680908203
0.1314583420753479 0.10077524185180664 -0.06976741552352905
0.13062448799610138 0.11627912521362305 -0.08527129888534546
0.14669743180274963 -0.20930230617523193 -0.8759689927101135
0.13755948841571808 -0.20930230617523193 -0.5968992114067078
0.13614888489246368 -0.19379842281341553 -0.4728682041168213
0.14203056693077087 -0.1627907156944275 -0.27131783962249756
0.14187613129615784 -0.11627906560897827 -0.05426359176635742
0.13411101698875427 -0.10077518224716187 -0.02325582504272461
0.13856619596481323 -0.10077518224716187 -0.007751941680908203
0.1425609290599823 -0.10077518224716187 0.007751941680908203
0.14615294337272644 -0.10077518224716187 0.02325582504272461
0.13358637690544128 -0.08527129888534546 0.02325582504272461
0.13672325015068054 -0.08527129888534546 0.038759708404541016
0.14068032801151276 -0.08527129888534546 0.05426359176635742
0.14525707066059113 -0.08527129888534546 0.06976747512817383
0.13293695449829102 -0.06976741552352905 -0.8914728760719299
0.13620810210704803 -0.06976741552352905 0.05426359176635742
0.14139071106910706 -0.06976741552352905 0.06976747512817383
0.14703916013240814 -0.06976741552352905 0.08527135848999023
0.1334165334701538 -0.05426359176635742 -0.8914728760719299
0.13524752855300903 -0.05426359176635742 0.05426359176635742
0.14064523577690125 -0.05426359176635742 0.06976747512817383
0.1465863287448883 -0.05426359176635742 0.08527135848999023
0.13679352402687073 -0.038759708404541016 0.05426359176635742
0.1418556421995163 -0.038759708404541016 0.06976747512817383
0.13522082567214966 -0.02325582504272461 0.038759708404541016
0.1397337019443512 -0.02325582504272461 0.05426359176635742
0.1444578468799591 -0.02325582504272461 0.06976747512817383
0.1328091025352478 -0.007751941680908203 0.02325582504272461
0.138466939330101 -0.007751941680908203 0.038759708404541016
0.14255118370056152 -0.007751941680908203 0.05426359176635742
0.1352134346961975 0.007751941680908203 0.02325582504272461
0.14075994491577148 0.007751941680908203 0.038759708404541016
0.14525751769542694 0.007751941680908203 0.05426359176635742
0.13651728630065918 0.02325582504272461 0.02325582504272461
0.141890287399292 0.02325582504272461 0.038759708404541016
0.1468232274055481 0.02325582504272461 0.05426359176635742
0.13586056232452393 0.038759708404541016 0.02325582318007946
0.1418507993221283 0.038759708404541016 0.038759708404541016
0.14710435271263123 0.038759708404541016 0.05426359176635742
0.13525500893592834 0.05426359549164772 0.02325582504272461
0.14177240431308746 0.05426359176635742 0.038759708404541016
0.14715765416622162 0.05426359176635742 0.05426359176635742
0.14697322249412537 0.06976747512817383 -0.3798449635505676
0.1345023810863495 0.06976747512817383 -0.05426359176635742
0.1335715502500534 0.06976747512817383 -0.038759708404541016
0.13656213879585266 0.06976747512817383 0.02325582504272461
0.14242301881313324 0.06976747512817383 0.038759708404541016
0.1319708675146103 0.08527136594057083 -0.06976742297410965
0.1384555995464325 0.08527135848999023 -0.05426359176635742
0.1380658596754074 0.08527135848999023 -0.038759708404541016
0.13416942954063416 0.08527135848999023 -0.02325582504272461
0.13198691606521606 0.08527135848999023 0.007751941215246916
0.1386304497718811 0.08527135848999023 0.02325582504272461
0.14365066587924957 0.08527135848999023 0.038759708404541016
0.1392165720462799 0.10077524185180664 -0.05426359176635742
0.1394195258617401 0.10077524185180664 -0.038759708404541016
0.13664661347866058 0.10077524185180664 -0.02325582504272461
0.13269121944904327 0.10077524185180664 -0.007751941680908203
0.13459964096546173 0.10077524185180664 0.007751941680908203
0.14013636112213135 0.10077524185180664 0.02325582504272461
0.14488402009010315 0.10077524185180664 0.038759708404541016
0.14364692568778992 0.11627912521362305 -0.06976741552352905
0.14552092552185059 0.11627912521362305 -0.05426359176635742
0.1454172432422638 0.11627912521362305 -0.038759708404541016
0.1448444426059723 0.11627912521362305 -0.02325582504272461
0.14424870908260345 0.11627912521362305 -0.007751941680908203
0.14610439538955688 0.11627912521362305 0.007751941680908203
0.1499060094356537 -0.22480618953704834 -0.751937985420227
0.15930598974227905 -0.22480618953704834 -0.7364341020584106
0.14972472190856934 -0.22480620443820953 -0.7209302186965942
0.16003601253032684 -0.20930230617523193 -0.6279069781303406
0.15162032842636108 -0.20930230617523193 -0.6124030947685242
0.15589773654937744 -0.19379842281341553 -0.8759689927101135
0.15341037511825562 -0.19379842281341553 -0.4883720576763153
0.15599419176578522 -0.1782945990562439 -0.8759689927101135
0.15192915499210358 -0.1782945990562439 -0.3798449635505676
0.1554163694381714 -0.1627907156944275 -0.8759689927101135
0.15602248907089233 -0.14728683233261108 -0.8759689927101135
0.15919095277786255 -0.13178294897079468 -0.8759689927101135
0.15361076593399048 -0.10077518224716187 0.038759708404541016
0.1545795202255249 -0.08527129888534546 0.08527135848999023
0.16172371804714203 -0.08527129888534546 0.10077524185180664
0.15783804655075073 -0.06976741552352905 0.10077524185180664
0.1567634791135788 -0.05426359176635742 0.10077524185180664
0.14888064563274384 -0.038759708404541016 0.08527135848999023
0.1576596349477768 -0.038759708404541016 0.10077524185180664
0.15358513593673706 -0.02325582504272461 0.08527135848999023
0.1598835587501526 -0.02325582504272461 0.10077524185180664
0.14825201034545898 -0.007751941680908203 0.06976747512817383
0.15669779479503632 -0.007751941680908203 0.08527135848999023
0.16276398301124573 -0.007751941680908203 0.10077524185180664
0.15339750051498413 0.007751941680908203 0.06976747512817383
0.15952320396900177 0.007751941680908203 0.08527135848999023
0.15559159219264984 0.02325582504272461 0.06976747512817383
0.1618659496307373 0.02325582504272461 0.08527135848999023
0.15646477043628693 0.038759708404541016 0.06976747512817383
0.15697231888771057 0.05426359176635742 0.06976747512817383
0.15085573494434357 0.06976747512817383 -0.39534884691238403
0.14930644631385803 0.06976747512817383 0.05426359176635742
0.15790924429893494 0.06976747512817383 0.06976747512817383
0.15266843140125275 0.08527135848999023 0.05426359176635742
0.15947474539279938 0.08527135848999023 0.06976747512817383
0.15527325868606567 0.10077524185180664 0.05426359176635742
0.16133497655391693 0.10077524185180664 0.06976747512817383
0.14760459959506989 0.11627912521362305 -0.14728683233261108
0.15779371559619904 0.11627912521362305 0.007751941680908203
0.17403632402420044 -0.20930230617523193 -0.8604651689529419
0.17394478619098663 -0.20930230617523193 -0.6589146852493286
0.1670122891664505 -0.20930230617523193 -0.643410861492157
0.176144540309906 -0.19379842281341553 -0.5193798542022705
0.16596129536628723 -0.19379842281341553 -0.5038759708404541
0.16930043697357178 -0.1782945990562439 -0.39534884691238403
0.16644541919231415 -0.1627907156944275 -0.28682172298431396
0.1656953990459442 -0.11627906560897827 -0.8759689927101135
0.17067298293113708 -0.10077518224716187 -0.8759689927101135
0.17393919825553894 -0.10077518224716187 0.05426359176635742
0.1743725687265396 -0.08527129888534546 -0.8759689927101135
0.17641285061836243 -0.08527129888534546 0.11627912521362305
0.16579605638980865 -0.06976741552352905 0.11627912521362305
0.177678644657135 -0.06976741552352905 0.1317828893661499
0.16323444247245789 -0.05426359176635742 0.11627912521362305
0.1766868680715561 -0.05426359176635742 0.1317828893661499
0.1751050353050232 -0.038759708404541016 -0.8759689927101135
0.16596361994743347 -0.038759708404541016 0.11627912521362305
0.17722655832767487 -0.038759708404541016 0.1317828893661499
0.17261017858982086 -0.02325582504272461 -0.8759690523147583
0.17031441628932953 -0.02325582504272461 0.11627912521362305
0.17025291919708252 -0.007751941680908203 -0.8759689927101135
0.17448601126670837 -0.007751941680908203 0.11627912521362305
0.16716822981834412 0.007751941680908203 -0.8759690523147583
0.1698015034198761 0.007751941680908203 0.10077524185180664
0.16619610786437988 0.02325582504272461 -0.8759689927101135
0.17385242879390717 0.02325582504272461 0.10077524185180664
0.17573408782482147 0.038759708404541016 -0.8759690523147583
0.16327939927577972 0.038759708404541016 0.08527135848999023
0.1763046234846115 0.038759708404541016 0.10077524185180664
0.16506460309028625 0.05426359176635742 0.08527135848999023
0.17795692384243011 0.05426359176635742 0.10077524185180664
0.17663443088531494 0.06976747512817383 -0.41085273027420044
0.16775918006896973 0.06976747512817383 0.08527135848999023
0.17193153500556946 0.08527135848999023 0.08527135848999023
0.17659343779087067 0.10077524185180664 0.08527135848999023
0.17354048788547516 0.11627912521362305 -0.02325582504272461
0.1661285012960434 0.11627912521362305 -0.007751941680908203
0.18552225828170776 -0.20930230617523193 -0.674418568611145
0.18923021852970123 -0.19379842281341553 -0.8604651093482971
0.1918521523475647 -0.19379842281341553 -0.5348837375640869
0.19026131927967072 -0.1782945990562439 -0.8604651093482971
0.18572065234184265 -0.1782945990562439 -0.41085273027420044
0.19062539935112 -0.1627907156944275 -0.8604651093482971
0.18943189084529877 -0.1627907156944275 -0.30232560634613037
0.19114534556865692 -0.14728683233261108 -0.8604651093482971
0.1878853440284729 -0.14728683233261108 -0.19379842281341553
0.1800546646118164 -0.11627906560897827 -0.038759708404541016
0.17881502211093903 -0.06976741552352905 -0.8759689927101135
0.17896488308906555 -0.05426359176635742 -0.8759689927101135
0.1878889501094818 -0.02325582504272461 0.1317828893661499
0.1805158406496048 0.007751941680908203 0.11627913266420364
0.19139626622200012 0.02325582504272461 0.11627912521362305
0.18625184893608093 0.05426359176635742 -0.39534884691238403
0.18396848440170288 0.05426359176635742 -0.3798449635505676
0.1915290355682373 0.05426359176635742 -0.3643410801887512
0.17849181592464447 0.06976748257875443 -0.3643410801887512
0.1840028613805771 0.06976747512817383 0.10077524185180664
0.1846974790096283 0.08527135848999023 -0.3488371968269348
0.1877477765083313 0.10077524185180664 -0.317829430103302
0.17844754457473755 0.11627912521362305 -0.13178294897079468
0.1879165917634964 0.11627912521362305 -0.11627906560897827
0.18826058506965637 0.11627912521362305 -0.10077518224716187
0.1853088140487671 0.11627912521362305 -0.08527129888534546
0.18574661016464233 0.11627912521362305 -0.06976741552352905
0.18652278184890747 0.11627912521362305 -0.05426359176635742
0.1817837953567505 0.11627912521362305 -0.038759708404541016
0.1955515593290329 -0.20930230617523193 -0.8449612259864807
0.20839457213878632 -0.19379842281341553 -0.8449612259864807
0.19907480478286743 -0.1627907156944275 -0.30232560634613037
0.1941056251525879 -0.13178294897079468 -0.8604651093482971
0.20042631030082703 -0.11627906560897827 -0.8604651093482971
0.20351433753967285 -0.10077518224716187 -0.8604651093482971
0.20536062121391296 -0.08527129888534546 -0.8604651093482971
0.20739750564098358 -0.06976741552352905 -0.8604651093482971
0.19988195598125458 -0.06976741552352905 0.1317828893661499
0.2074139565229416 -0.05426359176635742 -0.8604651093482971
0.19908180832862854 -0.05426359176635742 0.1317828893661499
0.20559309422969818 -0.038759708404541016 -0.8604651093482971
0.19776155054569244 -0.038759708404541016 0.1317828893661499
0.20438601076602936 -0.02325582504272461 -0.8604650497436523
0.19509312510490417 -0.02325582504272461 0.1317828893661499
0.20303727686405182 -0.007751941680908203 -0.8604651093482971
0.20712287724018097 -0.007751941680908203 0.11627912521362305
0.20128872990608215 0.007751941680908203 -0.8604651093482971
0.20360316336154938 0.007751941680908203 0.11627912521362305
0.19950126111507416 0.02325582504272461 -0.8604650497436523
0.20744363963603973 0.02325582504272461 -0.3798449635505676
0.2082725167274475 0.02325582504272461 -0.3643410801887512
0.19680993258953094 0.02325582690536976 0.11627912521362305
0.20243597030639648 0.038759708404541016 -0.8604651093482971
0.20732907950878143 0.038759708404541016 -0.41085273027420044
0.20086607336997986 0.038759708404541016 -0.39534884691238403
0.19874230027198792 0.038759708404541016 -0.3798449635505676
0.20121917128562927 0.038759708404541016 -0.3643410801887512
0.20518064498901367 0.038759708404541016 -0.3488371968269348
0.20873451232910156 0.038759708404541016 -0.3333333134651184
0.20330584049224854 0.05426359176635742 -0.5968992114067078
0.20734044909477234 0.05426359176635742 -0.42635661363601685
0.19648699462413788 0.05426359176635742 -0.41085273027420044
0.19971917569637299 0.05426359176635742 -0.3488371968269348
0.2043488621711731 0.05426359176635742 -0.3333333134651184
0.2065565437078476 0.05426359176635742 -0.317829430103302
0.20813967287540436 0.05426359176635742 -0.30232560634613037
0.20904888212680817 0.05426359176635742 -0.28682172298431396
0.20024804770946503 0.06976747512817383 -0.4573643207550049
0.2024148851633072 0.06976747512817383 -0.4418604373931885
0.19409973919391632 0.06976747512817383 -0.42635661363601685
0.19413045048713684 0.06976747512817383 -0.3488371670246124
0.20068714022636414 0.06976747512817383 -0.3333333134651184
0.2033303678035736 0.06976747512817383 -0.317829430103302
0.20481900870800018 0.06976747512817383 -0.30232560634613037
0.205842986702919 0.06976747512817383 -0.28682172298431396
0.20663946866989136 0.06976747512817383 -0.27131783962249756
0.207365021109581 0.06976747512817383 -0.25581395626068115
0.20851345360279083 0.06976747512817383 -0.24031007289886475
0.2070869505405426 0.06976747512817383 0.10077524185180664
0.19903364777565002 0.08527135848999023 -0.3333333134651184
0.20254063606262207 0.08527135848999023 -0.317829430103302
0.20383572578430176 0.08527135848999023 -0.30232560634613037
0.20485076308250427 0.08527135848999023 -0.28682172298431396
0.20582792162895203 0.08527135848999023 -0.27131783962249756
0.2068428099155426 0.08527135848999023 -0.25581395626068115
0.20821154117584229 0.08527135848999023 -0.24031007289886475
0.1956910341978073 0.10077523440122604 -0.302325576543808
0.19802945852279663 0.10077524185180664 -0.28682172298431396
0.2004145383834839 0.10077524185180664 -0.27131783962249756
0.2022744119167328 0.10077524185180664 -0.25581395626068115
0.20497246086597443 0.10077524185180664 -0.24031007289886475
0.2086091935634613 0.10077524185180664 -0.22480618953704834
0.21927480399608612 -0.22480618953704834 -0.8139535188674927
0.21835041046142578 -0.20930230617523193 -0.8294573426246643
0.21053406596183777 -0.20930230617523193 -0.674418568611145
0.22477784752845764 -0.19379842281341553 -0.8294573426246643
0.2128697782754898 -0.19379842281341553 -0.5348837375640869
0.21335870027542114 -0.1782945990562439 -0.8449611663818359
0.2144555151462555 -0.1627907156944275 -0.8449612855911255
0.2188446819782257 -0.1627907156944275 -0.28682172298431396
0.21529079973697662 -0.14728683233261108 -0.8449612855911255
0.21063168346881866 -0.14728683233261108 -0.19379842281341553
0.21801698207855225 -0.13178294897079468 -0.8449612259864807
0.22043068706989288 -0.11627906560897827 -0.8449612855911255
0.2241489589214325 -0.11627906560897827 -0.3333333134651184
0.22322708368301392 -0.11627906560897827 -0.317829430103302
0.22326473891735077 -0.11627906560897827 -0.30232560634613037
0.2238200306892395 -0.11627906560897827 -0.28682172298431396
0.22466890513896942 -0.11627906560897827 -0.27131783962249756
0.22192370891571045 -0.10077518224716187 -0.8449612259864807
0.22329315543174744 -0.10077518224716187 -0.39534884691238403
0.2204301953315735 -0.10077518224716187 -0.3798449635505676
0.21863731741905212 -0.10077518224716187 -0.3643410801887512
0.2178189754486084 -0.10077518224716187 -0.3488371968269348
0.21793267130851746 -0.10077518224716187 -0.3333333134651184
0.21816778182983398 -0.10077518224716187 -0.317829430103302
0.2189587950706482 -0.10077518224716187 -0.30232560634613037
0.21972370147705078 -0.10077518224716187 -0.28682172298431396
0.22029933333396912 -0.10077518224716187 -0.27131783962249756
0.22058479487895966 -0.10077518224716187 -0.25581395626068115
0.22091874480247498 -0.10077518224716187 -0.24031007289886475
0.22148358821868896 -0.10077518224716187 -0.22480618953704834
0.2225826382637024 -0.10077518224716187 -0.20930230617523193
0.2241818755865097 -0.08527129888534546 -0.8449612259864807
0.2227264642715454 -0.08527129888534546 -0.41085273027420044
0.2189289778470993 -0.08527129888534546 -0.39534884691238403
0.2163551151752472 -0.08527129888534546 -0.3798449635505676
0.21468961238861084 -0.08527129888534546 -0.3643410801887512
0.21436920762062073 -0.08527129888534546 -0.3488371968269348
0.21516118943691254 -0.08527129888534546 -0.3333333134651184
0.21586599946022034 -0.08527129888534546 -0.317829430103302
0.21683427691459656 -0.08527129888534546 -0.30232560634613037
0.21758605539798737 -0.08527129888534546 -0.28682172298431396
0.21788501739501953 -0.08527129888534546 -0.27131783962249756
0.21768948435783386 -0.08527129888534546 -0.25581395626068115
0.21747323870658875 -0.08527129888534546 -0.24031007289886475
0.2175743579864502 -0.08527129888534546 -0.22480618953704834
0.21834146976470947 -0.08527129888534546 -0.20930230617523193
0.22033673524856567 -0.08527129888534546 -0.19379842281341553
0.22317683696746826 -0.08527129888534546 -0.1782945990562439
0.22111168503761292 -0.08527129888534546 0.10077524185180664
0.21043699979782104 -0.08527129888534546 0.11627912521362305
0.22460100054740906 -0.06976741552352905 -0.42635661363601685
0.22023381292819977 -0.06976741552352905 -0.41085273027420044
0.2169579565525055 -0.06976741552352905 -0.39534884691238403
0.21450616419315338 -0.06976741552352905 -0.3798449635505676
0.21327345073223114 -0.06976741552352905 -0.3643410801887512
0.21340930461883545 -0.06976741552352905 -0.3488371968269348
0.21449536085128784 -0.06976741552352905 -0.3333333134651184
0.2152567207813263 -0.06976741552352905 -0.317829430103302
0.21599836647510529 -0.06976741552352905 -0.30232560634613037
0.21642392873764038 -0.06976741552352905 -0.28682172298431396
0.21625304222106934 -0.06976741552352905 -0.27131783962249756
0.215537428855896 -0.06976741552352905 -0.25581395626068115
0.21482786536216736 -0.06976741552352905 -0.24031007289886475
0.21451851725578308 -0.06976741552352905 -0.22480618953704834
0.21482452750205994 -0.06976741552352905 -0.20930230617523193
0.21647648513317108 -0.06976741552352905 -0.19379842281341553
0.2199200689792633 -0.06976741552352905 -0.1782945990562439
0.22214560210704803 -0.06976741552352905 0.10077524185180664
0.21311461925506592 -0.06976741552352905 0.11627912521362305
0.22300836443901062 -0.05426359176635742 -0.42635661363601685
0.21938687562942505 -0.05426359176635742 -0.41085273027420044
0.2165253758430481 -0.05426359176635742 -0.39534884691238403
0.21444079279899597 -0.05426359176635742 -0.3798449635505676
0.213589608669281 -0.05426359176635742 -0.3643410801887512
0.21389445662498474 -0.05426359176635742 -0.3488371968269348
0.21501001715660095 -0.05426359176635742 -0.3333333134651184
0.21570561826229095 -0.05426359176635742 -0.317829430103302
0.21623149514198303 -0.05426359176635742 -0.30232560634613037
0.21639177203178406 -0.05426359176635742 -0.28682172298431396
0.21597528457641602 -0.05426359176635742 -0.27131783962249756
0.21509037911891937 -0.05426359176635742 -0.25581395626068115
0.21419885754585266 -0.05426359176635742 -0.24031007289886475
0.21372434496879578 -0.05426359176635742 -0.22480618953704834
0.2138194590806961 -0.05426359176635742 -0.20930230617523193
0.21515855193138123 -0.05426359176635742 -0.19379842281341553
0.21828892827033997 -0.05426359176635742 -0.1782945990562439
0.22447752952575684 -0.05426359176635742 -0.1627907156944275
0.22136838734149933 -0.05426359176635742 0.10077524185180664
0.2124057412147522 -0.05426358804106712 0.11627912521362305
0.2226191908121109 -0.038759708404541016 -0.42635661363601685
0.21956540644168854 -0.038759708404541016 -0.41085273027420044
0.2171957790851593 -0.038759708404541016 -0.39534884691238403
0.21552006900310516 -0.038759708404541016 -0.3798449635505676
0.21487915515899658 -0.038759708404541016 -0.3643410801887512
0.21514159440994263 -0.038759708404541016 -0.3488371968269348
0.21615654230117798 -0.038759708404541016 -0.3333333134651184
0.2167561650276184 -0.038759708404541016 -0.317829430103302
0.21716159582138062 -0.038759708404541016 -0.30232560634613037
0.2172180712223053 -0.038759708404541016 -0.28682172298431396
0.2168276160955429 -0.038759708404541016 -0.27131783962249756
0.2160956859588623 -0.038759708404541016 -0.25581395626068115
0.21536411345005035 -0.038759708404541016 -0.24031007289886475
0.21496349573135376 -0.038759708404541016 -0.22480618953704834
0.21497899293899536 -0.038759708404541016 -0.20930230617523193
0.21618859469890594 -0.038759708404541016 -0.19379842281341553
0.21922793984413147 -0.038759708404541016 -0.1782945990562439
0.22045625746250153 -0.038759708404541016 0.10077524185180664
0.2111847847700119 -0.038759708404541016 0.11627912521362305
0.22336329519748688 -0.02325582504272461 -0.8449612259864807
0.22215433418750763 -0.02325582504272461 -0.42635661363601685
0.2195148766040802 -0.02325582504272461 -0.41085273027420044
0.21744701266288757 -0.02325582504272461 -0.39534884691238403
0.21606707572937012 -0.02325582504272461 -0.3798449635505676
0.21563458442687988 -0.02325582504272461 -0.3643410801887512
0.21591466665267944 -0.02325582504272461 -0.3488371968269348
0.21685251593589783 -0.02325582504272461 -0.3333333134651184
0.21738877892494202 -0.02325582504272461 -0.317829430103302
0.21777646243572235 -0.02325582504272461 -0.30232560634613037
0.21784232556819916 -0.02325582504272461 -0.28682172298431396
0.21759915351867676 -0.02325582504272461 -0.27131783962249756
0.21713955700397491 -0.02325582504272461 -0.25581395626068115
0.21672923862934113 -0.02325582504272461 -0.24031007289886475
0.21657270193099976 -0.02325582504272461 -0.22480618953704834
0.2166968584060669 -0.02325582504272461 -0.20930230617523193
0.2179635763168335 -0.02325582504272461 -0.19379842281341553
0.22079798579216003 -0.02325582504272461 -0.1782945990562439
0.21938592195510864 -0.02325582504272461 0.10077524185180664
0.20968398451805115 -0.02325582504272461 0.11627913266420364
0.22137005627155304 -0.007751941680908203 -0.8449612259864807
0.22148945927619934 -0.007751941680908203 -0.42635661363601685
0.21889713406562805 -0.007751941680908203 -0.41085273027420044
0.21669352054595947 -0.007751941680908203 -0.39534884691238403
0.2153525948524475 -0.007751941680908203 -0.3798449635505676
0.21514582633972168 -0.007751941680908203 -0.3643410801887512
0.21566413342952728 -0.007751941680908203 -0.3488371968269348
0.2167193591594696 -0.007751941680908203 -0.3333333134651184
0.21735593676567078 -0.007751941680908203 -0.317829430103302
0.2178325206041336 -0.007751941680908203 -0.30232560634613037
0.21795536577701569 -0.007751941680908203 -0.28682172298431396
0.21785008907318115 -0.007751941680908203 -0.27131783962249756
0.21761804819107056 -0.007751941680908203 -0.25581395626068115
0.2174791544675827 -0.007751941680908203 -0.24031007289886475
0.21757039427757263 -0.007751941680908203 -0.22480618953704834
0.21791455149650574 -0.007751941680908203 -0.20930230617523193
0.21929144859313965 -0.007751941680908203 -0.19379842281341553
0.22181464731693268 -0.007751941680908203 -0.1782945990562439
0.2182503044605255 -0.007751941680908203 0.10077524185180664
0.22017136216163635 0.007751941680908203 -0.8449611663818359
0.2202269434928894 0.007751941680908203 -0.42635661363601685
0.21724477410316467 0.007751941680908203 -0.41085273027420044
0.21443985402584076 0.007751941680908203 -0.39534884691238403
0.21293389797210693 0.007751941680908203 -0.3798449635505676
0.21305878460407257 0.007751941680908203 -0.36434105038642883
0.21409064531326294 0.007751941680908203 -0.3488371968269348
0.21542930603027344 0.007751941680908203 -0.3333333134651184
0.2162064015865326 0.007751941680908203 -0.317829430103302
0.2167944312095642 0.007751941680908203 -0.30232560634613037
0.21703007817268372 0.007751941680908203 -0.28682172298431396
0.2170824110507965 0.007751941680908203 -0.27131783962249756
0.21705518662929535 0.007751941680908203 -0.25581395626068115
0.217136949300766 0.007751941680908203 -0.24031007289886475
0.21742641925811768 0.007751941680908203 -0.22480618953704834
0.21797680854797363 0.007751941680908203 -0.20930230617523193
0.21948790550231934 0.007751941680908203 -0.19379842281341553
0.2220141738653183 0.007751941680908203 -0.1782945990562439
0.2172936201095581 0.007751941680908203 0.10077524185180664
0.21924495697021484 0.02325582504272461 -0.8449612259864807
0.22316382825374603 0.02325582504272461 -0.4418604373931885
0.21767134964466095 0.02325582504272461 -0.42635661363601685
0.21376954019069672 0.02325582504272461 -0.41085273027420044
0.20966485142707825 0.02325582504272461 -0.39534881711006165
0.21042650938034058 0.02325582504272461 -0.3488371968269348
0.2126186639070511 0.02325582504272461 -0.3333333134651184
0.21383953094482422 0.02325582504272461 -0.317829430103302
0.21461641788482666 0.02325582504272461 -0.30232560634613037
0.21495795249938965 0.02325582504272461 -0.28682172298431396
0.21512559056282043 0.02325582504272461 -0.27131783962249756
0.21525393426418304 0.02325582504272461 -0.25581395626068115
0.21555471420288086 0.02325582504272461 -0.24031007289886475
0.21602925658226013 0.02325582504272461 -0.22480618953704834
0.21668773889541626 0.02325582504272461 -0.20930230617523193
0.21828188002109528 0.02325582504272461 -0.19379842281341553
0.22099104523658752 0.02325582504272461 -0.1782945990562439
0.21594887971878052 0.02325582504272461 0.10077524185180664
0.2203720510005951 0.038759708404541016 -0.8449612259864807
0.2190060019493103 0.038759708404541016 -0.4418604373931885
0.21355058252811432 0.038759708404541016 -0.42635661363601685
0.2104783058166504 0.038759708404541016 -0.3178294599056244
0.2114895135164261 0.038759708404541016 -0.30232560634613037
0.21192631125450134 0.038759708404541016 -0.28682172298431396
0.21214748919010162 0.038759708404541016 -0.27131783962249756
0.21239277720451355 0.038759708404541016 -0.25581395626068115
0.2130061239004135 0.038759708404541016 -0.24031007289886475
0.21386384963989258 0.038759708404541016 -0.22480618953704834
0.21475785970687866 0.038759708404541016 -0.20930229127407074
0.21611422300338745 0.038759708404541016 -0.19379842281341553
0.21872809529304504 0.038759708404541016 -0.1782945990562439
0.22343343496322632 0.038759708404541016 -0.1627907156944275
0.21436047554016113 0.038759708404541016 0.10077524185180664
0.2106398046016693 0.05426359176635742 -0.5968992114067078
0.21487247943878174 0.05426359176635742 -0.4418604373931885
0.20944984257221222 0.05426359176635742 -0.27131783962249756
0.20974618196487427 0.05426359176635742 -0.25581395626068115
0.21041415631771088 0.05426359176635742 -0.24031007289886475
0.2114923596382141 0.05426359176635742 -0.22480618953704834
0.2128218412399292 0.05426359176635742 -0.20930230617523193
0.2144114375114441 0.05426359176635742 -0.19379842281341553
0.21644127368927002 0.05426359176635742 -0.1782945990562439
0.2207443118095398 0.05426359176635742 -0.1627907156944275
0.22310850024223328 0.05426359176635742 0.08527135848999023
0.21197687089443207 0.05426359176635742 0.10077524185180664
0.20980829000473022 0.06976747512817383 -0.22480620443820953
0.21103259921073914 0.06976747512817383 -0.20930230617523193
0.21284905076026917 0.06976747512817383 -0.19379840791225433
0.21499353647232056 0.06976747512817383 -0.1782945990562439
0.21825456619262695 0.06976747512817383 -0.1627907156944275
0.2241346389055252 0.06976747512817383 -0.14728683233261108
0.21959412097930908 0.06976747512817383 0.08527135848999023
0.2096392959356308 0.08527135848999023 -0.22480618953704834
0.21056318283081055 0.08527135848999023 -0.20930230617523193
0.21198618412017822 0.08527135848999023 -0.19379842281341553
0.21418125927448273 0.08527135848999023 -0.1782945990562439
0.217158704996109 0.08527135848999023 -0.1627907156944275
0.22182849049568176 0.08527135848999023 -0.14728683233261108
0.2152434140443802 0.08527135848999023 0.08527135848999023
0.21016629040241241 0.10077524185180664 -0.20930230617523193
0.2113909274339676 0.10077524930238724 -0.19379843771457672
0.21306347846984863 0.10077524185180664 -0.1782945990562439
0.21554036438465118 0.10077524185180664 -0.1627907156944275
0.21930959820747375 0.10077524185180664 -0.14728683233261108
0.2191062718629837 0.10077524185180664 0.06976747512817383
0.20975655317306519 0.10077524185180664 0.08527135848999023
0.2278195172548294 -0.22480618953704834 -0.8139535188674927
0.23304662108421326 -0.22480618953704834 -0.7984496355056763
0.23624637722969055 -0.20930230617523193 -0.8139535188674927
0.22496049106121063 -0.20930230617523193 -0.6589146852493286
0.2358911633491516 -0.20930230617523193 -0.643410861492157
0.23801544308662415 -0.19379842281341553 -0.8139535188674927
0.2317037582397461 -0.19379842281341553 -0.5193798542022705
0.22961464524269104 -0.1782945990562439 -0.8294574022293091
0.2313019186258316 -0.1782945990562439 -0.4418604373931885
0.22623205184936523 -0.1782945841550827 -0.42635661363601685
0.23085373640060425 -0.1627907156944275 -0.8294574022293091
0.23913222551345825 -0.1627907156944275 -0.39534884691238403
0.23491421341896057 -0.1627907156944275 -0.3798449635505676
0.2328505516052246 -0.1627907156944275 -0.3643410801887512
0.2307455837726593 -0.1627907156944275 -0.3488371968269348
0.22886699438095093 -0.1627907156944275 -0.3333333134651184
0.22761067748069763 -0.1627907156944275 -0.317829430103302
0.2264825701713562 -0.1627907156944275 -0.30232563614845276
0.22534853219985962 -0.1627907156944275 -0.28682172298431396
0.23158255219459534 -0.14728683233261108 -0.8294572830200195
0.2355690896511078 -0.14728683233261108 -0.3488371968269348
0.2331172376871109 -0.14728683233261108 -0.3333333134651184
0.23101425170898438 -0.14728683233261108 -0.317829430103302
0.22968050837516785 -0.14728683233261108 -0.30232560634613037
0.229188472032547 -0.14728683233261108 -0.28682172298431396
0.2292710244655609 -0.14728683233261108 -0.27131783962249756
0.22995465993881226 -0.14728683233261108 -0.25581395626068115
0.23120126128196716 -0.14728683233261108 -0.24031007289886475
0.23318064212799072 -0.14728683233261108 -0.22480618953704834
0.23543840646743774 -0.14728683233261108 -0.20930230617523193
0.23200449347496033 -0.14728683233261108 -0.19379842281341553
0.2340136170387268 -0.13178294897079468 -0.8294573426246643
0.23886209726333618 -0.13178294897079468 -0.39534884691238403
0.23520764708518982 -0.13178294897079468 -0.3798449635505676
0.2328176498413086 -0.13178294897079468 -0.3643410801887512
0.23079538345336914 -0.13178294897079468 -0.3488371968269348
0.22908741235733032 -0.13178294897079468 -0.3333333134651184
0.22796976566314697 -0.13178294897079468 -0.317829430103302
0.2274652123451233 -0.13178294897079468 -0.30232560634613037
0.22737950086593628 -0.13178294897079468 -0.28682172298431396
0.22768408060073853 -0.13178294897079468 -0.27131783962249756
0.22835010290145874 -0.13178294897079468 -0.25581395626068115
0.22936737537384033 -0.13178294897079468 -0.24031007289886475
0.2309001386165619 -0.13178294897079468 -0.22480618953704834
0.23310276865959167 -0.13178294897079468 -0.20930230617523193
0.2367909848690033 -0.13178294897079468 -0.19379842281341553
0.23621219396591187 -0.11627906560897827 -0.8294573426246643
0.23554620146751404 -0.11627906560897827 -0.4418604373931885
0.23337329924106598 -0.11627906560897827 -0.42635661363601685
0.2317885458469391 -0.11627906560897827 -0.41085273027420044
0.2294655591249466 -0.11627906560897827 -0.39534884691238403
0.22743692994117737 -0.11627906560897827 -0.3798449635505676
0.2259431779384613 -0.11627906560897827 -0.3643410801887512
0.22504495084285736 -0.11627906560897827 -0.3488371968269348
0.2250581532716751 -0.11627906560897827 -0.25581395626068115
0.22552521526813507 -0.11627906560897827 -0.24031008780002594
0.22642263770103455 -0.11627906560897827 -0.22480618953704834
0.2281970977783203 -0.11627906560897827 -0.20930230617523193
0.2311292290687561 -0.11627906560897827 -0.19379842281341553
0.23485210537910461 -0.11627906560897827 -0.1782945990562439
0.2395750880241394 -0.11627906560897827 -0.1627907156944275
0.2376387119293213 -0.10077518224716187 -0.8294574022293091
0.23619499802589417 -0.10077518224716187 -0.4573643207550049
0.23145027458667755 -0.10077518224716187 -0.4418604373931885
0.22862249612808228 -0.10077518969774246 -0.42635661363601685
0.22619369626045227 -0.10077518224716187 -0.41085273027420044
0.22507043182849884 -0.10077517479658127 -0.19379842281341553
0.22876271605491638 -0.10077518224716187 -0.1782945990562439
0.23423966765403748 -0.10077518224716187 -0.1627907156944275
0.24027487635612488 -0.10077518224716187 -0.14728683233261108
0.22559991478919983 -0.10077518224716187 0.05426358804106712
0.2395709902048111 -0.08527129888534546 -0.8294573426246643
0.2349361628293991 -0.08527129888534546 -0.4573643207550049
0.22970275580883026 -0.08527129888534546 -0.4418604373931885
0.22614999115467072 -0.08527129888534546 -0.42635658383369446
0.22836166620254517 -0.08527129143476486 -0.1627907156944275
0.23550647497177124 -0.08527129888534546 -0.14728683233261108
0.23801659047603607 -0.08527129888534546 0.06976747512817383
0.23001036047935486 -0.08527129888534546 0.08527135848999023
0.22780340909957886 -0.06976741552352905 -0.8449612855911255
0.23403304815292358 -0.06976741552352905 -0.4573643207550049
0.2284160852432251 -0.06976741552352905 -0.4418604373931885
0.22530263662338257 -0.06976741552352905 -0.1627907156944275
0.2320454716682434 -0.06976741552352905 -0.14728683233261108
0.23710595071315765 -0.06976741552352905 0.06976747512817383
0.2306842803955078 -0.06976741552352905 0.08527135848999023
0.22812950611114502 -0.05426359176635742 -0.8449612259864807
0.23327164351940155 -0.05426359176635742 -0.4573643207550049
0.22755593061447144 -0.05426359176635742 -0.4418604373931885
0.23086267709732056 -0.05426359176635742 -0.14728683233261108
0.23708197474479675 -0.05426359176635742 0.06976747512817383
0.2306128442287445 -0.05426359176635742 0.08527135848999023
0.22575221955776215 -0.038759708404541016 -0.8449612259864807
0.2325933575630188 -0.038759708404541016 -0.4573643207550049
0.22704258561134338 -0.038759712129831314 -0.4418604373931885
0.22507813572883606 -0.03875970467925072 -0.1627907156944275
0.2312789112329483 -0.038759708404541016 -0.14728683233261108
0.2366647869348526 -0.038759708404541016 0.06976747512817383
0.2301274687051773 -0.038759708404541016 0.08527135848999023
0.2385881394147873 -0.02325582504272461 -0.8294573426246643
0.23202043771743774 -0.02325582504272461 -0.4573643207550049
0.2265954464673996 -0.02325582504272461 -0.4418604373931885
0.22600501775741577 -0.02325582504272461 -0.1627907156944275
0.2319900393486023 -0.02325582504272461 -0.14728683233261108
0.23601271212100983 -0.02325582504272461 0.06976747512817383
0.229335755109787 -0.02325582504272461 0.08527135848999023
0.23667900264263153 -0.007751941680908203 -0.8294574022293091
0.23155027627944946 -0.007751941680908203 -0.4573643207550049
0.22622373700141907 -0.007751941680908203 -0.4418604373931885
0.22670121490955353 -0.007751941680908203 -0.1627907156944275
0.23213157057762146 -0.007751941680908203 -0.14728683233261108
0.23514676094055176 -0.007751941680908203 0.06976747512817383
0.22813475131988525 -0.007751941680908203 0.08527135848999023
0.23557934165000916 0.007751941680908203 -0.8294573426246643
0.23912464082241058 0.007751941680908203 -0.4728682041168213
0.23100519180297852 0.007751941680908203 -0.4573643207550049
0.22552743554115295 0.007751941680908203 -0.4418604373931885
0.22665444016456604 0.007751941680908203 -0.16279073059558868
0.23143568634986877 0.007751941680908203 -0.14728683233261108
0.23835907876491547 0.007751941680908203 -0.13178294897079468
0.2342115193605423 0.007751941680908203 0.06976747512817383
0.2269592136144638 0.007751941680908203 0.08527135848999023
0.23483319580554962 0.02325582504272461 -0.8294573426246643
0.23785988986492157 0.02325582504272461 -0.4728682041168213
0.22991995513439178 0.02325582504272461 -0.4573643207550049
0.22563667595386505 0.02325582504272461 -0.1627907156944275
0.23007771372795105 0.02325582504272461 -0.14728683233261108
0.23568502068519592 0.02325582504272461 -0.13178294897079468
0.23312866687774658 0.02325582504272461 0.06976747512817383
0.22581854462623596 0.02325582504272461 0.08527135848999023
0.2357509732246399 0.038759708404541016 -0.8294573426246643
0.23637768626213074 0.038759708404541016 -0.4728682041168213
0.22822469472885132 0.038759708404541016 -0.4573643207550049
0.2282591462135315 0.038759708404541016 -0.14728683233261108
0.23264391720294952 0.038759708404541016 -0.13178294897079468
0.23918642103672028 0.038759708404541016 -0.11627906560897827
0.24028898775577545 0.038759708404541016 0.05426359176635742
0.23227128386497498 0.038759708404541016 0.06976747512817383
0.22505678236484528 0.038759708404541016 0.08527135848999023
0.22880056500434875 0.05426359176635742 -0.5968992114067078
0.23488400876522064 0.05426359176635742 -0.4728682041168213
0.22628414630889893 0.05426359176635742 -0.4573643207550049
0.22620490193367004 0.05426359176635742 -0.14728683233261108
0.2303462028503418 0.05426359176635742 -0.13178294897079468
0.2354935109615326 0.05426359176635742 -0.11627906560897827
0.23805496096611023 0.05426359176635742 0.05426359176635742
0.23123420774936676 0.05426359176635742 0.06976747512817383
0.22812362015247345 0.06976747512817383 -0.13178294897079468
0.23231282830238342 0.06976747512817383 -0.11627906560897827
0.23715804517269135 0.06976747512817383 -0.10077518224716187
0.23525354266166687 0.06976747512817383 0.05426359176635742
0.22906890511512756 0.06976747512817383 0.06976747512817383
0.22657613456249237 0.08527135848999023 -0.13178294897079468
0.23044000566005707 0.08527135848999023 -0.11627906560897827
0.23433944582939148 0.08527135848999023 -0.10077518224716187
0.23964296281337738 0.08527135848999023 -0.08527129888534546
0.23241350054740906 0.08527135848999023 0.05426359176635742
0.2263604700565338 0.08527135848999023 0.06976747512817383
0.2255551815032959 0.10077524185180664 -0.13178296387195587
0.2278633564710617 0.10077524185180664 -0.11627906560897827
0.23075416684150696 0.10077524185180664 -0.10077518224716187
0.23446020483970642 0.10077524185180664 -0.08527129888534546
0.2330591380596161 0.10077524185180664 0.038759708404541016
0.22801117599010468 0.10077524185180664 0.05426359176635742
0.2422718107700348 -0.22480618953704834 -0.7984496355056763
0.2524903416633606 -0.22480618953704834 -0.7209302186965942
