-0.13178294897079468 0.038759708404541016 -0.026268545538187027
-0.13178294897079468 0.05426359176635742 -0.957091748714447
-0.13178294897079468 0.05426359176635742 -0.10394639521837234
-0.13178294897079468 0.06976747512817383 -0.9576915502548218
-0.13178294897079468 0.06976747512817383 -0.10476971417665482
-0.13178294897079468 0.08527135848999023 -0.9589636325836182
-0.13178294897079468 0.08527135848999023 -0.10118699818849564
-0.13178294897079468 0.10077524185180664 -0.9608093500137329
-0.13178294897079468 0.10077523440122604 -0.09827180951833725
-0.13178294897079468 0.11627911776304245 -0.9620076417922974
-0.13178294897079468 0.11627912521362305 -0.09425193816423416
-0.13178294897079468 0.1317828893661499 -0.9628303647041321
-0.13178294897079468 0.1317828893661499 -0.09224256873130798
-0.13178294897079468 0.1472867727279663 -0.7161846160888672
-0.13178294897079468 0.1472867727279663 -0.4452848434448242
-0.11627906560897827 -0.08527129888534546 -0.938357412815094
-0.11627906560897827 -0.08527129888534546 -0.9367032051086426
-0.11627906560897827 -0.05426359176635742 -0.6535484790802002
-0.11627906560897827 -0.05426359176635742 -0.5305472016334534
-0.11627906560897827 -0.038759708404541016 -0.8813523054122925
-0.11627906560897827 -0.038759708404541016 0.008803950622677803
-0.11627906560897827 -0.02325582504272461 -0.9113903641700745
-0.11627906560897827 -0.02325582504272461 0.011485503986477852
-0.11627906560897827 -0.007751941680908203 -0.9380582571029663
-0.11627906560897827 -0.007751941680908203 0.010842537507414818
-0.11627906560897827 0.007751941680908203 -0.9613446593284607
-0.11627906560897827 0.007751941680908203 0.007937303744256496
-0.11627906560897827 0.02325582504272461 -0.9634524583816528
-0.11627906560897827 0.02325582504272461 -0.002471226267516613
-0.11627906560897827 0.038759708404541016 -0.9608845710754395
-0.11627906560897827 0.038759708404541016 -0.11094444245100021
-0.11627906560897827 0.038759708404541016 -0.050337620079517365
-0.11627906560897827 0.038759708404541016 -0.025793936103582382
-0.11627906560897827 0.05426359176635742 -0.9613926410675049
-0.11627906560897827 0.05426359176635742 -0.11849576234817505
-0.11627906560897827 0.06976747512817383 -0.9624825716018677
-0.11627906560897827 0.06976747512817383 -0.11618582904338837
-0.11627906560897827 0.08527135848999023 -0.9639110565185547
-0.11627907305955887 0.08527136594057083 -0.11391030997037888
-0.11627906560897827 0.10077524185180664 -0.9654250741004944
-0.11627906560897827 0.10077524185180664 -0.10944029688835144
-0.11627906560897827 0.11627912521362305 -0.9664308428764343
-0.11627906560897827 0.11627912521362305 -0.10039257258176804
-0.11627907305955887 0.1317828893661499 -0.9681158661842346
-0.11627906560897827 0.1317828893661499 -0.09986576437950134
-0.11627906560897827 0.1472867727279663 -0.7111274003982544
-0.11627906560897827 0.1472867727279663 -0.47248727083206177
-0.10077518224716187 -0.05426359176635742 -0.6515165567398071
-0.10077518224716187 -0.05426359176635742 -0.49416428804397583
-0.10077518224716187 -0.038759708404541016 -0.8789492845535278
-0.10077518224716187 -0.038759708404541016 -0.13754257559776306
-0.10077518224716187 -0.038759712129831314 -0.08513978868722916
-0.10077518224716187 -0.038759708404541016 0.012115737423300743
-0.10077518224716187 -0.02325582504272461 -0.915077269077301
-0.10077518224716187 -0.02325582504272461 0.01518256589770317
-0.10077518224716187 -0.007751941680908203 -0.9396841526031494
-0.10077518224716187 -0.007751941680908203 0.01422660518437624
-0.10077518224716187 0.007751941680908203 -0.9648337960243225
-0.10077518224716187 0.007751941680908203 0.010934317484498024
-0.10077518224716187 0.02325582504272461 -0.9662474989891052
-0.10077518224716187 0.02325582504272461 0.0001279134303331375
-0.10077518224716187 0.038759708404541016 -0.9633647203445435
-0.10077518224716187 0.038759708404541016 -0.13944435119628906
-0.10077518224716187 0.05426359176635742 -0.9643033742904663
-0.10077518224716187 0.05426359176635742 -0.13779956102371216
-0.10077518224716187 0.06976747512817383 -0.9655115008354187
-0.10077518224716187 0.06976747512817383 -0.13176511228084564
-0.10077518224716187 0.08527135848999023 -0.9666279554367065
-0.10077517479658127 0.08527135848999023 -0.12836705148220062
-0.10077518224716187 0.10077524185180664 -0.9679276347160339
-0.10077518224716187 0.10077524185180664 -0.12059879302978516
-0.10077518224716187 0.11627912521362305 -0.9691260457038879
-0.10077518224716187 0.11627912521362305 -0.11310462653636932
-0.10077518224716187 0.11627912521362305 0.7966790199279785
-0.10077518224716187 0.11627912521362305 0.8005407452583313
-0.10077518224716187 0.1317828893661499 -0.9698647856712341
-0.10077517479658127 0.1317828893661499 -0.11231273412704468
-0.10077518224716187 0.1317828893661499 0.79827880859375
-0.10077518224716187 0.1317828893661499 0.8148568868637085
-0.10077518224716187 0.1472867727279663 -0.7104253768920898
-0.10077518224716187 0.1472867727279663 -0.4900142252445221
-0.08527129888534546 -0.05426359176635742 -0.6500808000564575
-0.08527129888534546 -0.05426359176635742 -0.5126123428344727
-0.08527129888534546 -0.05426359176635742 -0.041196100413799286
-0.08527129888534546 -0.05426359176635742 -0.009785196743905544
-0.08527129888534546 -0.038759708404541016 -0.8726113438606262
-0.08527129888534546 -0.038759708404541016 -0.1670227199792862
-0.08527129888534546 -0.038759708404541016 -0.07639022171497345
-0.08527129888534546 -0.038759708404541016 0.01594756729900837
-0.08527129888534546 -0.02325582504272461 -0.922936201095581
-0.08527129888534546 -0.02325582504272461 0.02207627333700657
-0.08527129888534546 -0.007751941680908203 -0.9446600675582886
-0.08527129888534546 -0.007751941680908203 0.018966473639011383
-0.08527129888534546 0.007751941680908203 -0.9697502255439758
-0.08527129888534546 0.007751941680908203 0.013134289532899857
-0.08527129888534546 0.02325582504272461 -0.9694902300834656
-0.08527129888534546 0.02325582504272461 -0.16887304186820984
-0.08527129888534546 0.02325582504272461 -0.07895366102457047
-0.08527129888534546 0.02325582504272461 8.034147322177887e-05
-0.08527129143476486 0.038759708404541016 -0.9661755561828613
-0.08527129888534546 0.038759708404541016 -0.17541368305683136
-0.08527129888534546 0.05426359176635742 -0.9672857522964478
-0.08527129888534546 0.05426359176635742 -0.1679031252861023
-0.08527129888534546 0.06976748257875443 -0.9686710238456726
-0.08527129888534546 0.06976747512817383 -0.15657375752925873
-0.08527129888534546 0.08527135848999023 -0.9699641466140747
-0.08527130633592606 0.08527135848999023 -0.14599019289016724
-0.08527129888534546 0.10077524185180664 -0.9714624285697937
-0.08527129888534546 0.10077524185180664 -0.13585995137691498
-0.08527129888534546 0.11627912521362305 -0.9723387956619263
-0.08527129888534546 0.11627912521362305 -0.12640929222106934
-0.08527129888534546 0.11627912521362305 0.7969478964805603
-0.08527129888534546 0.11627912521362305 0.7999057769775391
-0.08527129888534546 0.1317828893661499 -0.972198486328125
-0.08527129888534546 0.1317828893661499 -0.12579506635665894
-0.08527129888534546 0.1317828893661499 0.79632169008255
-0.08527129888534546 0.1317828893661499 0.8156132698059082
-0.08527129888534546 0.1472867727279663 -0.7108280658721924
-0.08527129888534546 0.1472867727279663 -0.4900567829608917
-0.08527130633592606 0.1472867727279663 0.8003508448600769
-0.08527129143476486 0.1472867727279663 0.8145492076873779
-0.06976741552352905 -0.05426359176635742 -0.6487962603569031
-0.06976741552352905 -0.05426359176635742 -0.5324724316596985
-0.06976741552352905 -0.05426359176635742 -0.04300825297832489
-0.06976741552352905 -0.05426359176635742 0.005007684230804443
-0.06976741552352905 -0.038759708404541016 -0.8654942512512207
-0.06976741552352905 -0.038759708404541016 -0.18178175389766693
-0.06976741552352905 -0.038759708404541016 -0.06943340599536896
-0.06976741552352905 -0.038759708404541016 0.02028152160346508
-0.06976741552352905 -0.02325582504272461 -0.929387629032135
-0.06976741552352905 -0.02325582504272461 -0.12085209041833878
-0.06976741552352905 -0.02325582504272461 -0.10756054520606995
-0.06976741552352905 -0.02325582504272461 0.025316573679447174
-0.06976741552352905 -0.007751941680908203 -0.9565250873565674
-0.06976741552352905 -0.007751941680908203 0.0242297425866127
-0.06976741552352905 0.007751941680908203 -0.9717684984207153
-0.06976741552352905 0.007751941680908203 -0.13216924667358398
-0.06976741552352905 0.007751941680908203 -0.09124402701854706
-0.06976741552352905 0.007751941680908203 0.013743137940764427
-0.06976741552352905 0.02325582504272461 -0.9714062213897705
-0.06976741552352905 0.02325582504272461 -0.1750451624393463
-0.06976741552352905 0.02325582504272461 -0.060328371822834015
-0.06976741552352905 0.02325582504272461 -0.004089696332812309
-0.06976741552352905 0.038759708404541016 -0.9693608283996582
-0.06976741552352905 0.03875970467925072 -0.19337362051010132
-0.06976741552352905 0.05426359176635742 -0.9703704118728638
-0.06976741552352905 0.05426359176635742 -0.19097724556922913
-0.06976741552352905 0.06976747512817383 -0.9719055891036987
-0.06976741552352905 0.06976747512817383 -0.1832810342311859
-0.06976741552352905 0.08527135848999023 -0.9736160039901733
-0.06976741552352905 0.08527135848999023 -0.17644625902175903
-0.06976741552352905 0.10077524185180664 -0.9751995801925659
-0.06976741552352905 0.10077524185180664 -0.15763363242149353
-0.06976741552352905 0.11627912521362305 -0.9762322902679443
-0.06976741552352905 0.11627912521362305 -0.14123760163784027
-0.06976741552352905 0.1317828893661499 -0.976125180721283
-0.06976741552352905 0.1317828893661499 -0.1432723104953766
-0.06976741552352905 0.1317828893661499 0.7963326573371887
-0.06976741552352905 0.1317828893661499 0.8038361072540283
-0.06976741552352905 0.1472867727279663 -0.7131006717681885
-0.06976741552352905 0.1472867727279663 -0.47831928730010986
-0.06976741552352905 0.1472867727279663 0.7967709898948669
-0.06976741552352905 0.1472867727279663 0.8153042793273926
-0.05426359176635742 -0.05426359176635742 -0.6481170654296875
-0.05426359176635742 -0.05426359176635742 -0.5522985458374023
-0.05426359176635742 -0.05426359176635742 -0.049415700137615204
-0.05426359176635742 -0.05426359176635742 0.015526684932410717
-0.05426359176635742 -0.038759708404541016 -0.847319483757019
-0.05426359176635742 -0.038759708404541016 -0.12154828011989594
-0.05426359176635742 -0.038759708404541016 -0.09898972511291504
-0.05426359176635742 -0.038759708404541016 0.028665540739893913
-0.05426359176635742 -0.02325582504272461 -0.9374765753746033
-0.05426359176635742 -0.02325582504272461 0.03301404044032097
-0.05426359176635742 -0.007751941680908203 -0.9663501977920532
-0.05426359176635742 -0.007751941680908203 0.02909465879201889
-0.05426359176635742 0.007751941680908203 -0.9738441705703735
-0.05426359176635742 0.007751941680908203 0.013908813707530499
-0.05426359176635742 0.02325582504272461 -0.9734673500061035
-0.05426359176635742 0.02325582504272461 -0.12195801734924316
-0.05426359176635742 0.02325582504272461 -0.04491212218999863
-0.05426359176635742 0.02325582504272461 -0.01032798271626234
-0.05426359176635742 0.038759708404541016 -0.9711099863052368
-0.05426359176635742 0.038759708404541016 -0.14665432274341583
-0.05426359176635742 0.05426359176635742 -0.9728108048439026
-0.05426359176635742 0.05426359176635742 -0.17966493964195251
-0.05426359176635742 0.06976747512817383 -0.9746671915054321
-0.05426359176635742 0.06976747512817383 -0.18610155582427979
-0.05426359176635742 0.08527135848999023 -0.9763984680175781
-0.05426359176635742 0.08527135848999023 -0.18594247102737427
-0.05426359176635742 0.10077524185180664 -0.9778292179107666
-0.05426359176635742 0.10077524185180664 -0.17397192120552063
-0.05426359176635742 0.10077524185180664 0.726944088935852
-0.05426359176635742 0.10077524185180664 0.7612959146499634
-0.05426359176635742 0.11627912521362305 -0.9791365265846252
-0.05426359176635742 0.11627912521362305 -0.1535668969154358
-0.05426359176635742 0.11627912521362305 0.7259087562561035
-0.05426359176635742 0.11627912521362305 0.7887725234031677
-0.05426359176635742 0.1317828893661499 -0.9804579019546509
-0.05426359176635742 0.1317828893661499 -0.1597168743610382
-0.05426359176635742 0.1317828893661499 0.7700391411781311
-0.05426359549164772 0.1317828893661499 0.8157663345336914
-0.05426359176635742 0.1472867727279663 -0.7170647382736206
-0.05426359549164772 0.1472867727279663 -0.4688662886619568
-0.05426358804106712 0.1472867727279663 0.7830404043197632
-0.05426359176635742 0.1472867727279663 0.8345168828964233
-0.05426359176635742 0.16279065608978271 0.7979688048362732
-0.05426359549164772 0.16279065608978271 0.8461852073669434
-0.05426359176635742 0.17829453945159912 0.8706938028335571
-0.05426359176635742 0.17829453945159912 0.8949486017227173
-0.05426359176635742 0.19379842281341553 0.8884064555168152
-0.05426359176635742 0.19379842281341553 0.9063929915428162
-0.05426359176635742 0.20930230617523193 0.9042578935623169
-0.05426359176635742 0.20930230617523193 0.9411576390266418
-0.05426359176635742 0.22480618953704834 0.9125775098800659
-0.05426359176635742 0.22480620443820953 0.9420539140701294
-0.038759708404541016 -0.14728683233261108 -0.6454321146011353
-0.038759708404541016 -0.14728683233261108 -0.6404916048049927
-0.038759708404541016 -0.11627906560897827 -0.48861920833587646
-0.038759708404541016 -0.11627906560897827 -0.4447309374809265
-0.038759712129831314 -0.06976741552352905 -0.1936521828174591
-0.038759708404541016 -0.06976741552352905 -0.015125107020139694
-0.038759708404541016 -0.05426359176635742 -0.6515711545944214
-0.038759708404541016 -0.05426359176635742 -0.5536342263221741
-0.038759708404541016 -0.05426359176635742 -0.26804837584495544
-0.038759708404541016 -0.05426359176635742 0.09172609448432922
-0.038759708404541016 -0.038759708404541016 -0.8414879441261292
-0.038759708404541016 -0.038759708404541016 0.16428567469120026
-0.038759708404541016 -0.02325582504272461 -0.939385175704956
-0.038759708404541016 -0.02325582504272461 0.2060023695230484
-0.038759708404541016 -0.007751941680908203 -0.9705373048782349
-0.038759708404541016 -0.007751941680908203 0.19583743810653687
-0.038759708404541016 0.007751941680908203 -0.9753788709640503
-0.038759708404541016 0.007751941680908203 0.019371962174773216
-0.038759708404541016 0.02325582504272461 -0.9750568866729736
-0.038759708404541016 0.02325582504272461 -0.09190639108419418
-0.038759708404541016 0.038759708404541016 -0.9725633859634399
-0.038759708404541016 0.038759708404541016 -0.12151458859443665
-0.038759708404541016 0.05426359176635742 -0.974452793598175
-0.038759708404541016 0.05426359176635742 -0.14342977106571198
-0.038759708404541016 0.05426359176635742 0.5481773018836975
-0.038759708404541016 0.05426359176635742 0.6302143931388855
-0.038759708404541016 0.06976747512817383 -0.9762243032455444
-0.038759712129831314 0.06976747512817383 -0.16241152584552765
-0.038759708404541016 0.06976747512817383 0.5918158292770386
-0.038759708404541016 0.06976747512817383 0.6443740725517273
-0.038759708404541016 0.06976747512817383 0.6662975549697876
-0.038759708404541016 0.06976747512817383 0.7108680605888367
-0.038759708404541016 0.08527135848999023 -0.9778733849525452
-0.038759708404541016 0.08527135848999023 -0.1766813099384308
-0.038759708404541016 0.08527135848999023 0.6898906826972961
-0.038759708404541016 0.08527136594057083 0.7380850911140442
-0.038759708404541016 0.10077524185180664 -0.9793483018875122
-0.038759708404541016 0.10077524185180664 -0.17409968376159668
-0.038759708404541016 0.10077524185180664 0.6979446411132812
-0.038759708404541016 0.10077524185180664 0.7666488289833069
-0.038759708404541016 0.11627911776304245 -0.9810179471969604
-0.038759708404541016 0.11627912521362305 -0.15836545825004578
-0.038759708404541016 0.11627912521362305 0.7033330798149109
-0.038759708404541016 0.11627912521362305 0.7890570163726807
-0.038759708404541016 0.1317828893661499 -0.9843882322311401
-0.038759708404541016 0.1317828893661499 -0.17252469062805176
-0.038759708404541016 0.1317828893661499 0.7268228530883789
-0.038759708404541016 0.1317828893661499 0.8129975199699402
-0.038759708404541016 0.1472867727279663 -0.7162890434265137
-0.038759708404541016 0.1472867727279663 -0.4731294512748718
-0.038759708404541016 0.1472867727279663 0.7649229168891907
-0.038759708404541016 0.1472867727279663 0.8351047039031982
-0.038759708404541016 0.16279065608978271 0.7922089695930481
-0.038759708404541016 0.16279065608978271 0.8580818176269531
-0.038759708404541016 0.17829453945159912 0.8259081244468689
-0.038759708404541016 0.17829453945159912 0.8954132795333862
-0.038759708404541016 0.19379842281341553 0.8712158203125
-0.038759708404541016 0.19379842281341553 0.9271438121795654
-0.038759708404541016 0.20930230617523193 0.8846405148506165
-0.038759708404541016 0.20930230617523193 0.9468985795974731
-0.038759708404541016 0.22480618953704834 0.8997586965560913
-0.038759708404541016 0.22480618953704834 0.9479019641876221
-0.038759708404541016 0.24031007289886475 0.9305019378662109
-0.038759708404541016 0.24031007289886475 0.9402928948402405
-0.02325582504272461 -0.1627907156944275 -0.7420454621315002
-0.02325582504272461 -0.1627907156944275 -0.6891798973083496
-0.02325582504272461 -0.14728683233261108 -0.6522691249847412
-0.02325582504272461 -0.14728683233261108 -0.6193999648094177
-0.02325582504272461 -0.10077518224716187 -0.9715312123298645
-0.02325582504272461 -0.10077518224716187 -0.9618216156959534
-0.02325582504272461 -0.08527129888534546 -0.2868318259716034
-0.02325582504272461 -0.08527129888534546 -0.2234891653060913
-0.02325582504272461 -0.06976741552352905 -0.24509748816490173
-0.02325582504272461 -0.06976741552352905 -0.013219553977251053
-0.02325582504272461 -0.05426359176635742 -0.658633291721344
-0.02325582504272461 -0.05426359176635742 -0.5482181310653687
-0.02325582504272461 -0.05426359176635742 -0.2905922532081604
-0.02325582504272461 -0.05426359176635742 0.0985821783542633
-0.02325582504272461 -0.038759708404541016 -0.8501687049865723
-0.02325582504272461 -0.038759708404541016 0.1787111461162567
-0.02325582504272461 -0.02325582504272461 -0.9396606683731079
-0.02325582504272461 -0.02325582504272461 0.23629072308540344
-0.02325582504272461 -0.007751941680908203 -0.9720101356506348
-0.02325582504272461 -0.007751941680908203 0.29086410999298096
-0.02325582504272461 0.007751941680908203 -0.976546049118042
-0.02325582504272461 0.007751941680908203 0.03492094576358795
-0.02325582504272461 0.007751941680908203 0.14123187959194183
-0.02325582504272461 0.007751941680908203 0.3477025032043457
-0.02325582504272461 0.02325582504272461 -0.9763097763061523
-0.02325582504272461 0.02325582504272461 -0.07633988559246063
-0.02325582504272461 0.02325582504272461 0.31104058027267456
-0.02325582504272461 0.02325582504272461 0.41092196106910706
-0.02325582504272461 0.038759708404541016 -0.9737048745155334
-0.02325582504272461 0.038759708404541016 -0.10655346512794495
-0.02325582504272461 0.038759708404541016 0.41401946544647217
-0.02325582504272461 0.038759708404541016 0.507482647895813
-0.02325582504272461 0.05426359176635742 -0.9756525754928589
-0.02325582504272461 0.05426359176635742 -0.1276818960905075
-0.02325582690536976 0.05426359176635742 0.4911893606185913
-0.02325582504272461 0.05426359176635742 0.6437742710113525
-0.02325582504272461 0.06976747512817383 -0.9769726991653442
-0.02325582504272461 0.06976747512817383 -0.14424782991409302
-0.02325582504272461 0.06976747512817383 0.5675801038742065
-0.02325582504272461 0.06976746767759323 0.7065695524215698
-0.02325582504272461 0.08527135848999023 -0.9787400960922241
-0.02325582504272461 0.08527135848999023 -0.15943340957164764
-0.02325582504272461 0.08527135848999023 0.6501543521881104
-0.02325582504272461 0.08527135848999023 0.7372783422470093
-0.02325582504272461 0.10077524185180664 -0.9811729192733765
-0.02325582504272461 0.10077523440122604 -0.16272078454494476
-0.02325582504272461 0.10077524185180664 0.684537410736084
-0.02325582504272461 0.10077524185180664 0.7640221118927002
-0.02325582504272461 0.11627912521362305 -0.9838712215423584
-0.02325582504272461 0.11627912521362305 -0.1549295037984848
-0.02325582504272461 0.11627912521362305 0.7011799812316895
-0.02325582504272461 0.11627912521362305 0.7863949537277222
-0.02325582504272461 0.1317828893661499 -0.9850263595581055
-0.02325582504272461 0.1317828893661499 -0.18125927448272705
-0.02325582504272461 0.1317828893661499 0.7268638610839844
-0.02325582504272461 0.1317828893661499 0.8086634278297424
-0.02325582504272461 0.1472867727279663 -0.7103819847106934
-0.02325582504272461 0.1472867727279663 -0.48797062039375305
-0.02325582504272461 0.1472867727279663 0.7645872235298157
-0.02325582504272461 0.1472867727279663 0.8333498239517212
-0.02325582504272461 0.16279065608978271 0.7946369647979736
-0.02325582504272461 0.16279065608978271 0.8608846068382263
-0.02325582504272461 0.17829453945159912 0.8266335725784302
-0.02325582504272461 0.17829453945159912 0.8931493759155273
-0.02325582504272461 0.19379842281341553 0.8677592277526855
-0.02325582504272461 0.19379842281341553 0.9301714897155762
-0.02325582504272461 0.20930230617523193 0.8899181485176086
-0.02325582504272461 0.20930230617523193 0.9484847187995911
-0.02325582504272461 0.22480618953704834 0.9041507840156555
-0.02325582504272461 0.22480618953704834 0.9500546455383301
-0.02325582504272461 0.24031007289886475 0.927427351474762
-0.02325582504272461 0.24031007289886475 0.9439995288848877
-0.007751941680908203 -0.1627907156944275 -0.7535918354988098
-0.007751941680908203 -0.1627907156944275 -0.6844052672386169
-0.007751941680908203 -0.14728683233261108 -0.6285387873649597
-0.007751941680908203 -0.14728683233261108 -0.6278108954429626
-0.007751941680908203 -0.11627906560897827 -0.9540135860443115
-0.007751941680908203 -0.11627906560897827 -0.9521982073783875
-0.007751941680908203 -0.10077518224716187 -0.9727697372436523
-0.007751941680908203 -0.10077518224716187 -0.9608590602874756
-0.007751941680908203 -0.08527129888534546 -0.27437907457351685
-0.007751941680908203 -0.08527129888534546 -0.23441258072853088
-0.007751941680908203 -0.06976741552352905 -0.2496691197156906
-0.00775194214656949 -0.06976741552352905 -0.02013203129172325
-0.007751941680908203 -0.05426359176635742 -0.6630748510360718
-0.007751941680908203 -0.05426359549164772 -0.5478477478027344
-0.007751941680908203 -0.05426359176635742 -0.3008861839771271
-0.007751941680908203 -0.05426359176635742 0.08891058713197708
-0.007751941680908203 -0.038759708404541016 -0.8404695987701416
-0.007751941680908203 -0.038759708404541016 0.17121367156505585
-0.007751941680908203 -0.02325582504272461 -0.9381405711174011
-0.007751941680908203 -0.02325582504272461 0.23572343587875366
-0.007751941680908203 -0.007751941680908203 -0.9717710614204407
-0.007751941680908203 -0.007751941680908203 0.29353898763656616
-0.007751941680908203 0.007751941680908203 -0.9766284227371216
-0.007751941680908203 0.007751941680908203 0.04863568767905235
-0.007751941680908203 0.007751941680908203 0.10687078535556793
-0.007751941680908203 0.007751941680908203 0.3498544692993164
-0.007751941680908203 0.02325582504272461 -0.976386308670044
-0.00775194214656949 0.02325582504272461 -0.08287069946527481
-0.007751941680908203 0.02325582504272461 0.27944040298461914
-0.007751941680908203 0.02325582504272461 0.413390189409256
-0.007751941680908203 0.038759708404541016 -0.9738047122955322
-0.007751941680908203 0.038759708404541016 -0.11143256723880768
-0.007751941215246916 0.038759708404541016 0.41155824065208435
-0.007751941680908203 0.038759708404541016 0.5058323740959167
-0.007751941680908203 0.05426359176635742 -0.9758238196372986
-0.007751941680908203 0.05426359176635742 -0.128355473279953
-0.007751941680908203 0.05426359176635742 0.5004081726074219
-0.007751941680908203 0.05426359176635742 0.6394721865653992
-0.007751941680908203 0.06976747512817383 -0.9770160913467407
-0.007751941680908203 0.06976747512817383 -0.14434994757175446
-0.007751941680908203 0.06976747512817383 0.5734072923660278
-0.007751941215246916 0.06976747512817383 0.696527898311615
-0.007751941680908203 0.08527135848999023 -0.9791581034660339
-0.00775194214656949 0.08527136594057083 -0.15941369533538818
-0.007751941680908203 0.08527136594057083 0.6456613540649414
-0.007751941680908203 0.08527135848999023 0.7333921790122986
-0.007751941680908203 0.10077524185180664 -0.9831882119178772
-0.007751941680908203 0.10077524185180664 -0.16383258998394012
-0.007751941680908203 0.10077524185180664 0.6826423406600952
-0.007751941680908203 0.10077524185180664 0.7620681524276733
-0.007751941680908203 0.11627912521362305 -0.9848202466964722
-0.007751941680908203 0.11627912521362305 -0.15906190872192383
-0.007751941680908203 0.11627912521362305 0.7032015323638916
-0.00775194214656949 0.11627912521362305 0.7851759195327759
-0.007751941680908203 0.1317828893661499 -0.9853524565696716
-0.007751941680908203 0.1317828893661499 -0.1900891661643982
-0.007751941680908203 0.1317828893661499 0.7293285131454468
-0.007751941680908203 0.1317828893661499 0.8065235614776611
-0.007751941680908203 0.1472867727279663 -0.7142642736434937
-0.007751941680908203 0.1472867727279663 -0.48175758123397827
-0.007751941680908203 0.1472867727279663 0.7657765746116638
-0.00775194214656949 0.1472867727279663 0.8313246369361877
-0.007751941680908203 0.16279065608978271 0.7975044846534729
-0.007751941680908203 0.16279065608978271 0.8588758111000061
-0.007751941680908203 0.17829453945159912 0.8289165496826172
-0.007751941680908203 0.17829453945159912 0.8906694650650024
-0.007751941680908203 0.19379842281341553 0.8706352114677429
-0.007751941680908203 0.19379842281341553 0.9306517839431763
-0.007751941680908203 0.20930230617523193 0.8995475172996521
-0.007751941680908203 0.20930230617523193 0.9492687582969666
-0.007751941680908203 0.22480618953704834 0.9084623456001282
-0.007751941680908203 0.22480618953704834 0.9515389204025269
-0.00775194214656949 0.24031007289886475 0.927944540977478
-0.007751941680908203 0.24031007289886475 0.9455463886260986
0.007751941680908203 -0.1627907156944275 -0.753432035446167
0.007751941680908203 -0.1627907156944275 -0.6841421127319336
0.007751941680908203 -0.11627906560897827 -0.9537700414657593
0.007751941680908203 -0.11627906560897827 -0.9526309370994568
0.007751941680908203 -0.10077518224716187 -0.9724661111831665
0.007751941680908203 -0.10077518224716187 -0.959968090057373
0.007751941680908203 -0.08527129888534546 -0.2869824767112732
0.007751941680908203 -0.08527129888534546 -0.23510342836380005
0.007751941680908203 -0.06976741552352905 -0.6186977624893188
0.007751941680908203 -0.06976741552352905 -0.6104148030281067
0.00775194214656949 -0.06976741552352905 -0.2546306550502777
0.007751941680908203 -0.06976741552352905 -0.020451951771974564
0.007751941680908203 -0.05426359176635742 -0.6657910346984863
0.007751941680908203 -0.05426359176635742 -0.5479350686073303
0.007751941680908203 -0.05426359176635742 -0.29937490820884705
0.007751941680908203 -0.05426359176635742 0.09148505330085754
0.007751941680908203 -0.038759708404541016 -0.8698726296424866
0.007751941680908203 -0.038759708404541016 0.17425291240215302
0.007751941680908203 -0.02325582504272461 -0.9383937120437622
0.007751941680908203 -0.02325582504272461 0.2377062439918518
0.007751941680908203 -0.007751941680908203 -0.9714685678482056
0.007751941680908203 -0.007751941680908203 0.29471355676651
0.007751941680908203 0.007751941680908203 -0.9765942096710205
0.007751941680908203 0.007751941680908203 0.049989428371191025
0.007751941680908203 0.007751941680908203 0.10449797660112381
0.007751941680908203 0.007751941680908203 0.35042133927345276
0.007751941680908203 0.02325582504272461 -0.9763644933700562
0.007751941680908203 0.02325582504272461 -0.08136435598134995
0.007751941680908203 0.02325582504272461 0.27010291814804077
0.00775194214656949 0.02325582504272461 0.41403454542160034
0.007751941680908203 0.038759708404541016 -0.9735375642776489
0.007751941680908203 0.038759708404541016 -0.11094967275857925
0.007751941680908203 0.038759708404541016 0.41001397371292114
0.007751941680908203 0.038759708404541016 0.5063350200653076
0.007751941680908203 0.05426359176635742 -0.9756073951721191
0.007751941680908203 0.05426359176635742 -0.12886404991149902
0.007751941680908203 0.05426359176635742 0.49958354234695435
0.007751941680908203 0.05426359176635742 0.6425046324729919
0.007751941680908203 0.06976747512817383 -0.9768110513687134
0.007751941680908203 0.06976747512817383 -0.1455688774585724
0.007751941680908203 0.06976747512817383 0.5725716948509216
0.007751941680908203 0.06976747512817383 0.6993629932403564
0.007751941680908203 0.08527135848999023 -0.9789605140686035
0.00775194214656949 0.08527135848999023 -0.16206365823745728
0.007751941680908203 0.08527135848999023 0.6444717049598694
0.007751941680908203 0.08527135848999023 0.7355583906173706
0.007751941680908203 0.10077523440122604 -0.9829058647155762
0.007751941680908203 0.10077524185180664 -0.16922864317893982
0.007751941680908203 0.10077524185180664 0.6821718215942383
0.007751941680908203 0.10077524185180664 0.7638309001922607
0.007751941680908203 0.11627912521362305 -0.984784722328186
0.007751941680908203 0.11627912521362305 -0.16165345907211304
0.007751941680908203 0.11627912521362305 0.703459620475769
0.007751941680908203 0.11627912521362305 0.7862767577171326
0.007751941680908203 0.1317828893661499 -0.9853578805923462
0.007751941680908203 0.1317828893661499 -0.19200590252876282
0.007751941680908203 0.1317828893661499 0.7300593852996826
0.007751941680908203 0.1317828893661499 0.8074573278427124
0.007751941680908203 0.1472867727279663 -0.7190621495246887
0.007751941680908203 0.1472867727279663 -0.47566738724708557
0.007751941680908203 0.1472867727279663 0.7667099833488464
0.007751941680908203 0.1472867727279663 0.8318569660186768
0.007751941680908203 0.16279065608978271 0.7981419563293457
0.007751941680908203 0.16279065608978271 0.8598496317863464
0.007751941680908203 0.17829453945159912 0.8292627930641174
0.007751941680908203 0.17829453945159912 0.892134428024292
0.007751941680908203 0.19379842281341553 0.8694150447845459
0.007751941680908203 0.19379842281341553 0.9323914051055908
0.007751941680908203 0.20930230617523193 0.8989827036857605
0.007751941680908203 0.20930230617523193 0.9496850371360779
0.007751941215246916 0.22480618953704834 0.9079395532608032
0.007751941680908203 0.22480618953704834 0.9518733024597168
0.007751941680908203 0.24031007289886475 0.9278234839439392
0.007751941680908203 0.24031007289886475 0.9457768797874451
0.02325582504272461 -0.1627907156944275 -0.7391246557235718
0.02325582504272461 -0.1627907156944275 -0.6905142068862915
0.02325582504272461 -0.14728683233261108 -0.6501315236091614
0.02325582504272461 -0.14728683233261108 -0.6238265037536621
0.02325582504272461 -0.10077518224716187 -0.9703370332717896
0.02325582504272461 -0.10077518224716187 -0.9596555233001709
0.02325582504272461 -0.08527129888534546 -0.30251094698905945
0.02325582504272461 -0.08527129888534546 -0.23605605959892273
0.02325582504272461 -0.06976741552352905 -0.25634509325027466
0.02325582504272461 -0.06976741552352905 -0.016188228502869606
0.02325582504272461 -0.05426359176635742 -0.6662818193435669
0.02325582504272461 -0.05426359176635742 -0.5426754951477051
0.02325582504272461 -0.05426359176635742 -0.2900809049606323
0.02325582504272461 -0.05426358804106712 0.10348176211118698
0.02325582504272461 -0.038759708404541016 -0.8981862664222717
0.02325582504272461 -0.038759708404541016 0.18238894641399384
0.02325582504272461 -0.02325582504272461 -0.9402361512184143
0.02325582504272461 -0.02325582504272461 0.2383555769920349
0.02325582504272461 -0.007751941680908203 -0.9715933799743652
0.02325582504272461 -0.007751941680908203 0.2932504713535309
0.02325582504272461 0.007751941680908203 -0.9765673875808716
0.02325582504272461 0.007751941680908203 0.0264805406332016
0.02325582504272461 0.007751941680908203 0.15030407905578613
0.02325582504272461 0.007751941680908203 0.3500863313674927
0.02325582504272461 0.02325582504272461 -0.976323127746582
0.02325582504272461 0.02325582504272461 -0.0794224962592125
0.02325582504272461 0.02325582504272461 0.30311527848243713
0.02325582504272461 0.02325582504272461 0.41318240761756897
0.02325582504272461 0.038759708404541016 -0.9732726812362671
0.02325582504272461 0.038759708404541016 -0.10958246141672134
0.02325582504272461 0.038759708404541016 0.41380980610847473
0.02325582504272461 0.038759708404541016 0.5138273239135742
0.02325582504272461 0.05426359176635742 -0.9752669334411621
0.02325582504272461 0.05426359549164772 -0.13070930540561676
0.02325582504272461 0.05426359176635742 0.49102121591567993
0.02325582504272461 0.05426359176635742 0.6489222049713135
0.02325582504272461 0.06976747512817383 -0.9766086935997009
0.02325582504272461 0.06976747512817383 -0.14983882009983063
0.02325582504272461 0.06976747512817383 0.5666893124580383
0.02325582504272461 0.06976747512817383 0.7091796398162842
0.02325582504272461 0.08527135848999023 -0.9784009456634521
0.02325582504272461 0.08527135848999023 -0.17204499244689941
0.02325582504272461 0.08527135848999023 0.6511616706848145
0.02325582504272461 0.08527135848999023 0.7385005950927734
0.02325582504272461 0.10077524185180664 -0.9807401299476624
0.02325582504272461 0.10077524185180664 -0.1774374395608902
0.02325582504272461 0.10077524185180664 0.6859058737754822
0.02325582504272461 0.10077524185180664 0.7651083469390869
0.02325582504272461 0.11627912521362305 -0.983142614364624
0.02325582504272461 0.11627912521362305 -0.16903483867645264
0.02325582504272461 0.11627912521362305 0.7025987505912781
0.02325582504272461 0.11627912521362305 0.787162721157074
0.02325582504272461 0.1317828893661499 -0.9850042462348938
0.02325582504272461 0.1317828893661499 -0.19108977913856506
0.02325582504272461 0.1317828893661499 0.7288845181465149
0.02325582504272461 0.1317828893661499 0.8093444108963013
0.02325582504272461 0.1472867727279663 -0.7247518301010132
0.02325582504272461 0.1472867727279663 -0.47102147340774536
0.02325582504272461 0.1472867727279663 0.766963541507721
0.02325582504272461 0.1472867727279663 0.8330487012863159
0.02325582504272461 0.16279065608978271 0.7964861989021301
0.02325582504272461 0.16279065608978271 0.8593856692314148
0.02325582504272461 0.17829453945159912 0.8280110359191895
0.02325582504272461 0.17829453945159912 0.8926023244857788
0.02325582504272461 0.19379842281341553 0.8681567907333374
0.02325582504272461 0.19379842281341553 0.9320189952850342
0.02325582504272461 0.20930230617523193 0.8914852738380432
0.02325582504272461 0.20930230617523193 0.9490699768066406
0.02325582504272461 0.22480618953704834 0.9045082330703735
0.02325582504272461 0.22480618953704834 0.9506984949111938
0.02325582504272461 0.24031007289886475 0.9270884394645691
0.02325582504272461 0.24031007289886475 0.9446593523025513
0.038759708404541016 -0.11627906560897827 -0.49974319338798523
0.038759708404541016 -0.11627906560897827 -0.43966352939605713
0.038759708404541016 -0.10077518224716187 -0.9548871517181396
0.038759712129831314 -0.10077518969774246 -0.9533176422119141
0.038759708404541016 -0.08527129888534546 -0.3024778962135315
0.038759708404541016 -0.08527129888534546 -0.24745206534862518
0.038759708404541016 -0.06976741552352905 -0.2257889211177826
0.038759708404541016 -0.06976741552352905 -0.017161719501018524
0.038759708404541016 -0.05426359176635742 -0.6631655097007751
0.038759708404541016 -0.05426359176635742 -0.5430723428726196
0.038759708404541016 -0.05426359176635742 -0.26038670539855957
0.038759708404541016 -0.05426359176635742 -0.13395951688289642
0.038759712129831314 -0.05426359176635742 -0.09790109843015671
0.038759708404541016 -0.05426359176635742 0.09724198281764984
0.038759708404541016 -0.038759708404541016 -0.9037971496582031
0.038759708404541016 -0.038759708404541016 0.16721339523792267
0.038759708404541016 -0.02325582504272461 -0.9406477808952332
0.038759708404541016 -0.02325582504272461 0.21309708058834076
0.038759708404541016 -0.007751941680908203 -0.9704868197441101
0.038759708404541016 -0.007751941680908203 0.05718613788485527
0.038759708404541016 -0.007751941680908203 0.1341070830821991
0.038759708404541016 -0.007751941680908203 0.23963287472724915
0.038759708404541016 0.007751941680908203 -0.9753292798995972
0.038759708404541016 0.007751941680908203 0.01389654166996479
0.038759708404541016 0.02325582504272461 -0.9749962091445923
0.038759708404541016 0.02325582504272461 -0.09001428633928299
0.038759708404541016 0.038759708404541016 -0.9721095561981201
0.038759708404541016 0.038759708404541016 -0.11963000148534775
0.038759708404541016 0.038759708404541016 0.4500409960746765
0.038759708404541016 0.038759708404541016 0.50873863697052
0.038759708404541016 0.05426359176635742 -0.9739869832992554
0.038759708404541016 0.05426359176635742 -0.14482982456684113
0.038759708404541016 0.05426359176635742 0.5495326519012451
0.038759708404541016 0.05426359176635742 0.633522629737854
0.038759708404541016 0.06976747512817383 -0.9757807850837708
0.038759708404541016 0.06976747512817383 -0.17753463983535767
0.038759708404541016 0.06976747512817383 0.5935361385345459
0.038759708404541016 0.06976747512817383 0.6546781659126282
0.038759708404541016 0.06976747512817383 0.6606223583221436
0.038759708404541016 0.06976747512817383 0.7133243083953857
0.038759708404541016 0.08527135848999023 -0.9775148034095764
0.038759708404541016 0.08527135848999023 -0.19858413934707642
0.038759708404541016 0.08527135848999023 0.6886167526245117
0.038759708404541016 0.08527135848999023 0.7385209798812866
0.038759708404541016 0.10077523440122604 -0.9790416955947876
0.038759708404541016 0.10077524185180664 -0.19303134083747864
0.038759708404541016 0.10077524185180664 0.6987438797950745
0.038759708404541016 0.10077524185180664 0.7663588523864746
0.038759708404541016 0.11627912521362305 -0.9805729985237122
0.038759708404541016 0.11627912521362305 -0.1827099770307541
0.038759708404541016 0.11627912521362305 0.7051504254341125
0.038759708404541016 0.11627912521362305 0.7883826494216919
0.038759708404541016 0.1317828893661499 -0.9840778112411499
0.038759708404541016 0.1317828893661499 -0.18995341658592224
0.038759708404541016 0.1317828893661499 0.7314764857292175
0.038759708404541016 0.1317828893661499 0.8122031092643738
0.038759708404541016 0.1472867727279663 -0.7342374920845032
0.038759708404541016 0.1472867727279663 -0.4596211612224579
0.038759708404541016 0.1472867727279663 0.7690353393554688
0.038759708404541016 0.1472867727279663 0.8340403437614441
0.038759708404541016 0.16279065608978271 0.7953277230262756
0.038759708404541016 0.16279065608978271 0.856661319732666
0.038759708404541016 0.17829453945159912 0.8288969993591309
0.038759708404541016 0.17829453945159912 0.8951495885848999
0.038759708404541016 0.19379842281341553 0.8723405003547668
0.038759708404541016 0.19379842281341553 0.9304345846176147
0.038759708404541016 0.20930230617523193 0.8875994086265564
0.038759708404541016 0.20930230617523193 0.9479260444641113
0.038759708404541016 0.22480618953704834 0.9016882181167603
0.038759708404541016 0.22480618953704834 0.9486555457115173
0.038759708404541016 0.24031007289886475 0.9300651550292969
0.038759708404541016 0.24031007289886475 0.9410997033119202
0.05426359176635742 -0.11627905815839767 -0.4970895051956177
0.05426359176635742 -0.11627906560897827 -0.46760791540145874
0.05426359176635742 -0.10077518224716187 -0.9541124701499939
0.05426359176635742 -0.10077518224716187 -0.9532557725906372
0.05426359176635742 -0.05426359176635742 -0.6618536114692688
0.05426359176635742 -0.05426359176635742 -0.5435137748718262
0.05426359176635742 -0.05426359176635742 -0.04335838556289673
0.05426359176635742 -0.05426359176635742 0.014382938854396343
0.05426359176635742 -0.038759708404541016 -0.8980793952941895
0.05426359176635742 -0.038759708404541016 -0.19109903275966644
0.05426359176635742 -0.038759708404541016 -0.16912499070167542
0.05426359176635742 -0.038759708404541016 -0.13613645732402802
0.05426359176635742 -0.038759708404541016 -0.07573838531970978
0.05426359176635742 -0.038759708404541016 0.031393490731716156
0.05426359176635742 -0.02325582504272461 -0.9384005069732666
0.05426359176635742 -0.02325582318007946 0.03928825631737709
0.05426359176635742 -0.007751941680908203 -0.967242419719696
0.05426359176635742 -0.007751941680908203 0.03183303400874138
0.05426359176635742 0.007751941680908203 -0.9735985994338989
0.05426359176635742 0.007751941680908203 0.013705970719456673
0.05426359176635742 0.02325582504272461 -0.9732048511505127
0.05426359176635742 0.02325582504272461 -0.12270382046699524
0.05426359176635742 0.038759708404541016 -0.9705836772918701
0.05426359176635742 0.038759708404541016 -0.23472829163074493
0.05426359176635742 0.038759708404541016 -0.20381098985671997
0.05426359176635742 0.038759708404541016 -0.15680326521396637
0.05426359176635742 0.05426359176635742 -0.9721288681030273
0.05426359176635742 0.05426359176635742 -0.23381710052490234
0.05426359176635742 0.06976747512817383 -0.9739347100257874
0.05426359176635742 0.06976747512817383 -0.2224654257297516
0.05426359176635742 0.08527135848999023 -0.9757211208343506
0.05426359176635742 0.08527135848999023 -0.21609067916870117
0.05426359176635742 0.10077524185180664 -0.9772341251373291
0.05426359176635742 0.10077524185180664 -0.2057742178440094
0.05426359176635742 0.10077524185180664 0.7264319658279419
0.05426359176635742 0.10077524185180664 0.7567495107650757
0.05426359176635742 0.11627912521362305 -0.9784479141235352
0.05426359176635742 0.11627912521362305 -0.19276724755764008
0.05426359176635742 0.11627913266420364 0.7239992022514343
0.05426359176635742 0.11627912521362305 0.7876266837120056
0.05426359176635742 0.1317828893661499 -0.9800220727920532
0.05426359549164772 0.1317828893661499 -0.19081149995326996
0.05426359176635742 0.1317828893661499 0.7701348662376404
0.05426358804106712 0.1317828893661499 0.8148213624954224
0.05426359176635742 0.1472867727279663 -0.7441717386245728
0.05426359176635742 0.1472867727279663 -0.4465142488479614
0.05426359176635742 0.1472867727279663 0.7856985330581665
0.05426359176635742 0.1472867727279663 0.8336905241012573
0.05426359176635742 0.16279065608978271 0.8017676472663879
0.05426359176635742 0.16279065608978271 0.8478430509567261
0.05426359176635742 0.17829453945159912 0.8677358627319336
0.05426359176635742 0.17829453945159912 0.8973262310028076
0.05426359176635742 0.19379842281341553 0.8876174688339233
0.05426359176635742 0.19379842281341553 0.9251662492752075
0.05426359176635742 0.20930230617523193 0.9020688533782959
0.05426359176635742 0.20930230617523193 0.9444466829299927
0.05426359176635742 0.22480618953704834 0.9115146398544312
0.05426359176635742 0.22480618953704834 0.9441114664077759
0.06976747512817383 -0.10077518224716187 -0.9544330835342407
0.06976747512817383 -0.10077518224716187 -0.9523254036903381
0.06976747512817383 -0.05426359176635742 -0.6641416549682617
0.06976747512817383 -0.05426359176635742 -0.5309338569641113
0.06976747512817383 -0.05426359176635742 -0.04054359719157219
0.06976747512817383 -0.05426359176635742 0.006753377616405487
0.06976747512817383 -0.038759708404541016 -0.8921345472335815
0.06976747512817383 -0.038759708404541016 -0.22731024026870728
0.06976747512817383 -0.038759708404541016 -0.06836796551942825
0.06976747512817383 -0.038759708404541016 0.02645287662744522
0.06976747512817383 -0.02325582504272461 -0.9304717183113098
0.06976747512817383 -0.02325582504272461 -0.12479452788829803
0.06976747512817383 -0.02325582504272461 -0.1078633964061737
0.06976747512817383 -0.02325582504272461 0.030389294028282166
0.06976747512817383 -0.007751941680908203 -0.9574570655822754
0.06976747512817383 -0.007751941680908203 0.028170283883810043
0.06976747512817383 0.007751941680908203 -0.971695065498352
0.06976747512817383 0.007751941680908203 -0.13353560864925385
0.06976747512817383 0.007751941680908203 -0.09160459786653519
0.06976747512817383 0.007751941680908203 0.020210174843668938
0.06976747512817383 0.02325582504272461 -0.971284806728363
0.06976747512817383 0.02325582504272461 -0.22523704171180725
0.06976747512817383 0.02325582504272461 -0.04904846474528313
0.06976747512817383 0.02325582504272461 -0.004785048775374889
0.06976747512817383 0.038759708404541016 -0.9691692590713501
0.06976747512817383 0.038759708404541016 -0.23275119066238403
0.06976747512817383 0.05426359176635742 -0.9698436260223389
0.06976747512817383 0.05426359176635742 -0.23096172511577606
0.06976747512817383 0.06976747512817383 -0.9711628556251526
0.06976747512817383 0.06976747512817383 -0.2226535677909851
0.06976747512817383 0.08527135848999023 -0.9728202819824219
0.06976747512817383 0.08527135848999023 -0.2169802486896515
0.06976747512817383 0.10077524185180664 -0.9744418263435364
0.06976747512817383 0.10077524185180664 -0.20750153064727783
0.06976747512817383 0.11627912521362305 -0.9755386114120483
0.06976747512817383 0.11627912521362305 -0.19749824702739716
0.06976747512817383 0.1317828893661499 -0.9758917093276978
0.06976747512817383 0.1317829042673111 -0.19309945404529572
0.06976747512817383 0.1317828893661499 0.7961763143539429
0.06976747512817383 0.1317828893661499 0.8030942678451538
0.06976747512817383 0.1472867727279663 -0.7491704225540161
0.06976747512817383 0.1472867727279663 -0.45187586545944214
0.06976747512817383 0.1472867727279663 0.795937180519104
0.06976747512817383 0.1472867727279663 0.8140074610710144
0.08527135848999023 -0.10077518224716187 -0.9395453333854675
0.08527135848999023 -0.10077518224716187 -0.9376890659332275
0.08527135848999023 -0.05426359176635742 -0.6701973676681519
0.08527135848999023 -0.05426359176635742 -0.49701806902885437
0.08527135848999023 -0.05426359176635742 -0.029777899384498596
0.08527135848999023 -0.05426359176635742 -0.014935274608433247
0.08527135848999023 -0.038759708404541016 -0.8902689218521118
0.08527135848999023 -0.038759708404541016 -0.21664685010910034
0.08527135848999023 -0.038759708404541016 -0.07878895848989487
0.08527135103940964 -0.03875970467925072 0.025162816047668457
0.08527135848999023 -0.02325582504272461 -0.9248025417327881
0.08527135848999023 -0.02325582504272461 0.028827279806137085
0.08527135848999023 -0.007751941680908203 -0.952088475227356
0.08527135848999023 -0.007751941680908203 0.02712903544306755
0.08527135848999023 0.007751941680908203 -0.9698967933654785
0.08527135848999023 0.007751941215246916 0.023301901295781136
0.08527135848999023 0.02325582504272461 -0.9696552157402039
0.08527135848999023 0.02325582504272461 -0.18681570887565613
0.08527135848999023 0.02325582504272461 -0.07381924241781235
0.08527135848999023 0.02325582504272461 0.007722331210970879
0.08527135848999023 0.038759708404541016 -0.9661333560943604
0.08527135848999023 0.038759708404541016 -0.19658097624778748
0.08527135848999023 0.05426359176635742 -0.9670292735099792
0.08527135848999023 0.05426359176635742 -0.20137514173984528
0.08527136594057083 0.06976747512817383 -0.9681769013404846
0.08527135848999023 0.06976747512817383 -0.2030729502439499
0.08527135848999023 0.08527135848999023 -0.9695404767990112
0.08527135848999023 0.08527135848999023 -0.20452672243118286
0.08527135848999023 0.10077524185180664 -0.9709683060646057
0.08527135848999023 0.10077524185180664 -0.20149901509284973
0.08527135848999023 0.11627912521362305 -0.9719487428665161
0.08527135848999023 0.11627912521362305 -0.1941668540239334
0.08527135848999023 0.11627912521362305 0.7970664501190186
0.08527135848999023 0.11627912521362305 0.7998054027557373
0.08527135848999023 0.1317828893661499 -0.9722889065742493
0.08527135848999023 0.1317828893661499 -0.19245247542858124
0.08527135848999023 0.1317828893661499 0.7960296869277954
0.08527135848999023 0.1317828893661499 0.8157520294189453
0.08527135848999023 0.1472867727279663 -0.753865122795105
