-0.08527129888534546 -0.09101998060941696 -0.27131783962249756
-0.08527129888534546 -0.0878356397151947 -0.25581395626068115
-0.08527129888534546 -0.08598741143941879 -0.24031007289886475
-0.08527129888534546 -0.08384117484092712 -0.22480618953704834
-0.08527129888534546 -0.07962777465581894 -0.20930230617523193
-0.08527129888534546 -0.07609498500823975 -0.19379842281341553
-0.08527129888534546 -0.07391027361154556 -0.1782945990562439
-0.08527129888534546 -0.07249119132757187 -0.1627907156944275
-0.08527129888534546 -0.07146207243204117 -0.14728683233261108
-0.08527129888534546 -0.07054713368415833 -0.13178294897079468
-0.08527129888534546 -0.06978166103363037 -0.11627906560897827
-0.08527129888534546 -0.06316918879747391 -0.10077518224716187
-0.08527129888534546 -0.054328612983226776 -0.08527129888534546
-0.08527129888534546 -0.03884145990014076 -0.05426359176635742
-0.08527129888534546 -0.04438646137714386 -0.038759708404541016
-0.08527129888534546 -0.04299844428896904 -0.02325582504272461
-0.08527129888534546 -0.028832290321588516 -0.06976741552352905
-0.08527129888534546 -0.023354988545179367 -0.007751941680908203
-0.08527129888534546 -0.023169802501797676 -0.00775194214656949
-0.08527129888534546 0.011455918662250042 -0.9689922332763672
-0.08527129888534546 0.010167935863137245 -0.9534883499145508
-0.08527130633592606 0.009669750928878784 -0.9379844665527344
-0.08527129888534546 0.010720349848270416 -0.9224807024002075
-0.08527129888534546 0.01399029791355133 -0.9069767594337463
-0.08527129888534546 0.02184031717479229 -0.8914728760719299
-0.08527129888534546 0.02255873940885067 -0.02325582504272461
-0.08527129888534546 0.024610428139567375 -0.8759690523147583
-0.08527129888534546 0.02696310542523861 -0.8604650497436523
-0.08527129888534546 0.03148888796567917 -0.8449612259864807
-0.08527129888534546 0.03767840191721916 -0.8294573426246643
-0.08527129888534546 0.03982333093881607 -0.8139534592628479
-0.08527129888534546 0.041220057755708694 -0.7984496355056763
-0.08527129888534546 0.0432593896985054 -0.7829457521438599
-0.08527129888534546 0.04713396728038788 -0.7674418687820435
-0.08527129888534546 0.05260501056909561 -0.751937985420227
-0.08527129888534546 0.05294495448470116 -0.038759708404541016
-0.08527129888534546 0.05507871136069298 -0.7364341020584106
-0.08527129888534546 0.05579867586493492 -0.720930278301239
-0.08527129888534546 0.0563165619969368 -0.7054263353347778
-0.08527129888534546 0.0566876158118248 -0.6899224519729614
-0.08527129888534546 0.05693994462490082 -0.674418568611145
-0.08527129143476486 0.057339005172252655 -0.6589146852493286
-0.08527129888534546 0.05804958939552307 -0.643410861492157
-0.08527129888534546 0.05909401923418045 -0.6279070377349854
-0.08527129888534546 0.0600508376955986 -0.6124030947685242
-0.08527129888534546 0.06108603999018669 -0.5968992114067078
-0.08527129888534546 0.06175364926457405 -0.5813953876495361
-0.08527129888534546 0.06176605075597763 -0.5658915042877197
-0.08527129888534546 0.061118707060813904 -0.5503876209259033
-0.08527129888534546 0.06013573706150055 -0.5348837375640869
-0.08527129888534546 0.059265464544296265 -0.5193798542022705
-0.08527129888534546 0.05821850150823593 -0.5038759708404541
-0.08527129888534546 0.05718909204006195 -0.4883721172809601
-0.08527129888534546 0.05638628080487251 -0.4728682041168213
-0.08527129888534546 0.05616652965545654 -0.4573643207550049
-0.08527129143476486 0.0565115287899971 -0.4418604373931885
-0.08527129888534546 0.05737718939781189 -0.42635661363601685
-0.08527129888534546 0.058775369077920914 -0.41085273027420044
-0.08527129888534546 0.060594573616981506 -0.39534884691238403
-0.08527129888534546 0.06233824044466019 -0.3798449635505676
-0.08527129888534546 0.06424909085035324 -0.3643410801887512
-0.08527129888534546 0.06591176986694336 -0.3488371968269348
-0.08527129888534546 0.06718344241380692 -0.3333333134651184
-0.08527129888534546 0.06794462352991104 -0.317829430103302
-0.08527129888534546 0.06783604621887207 -0.30232560634613037
-0.08527129888534546 0.06631313264369965 -0.28682172298431396
-0.08527129888534546 0.06468144804239273 -0.27131783962249756
-0.08527129888534546 0.0640261247754097 -0.25581395626068115
-0.08527129888534546 0.06426742672920227 -0.24031007289886475
-0.08527129888534546 0.06625290215015411 -0.22480618953704834
-0.08527129888534546 0.06965858489274979 -0.10077518224716187
-0.08527129888534546 0.061175376176834106 -0.08527129888534546
-0.08527129888534546 0.057853277772665024 -0.06976741552352905
-0.08527129888534546 0.05654047802090645 -0.05426359176635742
-0.08527129888534546 0.06983404606580734 -0.20930230617523193
-0.08527129888534546 0.07058858871459961 -0.19379842281341553
-0.08527129888534546 0.07121357321739197 -0.1782945990562439
-0.08527129888534546 0.07169204205274582 -0.1627907156944275
-0.08527129888534546 0.07178694754838943 -0.14728683233261108
-0.08527129888534546 0.07153502851724625 -0.13178294897079468
-0.08527129888534546 0.07091797888278961 -0.11627906560897827
-0.06976741552352905 -0.14919352531433105 -0.9689922332763672
-0.06976741552352905 -0.14754383265972137 -0.9534883499145508
-0.06976741552352905 -0.14766700565814972 -0.6899224519729614
-0.06976741552352905 -0.14785829186439514 -0.674418568611145
-0.06976741552352905 -0.1480041891336441 -0.6589146852493286
-0.06976741552352905 -0.14814870059490204 -0.643410861492157
-0.06976741552352905 -0.14817331731319427 -0.6279069781303406
-0.06976741552352905 -0.14773933589458466 -0.6124030947685242
-0.06976741552352905 -0.1423230916261673 -0.9379844665527344
-0.06976741552352905 -0.14206171035766602 -0.9224807024002075
-0.06976741552352905 -0.1408495008945465 -0.9069768190383911
-0.06976741552352905 -0.13991817831993103 -0.8914728760719299
-0.06976741552352905 -0.13990508019924164 -0.8759690523147583
-0.06976741552352905 -0.13941577076911926 -0.8604651093482971
-0.06976741552352905 -0.1397174894809723 -0.8449612855911255
-0.06976741552352905 -0.14023026823997498 -0.8294573426246643
-0.06976741552352905 -0.13972854614257812 -0.8139535188674927
-0.06976741552352905 -0.1397610604763031 -0.7984496355056763
-0.06976741552352905 -0.1393221765756607 -0.7829457521438599
-0.06976741552352905 -0.13991695642471313 -0.7674418687820435
-0.06976741552352905 -0.14144185185432434 -0.751937985420227
-0.06976741552352905 -0.14395762979984283 -0.7364341020584106
-0.06976741552352905 -0.14598073065280914 -0.7209301590919495
-0.06976741552352905 -0.14725494384765625 -0.7054263353347778
-0.06976741552352905 -0.14640788733959198 -0.596899151802063
-0.06976741552352905 -0.14285330474376678 -0.5813953876495361
-0.06976741552352905 -0.13997875154018402 -0.5658915042877197
-0.06976741552352905 -0.13814777135849 -0.5503876209259033
-0.06976741552352905 -0.13687266409397125 -0.5348837375640869
-0.06976741552352905 -0.1361108422279358 -0.5193798542022705
-0.06976741552352905 -0.13552679121494293 -0.5038759708404541
-0.06976741552352905 -0.13499461114406586 -0.4883720874786377
-0.06976741552352905 -0.13439279794692993 -0.4728682041168213
-0.06976741552352905 -0.13388220965862274 -0.4573643207550049
-0.06976741552352905 -0.1334216296672821 -0.4418604373931885
-0.06976741552352905 -0.13276052474975586 -0.42635661363601685
-0.06976741552352905 -0.13205046951770782 -0.41085273027420044
-0.06976741552352905 -0.1288091093301773 -0.39534884691238403
-0.06976741552352905 -0.1224706619977951 -0.3798449635505676
-0.06976741552352905 -0.11669640243053436 -0.3643410801887512
-0.06976741552352905 -0.0935329794883728 -0.30232560634613037
-0.06976741552352905 -0.10017712414264679 -0.2868216931819916
-0.06976741552352905 -0.09520665556192398 -0.27131783962249756
-0.06976741552352905 -0.09088018536567688 -0.25581395626068115
-0.06976741552352905 -0.08847411721944809 -0.24031007289886475
-0.06976741552352905 -0.0869239866733551 -0.22480618953704834
-0.06976741552352905 -0.08569706231355667 -0.20930230617523193
-0.06976741552352905 -0.08507098257541656 -0.3488371968269348
-0.06976741552352905 -0.08398398756980896 -0.3333333134651184
-0.06976741552352905 -0.08481786400079727 -0.317829430103302
-0.06976741552352905 -0.08159288018941879 -0.19379842281341553
-0.06976741552352905 -0.0759471207857132 -0.1782945990562439
-0.06976741552352905 -0.07335935533046722 -0.1627907156944275
-0.06976741552352905 -0.0721137523651123 -0.14728683233261108
-0.06976741552352905 -0.070872962474823 -0.13178294897079468
-0.06976741552352905 -0.03216668590903282 -0.11627905815839767
-0.06976741552352905 -0.03252553567290306 -0.038759708404541016
-0.06976741552352905 -0.026451289653778076 -0.02325582504272461
-0.06976741552352905 -0.01461837813258171 -0.9844961166381836
-0.06976741552352905 -0.01651262678205967 -0.10077518224716187
-0.06976741552352905 -0.017414642497897148 -0.05426359176635742
-0.06976741552352905 0.004359673708677292 -0.9844961166381836
-0.06976741552352905 -0.0072416821494698524 -0.08527129888534546
-0.06976741552352905 -0.004533408209681511 -0.06976741552352905
-0.06976741552352905 -0.0003864383324980736 -0.02325582504272461
-0.06976741552352905 0.011517046950757504 -0.9689922332763672
-0.06976741552352905 0.009889960289001465 -0.9534883499145508
-0.06976741552352905 0.009656189009547234 -0.9379845261573792
-0.06976741552352905 0.010929921641945839 -0.9224806427955627
-0.06976741552352905 0.014489013701677322 -0.9069767594337463
-0.06976741552352905 0.022790031507611275 -0.8914728760719299
-0.06976741552352905 0.02497490867972374 -0.8759689927101135
-0.06976741552352905 0.02767001837491989 -0.8604651093482971
-0.06976741552352905 0.03225858137011528 -0.8449612259864807
-0.06976741552352905 0.03746664524078369 -0.8294573426246643
-0.06976741552352905 0.038692764937877655 -0.038759708404541016
-0.06976741552352905 0.0394633524119854 -0.8139535188674927
-0.06976741552352905 0.040635474026203156 -0.7984496355056763
-0.06976741552352905 0.042077623307704926 -0.7829457521438599
-0.06976741552352905 0.0449344739317894 -0.7674418687820435
-0.06976741552352905 0.04877861961722374 -0.751937985420227
-0.06976741552352905 0.05418238788843155 -0.7364341020584106
-0.06976741552352905 0.052244868129491806 -0.06976741552352905
-0.06976741552352905 0.04599852114915848 -0.05426359176635742
-0.06976741552352905 0.05527888983488083 -0.7209302186965942
-0.06976741552352905 0.056114763021469116 -0.7054262757301331
-0.06976741552352905 0.0568181574344635 -0.6899224519729614
-0.06976741552352905 0.057473719120025635 -0.674418568611145
-0.06976741552352905 0.058331750333309174 -0.6589146852493286
-0.06976741552352905 0.05954478681087494 -0.643410861492157
-0.06976741552352905 0.06103339418768883 -0.6279070377349854
-0.06976741552352905 0.06251445412635803 -0.6124030947685242
-0.06976741552352905 0.06416516751050949 -0.5968992114067078
-0.06976741552352905 0.06527743488550186 -0.5813953876495361
-0.06976741552352905 0.06539008766412735 -0.5658915042877197
-0.06976741552352905 0.06448235362768173 -0.5503876209259033
-0.06976741552352905 0.06273886561393738 -0.5348837375640869
-0.06976741552352905 0.06077493727207184 -0.5193798542022705
-0.06976741552352905 0.05860253795981407 -0.5038759708404541
-0.06976741552352905 0.05674520134925842 -0.4883720874786377
-0.06976741552352905 0.05542752891778946 -0.4728682339191437
-0.06976741552352905 0.05475325137376785 -0.4573643207550049
-0.06976741552352905 0.0548257976770401 -0.4418604373931885
-0.06976741552352905 0.0556320995092392 -0.42635661363601685
-0.06976741552352905 0.05690959841012955 -0.41085273027420044
-0.06976741552352905 0.05884929001331329 -0.39534884691238403
-0.06976741552352905 0.06048322468996048 -0.3798449635505676
-0.06976741552352905 0.06197085976600647 -0.3643410801887512
-0.06976741552352905 0.06319337338209152 -0.3488371968269348
-0.06976741552352905 0.06420398503541946 -0.3333333134651184
-0.06976741552352905 0.06436897814273834 -0.317829430103302
-0.06976741552352905 0.0626654177904129 -0.30232560634613037
-0.06976741552352905 0.06009610742330551 -0.28682172298431396
-0.06976741552352905 0.05836714804172516 -0.27131783962249756
-0.06976741552352905 0.05751590430736542 -0.25581395626068115
-0.06976741552352905 0.05749432370066643 -0.24031007289886475
-0.06976741552352905 0.058647941797971725 -0.22480618953704834
-0.06976741552352905 0.06133873760700226 -0.20930230617523193
-0.06976741552352905 0.06665243953466415 -0.19379842281341553
-0.06976741552352905 0.06207353621721268 -0.10077518224716187
-0.06976741552352905 0.05663788318634033 -0.08527129888534546
-0.06976740807294846 0.07020232081413269 -0.1782945990562439
-0.06976741552352905 0.07079025357961655 -0.1627907156944275
-0.06976741552352905 0.07089167088270187 -0.14728683233261108
-0.06976741552352905 0.07063291221857071 -0.13178294897079468
-0.06976741552352905 0.06981392204761505 -0.11627906560897827
-0.06976741552352905 0.12319400161504745 0.8294574022293091
-0.06976741552352905 0.12413196265697479 0.8449612855911255
-0.06976741552352905 0.13516117632389069 0.8294574022293091
-0.06976741552352905 0.13717828691005707 0.8449612855911255
-0.05426359176635742 -0.14914748072624207 -0.9689922332763672
-0.05426359176635742 -0.14768913388252258 -0.643410861492157
-0.05426359176635742 -0.14845429360866547 -0.6279069781303406
-0.05426359176635742 -0.14860160648822784 -0.6124030947685242
-0.05426359176635742 -0.14824257791042328 -0.5968992114067078
-0.05426359176635742 -0.14774015545845032 -0.5813953876495361
-0.05426359176635742 -0.13837958872318268 -0.9534883499145508
-0.05426359176635742 -0.13528352975845337 -0.9379844665527344
-0.05426359176635742 -0.13495783507823944 -0.9224806427955627
-0.05426359176635742 -0.1341877281665802 -0.9069767594337463
-0.05426359176635742 -0.13353759050369263 -0.8914728760719299
-0.05426359176635742 -0.13346700370311737 -0.8759689927101135
-0.05426359176635742 -0.13322576880455017 -0.8604651093482971
-0.05426359176635742 -0.13316085934638977 -0.8449612259864807
-0.05426359176635742 -0.13319113850593567 -0.8294573426246643
-0.05426359176635742 -0.13282369077205658 -0.8139535188674927
-0.05426359176635742 -0.13288003206253052 -0.7984496355056763
-0.05426359176635742 -0.13293488323688507 -0.7829457521438599
-0.05426359176635742 -0.13378402590751648 -0.7674418687820435
-0.05426359176635742 -0.13572242856025696 -0.751937985420227
-0.05426359176635742 -0.13870328664779663 -0.7364341020584106
-0.05426359176635742 -0.14162540435791016 -0.7209302186965942
-0.05426359176635742 -0.14180506765842438 -0.7054263353347778
-0.05426359176635742 -0.14110098779201508 -0.6899224519729614
-0.05426359176635742 -0.1422978937625885 -0.674418568611145
-0.05426359176635742 -0.14535880088806152 -0.6589146852493286
-0.05426359176635742 -0.14673051238059998 -0.5658915042877197
-0.05426359176635742 -0.14412406086921692 -0.5503876209259033
-0.05426359176635742 -0.14243051409721375 -0.5348837375640869
-0.05426359176635742 -0.14123602211475372 -0.5193798542022705
-0.05426359176635742 -0.13946816325187683 -0.5038759708404541
-0.05426359176635742 -0.13795296847820282 -0.4883720874786377
-0.05426359176635742 -0.1370549350976944 -0.4728682041168213
-0.05426359176635742 -0.13684366643428802 -0.4573643207550049
-0.05426359176635742 -0.1369895040988922 -0.4418604373931885
-0.05426359176635742 -0.13663417100906372 -0.42635661363601685
-0.05426359176635742 -0.13607695698738098 -0.41085273027420044
-0.05426359176635742 -0.13552279770374298 -0.39534884691238403
-0.05426359176635742 -0.13467088341712952 -0.3798449635505676
-0.05426359176635742 -0.13343305885791779 -0.3643410801887512
-0.05426359176635742 -0.13239455223083496 -0.3488371968269348
-0.05426359176635742 -0.12167511880397797 -0.3798449635505676
-0.05426359176635742 -0.12613539397716522 -0.3643410801887512
-0.05426359176635742 -0.12919741868972778 -0.3488371968269348
-0.05426359176635742 -0.11423537880182266 -0.39534884691238403
-0.05426359176635742 -0.08062902092933655 -0.39534884691238403
-0.05426359176635742 -0.06993383914232254 -0.10077518224716187
-0.05426359176635742 -0.06986569613218307 -0.08527129888534546
-0.05426359176635742 -0.06722453236579895 -0.3798449635505676
-0.05426359176635742 -0.06520704925060272 -0.3643410801887512
-0.05426359176635742 -0.06615505367517471 -0.3488371968269348
-0.05426359176635742 -0.06863880902528763 -0.3333333134651184
-0.05426358804106712 -0.06926911324262619 -0.317829430103302
-0.05426359549164772 -0.06828094273805618 -0.30232560634613037
-0.05426359176635742 -0.06721126288175583 -0.28682172298431396
-0.05426359176635742 -0.06913408637046814 -0.27131783962249756
-0.05426359176635742 -0.0681849867105484 -0.25581395626068115
-0.05426359176635742 -0.06549946218729019 -0.24031007289886475
-0.05426359176635742 -0.06290748715400696 -0.22480618953704834
-0.05426359176635742 -0.05860878527164459 -0.20930230617523193
-0.05426359176635742 -0.06801328808069229 -0.06976741552352905
-0.05426359176635742 -0.06589855253696442 -0.05426359176635742
-0.05426359176635742 -0.06247613579034805 -0.038759708404541016
-0.05426359176635742 -0.059543196111917496 -0.02325582504272461
-0.05426359176635742 -0.057464517652988434 -0.007751941680908203
-0.05426359176635742 -0.05538984015583992 0.007751941680908203
-0.05426359176635742 -0.05285942927002907 -0.19379842281341553
-0.05426359176635742 -0.04405335336923599 -0.1782945990562439
-0.05426359176635742 -0.04870771989226341 -0.10077518224716187
-0.05426358804106712 -0.036836426705121994 -0.9844960570335388
-0.05426359176635742 -0.03780197352170944 -0.1627907156944275
-0.05426359176635742 -0.03255373612046242 -0.14728683233261108
-0.05426359176635742 -0.026482675224542618 -0.13178294897079468
-0.05426359176635742 -0.03555089235305786 -0.08527130633592606
-0.05426359176635742 -0.030094299465417862 -0.06976741552352905
-0.05426359176635742 -0.030977938324213028 -0.007751941680908203
-0.05426359176635742 -0.03773327171802521 0.007751941680908203
-0.05426359176635742 -0.015144173055887222 -0.11627906560897827
-0.05426359176635742 -0.016851216554641724 -0.05426359176635742
-0.05426359176635742 -0.009662363678216934 -0.038759708404541016
-0.05426359176635742 -0.018574757501482964 -0.02325582504272461
-0.05426359176635742 -0.003151452401652932 -0.10077518224716187
-0.05426359176635742 0.008644992485642433 -0.9844961166381836
-0.05426359176635742 0.011435291729867458 -0.9689922332763672
-0.05426359176635742 0.009532086551189423 -0.9534883499145508
-0.05426359176635742 0.009510925970971584 -0.9379844665527344
-0.05426359176635742 0.010998619720339775 -0.9224806427955627
-0.05426359176635742 0.014591796323657036 -0.9069766998291016
-0.05426359176635742 0.022530386224389076 -0.8914728760719299
-0.05426359176635742 0.011926749721169472 -0.08527129888534546
-0.05426359176635742 0.025185808539390564 -0.8759689927101135
-0.05426359176635742 0.028107818216085434 -0.8604650497436523
-0.05426359176635742 0.031876884400844574 -0.8449612259864807
-0.05426359176635742 0.035239893943071365 -0.8294572830200195
-0.05426359176635742 0.03765784949064255 -0.8139535188674927
-0.05426359176635742 0.03911842033267021 -0.7984496355056763
-0.05426359176635742 0.039930474013090134 -0.7829456925392151
-0.05426359176635742 0.0416380949318409 -0.7674418687820435
-0.05426359176635742 0.044239867478609085 -0.751937985420227
-0.05426359176635742 0.048267707228660583 -0.7364341020584106
-0.05426359176635742 0.05369069054722786 -0.7209302186965942
-0.05426359176635742 0.05058974772691727 -0.4573643207550049
-0.05426359176635742 0.05006841570138931 -0.4418604373931885
-0.05426359176635742 0.053472474217414856 -0.42635661363601685
-0.05426359176635742 0.050187814980745316 -0.08527129888534546
-0.05426359176635742 0.055387843400239944 -0.7054263353347778
-0.05426359176635742 0.05644939839839935 -0.6899224519729614
-0.05426359176635742 0.05760983005166054 -0.674418568611145
-0.05426359176635742 0.059142038226127625 -0.6589146852493286
-0.05426359176635742 0.060954730957746506 -0.643410861492157
-0.05426359176635742 0.06243564188480377 -0.6279069781303406
-0.05426359176635742 0.06399701535701752 -0.6124030947685242
-0.05426359176635742 0.06597259640693665 -0.5968992114067078
-0.05426359176635742 0.06772195547819138 -0.5813953876495361
-0.05426359176635742 0.06807538121938705 -0.5658915042877197
-0.05426359176635742 0.06693622469902039 -0.5503876209259033
-0.05426359176635742 0.06464599072933197 -0.5348837375640869
-0.05426359176635742 0.061678532510995865 -0.5193798542022705
-0.05426359176635742 0.0586603581905365 -0.5038759708404541
-0.05426359176635742 0.056234169751405716 -0.4883720874786377
-0.05426359176635742 0.054622430354356766 -0.4728682041168213
-0.05426359176635742 0.055108241736888885 -0.41085273027420044
-0.05426358804106712 0.05653947591781616 -0.39534884691238403
-0.05426359176635742 0.05750761181116104 -0.3798449635505676
-0.05426359176635742 0.05813015624880791 -0.3643410801887512
-0.05426359176635742 0.05844900757074356 -0.3488371968269348
-0.05426359176635742 0.05873245745897293 -0.3333333134651184
-0.05426359176635742 0.058730147778987885 -0.317829430103302
-0.05426359176635742 0.05767809972167015 -0.30232560634613037
-0.05426358804106712 0.0563652366399765 -0.28682172298431396
-0.05426359176635742 0.0553954653441906 -0.27131783962249756
-0.05426359176635742 0.05463796481490135 -0.25581395626068115
-0.05426359176635742 0.05440395697951317 -0.24031007289886475
-0.05426359176635742 0.05490558594465256 -0.22480618953704834
-0.05426359176635742 0.055991336703300476 -0.20930229127407074
-0.05426358804106712 0.058501362800598145 -0.19379842281341553
-0.05426359176635742 0.06169947236776352 -0.1782945990562439
-0.05426359176635742 0.06453461199998856 -0.1627907156944275
-0.05426359176635742 0.06565236300230026 -0.14728683233261108
-0.05426359176635742 0.06481245160102844 -0.13178294897079468
-0.05426359176635742 0.061559341847896576 -0.11627906560897827
-0.05426359176635742 0.0573168620467186 -0.10077518224716187
-0.05426359176635742 0.06840171664953232 0.7209302186965942
-0.05426359176635742 0.06881412118673325 0.7364341020584106
-0.05426359176635742 0.08376406133174896 0.751937985420227
-0.05426359176635742 0.10817509889602661 0.7209302186965942
-0.05426359176635742 0.11089373379945755 0.751937985420227
-0.05426359176635742 0.11497601866722107 0.7829457521438599
-0.05426359176635742 0.11231635510921478 0.8294574022293091
-0.05426359176635742 0.11225870251655579 0.8449612855911255
-0.05426359176635742 0.1168055459856987 0.7364341020584106
-0.05426359549164772 0.11706002056598663 0.7829457521438599
-0.05426359176635742 0.1164504811167717 0.8604651689529419
-0.05426359176635742 0.12837277352809906 0.9069766998291016
-0.05426359176635742 0.12351496517658234 0.922480583190918
-0.05426359176635742 0.1257479190826416 0.9379844665527344
-0.05426359176635742 0.12720593810081482 0.9534883499145508
-0.05426359176635742 0.13487689197063446 0.8294574022293091
-0.05426359176635742 0.13679441809654236 0.8449612855911255
-0.05426359176635742 0.13780798017978668 0.8604651689529419
-0.05426359549164772 0.1371607631444931 0.9069766998291016
-0.05426359176635742 0.1490674912929535 0.922480583190918
-0.05426359176635742 0.15194466710090637 0.9379844665527344
-0.05426359176635742 0.15928493440151215 0.9534883499145508
-0.038759708404541016 -0.1497846394777298 -0.9689922332763672
-0.038759708404541016 -0.1478770226240158 -0.643410861492157
-0.038759708404541016 -0.14888887107372284 -0.6279069781303406
-0.038759708404541016 -0.1492116004228592 -0.6124030947685242
-0.038759708404541016 -0.14892612397670746 -0.5968992114067078
-0.038759708404541016 -0.14845524728298187 -0.5813953876495361
-0.038759708404541016 -0.14792989194393158 -0.5658915042877197
-0.038759708404541016 -0.147438645362854 -0.5503876209259033
-0.038759708404541016 -0.13629461824893951 -0.9534883499145508
-0.038759708404541016 -0.13377924263477325 -0.9379844665527344
-0.038759708404541016 -0.13333876430988312 -0.9224806427955627
-0.038759708404541016 -0.13252827525138855 -0.9069767594337463
-0.038759708404541016 -0.13192573189735413 -0.8914728760719299
-0.038759708404541016 -0.13195335865020752 -0.8759689927101135
-0.038759708404541016 -0.13195225596427917 -0.8604651093482971
-0.038759708404541016 -0.13199514150619507 -0.8449612259864807
-0.038759708404541016 -0.13205495476722717 -0.8294573426246643
-0.038759708404541016 -0.13183698058128357 -0.7984496355056763
-0.038759708404541016 -0.13188189268112183 -0.7829457521438599
-0.038759708404541016 -0.13264989852905273 -0.7674418687820435
-0.038759708404541016 -0.1341460794210434 -0.751937985420227
-0.038759708404541016 -0.13673663139343262 -0.7364341020584106
-0.038759708404541016 -0.13989779353141785 -0.7209302186965942
-0.038759708404541016 -0.1400659680366516 -0.7054263353347778
-0.038759708404541016 -0.1387297511100769 -0.6899224519729614
-0.038759708404541016 -0.13975077867507935 -0.674418568611145
-0.038759708404541016 -0.14411796629428864 -0.6589146852493286
-0.03875970467925072 -0.14587077498435974 -0.5348837375640869
-0.038759708404541016 -0.14402498304843903 -0.5193798542022705
-0.038759708404541016 -0.14125025272369385 -0.5038759708404541
-0.038759708404541016 -0.13863107562065125 -0.4883720874786377
-0.038759708404541016 -0.13845820724964142 -0.4728682041168213
-0.038759708404541016 -0.13896039128303528 -0.4573643207550049
-0.038759708404541016 -0.13909226655960083 -0.4418604373931885
-0.038759708404541016 -0.13811230659484863 -0.42635661363601685
-0.038759708404541016 -0.13679689168930054 -0.41085273027420044
-0.038759708404541016 -0.13610108196735382 -0.39534884691238403
-0.038759708404541016 -0.13566911220550537 -0.3798449635505676
-0.038759708404541016 -0.13463732600212097 -0.3643410801887512
-0.038759708404541016 -0.13353122770786285 -0.3488371968269348
-0.038759708404541016 -0.1322096288204193 -0.3333333134651184
-0.038759708404541016 -0.13174843788146973 -0.8139535784721375
-0.038759708404541016 -0.12214745581150055 -0.41085273027420044
-0.038759708404541016 -0.1263497769832611 -0.39534884691238403
-0.038759708404541016 -0.1275539994239807 -0.37984499335289
-0.038759708404541016 -0.12807011604309082 -0.3643410801887512
-0.038759708404541016 -0.12871834635734558 -0.3488371670246124
-0.038759708404541016 -0.13028892874717712 -0.3333333134651184
-0.038759708404541016 -0.10947922617197037 -0.27131783962249756
-0.038759708404541016 -0.10443733632564545 -0.25581395626068115
-0.038759708404541016 -0.10135088860988617 -0.24031007289886475
-0.038759708404541016 -0.09581863880157471 -0.22480618953704834
-0.038759708404541016 -0.09404754638671875 -0.20930230617523193
-0.038759708404541016 -0.09257471561431885 -0.19379842281341553
-0.038759708404541016 -0.09030367434024811 -0.1782945990562439
-0.038759708404541016 -0.08854927122592926 -0.1627907156944275
-0.038759708404541016 -0.08679427951574326 -0.14728683233261108
-0.038759708404541016 -0.08543579280376434 -0.13178294897079468
-0.038759708404541016 -0.0808367058634758 -0.41085273027420044
-0.038759708404541016 -0.06978173553943634 -0.39534884691238403
-0.038759708404541016 -0.07017643004655838 -0.3333333134651184
-0.038759708404541016 -0.07151999324560165 -0.317829430103302
-0.038759708404541016 -0.07255557924509048 -0.30232560634613037
-0.038759708404541016 -0.07818052172660828 -0.28682172298431396
-0.038759708404541016 -0.08018908649682999 -0.11627906560897827
-0.038759708404541016 -0.07573377341032028 -0.10077518224716187
-0.038759708404541016 -0.07301366329193115 -0.08527129888534546
-0.038759708404541016 -0.07086026668548584 -0.06976741552352905
-0.038759708404541016 -0.05998515337705612 -0.9844961166381836
-0.038759708404541016 -0.06592999398708344 -0.3798449635505676
-0.038759708404541016 -0.06564567238092422 -0.3643410801887512
-0.038759708404541016 -0.06736554950475693 -0.3488371670246124
-0.038759708404541016 -0.06954185664653778 -0.05426359176635742
-0.038759708404541016 -0.06603988260030746 -0.038759708404541016
-0.038759708404541016 -0.06262210011482239 -0.02325582504272461
-0.038759708404541016 -0.060002200305461884 -0.007751941680908203
-0.038759708404541016 -0.058104339987039566 0.007751941680908203
-0.038759708404541016 -0.05647041276097298 0.02325582504272461
-0.038759708404541016 -0.05514705926179886 0.038759708404541016
-0.038759708404541016 -0.05389722064137459 0.05426359176635742
-0.038759708404541016 -0.05049120634794235 0.06976747512817383
-0.038759708404541016 -0.04625977948307991 0.08527135848999023
-0.038759708404541016 -0.04307125508785248 0.10077524185180664
-0.038759708404541016 -0.040837302803993225 0.11627912521362305
-0.038759708404541016 -0.03946252912282944 0.1317828893661499
-0.038759708404541016 -0.03495049849152565 0.1472867727279663
-0.038759708404541016 -0.030743230134248734 0.16279065608978271
-0.038759708404541016 -0.027405600994825363 0.17829453945159912
-0.038759708404541016 -0.024952493607997894 0.19379842281341553
-0.038759708404541016 -0.02347496896982193 0.20930230617523193
-0.038759708404541016 -0.016738317906856537 -0.08527129888534546
-0.038759708404541016 -0.015212414786219597 -0.06976741552352905
-0.038759708404541016 -0.011409901082515717 -0.05426359176635742
-0.038759708404541016 -0.01036718301475048 -0.038759708404541016
-0.038759708404541016 -0.015439612790942192 -0.02325582504272461
-0.038759708404541016 -0.020140962675213814 -0.007751941680908203
-0.038759708404541016 -0.021787414327263832 0.007751941680908203
-0.038759708404541016 -0.021950608119368553 0.02325582504272461
-0.038759708404541016 -0.021027009934186935 0.038759708404541016
-0.038759708404541016 -0.01988973468542099 0.05426359176635742
-0.038759708404541016 -0.018676556646823883 0.06976747512817383
-0.038759708404541016 -0.017759719863533974 0.08527135848999023
-0.038759708404541016 -0.016947835683822632 0.10077524185180664
-0.038759708404541016 -0.01672748290002346 0.11627912521362305
-0.038759708404541016 -0.01698300801217556 0.1317828893661499
-0.038759708404541016 -0.016813214868307114 0.1472867727279663
-0.038759708404541016 -0.01632668823003769 0.16279065608978271
-0.038759708404541016 -0.016383424401283264 0.17829453945159912
-0.038759708404541016 -0.017421729862689972 0.19379842281341553
-0.038759708404541016 -0.02140338160097599 0.20930230617523193
-0.038759708404541016 -0.008301839232444763 0.28682172298431396
-0.038759708404541016 -0.00837930478155613 0.30232560634613037
-0.038759708404541016 -0.006636425852775574 0.28682172298431396
-0.038759712129831314 -0.0050169299356639385 0.30232560634613037
-0.038759708404541016 0.009031906723976135 -0.9844961166381836
-0.038759708404541016 0.01103368028998375 -0.9689922332763672
-0.03875970467925072 0.009054278023540974 -0.9534883499145508
-0.038759708404541016 0.009092559106647968 -0.9379844665527344
-0.038759708404541016 0.01054411567747593 -0.9224806427955627
-0.038759708404541016 0.013585935346782207 -0.9069768190383911
-0.038759708404541016 0.02089599147439003 -0.8914728760719299
-0.038759708404541016 0.02489340677857399 -0.8759689927101135
-0.038759708404541016 0.027574967592954636 -0.8604651689529419
-0.038759708404541016 0.03074168786406517 -0.8449611663818359
-0.038759708404541016 0.03299766033887863 -0.8294573426246643
-0.038759708404541016 0.034061893820762634 -0.8139535188674927
-0.038759708404541016 0.03529486060142517 -0.7984496355056763
-0.038759708404541016 0.03763171285390854 -0.7829457521438599
-0.038759708404541016 0.02346865087747574 -0.08527129888534546
-0.038759708404541016 0.03707039728760719 0.5038759708404541
-0.038759708404541016 0.037122998386621475 0.5193798542022705
-0.038759708404541016 0.0373091883957386 0.5348837375640869
-0.038759708404541016 0.03779207915067673 0.5503876209259033
-0.038759708404541016 0.03860488533973694 0.5658915042877197
-0.038759708404541016 0.039801932871341705 -0.7674418687820435
-0.038759708404541016 0.04166577011346817 -0.751937985420227
-0.038759708404541016 0.044996120035648346 -0.7364341020584106
-0.038759708404541016 0.05033193528652191 -0.7209302186965942
-0.038759708404541016 0.051716744899749756 -0.4573643207550049
-0.038759708404541016 0.051056601107120514 -0.4418604373931885
-0.038759708404541016 0.053315598517656326 -0.25581395626068115
-0.038759708404541016 0.050997138023376465 -0.24031007289886475
-0.038759708404541016 0.05250810459256172 -0.22480618953704834
-0.038759708404541016 0.04081813991069794 -0.08527129888534546
-0.038759708404541016 0.03949509933590889 0.5038759708404541
-0.038759708404541016 0.04260866716504097 0.5193798542022705
-0.038759708404541016 0.049621645361185074 0.5348837375640869
-0.038759708404541016 0.0471966415643692 0.5813953876495361
-0.038759708404541016 0.05052409693598747 0.5968992710113525
-0.038759708404541016 0.051766782999038696 0.612403154373169
-0.038759708404541016 0.052783023566007614 0.6279069185256958
-0.038759708404541016 0.05384998396039009 0.6434108018875122
-0.038759708404541016 0.054970093071460724 -0.7054263353347778
-0.038759708404541016 0.05619886517524719 -0.6899224519729614
-0.038759708404541016 0.05805829167366028 -0.674418568611145
-0.038759708404541016 0.060855165123939514 -0.6589146852493286
-0.038759708404541016 0.06417819857597351 -0.643410861492157
-0.038759708404541016 0.06605107337236404 -0.6279069781303406
-0.038759708404541016 0.06719659268856049 -0.6124030947685242
-0.038759708404541016 0.06886107474565506 -0.5968992114067078
-0.038759708404541016 0.0696781724691391 -0.5503876209259033
-0.038759708404541016 0.06705504655838013 -0.5348837375640869
-0.038759708404541016 0.06285449862480164 -0.5193798542022705
-0.038759708404541016 0.05897486209869385 -0.5038759708404541
-0.038759708404541016 0.056285373866558075 -0.4883720874786377
-0.038759708404541016 0.05477364733815193 -0.4728682041168213
-0.038759708404541016 0.054272476583719254 -0.42635661363601685
-0.038759708404541016 0.055003587156534195 -0.41085273027420044
-0.038759712129831314 0.05601250380277634 -0.39534884691238403
-0.038759708404541016 0.05638102442026138 -0.3798449635505676
-0.038759708404541016 0.05645599961280823 -0.3643410801887512
-0.038759708404541016 0.056340284645557404 -0.3488371968269348
-0.038759708404541016 0.05627347528934479 -0.3333333134651184
-0.038759708404541016 0.05625683441758156 -0.317829430103302
-0.038759708404541016 0.05580749735236168 -0.30232560634613037
-0.038759708404541016 0.05525226518511772 -0.28682172298431396
-0.038759712129831314 0.05478232353925705 -0.27131783962249756
-0.038759708404541016 0.05477853864431381 -0.20930230617523193
-0.038759708404541016 0.05608321726322174 -0.19379842281341553
-0.038759708404541016 0.05784960836172104 -0.1782945990562439
-0.038759708404541016 0.05957747623324394 -0.1627907156944275
-0.038759708404541016 0.060543034225702286 -0.14728683233261108
-0.038759708404541016 0.06014137715101242 -0.13178294897079468
-0.038759708404541016 0.057893283665180206 -0.11627906560897827
-0.038759708404541016 0.055088575929403305 -0.10077518224716187
-0.038759708404541016 0.05481962114572525 0.5503876209259033
-0.038759708404541016 0.05731190741062164 0.5658915042877197
-0.038759708404541016 0.06592168658971786 0.5813953876495361
-0.038759708404541016 0.060037191957235336 0.6589146852493286
-0.038759708404541016 0.06505361199378967 0.674418568611145
-0.038759708404541016 0.06722377240657806 0.6899224519729614
-0.038759708404541016 0.06846211850643158 0.7054263353347778
-0.038759708404541016 0.06907455623149872 0.7209302186965942
-0.038759708404541016 0.07005925476551056 -0.5813953876495361
-0.038759708404541016 0.0701698511838913 -0.5658915042877197
-0.038759708404541016 0.07106303423643112 0.5968992710113525
-0.038759708404541016 0.07297419011592865 0.612403154373169
-0.038759708404541016 0.07660576701164246 0.6279069185256958
-0.038759708404541016 0.08369703590869904 0.6434108018875122
-0.038759708404541016 0.07240504771471024 0.7364341020584106
-0.038759708404541016 0.08108881115913391 0.751937985420227
-0.038759708404541016 0.08664137870073318 0.6589146852493286
-0.038759708404541016 0.08883818238973618 0.674418568611145
-0.038759708404541016 0.0986742451786995 0.6899224519729614
-0.038759708404541016 0.08821438252925873 0.7674418687820435
-0.038759708404541016 0.09550982713699341 0.7829457521438599
-0.038759708404541016 0.09810932725667953 0.7984496355056763
-0.038759708404541016 0.09918124973773956 0.8139535188674927
-0.038759708404541016 0.10008196532726288 0.8294574022293091
-0.038759708404541016 0.10632099956274033 0.7054263353347778
-0.038759708404541016 0.11589133739471436 0.7209302186965942
-0.038759708404541016 0.10318507999181747 0.8449612855911255
-0.038759708404541016 0.10803400725126266 0.8604651689529419
-0.038759708404541016 0.11171823740005493 0.8759689331054688
-0.038759708404541016 0.113025963306427 0.8914728164672852
-0.038759708404541016 0.11367126554250717 0.9069766998291016
-0.038759708404541016 0.11465566605329514 0.922480583190918
-0.038759708404541016 0.116148941218853 0.9379844665527344
-0.038759708404541016 0.11804771423339844 0.7364341020584106
-0.038759708404541016 0.11949731409549713 0.751937985420227
-0.038759708404541016 0.12150341272354126 0.7674418687820435
-0.038759708404541016 0.1257988065481186 0.7829457521438599
-0.038759708404541016 0.1306932121515274 0.7984496355056763
-0.038759708404541016 0.1232086569070816 0.9534883499145508
-0.038759708404541016 0.1263256072998047 0.9689922332763672
-0.038759708404541016 0.13257916271686554 0.8139535188674927
-0.038759708404541016 0.13428935408592224 0.8294574022293091
-0.038759708404541016 0.13591665029525757 0.8449612855911255
-0.038759708404541016 0.1371508240699768 0.8604651689529419
-0.038759708404541016 0.13776028156280518 0.8759689331054688
-0.038759708404541016 0.14219266176223755 0.8914728164672852
-0.038759708404541016 0.14829599857330322 0.9069766998291016
-0.038759708404541016 0.1524471789598465 0.922480583190918
-0.038759708404541016 0.15872101485729218 0.9379844665527344
-0.038759708404541016 0.16435684263706207 0.9534883499145508
-0.038759708404541016 0.16351577639579773 0.968992292881012
-0.02325582504272461 -0.15015673637390137 -0.9689922332763672
-0.02325582504272461 -0.14751121401786804 -0.6589146852493286
-0.02325582504272461 -0.1487467885017395 -0.643410861492157
-0.02325582504272461 -0.14962077140808105 -0.6279069781303406
-0.02325582504272461 -0.14966118335723877 -0.6124030947685242
-0.02325582504272461 -0.14923356473445892 -0.5968992114067078
-0.02325582504272461 -0.14874452352523804 -0.5813953876495361
-0.02325582504272461 -0.14825747907161713 -0.5658915042877197
-0.02325582504272461 -0.14781220257282257 -0.5503876209259033
-0.02325582504272461 -0.14737668633460999 -0.5348837375640869
-0.02325582504272461 -0.13666902482509613 -0.9534883499145508
-0.02325582504272461 -0.13411399722099304 -0.9379844665527344
-0.02325582504272461 -0.13339029252529144 -0.9224806427955627
-0.02325582504272461 -0.13242235779762268 -0.9069767594337463
-0.02325582504272461 -0.13187725841999054 -0.8914728760719299
-0.02325582504272461 -0.13214103877544403 -0.8759689927101135
-0.02325582504272461 -0.13242150843143463 -0.8604651093482971
-0.02325582504272461 -0.1325925588607788 -0.8449612259864807
-0.02325582504272461 -0.13274209201335907 -0.8294572830200195
-0.02325582504272461 -0.13258500397205353 -0.8139535188674927
-0.02325582504272461 -0.1326301395893097 -0.7984496355056763
-0.02325582504272461 -0.1326390951871872 -0.7829457521438599
-0.02325582504272461 -0.1332111954689026 -0.7674418687820435
-0.02325582504272461 -0.1346934735774994 -0.751937985420227
-0.02325582504272461 -0.13766515254974365 -0.7364341020584106
-0.02325582504272461 -0.14081649482250214 -0.7209302186965942
-0.02325582504272461 -0.14127105474472046 -0.7054263353347778
-0.02325582504272461 -0.14064238965511322 -0.6899224519729614
-0.02325582504272461 -0.14252831041812897 -0.674418568611145
-0.02325582504272461 -0.14526677131652832 -0.5193798542022705
-0.02325582504272461 -0.1427362561225891 -0.5038759708404541
-0.02325582504272461 -0.14202700555324554 -0.4883720874786377
-0.02325582504272461 -0.14254489541053772 -0.4728682041168213
-0.02325582504272461 -0.1431729644536972 -0.4573643207550049
-0.02325582504272461 -0.14293476939201355 -0.4418604373931885
-0.02325582504272461 -0.14058633148670197 -0.42635661363601685
-0.02325582504272461 -0.13692179322242737 -0.41085273027420044
-0.02325582504272461 -0.13359463214874268 -0.39534884691238403
-0.02325582504272461 -0.12192919105291367 -0.3333333134651184
-0.02325582504272461 -0.12305977940559387 -0.317829430103302
-0.02325582504272461 -0.121650829911232 -0.30232560634613037
-0.02325582504272461 -0.11887695640325546 -0.28682172298431396
-0.02325582504272461 -0.11691822856664658 -0.27131783962249756
-0.02325582690536976 -0.1119634211063385 -0.25581395626068115
-0.02325582504272461 -0.10707312077283859 -0.24031007289886475
-0.02325582504272461 -0.10403266549110413 -0.22480618953704834
-0.02325582504272461 -0.1016274020075798 -0.20930230617523193
-0.02325582504272461 -0.08858887851238251 -0.9844961166381836
-0.02325582504272461 -0.08770308643579483 -0.3643410801887512
-0.02325582504272461 -0.0924997627735138 -0.3488371968269348
-0.02325582504272461 -0.098702073097229 -0.19379842281341553
-0.02325582504272461 -0.09434480965137482 -0.1782945990562439
-0.02325582504272461 -0.09105576574802399 -0.1627907156944275
-0.02325582504272461 -0.08823667466640472 -0.14728683233261108
-0.02325582504272461 -0.08566451817750931 -0.13178294897079468
-0.02325582690536976 -0.08492298424243927 -0.3798449635505676
-0.02325582504272461 -0.08177830278873444 -0.11627906560897827
-0.02325582504272461 -0.07767269760370255 -0.10077518224716187
-0.02325582504272461 -0.07468527555465698 -0.08527129888534546
-0.02325582504272461 -0.07196768373250961 -0.06976741552352905
-0.02325582504272461 -0.07021824270486832 -0.05426359176635742
-0.02325582504272461 -0.0676531195640564 -0.038759708404541016
-0.02325582504272461 -0.06470286101102829 -0.02325582504272461
-0.02325582504272461 -0.06184808164834976 -0.007751941680908203
-0.02325582504272461 -0.0595349445939064 0.007751941680908203
-0.02325582504272461 -0.05733397975564003 0.02325582504272461
-0.02325582504272461 -0.055737804621458054 0.038759708404541016
-0.02325582504272461 -0.05451501905918121 0.05426359176635742
-0.02325582504272461 -0.051355667412281036 0.06976747512817383
-0.02325582504272461 -0.04748023301362991 0.08527135848999023
-0.02325582504272461 -0.04459027573466301 0.10077524185180664
-0.02325582504272461 -0.04239606857299805 0.11627912521362305
-0.02325582504272461 -0.04076709970831871 0.1317828893661499
-0.02325582504272461 -0.03948909416794777 0.1472867727279663
-0.02325582690536976 -0.03751346096396446 0.1627906709909439
-0.02325582504272461 -0.03392528370022774 0.17829453945159912
-0.02325582504272461 -0.030155537649989128 0.19379842281341553
-0.02325582504272461 -0.027590150013566017 0.20930230617523193
-0.02325582504272461 -0.025656621903181076 0.22480618953704834
-0.02325582504272461 -0.024169843643903732 0.24031007289886475
-0.02325582504272461 -0.00972121860831976 -0.007751941680908203
-0.02325582504272461 -0.012078184634447098 0.007751941680908203
-0.02325582504272461 -0.011913394555449486 0.02325582504272461
-0.02325582504272461 -0.009767664596438408 0.038759708404541016
-0.02325582504272461 -0.021137859672307968 0.25581395626068115
-0.02325582504272461 -0.015413517132401466 0.27131783962249756
-0.02325582504272461 -0.011760883033275604 0.28682172298431396
-0.02325582504272461 -0.009948146529495716 0.30232560634613037
-0.02325582504272461 -0.008643869310617447 0.3178294897079468
-0.02325582504272461 0.005726510658860207 -0.06976741552352905
-0.02325582504272461 0.0016975076869130135 -0.05426359176635742
-0.02325582504272461 -0.0021072092931717634 -0.038759708404541016
-0.02325582504272461 -0.0063161663711071014 -0.02325582504272461
-0.02325582504272461 -0.0076688965782523155 0.05426359176635742
-0.02325582504272461 -0.006816823035478592 0.06976747512817383
-0.02325582504272461 -0.00616247346624732 0.08527136594057083
-0.02325582504272461 -0.005626317113637924 0.10077524185180664
-0.02325582504272461 -0.005340731702744961 0.11627912521362305
-0.02325582504272461 -0.005099047906696796 0.1317828893661499
-0.02325582504272461 -0.004571089521050453 0.1472867727279663
-0.02325582504272461 -0.0037558579351752996 0.16279065608978271
-0.02325582504272461 -0.002644296968355775 0.17829453945159912
-0.02325582504272461 -0.0013155131600797176 0.19379842281341553
-0.02325582504272461 0.00014727539382874966 0.20930230617523193
-0.02325582504272461 0.0015731144230812788 0.22480618953704834
-0.02325582504272461 0.0033147388603538275 0.24031007289886475
-0.02325582504272461 0.00556931272149086 0.25581395626068115
-0.02325582504272461 -0.005691264756023884 0.3333333730697632
-0.02325582504272461 0.0005623232573270798 0.3488372564315796
-0.02325582504272461 0.003976489417254925 0.364341139793396
-0.02325582504272461 0.005534868687391281 0.37984490394592285
-0.02325582504272461 0.006536283530294895 0.39534878730773926
-0.02325582504272461 0.007686193101108074 0.41085267066955566
-0.02325582504272461 0.009045235812664032 -0.9844961166381836
-0.02325582504272461 0.010559621267020702 -0.9689922332763672
-0.02325582504272461 0.008642640896141529 -0.9534883499145508
-0.02325582318007946 0.008653259836137295 -0.9379844069480896
-0.02325582504272461 0.010025299154222012 -0.9224806427955627
-0.02325582504272461 0.012379981577396393 -0.9069766998291016
-0.02325582504272461 0.018572984263300896 -0.8914728760719299
-0.02325582504272461 0.008077511563897133 0.27131783962249756
-0.02325582504272461 0.009446093812584877 0.28682172298431396
-0.02325582504272461 0.010714615695178509 0.30232560634613037
-0.02325582318007946 0.011894455179572105 0.3178294897079468
-0.02325582504272461 0.014489530585706234 0.3333333730697632
-0.02325582504272461 0.018169434741139412 0.3488372564315796
-0.02325582504272461 0.016495900228619576 0.42635655403137207
-0.02325582504272461 0.020215436816215515 0.4418604373931885
-0.02325582504272461 0.021402237936854362 0.4573643207550049
-0.02325582504272461 0.022230517119169235 0.4728682041168213
-0.02325582504272461 0.023237891495227814 0.4883720874786377
-0.02325582504272461 0.024380574002861977 -0.8759689927101135
-0.02325582504272461 0.026584114879369736 -0.8604651093482971
-0.02325582504272461 0.029335834085941315 -0.8449612855911255
-0.02325582504272461 0.03108546882867813 -0.8294573426246643
-0.02325582504272461 0.0317261703312397 -0.8139535188674927
-0.02325582504272461 0.03251033276319504 -0.7984496355056763
-0.02325582504272461 0.03416061028838158 -0.7829457521438599
-0.02325582504272461 0.023721659556031227 0.364341139793396
-0.02325582504272461 0.024973593652248383 0.37984490394592285
-0.02325582504272461 0.02611357346177101 0.39534878730773926
-0.02325582504272461 0.027381042018532753 0.41085267066955566
-0.02325582504272461 0.029513658955693245 0.42635655403137207
-0.02325582504272461 0.032960791140794754 0.4418604373931885
-0.02325582504272461 0.03324984014034271 0.5038759708404541
-0.02325582504272461 0.03594376519322395 0.5193798542022705
-0.02325582504272461 0.03698006644845009 0.5348837375640869
-0.02325582504272461 0.037924397736787796 0.5503876209259033
-0.02325582504272461 0.03883727639913559 -0.7674418687820435
-0.02325582690536976 0.04035097733139992 -0.751937985420227
-0.02325582504272461 0.042546480894088745 -0.7364341020584106
-0.02325582504272461 0.046645618975162506 -0.7209302186965942
-0.02325582504272461 0.052815355360507965 -0.4573643207550049
-0.02325582504272461 0.05247977003455162 -0.4418604373931885
-0.02325582504272461 0.053737446665763855 -0.24031007289886475
-0.02325582504272461 0.03999863937497139 -0.08527129888534546
-0.02325582504272461 0.038915231823921204 0.4573643207550049
-0.02325582504272461 0.03989723324775696 0.4728682041168213
-0.02325582504272461 0.04119015857577324 0.4883720874786377
-0.02325582504272461 0.043639056384563446 0.5038759708404541
-0.02325582504272461 0.05060534179210663 0.5193798542022705
-0.02325582504272461 0.041346579790115356 0.5658915042877197
