-0.28682172298431396 -0.08527129888534546 0.5479292869567871
-0.28682172298431396 -0.08527129888534546 0.5506619215011597
-0.28682172298431396 -0.06976741552352905 0.5400161743164062
-0.28682172298431396 -0.06976741552352905 0.5525147914886475
-0.28682172298431396 -0.05426359176635742 0.5452295541763306
-0.28682172298431396 -0.05426359176635742 0.5530177354812622
-0.27131783962249756 -0.05426359176635742 0.5486385226249695
-0.27131783962249756 -0.05426359176635742 0.551378607749939
-0.27131783962249756 -0.038759708404541016 0.5492860674858093
-0.27131783962249756 -0.038759708404541016 0.5517897009849548
-0.22480618953704834 -0.007751941680908203 0.5473799109458923
-0.22480618953704834 -0.007751941680908203 0.5602508187294006
-0.22480618953704834 0.007751941680908203 0.5449682474136353
-0.22480618953704834 0.007751941680908203 0.5664702653884888
-0.20930230617523193 -0.007751941680908203 0.5399608612060547
-0.20930230617523193 -0.007751941680908203 0.5615767240524292
-0.20930230617523193 0.007751941680908203 0.5328818559646606
-0.20930230617523193 0.007751941680908203 0.567378580570221
-0.20930230617523193 0.02325582504272461 0.5336361527442932
-0.20930230617523193 0.02325582504272461 0.5664703845977783
-0.19379842281341553 -0.1627907156944275 -0.07244792580604553
-0.19379842281341553 -0.1627907156944275 -0.05937473475933075
-0.19379842281341553 -0.14728683233261108 -0.08730881661176682
-0.19379842281341553 -0.14728683233261108 -0.036052558571100235
-0.19379842281341553 -0.13178294897079468 -0.08927229046821594
-0.19379842281341553 -0.13178294897079468 -0.021453749388456345
-0.19379842281341553 -0.11627906560897827 -0.08707723021507263
-0.19379842281341553 -0.11627906560897827 -0.008174791932106018
-0.19379842281341553 -0.10077518224716187 -0.07606083154678345
-0.19379842281341553 -0.10077518224716187 -0.0005243001505732536
-0.19379842281341553 -0.08527129888534546 -0.06133927404880524
-0.19379842281341553 -0.08527129888534546 0.0038347814697772264
-0.19379842281341553 -0.06976741552352905 -0.03944813087582588
-0.19379843771457672 -0.06976741552352905 -0.0031554007437080145
-0.19379842281341553 -0.007751941680908203 0.5329935550689697
-0.19379842281341553 -0.007751941680908203 0.556713342666626
-0.19379842281341553 0.007751941680908203 0.5259959697723389
-0.19379842281341553 0.007751941680908203 0.5672314167022705
-0.19379842281341553 0.02325582504272461 0.5245749950408936
-0.19379840791225433 0.02325582504272461 0.5674216151237488
-0.19379842281341553 0.038759708404541016 0.5296068787574768
-0.19379842281341553 0.038759708404541016 0.566544234752655
-0.19379842281341553 0.05426359176635742 0.5337769389152527
-0.19379842281341553 0.05426359176635742 0.5755590796470642
-0.19379840791225433 0.06976747512817383 0.5533543825149536
-0.19379842281341553 0.06976747512817383 0.5844103693962097
-0.19379842281341553 0.08527135848999023 0.5670060515403748
-0.19379842281341553 0.08527135848999023 0.586755633354187
-0.19379842281341553 0.10077524185180664 0.5772320032119751
-0.19379842281341553 0.10077524185180664 0.584659993648529
-0.1782945990562439 -0.24031007289886475 -0.12066348642110825
-0.1782945990562439 -0.24031007289886475 -0.07634218037128448
-0.1782945990562439 -0.22480618953704834 -0.12075403332710266
-0.1782945990562439 -0.22480618953704834 -0.06406277418136597
-0.1782945990562439 -0.20930230617523193 -0.11300909519195557
-0.1782945990562439 -0.20930230617523193 -0.05271057039499283
-0.1782945990562439 -0.19379842281341553 -0.10126160830259323
-0.1782945990562439 -0.19379842281341553 -0.0395476371049881
-0.1782945990562439 -0.1782945990562439 -0.1023167222738266
-0.1782945990562439 -0.1782945990562439 -0.026614341884851456
-0.1782945990562439 -0.1627907156944275 -0.10721080005168915
-0.1782945990562439 -0.1627907156944275 -0.014591144397854805
-0.1782945990562439 -0.14728683233261108 -0.11318337917327881
-0.1782945990562439 -0.14728683233261108 -0.002840241650119424
-0.1782945990562439 -0.13178294897079468 -0.1163708046078682
-0.1782945990562439 -0.13178294897079468 0.009594566188752651
-0.1782945990562439 -0.11627905815839767 -0.11120674014091492
-0.1782945990562439 -0.11627906560897827 0.021438252180814743
-0.1782945990562439 -0.10077518224716187 -0.10206879675388336
-0.1782945990562439 -0.10077518224716187 0.030132662504911423
-0.1782945990562439 -0.08527129888534546 -0.08696158230304718
-0.1782945990562439 -0.08527129888534546 0.03924703598022461
-0.1782945990562439 -0.06976741552352905 -0.0705508291721344
-0.1782945990562439 -0.06976741552352905 0.04256537929177284
-0.1782945990562439 -0.05426359176635742 -0.050955887883901596
-0.1782945990562439 -0.05426359176635742 0.04225246235728264
-0.1782945990562439 -0.038759708404541016 -0.02587289921939373
-0.1782945990562439 -0.038759708404541016 0.03465225547552109
-0.1782945990562439 -0.007751941680908203 0.5314411520957947
-0.1782945990562439 -0.00775194214656949 0.5505694150924683
-0.1782945990562439 0.007751941680908203 0.5189791321754456
-0.1782945990562439 0.007751941680908203 0.5624210834503174
-0.1782945990562439 0.02325582504272461 0.517635703086853
-0.1782945990562439 0.02325582504272461 0.5666904449462891
-0.1782945990562439 0.038759708404541016 0.5178171396255493
-0.1782945990562439 0.038759708404541016 0.5732519030570984
-0.1782945990562439 0.05426359176635742 0.5184606313705444
-0.1782945990562439 0.05426359176635742 0.5859035849571228
-0.1782945990562439 0.06976747512817383 0.5234905481338501
-0.1782945990562439 0.06976747512817383 0.5952674746513367
-0.1782945990562439 0.08527135848999023 0.5341946482658386
-0.1782945990562439 0.08527135848999023 0.5991868376731873
-0.1782945990562439 0.10077524185180664 0.561102032661438
-0.1782945990562439 0.10077524185180664 0.5970651507377625
-0.1782945990562439 0.11627912521362305 0.5769023299217224
-0.1782945990562439 0.11627912521362305 0.5837717056274414
-0.1627907156944275 -0.25581395626068115 -0.13352766633033752
-0.1627907156944275 -0.25581395626068115 -0.0773523598909378
-0.1627907156944275 -0.24031007289886475 -0.13701793551445007
-0.1627907156944275 -0.24031007289886475 -0.0523819774389267
-0.1627907156944275 -0.22480618953704834 -0.13616497814655304
-0.1627907156944275 -0.22480618953704834 -0.03571198135614395
-0.1627907156944275 -0.20930230617523193 -0.13379377126693726
-0.1627907156944275 -0.20930232107639313 -0.021965648978948593
-0.1627907156944275 -0.19379842281341553 -0.13293671607971191
-0.1627907156944275 -0.19379842281341553 -0.010970408096909523
-0.1627907156944275 -0.1782945990562439 -0.13604535162448883
-0.1627907156944275 -0.1782945990562439 -7.522944360971451e-05
-0.1627907156944275 -0.1627907156944275 -0.13868659734725952
-0.1627907156944275 -0.1627907156944275 0.010631877928972244
-0.1627907156944275 -0.14728683233261108 -0.1396084427833557
-0.1627907156944275 -0.14728683233261108 0.020907077938318253
-0.1627907156944275 -0.13178294897079468 -0.13816043734550476
-0.1627907156944275 -0.13178294897079468 0.029854124411940575
-0.1627907156944275 -0.11627907305955887 -0.1280922293663025
-0.1627907156944275 -0.11627906560897827 0.04149537906050682
-0.1627907156944275 -0.10077518224716187 -0.11527861654758453
-0.1627907156944275 -0.10077518224716187 0.05375552177429199
-0.1627907156944275 -0.08527129888534546 -0.09843850880861282
-0.1627907156944275 -0.08527129888534546 0.06176619604229927
-0.1627907156944275 -0.06976741552352905 -0.08088884502649307
-0.1627907156944275 -0.06976741552352905 0.07168187946081161
-0.1627907156944275 -0.05426359176635742 -0.0645964965224266
-0.1627907156944275 -0.05426359176635742 0.07883264869451523
-0.1627907156944275 -0.038759708404541016 -0.04866112023591995
-0.1627907156944275 -0.038759708404541016 0.08405901491641998
-0.1627907156944275 -0.02325582504272461 -0.03122316300868988
-0.1627907156944275 -0.02325582504272461 0.08423903584480286
-0.1627907156944275 -0.007751941680908203 -0.009438736364245415
-0.1627907156944275 -0.007751941680908203 0.07738149166107178
-0.1627907156944275 0.007751941680908203 0.5178350806236267
-0.1627907156944275 0.007751941680908203 0.5527918934822083
-0.1627907156944275 0.02325582504272461 0.5142989158630371
-0.1627907156944275 0.02325582504272461 0.5604730844497681
-0.1627907156944275 0.038759708404541016 0.5120342373847961
-0.1627907156944275 0.038759708404541016 0.5815823674201965
-0.1627907156944275 0.05426359176635742 0.5109453797340393
-0.1627907156944275 0.05426359176635742 0.592726469039917
-0.1627907156944275 0.06976747512817383 0.5128141641616821
-0.1627907156944275 0.06976747512817383 0.6007371544837952
-0.1627907156944275 0.08527135848999023 0.5172625780105591
-0.1627907156944275 0.08527135848999023 0.6052142977714539
-0.1627907156944275 0.10077524185180664 0.5338350534439087
-0.1627907156944275 0.10077524185180664 0.6027519702911377
-0.1627907156944275 0.11627912521362305 0.5616788864135742
-0.1627907156944275 0.11627912521362305 0.589989423751831
-0.14728683233261108 -0.25581395626068115 -0.1421128511428833
-0.14728683233261108 -0.25581395626068115 -0.05999365821480751
-0.14728683233261108 -0.24031007289886475 -0.14744974672794342
-0.14728683233261108 -0.24031007289886475 -0.034936532378196716
-0.14728683233261108 -0.22480618953704834 -0.14767175912857056
-0.14728683233261108 -0.22480620443820953 -0.01703244261443615
-0.14728683233261108 -0.20930230617523193 -0.14939375221729279
-0.14728683233261108 -0.20930230617523193 -0.0029957364313304424
-0.14728683233261108 -0.19379842281341553 -0.15336790680885315
-0.14728683233261108 -0.19379842281341553 0.009772024117410183
-0.14728683233261108 -0.1782945990562439 -0.15583446621894836
-0.14728683233261108 -0.1782945990562439 0.01983049139380455
-0.14728683233261108 -0.1627907156944275 -0.15804004669189453
-0.14728683233261108 -0.1627907156944275 0.027779873460531235
-0.14728683233261108 -0.14728683233261108 -0.15962423384189606
-0.14728683233261108 -0.14728683233261108 0.03625177592039108
-0.14728683233261108 -0.13178294897079468 -0.15902286767959595
-0.14728683233261108 -0.13178294897079468 0.04418063908815384
-0.14728683233261108 -0.11627906560897827 -0.14913256466388702
-0.14728683233261108 -0.11627906560897827 0.05579870194196701
-0.14728683233261108 -0.10077518224716187 -0.12185215204954147
-0.14728683233261108 -0.10077518224716187 0.06740620732307434
-0.14728683233261108 -0.08527129888534546 -0.10410241782665253
-0.14728683233261108 -0.08527129888534546 0.07820767909288406
-0.14728683233261108 -0.06976741552352905 -0.0871247947216034
-0.14728683233261108 -0.06976741552352905 0.09096644818782806
-0.14728683233261108 -0.05426359176635742 -0.07137101143598557
-0.14728683233261108 -0.05426359549164772 0.10439274460077286
-0.14728683233261108 -0.038759708404541016 -0.05698506906628609
-0.14728683233261108 -0.038759708404541016 0.1186579167842865
-0.14728683233261108 -0.02325582504272461 -0.044508423656225204
-0.14728683233261108 -0.02325582504272461 0.13452225923538208
-0.14728683233261108 -0.007751941680908203 -0.03329777717590332
-0.14728683233261108 -0.007751941680908203 0.14832516014575958
-0.14728683233261108 0.007751941680908203 -0.019744712859392166
-0.14728683233261108 0.007751941680908203 0.1543765366077423
-0.14728683233261108 0.007751941680908203 0.5187256336212158
-0.14728683233261108 0.007751941680908203 0.5377774238586426
-0.14728683233261108 0.02325582504272461 -0.0025744119193404913
-0.14728683233261108 0.02325582504272461 0.14841195940971375
-0.14728683233261108 0.02325582504272461 0.5106769800186157
-0.14728683233261108 0.02325582504272461 0.5520994067192078
-0.14728683233261108 0.038759708404541016 0.019307967275381088
-0.14728683233261108 0.038759708404541016 0.13469718396663666
-0.14728683233261108 0.038759708404541016 0.503682017326355
-0.14728683233261108 0.038759708404541016 0.5820178985595703
-0.14728683233261108 0.05426359176635742 0.5027607679367065
-0.14728683233261108 0.05426359176635742 0.5979983806610107
-0.14728683233261108 0.06976747512817383 0.5025649666786194
-0.14728683233261108 0.06976747512817383 0.6053615808486938
-0.14728683233261108 0.08527135103940964 0.5061855316162109
-0.14728683233261108 0.08527135848999023 0.6128911375999451
-0.14728683233261108 0.10077524185180664 0.5178459882736206
-0.14728683233261108 0.10077524185180664 0.6084335446357727
-0.14728683233261108 0.11627912521362305 0.5498844385147095
-0.14728683233261108 0.11627911776304245 0.5979481339454651
-0.13178294897079468 -0.27131783962249756 -0.12694036960601807
-0.13178294897079468 -0.27131783962249756 -0.09554315358400345
-0.13178294897079468 -0.25581395626068115 -0.1482504904270172
-0.13178294897079468 -0.25581395626068115 -0.047585949301719666
-0.13178294897079468 -0.24031007289886475 -0.15063247084617615
-0.13178294897079468 -0.24031007289886475 -0.02054869942367077
-0.13178294897079468 -0.22480618953704834 -0.15393704175949097
-0.13178294897079468 -0.22480618953704834 -0.0014334460720419884
-0.13178294897079468 -0.20930232107639313 -0.16179846227169037
-0.13178294897079468 -0.20930230617523193 0.013798094354569912
-0.13178294897079468 -0.19379842281341553 -0.16577807068824768
-0.13178294897079468 -0.19379842281341553 0.026072703301906586
-0.13178294897079468 -0.1782945990562439 -0.1683748960494995
-0.13178294897079468 -0.1782945990562439 0.03401699289679527
-0.13178294897079468 -0.1627907156944275 -0.17003703117370605
-0.13178294897079468 -0.1627907156944275 0.0401621013879776
-0.13178294897079468 -0.14728683233261108 -0.1710616499185562
-0.13178294897079468 -0.14728683233261108 0.04664625972509384
-0.13178294897079468 -0.13178294897079468 -0.1707158386707306
-0.13178294897079468 -0.13178294897079468 0.05548582598567009
-0.13178294897079468 -0.11627906560897827 -0.16316573321819305
-0.13178294897079468 -0.11627906560897827 0.06569717079401016
-0.13178294897079468 -0.10077518224716187 -0.1294083297252655
-0.13178294897079468 -0.10077518224716187 0.07738454639911652
-0.13178294897079468 -0.08527129888534546 -0.10637220740318298
-0.13178294897079468 -0.08527129888534546 0.09131913632154465
-0.13178294897079468 -0.06976741552352905 -0.0885610431432724
-0.13178294897079468 -0.06976741552352905 0.1074732169508934
-0.13178294897079468 -0.05426359176635742 -0.07264888286590576
-0.13178294897079468 -0.05426359176635742 0.12638059258460999
-0.13178294897079468 -0.038759708404541016 -0.05959560349583626
-0.13178294897079468 -0.038759708404541016 0.14838752150535583
-0.13178294897079468 -0.02325582504272461 -0.051711976528167725
-0.13178294897079468 -0.02325582504272461 0.17229688167572021
-0.13178294897079468 -0.007751941680908203 -0.04171008616685867
-0.13178294897079468 -0.007751941680908203 0.1881643831729889
-0.13178294897079468 0.007751941680908203 -0.03312179446220398
-0.13178294897079468 0.007751941680908203 0.19705431163311005
-0.13178294897079468 0.02325582504272461 -0.02321682870388031
-0.13178294897079468 0.02325582504272461 0.1985389143228531
-0.13178294897079468 0.02325582504272461 0.5050447583198547
-0.13178294897079468 0.02325582504272461 0.5383766293525696
-0.13178294897079468 0.038759708404541016 -0.01078273355960846
-0.13178294897079468 0.038759708404541016 0.1924411803483963
-0.13178294897079468 0.038759708404541016 0.49906185269355774
-0.13178294897079468 0.038759708404541016 0.5771462917327881
-0.13178294897079468 0.05426359176635742 0.0025765805039554834
-0.13178294897079468 0.05426359176635742 0.17887108027935028
-0.13178294897079468 0.05426359176635742 0.4958115816116333
-0.13178294897079468 0.05426359176635742 0.599544882774353
-0.13178294897079468 0.06976747512817383 0.01783168874680996
-0.13178294897079468 0.06976747512817383 0.16325318813323975
-0.13178294897079468 0.06976747512817383 0.49530789256095886
-0.13178294897079468 0.06976747512817383 0.6127610206604004
-0.13178294897079468 0.08527135848999023 0.03635292500257492
-0.13178294897079468 0.08527135848999023 0.14504548907279968
-0.13178294897079468 0.08527135848999023 0.49736833572387695
-0.13178294897079468 0.08527135848999023 0.615699827671051
-0.13178294897079468 0.10077524185180664 0.05956863984465599
-0.13178294897079468 0.10077524185180664 0.12394331395626068
-0.13178294897079468 0.10077524185180664 0.5033280849456787
-0.13178294897079468 0.10077524185180664 0.6136600375175476
-0.13178294897079468 0.11627912521362305 0.5441424250602722
-0.13178294897079468 0.11627912521362305 0.6010372638702393
-0.11627906560897827 -0.27131783962249756 -0.13241718709468842
-0.11627906560897827 -0.27131783962249756 -0.08438002318143845
-0.11627906560897827 -0.25581395626068115 -0.14964042603969574
-0.11627906560897827 -0.25581395626068115 -0.038840003311634064
-0.11627906560897827 -0.24031007289886475 -0.1535159945487976
-0.11627906560897827 -0.24031007289886475 -0.011006273329257965
-0.11627906560897827 -0.24031007289886475 0.7640135288238525
-0.11627906560897827 -0.24031007289886475 0.7706695795059204
-0.11627906560897827 -0.22480618953704834 -0.15976311266422272
-0.11627906560897827 -0.22480618953704834 0.010091363452374935
-0.11627906560897827 -0.22480618953704834 0.7424716949462891
-0.11627906560897827 -0.22480618953704834 0.7940075397491455
-0.11627906560897827 -0.20930230617523193 -0.16586023569107056
-0.11627906560897827 -0.20930230617523193 0.026432907208800316
-0.11627906560897827 -0.20930230617523193 0.7452681064605713
-0.11627906560897827 -0.20930230617523193 0.7915701270103455
-0.11627906560897827 -0.19379842281341553 -0.1720672845840454
-0.11627906560897827 -0.19379842281341553 0.037654757499694824
-0.11627906560897827 -0.1782945990562439 -0.17850010097026825
-0.11627906560897827 -0.1782945990562439 0.04364863038063049
-0.11627906560897827 -0.1627907156944275 -0.18010203540325165
-0.11627906560897827 -0.1627907156944275 0.049145810306072235
-0.11627906560897827 -0.14728683233261108 -0.18073755502700806
-0.11627906560897827 -0.1472868174314499 0.055438801646232605
-0.11627906560897827 -0.13178294897079468 -0.1793733537197113
-0.11627906560897827 -0.13178294897079468 0.0629352554678917
-0.11627906560897827 -0.11627906560897827 -0.16457954049110413
-0.11627906560897827 -0.11627906560897827 0.07417646050453186
-0.11627906560897827 -0.10077518224716187 -0.1284041553735733
-0.11627906560897827 -0.10077518224716187 0.08858805894851685
-0.11627906560897827 -0.08527129888534546 -0.1043020635843277
-0.11627906560897827 -0.08527129888534546 0.10456017404794693
-0.11627906560897827 -0.06976741552352905 -0.08691318333148956
-0.11627906560897827 -0.06976741552352905 0.12388593703508377
-0.11627906560897827 -0.05426359176635742 -0.07138572633266449
-0.11627906560897827 -0.05426359176635742 0.14833156764507294
-0.11627906560897827 -0.038759708404541016 -0.05951131135225296
-0.11627906560897827 -0.038759708404541016 0.17762243747711182
-0.11627905815839767 -0.02325582318007946 -0.05257481336593628
-0.11627906560897827 -0.02325582504272461 0.2000974714756012
-0.11627906560897827 -0.007751941680908203 -0.04338381439447403
-0.11627906560897827 -0.007751941680908203 0.21708276867866516
-0.11627906560897827 0.007751941680908203 -0.03609350323677063
-0.11627906560897827 0.00775194214656949 0.2279229760169983
-0.11627906560897827 0.02325582504272461 -0.02764459326863289
-0.11627906560897827 0.02325582504272461 0.2317413091659546
-0.11627906560897827 0.02325582504272461 0.471508651971817
-0.11627906560897827 0.02325582504272461 0.5295975208282471
-0.11627906560897827 0.038759708404541016 -0.01943816803395748
-0.11627906560897827 0.038759708404541016 0.22803515195846558
-0.11627906560897827 0.038759708404541016 0.4627448320388794
-0.11627907305955887 0.038759708404541016 0.5664603114128113
-0.11627906560897827 0.05426359176635742 -0.009403218515217304
-0.11627906560897827 0.05426359176635742 0.21908046305179596
-0.11627906560897827 0.05426359176635742 0.46558594703674316
-0.11627907305955887 0.05426359549164772 0.6011871099472046
-0.11627906560897827 0.06976747512817383 0.001599961193278432
-0.11627906560897827 0.06976747512817383 0.2054208219051361
-0.11627906560897827 0.06976747512817383 0.4702657163143158
-0.11627907305955887 0.06976747512817383 0.6138298511505127
-0.11627906560897827 0.08527135848999023 0.013513650745153427
-0.11627906560897827 0.08527135848999023 0.1881186068058014
-0.11627906560897827 0.08527135848999023 0.47516223788261414
-0.11627906560897827 0.08527135848999023 0.6177397966384888
-0.11627906560897827 0.10077524185180664 0.027433432638645172
-0.11627906560897827 0.10077524185180664 0.1639324277639389
-0.11627906560897827 0.10077524185180664 0.4837794601917267
-0.11627906560897827 0.10077524185180664 0.6156283617019653
-0.11627906560897827 0.11627912521362305 0.044639911502599716
-0.11627906560897827 0.11627912521362305 0.1388142704963684
-0.11627906560897827 0.11627912521362305 0.4994126558303833
-0.11627906560897827 0.11627912521362305 0.603347659111023
-0.11627906560897827 0.1317828893661499 0.08097019791603088
-0.11627906560897827 0.1317828893661499 0.10181615501642227
-0.10077518224716187 -0.30232560634613037 0.8281225562095642
-0.10077517479658127 -0.30232560634613037 0.8926414251327515
-0.10077518224716187 -0.28682172298431396 0.812157928943634
-0.10077518224716187 -0.28682172298431396 0.9106227159500122
-0.10077518224716187 -0.27131783962249756 -0.13310442864894867
-0.10077518224716187 -0.27131783962249756 -0.08117865025997162
-0.10077518224716187 -0.27131783962249756 0.7987556457519531
-0.10077518224716187 -0.27131783962249756 0.9208719730377197
-0.10077518224716187 -0.25581395626068115 -0.14984312653541565
-0.10077518224716187 -0.25581395626068115 -0.0338304378092289
-0.10077518224716187 -0.25581395626068115 0.7869921326637268
-0.10077518224716187 -0.25581395626068115 0.9281807541847229
-0.10077518224716187 -0.24031007289886475 -0.1537138819694519
-0.10077518224716187 -0.24031007289886475 -0.004340191371738911
-0.10077518224716187 -0.24031007289886475 0.7714936137199402
-0.10077518224716187 -0.24031007289886475 0.933830201625824
-0.10077518224716187 -0.22480618953704834 -0.1604897528886795
-0.10077518224716187 -0.22480618953704834 0.01879311539232731
-0.10077518224716187 -0.22480618953704834 0.7611113786697388
-0.10077518224716187 -0.22480618953704834 0.9476816654205322
-0.10077518224716187 -0.20930230617523193 -0.16655878722667694
-0.10077518224716187 -0.20930230617523193 0.03593631088733673
-0.10077518224716187 -0.20930230617523193 0.7636744976043701
-0.10077518969774246 -0.20930230617523193 0.9577049016952515
-0.10077518224716187 -0.19379842281341553 -0.1771259307861328
-0.10077518224716187 -0.19379842281341553 0.0452263280749321
-0.10077518224716187 -0.19379840791225433 0.7861170172691345
-0.10077518224716187 -0.19379842281341553 0.9567247033119202
-0.10077518224716187 -0.1782945990562439 -0.1809198260307312
-0.10077518224716187 -0.1782945990562439 0.05208643898367882
-0.10077518224716187 -0.1782945990562439 0.8323239088058472
-0.10077518224716187 -0.1782945990562439 0.9479578733444214
-0.10077518224716187 -0.1627907156944275 -0.18360279500484467
-0.10077518224716187 -0.1627907156944275 0.056930895894765854
-0.10077517479658127 -0.1627907156944275 0.8607522249221802
-0.10077518224716187 -0.1627907156944275 0.9286845922470093
-0.10077518224716187 -0.14728683233261108 -0.1833134889602661
-0.10077518224716187 -0.14728683233261108 0.06314500421285629
-0.10077518224716187 -0.13178294897079468 -0.178938090801239
-0.10077518224716187 -0.13178294897079468 0.07230427116155624
-0.10077518224716187 -0.11627906560897827 -0.1591656506061554
-0.10077518224716187 -0.11627906560897827 0.0858796238899231
-0.10077518224716187 -0.10077518224716187 -0.12327789515256882
-0.10077518224716187 -0.10077518224716187 0.10163544118404388
-0.10077518224716187 -0.08527129888534546 -0.10195693373680115
-0.10077518224716187 -0.08527129888534546 0.11960465461015701
-0.10077518224716187 -0.06976741552352905 -0.0838465467095375
-0.10077518224716187 -0.06976741552352905 0.14323744177818298
-0.10077518224716187 -0.05426359176635742 -0.06898889690637589
-0.10077518224716187 -0.05426359176635742 0.1714400202035904
-0.10077518224716187 -0.038759708404541016 -0.05761180818080902
-0.10077518224716187 -0.038759708404541016 0.20041312277317047
-0.10077517479658127 -0.02325582504272461 -0.050568632781505585
-0.10077518224716187 -0.02325582504272461 0.22596730291843414
-0.10077518224716187 -0.007751941680908203 -0.04232306778430939
-0.10077518224716187 -0.007751941680908203 0.2428453415632248
-0.10077518224716187 0.007751941680908203 -0.0349666103720665
-0.10077518224716187 0.007751941680908203 0.25407275557518005
-0.10077518224716187 0.007751941680908203 0.46099647879600525
-0.10077518224716187 0.007751941680908203 0.4951624870300293
-0.10077518224716187 0.02325582504272461 -0.02764260023832321
-0.10077517479658127 0.02325582504272461 0.25827860832214355
-0.10077518224716187 0.02325582504272461 0.43126899003982544
-0.10077518224716187 0.02325582504272461 0.5269710421562195
-0.10077517479658127 0.038759708404541016 -0.02001805603504181
-0.10077517479658127 0.038759708404541016 0.25675371289253235
-0.10077518224716187 0.038759708404541016 0.42488372325897217
-0.10077518224716187 0.038759708404541016 0.5513169765472412
-0.10077518224716187 0.05426359176635742 -0.012441977858543396
-0.10077518224716187 0.05426359176635742 0.24973821640014648
-0.10077517479658127 0.05426359176635742 0.4295162558555603
-0.10077518224716187 0.05426359176635742 0.6023796200752258
-0.10077518224716187 0.06976747512817383 -0.003005225444212556
-0.10077518224716187 0.06976747512817383 0.23820149898529053
-0.10077518224716187 0.06976747512817383 0.43871164321899414
-0.10077518224716187 0.06976747512817383 0.6144083738327026
-0.10077518224716187 0.08527135848999023 0.0071102324873209
-0.10077518224716187 0.08527135848999023 0.2233494520187378
-0.10077518224716187 0.08527135848999023 0.44977033138275146
-0.10077518224716187 0.08527135848999023 0.6192665100097656
-0.10077518224716187 0.10077524185180664 0.01802036538720131
-0.10077518224716187 0.10077524185180664 0.20056504011154175
-0.10077518224716187 0.10077524185180664 0.4605777859687805
-0.10077518224716187 0.10077524185180664 0.6172736883163452
-0.10077518224716187 0.11627912521362305 0.030864818021655083
-0.10077518224716187 0.11627912521362305 0.1682288646697998
-0.10077518224716187 0.11627912521362305 0.47442173957824707
-0.10077518224716187 0.11627912521362305 0.6058056354522705
-0.10077518224716187 0.1317828893661499 0.05004923418164253
-0.10077518224716187 0.1317828893661499 0.13252398371696472
-0.10077518224716187 0.1317828893661499 0.5022642612457275
-0.10077518224716187 0.1317828893661499 0.5213245153427124
-0.08527129888534546 -0.3333333134651184 0.8547329902648926
-0.08527129888534546 -0.3333333134651184 0.8615913391113281
-0.08527129888534546 -0.317829430103302 0.8097803592681885
-0.08527129888534546 -0.317829430103302 0.9181377291679382
-0.08527129888534546 -0.30232560634613037 0.7970133423805237
-0.08527129888534546 -0.30232560634613037 0.9384406805038452
-0.08527129888534546 -0.28682172298431396 0.7906870245933533
-0.08527129888534546 -0.28682172298431396 0.9533122181892395
-0.08527129888534546 -0.27131783962249756 -0.13224998116493225
-0.08527129888534546 -0.27131783962249756 -0.08263237774372101
-0.08527129888534546 -0.27131783962249756 0.7824565172195435
-0.08527129888534546 -0.27131783962249756 0.9653013944625854
-0.08527129888534546 -0.25581395626068115 -0.14966079592704773
-0.08527129888534546 -0.25581395626068115 -0.03098985180258751
-0.08527129888534546 -0.25581395626068115 0.7775280475616455
-0.08527129888534546 -0.25581395626068115 0.9742281436920166
-0.08527129888534546 -0.24031007289886475 -0.15316805243492126
-0.08527129888534546 -0.24031007289886475 -0.00014442834071815014
-0.08527129888534546 -0.24031007289886475 0.7706828713417053
-0.08527129888534546 -0.24031007289886475 0.9798848628997803
-0.08527129888534546 -0.22480618953704834 -0.1590176224708557
-0.08527129888534546 -0.22480618953704834 0.023377079516649246
-0.08527129888534546 -0.22480618953704834 0.7667756080627441
-0.08527129888534546 -0.22480618953704834 0.9824044704437256
-0.08527129888534546 -0.20930230617523193 -0.16544421017169952
-0.08527129888534546 -0.20930230617523193 0.04115532711148262
-0.08527129888534546 -0.20930230617523193 0.7705207467079163
-0.08527129888534546 -0.20930230617523193 0.9807993173599243
-0.08527129888534546 -0.19379842281341553 -0.1742664873600006
-0.08527129888534546 -0.19379842281341553 0.052161384373903275
-0.08527129888534546 -0.19379842281341553 0.7823742032051086
-0.08527129888534546 -0.19379842281341553 0.9760768413543701
-0.08527129888534546 -0.1782945990562439 -0.18025840818881989
-0.08527129888534546 -0.1782946139574051 0.05795569345355034
-0.08527129888534546 -0.1782945990562439 0.8094647526741028
-0.08527129143476486 -0.1782945990562439 0.9690152406692505
-0.08527129888534546 -0.1627907156944275 -0.18209615349769592
-0.08527129888534546 -0.1627907156944275 0.06365512311458588
-0.08527129888534546 -0.1627907156944275 0.8368672132492065
-0.08527129888534546 -0.1627907156944275 0.9542015194892883
-0.08527129888534546 -0.14728683233261108 -0.18035469949245453
-0.08527129888534546 -0.14728683233261108 0.07036096602678299
-0.08527129888534546 -0.14728683233261108 0.8711475729942322
-0.08527129888534546 -0.14728683233261108 0.927169680595398
-0.08527129888534546 -0.13178294897079468 -0.16919070482254028
-0.08527129888534546 -0.13178294897079468 0.07996141910552979
-0.08527129888534546 -0.11627906560897827 -0.1497795134782791
-0.08527129888534546 -0.11627906560897827 0.0934799388051033
-0.08527129888534546 -0.10077518224716187 -0.120976522564888
-0.08527129888534546 -0.10077518224716187 0.1115577220916748
-0.08527129888534546 -0.08527129888534546 -0.10083022713661194
-0.08527129888534546 -0.08527129888534546 0.13260552287101746
-0.08527129888534546 -0.06976741552352905 -0.08016299456357956
-0.08527129888534546 -0.06976741552352905 0.159933403134346
-0.08527129888534546 -0.05426359176635742 -0.06599671393632889
-0.08527129888534546 -0.05426359176635742 0.18931517004966736
-0.08527129888534546 -0.038759708404541016 -0.0560026578605175
-0.08527129888534546 -0.038759708404541016 0.21942448616027832
-0.08527129888534546 -0.02325582504272461 -0.04842718318104744
-0.08527129888534546 -0.02325582504272461 0.24412092566490173
-0.08527129888534546 -0.007751941680908203 -0.040396690368652344
-0.08527129888534546 -0.007751941680908203 0.262830913066864
-0.08527129888534546 0.007751941680908203 -0.03289085999131203
-0.08527129888534546 0.007751941680908203 0.2767210006713867
-0.08527129888534546 0.007751941680908203 0.41813918948173523
-0.08527129888534546 0.007751941680908203 0.5094892978668213
-0.08527129888534546 0.02325582504272461 -0.026133783161640167
-0.08527129888534546 0.02325582504272461 0.2855856418609619
-0.08527129888534546 0.02325582504272461 0.39342448115348816
-0.08527129888534546 0.02325582504272461 0.5339283347129822
-0.08527129888534546 0.038759708404541016 -0.01939479261636734
-0.08527129888534546 0.038759708404541016 0.2877270579338074
-0.08527129888534546 0.038759708404541016 0.3850864768028259
-0.08527129888534546 0.038759708404541016 0.5739768743515015
-0.08527129888534546 0.05426359176635742 -0.013492928817868233
-0.08527129888534546 0.05426359176635742 0.2810680866241455
-0.08527129888534546 0.05426359176635742 0.39119938015937805
-0.08527129888534546 0.05426359176635742 0.6056993007659912
-0.08527129888534546 0.06976747512817383 -0.004719486925750971
-0.08527129888534546 0.06976747512817383 0.2673451006412506
-0.08527129888534546 0.06976747512817383 0.403587281703949
-0.08527129888534546 0.06976747512817383 0.6160604357719421
-0.08527129888534546 0.08527135848999023 0.002442612312734127
-0.08527129888534546 0.08527135848999023 0.2511771023273468
-0.08527129888534546 0.08527135848999023 0.41764599084854126
-0.08527129888534546 0.08527135848999023 0.6220395565032959
-0.08527129888534546 0.10077524185180664 0.012526805512607098
-0.08527129888534546 0.10077524185180664 0.22884532809257507
-0.08527129888534546 0.10077524185180664 0.43569642305374146
-0.08527129888534546 0.10077524185180664 0.6202883720397949
-0.08527129888534546 0.11627912521362305 0.022427348420023918
-0.08527129888534546 0.11627912521362305 0.19723376631736755
-0.08527129888534546 0.11627912521362305 0.45474836230278015
-0.08527129888534546 0.11627912521362305 0.6115922331809998
-0.08527129888534546 0.1317828893661499 0.03663357347249985
-0.08527129888534546 0.1317828893661499 0.1567152738571167
-0.08527129888534546 0.1317828893661499 0.4777317941188812
-0.08527129888534546 0.1317828893661499 0.584693193435669
-0.08527129888534546 0.1472867727279663 0.06821224093437195
-0.08527129888534546 0.1472867727279663 0.10590878874063492
-0.06976741552352905 -0.3333333134651184 0.8209347724914551
-0.06976741552352905 -0.3333333134651184 0.9013767242431641
-0.06976741552352905 -0.317829430103302 0.7973308563232422
-0.06976741552352905 -0.317829430103302 0.936403214931488
-0.06976741552352905 -0.30232560634613037 0.78758305311203
-0.06976741552352905 -0.30232560634613037 0.9535764455795288
-0.06976741552352905 -0.28682172298431396 0.7807527184486389
-0.06976741552352905 -0.28682172298431396 0.9662867188453674
-0.06976741552352905 -0.27131783962249756 -0.11936978995800018
-0.06976741552352905 -0.27131783962249756 -0.10270409286022186
-0.06976741552352905 -0.27131783962249756 0.7760921120643616
-0.06976741552352905 -0.27131783962249756 0.9775571823120117
-0.06976741552352905 -0.25581395626068115 -0.14985518157482147
-0.06976741552352905 -0.25581395626068115 -0.031388550996780396
-0.06976741552352905 -0.25581395626068115 0.7706258296966553
-0.06976741552352905 -0.25581395626068115 0.9851775169372559
-0.06976741552352905 -0.24031007289886475 -0.15379533171653748
-0.06976741552352905 -0.24031007289886475 0.0016486949753016233
-0.06976741552352905 -0.24031007289886475 0.7673617601394653
-0.06976741552352905 -0.24031007289886475 0.9862844347953796
-0.06976741552352905 -0.22480620443820953 -0.16103501617908478
-0.06976741552352905 -0.22480617463588715 0.026939865201711655
-0.06976741552352905 -0.22480618953704834 0.7676739692687988
-0.06976741552352905 -0.22480620443820953 0.986615002155304
-0.06976741552352905 -0.20930230617523193 -0.1655794233083725
-0.06976741552352905 -0.20930230617523193 0.0459916815161705
-0.06976741552352905 -0.20930230617523193 0.7733302712440491
-0.06976741552352905 -0.20930230617523193 0.9861271977424622
-0.06976741552352905 -0.19379842281341553 -0.17192700505256653
-0.06976741552352905 -0.19379842281341553 0.056608594954013824
-0.06976741552352905 -0.19379842281341553 0.7819976806640625
-0.06976741552352905 -0.19379842281341553 0.9846678972244263
-0.06976741552352905 -0.1782945990562439 -0.17889925837516785
-0.06976741552352905 -0.1782945990562439 0.06364434957504272
-0.06976741552352905 -0.1782945841550827 0.7997000813484192
-0.06976741552352905 -0.1782945990562439 0.9761158227920532
-0.06976741552352905 -0.1627907156944275 -0.17942079901695251
-0.06976741552352905 -0.1627907156944275 0.06921233236789703
-0.06976741552352905 -0.1627907156944275 0.8256559371948242
-0.06976741552352905 -0.1627907156944275 0.9640746712684631
-0.06976741552352905 -0.14728683233261108 -0.17621412873268127
-0.06976741552352905 -0.14728683233261108 0.0756392627954483
-0.06976741552352905 -0.14728683233261108 0.8515902757644653
-0.06976741552352905 -0.14728683233261108 0.943306565284729
-0.06976741552352905 -0.13178294897079468 -0.1641397625207901
-0.06976741552352905 -0.13178294897079468 0.08592446893453598
-0.06976741552352905 -0.11627906560897827 -0.14787188172340393
-0.06976741552352905 -0.11627906560897827 0.10054866224527359
-0.06976741552352905 -0.10077518224716187 -0.1224457249045372
-0.06976741552352905 -0.10077518224716187 0.11910988390445709
-0.06976741552352905 -0.08527129888534546 -0.10094601660966873
-0.06976741552352905 -0.08527129888534546 0.14283981919288635
-0.06976741552352905 -0.06976741552352905 -0.0801999568939209
-0.06976741552352905 -0.06976741552352905 0.17209792137145996
-0.06976741552352905 -0.05426359176635742 -0.06542369723320007
-0.06976741552352905 -0.05426359176635742 0.20296180248260498
-0.06976741552352905 -0.038759708404541016 -0.054942354559898376
-0.06976741552352905 -0.038759708404541016 0.23428864777088165
-0.06976741552352905 -0.02325582504272461 -0.04664421081542969
-0.06976741552352905 -0.02325582504272461 0.2594813108444214
-0.06976741552352905 -0.007751941680908203 -0.038601409643888474
-0.06976741552352905 -0.007751941680908203 0.28561338782310486
-0.06976741552352905 -0.007751941680908203 0.4358043670654297
-0.06976741552352905 -0.007751941680908203 0.48805710673332214
-0.06976741552352905 0.007751941215246916 -0.03125463053584099
-0.06976741552352905 0.007751941680908203 0.3120136857032776
-0.06976741552352905 0.007751941680908203 0.385519802570343
-0.06976741552352905 0.007751941680908203 0.5208151340484619
-0.06976741552352905 0.02325582504272461 -0.024461768567562103
-0.06976741552352905 0.02325582504272461 0.5432416796684265
-0.06976741552352905 0.038759708404541016 -0.018828291445970535
-0.06976741552352905 0.038759708404541016 0.5873705148696899
-0.06976741552352905 0.05426359176635742 -0.014380794949829578
-0.06976740807294846 0.05426358804106712 0.6125711798667908
-0.06976741552352905 0.06976747512817383 -0.006948431953787804
-0.06976741552352905 0.06976747512817383 0.311828076839447
-0.06976741552352905 0.06976747512817383 0.361625999212265
-0.06976741552352905 0.06976747512817383 0.6204785108566284
-0.06976741552352905 0.08527135848999023 -0.0008501650299876928
-0.06976741552352905 0.08527135848999023 0.27987974882125854
-0.06976741552352905 0.08527135848999023 0.38948941230773926
-0.06976741552352905 0.08527135848999023 0.6263079643249512
-0.06976740807294846 0.10077524185180664 0.007989862933754921
-0.06976741552352905 0.10077524185180664 0.25316086411476135
-0.06976741552352905 0.10077524185180664 0.41132646799087524
-0.06976741552352905 0.10077524185180664 0.6239109039306641
-0.06976741552352905 0.11627912521362305 0.01630309224128723
-0.06976741552352905 0.11627912521362305 0.22243906557559967
-0.06976741552352905 0.11627912521362305 0.4356282949447632
-0.06976741552352905 0.11627912521362305 0.6159071922302246
-0.06976741552352905 0.1317828893661499 0.029097821563482285
-0.06976741552352905 0.1317828893661499 0.1809578537940979
-0.06976741552352905 0.1317828893661499 0.46006420254707336
-0.06976741552352905 0.1317828893661499 0.5979447364807129
-0.06976741552352905 0.1472867727279663 0.04785175621509552
-0.06976741552352905 0.1472867876291275 0.1338159739971161
-0.06976741552352905 0.1472867727279663 0.49492165446281433
-0.06976741552352905 0.1472867727279663 0.5388344526290894
-0.05426358804106712 -0.3333333134651184 0.8188145160675049
-0.05426359176635742 -0.3333333134651184 0.89925616979599
-0.05426359176635742 -0.317829430103302 0.7956991195678711
-0.05426359176635742 -0.317829430103302 0.9420598745346069
-0.05426359176635742 -0.30232560634613037 0.7825903296470642
-0.05426359176635742 -0.30232560634613037 0.9584852457046509
-0.05426359176635742 -0.28682172298431396 0.7775812745094299
-0.05426359176635742 -0.28682172298431396 0.9702427983283997
-0.05426359176635742 -0.27131783962249756 0.771122932434082
-0.05426359176635742 -0.27131783962249756 0.9820152521133423
-0.05426359176635742 -0.25581395626068115 -0.14964915812015533
-0.05426358804106712 -0.25581395626068115 -0.036800988018512726
-0.05426359176635742 -0.25581395626068115 0.7666773796081543
-0.05426359176635742 -0.25581395626068115 0.9860865473747253
-0.05426359176635742 -0.24031007289886475 -0.15492253005504608
-0.05426359176635742 -0.24031007289886475 5.578529089689255e-05
-0.05426359176635742 -0.24031007289886475 0.7658739686012268
-0.05426358804106712 -0.24031007289886475 0.9871480464935303
-0.05426359176635742 -0.22480618953704834 -0.16351991891860962
-0.05426359176635742 -0.22480618953704834 0.027762699872255325
-0.05426359176635742 -0.22480618953704834 0.76744544506073
-0.05426359176635742 -0.22480618953704834 0.9874802827835083
-0.05426359176635742 -0.20930230617523193 -0.16749216616153717
-0.05426359176635742 -0.20930230617523193 0.04813820496201515
-0.05426359176635742 -0.20930230617523193 0.7745383977890015
-0.05426359176635742 -0.20930230617523193 0.9869977235794067
-0.05426359176635742 -0.19379842281341553 -0.1733190268278122
-0.05426359176635742 -0.19379842281341553 0.05917345732450485
-0.05426359176635742 -0.19379842281341553 0.782472550868988
-0.05426359176635742 -0.19379842281341553 0.9856000542640686
-0.05426359176635742 -0.1782945990562439 -0.17812640964984894
-0.05426359176635742 -0.1782945990562439 0.06670627743005753
-0.05426359176635742 -0.1782945990562439 0.7975988388061523
-0.05426359176635742 -0.1782945990562439 0.9796627759933472
-0.05426359176635742 -0.1627907156944275 -0.17715124785900116
-0.05426359176635742 -0.1627907156944275 0.07232692837715149
-0.05426359176635742 -0.1627907156944275 0.8205499649047852
-0.05426359176635742 -0.1627907156944275 0.9681116342544556
-0.05426359176635742 -0.14728683233261108 -0.16914206743240356
-0.05426359176635742 -0.14728683233261108 0.07977733016014099
-0.05426359176635742 -0.14728683233261108 0.8443235754966736
-0.05426359176635742 -0.14728683233261108 0.9510077834129333
-0.05426359176635742 -0.13178294897079468 -0.16183215379714966
-0.05426359176635742 -0.13178294897079468 0.08987723290920258
-0.05426359176635742 -0.13178294897079468 0.8978453278541565
-0.05426359176635742 -0.13178294897079468 0.9101956486701965
-0.05426359176635742 -0.11627906560897827 -0.14645980298519135
-0.05426359176635742 -0.11627906560897827 0.10497181117534637
-0.05426359176635742 -0.10077518224716187 -0.12251844257116318
-0.05426359176635742 -0.10077518224716187 0.12548600137233734
-0.05426359176635742 -0.08527129888534546 -0.10078048706054688
-0.05426359176635742 -0.08527129888534546 0.14965060353279114
-0.05426359176635742 -0.06976741552352905 -0.36817479133605957
-0.05426359176635742 -0.06976741552352905 -0.3453824520111084
-0.05426359176635742 -0.06976741552352905 -0.07950474321842194
-0.05426359176635742 -0.06976741552352905 0.18075737357139587
-0.05426359176635742 -0.05426359176635742 -0.4132634997367859
-0.05426359176635742 -0.05426359176635742 -0.3359832763671875
-0.05426359549164772 -0.05426359549164772 -0.06366945803165436
-0.05426359176635742 -0.05426359176635742 0.21286121010780334
-0.05426359176635742 -0.038759708404541016 -0.4340481758117676
-0.05426359176635742 -0.038759708404541016 -0.34020155668258667
-0.05426359176635742 -0.038759708404541016 -0.05278581380844116
-0.05426359176635742 -0.038759708404541016 0.2445245385169983
-0.05426359176635742 -0.02325582504272461 -0.45475372672080994
-0.05426359176635742 -0.02325582504272461 -0.3500019907951355
-0.05426359176635742 -0.02325582504272461 -0.044940121471881866
-0.05426359176635742 -0.02325582504272461 0.275978147983551
-0.05426359176635742 -0.007751941680908203 -0.4757564067840576
-0.05426359176635742 -0.007751941680908203 -0.3987273573875427
-0.05426359176635742 -0.007751941680908203 -0.03815695643424988
-0.05426359176635742 -0.007751941680908203 0.3160504996776581
-0.05426359176635742 -0.007751941680908203 0.4058673083782196
-0.05426359176635742 -0.007751941680908203 0.5043601989746094
-0.05426359176635742 0.007751941680908203 -0.49048763513565063
-0.05426359176635742 0.007751941680908203 -0.43025633692741394
-0.05426359176635742 0.007751941680908203 -0.03143433853983879
-0.05426359176635742 0.007751941680908203 0.5288541316986084
-0.05426359176635742 0.02325582504272461 -0.48915597796440125
-0.05426359176635742 0.02325582504272461 -0.46754714846611023
-0.05426359176635742 0.02325582504272461 -0.024278299883008003
-0.05426359176635742 0.02325582504272461 0.5551202893257141
-0.05426359176635742 0.038759708404541016 -0.01885085739195347
-0.05426359176635742 0.038759708404541016 0.5966264009475708
-0.05426359176635742 0.05426359176635742 -0.5753523111343384
-0.05426359176635742 0.05426359176635742 -0.534095287322998
-0.05426359176635742 0.05426359176635742 -0.015298423357307911
-0.05426359176635742 0.05426359176635742 0.615651547908783
-0.05426359176635742 0.06976747512817383 -0.5936487317085266
-0.05426359176635742 0.06976747512817383 -0.5493260622024536
-0.05426359176635742 0.06976747512817383 -0.009652217850089073
-0.05426359176635742 0.06976747512817383 0.6258327960968018
-0.05426359176635742 0.08527135848999023 -0.6047307848930359
-0.05426359176635742 0.08527135848999023 -0.5718218088150024
-0.05426359176635742 0.08527135848999023 -0.0030179342720657587
-0.05426359176635742 0.08527135848999023 0.6291758418083191
-0.05426359176635742 0.10077524185180664 0.003183102235198021
-0.05426359176635742 0.10077524185180664 0.2746132016181946
-0.05426359176635742 0.10077524185180664 0.39386793971061707
-0.05426359176635742 0.10077524185180664 0.6278732419013977
-0.05426359176635742 0.11627912521362305 0.013205444440245628
-0.05426359176635742 0.11627912521362305 0.24023133516311646
-0.05426359176635742 0.11627912521362305 0.42087382078170776
-0.05426359176635742 0.11627911776304245 0.6191749572753906
-0.05426359176635742 0.1317828893661499 0.023994063958525658
-0.05426359176635742 0.1317828893661499 0.2020997703075409
-0.05426358804106712 0.1317828893661499 0.44638389348983765
-0.05426359176635742 0.1317828893661499 0.6035522222518921
-0.05426358804106712 0.1472867727279663 0.03885427117347717
-0.05426359176635742 0.1472867727279663 0.15634818375110626
-0.05426359176635742 0.1472867727279663 0.4764229357242584
-0.05426359176635742 0.1472867727279663 0.5724083185195923
-0.038759708404541016 -0.3333333134651184 0.8255068063735962
-0.038759708404541016 -0.3333333134651184 0.8829776048660278
-0.038759708404541016 -0.317829430103302 0.7967311143875122
-0.038759708404541016 -0.317829430103302 0.9377879500389099
-0.038759708404541016 -0.30232560634613037 0.7823207378387451
-0.038759708404541016 -0.30232560634613037 0.9568239450454712
-0.038759708404541016 -0.28682172298431396 0.7755478620529175
-0.038759708404541016 -0.28682172298431396 0.9695799350738525
-0.038759708404541016 -0.27131783962249756 0.7669892311096191
-0.038759708404541016 -0.27131783962249756 0.9811682105064392
-0.038759708404541016 -0.25581395626068115 -0.14918796718120575
-0.038759708404541016 -0.25581395626068115 -0.051031049340963364
-0.038759708404541016 -0.25581395626068115 0.7640277743339539
-0.038759708404541016 -0.25581395626068115 0.9858933091163635
-0.03875970467925072 -0.24031007289886475 -0.16008082032203674
-0.038759708404541016 -0.24031007289886475 -0.0061826929450035095
-0.038759708404541016 -0.24031007289886475 0.7627607583999634
-0.038759708404541016 -0.24031007289886475 0.9869998097419739
-0.038759708404541016 -0.22480618953704834 -0.16829010844230652
-0.038759708404541016 -0.22480618953704834 0.02500675618648529
-0.038759708404541016 -0.22480618953704834 0.7656030654907227
-0.038759708404541016 -0.22480618953704834 0.9872951507568359
-0.038759708404541016 -0.20930230617523193 -0.17727647721767426
-0.038759708404541016 -0.20930230617523193 0.04814426973462105
-0.038759708404541016 -0.20930230617523193 0.772598922252655
-0.038759708404541016 -0.20930230617523193 0.9867669343948364
-0.038759708404541016 -0.19379842281341553 -0.17881084978580475
-0.038759708404541016 -0.19379842281341553 0.05970325320959091
-0.038759708404541016 -0.19379842281341553 0.781944215297699
-0.038759708404541016 -0.19379842281341553 0.9852937459945679
-0.03875970467925072 -0.1782945841550827 -0.17701628804206848
-0.038759708404541016 -0.1782945990562439 0.0675438940525055
-0.038759708404541016 -0.1782945990562439 0.7963659167289734
-0.038759708404541016 -0.1782945990562439 0.9786018133163452
-0.038759708404541016 -0.1627907156944275 -0.1701735556125641
-0.038759708404541016 -0.1627907156944275 0.07345803081989288
-0.038759708404541016 -0.1627907156944275 0.8174391388893127
-0.038759708404541016 -0.1627907156944275 0.9679917693138123
