0.16279065608978271 0.16279065608978271 0.1823665350675583
0.16279065608978271 0.16279065608978271 0.2902834415435791
0.16279065608978271 0.16279065608978271 0.9450570344924927
0.16279065608978271 0.17829453945159912 -0.14193248748779297
0.16279065608978271 0.17829453945159912 0.15272071957588196
0.16279065608978271 0.17829453945159912 0.34868746995925903
0.16279065608978271 0.17829453945159912 0.9383147358894348
0.16279065608978271 0.19379842281341553 -0.13527515530586243
0.16279065608978271 0.19379842281341553 0.13322313129901886
0.16279065608978271 0.19379842281341553 0.3792729079723358
0.16279065608978271 0.19379842281341553 0.6090513467788696
0.16279065608978271 0.19379842281341553 0.6982026696205139
0.16279065608978271 0.19379842281341553 0.9235158562660217
0.16279065608978271 0.20930230617523193 -0.1322072595357895
0.16279065608978271 0.20930230617523193 0.11823871731758118
0.16279065608978271 0.20930230617523193 0.3879569172859192
0.16279065608978271 0.20930230617523193 0.6051452159881592
0.16279065608978271 0.22480618953704834 -0.12996618449687958
0.16279065608978271 0.22480618953704834 0.10487102717161179
0.16279065608978271 0.22480618953704834 0.39164409041404724
0.16279065608978271 0.22480618953704834 0.5956526398658752
0.16279065608978271 0.24031007289886475 -0.1274443119764328
0.16279065608978271 0.24031007289886475 0.09264787286520004
0.16279065608978271 0.24031007289886475 0.3938647508621216
0.16279065608978271 0.24031007289886475 0.5681087374687195
0.16279065608978271 0.25581395626068115 -0.12367263436317444
0.16279065608978271 0.25581395626068115 0.07925907522439957
0.16279065608978271 0.25581395626068115 0.39532583951950073
0.16279065608978271 0.25581395626068115 0.5046654343605042
0.16279065608978271 0.27131783962249756 -0.11682818084955215
0.16279065608978271 0.27131783962249756 0.059100568294525146
0.16279065608978271 0.27131783962249756 0.4104224443435669
0.16279065608978271 0.27131783962249756 0.441059410572052
0.16279065608978271 0.28682172298431396 -0.09430153667926788
0.16279065608978271 0.28682172298431396 0.015560615807771683
0.17829453945159912 -0.10077518224716187 -0.30667567253112793
0.17829453945159912 -0.10077518224716187 -0.26301395893096924
0.17829453945159912 -0.08527129888534546 -0.3183214068412781
0.17829453945159912 -0.08527129888534546 -0.25177112221717834
0.17829453945159912 -0.06976741552352905 -0.32004719972610474
0.17829455435276031 -0.06976741552352905 -0.23941181600093842
0.17829453945159912 -0.05426359549164772 -0.3174428343772888
0.17829453945159912 -0.05426359176635742 -0.2245011329650879
0.17829453945159912 -0.038759708404541016 -0.306881308555603
0.17829453945159912 -0.038759708404541016 -0.2056531012058258
0.17829453945159912 -0.02325582504272461 -0.3034883737564087
0.17829453945159912 -0.02325582504272461 -0.17746806144714355
0.17829453945159912 -0.007751941680908203 -0.2902776300907135
0.17829453945159912 -0.007751941680908203 -0.14584751427173615
0.17829453945159912 -0.007751941680908203 0.8051644563674927
0.17829453945159912 -0.007751941680908203 0.8553831577301025
0.17829453945159912 0.007751941680908203 -0.2700147032737732
0.17829453945159912 0.007751941680908203 -0.11749343574047089
0.17829453945159912 0.007751941680908203 0.4376131296157837
0.17829453945159912 0.007751941680908203 0.4752047657966614
0.17829453945159912 0.007751941680908203 0.7727265357971191
0.17829453945159912 0.007751941680908203 0.8894098401069641
0.17829453945159912 0.02325582504272461 -0.24841153621673584
0.17829453945159912 0.02325582504272461 -0.08958892524242401
0.17829453945159912 0.02325582504272461 0.4203491508960724
0.17829453945159912 0.02325582504272461 0.5186635255813599
0.17829453945159912 0.02325582504272461 0.7438968420028687
0.17829453945159912 0.02325582504272461 0.9283460378646851
0.17829453945159912 0.038759708404541016 -0.24184396862983704
0.17829453945159912 0.038759708404541016 -0.053782571107149124
0.17829453945159912 0.038759708404541016 0.40944191813468933
0.17829453945159912 0.038759708404541016 0.555076539516449
0.17829453945159912 0.038759708404541016 0.715438187122345
0.17829453945159912 0.038759708404541016 0.9733045101165771
0.17829453945159912 0.05426359176635742 -0.23409762978553772
0.17829453945159912 0.05426359176635742 -0.0014661916065961123
0.17829453945159912 0.05426359176635742 0.39561983942985535
0.17829453945159912 0.05426359176635742 0.5675796866416931
0.17829453945159912 0.05426359176635742 0.6938188076019287
0.17829453945159912 0.05426359176635742 0.9783434867858887
0.17829453945159912 0.06976747512817383 -0.22836294770240784
0.17829453945159912 0.06976747512817383 0.152169331908226
0.17829453945159912 0.06976747512817383 0.3446085453033447
0.17829453945159912 0.06976747512817383 0.5785754323005676
0.17829453945159912 0.06976747512817383 0.6753813028335571
0.17829453945159912 0.06976747512817383 0.9752699136734009
0.17829453945159912 0.08527135848999023 -0.2205689400434494
0.17829453945159912 0.08527135848999023 0.6015729904174805
0.17829453945159912 0.08527135848999023 0.6288252472877502
0.17829453945159912 0.08527135848999023 0.9706248044967651
0.17829453945159912 0.10077524185180664 -0.2119273692369461
0.17829453945159912 0.10077524185180664 0.9639802575111389
0.17829453945159912 0.11627912521362305 -0.19993925094604492
0.17829453945159912 0.11627912521362305 0.959119439125061
0.17829453945159912 0.1317828893661499 -0.18269985914230347
0.17829453945159912 0.1317828893661499 0.9556980729103088
0.17829453945159912 0.1472867727279663 -0.16415461897850037
0.17829453945159912 0.1472867727279663 0.19315114617347717
0.17829453945159912 0.1472867727279663 0.2668498158454895
0.17829453945159912 0.1472867727279663 0.9506441354751587
0.17829453945159912 0.16279065608978271 -0.14738228917121887
0.17829453945159912 0.16279065608978271 0.1590462028980255
0.17829453945159912 0.16279065608978271 0.33873894810676575
0.17829453945159912 0.16279065608978271 0.9437171220779419
0.17829453945159912 0.17829453945159912 -0.13592076301574707
0.17829453945159912 0.17829453945159912 0.13478486239910126
0.17829453945159912 0.17829453945159912 0.3719693720340729
0.17829453945159912 0.17829453945159912 0.9360316395759583
0.17829453945159912 0.19379842281341553 -0.12894023954868317
0.17829453945159912 0.19379842281341553 0.11706922948360443
0.17829453945159912 0.19379842281341553 0.38394466042518616
0.17829453945159912 0.19379842281341553 0.6074972152709961
0.17829453945159912 0.19379842281341553 0.6991173028945923
0.17829453945159912 0.19379842281341553 0.921901524066925
0.17829453945159912 0.20930230617523193 -0.12552639842033386
0.17829453945159912 0.20930230617523193 0.10218270123004913
0.17829453945159912 0.20930230617523193 0.3896876573562622
0.17829453945159912 0.20930230617523193 0.6034185886383057
0.17829453945159912 0.22480618953704834 -0.12397589534521103
0.17829453945159912 0.22480618953704834 0.08909890055656433
0.17829453945159912 0.22480618953704834 0.3928511142730713
0.17829453945159912 0.22480618953704834 0.5944367051124573
0.17829453945159912 0.24031007289886475 -0.12220678478479385
0.17829453945159912 0.24031007289886475 0.07750920951366425
0.17829453945159912 0.24031007289886475 0.39495548605918884
0.17829453945159912 0.24031007289886475 0.5647829174995422
0.17829453945159912 0.25581395626068115 -0.11877754330635071
0.17829453945159912 0.25581395626068115 0.06447155773639679
0.17829453945159912 0.25581395626068115 0.3987433910369873
0.17829453945159912 0.25581395626068115 0.4953894019126892
0.17829453945159912 0.27131783962249756 -0.10797486454248428
0.17829453945159912 0.27131783962249756 0.04198409616947174
0.17829453945159912 0.28682172298431396 -0.07341326773166656
0.17829453945159912 0.28682172298431396 -0.019409293308854103
0.19379842281341553 -0.10077518224716187 -0.2950872778892517
0.19379842281341553 -0.10077518224716187 -0.26112425327301025
0.19379842281341553 -0.08527129888534546 -0.30756065249443054
0.19379842281341553 -0.08527129888534546 -0.24923618137836456
0.19379842281341553 -0.06976741552352905 -0.3121723532676697
0.19379842281341553 -0.06976741552352905 -0.23629087209701538
0.19379842281341553 -0.05426359176635742 -0.30898401141166687
0.19379843771457672 -0.05426359176635742 -0.22101721167564392
0.19379842281341553 -0.038759708404541016 -0.30426838994026184
0.19379842281341553 -0.038759708404541016 -0.20198243856430054
0.19379842281341553 -0.02325582504272461 -0.29694098234176636
0.19379842281341553 -0.02325582504272461 -0.17579352855682373
0.19379842281341553 -0.007751941680908203 -0.28699180483818054
0.19379842281341553 -0.007751941680908203 -0.1474592387676239
0.19379842281341553 0.007751941680908203 -0.2628245949745178
0.19379842281341553 0.007751941680908203 -0.1239672303199768
0.19379842281341553 0.007751941680908203 0.7811641693115234
0.19379842281341553 0.007751941680908203 0.8810580968856812
0.19379842281341553 0.02325582504272461 -0.24659126996994019
0.19379842281341553 0.02325582504272461 -0.09722837805747986
0.19379842281341553 0.02325582504272461 0.4314441680908203
0.19379842281341553 0.02325582690536976 0.5068688988685608
0.19379842281341553 0.02325582504272461 0.7513140439987183
0.19379842281341553 0.02325582504272461 0.9220371842384338
0.19379842281341553 0.038759708404541016 -0.24064791202545166
0.19379842281341553 0.038759708404541016 -0.06655773520469666
0.19379842281341553 0.038759708404541016 0.4219188690185547
0.19379842281341553 0.038759708404541016 0.5516030192375183
0.19379842281341553 0.038759708404541016 0.7229565382003784
0.19379842281341553 0.038759708404541016 0.9707794189453125
0.19379842281341553 0.05426359176635742 -0.23046812415122986
0.19379842281341553 0.05426359549164772 -0.021009614691138268
0.19379842281341553 0.05426359176635742 0.41044557094573975
0.19379840791225433 0.05426358804106712 0.5662315487861633
0.19379842281341553 0.05426359176635742 0.7018505930900574
0.19379842281341553 0.05426359176635742 0.9749491214752197
0.19379842281341553 0.06976747512817383 -0.22535622119903564
0.19379842281341553 0.06976747512817383 0.04832141846418381
0.19379842281341553 0.06976747512817383 0.3978425860404968
0.19379842281341553 0.06976747512817383 0.5745192766189575
0.19379842281341553 0.06976747512817383 0.6871811747550964
0.19379842281341553 0.06976747512817383 0.9728484153747559
0.19379842281341553 0.08527135848999023 -0.2157118022441864
0.19379842281341553 0.08527135848999023 0.12309993803501129
0.19379842281341553 0.08527135848999023 0.37084850668907166
0.19379842281341553 0.08527135848999023 0.5878269672393799
0.19379842281341553 0.08527135848999023 0.6533379554748535
0.19379842281341553 0.08527135848999023 0.9675396680831909
0.19379842281341553 0.10077524185180664 -0.20594382286071777
0.19379842281341553 0.10077524185180664 0.16974389553070068
0.19379842281341553 0.10077524185180664 0.328063428401947
0.19379842281341553 0.10077524185180664 0.9612019658088684
0.19379842281341553 0.11627912521362305 -0.19289329648017883
0.19379842281341553 0.11627912521362305 0.9572811126708984
0.19379842281341553 0.1317828893661499 -0.17416372895240784
0.19379842281341553 0.1317828893661499 0.20363828539848328
0.19379842281341553 0.1317828893661499 0.2237926721572876
0.19379842281341553 0.1317828893661499 0.9541159868240356
0.19379842281341553 0.1472867727279663 -0.15565109252929688
0.19379842281341553 0.1472867727279663 0.1593884527683258
0.19379842281341553 0.1472867727279663 0.3329511880874634
0.19379842281341553 0.1472867727279663 0.9477521181106567
0.19379842281341553 0.16279065608978271 -0.13900212943553925
0.19379842281341553 0.16279065608978271 0.13443593680858612
0.19379842281341553 0.16279065608978271 0.3586035966873169
0.19379842281341553 0.16279065608978271 0.9422703385353088
0.19379842281341553 0.17829453945159912 -0.12682364881038666
0.19379842281341553 0.17829453945159912 0.1128462702035904
0.19379842281341553 0.17829453945159912 0.37587690353393555
0.19379842281341553 0.17829453945159912 0.6039415001869202
0.19379842281341553 0.17829453945159912 0.6531350612640381
0.19379842281341553 0.17829453945159912 0.9332700371742249
0.19379842281341553 0.19379842281341553 -0.12062649428844452
0.19379842281341553 0.19379842281341553 0.09491918981075287
0.19379843771457672 0.19379843771457672 0.384106308221817
0.19379842281341553 0.19379842281341553 0.6009206771850586
0.19379842281341553 0.19379842281341553 0.702839732170105
0.19379842281341553 0.19379842281341553 0.9179443120956421
0.19379842281341553 0.20930230617523193 -0.11781971156597137
0.19379842281341553 0.20930230617523193 0.0808059424161911
0.19379842281341553 0.20930230617523193 0.3891570568084717
0.19379842281341553 0.20930230617523193 0.5998753905296326
0.19379842281341553 0.22480618953704834 -0.11635324358940125
0.19379842281341553 0.22480618953704834 0.06965918838977814
0.19379842281341553 0.22480618953704834 0.39239227771759033
0.19379842281341553 0.22480618953704834 0.5923210978507996
0.19379842281341553 0.24031007289886475 -0.11263120174407959
0.19379842281341553 0.24031008780002594 0.05873393639922142
0.19379842281341553 0.24031007289886475 0.39453139901161194
0.19379842281341553 0.24031007289886475 0.5601442456245422
0.19379842281341553 0.25581395626068115 -0.1060539036989212
0.19379842281341553 0.25581395626068115 0.04506037011742592
0.19379842281341553 0.25581395626068115 0.4009486138820648
0.19379842281341553 0.25581395626068115 0.4845060408115387
0.19379842281341553 0.27131783962249756 -0.08863738179206848
0.19379842281341553 0.27131783962249756 0.009056278504431248
0.20930230617523193 -0.10077518224716187 -0.2824476659297943
0.20930230617523193 -0.10077518224716187 -0.2626689076423645
0.20930230617523193 -0.08527129888534546 -0.29895105957984924
0.20930230617523193 -0.08527129888534546 -0.24604551494121552
0.20930230617523193 -0.06976741552352905 -0.3056432008743286
0.20930230617523193 -0.06976741552352905 -0.2328014373779297
0.20930230617523193 -0.05426359176635742 -0.30547529458999634
0.20930230617523193 -0.05426359176635742 -0.21749863028526306
0.20930230617523193 -0.038759708404541016 -0.30235734581947327
0.20930230617523193 -0.038759708404541016 -0.19895629584789276
0.20930230617523193 -0.02325582504272461 -0.29337871074676514
0.20930230617523193 -0.02325582504272461 -0.1748916506767273
0.20930230617523193 -0.007751941680908203 -0.28298625349998474
0.20930230617523193 -0.007751941680908203 -0.14911632239818573
0.20930230617523193 0.007751941680908203 -0.2632233500480652
0.20930229127407074 0.007751941680908203 -0.12866416573524475
0.20930230617523193 0.007751941680908203 0.7940084338188171
0.20930230617523193 0.007751941680908203 0.8696027398109436
0.20930230617523193 0.02325582504272461 -0.24853166937828064
0.20930230617523193 0.02325582504272461 -0.10301245003938675
0.20930230617523193 0.02325582504272461 0.44792690873146057
0.20930230617523193 0.02325582504272461 0.49288254976272583
0.20930230617523193 0.02325582504272461 0.7589229345321655
0.20930230617523193 0.02325582504272461 0.9130158424377441
0.20930230617523193 0.038759708404541016 -0.2411728799343109
0.20930230617523193 0.038759708404541016 -0.07590320706367493
0.20930230617523193 0.038759708404541016 0.4355487525463104
0.20930230617523193 0.038759708404541016 0.5446350574493408
0.20930230617523193 0.038759708404541016 0.7301403284072876
0.20930230617523193 0.038759708404541016 0.9690427780151367
0.20930230617523193 0.05426359176635742 -0.2299085557460785
0.20930232107639313 0.05426359176635742 -0.036622900515794754
0.20930230617523193 0.05426359176635742 0.425243079662323
0.20930230617523193 0.05426359176635742 0.5626890063285828
0.20930230617523193 0.05426359176635742 0.7076209783554077
0.20930230617523193 0.05426359176635742 0.9726380705833435
0.20930229127407074 0.06976746767759323 -0.22327157855033875
0.20930230617523193 0.06976747512817383 0.01705274172127247
0.20930232107639313 0.06976747512817383 0.41342929005622864
0.20930230617523193 0.06976747512817383 0.5697974562644958
0.20930230617523193 0.06976747512817383 0.6975318193435669
0.20930230617523193 0.06976747512817383 0.9705748558044434
0.20930230617523193 0.08527135848999023 -0.21309129893779755
0.20930230617523193 0.08527135848999023 0.08412295579910278
0.20930230617523193 0.08527135848999023 0.4019690155982971
0.20930230617523193 0.08527136594057083 0.5817641019821167
0.20930230617523193 0.08527135848999023 0.6835355758666992
0.20930230617523193 0.08527135848999023 0.9640429019927979
0.20930230617523193 0.10077524185180664 -0.20253360271453857
0.20930230617523193 0.10077524185180664 0.11957580596208572
0.20930230617523193 0.10077524185180664 0.3834601640701294
0.20930230617523193 0.10077524185180664 0.5903595089912415
0.20930230617523193 0.10077524185180664 0.6576141119003296
0.20930230617523193 0.10077524185180664 0.9589329957962036
0.20930230617523193 0.11627912521362305 -0.18940776586532593
0.20930230617523193 0.11627912521362305 0.14527621865272522
0.20930230617523193 0.11627912521362305 0.35529202222824097
0.20930230617523193 0.11627912521362305 0.6018550992012024
0.20930230617523193 0.11627912521362305 0.6425999402999878
0.20930230617523193 0.11627912521362305 0.9552168846130371
0.20930230617523193 0.1317828893661499 -0.17141467332839966
0.20930230617523193 0.1317828893661499 0.15532034635543823
0.20930230617523193 0.1317828893661499 0.3447181284427643
0.20930230617523193 0.1317828893661499 0.6051623821258545
0.20930230617523193 0.1317828893661499 0.6377863883972168
0.20930230617523193 0.1317828893661499 0.951209306716919
0.20930230617523193 0.1472867727279663 -0.15239796042442322
0.20930230617523193 0.1472867727279663 0.1413843333721161
0.20930230617523193 0.1472867727279663 0.348202109336853
0.20930230617523193 0.1472867727279663 0.601492702960968
0.20930230617523193 0.1472867727279663 0.6429601311683655
0.20930230617523193 0.1472867727279663 0.9455457925796509
0.20930230617523193 0.16279065608978271 -0.13468816876411438
0.20930230617523193 0.16279065608978271 0.12082573771476746
0.20930230617523193 0.16279065608978271 0.3621729016304016
0.20930230617523193 0.16279065608978271 0.5978014469146729
0.20930230617523193 0.16279065608978271 0.6558932065963745
0.20930230617523193 0.16279064118862152 0.9409189820289612
0.20930230617523193 0.17829453945159912 -0.12062056362628937
0.20930230617523193 0.17829453945159912 0.10009782016277313
0.20930230617523193 0.17829453945159912 0.3759268820285797
0.20930230617523193 0.17829453945159912 0.5965569615364075
0.20930230617523193 0.17829453945159912 0.673187255859375
0.20930230617523193 0.17829453945159912 0.9313370585441589
0.20930230617523193 0.19379842281341553 -0.11167245358228683
0.20930230617523193 0.19379842281341553 0.08133983612060547
0.20930230617523193 0.19379842281341553 0.3818874955177307
0.20930230617523193 0.19379842281341553 0.5965418815612793
0.20930230617523193 0.19379842281341553 0.7066248655319214
0.20930230617523193 0.19379842281341553 0.9154543876647949
0.20930230617523193 0.20930230617523193 -0.1066761314868927
0.20930230617523193 0.20930230617523193 0.06633076071739197
0.20930230617523193 0.20930230617523193 0.38678544759750366
0.20930230617523193 0.20930230617523193 0.5958020687103271
0.20930230617523193 0.22480618953704834 -0.10414925217628479
0.20930232107639313 0.22480618953704834 0.05454530566930771
0.20930230617523193 0.22480618953704834 0.3903764486312866
0.20930230617523193 0.22480618953704834 0.5867627263069153
0.20930230617523193 0.24031007289886475 -0.10117127001285553
0.20930232107639313 0.24031007289886475 0.04370034486055374
0.20930230617523193 0.24031007289886475 0.3932938873767853
0.20930230617523193 0.24031007289886475 0.5538344383239746
0.20930230617523193 0.25581395626068115 -0.08914493769407272
0.20930230617523193 0.25581395626068115 0.025482814759016037
0.20930230617523193 0.25581395626068115 0.407348096370697
0.20930230617523193 0.25581395626068115 0.46826785802841187
0.22480618953704834 -0.08527129888534546 -0.290248841047287
0.22480618953704834 -0.08527129888534546 -0.24530628323554993
0.22480618953704834 -0.06976741552352905 -0.2985200881958008
0.22480618953704834 -0.06976741552352905 -0.2304392158985138
0.22480618953704834 -0.05426359176635742 -0.3016126751899719
0.22480618953704834 -0.05426359176635742 -0.21521563827991486
0.22480617463588715 -0.038759708404541016 -0.2961646616458893
0.22480618953704834 -0.038759708404541016 -0.19652026891708374
0.22480618953704834 -0.02325582504272461 -0.2915261387825012
0.22480618953704834 -0.02325582504272461 -0.17241650819778442
0.22480618953704834 -0.007751941680908203 -0.2804577350616455
0.22480618953704834 -0.007751941680908203 -0.1478675752878189
0.22480618953704834 0.007751941680908203 -0.2638233006000519
0.22480618953704834 0.007751941680908203 -0.12939214706420898
0.22480618953704834 0.007751941680908203 0.8227069973945618
0.22480618953704834 0.007751941680908203 0.8473190069198608
0.22480618953704834 0.02325582504272461 -0.25057291984558105
0.22480618953704834 0.02325582504272461 -0.10571803152561188
0.22480618953704834 0.02325582504272461 0.7665799856185913
0.22480618953704834 0.02325582504272461 0.9045772552490234
0.22480618953704834 0.038759708404541016 -0.2414897382259369
0.22480618953704834 0.038759708404541016 -0.07909725606441498
0.22480618953704834 0.038759708404541016 0.4493843913078308
0.22480618953704834 0.038759712129831314 0.5351169109344482
0.22480618953704834 0.038759708404541016 0.7356171011924744
0.22480618953704834 0.038759708404541016 0.9638155698776245
0.22480618953704834 0.05426359176635742 -0.22954127192497253
0.22480618953704834 0.05426359176635742 -0.044957440346479416
0.22480618953704834 0.05426359176635742 0.43859314918518066
0.22480618953704834 0.05426359176635742 0.5573676824569702
0.22480618953704834 0.05426359176635742 0.7139596939086914
0.22480618953704834 0.05426359176635742 0.9704291224479675
0.22480618953704834 0.06976747512817383 -0.21946243941783905
0.22480618953704834 0.06976747512817383 0.001408301293849945
0.22480618953704834 0.06976747512817383 0.4258618950843811
0.22480618953704834 0.06976748257875443 0.5665566921234131
0.22480618953704834 0.06976747512817383 0.7028888463973999
0.22480618953704834 0.06976747512817383 0.9690293073654175
0.22480618953704834 0.08527135848999023 -0.21052545309066772
0.22480620443820953 0.08527136594057083 0.05520901083946228
0.22480618953704834 0.08527135848999023 0.4139009714126587
0.22480618953704834 0.08527135848999023 0.5736851692199707
0.22480618953704834 0.08527135848999023 0.6959840655326843
0.22480618953704834 0.08527135848999023 0.9614262580871582
0.22480618953704834 0.10077524185180664 -0.19898296892642975
0.22480618953704834 0.10077524185180664 0.0962979719042778
0.22480618953704834 0.10077524185180664 0.40138283371925354
0.22480618953704834 0.10077524930238724 0.5819315314292908
0.22480618953704834 0.10077524185180664 0.6861446499824524
0.22480618953704834 0.10077524185180664 0.9567795991897583
0.22480618953704834 0.11627913266420364 -0.18670567870140076
0.22480618953704834 0.11627912521362305 0.12430411577224731
0.22480618953704834 0.11627912521362305 0.37840211391448975
0.22480617463588715 0.11627912521362305 0.5840622186660767
0.22480618953704834 0.11627912521362305 0.6728967428207397
0.22480618953704834 0.11627912521362305 0.9528912901878357
0.22480618953704834 0.1317828893661499 -0.17039495706558228
0.22480618953704834 0.1317828893661499 0.14196442067623138
0.22480618953704834 0.1317828893661499 0.35578081011772156
0.22480618953704834 0.1317828893661499 0.5852795839309692
0.22480618953704834 0.1317828893661499 0.6691669225692749
0.22480618953704834 0.1317828893661499 0.9481308460235596
0.22480618953704834 0.1472867727279663 -0.15174758434295654
0.22480618953704834 0.1472867727279663 0.13873428106307983
0.22480618953704834 0.14728675782680511 0.3491394519805908
0.22480618953704834 0.1472867727279663 0.5851470232009888
0.22480618953704834 0.1472867727279663 0.6706334352493286
0.22480618953704834 0.1472867727279663 0.9438349008560181
0.22480618953704834 0.16279065608978271 -0.1335849016904831
0.22480618953704834 0.16279065608978271 0.12031447887420654
0.22480618953704834 0.16279065608978271 0.35885173082351685
0.22480618953704834 0.16279065608978271 0.5847981572151184
0.22480618953704834 0.16279065608978271 0.6744567155838013
0.22480617463588715 0.16279065608978271 0.9393905401229858
0.22480618953704834 0.17829453945159912 -0.11846955120563507
0.22480618953704834 0.17829453945159912 0.09832773357629776
0.22480618953704834 0.17829453945159912 0.3659157156944275
0.22480618953704834 0.17829453945159912 0.5848588943481445
0.22480618953704834 0.17829453945159912 0.6874575018882751
0.22480618953704834 0.17829453945159912 0.9299474358558655
0.22480618953704834 0.19379842281341553 -0.10703913867473602
0.22480618953704834 0.19379842281341553 0.0785137414932251
0.22480618953704834 0.19379842281341553 0.3738788366317749
0.22480618953704834 0.19379842281341553 0.585211992263794
0.22480618953704834 0.19379842281341553 0.7097035646438599
0.22480618953704834 0.19379842281341553 0.9145820140838623
0.22480618953704834 0.20930230617523193 -0.1018347442150116
0.22480618953704834 0.20930230617523193 0.06247403472661972
0.22480618953704834 0.20930230617523193 0.37900394201278687
0.22480618953704834 0.20930229127407074 0.5851850509643555
0.22480617463588715 0.22480617463588715 -0.09667311608791351
0.22480618953704834 0.22480618953704834 0.049966197460889816
0.22480618953704834 0.22480618953704834 0.3852112293243408
0.22480618953704834 0.22480618953704834 0.5820428133010864
0.22480618953704834 0.24031007289886475 -0.09009203314781189
0.22480618953704834 0.24031007289886475 0.04051019996404648
0.22480618953704834 0.24031007289886475 0.3934725224971771
0.22480618953704834 0.24031007289886475 0.5418930053710938
0.22480618953704834 0.25581395626068115 -0.07634010910987854
0.22480618953704834 0.25581395626068115 0.010622598230838776
0.24031007289886475 -0.08527129888534546 -0.27756208181381226
0.24031007289886475 -0.08527129888534546 -0.2504268288612366
0.24031007289886475 -0.06976741552352905 -0.29145970940589905
0.24031007289886475 -0.06976741552352905 -0.2297704815864563
0.24031007289886475 -0.05426359176635742 -0.29466530680656433
0.24031007289886475 -0.05426359176635742 -0.21342003345489502
0.24031007289886475 -0.038759708404541016 -0.29267919063568115
0.24031007289886475 -0.038759708404541016 -0.19422206282615662
0.24031007289886475 -0.02325582504272461 -0.2890322506427765
0.24031007289886475 -0.02325582504272461 -0.16985857486724854
0.24031007289886475 -0.007751941680908203 -0.2775736153125763
0.24031007289886475 -0.007751941680908203 -0.14665836095809937
0.24031007289886475 0.007751941680908203 -0.2629352807998657
0.24031007289886475 0.007751941680908203 -0.1290215402841568
0.24031007289886475 0.02325582504272461 -0.24975863099098206
0.24031007289886475 0.02325582504272461 -0.10700108110904694
0.24031007289886475 0.02325582504272461 0.780880331993103
0.24031007289886475 0.02325582318007946 0.8937687277793884
0.24031007289886475 0.038759708404541016 -0.2410212904214859
0.24031007289886475 0.038759708404541016 -0.08194859325885773
0.24031007289886475 0.038759708404541016 0.46880143880844116
0.24031007289886475 0.038759708404541016 0.5163524150848389
0.24031007289886475 0.038759708404541016 0.7451181411743164
0.24031007289886475 0.038759708404541016 0.9587438106536865
0.24031007289886475 0.05426359176635742 -0.22826150059700012
0.24031008780002594 0.05426359176635742 -0.052822500467300415
0.24031007289886475 0.05426359176635742 0.45303699374198914
0.24031008780002594 0.05426359176635742 0.5528727769851685
0.24031007289886475 0.05426359176635742 0.7201352119445801
0.24031007289886475 0.05426359176635742 0.9681358933448792
0.24031007289886475 0.06976747512817383 -0.2157125174999237
0.24031007289886475 0.06976747512817383 -0.018235011026263237
0.24031007289886475 0.06976747512817383 0.43957430124282837
0.24031007289886475 0.06976747512817383 0.5615562200546265
0.24031007289886475 0.06976747512817383 0.7080833911895752
0.24031007289886475 0.06976747512817383 0.9647336602210999
0.24031007289886475 0.08527135848999023 -0.2039494812488556
0.24031007289886475 0.08527135848999023 0.020495310425758362
0.24031007289886475 0.08527135848999023 0.42565402388572693
0.24031007289886475 0.08527135848999023 0.5674144625663757
0.24031007289886475 0.08527135848999023 0.7031660676002502
0.24031007289886475 0.08527135848999023 0.9592589735984802
0.24031007289886475 0.10077524185180664 -0.19397558271884918
0.24031007289886475 0.10077524185180664 0.06543479114770889
0.24031007289886475 0.10077524185180664 0.4114980101585388
0.24031008780002594 0.10077524185180664 0.572327733039856
0.24031007289886475 0.10077524185180664 0.6986380815505981
0.24031007289886475 0.10077524185180664 0.9544329047203064
0.24031007289886475 0.11627912521362305 -0.18076717853546143
0.24031007289886475 0.11627912521362305 0.09950310736894608
0.24031007289886475 0.11627912521362305 0.39719635248184204
0.24031007289886475 0.11627912521362305 0.5776365995407104
0.24031007289886475 0.11627912521362305 0.689782977104187
0.24031007289886475 0.11627912521362305 0.949697732925415
0.24031007289886475 0.1317828893661499 -0.16562868654727936
0.24031007289886475 0.1317828893661499 0.1204354390501976
0.24031007289886475 0.1317828893661499 0.37391766905784607
0.24031007289886475 0.1317828893661499 0.5804737210273743
0.24031007289886475 0.1317828893661499 0.6871461272239685
0.24031007289886475 0.1317828893661499 0.9458777904510498
0.24031007289886475 0.1472867727279663 -0.14755167067050934
0.24031007289886475 0.1472867727279663 0.12420375645160675
0.24031007289886475 0.1472867727279663 0.3508237600326538
0.24031007289886475 0.1472867727279663 0.5815138816833496
0.24031007289886475 0.1472867727279663 0.6870322227478027
0.24031007289886475 0.1472867727279663 0.9423356056213379
0.24031007289886475 0.16279065608978271 -0.12773072719573975
0.24031007289886475 0.16279065608978271 0.11022193729877472
0.24031007289886475 0.16279065608978271 0.331905722618103
0.24031008780002594 0.16279065608978271 0.5816218256950378
0.24031007289886475 0.16279065608978271 0.6888951659202576
0.24031007289886475 0.16279065608978271 0.9380027055740356
0.24031007289886475 0.17829453945159912 -0.11186768114566803
0.24031007289886475 0.17829453945159912 0.08774863928556442
0.24031007289886475 0.17829453945159912 0.3221781849861145
0.24031007289886475 0.17829453945159912 0.5816847681999207
0.24031008780002594 0.17829453945159912 0.6968568563461304
0.24031007289886475 0.17829453945159912 0.9292780160903931
0.24031007289886475 0.19379842281341553 -0.10154018551111221
0.24031007289886475 0.19379842281341553 0.0664416030049324
0.24031007289886475 0.19379842281341553 0.33220991492271423
0.24031005799770355 0.19379842281341553 0.5815819501876831
0.24031007289886475 0.19379842281341553 0.7118808031082153
0.24031007289886475 0.19379842281341553 0.9154885411262512
0.24031007289886475 0.20930230617523193 -0.09178230911493301
0.24031007289886475 0.20930230617523193 0.04612632840871811
0.24031007289886475 0.20930230617523193 0.3525419533252716
0.24031007289886475 0.20930230617523193 0.5811849236488342
0.24031007289886475 0.22480618953704834 -0.0859922245144844
0.24031007289886475 0.22480618953704834 0.03112376481294632
0.24031007289886475 0.22480618953704834 0.37531253695487976
0.24031007289886475 0.22480618953704834 0.5772832632064819
0.24031007289886475 0.24031007289886475 -0.07542895525693893
0.24031007289886475 0.24031007289886475 0.021703029051423073
0.24031008780002594 0.24031008780002594 0.40255501866340637
0.24031007289886475 0.24031007289886475 0.5181047916412354
0.24031007289886475 0.25581395626068115 -0.055737145245075226
0.24031007289886475 0.25581395626068115 -0.02203991264104843
0.25581395626068115 -0.06976741552352905 -0.28044477105140686
0.25581395626068115 -0.06976741552352905 -0.23188823461532593
0.25581395626068115 -0.05426359176635742 -0.2893049716949463
0.25581395626068115 -0.05426359176635742 -0.21130022406578064
0.25581395626068115 -0.038759708404541016 -0.2890465259552002
0.25581395626068115 -0.038759708404541016 -0.19132308661937714
0.25581395626068115 -0.02325582504272461 -0.2839263081550598
0.25581395626068115 -0.02325582504272461 -0.16941672563552856
0.25581395626068115 -0.007751941680908203 -0.27489280700683594
0.25581395626068115 -0.007751941680908203 -0.1470240354537964
0.25581395626068115 0.007751941680908203 -0.2606365978717804
0.25581395626068115 0.007751941680908203 -0.1300634741783142
0.25581395626068115 0.02325582504272461 -0.24632665514945984
0.25581395626068115 0.02325582504272461 -0.11040996015071869
0.25581395626068115 0.02325582504272461 0.8090564012527466
0.25581395626068115 0.02325582504272461 0.8743730783462524
0.25581395626068115 0.038759708404541016 -0.23475326597690582
0.25581395626068115 0.038759708404541016 -0.08868619799613953
0.25581395626068115 0.038759708404541016 0.7601439952850342
0.25581395626068115 0.038759708404541016 0.9475104808807373
0.25581395626068115 0.05426359176635742 -0.22523963451385498
0.25581395626068115 0.05426359176635742 -0.07229819893836975
0.25581395626068115 0.05426359176635742 0.46689754724502563
0.25581395626068115 0.05426359176635742 0.5484515428543091
0.25581395626068115 0.05426359176635742 0.731789231300354
0.25581395626068115 0.05426359176635742 0.9627315998077393
0.25581395626068115 0.06976747512817383 -0.20960359275341034
0.25581395626068115 0.06976747512817383 -0.05769668519496918
0.25581395626068115 0.06976747512817383 0.452528715133667
0.25581395626068115 0.06976747512817383 0.5556897521018982
0.25581395626068115 0.06976747512817383 0.717912495136261
0.25581395626068115 0.06976747512817383 0.9618965983390808
0.25581395626068115 0.08527135848999023 -0.1940138041973114
0.25581395626068115 0.08527135848999023 -0.026942629367113113
0.25581395626068115 0.08527135848999023 0.43897175788879395
0.25581395626068115 0.08527135848999023 0.5631787776947021
0.25581395626068115 0.08527135848999023 0.7104889154434204
0.25581395626068115 0.08527135848999023 0.9572939872741699
0.25581395626068115 0.10077524185180664 -0.17884567379951477
0.25581395626068115 0.10077524185180664 0.01099984161555767
0.25581395626068115 0.10077524185180664 0.4246678650379181
0.25581395626068115 0.10077524185180664 0.5670480728149414
0.25581395626068115 0.10077524185180664 0.7050485610961914
0.25581395626068115 0.10077524185180664 0.9532957077026367
0.25581395626068115 0.11627912521362305 -0.16290269792079926
0.25581395626068115 0.11627912521362305 0.05508971959352493
0.25581395626068115 0.11627912521362305 0.4101617634296417
0.25581395626068115 0.11627912521362305 0.5689763426780701
0.25581395626068115 0.11627912521362305 0.7036359906196594
0.25581395626068115 0.11627912521362305 0.9486526846885681
0.25581395626068115 0.1317828893661499 -0.13928110897541046
0.25581395626068115 0.1317828893661499 0.08379548043012619
0.25581395626068115 0.1317828893661499 0.395749032497406
0.25581395626068115 0.1317828893661499 0.5706399083137512
0.25581395626068115 0.1317828893661499 0.701511025428772
0.25581395626068115 0.1317828893661499 0.9451642632484436
0.25581395626068115 0.1472867727279663 -0.11882662028074265
0.25581395626068115 0.1472867727279663 0.08937961608171463
0.25581395626068115 0.1472867727279663 0.35181814432144165
0.25581395626068115 0.1472867727279663 0.572313129901886
0.25581395626068115 0.1472867727279663 0.700256884098053
0.25581395626068115 0.1472867727279663 0.9411705732345581
0.25581395626068115 0.16279065608978271 -0.1031573936343193
0.25581395626068115 0.16279065608978271 0.0771118775010109
0.25581395626068115 0.16279065608978271 0.290613055229187
0.25581395626068115 0.16279065608978271 0.5737987756729126
0.25581395626068115 0.16279065608978271 0.7007666826248169
0.25581395626068115 0.16279065608978271 0.9365527629852295
0.25581395626068115 0.17829453945159912 -0.086993508040905
0.25581395626068115 0.17829453945159912 0.04710487276315689
0.25581395626068115 0.17829453945159912 0.2755539119243622
0.25581395626068115 0.17829453945159912 0.5749422311782837
0.25581395626068115 0.17829453945159912 0.7025625109672546
0.25581395626068115 0.17829453945159912 0.9293574094772339
0.25581395626068115 0.19379842281341553 -0.06991825252771378
0.25581395626068115 0.19379842281341553 0.009387577883899212
0.25581395626068115 0.19379842281341553 0.27903181314468384
0.25581395626068115 0.19379842281341553 0.5753318071365356
0.25581395626068115 0.19379842281341553 0.7119813561439514
0.25581395626068115 0.19379842281341553 0.9177326560020447
0.25581395626068115 0.20930230617523193 -0.04368703067302704
0.25581395626068115 0.20930230617523193 -0.02025505341589451
0.25581395626068115 0.20930230617523193 0.2984452247619629
0.25581395626068115 0.20930230617523193 0.575411319732666
0.25581395626068115 0.22480618953704834 0.3507840931415558
0.25581395626068115 0.22480618953704834 0.572314441204071
0.25581395626068115 0.24031007289886475 0.42256593704223633
0.25581395626068115 0.24031007289886475 0.4841853082180023
0.27131783962249756 -0.06976741552352905 -0.2572084963321686
0.27131783962249756 -0.06976741552352905 -0.2519834041595459
0.27131783962249756 -0.05426359176635742 -0.27918848395347595
0.27131783962249756 -0.05426359176635742 -0.21137967705726624
0.27131783962249756 -0.038759708404541016 -0.28207260370254517
0.27131783962249756 -0.038759708404541016 -0.19071558117866516
0.27131783962249756 -0.02325582504272461 -0.2781040668487549
0.27131783962249756 -0.02325582504272461 -0.17390969395637512
0.27131783962249756 -0.007751941680908203 -0.271458238363266
0.27131783962249756 -0.007751941680908203 -0.15722650289535522
0.27131783962249756 0.007751941680908203 -0.2578395903110504
0.27131783962249756 0.007751941215246916 -0.14133751392364502
0.27131783962249756 0.02325582504272461 -0.2432875633239746
0.27131783962249756 0.02325582504272461 -0.12486894428730011
0.27131783962249756 0.038759708404541016 -0.22908279299736023
0.27131783962249756 0.038759708404541016 -0.11033385992050171
0.27131783962249756 0.038759708404541016 0.805708646774292
0.27131783962249756 0.038759708404541016 0.9264134168624878
0.27131783962249756 0.05426359176635742 -0.21389126777648926
0.27131783962249756 0.05426359176635742 -0.10371754318475723
0.27131783962249756 0.05426358804106712 0.4750478267669678
0.27131783962249756 0.05426359176635742 0.537868857383728
0.27131783962249756 0.05426359176635742 0.7844539880752563
0.27131783962249756 0.05426359176635742 0.9543308019638062
0.27131783962249756 0.06976747512817383 -0.18717530369758606
0.27131783962249756 0.06976747512817383 -0.10596604645252228
0.27131783962249756 0.06976747512817383 0.45905786752700806
0.27131783962249756 0.06976747512817383 0.5540151596069336
0.27131783962249756 0.06976747512817383 0.8042012453079224
0.27131783962249756 0.06976747512817383 0.955157995223999
0.27131783962249756 0.08527135848999023 -0.16754481196403503
0.27131783962249756 0.08527135848999023 -0.11187667399644852
0.27131783962249756 0.08527135848999023 0.4488523006439209
0.27131783962249756 0.08527135848999023 0.5612214803695679
0.27131783962249756 0.08527135848999023 0.8339112997055054
0.27131783962249756 0.08527135848999023 0.9518128037452698
0.27131783962249756 0.10077524185180664 0.43837642669677734
0.27131786942481995 0.10077524930238724 0.5659517645835876
0.27131783962249756 0.10077524185180664 0.8681528568267822
0.27131783962249756 0.10077524185180664 0.9457213282585144
0.27131783962249756 0.11627912521362305 0.42547109723091125
0.27131783962249756 0.11627912521362305 0.5668684244155884
0.27131783962249756 0.11627912521362305 0.9022372961044312
0.27131783962249756 0.11627911776304245 0.9394883513450623
0.27131783962249756 0.1317828893661499 -0.05652523785829544
0.27131783962249756 0.1317828893661499 -0.007595903240144253
0.27131783962249756 0.1317828893661499 0.4101487696170807
0.27131783962249756 0.1317828893661499 0.567798376083374
0.27131783962249756 0.1317828893661499 0.9028688669204712
0.27131783962249756 0.1317828893661499 0.9313840270042419
0.27131783962249756 0.1472867727279663 -0.04089612513780594
0.27131783962249756 0.1472867727279663 -0.00722537562251091
0.27131783962249756 0.1472867727279663 0.36347511410713196
0.27131783962249756 0.1472867727279663 0.5689457654953003
0.27131783962249756 0.1472867727279663 0.8973478078842163
0.27131783962249756 0.1472867727279663 0.927075982093811
0.27131783962249756 0.16279065608978271 0.2817699909210205
0.27131783962249756 0.16279065608978271 0.5702553391456604
0.27131783962249756 0.16279065608978271 0.8829388618469238
0.27131783962249756 0.16279065608978271 0.9252466559410095
0.27131783962249756 0.17829453945159912 0.2589585483074188
0.27131783962249756 0.17829453945159912 0.5717887878417969
0.27131783962249756 0.17829453945159912 0.8337827920913696
0.27131783962249756 0.17829453945159912 0.9235826730728149
0.27131783962249756 0.19379842281341553 0.25550729036331177
0.27131783962249756 0.19379842281341553 0.5729321241378784
0.27131783962249756 0.19379842281341553 0.7817392349243164
0.27131783962249756 0.19379842281341553 0.9172573089599609
0.27131783962249756 0.20930230617523193 0.267536997795105
0.27131783962249756 0.20930230617523193 0.573600172996521
0.27131783962249756 0.22480618953704834 0.3145274221897125
0.27131783962249756 0.22480618953704834 0.5709538459777832
0.28682172298431396 -0.05426359176635742 -0.26478686928749084
0.28682172298431396 -0.05426359176635742 -0.21819505095481873
0.28682172298431396 -0.038759708404541016 -0.27643346786499023
0.28682172298431396 -0.038759708404541016 -0.19175276160240173
0.28682172298431396 -0.02325582504272461 -0.27501586079597473
0.28682172298431396 -0.02325582504272461 -0.177829310297966
0.28682172298431396 -0.007751941680908203 -0.26343923807144165
0.28682172298431396 -0.007751941680908203 -0.1717698872089386
0.28682172298431396 0.007751941680908203 -0.2512282133102417
0.28682172298431396 0.007751941680908203 -0.16031888127326965
0.28682172298431396 0.02325582504272461 -0.23907087743282318
0.28682172298431396 0.02325582504272461 -0.14894339442253113
0.28682172298431396 0.038759708404541016 -0.22389043867588043
0.28682172298431396 0.038759708404541016 -0.14159846305847168
0.28682172298431396 0.05426359176635742 -0.16959340870380402
0.28682172298431396 0.05426359176635742 -0.13953682780265808
0.28682172298431396 0.06976747512817383 0.4732363224029541
0.28682172298431396 0.06976747512817383 0.513209879398346
0.28682172298431396 0.08527135848999023 0.4602905511856079
0.28682172298431396 0.08527135848999023 0.5182127952575684
0.28682172298431396 0.10077524185180664 0.45147716999053955
0.28682172298431396 0.10077524185180664 0.5174882411956787
0.28682172298431396 0.11627912521362305 0.44105345010757446
0.28682172298431396 0.11627912521362305 0.5168157815933228
0.28682172298431396 0.1317828893661499 0.4293052554130554
0.28682172298431396 0.1317828893661499 0.518063485622406
0.28682172298431396 0.1472867727279663 0.3939332067966461
0.28682172298431396 0.14728675782680511 0.5209940075874329
0.28682172298431396 0.16279065608978271 0.27432578802108765
0.28682172298431396 0.16279065608978271 0.5250975489616394
0.28682172298431396 0.17829453945159912 0.24501323699951172
0.28682172298431396 0.17829453945159912 0.5297771692276001
0.28682172298431396 0.19379842281341553 0.23675037920475006
0.2868216931819916 0.19379842281341553 0.5353487133979797
0.28682172298431396 0.20930230617523193 0.24897190928459167
0.28682172298431396 0.20930230617523193 0.5412541627883911
0.28682172298431396 0.22480618953704834 0.28555530309677124
0.28682172298431396 0.22480618953704834 0.546084463596344
0.30232560634613037 -0.038759708404541016 -0.2659432590007782
0.30232560634613037 -0.038759708404541016 -0.19497908651828766
0.30232560634613037 -0.02325582504272461 -0.2723131477832794
0.30232560634613037 -0.02325582504272461 -0.18790602684020996
0.30232560634613037 -0.007751941680908203 -0.261568546295166
0.30232560634613037 -0.007751941680908203 -0.17871838808059692
0.30232560634613037 0.007751941680908203 -0.24645955860614777
0.30232560634613037 0.007751941680908203 -0.1770348846912384
0.30232560634613037 0.02325582504272461 -0.2315680980682373
0.30232563614845276 0.02325582504272461 -0.1778746098279953
0.30232560634613037 0.038759708404541016 -0.21307238936424255
0.30232560634613037 0.038759708404541016 -0.1930459886789322
0.30232560634613037 0.16279065608978271 0.26315397024154663
0.30232560634613037 0.16279065608978271 0.3898586630821228
0.30232560634613037 0.17829453945159912 0.1398106813430786
0.30232560634613037 0.17829453945159912 0.4263339340686798
0.30232560634613037 0.19379842281341553 0.1111762672662735
0.30232560634613037 0.19379842281341553 0.4435346722602844
0.30232560634613037 0.20930230617523193 0.19165848195552826
0.30232560634613037 0.20930230617523193 0.45410090684890747
0.30232560634613037 0.22480618953704834 0.2650875449180603
0.30232560634613037 0.22480618953704834 0.4607847332954407
0.3178294897079468 -0.038759708404541016 -0.24644657969474792
0.3178294897079468 -0.038759708404541016 -0.20746619999408722
0.3178294897079468 -0.02325582504272461 -0.2652711570262909
0.3178294897079468 -0.02325582504272461 -0.1886233240365982
0.3178294897079468 -0.007751941680908203 -0.2612164616584778
0.3178294897079468 -0.007751941680908203 -0.17984196543693542
0.3178294897079468 0.007751941680908203 -0.2451505959033966
0.3178294897079468 0.007751941680908203 -0.1773703247308731
0.3178294897079468 0.02325582504272461 -0.22914794087409973
0.3178294897079468 0.02325582504272461 -0.18011143803596497
0.3178294897079468 0.16279065608978271 0.12684433162212372
0.3178294897079468 0.16279065608978271 0.3125554323196411
0.3178294897079468 0.17829453945159912 0.016779417172074318
0.3178294897079468 0.17829453945159912 0.3414252996444702
0.3178294897079468 0.19379842281341553 0.0018335618078708649
0.3178294897079468 0.19379842281341553 0.3504403531551361
0.3178294897079468 0.20930230617523193 0.015716351568698883
0.3178294897079468 0.20930230617523193 0.3527549207210541
0.3178294897079468 0.22480618953704834 0.285660982131958
0.3178294897079468 0.22480618953704834 0.3315991163253784
0.3333333730697632 -0.02325582504272461 -0.2565816342830658
0.3333333730697632 -0.02325582504272461 -0.18781113624572754
0.3333333730697632 -0.007751941680908203 -0.2593129277229309
0.3333333730697632 -0.007751941680908203 -0.17647302150726318
0.3333333730697632 0.007751941680908203 -0.24479985237121582
0.3333333730697632 0.007751941680908203 -0.17279458045959473
0.3333333730697632 0.02325582504272461 -0.229059636592865
0.3333333730697632 0.02325582504272461 -0.17173290252685547
0.3333333730697632 0.038759708404541016 -0.21279890835285187
0.3333333730697632 0.038759708404541016 -0.17811541259288788
0.3333333730697632 0.16279065608978271 -0.04713268578052521
0.3333333730697632 0.16279065608978271 0.24324876070022583
0.3333333730697632 0.17829453945159912 -0.054585959762334824
0.3333333730697632 0.17829453945159912 0.2841056287288666
0.3333333730697632 0.19379842281341553 -0.041450850665569305
0.3333333730697632 0.19379842281341553 0.29575949907302856
0.3333333730697632 0.20930230617523193 -0.024661323055624962
0.3333333730697632 0.20930230617523193 0.2946277856826782
0.3488372564315796 -0.02325582504272461 -0.2266494780778885
0.3488372564315796 -0.02325582504272461 -0.20213377475738525
0.3488372564315796 -0.007751941680908203 -0.2494935691356659
0.3488372564315796 -0.007751941680908203 -0.1752861738204956
0.3488372564315796 0.007751941680908203 -0.2431749552488327
0.3488372564315796 0.007751941680908203 -0.16519387066364288
0.3488372564315796 0.02325582504272461 -0.2287611961364746
0.3488372564315796 0.02325582504272461 -0.16113093495368958
0.3488372564315796 0.038759708404541016 -0.215849369764328
0.3488372564315796 0.038759708404541016 -0.15999922156333923
0.3488372564315796 0.05426359176635742 -0.2000502049922943
0.3488372564315796 0.05426359176635742 -0.1591016799211502
0.3488372564315796 0.06976747512817383 -0.17610764503479004
0.3488372564315796 0.06976747512817383 -0.1559123396873474
