-0.13178294897079468 -0.3263586759567261 -0.8449612259864807
-0.13178294897079468 -0.3242131471633911 -0.8294573426246643
-0.13178294897079468 -0.32289403676986694 -0.8139535188674927
-0.13178294897079468 -0.3209719657897949 -0.7984496355056763
-0.13178294897079468 -0.31951776146888733 -0.7829457521438599
-0.13178294897079468 -0.318467378616333 -0.7674418687820435
-0.13178294897079468 -0.3173491954803467 -0.8914728760719299
-0.13178294897079468 -0.315575510263443 -0.8759689927101135
-0.13178294897079468 -0.3143293559551239 -0.8604651093482971
-0.13178294897079468 -0.31295245885849 -0.8449612855911255
-0.13178294897079468 -0.3100811243057251 -0.8294572830200195
-0.13178294897079468 -0.3167453110218048 -0.751937985420227
-0.13178294897079468 -0.3140435218811035 -0.7364341020584106
-0.13178294897079468 -0.31168052554130554 -0.7209302186965942
-0.13178294897079468 -0.3088984489440918 -0.7054263353347778
-0.13178294897079468 -0.3053577244281769 -0.6899224519729614
-0.13178294897079468 -0.3020157217979431 -0.8139535188674927
-0.13178294897079468 -0.3001043200492859 -0.7984496355056763
-0.13178294897079468 -0.29774123430252075 -0.7829457521438599
-0.13178294897079468 -0.29362744092941284 -0.7674418687820435
-0.13178294897079468 -0.2981058359146118 -0.674418568611145
-0.13178294897079468 -0.28880763053894043 -0.6589146852493286
-0.13178294897079468 -0.28597140312194824 -0.7519380450248718
-0.13178294897079468 -0.2832915484905243 -0.7364341020584106
-0.13178294897079468 -0.27954715490341187 -0.7209302186965942
-0.13178294897079468 -0.2715893089771271 -0.7054263353347778
-0.13178294897079468 -0.27540123462677 -0.643410861492157
-0.13178294897079468 -0.26913949847221375 -0.6899224519729614
-0.13178294897079468 -0.2665216624736786 -0.674418568611145
-0.13178294897079468 -0.2631070613861084 -0.6589146852493286
-0.13178294897079468 -0.2571945786476135 -0.643410861492157
-0.13178294897079468 -0.25789371132850647 0.4883720874786377
-0.13178294897079468 -0.2551772892475128 0.4728682041168213
-0.13178294897079468 -0.24828501045703888 0.5038759708404541
-0.13178294897079468 -0.23383115231990814 0.5193798542022705
-0.13178294897079468 -0.19533658027648926 0.5348837375640869
-0.13178294897079468 -0.14909832179546356 0.5503876209259033
-0.13178294897079468 -0.13731302320957184 0.4573643207550049
-0.13178294897079468 -0.13196641206741333 0.5658915042877197
-0.13178294897079468 -0.11762380599975586 0.11627912521362305
-0.13178294897079468 -0.11779605597257614 0.1317828893661499
-0.13178294897079468 -0.1166677176952362 0.1472867727279663
-0.13178294897079468 -0.11657759547233582 0.4418604373931885
-0.13178294897079468 -0.11788061261177063 0.5813953876495361
-0.13178294897079468 -0.1046934500336647 0.06976747512817383
-0.13178294897079468 -0.10980181396007538 0.08527135848999023
-0.13178294897079468 -0.11586020886898041 0.10077524185180664
-0.13178294897079468 -0.11160244047641754 0.16279065608978271
-0.13178294897079468 -0.10495813190937042 0.17829453945159912
-0.13178294897079468 -0.10613025724887848 0.5968992710113525
-0.13178294897079468 -0.08621608465909958 0.038759708404541016
-0.13178294897079468 -0.098227359354496 0.05426359176635742
-0.13178294897079468 -0.09923627227544785 0.19379842281341553
-0.13178294897079468 -0.08944724500179291 0.20930230617523193
-0.13178294897079468 -0.09461227059364319 0.42635655403137207
-0.13178294897079468 -0.09833778440952301 0.612403154373169
-0.13178294897079468 -0.08649393171072006 0.6279069185256958
-0.13178294897079468 -0.08403188735246658 0.22480617463588715
-0.13178294897079468 -0.07769235968589783 0.24031007289886475
-0.13178294897079468 -0.07317779213190079 0.25581395626068115
-0.13178294897079468 -0.07182049006223679 0.6434108018875122
-0.13178294897079468 -0.06054874509572983 0.02325582504272461
-0.13178294897079468 -0.06958932429552078 0.27131783962249756
-0.13178294897079468 -0.05919483304023743 0.28682172298431396
-0.13178294897079468 -0.06816425174474716 0.4263565242290497
-0.13178294897079468 -0.06215064227581024 0.4418604373931885
-0.13178294897079468 -0.05615084245800972 0.4573643207550049
-0.13178294897079468 -0.05999055504798889 0.6589146852493286
-0.13178294897079468 -0.051184412091970444 0.30232560634613037
-0.13178294897079468 -0.05001404136419296 0.4728682041168213
-0.13178294897079468 -0.045786052942276 0.674418568611145
-0.13178294897079468 -0.028084322810173035 0.30232560634613037
-0.13178294897079468 -0.03856084123253822 0.4883721172809601
-0.13178294897079468 -0.023978784680366516 0.5038759708404541
-0.13178294897079468 -0.008730699308216572 0.28682172298431396
-0.13178294897079468 0.006470337510108948 0.27131783962249756
-0.13178294897079468 -0.006826597265899181 0.5193798542022705
-0.13178294897079468 -0.006129596382379532 0.674418568611145
-0.13178294897079468 0.0105154849588871 0.02325582504272461
-0.13178294897079468 0.01688850112259388 0.25581395626068115
-0.13178294897079468 0.010349072515964508 0.5348837375640869
-0.13178294897079468 0.014630506746470928 0.6589146852493286
-0.13178294897079468 0.033029425889253616 0.22480618953704834
-0.13178294897079468 0.02547680214047432 0.24031007289886475
-0.13178294897079468 0.028450816869735718 0.5503876209259033
-0.13178294897079468 0.03311387449502945 0.6589146852493286
-0.13178294897079468 0.048943329602479935 0.19379842281341553
-0.13178294897079468 0.04061880707740784 0.20930232107639313
-0.13178294897079468 0.0532311275601387 0.5658915042877197
-0.13178294897079468 0.06263710558414459 0.16279065608978271
-0.13178294897079468 0.05612087994813919 0.17829453945159912
-0.13178294897079468 0.07157255709171295 0.038759708404541016
-0.13178294897079468 0.08121581375598907 0.11627912521362305
-0.13178294897079468 0.07530456781387329 0.1317828893661499
-0.13178294897079468 0.07007390260696411 0.1472867727279663
-0.13178294897079468 0.08534649014472961 0.05426359176635742
-0.13178294897079468 0.08898448944091797 0.06976747512817383
-0.13178294897079468 0.08910977840423584 0.08527135848999023
-0.13178294897079468 0.08630438148975372 0.10077524930238724
-0.13178294897079468 0.08954447507858276 0.5813953876495361
-0.13178294897079468 0.09883467853069305 0.6589146852493286
-0.13178294897079468 0.10818833112716675 0.5968992710113525
-0.13178294897079468 0.11498235911130905 0.612403154373169
-0.13178294897079468 0.11297370493412018 0.6434108018875122
-0.13178294897079468 0.11664523929357529 0.6279069185256958
-0.11627906560897827 -0.3681633472442627 -0.9534883499145508
-0.11627906560897827 -0.35423946380615234 -0.9689922332763672
-0.11627907305955887 -0.3622198700904846 -0.9379844665527344
-0.11627906560897827 -0.3529931604862213 -0.9224806427955627
-0.11627906560897827 -0.3499900996685028 -0.9069767594337463
-0.11627906560897827 -0.34101587533950806 -0.9689922332763672
-0.11627906560897827 -0.3461446166038513 -0.8914728760719299
-0.11627906560897827 -0.3415709435939789 -0.8759689927101135
-0.11627906560897827 -0.3385336101055145 -0.8604651689529419
-0.11627906560897827 -0.33529114723205566 -0.8449612259864807
-0.11627906560897827 -0.3316185474395752 -0.9534883499145508
-0.11627906560897827 -0.3333113491535187 -0.9379844665527344
-0.11627906560897827 -0.33070334792137146 -0.922480583190918
-0.11627906560897827 -0.3304339051246643 -0.8294573426246643
-0.11627906560897827 -0.3234211206436157 -0.8139535188674927
-0.11627906560897827 -0.31913089752197266 -0.7984496355056763
-0.11627906560897827 -0.31764259934425354 -0.9069767594337463
-0.11627906560897827 -0.31483370065689087 -0.8914728760719299
-0.11627906560897827 -0.3136296272277832 -0.8759689927101135
-0.11627906560897827 -0.3126862645149231 -0.8604650497436523
-0.11627906560897827 -0.31179913878440857 -0.8449611663818359
-0.11627906560897827 -0.3105629086494446 -0.8294572830200195
-0.11627906560897827 -0.3096825182437897 -0.8139535188674927
-0.11627906560897827 -0.31077873706817627 -0.7984496355056763
-0.11627906560897827 -0.24385392665863037 0.4883720874786377
-0.11627906560897827 -0.23296794295310974 0.4728682041168213
-0.11627907305955887 -0.23772336542606354 0.5038759708404541
-0.11627907305955887 -0.22459949553012848 0.5193798542022705
-0.11627905815839767 -0.1869584023952484 0.5348837375640869
-0.11627906560897827 -0.1608595848083496 0.4573643207550049
-0.11627906560897827 -0.15213558077812195 0.5503876209259033
-0.11627906560897827 -0.13606920838356018 0.4418604373931885
-0.11627906560897827 -0.1344127655029297 0.5658915042877197
-0.11627906560897827 -0.11810478568077087 0.10077524185180664
-0.11627906560897827 -0.11998413503170013 0.11627912521362305
-0.11627906560897827 -0.12075351178646088 0.1317828893661499
-0.11627906560897827 -0.11967556178569794 0.1472867727279663
-0.11627906560897827 -0.11724209040403366 0.16279065608978271
-0.11627906560897827 -0.12142419815063477 0.42635655403137207
-0.11627906560897827 -0.12060302495956421 0.5813953876495361
-0.11627906560897827 -0.10213945806026459 0.05426359176635742
-0.11627906560897827 -0.10725975036621094 0.06976747512817383
-0.11627906560897827 -0.11311104893684387 0.08527135848999023
-0.11627906560897827 -0.11166262626647949 0.17829453945159912
-0.11627906560897827 -0.10519945621490479 0.19379842281341553
-0.11627906560897827 -0.10794884711503983 0.41085267066955566
-0.11627906560897827 -0.10951761901378632 0.5968992710113525
-0.11627906560897827 -0.10234810411930084 0.612403154373169
-0.11627906560897827 -0.0918254554271698 0.038759708404541016
-0.11627906560897827 -0.10008186846971512 0.20930230617523193
-0.11627906560897827 -0.09204347431659698 0.22480618953704834
-0.11627906560897827 -0.08723968267440796 0.24031007289886475
-0.11627906560897827 -0.0861322283744812 0.364341139793396
-0.11627906560897827 -0.0899643748998642 0.37984490394592285
-0.11627907305955887 -0.09872464090585709 0.39534878730773926
-0.11627906560897827 -0.09314367920160294 0.6279069185256958
-0.11627906560897827 -0.08608558028936386 0.6434108018875122
-0.11627906560897827 -0.07157973945140839 0.02325582504272461
-0.11627906560897827 -0.084841288626194 0.25581395626068115
-0.11627906560897827 -0.07849010825157166 0.27131783962249756
-0.11627906560897827 -0.07300369441509247 0.28682172298431396
-0.11627906560897827 -0.07086895406246185 0.30232560634613037
-0.11627906560897827 -0.07090585678815842 0.3178294897079468
-0.11627906560897827 -0.07371685653924942 0.3333333730697632
-0.11627906560897827 -0.07885466516017914 0.3488372564315796
-0.11627906560897827 -0.0760972648859024 0.6589146852493286
-0.11627906560897827 -0.06983090937137604 0.674418568611145
-0.11627906560897827 -0.07177257537841797 0.7829457521438599
-0.11627906560897827 -0.07748983800411224 0.7984496355056763
-0.11627906560897827 -0.07919377088546753 0.8139535188674927
-0.11627906560897827 -0.07526487857103348 0.8294574022293091
-0.11627906560897827 -0.05919473245739937 0.6899224519729614
-0.11627906560897827 -0.05919189751148224 0.7674418687820435
-0.11627906560897827 -0.06249203532934189 0.8449612855911255
-0.11627906560897827 -0.04747985675930977 0.7054263353347778
-0.11627906560897827 -0.03900066018104553 0.7209302186965942
-0.11627906560897827 -0.04223867878317833 0.751937985420227
-0.11627906560897827 -0.025805559009313583 0.3488372564315796
-0.11627906560897827 -0.030869733542203903 0.364341139793396
-0.11627906560897827 -0.035314079374074936 0.37984490394592285
-0.11627906560897827 -0.03814311698079109 0.39534878730773926
-0.11627906560897827 -0.03852904587984085 0.41085270047187805
-0.11627906560897827 -0.03713139891624451 0.42635655403137207
-0.11627906560897827 -0.03492917865514755 0.4418604373931885
-0.11627906560897827 -0.030813371762633324 0.4573643207550049
-0.11627906560897827 -0.03303634747862816 0.751937985420227
-0.11627906560897827 -0.015984024852514267 0.30232560634613037
-0.11627906560897827 -0.021314792335033417 0.3178294897079468
-0.11627905815839767 -0.02260543964803219 0.3333333730697632
-0.11627905815839767 -0.023063400760293007 0.4728682041168213
-0.11627906560897827 -0.012885361909866333 0.4883720874786377
-0.11627905815839767 -0.022287270054221153 0.7209302186965942
-0.11627907305955887 -0.020996032282710075 0.7674418687820435
-0.11627906560897827 -0.014960106462240219 0.7829457521438599
-0.11627906560897827 -0.009249869734048843 0.7984496355056763
-0.11627906560897827 -0.009372743777930737 0.8449612855911255
-0.11627906560897827 0.007377428002655506 0.27131783962249756
-0.11627906560897827 -0.005553888157010078 0.28682172298431396
-0.11627906560897827 -0.0009025689214468002 0.5038759708404541
-0.11627906560897827 -0.005635106936097145 0.7054263353347778
-0.11627906560897827 -0.005114979110658169 0.8139535188674927
-0.11627906560897827 -0.0033488816116005182 0.8294574022293091
-0.11627906560897827 0.017187969759106636 0.25581395626068115
-0.11627906560897827 0.012429763562977314 0.5193798542022705
-0.11627906560897827 0.023212337866425514 0.674418568611145
-0.11627906560897827 0.009454574435949326 0.6899224519729614
-0.11627906560897827 0.0385865718126297 0.02325582504272461
-0.11627906560897827 0.03532058000564575 0.22480618953704834
-0.11627906560897827 0.026250408962368965 0.24031007289886475
-0.11627906560897827 0.027161255478858948 0.5348837375640869
-0.11627906560897827 0.052654895931482315 0.19379842281341553
-0.11627906560897827 0.04326978325843811 0.20930230617523193
-0.11627906560897827 0.04374944418668747 0.5503876209259033
-0.11627906560897827 0.06676533073186874 0.16279065608978271
-0.11627906560897827 0.05917633697390556 0.17829453945159912
-0.11627906560897827 0.06929919868707657 0.5658915042877197
-0.11627906560897827 0.07683223485946655 0.038759708404541016
-0.11627906560897827 0.07941226661205292 0.1317828893661499
-0.11627906560897827 0.07297137379646301 0.1472867727279663
-0.11627906560897827 0.08723411709070206 0.05426359176635742
-0.11627906560897827 0.09165729582309723 0.06976747512817383
-0.11627906560897827 0.09237871319055557 0.08527135848999023
-0.11627906560897827 0.08992348611354828 0.10077524185180664
-0.11627906560897827 0.08593276888132095 0.11627912521362305
-0.11627906560897827 0.09483391791582108 0.5813953876495361
-0.11627906560897827 0.0979035496711731 0.6589146852493286
-0.11627906560897827 0.10741904377937317 0.5968992710113525
-0.11627906560897827 0.11241091787815094 0.612403154373169
-0.11627906560897827 0.11405683308839798 0.6279069185256958
-0.11627906560897827 0.11113201826810837 0.6434108018875122
-0.10077518224716187 -0.3695027828216553 -0.9689922332763672
-0.10077517479658127 -0.3753354847431183 -0.9534883499145508
-0.10077518224716187 -0.364959180355072 -0.9379844665527344
-0.10077518224716187 -0.3595035672187805 -0.9379844665527344
-0.10077518224716187 -0.33712127804756165 -0.9689922332763672
-0.10077518224716187 -0.33878451585769653 -0.9534883499145508
-0.10077518224716187 -0.228920578956604 0.4883720874786377
-0.10077518224716187 -0.225011944770813 0.5038759708404541
-0.10077518224716187 -0.21389402449131012 0.4728682041168213
-0.10077518224716187 -0.20997092127799988 0.5193798542022705
-0.10077518224716187 -0.18120670318603516 0.5348837375640869
-0.10077518224716187 -0.1670961081981659 0.4573643207550049
-0.10077518224716187 -0.1544196456670761 0.5503876209259033
-0.10077518224716187 -0.13327226042747498 0.42635655403137207
-0.10077518224716187 -0.1466212272644043 0.44186046719551086
-0.10077518224716187 -0.13724738359451294 0.5658915042877197
-0.10077518224716187 -0.11836032569408417 0.10077524185180664
-0.10077518224716187 -0.12021103501319885 0.11627912521362305
-0.10077518224716187 -0.1212715357542038 0.1317828893661499
-0.10077518224716187 -0.1210479885339737 0.1472867727279663
-0.10077518224716187 -0.11910352110862732 0.16279065608978271
-0.10077518224716187 -0.1214689314365387 0.41085267066955566
-0.10077518224716187 -0.12321150302886963 0.5813953876495361
-0.10077518224716187 -0.10262783616781235 0.05426359176635742
-0.10077518224716187 -0.10759691894054413 0.06976747512817383
-0.10077518224716187 -0.11376810073852539 0.08527135848999023
-0.10077518224716187 -0.11586328595876694 0.17829453945159912
-0.10077518224716187 -0.10951893776655197 0.19379842281341553
-0.10077518224716187 -0.10421331971883774 0.20930230617523193
-0.10077518224716187 -0.10369197279214859 0.37984490394592285
-0.10077518224716187 -0.11263980716466904 0.39534878730773926
-0.10077518224716187 -0.11211052536964417 0.5968992710113525
-0.10077518224716187 -0.10414808988571167 0.612403154373169
-0.10077518224716187 -0.10114987939596176 0.8139535188674927
-0.10077518224716187 -0.09390608966350555 0.038759708404541016
-0.10077517479658127 -0.10072673112154007 0.22480617463588715
-0.10077518224716187 -0.09454075247049332 0.24031007289886475
-0.10077518224716187 -0.09064105153083801 0.25581395626068115
-0.10077518224716187 -0.08717362582683563 0.27131783962249756
-0.10077518224716187 -0.08660143613815308 0.3333333730697632
-0.10077518224716187 -0.090207040309906 0.3488372564315796
-0.10077518224716187 -0.09694463014602661 0.364341139793396
-0.10077518224716187 -0.09754793345928192 0.6279069185256958
-0.10077518224716187 -0.09011965990066528 0.6434108018875122
-0.10077518224716187 -0.0856999084353447 0.6589146852493286
-0.10077518224716187 -0.0908796638250351 0.7829457521438599
-0.10077518224716187 -0.09777751564979553 0.7984496355056763
-0.10077518224716187 -0.09999628365039825 0.8294573426246643
-0.10077518224716187 -0.09304903447628021 0.8449612855911255
-0.10077518224716187 -0.07749252021312714 0.02325582504272461
-0.10077518224716187 -0.08442137390375137 0.28682172298431396
-0.10077518224716187 -0.08169685304164886 0.30232560634613037
-0.10077518224716187 -0.08283913880586624 0.3178294897079468
-0.10077518224716187 -0.07722499966621399 0.674418568611145
-0.10077518224716187 -0.07200045138597488 0.6899224519729614
-0.10077518224716187 -0.07324843108654022 0.751937985420227
-0.10077518224716187 -0.08256667107343674 0.7674418687820435
-0.10077518224716187 -0.08302648365497589 0.8604651689529419
-0.10077518224716187 -0.07031741738319397 0.8759689331054688
-0.10077518224716187 -0.06586803495883942 0.7054263353347778
-0.10077518224716187 -0.06353293359279633 0.7209302186965942
-0.10077518224716187 -0.06753386557102203 0.7364341020584106
-0.10077518224716187 -0.060344308614730835 0.8914728164672852
-0.10077518224716187 -0.0400848388671875 0.007751941680908203
-0.10077518224716187 -0.047414448112249374 0.9069766998291016
-0.10077518224716187 -0.023982206359505653 0.39534878730773926
-0.10077518224716187 -0.024726208299398422 0.41085267066955566
-0.10077518224716187 -0.025183970108628273 0.922480583190918
-0.10077518224716187 -0.01865657977759838 0.007751941680908203
-0.10077518224716187 -0.014659125357866287 0.3178294897079468
-0.10077518224716187 -0.016801904886960983 0.3333333730697632
-0.10077518224716187 -0.018300563097000122 0.3488372564315796
-0.10077518224716187 -0.020076705142855644 0.364341139793396
-0.10077517479658127 -0.022094914689660072 0.37984490394592285
-0.10077518224716187 -0.022951191291213036 0.42635655403137207
-0.10077518224716187 -0.021411849185824394 0.4418604373931885
-0.10077518224716187 -0.017611145973205566 0.4573643207550049
-0.10077518224716187 -0.009660965763032436 0.4728682041168213
-0.10077518224716187 -0.0012753037735819817 0.28682172298431396
-0.10077518224716187 -0.007698133587837219 0.30232560634613037
-0.10077518224716187 -0.0013422435149550438 0.4883720874786377
-0.10077518224716187 0.0019555583130568266 0.7364341020584106
-0.10077518224716187 0.0024980762973427773 0.751937985420227
-0.10077518224716187 0.019454261288046837 0.25581395626068115
-0.10077518969774246 0.009077909402549267 0.27131783962249756
-0.10077518224716187 0.010064414702355862 0.5038759708404541
-0.10077518224716187 0.022717563435435295 0.5193798542022705
-0.10077518224716187 0.012917459942400455 0.7054263353347778
-0.10077518224716187 0.007942061871290207 0.7209302186965942
-0.10077518224716187 0.008800256066024303 0.7674419283866882
-0.10077518224716187 0.017889898270368576 0.7829457521438599
-0.10077518224716187 0.015649767592549324 0.922480583190918
-0.10077518224716187 0.0382075309753418 0.22480618953704834
-0.10077518224716187 0.028652582317590714 0.24031007289886475
-0.10077518224716187 0.03516041859984398 0.5348837375640869
-0.10077518969774246 0.02491743117570877 0.6899225115776062
-0.10077518224716187 0.038349222391843796 0.7984496355056763
-0.10077518224716187 0.046107545495033264 0.20930230617523193
-0.10077518224716187 0.052627380937337875 0.5503876209259033
-0.10077518224716187 0.044952623546123505 0.674418568611145
-0.10077518224716187 0.039924055337905884 0.7984496355056763
-0.10077518224716187 0.04447496682405472 0.9069766998291016
-0.10077518224716187 0.05549534037709236 0.02325582504272461
-0.10077518224716187 0.06181861832737923 0.17829453945159912
-0.10077518224716187 0.055003345012664795 0.19379842281341553
-0.10077518224716187 0.05801311880350113 0.7984496355056763
-0.10077518224716187 0.060413461178541183 0.8914728164672852
-0.10077518224716187 0.07509554922580719 0.038759708404541016
-0.10077518224716187 0.08272106200456619 0.1317828893661499
-0.10077518224716187 0.07568860054016113 0.1472867727279663
-0.10077517479658127 0.06990930438041687 0.16279065608978271
-0.10077518224716187 0.07749110460281372 0.5658915042877197
-0.10077518224716187 0.07384859025478363 0.8139535188674927
-0.10077518224716187 0.07921524345874786 0.8604651689529419
-0.10077518224716187 0.07116984575986862 0.8759689331054688
-0.10077518224716187 0.08643312007188797 0.05426359549164772
-0.10077518224716187 0.09187526255846024 0.06976747512817383
-0.10077518224716187 0.09365472942590714 0.08527135848999023
-0.10077518224716187 0.09215681254863739 0.10077524185180664
-0.10077518224716187 0.08826561272144318 0.11627911776304245
-0.10077518224716187 0.09903846681118011 0.5813953876495361
-0.10077518224716187 0.09837068617343903 0.6589146852493286
-0.10077518224716187 0.08585332334041595 0.8294574022293091
-0.10077518224716187 0.08633137494325638 0.8449612855911255
-0.10077518224716187 0.1078142374753952 0.5968992710113525
-0.10077518224716187 0.1119905337691307 0.612403154373169
-0.10077518224716187 0.113228939473629 0.6279069185256958
-0.10077518224716187 0.11059540510177612 0.6434108018875122
-0.08527129888534546 -0.37431851029396057 -0.9689922332763672
-0.08527129888534546 -0.37693580985069275 -0.9534883499145508
-0.08527129888534546 -0.35585564374923706 -0.9689922332763672
-0.08527129888534546 -0.3593917191028595 -0.953488290309906
-0.08527129888534546 -0.2140914797782898 0.4883720874786377
-0.08527129888534546 -0.2096303552389145 0.5038759708404541
-0.08527129888534546 -0.20002126693725586 0.4728682041168213
-0.08527129888534546 -0.19455581903457642 0.5193798542022705
-0.08527129888534546 -0.16947638988494873 0.4573643207550049
-0.08527129888534546 -0.1732085794210434 0.5348837375640869
-0.08527129888534546 -0.151500403881073 0.4418604373931885
-0.08527129888534546 -0.15409165620803833 0.5503876209259033
-0.08527129888534546 -0.13860100507736206 0.42635655403137207
-0.08527129888534546 -0.1381540149450302 0.5658915042877197
-0.08527129888534546 -0.11846193671226501 0.10077524185180664
-0.08527129888534546 -0.12023933231830597 0.11627912521362305
-0.08527129888534546 -0.12137830257415771 0.1317828893661499
-0.08527129888534546 -0.12150304019451141 0.1472867727279663
-0.08527129888534546 -0.1202809065580368 0.16279065608978271
-0.08527129888534546 -0.11729135364294052 0.17829453945159912
-0.08527129888534546 -0.11902939528226852 0.39534878730773926
-0.08527129888534546 -0.1292615532875061 0.4108526408672333
-0.08527129888534546 -0.12428948283195496 0.5813953876495361
-0.08527129888534546 -0.1164265125989914 0.8294574022293091
-0.08527129888534546 -0.10279833525419235 0.05426359176635742
-0.08527129888534546 -0.10784142464399338 0.06976747512817383
-0.08527129888534546 -0.1142522469162941 0.08527135848999023
-0.08527129888534546 -0.11199414730072021 0.19379842281341553
-0.08527129888534546 -0.10725586116313934 0.20930230617523193
-0.08527129888534546 -0.10323243588209152 0.22480618953704834
-0.08527129888534546 -0.1029839739203453 0.364341139793396
-0.08527129888534546 -0.10963773727416992 0.37984490394592285
-0.08527129888534546 -0.11321230232715607 0.5968992710113525
-0.08527129888534546 -0.10517292469739914 0.612403154373169
-0.08527129888534546 -0.10415910184383392 0.7829457521438599
-0.08527129888534546 -0.11059997975826263 0.7984496355056763
-0.08527129888534546 -0.11559199541807175 0.8139535188674927
-0.08527129888534546 -0.11361747980117798 0.8449612855911255
-0.08527129888534546 -0.10733740031719208 0.8604651689529419
-0.08527129888534546 -0.09395633637905121 0.038759708404541016
-0.08527129888534546 -0.10024182498455048 0.24031007289886475
-0.08527129888534546 -0.09598408639431 0.25581395626068115
-0.08527129888534546 -0.0925549790263176 0.27131783962249756
-0.08527129888534546 -0.08953183889389038 0.28682172298431396
-0.08527129888534546 -0.08819685876369476 0.30232560634613037
-0.08527129888534546 -0.08867335319519043 0.3178294897079468
-0.08527129888534546 -0.09134344756603241 0.3333333730697632
-0.08527129888534546 -0.09637565910816193 0.3488372564315796
-0.08527129888534546 -0.09894003719091415 0.6279069185256958
-0.08527129888534546 -0.09185092896223068 0.6434108018875122
-0.08527129888534546 -0.08678896725177765 0.6589146852493286
-0.08527129888534546 -0.08549904823303223 0.751937985420227
-0.08527129888534546 -0.09394456446170807 0.7674418687820435
-0.08527129888534546 -0.09990274906158447 0.8759689331054688
-0.08527129888534546 -0.09183607995510101 0.8914728164672852
-0.08527129888534546 -0.08040471374988556 0.02325582504272461
-0.08527129888534546 -0.07999342679977417 0.674418568611145
-0.08527129888534546 -0.0751059502363205 0.6899224519729614
-0.08527129888534546 -0.071982242166996 0.7054263353347778
-0.08527129888534546 -0.07193151116371155 0.7209302186965942
-0.08527129888534546 -0.07580618560314178 0.7364341020584106
-0.08527129143476486 -0.0824509710073471 0.9069766402244568
-0.08527129888534546 -0.05639597773551941 0.007751941680908203
-0.08527129888534546 -0.06899289786815643 0.922480583190918
-0.08527129888534546 -0.0571301206946373 0.9379844665527344
-0.08527129888534546 -0.03960536792874336 0.9534883499145508
-0.08527129888534546 -0.00916975922882557 0.3178294897079468
-0.08527129888534546 -0.011896757408976555 0.3333333730697632
-0.08527129888534546 -0.013570660725235939 0.3488372564315796
-0.08527129888534546 -0.014821374788880348 0.364341139793396
-0.08527129888534546 -0.016508013010025024 0.37984490394592285
-0.08527129888534546 -0.017983047291636467 0.39534878730773926
-0.08527129888534546 -0.018331089988350868 0.41085267066955566
-0.08527129888534546 -0.01710875704884529 0.42635658383369446
-0.08527129888534546 -0.014707117341458797 0.4418604373931885
-0.08527129888534546 -0.009217321872711182 0.4573643207550049
-0.08527129888534546 0.0019665106665343046 0.28682172298431396
-0.08527130633592606 -0.0054056947119534016 0.30232560634613037
-0.08527129888534546 -0.004474956076592207 0.4728682041168213
-0.08527129888534546 0.00617584865540266 0.4883720874786377
-0.08527129888534546 0.017170501872897148 0.007751941680908203
-0.08527129888534546 0.02205684222280979 0.25581395626068115
-0.08527129888534546 0.011047260835766792 0.27131783962249756
-0.08527129888534546 0.015317518264055252 0.5038759708404541
-0.08527129888534546 0.015408633276820183 0.7209302186965942
-0.08527129888534546 0.015353471040725708 0.7364341020584106
-0.08527129888534546 0.021426379680633545 0.9534883499145508
-0.08527129888534546 0.03161906450986862 0.24031007289886475
-0.08527129888534546 0.026577595621347427 0.5193798542022705
-0.08527129888534546 0.030912522226572037 0.6899224519729614
-0.08527129888534546 0.02365558221936226 0.7054263353347778
-0.08527129888534546 0.028464633971452713 0.751937985420227
-0.08527129888534546 0.04904165118932724 0.20930230617523193
-0.08527129888534546 0.040435295552015305 0.22480618953704834
-0.08527129888534546 0.039756547659635544 0.5348836779594421
-0.08527129888534546 0.0461280457675457 0.9379844665527344
-0.08527129888534546 0.05590437352657318 0.02325582504272461
-0.08527129888534546 0.06434257328510284 0.17829453945159912
-0.08527129888534546 0.05712851881980896 0.19379842281341553
-0.08527129888534546 0.059462420642375946 0.5503876209259033
-0.08527129888534546 0.06837619096040726 0.674418568611145
-0.08527129888534546 0.061368100345134735 0.7674418687820435
-0.08527129888534546 0.0626644492149353 0.922480583190918
-0.08527129888534546 0.07276158779859543 0.038759708404541016
-0.08527129888534546 0.07801030576229095 0.1472867727279663
-0.08527129888534546 0.07191037386655807 0.16279065608978271
-0.08527129888534546 0.07723952829837799 0.7829457521438599
-0.08527129888534546 0.07578626275062561 0.9069766998291016
-0.08527129888534546 0.08536026626825333 0.05426359176635742
-0.08527129888534546 0.09179529547691345 0.06976747512817383
-0.08527129888534546 0.09443914145231247 0.08527135848999023
-0.08527129888534546 0.09357143938541412 0.10077524185180664
-0.08527129888534546 0.09020745754241943 0.11627912521362305
-0.08527129888534546 0.08531703799962997 0.1317828893661499
-0.08527129888534546 0.08681774884462357 0.5658915042877197
-0.08527129888534546 0.1007068008184433 0.6589146852493286
-0.08527129888534546 0.08644647896289825 0.7984496355056763
-0.08527129888534546 0.09098400175571442 0.8139535188674927
-0.08527129888534546 0.09721103310585022 0.8294574022293091
-0.08527129888534546 0.09968876838684082 0.8449612855911255
-0.08527129888534546 0.09635992348194122 0.8604651689529419
-0.08527129888534546 0.09097480773925781 0.8759689331054688
-0.08527129888534546 0.08547642081975937 0.8914728164672852
-0.08527129888534546 0.10333845019340515 0.5813953876495361
-0.08527129888534546 0.10964436829090118 0.5968992710113525
-0.08527129888534546 0.11325401812791824 0.612403154373169
-0.08527129888534546 0.11404204368591309 0.6279069185256958
-0.08527129888534546 0.11123315244913101 0.6434108018875122
-0.06976741552352905 -0.1993507742881775 0.4883720874786377
-0.06976741552352905 -0.19410426914691925 0.5038759708404541
-0.06976741552352905 -0.1918400228023529 0.4728682041168213
-0.06976741552352905 -0.18065126240253448 0.5193798542022705
-0.06976741552352905 -0.1720902919769287 0.4573643207550049
-0.06976741552352905 -0.1657753884792328 0.5348837375640869
-0.06976741552352905 -0.15587565302848816 0.4418604373931885
-0.06976741552352905 -0.15065839886665344 0.5503876209259033
-0.06976741552352905 -0.1332426369190216 0.41085267066955566
-0.06976741552352905 -0.1440296173095703 0.42635655403137207
-0.06976741552352905 -0.1369360387325287 0.5658915042877197
-0.06976741552352905 -0.11837764829397202 0.10077524185180664
-0.06976741552352905 -0.1201838031411171 0.11627912521362305
-0.06976741552352905 -0.12144143879413605 0.1317828893661499
-0.06976741552352905 -0.12175874412059784 0.1472867727279663
-0.06976741552352905 -0.12096121907234192 0.16279065608978271
-0.06976741552352905 -0.11823129653930664 0.17829453945159912
-0.06976741552352905 -0.12196432054042816 0.39534878730773926
-0.06976741552352905 -0.12404675036668777 0.5813953876495361
-0.06976741552352905 -0.12063753604888916 0.7984496355056763
-0.06976741552352905 -0.12429340928792953 0.8139535188674927
-0.06976741552352905 -0.12556706368923187 0.8294574022293091
-0.06976741552352905 -0.12521296739578247 0.8449612855911255
-0.06976741552352905 -0.12288186699151993 0.8604651689529419
-0.06976741552352905 -0.1190347969532013 0.8759689331054688
-0.06976741552352905 -0.1026720255613327 0.05426359176635742
-0.06976741552352905 -0.10785552859306335 0.06976747512817383
-0.06976741552352905 -0.11402019113302231 0.08527135848999023
-0.06976741552352905 -0.11390805244445801 0.19379843771457672
-0.06976741552352905 -0.10907500982284546 0.20930230617523193
-0.06976741552352905 -0.10546733438968658 0.22480618953704834
-0.06976741552352905 -0.10206548124551773 0.24031007289886475
-0.06976741552352905 -0.10082845389842987 0.3488372564315796
-0.06976741552352905 -0.10511745512485504 0.364341139793396
-0.06976741552352905 -0.11381170153617859 0.37984493374824524
-0.06976741552352905 -0.11294535547494888 0.5968992710113525
-0.06976741552352905 -0.10507483035326004 0.612403154373169
-0.06976741552352905 -0.10425281524658203 0.7674418687820435
-0.06976741552352905 -0.11448907852172852 0.7829457521438599
-0.06976741552352905 -0.11544923484325409 0.8914728164672852
-0.06976741552352905 -0.11047433316707611 0.9069766998291016
-0.06976741552352905 -0.10311178863048553 0.922480583190918
-0.06976741552352905 -0.09373117983341217 0.038759708404541016
-0.06976741552352905 -0.0992850810289383 0.25581395626068115
-0.06976741552352905 -0.09581016004085541 0.27131783962249756
-0.06976741552352905 -0.09298024326562881 0.28682172298431396
-0.06976741552352905 -0.09136445820331573 0.30232560634613037
-0.06976741552352905 -0.09133437275886536 0.3178294897079468
-0.06976741552352905 -0.09403982758522034 0.3333333730697632
-0.06976741552352905 -0.09733952581882477 0.6279069185256958
-0.06976741552352905 -0.08969920873641968 0.6434108018875122
-0.06976741552352905 -0.08965538442134857 0.751937985420227
-0.06976741552352905 -0.0917154997587204 0.9379844665527344
-0.06976741552352905 -0.07979623973369598 0.02325582504272461
-0.06976741552352905 -0.0825890600681305 0.6589146852493286
-0.06976741552352905 -0.0765896588563919 0.674418568611145
-0.06976741552352905 -0.07274047285318375 0.6899224519729614
-0.06976741552352905 -0.07085460424423218 0.7054263353347778
-0.06976741552352905 -0.07146535813808441 0.7209302186965942
-0.06976741552352905 -0.0770031213760376 0.7364341020584106
-0.06976741552352905 -0.07595765590667725 0.9534883499145508
-0.06976741552352905 -0.05824488401412964 0.007751941680908203
-0.06976741552352905 -0.0538821667432785 0.9689922332763672
-0.06976741552352905 -0.008530170656740665 0.3333333730697632
-0.06976741552352905 -0.010088654235005379 0.3488372564315796
-0.06976741552352905 -0.010914942249655724 0.364341139793396
-0.06976741552352905 -0.012373574078083038 0.37984490394592285
-0.06976741552352905 -0.01353619433939457 0.39534878730773926
-0.06976741552352905 -0.013495802879333496 0.41085267066955566
-0.06976741552352905 -0.0120199304074049 0.42635655403137207
-0.06976741552352905 -0.008981078863143921 0.4418604373931885
-0.06976741552352905 0.004734083078801632 0.28682172298431396
-0.06976741552352905 -0.0033331247977912426 0.30232560634613037
-0.06976741552352905 -0.0070274462923407555 0.31782951951026917
-0.06976741552352905 -0.005613183602690697 0.4573642909526825
-0.06976741552352905 0.0008792935404926538 0.4728682041168213
-0.06976741552352905 0.013588800095021725 0.27131783962249756
-0.06976741552352905 0.009711937047541142 0.4883720874786377
-0.06976741552352905 0.02083025686442852 0.5038759708404541
-0.06976741552352905 0.02648848295211792 0.007751941680908203
-0.06976741552352905 0.03486078977584839 0.24031007289886475
-0.06976740807294846 0.024357562884688377 0.25581395626068115
-0.06976741552352905 0.030957244336605072 0.5193798542022705
-0.06976741552352905 0.03633802384138107 0.6899224519729614
-0.06976741552352905 0.026480592787265778 0.7054263353347778
-0.06976741552352905 0.02525313012301922 0.7209302186965942
-0.06976741552352905 0.03482726588845253 0.7364341020584106
-0.06976741552352905 0.032547708600759506 0.9689922332763672
-0.06976741552352905 0.05281882733106613 0.20930230617523193
-0.06976741552352905 0.04378553107380867 0.22480618953704834
-0.06976741552352905 0.0448547899723053 0.5348837375640869
-0.06976741552352905 0.05456087365746498 0.02325582504272461
-0.06976741552352905 0.0669034868478775 0.17829453945159912
-0.06976741552352905 0.059640929102897644 0.19379843771457672
-0.06976741552352905 0.05920527130365372 0.751937985420227
-0.06976741552352905 0.06949593126773834 0.9379844665527344
-0.06976741552352905 0.054405346512794495 0.9534884095191956
-0.06976741552352905 0.07083696126937866 0.038759708404541016
-0.06976741552352905 0.08309132605791092 0.05426359176635742
-0.06976741552352905 0.07952718436717987 0.1472867727279663
-0.06976741552352905 0.07356657832860947 0.16279065608978271
-0.06976741552352905 0.0707135796546936 0.5503876209259033
-0.06976741552352905 0.07964964210987091 0.674418568611145
-0.06976741552352905 0.07568299770355225 0.7674418687820435
-0.06976741552352905 0.08193621039390564 0.922480583190918
-0.06976741552352905 0.09090755134820938 0.06976747512817383
-0.06976741552352905 0.09416843205690384 0.08527135848999023
-0.06976741552352905 0.09379063546657562 0.10077524185180664
-0.06976741552352905 0.09086935222148895 0.11627912521362305
-0.06976741552352905 0.08621920645236969 0.1317828893661499
-0.06976741552352905 0.09511955827474594 0.5658915042877197
-0.06976741552352905 0.08827293664216995 0.7829457521438599
-0.06976741552352905 0.096442312002182 0.7984496355056763
-0.06976741552352905 0.09857620298862457 0.8914728164672852
-0.06976741552352905 0.0918584018945694 0.9069766402244568
-0.06976741552352905 0.10752646625041962 0.5813953876495361
-0.06976741552352905 0.11264668405056 0.5968992710113525
-0.06976741552352905 0.11582086980342865 0.612403154373169
-0.06976741552352905 0.11571646481752396 0.6279069185256958
-0.06976741552352905 0.1121618002653122 0.6434108018875122
-0.06976741552352905 0.10254765301942825 0.6589146852493286
-0.06976741552352905 0.10116669535636902 0.8139534592628479
-0.06976741552352905 0.10407239198684692 0.8294574022293091
-0.06976741552352905 0.10563433170318604 0.8449612855911255
-0.06976741552352905 0.10510177910327911 0.8604651689529419
-0.06976741552352905 0.10246874392032623 0.8759689331054688
-0.05426359176635742 -0.1864643096923828 0.4728682041168213
-0.05426359176635742 -0.188123881816864 0.4883720874786377
-0.05426359176635742 -0.1817212998867035 0.5038759708404541
-0.05426359176635742 -0.17443996667861938 0.4573643207550049
-0.05426359176635742 -0.1700308620929718 0.5193798542022705
-0.05426359176635742 -0.14779359102249146 0.42635655403137207
-0.05426359176635742 -0.15992285311222076 0.4418604373931885
-0.05426359549164772 -0.15764306485652924 0.5348837375640869
-0.05426359176635742 -0.13494950532913208 0.41085267066955566
-0.05426359176635742 -0.14510297775268555 0.5503876209259033
-0.05426359176635742 -0.13387170433998108 0.5658915042877197
-0.05426359176635742 -0.11765741556882858 0.10077524185180664
-0.05426359176635742 -0.11949674040079117 0.11627912521362305
-0.05426359176635742 -0.12087415903806686 0.1317828893661499
-0.05426359176635742 -0.12137827277183533 0.1472867727279663
-0.05426359176635742 -0.12071089446544647 0.16279065608978271
-0.05426359176635742 -0.11814206838607788 0.17829453945159912
-0.05426359176635742 -0.12363199889659882 0.39534878730773926
-0.05426359176635742 -0.1227773129940033 0.5813953876495361
-0.05426359176635742 -0.11941682547330856 0.7829457521438599
-0.05426359176635742 -0.12507303059101105 0.7984496355056763
-0.05426359176635742 -0.12886478006839752 0.8139534592628479
-0.05426359176635742 -0.13028034567832947 0.8294574618339539
-0.05426359176635742 -0.12972356379032135 0.8449612259864807
-0.05426359176635742 -0.1280878484249115 0.8604651689529419
-0.05426359176635742 -0.12616044282913208 0.8759689331054688
-0.05426359176635742 -0.12340942025184631 0.8914728164672852
-0.05426359176635742 -0.11890871822834015 0.9069766998291016
-0.05426359176635742 -0.10204705595970154 0.05426359176635742
-0.05426359176635742 -0.10735782980918884 0.06976747512817383
-0.05426359176635742 -0.11228778958320618 0.08527135848999023
-0.05426359549164772 -0.11409422010183334 0.19379842281341553
-0.05426359176635742 -0.10943914949893951 0.20930230617523193
-0.05426359176635742 -0.10586857795715332 0.22480618953704834
-0.05426359176635742 -0.10239391028881073 0.24031007289886475
-0.05426359176635742 -0.10113009810447693 0.3488372564315796
-0.05426359176635742 -0.1057768166065216 0.364341139793396
-0.05426359176635742 -0.11596225947141647 0.37984490394592285
-0.05426359176635742 -0.11168807744979858 0.5968992710113525
-0.05426359176635742 -0.10312974452972412 0.612403154373169
-0.05426359176635742 -0.10849888622760773 0.7674418687820435
-0.05426359176635742 -0.11312375962734222 0.922480583190918
-0.05426359176635742 -0.10669374465942383 0.9379844665527344
-0.05426359176635742 -0.09360618889331818 0.038759708404541016
-0.05426359176635742 -0.0998706966638565 0.25581395626068115
-0.05426359176635742 -0.0965125784277916 0.27131783962249756
-0.05426359176635742 -0.09370383620262146 0.28682172298431396
-0.05426359176635742 -0.09184280782938004 0.30232560634613037
-0.05426359176635742 -0.0915541872382164 0.3178294897079468
-0.05426359176635742 -0.09438005089759827 0.3333333730697632
-0.05426359176635742 -0.09357097744941711 0.6279069185256958
-0.05426359176635742 -0.09035614877939224 0.751937985420227
-0.05426359176635742 -0.09629109501838684 0.9534883499145508
-0.05426359176635742 -0.07944920659065247 0.02325582504272461
-0.05426359176635742 -0.082501120865345 0.6434108018875122
-0.05426359176635742 -0.07470425963401794 0.6589146852493286
-0.05426359176635742 -0.07006805390119553 0.674418568611145
-0.05426359176635742 -0.07227349281311035 0.7364341020584106
-0.05426359176635742 -0.0780051052570343 0.9689922332763672
-0.05426359176635742 -0.0587690994143486 0.007751941680908203
-0.05426359176635742 -0.06440979242324829 0.6899224519729614
-0.05426359176635742 -0.061592698097229004 0.7054263353347778
-0.05426359176635742 -0.06285131722688675 0.7209302186965942
-0.05426359176635742 -0.04319743439555168 0.9844961166381836
-0.05426359176635742 -0.008672227151691914 0.3333333730697632
-0.05426359176635742 -0.009743597358465195 0.3488372564315796
-0.05426359176635742 -0.009821918793022633 0.364341139793396
-0.05426359176635742 -0.010472828522324562 0.37984490394592285
-0.05426359176635742 -0.01077430322766304 0.39534878730773926
-0.05426359176635742 -0.009931229054927826 0.41085267066955566
-0.05426359176635742 -0.007892942056059837 0.42635655403137207
-0.05426359176635742 0.005444977432489395 0.28682172298431396
-0.05426359176635742 -0.0036430188920348883 0.30232560634613037
-0.05426359176635742 -0.007278322242200375 0.3178294599056244
-0.05426359176635742 -0.006158139556646347 0.4418604373931885
-0.05426359549164772 -0.0018313582986593246 0.4573643207550049
-0.05426359176635742 0.005416616797447205 0.4728682041168213
-0.05426359176635742 0.014590660110116005 0.27131783962249756
-0.05426359176635742 0.014011120423674583 0.4883720576763153
-0.05426359176635742 0.03152552619576454 0.007751941680908203
-0.05426359176635742 0.037310339510440826 0.24031007289886475
-0.05426359176635742 0.025549838319420815 0.25581395626068115
-0.05426359176635742 0.024229416623711586 0.5038759708404541
-0.05426359176635742 0.03531811386346817 0.5193798542022705
-0.05426359176635742 0.032667919993400574 0.7054263353347778
-0.05426359176635742 0.03618256375193596 0.7209302186965942
-0.05426358804106712 0.024340389296412468 0.9844961166381836
-0.05426359176635742 0.046275898814201355 0.22480618953704834
-0.05426359176635742 0.05183873325586319 0.5348837375640869
-0.05426359176635742 0.04157933220267296 0.6899224519729614
-0.05426359176635742 0.05259191617369652 0.7364341020584106
-0.05426359176635742 0.05172186717391014 0.9689922332763672
-0.05426359176635742 0.05498495325446129 0.02325582504272461
-0.05426359176635742 0.06786245107650757 0.17829453945159912
-0.05426359176635742 0.060934677720069885 0.19379842281341553
-0.05426359549164772 0.0549854077398777 0.20930230617523193
-0.05426359176635742 0.06935081630945206 0.751937985420227
-0.05426359176635742 0.06948547810316086 0.9534883499145508
-0.05426359176635742 0.0704042986035347 0.038759708404541016
-0.05426359176635742 0.08176200091838837 0.05426359176635742
-0.05426359176635742 0.07929696142673492 0.1472867727279663
-0.05426359176635742 0.07381723821163177 0.16279065608978271
-0.05426359176635742 0.07990823686122894 0.5503876209259033
-0.05426359176635742 0.08356116712093353 0.7674418687820435
-0.05426359176635742 0.08233090490102768 0.9379844665527344
-0.05426359176635742 0.08973346650600433 0.06976747512817383
-0.05426359176635742 0.09317941963672638 0.08527135848999023
-0.05426359176635742 0.09287261962890625 0.10077524185180664
-0.05426358804106712 0.09005127847194672 0.11627911776304245
-0.05426359176635742 0.08567354828119278 0.1317828893661499
-0.05426359176635742 0.08545593172311783 0.674418568611145
-0.05426359176635742 0.09443780034780502 0.7829457521438599
-0.05426359176635742 0.09996113181114197 0.9069766998291016
-0.05426359176635742 0.09296904504299164 0.922480583190918
-0.05426359176635742 0.10210427641868591 0.5658915638923645
-0.05426359176635742 0.11052365601062775 0.5813953876495361
-0.05426359176635742 0.11559565365314484 0.5968992710113525
-0.05426359176635742 0.11261583864688873 0.6434108018875122
-0.05426359176635742 0.10372889041900635 0.6589146852493286
-0.05426359176635742 0.10189085453748703 0.7984496355056763
-0.05426359176635742 0.10597336292266846 0.8139535188674927
-0.05426359176635742 0.10973510891199112 0.8294574022293091
-0.05426359176635742 0.11133251339197159 0.8449612855911255
-0.05426359176635742 0.11087851971387863 0.8604651689529419
-0.05426359176635742 0.10891836881637573 0.8759689331054688
-0.05426359176635742 0.10607053339481354 0.8914728164672852
-0.05426359176635742 0.11731456220149994 0.612403154373169
-0.05426358804106712 0.11661096662282944 0.627906858921051
-0.038759708404541016 -0.18247948586940765 0.4728682041168213
-0.038759708404541016 -0.18093478679656982 0.4883720874786377
-0.038759708404541016 -0.17417393624782562 0.4573643207550049
-0.038759708404541016 -0.17234675586223602 0.5038759708404541
-0.038759708404541016 -0.14850741624832153 0.42635655403137207
-0.038759708404541016 -0.16140210628509521 0.4418604373931885
-0.038759708404541016 -0.161457821726799 0.5193798542022705
-0.038759708404541016 -0.15059135854244232 0.5348837375640869
-0.038759708404541016 -0.13527065515518188 0.41085267066955566
-0.038759708404541016 -0.13971365988254547 0.5503876209259033
-0.038759708404541016 -0.11791223287582397 0.11627912521362305
-0.038759708404541016 -0.1191752552986145 0.1317828893661499
-0.038759708404541016 -0.11963748186826706 0.1472867727279663
-0.038759708404541016 -0.11880417168140411 0.16279065608978271
-0.038759708404541016 -0.11652007699012756 0.17829453945159912
-0.038759708404541016 -0.12327082455158234 0.39534878730773926
-0.038759708404541016 -0.1279352903366089 0.5658915042877197
-0.038759708404541016 -0.11757656931877136 0.5813953876495361
-0.038759708404541016 -0.11756826192140579 0.7829457521438599
-0.038759708404541016 -0.12419544160366058 0.7984496355056763
-0.038759708404541016 -0.12799829244613647 0.8139535188674927
-0.038759708404541016 -0.12935058772563934 0.8294574022293091
-0.038759708404541016 -0.12883275747299194 0.8449612855911255
-0.038759708404541016 -0.12744027376174927 0.8604651689529419
-0.038759708404541016 -0.12545104324817657 0.8759689331054688
-0.038759708404541016 -0.12254638969898224 0.8914728164672852
-0.038759708404541016 -0.11807985603809357 0.9069766998291016
-0.038759708404541016 -0.10614069551229477 0.06976747512817383
-0.038759708404541016 -0.10990378260612488 0.08527135848999023
-0.038759708404541016 -0.11557754874229431 0.10077524185180664
-0.038759708404541016 -0.11159923672676086 0.19379842281341553
-0.038759708404541016 -0.1073155477643013 0.20930230617523193
-0.038759708404541016 -0.10315397381782532 0.22480618953704834
-0.038759708404541016 -0.10435041785240173 0.364341139793396
-0.038759708404541016 -0.11413885653018951 0.37984490394592285
-0.038759708404541016 -0.10784563422203064 0.5968992710113525
-0.038759708404541016 -0.10187695175409317 0.7674418687820435
-0.038759708404541016 -0.1129574254155159 0.9224806427955627
-0.038759708404541016 -0.10679155588150024 0.9379844665527344
-0.038759708404541016 -0.09288041293621063 0.038759708404541016
