-0.22480618953704834 0.1317828893661499 0.5828624367713928
-0.22480618953704834 0.1472867727279663 0.5485194325447083
-0.22480618953704834 0.1472867727279663 0.5861086845397949
-0.22480618953704834 0.16279065608978271 0.5463730096817017
-0.22480618953704834 0.16279065608978271 0.5848791599273682
-0.22480618953704834 0.17829453945159912 0.5497801899909973
-0.22480618953704834 0.17829453945159912 0.5766932964324951
-0.20930230617523193 -0.3333333134651184 0.6095138788223267
-0.20930230617523193 -0.3333333134651184 0.6287493109703064
-0.20930230617523193 -0.317829430103302 0.6047738790512085
-0.20930230617523193 -0.3178294599056244 0.6284117102622986
-0.20930230617523193 -0.30232560634613037 0.599264919757843
-0.20930230617523193 -0.30232560634613037 0.6238868236541748
-0.20930230617523193 -0.28682172298431396 0.5984861254692078
-0.20930230617523193 -0.28682172298431396 0.616243302822113
-0.20930230617523193 0.038759708404541016 0.6093564629554749
-0.20930230617523193 0.038759708404541016 0.6148311495780945
-0.20930230617523193 0.05426359176635742 0.6010457873344421
-0.20930230617523193 0.05426359176635742 0.6171537637710571
-0.20930230617523193 0.06976747512817383 0.6048659086227417
-0.20930229127407074 0.06976747512817383 0.6133894920349121
-0.20930230617523193 0.1317828893661499 0.5634133219718933
-0.20930230617523193 0.1317828893661499 0.5835761427879333
-0.20930230617523193 0.1472867727279663 0.5489041805267334
-0.20930230617523193 0.1472867727279663 0.5877557992935181
-0.20930230617523193 0.16279065608978271 0.5475890636444092
-0.20930232107639313 0.16279065608978271 0.5865472555160522
-0.20930230617523193 0.17829453945159912 0.5585169196128845
-0.20930230617523193 0.17829453945159912 0.5776755809783936
-0.19379842281341553 -0.3333333134651184 0.6102123260498047
-0.19379842281341553 -0.3333333134651184 0.6292237639427185
-0.19379842281341553 -0.317829430103302 0.6056622266769409
-0.19379842281341553 -0.317829430103302 0.629299521446228
-0.19379842281341553 -0.30232560634613037 0.5989689230918884
-0.19379842281341553 -0.30232560634613037 0.6266945004463196
-0.19379842281341553 -0.28682172298431396 0.5965884923934937
-0.19379842281341553 -0.28682172298431396 0.6190413236618042
-0.19379842281341553 -0.27131783962249756 0.6080445647239685
-0.19379842281341553 -0.27131783962249756 0.6124179363250732
-0.19379842281341553 0.1317828893661499 0.5635260343551636
-0.19379842281341553 0.1317828893661499 0.5871265530586243
-0.19379842281341553 0.1472867727279663 0.5499608516693115
-0.19379842281341553 0.1472867727279663 0.5914292335510254
-0.19379842281341553 0.16279065608978271 0.5501723885536194
-0.19379842281341553 0.16279065608978271 0.5888837575912476
-0.1782945990562439 -0.3333333134651184 0.611099898815155
-0.1782945990562439 -0.3333333134651184 0.628722071647644
-0.1782945990562439 -0.317829430103302 0.6031628251075745
-0.1782945990562439 -0.317829430103302 0.6306561827659607
-0.1782945990562439 -0.30232560634613037 0.5955626368522644
-0.1782945990562439 -0.30232560634613037 0.6300123929977417
-0.1782945990562439 -0.28682172298431396 0.593489944934845
-0.1782945990562439 -0.28682172298431396 0.6249261498451233
-0.1782945990562439 -0.27131783962249756 0.5928535461425781
-0.1782945990562439 -0.27131783962249756 0.6176028847694397
-0.1782945990562439 -0.25581395626068115 0.593368649482727
-0.1782945990562439 -0.25581395626068115 0.6098850965499878
-0.1782945990562439 -0.24031007289886475 0.5965682864189148
-0.1782946139574051 -0.24031007289886475 0.5974147915840149
-0.1782945990562439 0.02325582504272461 -0.20370729267597198
-0.1782945990562439 0.02325582504272461 -0.10317225009202957
-0.1782945990562439 0.038759708404541016 -0.20839130878448486
-0.1782945990562439 0.038759708404541016 -0.09730534255504608
-0.1782945841550827 0.05426359176635742 -0.1739910989999771
-0.1782945990562439 0.05426359176635742 -0.12703144550323486
-0.1782945990562439 0.1317828893661499 0.5610150098800659
-0.1782945990562439 0.1317828893661499 0.5996372699737549
-0.1782945990562439 0.1472867727279663 0.5503169298171997
-0.1782945990562439 0.1472867727279663 0.5995921492576599
-0.1782945990562439 0.16279065608978271 0.5565043687820435
-0.1782945990562439 0.1627906709909439 0.5971938967704773
-0.16279073059558868 -0.317829430103302 0.5970211029052734
-0.1627907156944275 -0.317829430103302 0.6322600245475769
-0.1627907156944275 -0.30232560634613037 0.590226411819458
-0.1627907156944275 -0.30232560634613037 0.6335453391075134
-0.1627907156944275 -0.28682172298431396 0.582714855670929
-0.1627907156944275 -0.28682172298431396 0.6306270956993103
-0.1627907156944275 -0.27131783962249756 0.5808600783348083
-0.1627907156944275 -0.27131783962249756 0.6247879862785339
-0.1627907156944275 -0.25581395626068115 0.5806759595870972
-0.1627907156944275 -0.25581395626068115 0.6186338067054749
-0.1627907156944275 -0.24031007289886475 0.5816852450370789
-0.1627907156944275 -0.24031007289886475 0.6138173937797546
-0.1627907156944275 -0.22480618953704834 0.5913500189781189
-0.1627907156944275 -0.22480618953704834 0.6023750305175781
-0.1627907156944275 -0.007751941680908203 -0.17001062631607056
-0.1627907156944275 -0.007751941680908203 -0.1316979080438614
-0.1627907156944275 0.007751941680908203 -0.2763858437538147
-0.1627907156944275 0.007751941680908203 -0.07105765491724014
-0.1627907156944275 0.02325582504272461 -0.29504796862602234
-0.1627907156944275 0.02325582504272461 -0.04577493667602539
-0.1627907156944275 0.038759708404541016 -0.28062188625335693
-0.1627907156944275 0.038759708404541016 -0.03007660061120987
-0.1627907156944275 0.05426359176635742 -0.22208279371261597
-0.1627907156944275 0.05426359176635742 -0.028669189661741257
-0.1627907156944275 0.06976747512817383 -0.17042550444602966
-0.1627907156944275 0.06976747512817383 -0.050989508628845215
-0.1627907156944275 0.11627912521362305 0.5726507902145386
-0.1627907156944275 0.11627912521362305 0.6059337854385376
-0.1627907156944275 0.1317828893661499 0.5571556091308594
-0.1627907156944275 0.1317828893661499 0.6082111597061157
-0.1627907156944275 0.1472867727279663 0.5502045750617981
-0.1627907156944275 0.1472867727279663 0.6074233651161194
-0.1627907156944275 0.16279065608978271 0.5597758293151855
-0.1627907156944275 0.16279065608978271 0.6019331812858582
-0.14728683233261108 -0.317829430103302 0.5962761640548706
-0.14728683233261108 -0.317829430103302 0.6317795515060425
-0.14728683233261108 -0.30232563614845276 0.5829765796661377
-0.14728683233261108 -0.30232560634613037 0.636258602142334
-0.14728683233261108 -0.28682172298431396 0.5775461792945862
-0.14728683233261108 -0.28682172298431396 0.6347532272338867
-0.14728683233261108 -0.27131783962249756 0.5749018788337708
-0.14728683233261108 -0.27131783962249756 0.6303778886795044
-0.14728683233261108 -0.25581395626068115 0.5736473798751831
-0.14728683233261108 -0.25581395626068115 0.6255390644073486
-0.14728683233261108 -0.24031007289886475 0.5752404928207397
-0.14728683233261108 -0.24031007289886475 0.6199938058853149
-0.14728683233261108 -0.22480618953704834 0.5793854594230652
-0.14728683233261108 -0.22480618953704834 0.6149605512619019
-0.14728683233261108 -0.20930230617523193 0.5958638191223145
-0.14728683233261108 -0.20930230617523193 0.5982041358947754
-0.14728683233261108 -0.007751941215246916 -0.29847416281700134
-0.14728683233261108 -0.007751941680908203 -0.07421955466270447
-0.14728683233261108 0.007751941680908203 -0.4579080045223236
-0.14728683233261108 0.007751941680908203 -0.4355814754962921
-0.14728683233261108 0.007751941680908203 -0.3413165807723999
-0.14728683233261108 0.007751941680908203 -0.036346543580293655
-0.14728683233261108 0.02325582504272461 -0.47454822063446045
-0.14728683233261108 0.02325582504272461 -0.430210679769516
-0.14728683233261108 0.02325582504272461 -0.3394968807697296
-0.14728683233261108 0.02325582504272461 0.004726286046206951
-0.14728683233261108 0.038759708404541016 -0.4809018671512604
-0.14728683233261108 0.038759708404541016 -0.4401499927043915
-0.14728683233261108 0.038759708404541016 -0.3029051721096039
-0.14728683233261108 0.038759708404541016 0.020162289962172508
-0.14728683233261108 0.05426359176635742 -0.49268418550491333
-0.14728683233261108 0.05426359176635742 -0.4573214650154114
-0.14728683233261108 0.05426359176635742 -0.22992828488349915
-0.14728683233261108 0.05426359176635742 0.024453025311231613
-0.14728683233261108 0.06976747512817383 -0.506536066532135
-0.14728683233261108 0.06976747512817383 -0.472324013710022
-0.14728683233261108 0.06976747512817383 -0.18353122472763062
-0.14728683233261108 0.06976747512817383 0.021748078987002373
-0.14728683233261108 0.08527135848999023 -0.5194951891899109
-0.14728683233261108 0.08527135848999023 -0.48704829812049866
-0.14728683233261108 0.08527135848999023 -0.14024946093559265
-0.14728683233261108 0.08527135848999023 -0.001806529937312007
-0.14728683233261108 0.10077524185180664 -0.52745521068573
-0.14728683233261108 0.10077524185180664 -0.5058210492134094
-0.14728683233261108 0.10077524185180664 0.5983953475952148
-0.14728683233261108 0.10077524185180664 0.6152017712593079
-0.14728683233261108 0.11627912521362305 0.5651023387908936
-0.14728683233261108 0.11627913266420364 0.6160510778427124
-0.14728683233261108 0.1317828893661499 0.5547951459884644
-0.14728683233261108 0.1317828893661499 0.6153249740600586
-0.14728683233261108 0.1472867727279663 0.5517658591270447
-0.14728683233261108 0.1472867727279663 0.6137298345565796
-0.14728683233261108 0.16279065608978271 0.5637916922569275
-0.14728683233261108 0.16279065608978271 0.6078147888183594
-0.14728683233261108 0.24031007289886475 -0.9542326331138611
-0.14728683233261108 0.24031008780002594 -0.9522305727005005
-0.13178294897079468 -0.317829430103302 0.6113484501838684
-0.13178294897079468 -0.317829430103302 0.6163394451141357
-0.13178294897079468 -0.30232560634613037 0.5869099497795105
-0.13178294897079468 -0.30232560634613037 0.635176420211792
-0.13178294897079468 -0.28682172298431396 0.5756922960281372
-0.13178294897079468 -0.28682172298431396 0.6361467242240906
-0.13178294897079468 -0.27131783962249756 0.5702846050262451
-0.13178294897079468 -0.27131783962249756 0.6326603889465332
-0.13178294897079468 -0.25581395626068115 0.5676238536834717
-0.13178294897079468 -0.25581395626068115 0.6294664144515991
-0.13178294897079468 -0.24031007289886475 0.5700844526290894
-0.13178294897079468 -0.24031007289886475 0.624976634979248
-0.13178294897079468 -0.22480618953704834 0.5766251683235168
-0.13178294897079468 -0.22480618953704834 0.6189751625061035
-0.13178294897079468 -0.20930230617523193 0.5902968645095825
-0.13178294897079468 -0.20930230617523193 0.6068099141120911
-0.13178294897079468 -0.02325582504272461 -0.13245391845703125
-0.13178294897079468 -0.02325582504272461 -0.13107077777385712
-0.13178294897079468 -0.007751941680908203 -0.4585014581680298
-0.13178294897079468 -0.007751941215246916 -0.4409724473953247
-0.13178294897079468 -0.007751941680908203 -0.3094988465309143
-0.13178294897079468 -0.007751941680908203 -0.050271473824977875
-0.13178294897079468 0.007751941680908203 -0.47567617893218994
-0.13178294897079468 0.007751941680908203 -0.4364233613014221
-0.13178294897079468 0.007751941680908203 -0.32291901111602783
-0.13178294897079468 0.007751941680908203 0.02115141972899437
-0.13178294897079468 0.02325582504272461 -0.48313719034194946
-0.13178294897079468 0.02325582504272461 -0.43681663274765015
-0.13178294897079468 0.02325582504272461 -0.310759961605072
-0.13178294897079468 0.02325582504272461 0.04107677564024925
-0.13178294897079468 0.038759708404541016 -0.4932684004306793
-0.13178294897079468 0.038759708404541016 -0.4465765058994293
-0.13178294897079468 0.038759712129831314 -0.2704176902770996
-0.13178294897079468 0.038759708404541016 0.04929233342409134
-0.13178294897079468 0.05426359176635742 -0.5081025958061218
-0.13178294897079468 0.05426359176635742 -0.4621708393096924
-0.13178294897079468 0.05426359176635742 -0.21277731657028198
-0.13178294897079468 0.05426359176635742 0.05218559131026268
-0.13178294897079468 0.06976747512817383 -0.5227138996124268
-0.13178293406963348 0.06976746767759323 -0.4721725285053253
-0.13178294897079468 0.06976747512817383 -0.17844729125499725
-0.13178294897079468 0.06976747512817383 0.04924039915204048
-0.13178294897079468 0.08527135848999023 -0.536529541015625
-0.13178294897079468 0.08527135848999023 -0.4836362600326538
-0.13178294897079468 0.08527135848999023 -0.14978794753551483
-0.13178294897079468 0.08527135848999023 0.03868879750370979
-0.13178294897079468 0.10077524185180664 -0.5500128865242004
-0.13178294897079468 0.10077524185180664 -0.4950048327445984
-0.13178294897079468 0.10077524185180664 -0.07581645995378494
-0.13178294897079468 0.10077524185180664 -0.009317675605416298
-0.13178294897079468 0.10077524185180664 0.5900885462760925
-0.13178294897079468 0.10077524185180664 0.6238201260566711
-0.13178294897079468 0.11627912521362305 -0.560874342918396
-0.13178294897079468 0.11627912521362305 -0.5075803995132446
-0.13178294897079468 0.11627912521362305 0.5644590854644775
-0.13178294897079468 0.11627912521362305 0.6236985921859741
-0.13178294897079468 0.1317828893661499 -0.5737147331237793
-0.13178294897079468 0.1317828893661499 -0.5246119499206543
-0.13178294897079468 0.1317828893661499 0.5561250448226929
-0.13178294897079468 0.1317828893661499 0.6215760707855225
-0.13178294897079468 0.1472867727279663 -0.5848601460456848
-0.13178294897079468 0.1472867727279663 -0.5462151765823364
-0.13178294897079468 0.1472867727279663 0.5563223361968994
-0.13178294897079468 0.1472867727279663 0.6175845265388489
-0.13178294897079468 0.16279065608978271 -0.583503782749176
-0.13178294897079468 0.16279065608978271 -0.5773866176605225
-0.13178294897079468 0.16279065608978271 0.5715010762214661
-0.13178294897079468 0.16279065608978271 0.6111284494400024
-0.13178294897079468 0.17829453945159912 -0.9742227792739868
-0.13178294897079468 0.17829453945159912 -0.9666429758071899
-0.13178294897079468 0.19379842281341553 -0.9751631021499634
-0.13178294897079468 0.19379842281341553 -0.9577523469924927
-0.13178294897079468 0.20930230617523193 -0.9725921154022217
-0.13178294897079468 0.20930232107639313 -0.9483352899551392
-0.13178294897079468 0.22480618953704834 -0.9694641828536987
-0.13178294897079468 0.22480618953704834 -0.9353631734848022
-0.13178294897079468 0.24031007289886475 -0.9611821174621582
-0.13178294897079468 0.24031007289886475 -0.9237759709358215
-0.13178294897079468 0.25581395626068115 -0.9541277289390564
-0.13178294897079468 0.25581395626068115 -0.9148424863815308
-0.13178294897079468 0.27131783962249756 -0.9421658515930176
-0.13178294897079468 0.27131783962249756 -0.9025953412055969
-0.13178294897079468 0.28682172298431396 -0.9244338870048523
-0.13178294897079468 0.28682172298431396 -0.8918442726135254
-0.11627906560897827 -0.28682172298431396 0.5828992128372192
-0.11627906560897827 -0.28682172298431396 0.6298359036445618
-0.11627906560897827 -0.27131783962249756 0.5746341347694397
-0.11627906560897827 -0.27131783962249756 0.6297139525413513
-0.11627906560897827 -0.25581395626068115 0.5714670419692993
-0.11627906560897827 -0.25581395626068115 0.6282238960266113
-0.11627906560897827 -0.24031007289886475 0.5731110572814941
-0.11627906560897827 -0.24031007289886475 0.6236415505409241
-0.11627906560897827 -0.22480618953704834 0.5781912803649902
-0.11627905815839767 -0.22480617463588715 0.6174237728118896
-0.11627907305955887 -0.00775194214656949 -0.17380447685718536
-0.11627906560897827 -0.007751941680908203 -0.02539144642651081
-0.11627906560897827 -0.007751941680908203 -0.010445788502693176
-0.11627906560897827 -0.007751941680908203 0.016341598704457283
-0.11627906560897827 0.007751941680908203 -0.4579119384288788
-0.11627906560897827 0.00775194214656949 -0.4568723440170288
-0.11627906560897827 0.007751941680908203 -0.24301519989967346
-0.11627906560897827 0.00775194214656949 0.05618114396929741
-0.11627906560897827 0.02325582504272461 -0.24160006642341614
-0.11627906560897827 0.02325582504272461 0.06725960969924927
-0.11627906560897827 0.038759708404541016 -0.21588116884231567
-0.11627906560897827 0.038759712129831314 0.07108259946107864
-0.11627906560897827 0.05426359176635742 -0.5040212273597717
-0.11627906560897827 0.05426359176635742 -0.4848901033401489
-0.11627906560897827 0.05426359176635742 -0.1875050663948059
-0.11627906560897827 0.05426358804106712 0.07074479758739471
-0.11627906560897827 0.06976747512817383 -0.5237623453140259
-0.11627906560897827 0.06976747512817383 -0.48501133918762207
-0.11627906560897827 0.06976747512817383 -0.16631892323493958
-0.11627906560897827 0.06976747512817383 0.06630682200193405
-0.11627906560897827 0.08527135848999023 -0.5406216979026794
-0.11627906560897827 0.08527135848999023 -0.49089592695236206
-0.11627906560897827 0.08527135848999023 -0.146736741065979
-0.11627906560897827 0.08527135848999023 0.05543086677789688
-0.11627906560897827 0.08527135103940964 0.6128664016723633
-0.11627906560897827 0.08527135848999023 0.6285639405250549
-0.11627906560897827 0.10077524185180664 -0.5563390254974365
-0.11627906560897827 0.10077524185180664 -0.5001299381256104
-0.11627906560897827 0.10077524185180664 -0.09730285406112671
-0.11627906560897827 0.10077524185180664 0.026165079325437546
-0.11627906560897827 0.10077524185180664 0.584747314453125
-0.11627906560897827 0.10077524185180664 0.6294676065444946
-0.11627906560897827 0.11627912521362305 -0.5738053321838379
-0.11627906560897827 0.11627912521362305 -0.5100032687187195
-0.11627906560897827 0.11627912521362305 0.5658270716667175
-0.11627906560897827 0.11627912521362305 0.6287461519241333
-0.11627906560897827 0.1317828893661499 -0.5915700197219849
-0.11627906560897827 0.1317828893661499 -0.5218122005462646
-0.11627906560897827 0.1317828893661499 0.5599011182785034
-0.11627906560897827 0.1317828893661499 0.6260364055633545
-0.11627906560897827 0.1472867727279663 -0.9855252504348755
-0.11627906560897827 0.1472867727279663 -0.9783464670181274
-0.11627906560897827 0.1472867727279663 -0.6043744087219238
-0.11627906560897827 0.1472867727279663 -0.5381437540054321
-0.11627906560897827 0.1472867727279663 0.5615543127059937
-0.11627906560897827 0.1472867727279663 0.6215554475784302
-0.11627906560897827 0.16279065608978271 -0.9853928089141846
-0.11627905815839767 0.16279064118862152 -0.9676348567008972
-0.11627906560897827 0.16279065608978271 -0.6146106123924255
-0.11627906560897827 0.16279065608978271 -0.5606268644332886
-0.11627906560897827 0.16279065608978271 0.5798822641372681
-0.11627906560897827 0.16279065608978271 0.612284779548645
-0.11627906560897827 0.17829453945159912 -0.9843571186065674
-0.11627906560897827 0.17829453945159912 -0.9646552801132202
-0.11627906560897827 0.17829453945159912 -0.6338599920272827
-0.11627906560897827 0.17829453945159912 -0.5827702283859253
-0.11627906560897827 0.19379842281341553 -0.976378321647644
-0.11627906560897827 0.19379842281341553 -0.958329439163208
-0.11627906560897827 0.19379842281341553 -0.6644994616508484
-0.11627906560897827 0.19379842281341553 -0.5966392755508423
-0.11627906560897827 0.20930230617523193 -0.9725714325904846
-0.11627906560897827 0.20930230617523193 -0.9455277919769287
-0.11627906560897827 0.20930230617523193 -0.6831989288330078
-0.11627906560897827 0.20930229127407074 -0.6119874119758606
-0.11627906560897827 0.22480618953704834 -0.9688103795051575
-0.11627906560897827 0.22480618953704834 -0.9209268093109131
-0.11627906560897827 0.22480618953704834 -0.6936932802200317
-0.11627906560897827 0.22480618953704834 -0.6382784843444824
-0.11627906560897827 0.24031007289886475 -0.9605164527893066
-0.11627906560897827 0.24031007289886475 -0.9028960466384888
-0.11627906560897827 0.24031007289886475 -0.6919923424720764
-0.11627906560897827 0.24031007289886475 -0.6870056390762329
-0.11627906560897827 0.25581395626068115 -0.9535518884658813
-0.11627906560897827 0.25581395626068115 -0.8895447254180908
-0.11627906560897827 0.27131783962249756 -0.9423200488090515
-0.11627906560897827 0.27131783962249756 -0.8693575859069824
-0.11627906560897827 0.28682172298431396 -0.9297606348991394
-0.11627906560897827 0.28682172298431396 -0.837099552154541
-0.11627906560897827 0.30232560634613037 -0.9100090265274048
-0.11627906560897827 0.30232560634613037 -0.8362833261489868
-0.10077518224716187 -0.25581395626068115 0.5913710594177246
-0.10077518224716187 -0.25581395626068115 0.6020318269729614
-0.10077518224716187 -0.24031007289886475 0.5861204266548157
-0.10077518224716187 -0.24031007289886475 0.6040347814559937
-0.10077518224716187 -0.007751941680908203 -0.14633560180664062
-0.10077518224716187 -0.007751941680908203 0.06592871993780136
-0.10077518224716187 0.007751941680908203 -0.17421557009220123
-0.10077518224716187 0.007751941680908203 0.08514702320098877
-0.10077518224716187 0.02325582504272461 -0.18844257295131683
-0.10077518224716187 0.02325582504272461 0.09130208194255829
-0.10077518224716187 0.038759708404541016 -0.18270619213581085
-0.10077518224716187 0.038759708404541016 0.09056970477104187
-0.10077518224716187 0.05426359176635742 -0.1704431027173996
-0.10077518224716187 0.05426359176635742 0.08612016588449478
-0.10077518224716187 0.06976747512817383 -0.15734447538852692
-0.10077518224716187 0.06976747512817383 0.07858259975910187
-0.10077518224716187 0.08527135848999023 -0.531072735786438
-0.10077518224716187 0.08527135848999023 -0.5108444094657898
-0.10077518224716187 0.08527135848999023 -0.1380012035369873
-0.10077518224716187 0.08527135848999023 0.06748779863119125
-0.10077518224716187 0.08527135848999023 0.5907784700393677
-0.10077518224716187 0.08527135848999023 0.6319620609283447
-0.10077518224716187 0.10077524185180664 -0.5544726848602295
-0.10077518224716187 0.10077524185180664 -0.5123913288116455
-0.10077518224716187 0.10077524185180664 -0.09586551785469055
-0.10077518224716187 0.10077524185180664 0.040691226720809937
-0.10077518224716187 0.10077524185180664 0.5766396522521973
-0.10077518224716187 0.10077524185180664 0.6329236030578613
-0.10077518224716187 0.11627912521362305 -0.9850919246673584
-0.10077518224716187 0.11627912521362305 -0.9834668636322021
-0.10077518224716187 0.11627912521362305 -0.5820026993751526
-0.10077518224716187 0.11627912521362305 -0.5173288583755493
-0.10077518224716187 0.11627912521362305 0.5652190446853638
-0.10077518224716187 0.11627912521362305 0.6316478848457336
-0.10077518224716187 0.1317828893661499 -0.9867803454399109
-0.10077518224716187 0.1317828893661499 -0.9763894081115723
-0.10077518224716187 0.1317828893661499 -0.6021242737770081
-0.10077518224716187 0.1317828893661499 -0.527647852897644
-0.10077518224716187 0.1317828893661499 0.5621834397315979
-0.10077518224716187 0.1317828893661499 0.6289066076278687
-0.10077518224716187 0.1472867727279663 -0.9863042235374451
-0.10077518224716187 0.14728675782680511 -0.9684367775917053
-0.10077518224716187 0.1472867727279663 -0.6165986657142639
-0.10077518224716187 0.1472867727279663 -0.5410494804382324
-0.10077518224716187 0.1472867727279663 0.5658156275749207
-0.10077518224716187 0.1472867727279663 0.6233025789260864
-0.10077518224716187 0.16279065608978271 -0.9854693412780762
-0.10077518224716187 0.16279065608978271 -0.9657984375953674
-0.10077518224716187 0.16279065608978271 -0.6291323304176331
-0.10077518969774246 0.16279065608978271 -0.5603842735290527
-0.10077518224716187 0.16279065608978271 0.5914406776428223
-0.10077518224716187 0.16279065608978271 0.6059589982032776
-0.10077518224716187 0.17829453945159912 -0.9835131168365479
-0.10077518224716187 0.17829453945159912 -0.9630939960479736
-0.10077518224716187 0.17829453945159912 -0.6548632979393005
-0.10077518224716187 0.17829453945159912 -0.5800323486328125
-0.10077518224716187 0.19379842281341553 -0.9756966829299927
-0.10077518224716187 0.19379842281341553 -0.9549362659454346
-0.10077518224716187 0.19379842281341553 -0.6843395233154297
-0.10077518224716187 0.19379842281341553 -0.593530535697937
-0.10077518224716187 0.20930230617523193 -0.9718338251113892
-0.10077518224716187 0.20930230617523193 -0.935498833656311
-0.10077518224716187 0.20930230617523193 -0.706210732460022
-0.10077518224716187 0.20930230617523193 -0.6082683801651001
-0.10077518224716187 0.22480618953704834 -0.9667204022407532
-0.10077518224716187 0.22480618953704834 -0.9049961566925049
-0.10077518224716187 0.22480618953704834 -0.7238297462463379
-0.10077518224716187 0.22480618953704834 -0.628471314907074
-0.10077518224716187 0.24031007289886475 -0.9593822956085205
-0.10077518224716187 0.24031007289886475 -0.8884490728378296
-0.10077518224716187 0.24031007289886475 -0.7544399499893188
-0.10077518224716187 0.24031007289886475 -0.6571013331413269
-0.10077518224716187 0.25581395626068115 -0.9520187973976135
-0.10077518224716187 0.25581395626068115 -0.87469482421875
-0.10077518224716187 0.25581395626068115 -0.7884895205497742
-0.10077518224716187 0.25581395626068115 -0.6886133551597595
-0.10077518224716187 0.27131783962249756 -0.9410075545310974
-0.10077518224716187 0.27131783962249756 -0.7181283235549927
-0.10077518224716187 0.28682172298431396 -0.9292458295822144
-0.10077518224716187 0.28682172298431396 -0.7482478618621826
-0.10077518224716187 0.30232560634613037 -0.91133052110672
-0.10077518224716187 0.30232560634613037 -0.7862415313720703
-0.10077518224716187 0.3178294897079468 -0.8659749031066895
-0.10077518224716187 0.3178294897079468 -0.8434519171714783
-0.08527129888534546 -0.007751941680908203 -0.12397119402885437
-0.08527129888534546 -0.007751941680908203 0.10913726687431335
-0.08527129888534546 0.007751941680908203 -0.15410146117210388
-0.08527129888534546 0.007751941215246916 0.1371554285287857
-0.08527129888534546 0.02325582504272461 -0.16631574928760529
-0.08527129888534546 0.02325582504272461 0.138424351811409
-0.08527129888534546 0.038759708404541016 -0.16667971014976501
-0.08527130633592606 0.038759708404541016 0.11802592873573303
-0.08527129888534546 0.05426359176635742 -0.16312168538570404
-0.08527129888534546 0.05426359176635742 0.10257210582494736
-0.08527129888534546 0.05426359176635742 0.609323263168335
-0.08527129888534546 0.05426359176635742 0.6213244795799255
-0.08527129888534546 0.06976747512817383 -0.15077579021453857
-0.08527129888534546 0.06976747512817383 0.09054861962795258
-0.08527129888534546 0.06976747512817383 0.5807210206985474
-0.08527129888534546 0.06976747512817383 0.6397309899330139
-0.08527129888534546 0.08527135848999023 -0.13304191827774048
-0.08527129888534546 0.08527135848999023 0.07825153321027756
-0.08527129888534546 0.08527135848999023 0.5701225996017456
-0.08527129888534546 0.08527135848999023 0.6412583589553833
-0.08527129888534546 0.10077524185180664 -0.0947885736823082
-0.08527129888534546 0.10077524185180664 0.053818441927433014
-0.08527129888534546 0.10077524185180664 0.5637611746788025
-0.08527129888534546 0.10077524185180664 0.6390712857246399
-0.08527129888534546 0.11627912521362305 -0.9861956238746643
-0.08527129888534546 0.11627912521362305 -0.9811922311782837
-0.08527129888534546 0.11627912521362305 -0.5662073493003845
-0.08527129888534546 0.11627912521362305 -0.540725827217102
-0.08527129888534546 0.11627912521362305 0.5614523887634277
-0.08527129888534546 0.11627912521362305 0.6355217695236206
-0.08527129888534546 0.1317828893661499 -0.9868212938308716
-0.08527129888534546 0.1317828893661499 -0.9752197861671448
-0.08527129888534546 0.1317828893661499 -0.5988693833351135
-0.08527129888534546 0.1317828893661499 -0.5412649512290955
-0.08527129888534546 0.1317828893661499 0.5625250339508057
-0.08527129888534546 0.1317828893661499 0.6306884288787842
-0.08527129888534546 0.1472867727279663 -0.986240804195404
-0.08527129888534546 0.1472867727279663 -0.9678581357002258
-0.08527129888534546 0.1472867727279663 -0.6139307618141174
-0.08527129888534546 0.1472867727279663 -0.5510717630386353
-0.08527129888534546 0.1472867727279663 0.5719205141067505
-0.08527129888534546 0.1472867727279663 0.6233924627304077
-0.08527129888534546 0.16279065608978271 -0.9853584170341492
-0.08527129888534546 0.16279065608978271 -0.9649405479431152
-0.08527129888534546 0.16279065608978271 -0.6235171556472778
-0.08527129888534546 0.16279065608978271 -0.5710004568099976
-0.08527129888534546 0.17829453945159912 -0.9819928407669067
-0.08527129888534546 0.17829453945159912 -0.9618054628372192
-0.08527129888534546 0.17829453945159912 -0.6508514881134033
-0.08527129888534546 0.17829453945159912 -0.589882493019104
-0.08527129888534546 0.19379842281341553 -0.974962592124939
-0.08527129888534546 0.19379842281341553 -0.9530969858169556
-0.08527129888534546 0.19379842281341553 -0.6834286451339722
-0.08527129888534546 0.19379842281341553 -0.5985743403434753
-0.08527129888534546 0.20930230617523193 -0.9710837602615356
-0.08527129888534546 0.20930230617523193 -0.9319953322410583
-0.08527129888534546 0.20930230617523193 -0.7061881422996521
-0.08527129888534546 0.20930230617523193 -0.6114186644554138
-0.08527129888534546 0.22480618953704834 -0.9648900032043457
-0.08527130633592606 0.22480618953704834 -0.902986466884613
-0.08527129888534546 0.22480618953704834 -0.7255769968032837
-0.08527129888534546 0.22480618953704834 -0.6333061456680298
-0.08527129888534546 0.24031007289886475 -0.957217276096344
-0.08527129888534546 0.24031007289886475 -0.8862802982330322
-0.08527129888534546 0.24031007289886475 -0.7606300115585327
-0.08527129888534546 0.24031007289886475 -0.6599413156509399
-0.08527129888534546 0.25581395626068115 -0.9489107131958008
-0.08527129888534546 0.25581395626068115 -0.8714911937713623
-0.08527129888534546 0.25581395626068115 -0.7967209219932556
-0.08527129888534546 0.25581395626068115 -0.6916980147361755
-0.08527129888534546 0.27131783962249756 -0.9383531212806702
-0.08527129888534546 0.27131783962249756 -0.7193288207054138
-0.08527129888534546 0.28682172298431396 -0.9244755506515503
-0.08527129888534546 0.28682172298431396 -0.7482358813285828
-0.08527129888534546 0.30232560634613037 -0.9057160019874573
-0.08527129888534546 0.30232560634613037 -0.7839210629463196
-0.06976741552352905 -0.19379842281341553 0.8074462413787842
-0.06976741552352905 -0.19379842281341553 0.8600022196769714
-0.06976741552352905 -0.1782945990562439 0.7938655018806458
-0.06976741552352905 -0.1782945990562439 0.8745380640029907
-0.06976741552352905 -0.1627907156944275 0.7927060127258301
-0.06976741552352905 -0.1627907156944275 0.8779194355010986
-0.06976741552352905 -0.14728683233261108 0.797396183013916
-0.06976740807294846 -0.14728683233261108 0.8766929507255554
-0.06976741552352905 -0.13178294897079468 0.8111863136291504
-0.06976741552352905 -0.13178294897079468 0.8663479685783386
-0.06976741552352905 -0.02325582504272461 -0.0015847522299736738
-0.06976741552352905 -0.02325582504272461 0.1473606675863266
-0.06976741552352905 -0.007751941680908203 -0.09786514192819595
-0.06976741552352905 -0.00775194214656949 0.18371228873729706
-0.06976741552352905 0.007751941680908203 -0.13606801629066467
-0.06976741552352905 0.007751941680908203 0.18784570693969727
-0.06976741552352905 0.02325582504272461 -0.1506865918636322
-0.06976741552352905 0.02325582504272461 0.18116456270217896
-0.06976741552352905 0.02325582504272461 0.6093880534172058
-0.06976741552352905 0.02325582504272461 0.6517424583435059
-0.06976741552352905 0.038759708404541016 -0.15449553728103638
-0.06976741552352905 0.038759708404541016 0.16669876873493195
-0.06976741552352905 0.038759708404541016 0.5870679020881653
-0.06976741552352905 0.038759708404541016 0.6517758369445801
-0.06976741552352905 0.05426359176635742 -0.1534699946641922
-0.06976741552352905 0.05426359176635742 0.14076080918312073
-0.06976741552352905 0.05426359176635742 0.5676048994064331
-0.06976741552352905 0.05426359176635742 0.6495553255081177
-0.06976741552352905 0.06976747512817383 -0.14712268114089966
-0.06976741552352905 0.06976747512817383 0.11171486973762512
-0.06976741552352905 0.06976747512817383 0.5550954341888428
-0.06976741552352905 0.06976747512817383 0.6475397944450378
-0.06976741552352905 0.08527135848999023 -0.12999320030212402
-0.06976741552352905 0.08527135848999023 0.09313106536865234
-0.06976741552352905 0.08527135848999023 0.5489902496337891
-0.06976741552352905 0.08527135848999023 0.6451679468154907
-0.06976741552352905 0.10077524185180664 -0.09675716608762741
-0.06976741552352905 0.10077524185180664 0.0677400454878807
-0.06976741552352905 0.10077524185180664 0.549202561378479
-0.06976741552352905 0.10077524185180664 0.6421287059783936
-0.06976741552352905 0.11627912521362305 0.5531972050666809
-0.06976741552352905 0.11627912521362305 0.6378659009933472
-0.06976741552352905 0.1317828893661499 -0.9856868386268616
-0.06976741552352905 0.1317828893661499 -0.9805086851119995
-0.06976741552352905 0.1317828893661499 0.5612114667892456
-0.06976741552352905 0.1317828893661499 0.6313185691833496
-0.06976741552352905 0.1472867727279663 -0.985356330871582
-0.06976741552352905 0.1472867727279663 -0.97527015209198
-0.06976741552352905 0.1472867727279663 0.5751258730888367
-0.06976741552352905 0.1472867727279663 0.6214945912361145
-0.06976741552352905 0.16279065608978271 -0.9847612977027893
-0.06976741552352905 0.16279065608978271 -0.9672037959098816
-0.06976741552352905 0.17829453945159912 -0.9766858816146851
-0.06976741552352905 0.17829453945159912 -0.9647401571273804
-0.06976741552352905 0.19379842281341553 -0.9726828932762146
-0.06976741552352905 0.19379842281341553 -0.9604678153991699
-0.06976741552352905 0.20930230617523193 -0.9695867300033569
-0.06976741552352905 0.20930230617523193 -0.9466125965118408
-0.06976741552352905 0.20930230617523193 -0.6757948398590088
-0.06976741552352905 0.20930230617523193 -0.644922137260437
-0.06976741552352905 0.22480618953704834 -0.9610482454299927
-0.06976741552352905 0.22480618953704834 -0.9182454347610474
-0.06976741552352905 0.22480618953704834 -0.6882025003433228
-0.06976741552352905 0.22480618953704834 -0.6583927869796753
-0.06976741552352905 0.24031007289886475 -0.9525596499443054
-0.06976741552352905 0.24031007289886475 -0.8981004953384399
-0.06976741552352905 0.25581395626068115 -0.941551685333252
-0.06976741552352905 0.25581395626068115 -0.8853541016578674
-0.06976741552352905 0.25581395626068115 -0.7679615020751953
-0.06976741552352905 0.25581395626068115 -0.7269850969314575
-0.06976741552352905 0.27131783962249756 -0.9269518852233887
-0.06976741552352905 0.27131783962249756 -0.868825376033783
-0.06976741552352905 0.27131783962249756 -0.8051782846450806
-0.06976741552352905 0.27131783962249756 -0.739806592464447
-0.06976741552352905 0.28682172298431396 -0.9019654989242554
-0.06976741552352905 0.28682172298431396 -0.7701011896133423
-0.05426359176635742 -0.22480618953704834 0.7917683124542236
-0.05426359176635742 -0.22480618953704834 0.9016581773757935
-0.05426359176635742 -0.20930230617523193 0.7692968845367432
-0.05426359176635742 -0.20930230617523193 0.9323054552078247
-0.05426359176635742 -0.19379842281341553 0.7557480335235596
-0.05426359176635742 -0.19379842281341553 0.949235200881958
-0.05426359176635742 -0.1782945990562439 0.7518801689147949
-0.05426359176635742 -0.1782945990562439 0.9591126441955566
-0.05426359176635742 -0.1627907156944275 0.7558161020278931
-0.05426359176635742 -0.1627907156944275 0.9674978852272034
-0.05426359176635742 -0.14728683233261108 0.7620576620101929
-0.05426359176635742 -0.14728683233261108 0.972049355506897
-0.05426359549164772 -0.13178294897079468 0.7695120573043823
-0.05426359176635742 -0.13178294897079468 0.9736053943634033
-0.05426359176635742 -0.11627906560897827 0.7807598114013672
-0.05426359176635742 -0.11627906560897827 0.9718686938285828
-0.05426359176635742 -0.10077518224716187 0.7974595427513123
-0.05426359176635742 -0.10077518224716187 0.9665558934211731
-0.05426359176635742 -0.08527129888534546 0.8233797550201416
-0.05426359176635742 -0.08527129888534546 0.9586312174797058
-0.05426359176635742 -0.06976741552352905 0.845796525478363
-0.05426359176635742 -0.06976741552352905 0.9401438236236572
-0.05426359176635742 -0.05426359176635742 0.8733936548233032
-0.05426359176635742 -0.05426359176635742 0.8989386558532715
-0.05426359176635742 -0.038759708404541016 0.07321925461292267
-0.05426359176635742 -0.038759708404541016 0.10807618498802185
-0.05426359176635742 -0.02325582504272461 -0.01621488854289055
-0.05426359176635742 -0.02325582504272461 0.19599558413028717
-0.05426359176635742 -0.02325582504272461 0.60084068775177
-0.05426359176635742 -0.02325582504272461 0.6474279165267944
-0.05426359176635742 -0.007751941680908203 -0.07101249694824219
-0.05426359176635742 -0.007751941680908203 0.20448753237724304
-0.05426359176635742 -0.007751941680908203 0.5883147716522217
-0.05426359176635742 -0.007751941680908203 0.6676201820373535
-0.05426359176635742 0.007751941680908203 -0.10823416709899902
-0.05426359176635742 0.007751941680908203 0.20323361456394196
-0.05426359176635742 0.007751941680908203 0.5804637670516968
-0.05426359176635742 0.007751941680908203 0.6754922866821289
-0.05426359176635742 0.02325582504272461 -0.12983256578445435
-0.05426358804106712 0.02325582504272461 0.1960333287715912
-0.05426359176635742 0.02325582504272461 0.5700557231903076
-0.05426359176635742 0.02325582504272461 0.6747473478317261
-0.05426359176635742 0.038759708404541016 -0.14225836098194122
-0.05426359176635742 0.038759708404541016 0.18457813560962677
-0.05426359176635742 0.038759708404541016 0.552294135093689
-0.05426359176635742 0.038759708404541016 0.6671134233474731
-0.05426359176635742 0.05426359176635742 -0.14745229482650757
-0.05426359176635742 0.05426359176635742 0.16793647408485413
-0.05426359176635742 0.05426359176635742 0.5334367156028748
-0.05426359176635742 0.05426359176635742 0.6609781980514526
-0.05426359176635742 0.06976747512817383 -0.14172276854515076
-0.05426359176635742 0.06976747512817383 0.14240655303001404
-0.05426359176635742 0.06976747512817383 0.5284944772720337
-0.05426359176635742 0.06976747512817383 0.6558594107627869
-0.05426359176635742 0.08527135848999023 -0.12758873403072357
-0.05426359176635742 0.08527135848999023 0.11257193237543106
-0.05426359176635742 0.08527135848999023 0.5316325426101685
-0.05426359176635742 0.08527135848999023 0.6485397815704346
-0.05426359176635742 0.10077524185180664 -0.09911052882671356
-0.05426359176635742 0.10077524185180664 0.08275836706161499
-0.05426359176635742 0.10077524185180664 0.5379583239555359
-0.05426359176635742 0.10077524185180664 0.6434605717658997
-0.05426359176635742 0.11627912521362305 -0.014356857165694237
-0.05426359176635742 0.11627911776304245 0.02662060223519802
-0.05426359176635742 0.11627912521362305 0.5484014749526978
-0.05426359176635742 0.11627912521362305 0.6375313401222229
-0.05426359176635742 0.1317828893661499 0.5621189475059509
-0.05426359176635742 0.1317828893661499 0.6291908025741577
-0.05426359176635742 0.1472867727279663 0.5813570618629456
-0.05426359176635742 0.1472867727279663 0.614630937576294
-0.038759708404541016 -0.24031007289886475 0.7935606241226196
-0.038759708404541016 -0.24031007289886475 0.8945688605308533
-0.038759708404541016 -0.22480618953704834 0.7601384520530701
-0.038759708404541016 -0.22480618953704834 0.9311308860778809
-0.038759708404541016 -0.20930230617523193 0.7398719787597656
-0.038759708404541016 -0.20930230617523193 0.9491480588912964
-0.038759708404541016 -0.19379842281341553 0.7327495813369751
-0.038759708404541016 -0.19379842281341553 0.9615285396575928
-0.038759708404541016 -0.1782945990562439 0.7333720326423645
-0.038759708404541016 -0.1782945990562439 0.9703348278999329
-0.038759712129831314 -0.1627907156944275 0.7366313338279724
-0.038759708404541016 -0.1627907156944275 0.9784555435180664
-0.038759708404541016 -0.14728683233261108 0.7443093657493591
-0.038759708404541016 -0.14728683233261108 0.9834476709365845
-0.038759708404541016 -0.13178294897079468 0.7502347826957703
-0.038759708404541016 -0.13178294897079468 0.9846680760383606
-0.038759708404541016 -0.11627906560897827 0.7594165802001953
-0.038759708404541016 -0.11627906560897827 0.98257976770401
-0.038759708404541016 -0.10077518224716187 0.7737113237380981
-0.038759708404541016 -0.10077518224716187 0.9779178500175476
-0.038759708404541016 -0.08527129888534546 0.7923994064331055
-0.038759708404541016 -0.08527129888534546 0.9723959565162659
-0.038759708404541016 -0.06976741552352905 0.8118817210197449
-0.038759708404541016 -0.06976741552352905 0.9652953147888184
-0.038759708404541016 -0.05426359176635742 0.829989492893219
-0.038759708404541016 -0.05426359176635742 0.9510365128517151
-0.038759708404541016 -0.038759708404541016 0.03552119433879852
-0.038759708404541016 -0.038759708404541016 0.19718551635742188
-0.038759708404541016 -0.038759708404541016 0.5737451910972595
-0.038759708404541016 -0.038759708404541016 0.6550813317298889
-0.038759708404541016 -0.038759708404541016 0.8573133945465088
-0.038759708404541016 -0.038759708404541016 0.9099481701850891
-0.038759708404541016 -0.02325582504272461 -0.0134884649887681
-0.038759708404541016 -0.02325582690536976 0.2125059962272644
-0.038759708404541016 -0.02325582504272461 0.5602725744247437
-0.038759708404541016 -0.02325582504272461 0.6753326058387756
-0.038759708404541016 -0.007751941680908203 -0.052480265498161316
-0.038759708404541016 -0.007751941215246916 0.21603211760520935
-0.038759708404541016 -0.007751941680908203 0.5532023906707764
-0.038759708404541016 -0.007751941680908203 0.683641791343689
-0.038759708404541016 0.007751941680908203 -0.08445439487695694
-0.038759708404541016 0.007751941215246916 0.21294037997722626
-0.038759708404541016 0.007751941680908203 0.5456900000572205
-0.038759708404541016 0.007751941680908203 0.6844857931137085
-0.038759708404541016 0.02325582504272461 -0.10820847004652023
-0.038759708404541016 0.02325582504272461 0.20567165315151215
-0.038759708404541016 0.02325582504272461 0.5229092240333557
-0.038759708404541016 0.02325582504272461 0.6800317168235779
-0.038759708404541016 0.038759708404541016 -0.1267610788345337
-0.038759712129831314 0.038759712129831314 0.19529281556606293
-0.038759708404541016 0.038759708404541016 0.5059691071510315
-0.03875970467925072 0.03875970467925072 0.6745882630348206
-0.038759708404541016 0.05426359176635742 -0.1356896609067917
-0.038759708404541016 0.05426359549164772 0.18107925355434418
-0.038759708404541016 0.05426359176635742 0.5035440921783447
-0.038759708404541016 0.05426359176635742 0.6663547158241272
-0.038759708404541016 0.06976747512817383 -0.1343940943479538
-0.038759708404541016 0.06976747512817383 0.16153749823570251
-0.038759708404541016 0.06976747512817383 0.5095924139022827
-0.038759708404541016 0.06976747512817383 0.6585516929626465
-0.038759708404541016 0.08527135848999023 -0.12288804352283478
-0.038759708404541016 0.08527135848999023 0.12919951975345612
-0.038759708404541016 0.08527135848999023 0.5183783769607544
-0.038759708404541016 0.08527135848999023 0.6502618193626404
-0.038759708404541016 0.10077524185180664 -0.09866943210363388
-0.038759708404541016 0.10077524185180664 0.09377461671829224
-0.038759708404541016 0.10077524185180664 0.5332455635070801
-0.038759708404541016 0.10077524185180664 0.6419832706451416
-0.038759708404541016 0.11627912521362305 -0.030599398538470268
-0.038759708404541016 0.11627913266420364 0.042715612798929214
-0.038759708404541016 0.11627912521362305 0.5513362288475037
-0.038759708404541016 0.11627912521362305 0.6337552666664124
-0.038759708404541016 0.1317828893661499 0.5721262693405151
-0.038759708404541016 0.1317828893661499 0.6213048696517944
-0.02325582504272461 -0.24031007289886475 0.7749669551849365
-0.02325582504272461 -0.24031007289886475 0.9159537553787231
-0.02325582504272461 -0.22480618953704834 0.7455853223800659
-0.02325582504272461 -0.22480618953704834 0.9419828653335571
-0.02325582504272461 -0.20930230617523193 0.7275311946868896
-0.02325582504272461 -0.20930230617523193 0.9555343389511108
-0.02325582504272461 -0.19379842281341553 0.7198470830917358
-0.02325582504272461 -0.19379842281341553 0.9683249592781067
-0.02325582504272461 -0.1782945990562439 0.7208706736564636
-0.02325582504272461 -0.1782945990562439 0.9780082702636719
-0.02325582504272461 -0.1627907156944275 0.7280530333518982
-0.02325582504272461 -0.1627907007932663 0.9849283695220947
-0.02325582504272461 -0.14728683233261108 0.7345634698867798
-0.02325582690536976 -0.14728683233261108 0.9863206744194031
-0.02325582504272461 -0.13178294897079468 0.7412605285644531
-0.02325582504272461 -0.13178294897079468 0.9869604110717773
-0.02325582504272461 -0.11627906560897827 0.7484765648841858
-0.02325582504272461 -0.11627906560897827 0.986600399017334
-0.02325582504272461 -0.10077518224716187 0.7594914436340332
-0.02325582504272461 -0.10077518224716187 0.984846830368042
-0.02325582504272461 -0.08527129888534546 0.7778102159500122
-0.02325582504272461 -0.08527129888534546 0.9789063334465027
-0.02325582504272461 -0.06976741552352905 0.7977022528648376
-0.02325582504272461 -0.06976741552352905 0.9724990129470825
-0.02325582504272461 -0.05426359176635742 0.5559769868850708
-0.02325582504272461 -0.05426359176635742 0.6482961773872375
-0.02325582504272461 -0.05426359176635742 0.8171584010124207
-0.02325582504272461 -0.05426359176635742 0.9638358950614929
-0.02325582504272461 -0.038759708404541016 0.03351437300443649
-0.02325582504272461 -0.038759708404541016 0.21202975511550903
-0.02325582504272461 -0.038759708404541016 0.5376695394515991
-0.02325582504272461 -0.038759708404541016 0.6754998564720154
-0.02325582504272461 -0.038759708404541016 0.8396533727645874
-0.02325582504272461 -0.038759708404541016 0.9414602518081665
-0.02325582504272461 -0.02325582504272461 -0.0049784486182034016
-0.02325582504272461 -0.02325582504272461 0.22189347445964813
-0.02325582318007946 -0.02325582318007946 0.5210172533988953
-0.02325582318007946 -0.02325582318007946 0.6899305582046509
-0.02325582504272461 -0.007751941680908203 -0.03764095902442932
-0.02325582504272461 -0.007751941680908203 0.22352959215641022
-0.02325582504272461 -0.00775194214656949 0.5052343010902405
-0.02325582504272461 -0.007751941680908203 0.691707193851471
-0.02325582504272461 0.007751941680908203 -0.06657800823450089
-0.02325582504272461 0.007751941680908203 0.2185075730085373
-0.02325582504272461 0.007751941680908203 0.49511539936065674
-0.02325582504272461 0.007751941680908203 0.6903484463691711
-0.02325582504272461 0.02325582504272461 -0.0913797914981842
-0.02325582504272461 0.02325582504272461 0.2108123004436493
-0.02325582504272461 0.02325582504272461 0.4887004792690277
-0.02325582504272461 0.02325582504272461 0.6840592622756958
-0.02325582504272461 0.038759708404541016 -0.1116197407245636
-0.02325582504272461 0.038759708404541016 0.2003101259469986
-0.02325582504272461 0.038759708404541016 0.4883597195148468
-0.02325582318007946 0.038759708404541016 0.6762335896492004
-0.02325582504272461 0.05426359176635742 -0.12335231900215149
-0.02325582504272461 0.05426359176635742 0.1877746880054474
-0.02325582504272461 0.05426359176635742 0.49373242259025574
-0.02325582504272461 0.05426359176635742 0.6685408353805542
-0.02325582504272461 0.06976747512817383 -0.12458346039056778
-0.02325582504272461 0.06976747512817383 0.16884362697601318
-0.02325582504272461 0.06976747512817383 0.5016223788261414
-0.02325582504272461 0.06976747512817383 0.6587789058685303
-0.02325582318007946 0.08527135848999023 -0.1162068247795105
-0.02325582504272461 0.08527135848999023 0.13766373693943024
-0.02325582504272461 0.08527135848999023 0.516034722328186
-0.02325582504272461 0.08527135848999023 0.6491721272468567
-0.02325582504272461 0.10077524930238724 -0.09503757953643799
-0.02325582504272461 0.10077524185180664 0.09965404868125916
-0.02325582504272461 0.10077524185180664 0.5395557880401611
-0.02325582504272461 0.10077524185180664 0.6387739777565002
-0.02325582690536976 0.11627912521362305 -0.037603218108415604
-0.02325582504272461 0.11627912521362305 0.05139322951436043
-0.02325582504272461 0.11627912521362305 0.5640410780906677
