0.8698550462722778 0.02325582504272461 0.1317828893661499
0.8615562915802002 0.038759708404541016 -0.13178294897079468
0.8751513957977295 0.038759708404541016 0.1317828893661499
0.8618205785751343 0.05426359176635742 0.11627912521362305
0.8636337518692017 0.06976747512817383 0.11627913266420364
0.8698655366897583 0.08527135848999023 -0.10077518224716187
0.8618104457855225 0.08527135848999023 0.11627912521362305
0.8754553198814392 0.08527135848999023 0.1317828893661499
0.8668045401573181 0.10077524185180664 -0.10077518224716187
0.8733566999435425 0.10077524185180664 0.1317828893661499
0.8608291745185852 0.11627912521362305 -0.11627907305955887
0.8727849125862122 0.11627912521362305 -0.10077518224716187
0.8702484965324402 0.11627912521362305 0.1317828893661499
0.8699496984481812 0.1317828893661499 -0.11627906560897827
0.8664440512657166 0.1317828893661499 0.1317828893661499
0.8734356164932251 0.1472867727279663 -0.11627906560897827
0.8613471388816833 0.1472867727279663 0.1317828893661499
0.8739761114120483 0.1472867727279663 0.1472867727279663
0.8734917640686035 0.16279065608978271 -0.11627906560897827
0.8714609146118164 0.16279065608978271 0.1472867727279663
0.8720652461051941 0.17829453945159912 -0.11627906560897827
0.8686518669128418 0.17829453945159912 0.1472867727279663
0.8699284791946411 0.19379842281341553 -0.11627906560897827
0.8663917779922485 0.19379842281341553 0.1472867727279663
0.8741373419761658 0.19379842281341553 0.16279065608978271
0.8668400049209595 0.20930230617523193 -0.11627906560897827
0.8637144565582275 0.20930230617523193 0.1472867727279663
0.8722039461135864 0.20930230617523193 0.16279065608978271
0.8616618514060974 0.22480620443820953 -0.11627906560897827
0.8611188530921936 0.22480618953704834 0.1472867727279663
0.8708105683326721 0.22480618953704834 0.16279065608978271
0.8704466223716736 0.24031007289886475 0.16279065608978271
0.8713380098342896 0.25581395626068115 0.16279065608978271
0.8701010942459106 0.27131783962249756 -0.10077518224716187
0.8742112517356873 0.27131783962249756 0.16279065608978271
0.868664026260376 0.28682172298431396 -0.10077518224716187
0.868013858795166 0.30232560634613037 -0.10077518224716187
0.865885853767395 0.3178294897079468 -0.10077518224716187
0.8616417646408081 0.3333333730697632 -0.10077518224716187
0.8691215515136719 0.3488372564315796 -0.08527129888534546
0.8752415180206299 0.3488372564315796 0.1472867727279663
0.8619477152824402 0.364341139793396 -0.08527129888534546
0.8742535710334778 0.364341139793396 -0.06976741552352905
0.8669366836547852 0.364341139793396 0.1472867727279663
0.8656381368637085 0.37984490394592285 -0.06976741552352905
0.867913007736206 0.37984490394592285 -0.007751941680908203
0.8610397577285767 0.37984490394592285 0.1472867727279663
0.8681337833404541 0.39534878730773926 -0.02325582504272461
0.8606522679328918 0.39534878730773926 -0.007751941680908203
0.8666906356811523 0.39534878730773926 0.007751941680908203
0.8748294115066528 0.39534878730773926 0.02325582504272461
0.868280291557312 0.39534878730773926 0.1317828893661499
0.8715252876281738 0.41085267066955566 -0.05426359176635742
0.8640105128288269 0.41085267066955566 0.02325582504272461
0.8662307858467102 0.41085267066955566 0.038759708404541016
0.8686542510986328 0.41085267066955566 0.05426359176635742
0.8723229169845581 0.41085267066955566 0.06976747512817383
0.8747813701629639 0.41085267066955566 0.08527135848999023
0.8733343482017517 0.41085267066955566 0.10077524185180664
0.8681793808937073 0.41085267066955566 0.11627912521362305
0.8630877733230591 0.4263565242290497 -0.05426358804106712
0.8639450073242188 0.42635655403137207 0.06976747512817383
0.8653849959373474 0.42635655403137207 0.08527135848999023
0.8640743494033813 0.42635655403137207 0.10077524185180664
0.8699483871459961 0.4418604373931885 -0.038759708404541016
0.8612155914306641 0.4573643207550049 -0.038759708404541016
0.8766463398933411 -0.42635661363601685 -0.05426359176635742
0.8821032047271729 -0.42635661363601685 -0.038759708404541016
0.8854920864105225 -0.41085273027420044 -0.05426359176635742
0.8897260427474976 -0.41085273027420044 -0.038759708404541016
0.8804050087928772 -0.3798449635505676 -0.06976741552352905
0.8761665225028992 -0.3643410801887512 -0.08527129888534546
0.8858015537261963 -0.3643410801887512 -0.06976741552352905
0.8786759972572327 -0.3488371968269348 -0.08527129888534546
0.8902209997177124 -0.3488371968269348 -0.06976741552352905
0.881763219833374 -0.3333333134651184 -0.08527129888534546
0.8778398036956787 -0.3333333134651184 -0.02325582504272461
0.8774898648262024 -0.3333333134651184 0.11627913266420364
0.8874068260192871 -0.317829430103302 -0.08527129888534546
0.8821201324462891 -0.317829430103302 -0.02325582504272461
0.8826887607574463 -0.317829430103302 0.11627912521362305
0.880293071269989 -0.317829430103302 0.1317828893661499
0.8768427968025208 -0.30232560634613037 -0.10077518224716187
0.8893829584121704 -0.30232560634613037 -0.02325582504272461
0.876146674156189 -0.302325576543808 -0.007751941215246916
0.876423180103302 -0.30232560634613037 0.10077524185180664
0.8892937898635864 -0.30232560634613037 0.11627912521362305
0.8847654461860657 -0.30232560634613037 0.1317828893661499
0.8808638453483582 -0.28682172298431396 -0.10077518224716187
0.8798988461494446 -0.28682172298431396 -0.007751941680908203
0.8779579997062683 -0.28682172298431396 0.007751941680908203
0.8803654909133911 -0.28682172298431396 0.10077524185180664
0.8896816372871399 -0.28682172298431396 0.1317828893661499
0.886308491230011 -0.27131783962249756 -0.10077518224716187
0.8852245807647705 -0.27131783962249756 -0.007751941680908203
0.8821234107017517 -0.27131783962249756 0.007751941680908203
0.8784564137458801 -0.27131783962249756 0.02325582504272461
0.8763449192047119 -0.27131783962249756 0.038759708404541016
0.8761909604072571 -0.27131783962249756 0.05426359176635742
0.8774915337562561 -0.27131783962249756 0.06976747512817383
0.8790613412857056 -0.27131783962249756 0.08527135848999023
0.8910407423973083 -0.27131783962249756 0.10077524185180664
0.8906835317611694 -0.25581395626068115 -0.007751941680908203
0.8888149857521057 -0.25581395626068115 0.007751941680908203
0.8813059329986572 -0.25581395626068115 0.02325582504272461
0.8787957429885864 -0.25581395626068115 0.038759708404541016
0.8792771100997925 -0.25581395626068115 0.05426359176635742
0.8806620836257935 -0.25581395626068115 0.06976747512817383
0.8818922638893127 -0.25581395626068115 0.08527135848999023
0.8798019886016846 -0.25581395626068115 0.1472867727279663
0.8860461711883545 -0.24031007289886475 0.02325582504272461
0.8815808296203613 -0.24031008780002594 0.038759708404541016
0.8823609352111816 -0.24031007289886475 0.05426359176635742
0.882717490196228 -0.24031007289886475 0.06976747512817383
0.8813104629516602 -0.24031007289886475 0.08527135848999023
0.8883547782897949 -0.24031007289886475 0.10077524185180664
0.8854232430458069 -0.24031007289886475 0.1472867727279663
0.888420820236206 -0.22480618953704834 0.038759708404541016
0.8887317180633545 -0.22480618953704834 0.05426359176635742
0.8848893642425537 -0.22480618953704834 0.06976747512817383
0.8793710470199585 -0.22480618953704834 0.08527135848999023
0.8788837194442749 -0.22480618953704834 0.10077524185180664
0.8895258903503418 -0.20930230617523193 0.06976747512817383
0.8773773908615112 -0.20930230617523193 0.08527135848999023
0.8811523914337158 -0.19379840791225433 0.08527135848999023
0.876807451248169 -0.19379842281341553 0.16279065608978271
0.8848236799240112 -0.1782945990562439 0.16279065608978271
0.8766549229621887 -0.14728683233261108 -0.10077518224716187
0.8763405680656433 -0.10077518224716187 -0.08527129888534546
0.8773977160453796 -0.10077517479658127 0.16279065608978271
0.8805540800094604 -0.08527129888534546 0.16279065608978271
0.8786559700965881 -0.06976741552352905 -0.08527129888534546
0.8822116255760193 -0.06976741552352905 0.16279065608978271
0.8785600066184998 -0.05426359176635742 -0.10077518224716187
0.8895055651664734 -0.05426359176635742 -0.08527129888534546
0.883557915687561 -0.05426359176635742 0.16279065608978271
0.8783259987831116 -0.038759708404541016 -0.11627906560897827
0.8906752467155457 -0.038759708404541016 -0.10077518224716187
0.884503185749054 -0.038759708404541016 0.16279065608978271
0.8842353224754333 -0.02325582504272461 -0.11627906560897827
0.8857297897338867 -0.02325582504272461 0.16279065608978271
0.8888472318649292 -0.007751941680908203 -0.11627906560897827
0.8875189423561096 -0.007751941680908203 0.16279065608978271
0.8774082660675049 0.007751941680908203 0.1472867727279663
0.8903137445449829 0.007751941680908203 0.16279065608978271
0.8905736804008484 0.02325582504272461 -0.11627906560897827
0.8839641809463501 0.02325582504272461 0.1472867727279663
0.8847594857215881 0.038759708404541016 -0.11627906560897827
0.8882153034210205 0.038759708404541016 0.1472867727279663
0.8768078684806824 0.05426359176635742 -0.11627906560897827
0.8780914545059204 0.05426359549164772 0.1317828893661499
0.8894981145858765 0.05426359176635742 0.1472867727279663
0.8806716203689575 0.06976747512817383 -0.10077518224716187
0.8775977492332458 0.06976747512817383 0.1317828893661499
0.889212965965271 0.06976747512817383 0.1472867727279663
0.887827455997467 0.08527135848999023 0.1472867727279663
0.8847191333770752 0.10077524185180664 0.1472867727279663
0.8899022936820984 0.11627912521362305 -0.08527129888534546
0.8804616332054138 0.11627912521362305 0.1472867727279663
0.890875518321991 0.11627912521362305 0.16279065608978271
0.8785149455070496 0.1317828893661499 -0.10077518224716187
0.8885524272918701 0.1317828893661499 -0.08527129888534546
0.8761950135231018 0.1317828893661499 0.1472867727279663
0.8877689838409424 0.1317828893661499 0.16279065608978271
0.8804800510406494 0.1472867727279663 -0.10077518224716187
0.888245701789856 0.1472867727279663 -0.08527129888534546
0.8843446373939514 0.1472867727279663 0.16279065608978271
0.8816027641296387 0.16279065608978271 -0.10077518224716187
0.8900460004806519 0.16279065608978271 -0.08527129888534546
0.8806484937667847 0.16279065608978271 0.16279065608978271
0.8821961879730225 0.17829453945159912 -0.10077518224716187
0.8760087490081787 0.17829453945159912 0.1627906709909439
0.8836349844932556 0.19379842281341553 -0.10077518224716187
0.8858942985534668 0.20930230617523193 -0.10077518224716187
0.8849418759346008 0.22480618953704834 -0.10077518224716187
0.8808611631393433 0.24031007289886475 -0.10077518224716187
0.8766933083534241 0.25581395626068115 -0.10077518224716187
0.8789553046226501 0.27131783962249756 0.16279065608978271
0.8862758874893188 0.28682172298431396 -0.08527129888534546
0.8827499151229858 0.30232560634613037 -0.08527129888534546
0.8795992136001587 0.3178294897079468 -0.08527129888534546
0.8872212171554565 0.3178294897079468 0.1472867727279663
0.875981867313385 0.3333333730697632 -0.08527129888534546
0.8868640661239624 0.3333333730697632 -0.06976741552352905
0.880615770816803 0.3333333730697632 0.1472867727279663
0.8813804388046265 0.3488372564315796 -0.06976741552352905
0.8842859268188477 0.3488372564315796 -0.007751941680908203
0.8903132677078247 0.3488372564315796 0.1317828893661499
0.8859069347381592 0.364341139793396 -0.02325582504272461
0.8775700926780701 0.3643411695957184 -0.007751941680908203
0.8840292096138 0.364341139793396 0.007751941680908203
0.8833986520767212 0.364341139793396 0.1317828893661499
0.886824369430542 0.37984490394592285 -0.05426359176635742
0.8785542845726013 0.37984490394592285 -0.02325582504272461
0.8782709836959839 0.37984490394592285 0.007751941680908203
0.8831629157066345 0.37984490394592285 0.02325582504272461
0.8852083683013916 0.37984490394592285 0.038759708404541016
0.8872015476226807 0.37984490394592285 0.05426359176635742
0.8896515965461731 0.37984490394592285 0.06976747512817383
0.8907455801963806 0.37984490394592285 0.08527135848999023
0.8893344402313232 0.37984490394592285 0.10077524185180664
0.8850831985473633 0.37984490394592285 0.11627912521362305
0.8773544430732727 0.37984490394592285 0.1317828893661499
0.8791034817695618 0.39534878730773926 -0.05426359176635742
0.877654492855072 0.39534875750541687 0.038759708404541016
0.8796209692955017 0.39534875750541687 0.05426358804106712
0.8816661834716797 0.39534878730773926 0.06976747512817383
0.882764458656311 0.39534878730773926 0.08527135848999023
0.8818697929382324 0.39534878730773926 0.10077524185180664
0.8780538439750671 0.39534878730773926 0.11627913266420364
0.8860085010528564 0.41085267066955566 -0.038759708404541016
0.8776364326477051 0.42635655403137207 -0.038759708404541016
0.8923585414886475 -0.39534884691238403 -0.05426358804106712
0.8969988822937012 -0.39534884691238403 -0.038759708404541016
0.8988208770751953 -0.3798449635505676 -0.05426359176635742
0.9038521647453308 -0.3798449635505676 -0.038759708404541016
0.9066488146781921 -0.3643410801887512 -0.05426359176635742
0.8945178985595703 -0.3333333134651184 -0.06976741552352905
0.8987249732017517 -0.317829430103302 -0.06976741552352905
0.8932958245277405 -0.30232560634613037 -0.08527129888534546
0.9054642915725708 -0.30232560634613037 -0.06976741552352905
0.8982430696487427 -0.28682172298431396 -0.08527129888534546
0.8939262628555298 -0.28682172298431396 -0.02325582504272461
0.8951541185379028 -0.28682172298431396 0.11627911776304245
0.9054960012435913 -0.27131783962249756 -0.08527129888534546
0.8961422443389893 -0.27131783962249756 -0.02325582318007946
0.9000450372695923 -0.27131783962249756 0.11627912521362305
0.8950186967849731 -0.27131783962249756 0.1317828893661499
0.8914934992790222 -0.25581395626068115 -0.10077518969774246
0.8958044052124023 -0.25581395626068115 -0.02325582504272461
0.8931564688682556 -0.25581395626068115 0.10077524930238724
0.8997533321380615 -0.25581395626068115 0.1317828893661499
0.8931623697280884 -0.24031007289886475 -0.10077518224716187
0.8945856690406799 -0.24031007289886475 -0.02325582504272461
0.8928381204605103 -0.24031007289886475 -0.007751941680908203
0.892825186252594 -0.24031007289886475 0.007751941215246916
0.9043903350830078 -0.24031007289886475 0.1317828893661499
0.8945938348770142 -0.22480618953704834 -0.10077518224716187
0.8978353142738342 -0.22480618953704834 -0.02325582504272461
0.8966363668441772 -0.22480618953704834 -0.007751941680908203
0.8957529067993164 -0.22480618953704834 0.007751941680908203
0.8924318552017212 -0.22480618953704834 0.02325582690536976
0.8928178548812866 -0.22480618953704834 0.1472867727279663
0.8954854011535645 -0.20930230617523193 -0.10077518224716187
0.9038704633712769 -0.20930230617523193 -0.007751941680908203
0.9017090797424316 -0.20930230617523193 0.007751941680908203
0.8955381512641907 -0.20930232107639313 0.02325582504272461
0.8942725658416748 -0.20930230617523193 0.038759708404541016
0.8946601748466492 -0.20930230617523193 0.05426359176635742
0.89693284034729 -0.20930232107639313 0.1472867727279663
0.8959534168243408 -0.19379842281341553 -0.10077518224716187
0.9027259349822998 -0.19379842281341553 0.02325582504272461
0.9041963219642639 -0.19379842281341553 0.038759708404541016
0.8993382453918457 -0.19379842281341553 0.06976747512817383
0.9026595950126648 -0.19379842281341553 0.1472867727279663
0.8955721259117126 -0.1782945990562439 -0.10077517479658127
0.9008334875106812 -0.1782945990562439 0.08527135848999023
0.8930531144142151 -0.1782945841550827 0.10077524185180664
0.8921402096748352 -0.1627907156944275 -0.10077518224716187
0.89304518699646 -0.1627907156944275 0.16279065608978271
0.896669328212738 -0.14728683233261108 0.16279065608978271
0.9038347601890564 -0.13178294897079468 -0.08527129888534546
0.9008362293243408 -0.13178294897079468 0.16279065608978271
0.8915827870368958 -0.11627906560897827 -0.08527129888534546
0.9060871601104736 -0.11627906560897827 0.16279065608978271
0.8994711637496948 -0.08527129888534546 -0.06976741552352905
0.897053599357605 -0.06976741552352905 -0.06976741552352905
0.8993680477142334 -0.05426359176635742 -0.06976741552352905
0.8960031270980835 -0.038759708404541016 -0.08527129888534546
0.9035437107086182 -0.038759708404541016 -0.06976741552352905
0.894868016242981 -0.02325582504272461 -0.10077517479658127
0.900534451007843 -0.02325582504272461 -0.08527129888534546
0.8980578780174255 -0.007751941680908203 -0.10077518224716187
0.904994010925293 -0.007751941680908203 -0.08527129888534546
0.8915947079658508 0.007751941680908203 -0.11627906560897827
0.9003565907478333 0.007751941680908203 -0.10077518224716187
0.9003953337669373 0.02325582504272461 -0.10077518224716187
0.8947824239730835 0.02325582504272461 0.16279065608978271
0.896761417388916 0.038759708404541016 -0.10077518224716187
0.8986268639564514 0.038759708404541016 0.16279065608978271
0.8922089338302612 0.05426358804106712 -0.10077518224716187
0.9000958204269409 0.05426359176635742 0.16279065608978271
0.905148446559906 0.06976747512817383 -0.08527129888534546
0.9003031253814697 0.06976747512817383 0.16279065608978271
0.8974058628082275 0.08527135848999023 -0.08527129888534546
0.8996366858482361 0.08527135848999023 0.16279065608978271
0.8928809762001038 0.10077524185180664 -0.08527129888534546
0.8966877460479736 0.10077524185180664 0.16279065608978271
0.9011663198471069 0.11627912521362305 -0.06976741552352905
0.8959670066833496 0.1317828893661499 -0.06976741552352905
0.8934951424598694 0.1472867727279663 -0.06976741552352905
0.893528938293457 0.16279065608978271 -0.06976741552352905
0.8917123079299927 0.17829453945159912 -0.08527129888534546
0.8943120241165161 0.17829453945159912 -0.06976741552352905
0.8930754065513611 0.19379842281341553 -0.08527129888534546
0.8966920375823975 0.19379842281341553 -0.06976741552352905
0.8956518173217773 0.20930230617523193 -0.08527129888534546
0.9011250734329224 0.20930230617523193 -0.06976741552352905
0.8974645137786865 0.22480618953704834 -0.08527129888534546
0.9030163884162903 0.22480618953704834 0.16279065608978271
0.8966492414474487 0.24031007289886475 -0.08527129888534546
0.8979802131652832 0.24031007289886475 0.16279065608978271
0.8941385746002197 0.25581395626068115 -0.08527129888534546
0.8921397924423218 0.25581395626068115 0.16279065608978271
0.8917587995529175 0.27131783962249756 -0.08527129888534546
0.9010541439056396 0.27131783962249756 -0.06976741552352905
0.9052529335021973 0.27131783962249756 0.1472867727279663
0.8973353505134583 0.28682172298431396 -0.06976741552352905
0.8992178440093994 0.28682172298431396 0.1472867727279663
0.8946943283081055 0.30232560634613037 -0.06976741552352905
0.9041795134544373 0.30232560634613037 -0.007751941680908203
0.906898021697998 0.30232560634613037 0.1317828893661499
0.8936542272567749 0.30232560634613037 0.1472867876291275
0.8916851282119751 0.3178294897079468 -0.06976741552352905
0.8971703052520752 0.3178294897079468 -0.007751941680908203
0.9035378694534302 0.3178294897079468 0.007751941680908203
0.901029109954834 0.3178294897079468 0.1317828893661499
0.9057514667510986 0.3333333730697632 -0.05426359176635742
0.9010582566261292 0.3333333730697632 -0.02325582504272461
0.8930242657661438 0.3333333730697632 -0.007751941680908203
0.897456169128418 0.3333333730697632 0.007751941680908203
0.9026172161102295 0.3333333730697632 0.02325582504272461
0.9046524167060852 0.3333333730697632 0.038759708404541016
0.9063670635223389 0.3333333730697632 0.05426359176635742
0.9059993624687195 0.3333333730697632 0.10077524185180664
0.9025956392288208 0.3333333730697632 0.11627912521362305
0.8953129053115845 0.3333333730697632 0.1317828893661499
0.900101363658905 0.3488372564315796 -0.05426359176635742
0.8947498202323914 0.348837286233902 -0.02325582690536976
0.8935952186584473 0.3488372564315796 0.007751941215246916
0.8977007865905762 0.3488372564315796 0.02325582504272461
0.8990776538848877 0.3488372564315796 0.038759708404541016
0.9003065824508667 0.3488372564315796 0.05426359176635742
0.9015247821807861 0.3488372564315796 0.06976747512817383
0.9017558693885803 0.3488372564315796 0.08527135848999023
0.901027262210846 0.3488372564315796 0.10077524185180664
0.8971747159957886 0.3488372564315796 0.11627912521362305
0.893772542476654 0.364341139793396 -0.05426359176635742
0.8924394249916077 0.364341139793396 0.02325582504272461
0.8938142657279968 0.364341139793396 0.038759712129831314
0.895031750202179 0.364341139793396 0.05426359176635742
0.8962393999099731 0.364341139793396 0.06976747512817383
0.8965950012207031 0.364341139793396 0.08527135848999023
0.895527184009552 0.364341139793396 0.10077524185180664
0.8921647667884827 0.364341139793396 0.11627911776304245
0.9008773565292358 0.37984490394592285 -0.038759708404541016
0.8932113647460938 0.39534878730773926 -0.03875970467925072
0.9103639125823975 -0.3643410801887512 -0.038759708404541016
0.9101070165634155 -0.3488371670246124 -0.05426359176635742
0.9175072908401489 -0.3488371968269348 -0.038759708404541016
0.91634202003479 -0.3333333134651184 -0.05426359176635742
0.9222884178161621 -0.317829430103302 -0.05426359176635742
0.910497784614563 -0.28682172298431396 -0.06976741552352905
0.9147950410842896 -0.27131783962249756 -0.06976741552352905
0.9088596105575562 -0.25581395626068115 -0.08527129143476486
0.918735921382904 -0.25581395626068115 -0.06976741552352905
0.9074015617370605 -0.25581395626068115 0.11627912521362305
0.9108101725578308 -0.24031007289886475 -0.08527129888534546
0.9105498790740967 -0.24031007289886475 0.11627911776304245
0.9127018451690674 -0.22480618953704834 -0.08527129888534546
0.9129455089569092 -0.22480618953704834 0.11627912521362305
0.9096753597259521 -0.22480618953704834 0.1317828893661499
0.914214015007019 -0.20930230617523193 -0.08527129888534546
0.9150125980377197 -0.20930230617523193 0.11627912521362305
0.9134314060211182 -0.20930230617523193 0.1317828893661499
0.9147694110870361 -0.19379842281341553 -0.08527129888534546
0.9087212085723877 -0.19379842281341553 -0.007751941215246916
0.9083824753761292 -0.19379842281341553 0.007751941680908203
0.9073264002799988 -0.19379842281341553 0.05426359176635742
0.9183130264282227 -0.19379842281341553 0.1317828893661499
0.9148586988449097 -0.1782945990562439 -0.08527129888534546
0.9111069440841675 -0.1782945990562439 -0.007751941680908203
0.91145259141922 -0.1782945990562439 0.007751941680908203
0.9091005325317383 -0.1782945990562439 0.02325582504272461
0.9117603302001953 -0.1782945990562439 0.038759708404541016
0.9148496985435486 -0.1782945990562439 0.05426359176635742
0.9130085706710815 -0.1782945990562439 0.06976747512817383
0.9099090099334717 -0.1782945990562439 0.1472867727279663
0.9140636920928955 -0.1627907156944275 -0.08527129888534546
0.911742091178894 -0.1627907156944275 -0.007751941680908203
0.9145697355270386 -0.1627907156944275 0.007751941680908203
0.9122002124786377 -0.1627907156944275 0.02325582504272461
0.9204084277153015 -0.1627907156944275 0.038759708404541016
0.9172629117965698 -0.1627907156944275 0.08527135848999023
0.9152383804321289 -0.1627907156944275 0.1472867727279663
0.9108614325523376 -0.14728683233261108 -0.08527129888534546
0.91278475522995 -0.14728683233261108 -0.007751941680908203
0.9180195331573486 -0.14728683233261108 0.007751941680908203
0.9163587689399719 -0.14728683233261108 0.02325582504272461
0.9203056693077087 -0.14728683233261108 0.1472867727279663
0.9203636646270752 -0.13178294897079468 -0.06976741552352905
0.9157544374465942 -0.13178294897079468 -0.007751941680908203
0.9130691885948181 -0.11627906560897827 -0.06976741552352905
0.907436728477478 -0.10077518224716187 -0.06976741552352905
0.9224264621734619 -0.10077518224716187 -0.02325582504272461
0.9090874195098877 -0.10077518224716187 0.16279065608978271
0.911563515663147 -0.08527129888534546 0.16279065608978271
0.9144545793533325 -0.06976741552352905 0.16279065608978271
0.9189525842666626 -0.05426359176635742 0.16279065608978271
0.9071956872940063 -0.02325582504272461 -0.06976741552352905
0.9097275137901306 -0.007751941680908203 -0.06976741552352905
0.9079182744026184 0.007751941215246916 -0.08527129143476486
0.913765013217926 0.007751941680908203 -0.06976741552352905
0.9092039465904236 0.02325582504272461 -0.08527129888534546
0.9205446243286133 0.02325582504272461 -0.06976741552352905
0.9089571237564087 0.038759708404541016 -0.08527129888534546
0.908162534236908 0.05426359176635742 -0.08527129888534546
0.9219030141830444 0.06976747512817383 -0.06976741552352905
0.9144984483718872 0.08527135848999023 -0.06976741552352905
0.9209412336349487 0.08527135848999023 0.16279065608978271
0.9085769057273865 0.10077524185180664 -0.06976741552352905
0.9180904626846313 0.10077524185180664 0.16279065608978271
0.9167762994766235 0.11627912521362305 0.16279065608978271
0.919298529624939 0.1317828893661499 -0.05426359176635742
0.9157160520553589 0.1317828893661499 0.16279065608978271
0.9116595387458801 0.1472867727279663 -0.05426359176635742
0.9149065613746643 0.1472867727279663 0.16279065608978271
0.9102070331573486 0.16279065608978271 -0.05426359176635742
0.9139885902404785 0.16279065608978271 0.16279065608978271
0.9113112688064575 0.17829453945159912 -0.05426359176635742
0.912522554397583 0.17829453945159912 0.16279065608978271
0.9170295000076294 0.19379842281341553 -0.05426359176635742
0.9099888205528259 0.19379842281341553 0.16279065608978271
0.9077188372612 0.20930230617523193 0.16279065608978271
0.9071483612060547 0.22480618953704834 -0.06976741552352905
0.9190757274627686 0.22480618953704834 -0.007751941680908203
0.9185175895690918 0.22480618953704834 0.1472867727279663
0.9078090786933899 0.24031007289886475 -0.06976741552352905
0.9119023084640503 0.24031007289886475 -0.007751941680908203
0.9149322509765625 0.24031007289886475 0.007751941680908203
0.9174522161483765 0.24031007289886475 0.02325582504272461
0.9148651957511902 0.24031007289886475 0.1472867727279663
0.9069821834564209 0.25581395626068115 -0.06976741552352905
0.9210802316665649 0.25581395626068115 -0.02325582504272461
0.9092243909835815 0.25581395626068115 -0.00775194214656949
0.9111349582672119 0.25581395626068115 0.00775194214656949
0.912527322769165 0.25581395626068115 0.02325582504272461
0.9180530309677124 0.25581395626068115 0.038759708404541016
0.9198581576347351 0.25581395626068115 0.1317828893661499
0.9100823998451233 0.25581395626068115 0.1472867727279663
0.920311689376831 0.27131783962249756 -0.05426359176635742
0.9158278703689575 0.27131783962249756 -0.02325582504272461
0.9082393646240234 0.27131783962249756 -0.007751941680908203
0.9098359942436218 0.27131783962249756 0.007751941680908203
0.9110769629478455 0.27131783962249756 0.02325582504272461
0.914422869682312 0.27131783962249756 0.038759708404541016
0.9181746244430542 0.27131783962249756 0.05426359176635742
0.9191858768463135 0.27131783962249756 0.06976747512817383
0.9167983531951904 0.27131783962249756 0.08527135848999023
0.9200763702392578 0.27131783962249756 0.10077524185180664
0.9197827577590942 0.27131783962249756 0.11627912521362305
0.9157928228378296 0.27131783962249756 0.1317828893661499
0.9163991808891296 0.28682172298431396 -0.05426359176635742
0.9132229089736938 0.28682172298431396 -0.02325582504272461
0.9076105356216431 0.2868216931819916 -0.007751941680908203
0.909242570400238 0.28682172298431396 0.007751941680908203
0.9106884002685547 0.28682172298431396 0.02325582504272461
0.9130563139915466 0.28682172298431396 0.038759708404541016
0.9151669144630432 0.28682172298431396 0.05426359176635742
0.9155293107032776 0.28682172298431396 0.06976747512817383
0.9140892624855042 0.28682172298431396 0.08527135848999023
0.9163633584976196 0.28682172298431396 0.10077524185180664
0.9161381721496582 0.28682172298431396 0.11627912521362305
0.9108057618141174 0.28682172298431396 0.1317828893661499
0.9136474132537842 0.30232560634613037 -0.05426359176635742
0.9109758138656616 0.30232560634613037 -0.02325582504272461
0.9084656238555908 0.30232563614845276 0.007751941680908203
0.9102662205696106 0.30232560634613037 0.02325582504272461
0.9116462469100952 0.30232560634613037 0.038759708404541016
0.9128127098083496 0.30232560634613037 0.05426359176635742
0.9129898548126221 0.30232560634613037 0.06976747512817383
0.9120610952377319 0.30232560634613037 0.08527135848999023
0.9135487079620361 0.30232560634613037 0.10077524185180664
0.9119114875793457 0.30232560634613037 0.11627912521362305
0.910162627696991 0.3178294897079468 -0.05426359176635742
0.9084022641181946 0.3178294897079468 -0.02325582504272461
0.9087113738059998 0.3178294897079468 0.02325582504272461
0.9095494151115417 0.3178294897079468 0.038759708404541016
0.9102305173873901 0.3178294897079468 0.05426359176635742
0.9104506373405457 0.3178294897079468 0.06976747512817383
0.9098761081695557 0.3178294897079468 0.08527135848999023
0.9101197123527527 0.3178294897079468 0.10077524185180664
0.9078869819641113 0.3178294897079468 0.11627911776304245
0.9200320243835449 0.3333333730697632 -0.038759708404541016
0.9072960615158081 0.3333333730697632 0.06976747512817383
0.9070048928260803 0.3333333730697632 0.08527135848999023
0.9143397808074951 0.3488372564315796 -0.038759708404541016
0.9075174331665039 0.364341139793396 -0.038759712129831314
0.9228492379188538 -0.3333333134651184 -0.038759708404541016
0.9290774464607239 -0.317829430103302 -0.038759708404541016
0.9261899590492249 -0.30232560634613037 -0.05426359176635742
0.9344130158424377 -0.30232560634613037 -0.038759708404541016
0.9318497180938721 -0.28682172298431396 -0.05426359176635742
0.9376883506774902 -0.27131783962249756 -0.05426359176635742
0.9225188493728638 -0.24031007289886475 -0.06976741552352905
0.9235029816627502 -0.22480618953704834 -0.06976742297410965
0.9242147207260132 -0.20930230617523193 -0.06976741552352905
0.9259792566299438 -0.20930230617523193 -0.02325582504272461
0.9248722791671753 -0.19379842281341553 -0.06976741552352905
0.9237584471702576 -0.19379840791225433 0.11627912521362305
0.9262717366218567 -0.1782945990562439 -0.06976741552352905
0.9290046691894531 -0.1782945990562439 0.11627912521362305
0.9254847764968872 -0.1782945990562439 0.1317828893661499
0.9273881912231445 -0.1627907156944275 -0.06976741552352905
0.9254487156867981 -0.1627907156944275 0.05426359176635742
0.9253745079040527 -0.1627907156944275 0.06976747512817383
0.9239890575408936 -0.1627907007932663 0.10077524185180664
0.9351918697357178 -0.1627907156944275 0.11627912521362305
0.9307018518447876 -0.1627907156944275 0.1317828893661499
0.9251632690429688 -0.14728683233261108 -0.06976741552352905
0.925787091255188 -0.14728683233261108 0.038759708404541016
0.931174635887146 -0.14728683233261108 0.05426359176635742
0.9318830966949463 -0.14728683233261108 0.06976747512817383
0.9264337420463562 -0.14728683233261108 0.08527135848999023
0.9290636777877808 -0.14728683233261108 0.10077524185180664
0.934721827507019 -0.14728683233261108 0.1317828893661499
0.9228724837303162 -0.13178294897079468 0.007751941680908203
0.9230586290359497 -0.13178294897079468 0.02325582690536976
0.9305479526519775 -0.13178294897079468 0.038759708404541016
0.9329343438148499 -0.13178294897079468 0.08527135848999023
0.9242779016494751 -0.13178294897079468 0.1472867727279663
0.9231629967689514 -0.11627906560897827 -0.007751941215246916
0.9256541132926941 -0.11627906560897827 0.007751941680908203
0.9262657165527344 -0.11627906560897827 0.02325582504272461
0.9272862672805786 -0.11627906560897827 0.1472867727279663
0.9291462898254395 -0.10077518224716187 -0.007751941680908203
0.9323843121528625 -0.10077518224716187 0.007751941680908203
0.9333083629608154 -0.10077518224716187 0.02325582504272461
0.9301986694335938 -0.10077518224716187 0.1472867727279663
0.9247989654541016 -0.08527129888534546 -0.02325582504272461
0.937453031539917 -0.08527129888534546 -0.007751941680908203
0.9326980113983154 -0.08527129888534546 0.1472867727279663
0.9304110407829285 -0.06976741552352905 -0.05426359176635742
0.9357445240020752 -0.06976741552352905 0.1472867727279663
0.9267379641532898 -0.05426359176635742 -0.05426359176635742
0.9278647899627686 -0.038759708404541016 -0.05426359176635742
0.9229253530502319 -0.038759708404541016 0.16279064118862152
0.9323885440826416 -0.02325582504272461 -0.05426359176635742
0.924203634262085 -0.02325582318007946 0.16279064118862152
0.9252620339393616 -0.007751941680908203 0.16279065608978271
0.9258812069892883 0.007751941680908203 0.16279065608978271
0.9259518980979919 0.02325582504272461 0.16279065608978271
0.9237957000732422 0.038759708404541016 -0.06976741552352905
0.9254583120346069 0.038759708404541016 0.16279065608978271
0.924193799495697 0.05426359176635742 -0.06976741552352905
0.9244771599769592 0.05426359176635742 0.16279065608978271
0.9233788847923279 0.06976747512817383 0.16279065608978271
0.9374597668647766 0.10077524185180664 -0.05426359176635742
0.9270272254943848 0.11627912521362305 -0.05426359549164772
0.9371994137763977 0.11627912521362305 0.1472867727279663
0.9346794486045837 0.1317828893661499 0.1472867727279663
0.9326931238174438 0.1472867727279663 0.1472867727279663
0.9306317567825317 0.16279065608978271 0.1472867727279663
0.9371243715286255 0.17829453945159912 0.1317828893661499
0.9281497597694397 0.17829453945159912 0.1472867727279663
0.9297268390655518 0.19379842281341553 -0.007751941680908203
0.9347074627876282 0.19379842281341553 0.007751941680908203
0.9377713799476624 0.19379842281341553 0.02325582504272461
0.9366673827171326 0.19379842281341553 0.08527135848999023
0.9379032850265503 0.19379842281341553 0.11627912521362305
0.933988094329834 0.19379842281341553 0.1317828893661499
0.9251034259796143 0.19379842281341553 0.1472867727279663
0.924540638923645 0.20930230617523193 -0.05426359176635742
0.9243069887161255 0.20930232107639313 -0.007751941680908203
0.9257087707519531 0.20930230617523193 0.007751941680908203
0.9266154170036316 0.20930230617523193 0.02325582504272461
0.9297373294830322 0.20930230617523193 0.038759708404541016
0.9335088729858398 0.20930230617523193 0.05426359176635742
0.9339555501937866 0.20930230617523193 0.06976747512817383
0.9311833381652832 0.20930230617523193 0.08527135848999023
0.9336480498313904 0.20930230617523193 0.10077524185180664
0.9338249564170837 0.20930230617523193 0.11627912521362305
0.931293785572052 0.20930230617523193 0.1317828893661499
0.922622561454773 0.20930230617523193 0.1472867727279663
0.9265450835227966 0.22480618953704834 -0.05426359176635742
0.9309194087982178 0.22480618953704834 -0.02325582504272461
0.9230151176452637 0.22480618953704834 0.00775194214656949
0.9237308502197266 0.22480618953704834 0.02325582504272461
0.9263949394226074 0.22480618953704834 0.038759708404541016
0.929211437702179 0.22480618953704834 0.05426359176635742
0.9301068782806396 0.22480618953704834 0.06976747512817383
0.928576648235321 0.22480618953704834 0.08527135848999023
0.9305656552314758 0.22480618953704834 0.10077524185180664
0.9311625957489014 0.22480618953704834 0.11627912521362305
0.9278708696365356 0.22480618953704834 0.1317828893661499
0.9262591600418091 0.24031007289886475 -0.05426359176635742
0.9247395992279053 0.24031007289886475 -0.02325582504272461
0.9239149689674377 0.24031007289886475 0.038759708404541016
0.9264885187149048 0.24031007289886475 0.05426359176635742
0.9273426532745361 0.24031007289886475 0.06976747512817383
0.9261792302131653 0.24031008780002594 0.08527135848999023
0.9275953769683838 0.24031007289886475 0.10077524185180664
0.9277628660202026 0.24031007289886475 0.11627912521362305
0.9241318106651306 0.24031007289886475 0.1317828893661499
0.9244120717048645 0.25581395626068115 -0.05426359176635742
0.923668622970581 0.25581395626068115 0.05426359176635742
0.9244263768196106 0.25581395626068115 0.06976747512817383
0.9231144189834595 0.25581395626068115 0.08527136594057083
0.9245290160179138 0.25581395626068115 0.10077523440122604
0.9241016507148743 0.25581395626068115 0.11627912521362305
0.9356660842895508 0.28682172298431396 -0.038759708404541016
0.9318870902061462 0.30232560634613037 -0.038759708404541016
0.9258028864860535 0.3178294897079468 -0.038759708404541016
0.939814031124115 -0.28682172298431396 -0.038759708404541016
0.9464473128318787 -0.27131783962249756 -0.038759708404541016
0.9409248232841492 -0.25581395626068115 -0.05426359176635742
0.9504725933074951 -0.25581395626068115 -0.038759708404541016
0.9446691274642944 -0.24031007289886475 -0.05426359176635742
0.9487383365631104 -0.22480618953704834 -0.05426359176635742
0.939515233039856 -0.19379842281341553 -0.02325582504272461
0.9442574381828308 -0.1782945990562439 -0.02325582504272461
0.9469276666641235 -0.1627907156944275 -0.02325582504272461
0.9462833404541016 -0.14728683233261108 -0.02325582504272461
0.9406618475914001 -0.14728683233261108 0.11627912521362305
0.9426161050796509 -0.13178294897079468 -0.02325582504272461
0.9395172595977783 -0.13178294897079468 0.05426359176635742
0.9401062726974487 -0.13178294897079468 0.06976747512817383
0.938034176826477 -0.13178294897079468 0.10077523440122604
0.9432702660560608 -0.13178294897079468 0.11627912521362305
0.939081609249115 -0.13178294897079468 0.1317828893661499
0.9380037188529968 -0.11627906560897827 -0.02325582504272461
0.9390930533409119 -0.11627906560897827 0.038759708404541016
0.9430205821990967 -0.11627905815839767 0.05426359176635742
0.943500816822052 -0.11627906560897827 0.06976747512817383
0.9402474164962769 -0.11627906560897827 0.08527135848999023
0.9408185482025146 -0.11627905815839767 0.10077524185180664
0.9455167055130005 -0.11627906560897827 0.11627912521362305
0.9417850971221924 -0.11627906560897827 0.1317828893661499
0.95233553647995 -0.10077518224716187 -0.05426359176635742
0.9424123167991638 -0.10077518224716187 0.038759708404541016
0.9478718042373657 -0.10077518224716187 0.05426359176635742
0.9482320547103882 -0.10077518224716187 0.06976747512817383
0.9433611631393433 -0.10077518224716187 0.08527135848999023
0.9434131383895874 -0.10077518224716187 0.10077524185180664
0.9476814270019531 -0.10077518224716187 0.11627912521362305
0.944502055644989 -0.10077518224716187 0.1317828893661499
0.9404745697975159 -0.08527130633592606 -0.05426359176635742
0.9394785761833191 -0.08527129888534546 0.007751941680908203
0.9398629665374756 -0.08527129888534546 0.02325582504272461
0.9478720426559448 -0.08527129888534546 0.038759708404541016
0.9486374855041504 -0.08527129888534546 0.08527135848999023
0.9477362036705017 -0.08527129888534546 0.10077524185180664
0.9508848786354065 -0.08527129888534546 0.11627912521362305
0.9468626379966736 -0.08527129888534546 0.1317828893661499
0.9452078342437744 -0.06976741552352905 -0.02325582504272461
0.9405878782272339 -0.06976741552352905 -0.007751941680908203
0.9449043869972229 -0.06976741552352905 0.007751941215246916
0.9477770328521729 -0.06976741552352905 0.02325582504272461
0.9486151933670044 -0.06976741552352905 0.1317828893661499
0.9468077421188354 -0.05426359176635742 -0.007751941680908203
0.9500501751899719 -0.05426359176635742 0.1317828893661499
0.9387619495391846 -0.05426359176635742 0.1472867727279663
0.9519603252410889 -0.038759708404541016 0.1317828893661499
0.9403285980224609 -0.038759708404541016 0.1472867727279663
0.9418472647666931 -0.02325582504272461 0.1472867727279663
0.9411457777023315 -0.007751941680908203 -0.05426359176635742
0.9432404041290283 -0.007751941680908203 0.1472867727279663
0.9501240849494934 0.007751941680908203 -0.05426359176635742
0.9442265033721924 0.007751941680908203 0.1472867727279663
0.9446437954902649 0.02325582504272461 0.1472867727279663
0.9443718791007996 0.038759708404541016 0.1472867727279663
0.9435069561004639 0.05426359176635742 0.1472867727279663
0.9527838826179504 0.06976747512817383 0.1317828893661499
0.9421930909156799 0.06976747512817383 0.1472867727279663
0.9456318616867065 0.08527135848999023 -0.05426359176635742
0.9507618546485901 0.08527135848999023 0.1317828893661499
0.9405346512794495 0.08527135848999023 0.1472867727279663
0.9493314623832703 0.10077524185180664 0.1317828893661499
0.9390724897384644 0.10077524185180664 0.1472867727279663
0.9524648785591125 0.11627912521362305 0.10077524185180664
0.9509242177009583 0.11627912521362305 0.11627912521362305
0.9478362798690796 0.11627912521362305 0.1317828893661499
0.9526953101158142 0.1317828893661499 0.06976747512817383
0.9485141038894653 0.1317828893661499 0.08527135848999023
0.9485924243927002 0.1317828893661499 0.10077524185180664
0.9483952522277832 0.1317828893661499 0.11627912521362305
0.9456768035888672 0.1317828893661499 0.1317828893661499
0.9518832564353943 0.1472867727279663 -0.007751941680908203
0.9511159658432007 0.1472867727279663 0.05426359176635742
0.9481630921363831 0.1472867727279663 0.06976747512817383
0.9457232356071472 0.1472867727279663 0.08527135848999023
0.9461476802825928 0.1472867727279663 0.10077524185180664
0.9462172985076904 0.1472867727279663 0.11627912521362305
0.942629337310791 0.1472867727279663 0.1317828893661499
0.942125678062439 0.16279065608978271 -0.007751941680908203
0.9475979804992676 0.16279065608978271 0.007751941680908203
0.950580894947052 0.16279065608978271 0.02325582504272461
0.9475983381271362 0.16279065608978271 0.038759708404541016
0.9462019205093384 0.16279065608978271 0.05426359176635742
0.9451090097427368 0.16279065608978271 0.06976747512817383
0.9431269764900208 0.16279065608978271 0.08527135848999023
0.9436553716659546 0.16279065608978271 0.10077524185180664
0.9434241056442261 0.16279065608978271 0.11627912521362305
0.9395782351493835 0.16279065608978271 0.1317828893661499
0.9385899305343628 0.17829453945159912 -0.007751941680908203
0.9410034418106079 0.17829453945159912 0.007751941680908203
0.9426075220108032 0.17829453945159912 0.02325582504272461
0.942609429359436 0.17829453945159912 0.038759708404541016
0.9429370760917664 0.17829453945159912 0.05426359176635742
0.9423866271972656 0.17829455435276031 0.06976747512817383
0.9405480623245239 0.17829453945159912 0.08527135848999023
0.9410056471824646 0.17829453945159912 0.10077524185180664
0.940367579460144 0.17829455435276031 0.11627912521362305
0.9442117214202881 0.19379842281341553 -0.02325582504272461
0.9388861656188965 0.19379840791225433 0.03875970467925072
0.9400543570518494 0.19379842281341553 0.05426359176635742
0.9396425485610962 0.19379842281341553 0.06976747512817383
0.9385430812835693 0.19379842281341553 0.10077524185180664
0.9397847056388855 0.20930230617523193 -0.02325582504272461
0.9494338035583496 0.24031007289886475 -0.038759708404541016
0.9452428817749023 0.25581395626068115 -0.038759708404541016
0.9404364228248596 0.27131783962249756 -0.03875970467925072
0.955370306968689 -0.24031007289886475 -0.038759708404541016
0.9599290490150452 -0.22480618953704834 -0.038759708404541016
0.9544022679328918 -0.20930230617523193 -0.05426359176635742
0.9639119505882263 -0.20930230617523193 -0.038759708404541016
0.9573118686676025 -0.19379842281341553 -0.05426359549164772
0.9674951434135437 -0.19379842281341553 -0.038759708404541016
0.9608922004699707 -0.1782945990562439 -0.05426359176635742
0.9636470079421997 -0.1627907156944275 -0.05426359176635742
0.9655670523643494 -0.14728683233261108 -0.05426359176635742
0.9657155275344849 -0.13178294897079468 -0.05426359176635742
0.9626832008361816 -0.11627906560897827 -0.05426359176635742
0.9550662040710449 -0.08527129888534546 0.05426359176635742
0.9550270438194275 -0.08527129888534546 0.06976747512817383
0.9559898972511292 -0.06976741552352905 0.038759708404541016
0.9583942890167236 -0.06976741552352905 0.05426359176635742
0.9581484794616699 -0.06976741552352905 0.06976747512817383
0.9557886719703674 -0.06976741552352905 0.08527135848999023
0.9547252058982849 -0.06976741552352905 0.10077524185180664
0.9544726014137268 -0.06976741552352905 0.11627913266420364
0.9668596982955933 -0.05426359176635742 -0.02325582504272461
0.9547337889671326 -0.05426359176635742 0.007751941680908203
0.9565488696098328 -0.05426359176635742 0.02325582504272461
0.9591180086135864 -0.05426359176635742 0.038759708404541016
0.9609016180038452 -0.05426359176635742 0.05426359176635742
0.9603903293609619 -0.05426359176635742 0.06976747512817383
0.9582322835922241 -0.05426359176635742 0.08527135848999023
0.9570483565330505 -0.05426359176635742 0.10077524185180664
0.9561265110969543 -0.05426359176635742 0.11627912521362305
0.9541017413139343 -0.038759708404541016 -0.007751941215246916
0.957342267036438 -0.038759708404541016 0.007751941680908203
0.9602193832397461 -0.038759708404541016 0.02325582504272461
0.9616109132766724 -0.038759708404541016 0.038759708404541016
0.9629120826721191 -0.038759708404541016 0.05426359176635742
0.9620879888534546 -0.038759708404541016 0.06976747512817383
0.9598804712295532 -0.038759708404541016 0.08527135848999023
0.9586277008056641 -0.038759708404541016 0.10077524185180664
0.9575672745704651 -0.038759708404541016 0.11627912521362305
0.9562076330184937 -0.02325582504272461 -0.007751941680908203
0.9603099822998047 -0.02325582504272461 0.007751941215246916
0.9643009901046753 -0.02325582504272461 0.02325582504272461
0.9637576937675476 -0.02325582504272461 0.038759708404541016
0.9644579887390137 -0.02325582504272461 0.05426359176635742
0.9632628560066223 -0.02325582504272461 0.06976747512817383
0.9610084295272827 -0.02325582504272461 0.08527135848999023
0.9597549438476562 -0.02325582504272461 0.10077524185180664
0.9589043855667114 -0.02325582504272461 0.11627912521362305
0.9540829658508301 -0.02325582504272461 0.1317828893661499
0.9596847295761108 -0.007751941680908203 -0.007751941680908203
0.9637457132339478 -0.007751941680908203 0.007751941680908203
0.967498242855072 -0.007751941680908203 0.02325582504272461
0.9649507999420166 -0.007751941680908203 0.038759708404541016
0.9650725722312927 -0.007751941680908203 0.05426359176635742
0.9636863470077515 -0.007751941680908203 0.06976747512817383
0.9615834951400757 -0.007751941680908203 0.08527135848999023
0.9604714512825012 -0.007751941680908203 0.10077524185180664
0.9599200487136841 -0.007751941680908203 0.11627912521362305
0.9552687406539917 -0.007751941680908203 0.1317828893661499
0.9616738557815552 0.007751941680908203 -0.007751941680908203
0.9641414880752563 0.007751941680908203 0.007751941680908203
0.966575562953949 0.007751941680908203 0.02325582504272461
0.964270293712616 0.007751941680908203 0.038759708404541016
0.9644649028778076 0.007751941680908203 0.05426359176635742
0.9633601903915405 0.007751941680908203 0.06976747512817383
0.9616365432739258 0.007751941680908203 0.08527135848999023
0.9607634544372559 0.007751941215246916 0.10077524185180664
0.9604244232177734 0.00775194214656949 0.11627912521362305
0.9559624195098877 0.007751941680908203 0.1317828893661499
0.9573668837547302 0.02325582504272461 -0.05426359176635742
0.9619811773300171 0.02325582504272461 -0.007751941680908203
0.9620479345321655 0.02325582504272461 0.007751941680908203
0.962939977645874 0.02325582504272461 0.02325582504272461
0.9621303677558899 0.02325582504272461 0.038759708404541016
0.9628998041152954 0.02325582504272461 0.05426359176635742
0.9624128341674805 0.02325582504272461 0.06976747512817383
0.9612288475036621 0.02325582504272461 0.08527135848999023
0.9606491923332214 0.02325582504272461 0.10077524185180664
0.9603990316390991 0.02325582504272461 0.11627912521362305
0.9560947418212891 0.02325582504272461 0.1317828893661499
0.9589169025421143 0.038759708404541016 -0.05426358804106712
0.9608209133148193 0.038759708404541016 -0.007751941680908203
0.9603744745254517 0.038759708404541016 0.007751941215246916
0.9606975317001343 0.038759708404541016 0.02325582504272461
0.9604848623275757 0.038759708404541016 0.038759708404541016
0.9615123271942139 0.038759708404541016 0.05426359176635742
0.9614181518554688 0.038759708404541016 0.06976747512817383
0.9606399536132812 0.038759708404541016 0.08527135848999023
0.9602433443069458 0.038759708404541016 0.10077524185180664
0.9597686529159546 0.038759708404541016 0.11627912521362305
0.9554674625396729 0.038759708404541016 0.1317828893661499
0.9577599763870239 0.05426359176635742 -0.05426359176635742
0.9599987268447876 0.05426359176635742 -0.007751941680908203
0.9601263999938965 0.05426359176635742 0.007751941680908203
0.9600235819816589 0.05426359176635742 0.02325582504272461
