0.08527135848999023 0.8340181112289429 -0.10077518224716187
0.08527135848999023 0.8319973349571228 0.1317828893661499
0.08527135848999023 0.8414836525917053 0.1472867727279663
0.08527135848999023 0.8845843076705933 0.1472867727279663
0.08527135848999023 0.8985183238983154 -0.08527129888534546
0.08527135848999023 0.9021239280700684 0.1317828893661499
0.08527135848999023 0.9221789240837097 0.10077524185180664
0.08527135848999023 0.9116129875183105 0.11627912521362305
0.08527136594057083 0.9253535866737366 -0.06976741552352905
0.08527135848999023 0.9337867498397827 0.08527135848999023
0.08527135848999023 0.9431247711181641 -0.05426359176635742
0.08527135848999023 0.945995569229126 0.06976747512817383
0.08527135848999023 0.9557785987854004 -0.038759708404541016
0.08527135848999023 0.9626856446266174 -0.02325582504272461
0.08527135848999023 0.9670703411102295 -0.007751941680908203
0.08527135848999023 0.9684435129165649 0.007751941680908203
0.08527135848999023 0.966658353805542 0.02325582504272461
0.08527135848999023 0.9636276960372925 0.038759708404541016
0.08527135848999023 0.9555612206459045 0.05426359176635742
0.10077524185180664 -0.9711399078369141 -0.06976741552352905
0.10077524185180664 -0.9722588658332825 -0.05426359176635742
0.10077524185180664 -0.9712823629379272 -0.038759708404541016
0.10077524185180664 -0.9705302119255066 -0.02325582504272461
0.10077524185180664 -0.9710361361503601 -0.007751941680908203
0.10077524185180664 -0.9707307815551758 0.007751941680908203
0.10077524185180664 -0.9696341753005981 0.02325582504272461
0.10077524185180664 -0.9654466509819031 -0.08527129888534546
0.10077524185180664 -0.9671307802200317 0.038759708404541016
0.10077524185180664 -0.9605897665023804 0.05426359176635742
0.10077524185180664 -0.9439270496368408 -0.10077518224716187
0.10077524185180664 -0.9493250846862793 0.06976747512817383
0.10077524185180664 -0.9375661611557007 0.08527135848999023
0.10077524185180664 -0.9234033226966858 0.10077524185180664
0.10077524185180664 -0.9107276201248169 0.11627912521362305
0.10077524185180664 -0.898391604423523 0.1317828893661499
0.10077524185180664 -0.879015326499939 0.1472867727279663
0.10077524185180664 -0.7674452066421509 0.1472867727279663
0.10077524185180664 -0.7581161856651306 0.1317828893661499
0.10077524185180664 -0.7370158433914185 0.08527135848999023
0.10077524185180664 -0.7463449239730835 0.10077524185180664
0.10077524185180664 -0.7505499720573425 0.11627912521362305
0.10077524185180664 -0.7263240814208984 0.05426359176635742
0.10077524185180664 -0.732182502746582 0.06976747512817383
0.10077524185180664 -0.7115970849990845 -0.038759708404541016
0.10077524185180664 -0.7164836525917053 -0.02325582504272461
0.10077524185180664 -0.7160999774932861 -0.007751941680908203
0.10077524185180664 -0.7167198657989502 0.007751941680908203
0.10077524185180664 -0.7180864810943604 0.02325582504272461
0.10077524185180664 -0.7199991345405579 0.038759708404541016
0.10077524185180664 -0.692594051361084 -0.05426359176635742
0.10077524185180664 -0.6273251175880432 -0.06976741552352905
0.10077524185180664 -0.6072143316268921 -0.10077518224716187
0.10077524185180664 -0.6069223880767822 -0.08527129888534546
0.10077524185180664 0.626897931098938 -0.08527129888534546
0.10077524185180664 0.6347155570983887 -0.10077518224716187
0.10077524185180664 0.6502304077148438 -0.06976741552352905
0.10077524185180664 0.7136239409446716 -0.05426359176635742
0.10077524185180664 0.7346913814544678 -0.038759708404541016
0.10077524185180664 0.7474145293235779 -0.02325582504272461
0.10077524185180664 0.7517321705818176 -0.007751941680908203
0.10077524185180664 0.7606333494186401 0.007751941680908203
0.10077524185180664 0.7648972272872925 0.02325582504272461
0.10077524185180664 0.769237756729126 0.038759708404541016
0.10077524185180664 0.7797936201095581 0.05426359176635742
0.10077524185180664 0.7877035140991211 0.06976747512817383
0.10077524185180664 0.7970907092094421 0.08527135848999023
0.10077524185180664 0.8124809861183167 0.10077524185180664
0.10077524185180664 0.8245158195495605 0.11627912521362305
0.10077524185180664 0.8285496830940247 0.1317828893661499
0.10077524185180664 0.8389630317687988 -0.10077518224716187
0.10077524185180664 0.8394808769226074 0.1472867727279663
0.10077524185180664 0.8842723369598389 0.1472867727279663
0.10077524185180664 0.9035745859146118 -0.08527129888534546
0.10077524185180664 0.9017494916915894 0.1317828893661499
0.10077524185180664 0.9219880700111389 0.10077524185180664
0.10077524185180664 0.9115098714828491 0.11627912521362305
0.10077524185180664 0.9299606680870056 -0.06976741552352905
0.10077524185180664 0.9336357116699219 0.08527135848999023
0.10077524185180664 0.9488718509674072 -0.05426359176635742
0.10077524185180664 0.9459900856018066 0.06976747512817383
0.10077524185180664 0.9584232568740845 -0.038759708404541016
0.10077524185180664 0.9641357660293579 -0.02325582504272461
0.10077524185180664 0.9674622416496277 -0.007751941680908203
0.10077524185180664 0.9684021472930908 0.007751941680908203
0.10077524185180664 0.9663909673690796 0.02325582504272461
0.10077524185180664 0.963186502456665 0.038759708404541016
0.10077524185180664 0.9550162553787231 0.05426359176635742
0.11627912521362305 -0.9700357913970947 -0.08527129888534546
0.11627912521362305 -0.975980281829834 -0.06976741552352905
0.11627912521362305 -0.9766982197761536 -0.05426359176635742
0.11627912521362305 -0.9750363826751709 -0.038759708404541016
0.11627912521362305 -0.972294270992279 -0.02325582504272461
0.11627912521362305 -0.9712814092636108 -0.007751941680908203
0.11627912521362305 -0.9705438613891602 0.007751941680908203
0.11627912521362305 -0.9693369269371033 0.02325582504272461
0.11627912521362305 -0.9664076566696167 0.038759708404541016
0.11627912521362305 -0.9591666460037231 0.05426359176635742
0.11627912521362305 -0.9474698305130005 -0.10077518224716187
0.11627912521362305 -0.948387861251831 0.06976747512817383
0.11627912521362305 -0.9362531304359436 0.08527135848999023
0.11627912521362305 -0.9229400157928467 0.10077524185180664
0.11627912521362305 -0.910145103931427 0.11627912521362305
0.11627912521362305 -0.8981490135192871 0.1317828893661499
0.11627912521362305 -0.8789986968040466 0.1472867727279663
0.11627912521362305 -0.755452036857605 0.1317828893661499
0.11627912521362305 -0.766491174697876 0.1472867876291275
0.11627912521362305 -0.7436458468437195 0.10077524185180664
0.11627911776304245 -0.7493394017219543 0.11627911776304245
0.11627912521362305 -0.7223127484321594 0.05426359176635742
0.11627912521362305 -0.7296003103256226 0.06976747512817383
0.11627911776304245 -0.7352505922317505 0.08527135103940964
0.11627912521362305 -0.7065958380699158 -0.038759708404541016
0.11627912521362305 -0.7126787900924683 -0.02325582504272461
0.11627912521362305 -0.7124835252761841 -0.007751941680908203
0.11627912521362305 -0.7134226560592651 0.007751941680908203
0.11627912521362305 -0.7153968811035156 0.02325582504272461
0.11627912521362305 -0.7180292010307312 0.038759708404541016
0.11627912521362305 -0.6864692568778992 -0.05426359176635742
0.11627912521362305 -0.6178907155990601 -0.06976741552352905
0.11627912521362305 -0.6028339862823486 -0.10077518224716187
0.11627912521362305 -0.5998542904853821 -0.08527129888534546
0.11627912521362305 0.6265485882759094 -0.10077518224716187
0.11627912521362305 0.6227550506591797 -0.08527129888534546
0.11627912521362305 0.6369754076004028 -0.06976741552352905
0.11627912521362305 0.7032410502433777 -0.05426359176635742
0.11627912521362305 0.7305659651756287 -0.038759708404541016
0.11627912521362305 0.7432178258895874 -0.02325582504272461
0.11627912521362305 0.749321699142456 -0.007751941680908203
0.11627912521362305 0.7549021244049072 0.007751941680908203
0.11627912521362305 0.7607467174530029 0.02325582504272461
0.11627912521362305 0.7650310397148132 0.038759708404541016
0.11627912521362305 0.7755236625671387 0.05426359176635742
0.11627912521362305 0.7819152474403381 0.06976747512817383
0.11627912521362305 0.7937616109848022 0.08527135848999023
0.11627912521362305 0.8082391023635864 0.10077524185180664
0.11627912521362305 0.8211170434951782 0.11627912521362305
0.11627912521362305 0.8271966576576233 0.1317828893661499
0.11627912521362305 0.8373317122459412 0.1472867727279663
0.11627912521362305 0.8482139110565186 -0.10077518224716187
0.11627912521362305 0.883388876914978 0.1472867727279663
0.11627912521362305 0.9068169593811035 -0.08527129888534546
0.11627912521362305 0.9008446335792542 0.1317828893661499
0.11627912521362305 0.9213948845863342 0.10077524185180664
0.11627912521362305 0.910478413105011 0.11627912521362305
0.11627912521362305 0.9369984269142151 -0.06976741552352905
0.11627912521362305 0.932960569858551 0.08527135848999023
0.11627912521362305 0.9455551505088806 0.06976747512817383
0.11627911776304245 0.9538134932518005 -0.05426359176635742
0.11627912521362305 0.9613088369369507 -0.038759708404541016
0.11627912521362305 0.9650447964668274 -0.02325582504272461
0.11627912521362305 0.9675544500350952 -0.007751941680908203
0.11627912521362305 0.9681410789489746 0.007751941680908203
0.11627912521362305 0.9660032987594604 0.02325582504272461
0.11627912521362305 0.9625946283340454 0.038759708404541016
0.11627912521362305 0.9542263150215149 0.05426359176635742
0.1317828893661499 -0.9728837013244629 -0.08527129888534546
0.1317828893661499 -0.9791001081466675 -0.06976741552352905
0.1317828893661499 -0.9796421527862549 -0.05426359176635742
0.1317828893661499 -0.9772361516952515 -0.038759708404541016
0.1317828893661499 -0.9731441736221313 -0.02325582504272461
0.1317828893661499 -0.9711264967918396 -0.007751941680908203
0.1317828893661499 -0.9702381491661072 0.007751941680908203
0.1317828893661499 -0.9690238237380981 0.02325582504272461
0.1317828893661499 -0.9652093052864075 0.038759708404541016
0.1317828893661499 -0.9566705822944641 0.05426359176635742
0.1317828893661499 -0.9503085613250732 -0.10077518224716187
0.1317828893661499 -0.9468330144882202 0.06976747512817383
0.1317828893661499 -0.9340317845344543 0.08527135848999023
0.1317828893661499 -0.9216974973678589 0.10077523440122604
0.1317828893661499 -0.9089810848236084 0.11627912521362305
0.1317828893661499 -0.8972888588905334 0.1317828893661499
0.1317828893661499 -0.8785280585289001 0.1472867727279663
0.1317828893661499 -0.7651673555374146 0.1472867727279663
0.1317828893661499 -0.7393198609352112 0.10077524185180664
0.1317828893661499 -0.7474267482757568 0.11627912521362305
0.1317828893661499 -0.7517866492271423 0.1317828893661499
0.1317828893661499 -0.7255795001983643 0.06976747512817383
0.1317828893661499 -0.7333306670188904 0.08527135848999023
0.1317828893661499 -0.7070882320404053 -0.02325582504272461
0.1317828893661499 -0.7070783376693726 -0.007751941680908203
0.1317828893661499 -0.7083665132522583 0.007751941680908203
0.1317828893661499 -0.7109524011611938 0.02325582504272461
0.1317828893661499 -0.7147687077522278 0.038759708404541016
0.1317828893661499 -0.7192623615264893 0.05426359176635742
0.1317828893661499 -0.7023099660873413 -0.038759708404541016
0.1317828893661499 -0.6789274215698242 -0.05426359176635742
0.1317828893661499 -0.610641360282898 -0.06976741552352905
0.1317828893661499 -0.5965983271598816 -0.10077518224716187
0.1317828893661499 -0.5957411527633667 -0.08527129888534546
0.1317828893661499 0.6233103275299072 -0.10077518224716187
0.1317828893661499 0.6150173544883728 -0.08527129888534546
0.1317828893661499 0.6269065141677856 -0.06976741552352905
0.1317828893661499 0.6932582855224609 -0.05426359176635742
0.1317828893661499 0.7262312769889832 -0.038759708404541016
0.1317828893661499 0.7384008169174194 -0.02325582504272461
0.1317828893661499 0.7465462684631348 -0.007751941680908203
0.1317828893661499 0.7508158087730408 0.007751941680908203
0.1317828893661499 0.7553038001060486 0.02325582504272461
0.1317828893661499 0.7612935304641724 0.038759708404541016
0.1317828893661499 0.7694013714790344 0.05426359176635742
0.1317828893661499 0.7795764803886414 0.06976747512817383
0.1317828893661499 0.7897846698760986 0.08527135848999023
0.1317828893661499 0.8029940724372864 0.10077524185180664
0.1317828893661499 0.8164209723472595 0.11627912521362305
0.1317828893661499 0.8255983591079712 0.1317828893661499
0.1317828893661499 0.8341988325119019 0.1472867727279663
0.1317828893661499 0.8604872822761536 -0.10077518224716187
0.1317828893661499 0.8822156190872192 0.1472867727279663
0.1317828893661499 0.8995450139045715 0.1317828893661499
0.1317828893661499 0.909551203250885 -0.08527129888534546
0.1317828893661499 0.9202329516410828 0.10077524185180664
0.1317828893661499 0.9089252948760986 0.11627912521362305
0.1317828893661499 0.9316493272781372 0.08527135848999023
0.1317828893661499 0.9388749003410339 -0.06976741552352905
0.1317828893661499 0.9529983997344971 0.05426359176635742
0.1317828893661499 0.9443870782852173 0.06976747512817383
0.1317828893661499 0.9540478587150574 -0.05426359176635742
0.1317828893661499 0.9603786468505859 -0.038759708404541016
0.1317828893661499 0.9642971158027649 -0.02325582504272461
0.1317828893661499 0.966783344745636 -0.007751941680908203
0.1317828893661499 0.9672394394874573 0.007751941680908203
0.1317828893661499 0.9651790857315063 0.02325582504272461
0.1317828893661499 0.9613507390022278 0.038759708404541016
0.1472867727279663 -0.9747748374938965 -0.08527129888534546
0.1472867727279663 -0.9809807538986206 -0.06976741552352905
0.1472867727279663 -0.9812372922897339 -0.05426359176635742
0.1472867727279663 -0.9782484769821167 -0.038759708404541016
0.1472867727279663 -0.9734373092651367 -0.02325582504272461
0.1472867727279663 -0.9708350896835327 -0.007751941680908203
0.1472867727279663 -0.969910740852356 0.007751941680908203
0.1472867727279663 -0.9535534381866455 -0.10077518224716187
0.1472867727279663 -0.9678483605384827 0.02325582504272461
0.1472867727279663 -0.963918924331665 0.038759708404541016
0.1472867727279663 -0.9545232653617859 0.05426359176635742
0.1472867727279663 -0.9446088075637817 0.06976747512817383
0.1472867727279663 -0.9320875406265259 0.08527135848999023
0.1472867727279663 -0.9195025563240051 0.10077524185180664
0.1472867727279663 -0.908008337020874 0.11627912521362305
0.1472867727279663 -0.8960292935371399 0.1317828893661499
0.1472867727279663 -0.8775303363800049 0.1472867727279663
0.1472867727279663 -0.7639108896255493 0.1472867727279663
0.1472867727279663 -0.745084285736084 0.11627912521362305
0.1472867727279663 -0.750801682472229 0.1317828893661499
0.1472867727279663 -0.7306736707687378 0.08527135848999023
0.1472867727279663 -0.7358449697494507 0.10077524185180664
0.1472867727279663 -0.710321307182312 0.038759708404541016
0.1472867727279663 -0.71640545129776 0.05426359549164772
0.1472867727279663 -0.7205117344856262 0.06976747512817383
0.1472867727279663 -0.6979886889457703 -0.038759708404541016
0.1472867727279663 -0.7033876180648804 -0.02325582504272461
0.1472867727279663 -0.7034633755683899 -0.007751941680908203
0.1472867727279663 -0.7041183710098267 0.007751941680908203
0.1472867727279663 -0.7053573131561279 0.02325582504272461
0.1472867727279663 -0.6722515821456909 -0.05426359176635742
0.1472867727279663 -0.6072394251823425 -0.06976741552352905
0.1472867727279663 -0.5951257944107056 -0.10077518224716187
0.1472867727279663 -0.5936999320983887 -0.08527129888534546
0.1472867727279663 0.6105914115905762 -0.08527129888534546
0.1472867727279663 0.6175423860549927 -0.10077518224716187
0.1472867727279663 0.6230150461196899 -0.06976741552352905
0.1472867727279663 0.6859996318817139 -0.05426359176635742
0.1472867727279663 0.7205731272697449 -0.038759708404541016
0.1472867727279663 0.7348864078521729 -0.02325582504272461
0.1472867727279663 0.7429260015487671 -0.007751941680908203
0.1472867727279663 0.7487044334411621 0.007751941680908203
0.1472867727279663 0.7510279417037964 0.02325582504272461
0.1472867727279663 0.7558780908584595 0.038759708404541016
0.1472867727279663 0.7654612064361572 0.05426359176635742
0.1472867727279663 0.7757700681686401 0.06976747512817383
0.1472867727279663 0.7830853462219238 0.08527135848999023
0.1472867727279663 0.7974958419799805 0.10077524185180664
0.1472867727279663 0.8125865459442139 0.11627912521362305
0.1472867727279663 0.8230434656143188 0.1317828893661499
0.1472867727279663 0.8293534517288208 0.1472867727279663
0.1472867727279663 0.871063768863678 -0.10077518224716187
0.1472867727279663 0.8803644180297852 0.1472867727279663
0.1472867727279663 0.8974594473838806 0.1317828893661499
0.1472867727279663 0.9168749451637268 -0.08527129888534546
0.1472867727279663 0.9181702136993408 0.10077524185180664
0.1472867727279663 0.9072137475013733 0.11627912521362305
0.1472867727279663 0.9300209283828735 0.08527135848999023
0.1472867727279663 0.9415531754493713 -0.06976741552352905
0.1472867727279663 0.9516719579696655 0.05426359176635742
0.1472867727279663 0.9423223733901978 0.06976747512817383
0.1472867727279663 0.9538266658782959 -0.05426359176635742
0.1472867727279663 0.9580309391021729 -0.038759708404541016
0.1472867727279663 0.9622209072113037 -0.02325582504272461
0.1472867727279663 0.9654480218887329 -0.007751941680908203
0.1472867727279663 0.9658629894256592 0.007751941680908203
0.1472867727279663 0.9637974500656128 0.02325582504272461
0.1472867727279663 0.9592878222465515 0.038759708404541016
0.16279065608978271 -0.9745771884918213 -0.08527129888534546
0.16279065608978271 -0.9806491136550903 -0.06976741552352905
0.16279065608978271 -0.9806617498397827 -0.05426359176635742
0.16279065608978271 -0.9779243469238281 -0.038759708404541016
0.16279065608978271 -0.9735678434371948 -0.02325582504272461
0.16279065608978271 -0.9703173041343689 -0.007751941680908203
0.16279065608978271 -0.9540975689888 -0.10077518224716187
0.1627906709909439 -0.9689096212387085 0.007751941680908203
0.16279065608978271 -0.9663126468658447 0.02325582504272461
0.16279065608978271 -0.9622862339019775 0.038759708404541016
0.1627906709909439 -0.9533659815788269 0.05426359549164772
0.16279065608978271 -0.9419664740562439 0.06976747512817383
0.16279065608978271 -0.9301683902740479 0.08527135848999023
0.16279065608978271 -0.9172357320785522 0.10077524185180664
0.16279065608978271 -0.9071198105812073 0.11627912521362305
0.16279065608978271 -0.8943852186203003 0.1317828893661499
0.16279065608978271 -0.8761894106864929 0.1472867727279663
0.16279065608978271 -0.7630968689918518 0.1472867727279663
0.16279065608978271 -0.7425339818000793 0.11627912521362305
0.16279065608978271 -0.749984622001648 0.1317828893661499
0.16279065608978271 -0.7269871234893799 0.08527135848999023
0.16279065608978271 -0.7345344424247742 0.10077524185180664
0.16279065608978271 -0.7122907638549805 0.05426359176635742
0.16279065608978271 -0.7179398536682129 0.06976747512817383
0.16279065608978271 -0.6931787133216858 -0.038759708404541016
0.16279065608978271 -0.6992713809013367 -0.02325582504272461
0.16279065608978271 -0.6994653344154358 -0.007751941680908203
0.16279065608978271 -0.7004119157791138 0.007751941680908203
0.16279065608978271 -0.7021074295043945 0.02325582504272461
0.16279065608978271 -0.7047925591468811 0.038759708404541016
0.16279065608978271 -0.6656187772750854 -0.05426359176635742
0.16279065608978271 -0.6009172797203064 -0.06976741552352905
0.16279065608978271 -0.5931464433670044 -0.10077518224716187
0.16279065608978271 -0.5907135009765625 -0.08527129888534546
0.16279065608978271 0.6111547350883484 -0.10077518224716187
0.16279065608978271 0.6075568199157715 -0.08527129888534546
0.16279065608978271 0.6180034875869751 -0.06976741552352905
0.16279065608978271 0.6815128326416016 -0.05426359176635742
0.16279065608978271 0.7162518501281738 -0.038759708404541016
0.16279065608978271 0.7317526936531067 -0.02325582504272461
0.16279065608978271 0.7375158667564392 -0.007751941680908203
0.16279065608978271 0.7453866004943848 0.007751941680908203
0.16279065608978271 0.7482629418373108 0.02325582504272461
0.16279065608978271 0.7505748271942139 0.038759708404541016
0.16279065608978271 0.7605246305465698 0.05426359176635742
0.16279065608978271 0.7671314477920532 0.06976747512817383
0.16279065608978271 0.7785069942474365 0.08527135848999023
0.16279065608978271 0.7918602228164673 0.10077524185180664
0.16279065608978271 0.8083558082580566 0.11627912521362305
0.16279065608978271 0.8177489638328552 0.1317828893661499
0.16279065608978271 0.8270625472068787 0.1472867727279663
0.16279065608978271 0.8801630139350891 -0.10077518224716187
0.1627906709909439 0.8782964944839478 0.1472867876291275
0.16279065608978271 0.9058036208152771 0.11627912521362305
0.16279065608978271 0.8954232335090637 0.1317828893661499
0.16279065608978271 0.9201368093490601 -0.08527129888534546
0.16279065608978271 0.9166791439056396 0.10077524185180664
0.16279065608978271 0.9290368556976318 0.08527135848999023
0.16279065608978271 0.9424730539321899 -0.06976741552352905
0.16279065608978271 0.9530056715011597 -0.05426359176635742
0.16279065608978271 0.9502502679824829 0.05426359176635742
0.16279065608978271 0.9404659867286682 0.06976747512817383
0.16279065608978271 0.9564244747161865 -0.038759708404541016
0.16279065608978271 0.9598779678344727 -0.02325582504272461
0.16279065608978271 0.9632798433303833 -0.007751941680908203
0.16279065608978271 0.9637945890426636 0.007751941680908203
0.16279065608978271 0.9615222811698914 0.02325582504272461
0.16279065608978271 0.9565259218215942 0.038759708404541016
0.17829453945159912 -0.9714436531066895 -0.08527129888534546
0.17829453945159912 -0.9770035743713379 -0.06976741552352905
0.17829453945159912 -0.9767577052116394 -0.05426359176635742
0.17829453945159912 -0.9735599756240845 -0.038759708404541016
0.17829453945159912 -0.9691954851150513 -0.02325582504272461
0.17829453945159912 -0.963721513748169 -0.007751941680908203
0.17829453945159912 -0.9641772508621216 0.007751941680908203
0.17829453945159912 -0.9640175700187683 0.02325582504272461
0.17829453945159912 -0.9587355256080627 0.038759708404541016
0.17829453945159912 -0.9497203826904297 -0.10077518224716187
0.17829453945159912 -0.9504141211509705 0.05426359176635742
0.17829453945159912 -0.93937748670578 0.06976747512817383
0.17829453945159912 -0.9275352358818054 0.08527135848999023
0.17829453945159912 -0.9148268699645996 0.10077524185180664
0.17829453945159912 -0.904383659362793 0.11627912521362305
0.17829453945159912 -0.8927635550498962 0.1317828893661499
0.17829452455043793 -0.8741992712020874 0.1472867727279663
0.17829453945159912 -0.761938750743866 0.1472867727279663
0.17829453945159912 -0.7393888831138611 0.11627912521362305
0.17829453945159912 -0.7489573955535889 0.1317828893661499
0.17829453945159912 -0.7219669222831726 0.08527135848999023
0.17829453945159912 -0.7329118251800537 0.10077524185180664
0.17829453945159912 -0.7069200873374939 0.05426359176635742
0.17829453945159912 -0.7145894765853882 0.06976747512817383
0.17829453945159912 -0.6941810846328735 -0.02325582504272461
0.17829453945159912 -0.6941413879394531 -0.007751941680908203
0.17829453945159912 -0.69524085521698 0.007751941680908203
0.17829453945159912 -0.6974360942840576 0.02325582504272461
0.17829453945159912 -0.7011147141456604 0.038759708404541016
0.17829455435276031 -0.6884605288505554 -0.038759708404541016
0.17829453945159912 -0.6589605808258057 -0.05426359176635742
0.17829453945159912 -0.5901825428009033 -0.10077518224716187
0.17829453945159912 -0.5860189199447632 -0.08527129888534546
0.17829453945159912 -0.5965036749839783 -0.06976741552352905
0.17829453945159912 0.608026385307312 -0.10077518224716187
0.17829453945159912 0.6026701927185059 -0.08527129888534546
0.17829453945159912 0.6123671531677246 -0.06976741552352905
0.17829453945159912 0.6791049838066101 -0.05426359176635742
0.17829453945159912 0.7128183841705322 -0.038759708404541016
0.17829453945159912 0.7279444336891174 -0.02325582504272461
0.17829453945159912 0.7338663935661316 -0.007751941680908203
0.17829453945159912 0.7391170263290405 0.007751941680908203
0.17829453945159912 0.7425903081893921 0.02325582504272461
0.17829453945159912 0.7459808588027954 0.038759708404541016
0.17829453945159912 0.7521689534187317 0.05426359549164772
0.17829453945159912 0.7632788419723511 0.06976747512817383
0.17829453945159912 0.7735271453857422 0.08527135848999023
0.17829453945159912 0.785210371017456 0.10077524185180664
0.17829453945159912 0.8013347387313843 0.11627911776304245
0.17829453945159912 0.8122403621673584 0.1317828893661499
0.17829453945159912 0.8238164186477661 0.1472867727279663
0.17829453945159912 0.8750728368759155 0.1472867727279663
0.17829453945159912 0.8823157548904419 -0.10077518224716187
0.17829453945159912 0.9041727781295776 0.11627912521362305
0.17829453945159912 0.8927079439163208 0.1317828893661499
0.17829453945159912 0.9195225834846497 -0.08527129888534546
0.17829453945159912 0.9148513078689575 0.10077524185180664
0.17829453945159912 0.9271993637084961 0.08527135848999023
0.17829452455043793 0.9394696950912476 -0.06976741552352905
0.17829453945159912 0.9505524635314941 -0.05426359176635742
0.17829453945159912 0.9531068801879883 0.038759708404541016
0.17829453945159912 0.9484118223190308 0.05426359176635742
0.17829452455043793 0.9381394982337952 0.06976747512817383
0.17829453945159912 0.9541516304016113 -0.038759708404541016
0.17829453945159912 0.9560357332229614 -0.02325582504272461
0.17829453945159912 0.9592689275741577 -0.007751941680908203
0.17829453945159912 0.9599759578704834 0.007751941680908203
0.17829453945159912 0.9577897787094116 0.02325582504272461
0.19379842281341553 -0.9690350294113159 -0.08527129888534546
0.19379842281341553 -0.970923125743866 -0.06976741552352905
0.19379842281341553 -0.9701657891273499 -0.05426359176635742
0.19379842281341553 -0.9626064300537109 -0.038759708404541016
0.19379842281341553 -0.9572024345397949 -0.02325582504272461
0.19379842281341553 -0.956443190574646 -0.007751941680908203
0.19379842281341553 -0.9575350284576416 0.007751941680908203
0.19379842281341553 -0.9584344625473022 0.02325582504272461
0.19379842281341553 -0.9542625546455383 0.038759708404541016
0.19379842281341553 -0.9455869197845459 -0.10077518224716187
0.19379842281341553 -0.9475845098495483 0.05426359176635742
0.19379840791225433 -0.9374824166297913 0.06976747512817383
0.19379842281341553 -0.9246799945831299 0.08527135848999023
0.19379842281341553 -0.9126907587051392 0.10077524185180664
0.19379842281341553 -0.9017659425735474 0.11627911776304245
0.19379842281341553 -0.8915696144104004 0.1317828893661499
0.19379842281341553 -0.8721751570701599 0.1472867727279663
0.19379842281341553 -0.7608933448791504 0.1472867727279663
0.19379842281341553 -0.7480177879333496 0.1317828893661499
0.19379842281341553 -0.7311763167381287 0.10077524185180664
0.19379842281341553 -0.7364029288291931 0.11627911776304245
0.19379842281341553 -0.7112990021705627 0.06976747512817383
0.19379842281341553 -0.7196329236030579 0.08527135848999023
0.19379842281341553 -0.6900311708450317 0.007751941680908203
0.19379842281341553 -0.6927957534790039 0.02325582504272461
0.19379842281341553 -0.6973607540130615 0.038759708404541016
0.19379842281341553 -0.7036663889884949 0.05426359176635742
0.19379842281341553 -0.6844216585159302 -0.038759708404541016
0.19379842281341553 -0.6894557476043701 -0.02325582504272461
0.19379842281341553 -0.6892878413200378 -0.007751941680908203
0.19379843771457672 -0.6537483930587769 -0.05426359176635742
0.19379842281341553 -0.5819182991981506 -0.10077518224716187
0.19379842281341553 -0.5949891805648804 -0.06976741552352905
0.19379842281341553 -0.5805580615997314 -0.08527129888534546
0.19379842281341553 0.5960108637809753 -0.08527129888534546
0.19379842281341553 0.6015889644622803 -0.10077518224716187
0.19379842281341553 0.6108872890472412 -0.06976741552352905
0.19379842281341553 0.6784378290176392 -0.05426359176635742
0.19379842281341553 0.7092455625534058 -0.038759708404541016
0.19379842281341553 0.7230810523033142 -0.02325582504272461
0.19379842281341553 0.7293368577957153 -0.007751941680908203
0.19379842281341553 0.733971118927002 0.007751941680908203
0.19379842281341553 0.7355565428733826 0.02325582504272461
0.19379842281341553 0.7384645938873291 0.03875970467925072
0.19379842281341553 0.7480334639549255 0.05426359176635742
0.19379842281341553 0.7572822570800781 0.06976747512817383
0.19379842281341553 0.7672079801559448 0.08527135848999023
0.19379842281341553 0.7812826037406921 0.10077524185180664
0.19379842281341553 0.796217679977417 0.11627912521362305
0.19379842281341553 0.8084237575531006 0.1317828893661499
0.19379842281341553 0.8178951144218445 0.1472867727279663
0.19379842281341553 0.8711626529693604 0.1472867727279663
0.19379842281341553 0.8824888467788696 -0.10077518224716187
0.19379842281341553 0.8896017670631409 0.1317828893661499
0.19379842281341553 0.9017233848571777 0.11627912521362305
0.19379842281341553 0.9163898229598999 -0.08527129888534546
0.19379842281341553 0.91231369972229 0.10077524185180664
0.19379842281341553 0.9360690712928772 0.06976747512817383
0.19379842281341553 0.9242693185806274 0.08527135848999023
0.19379842281341553 0.938008725643158 -0.06976741552352905
0.19379842281341553 0.9470192790031433 -0.05426359176635742
0.19379842281341553 0.9517298936843872 -0.038759708404541016
0.19379842281341553 0.9507795572280884 0.038759708404541016
0.19379842281341553 0.9459728002548218 0.05426359176635742
0.19379843771457672 0.9539675116539001 -0.02325582504272461
0.19379842281341553 0.9550784826278687 -0.007751941680908203
0.19379842281341553 0.9554461240768433 0.007751941680908203
0.19379842281341553 0.9537965655326843 0.02325582504272461
0.20930230617523193 -0.9642088413238525 -0.08527129888534546
0.20930230617523193 -0.9664376974105835 -0.06976741552352905
0.20930230617523193 -0.9612066745758057 -0.05426359176635742
0.20930230617523193 -0.9567909240722656 -0.038759708404541016
0.20930230617523193 -0.953705370426178 0.02325582504272461
0.20930230617523193 -0.9419978857040405 -0.10077518224716187
0.20930230617523193 -0.9500728845596313 -0.02325582504272461
0.20930230617523193 -0.9470709562301636 -0.007751941680908203
0.20930232107639313 -0.9496538639068604 0.00775194214656949
0.20930232107639313 -0.950313925743103 0.038759708404541016
0.20930230617523193 -0.9427988529205322 0.05426359176635742
0.20930232107639313 -0.9334165453910828 0.06976747512817383
0.20930230617523193 -0.9227869510650635 0.08527135848999023
0.20930230617523193 -0.9101314544677734 0.10077524185180664
0.20930230617523193 -0.8994062542915344 0.11627912521362305
0.20930230617523193 -0.8883913159370422 0.1317828893661499
0.20930230617523193 -0.8697482347488403 0.1472867727279663
0.20930230617523193 -0.7595504522323608 0.1472867727279663
0.20930230617523193 -0.7466378211975098 0.1317828893661499
0.20930230617523193 -0.7281911373138428 0.10077524185180664
0.20930230617523193 -0.7354427576065063 0.11627912521362305
0.20930230617523193 -0.7058362364768982 0.06976747512817383
0.20930230617523193 -0.7171397805213928 0.08527135848999023
0.20930230617523193 -0.6919211149215698 0.038759708404541016
0.20930230617523193 -0.6999882459640503 0.05426359176635742
0.20930230617523193 -0.6771993637084961 -0.038759708404541016
0.20930230617523193 -0.6841109395027161 -0.02325582504272461
0.20930230617523193 -0.6843270063400269 -0.007751941680908203
0.20930230617523193 -0.6853967905044556 0.007751941680908203
0.20930230617523193 -0.6875606775283813 0.02325582504272461
0.20930232107639313 -0.6427907943725586 -0.05426359176635742
0.20930229127407074 -0.5911952257156372 -0.06976741552352905
0.20930230617523193 -0.5790914297103882 -0.10077518224716187
0.20930230617523193 -0.5780743360519409 -0.08527129888534546
0.20930230617523193 0.5937340259552002 -0.10077518224716187
0.20930230617523193 0.5916064977645874 -0.08527129888534546
0.20930230617523193 0.6068798303604126 -0.06976741552352905
0.20930230617523193 0.6729238033294678 -0.05426359176635742
0.20930230617523193 0.7021890878677368 -0.038759708404541016
0.20930230617523193 0.7165417075157166 -0.02325582504272461
0.20930230617523193 0.7198606729507446 -0.007751941680908203
0.20930230617523193 0.7256280183792114 0.007751941680908203
0.20930230617523193 0.7289446592330933 0.02325582504272461
0.20930230617523193 0.7318502068519592 0.038759708404541016
0.20930230617523193 0.738119900226593 0.05426359176635742
0.20930230617523193 0.748752236366272 0.06976747512817383
0.20930230617523193 0.7620543241500854 0.08527135848999023
0.20930230617523193 0.7756732702255249 0.10077524185180664
0.20930230617523193 0.789490818977356 0.11627912521362305
0.20930230617523193 0.7996220588684082 0.1317828893661499
0.20930230617523193 0.8117858171463013 0.1472867727279663
0.20930230617523193 0.8688308000564575 0.1472867727279663
0.20930230617523193 0.8815381526947021 -0.10077518224716187
0.20930230617523193 0.8868964910507202 0.1317828893661499
0.20930230617523193 0.8985894918441772 0.11627912521362305
0.20930230617523193 0.9133626222610474 -0.08527129888534546
0.20930230617523193 0.9212884902954102 0.08527135848999023
0.20930230617523193 0.9083411693572998 0.10077524185180664
0.20930230617523193 0.9346714615821838 -0.06976741552352905
0.20930230617523193 0.9335606098175049 0.06976747512817383
0.20930230617523193 0.942400336265564 -0.05426359176635742
0.20930230617523193 0.948886513710022 -0.038759708404541016
0.20930230617523193 0.9509235620498657 -0.02325582504272461
0.20930230617523193 0.9526665210723877 -0.007751941680908203
0.20930230617523193 0.95293790102005 0.007751941680908203
0.20930230617523193 0.9511958956718445 0.02325582504272461
0.20930230617523193 0.9485307335853577 0.038759708404541016
0.20930230617523193 0.942090630531311 0.05426359176635742
0.22480618953704834 -0.9576907157897949 -0.08527129888534546
0.22480618953704834 -0.9611067771911621 -0.06976741552352905
0.22480618953704834 -0.9577072858810425 -0.05426359176635742
0.22480618953704834 -0.9557064771652222 -0.038759708404541016
0.22480618953704834 -0.9388927817344666 -0.10077518224716187
0.22480618953704834 -0.950898289680481 -0.02325582504272461
0.22480618953704834 -0.9456778764724731 -0.007751941680908203
0.22480618953704834 -0.9458344578742981 0.007751941680908203
0.22480617463588715 -0.9489319920539856 0.02325582504272461
0.22480618953704834 -0.946495771408081 0.038759708404541016
0.22480618953704834 -0.9387023448944092 0.05426359176635742
0.22480618953704834 -0.9298733472824097 0.06976747512817383
0.22480618953704834 -0.9190506339073181 0.08527135848999023
0.22480618953704834 -0.9076088070869446 0.10077524185180664
0.22480618953704834 -0.8963321447372437 0.11627912521362305
0.22480618953704834 -0.8849427103996277 0.1317828893661499
0.22480618953704834 -0.8667370676994324 0.1472867727279663
0.22480618953704834 -0.7572286128997803 0.1472867727279663
0.22480618953704834 -0.7444892525672913 0.1317828893661499
0.22480618953704834 -0.7236873507499695 0.10077524185180664
0.22480618953704834 -0.7342078685760498 0.11627912521362305
0.22480618953704834 -0.7136015295982361 0.08527135848999023
0.22480618953704834 -0.6953505873680115 0.05426359176635742
0.22480618953704834 -0.702547550201416 0.06976747512817383
0.22480618953704834 -0.6772012710571289 -0.02325582504272461
0.22480618953704834 -0.6781067848205566 -0.007751941680908203
0.22480618953704834 -0.679621160030365 0.007751941680908203
0.22480618953704834 -0.6824856400489807 0.02325582504272461
0.22480618953704834 -0.6870262622833252 0.038759708404541016
0.22480618953704834 -0.6693848371505737 -0.038759708404541016
0.22480618953704834 -0.6339361071586609 -0.05426359176635742
0.22480618953704834 -0.5821115374565125 -0.06976741552352905
0.22480618953704834 -0.5737347602844238 -0.10077518224716187
0.22480618953704834 -0.5717440843582153 -0.08527129888534546
0.22480618953704834 0.5809312462806702 -0.08527129888534546
0.22480618953704834 0.5831213593482971 -0.10077518224716187
0.22480618953704834 0.5988237857818604 -0.06976741552352905
0.22480618953704834 0.6599934697151184 -0.05426359176635742
0.22480618953704834 0.6923374533653259 -0.038759708404541016
0.22480618953704834 0.7073477506637573 -0.02325582504272461
0.22480618953704834 0.7124930620193481 -0.007751941680908203
0.22480618953704834 0.7175254821777344 0.007751941680908203
0.22480618953704834 0.7198511362075806 0.02325582504272461
0.22480618953704834 0.7226830720901489 0.038759708404541016
0.22480618953704834 0.7315896153450012 0.05426359176635742
0.22480618953704834 0.7399280071258545 0.06976747512817383
0.22480618953704834 0.7524482011795044 0.08527135848999023
0.22480618953704834 0.7669616341590881 0.10077524185180664
0.22480618953704834 0.7814728021621704 0.11627912521362305
0.22480618953704834 0.7949866056442261 0.1317828893661499
0.22480618953704834 0.8076674342155457 0.1472867727279663
0.22480618953704834 0.8653829097747803 0.1472867727279663
0.22480617463588715 0.8788986206054688 -0.10077518224716187
0.22480618953704834 0.883252739906311 0.1317828893661499
0.22480618953704834 0.9052398204803467 0.10077524185180664
0.22480618953704834 0.8940452933311462 0.11627912521362305
0.22480618953704834 0.9093583822250366 -0.08527129888534546
0.22480618953704834 0.918347954750061 0.08527135848999023
0.22480618953704834 0.9310964941978455 -0.06976741552352905
0.22480618953704834 0.9312127828598022 0.06976747512817383
0.22480618953704834 0.9394264221191406 -0.05426359176635742
0.22480618953704834 0.9450036287307739 -0.038759708404541016
0.22480618953704834 0.9478460550308228 -0.02325582504272461
0.22480618953704834 0.9492336511611938 -0.007751941680908203
0.22480618953704834 0.9496402740478516 0.007751941680908203
0.22480618953704834 0.948364794254303 0.02325582504272461
0.22480618953704834 0.945204496383667 0.038759708404541016
0.22480618953704834 0.9380090236663818 0.05426359176635742
0.24031007289886475 -0.9541412591934204 -0.08527129888534546
0.24031007289886475 -0.9552335739135742 -0.06976741552352905
0.24031007289886475 -0.9549964666366577 -0.05426359176635742
0.24031007289886475 -0.9549006819725037 -0.038759708404541016
0.24031005799770355 -0.9518861174583435 -0.02325582504272461
0.24031007289886475 -0.9467472434043884 -0.007751941680908203
0.24031007289886475 -0.9448882341384888 0.007751941680908203
0.24031007289886475 -0.9459941983222961 0.02325582504272461
0.24031007289886475 -0.9418014287948608 0.038759708404541016
0.24031007289886475 -0.9351387023925781 -0.10077518224716187
0.24031007289886475 -0.9354962110519409 0.05426359176635742
0.24031007289886475 -0.9254171848297119 0.06976747512817383
0.24031007289886475 -0.9157810211181641 0.08527135848999023
0.24031007289886475 -0.904818594455719 0.10077524185180664
0.24031007289886475 -0.8930424451828003 0.11627912521362305
0.24031007289886475 -0.8813951015472412 0.1317828893661499
0.24031007289886475 -0.8631792664527893 0.1472867727279663
0.24031007289886475 -0.7529501914978027 0.1472867727279663
0.24031007289886475 -0.7406467199325562 0.1317828893661499
0.24031007289886475 -0.7320038080215454 0.11627912521362305
0.24031007289886475 -0.7074008584022522 0.08527135848999023
0.24031007289886475 -0.719385027885437 0.10077524185180664
0.24031007289886475 -0.6975334882736206 0.06976747512817383
0.24031007289886475 -0.6745694279670715 0.02325582504272461
0.24031007289886475 -0.6807246208190918 0.038759708404541016
0.24031007289886475 -0.6884620189666748 0.05426359549164772
0.24031007289886475 -0.668643593788147 -0.02325582504272461
0.24031007289886475 -0.6707320809364319 -0.007751941680908203
0.24031007289886475 -0.6722466945648193 0.007751941680908203
0.24031007289886475 -0.6577597260475159 -0.038759708404541016
0.24031007289886475 -0.6249961256980896 -0.05426359176635742
0.24031007289886475 -0.5774025917053223 -0.06976741552352905
0.24031007289886475 -0.5641419887542725 -0.10077518224716187
0.24031007289886475 -0.5638344287872314 -0.08527129888534546
0.24031007289886475 0.5738106966018677 -0.10077518224716187
0.24031007289886475 0.5725963711738586 -0.08527129888534546
0.24031007289886475 0.5922719240188599 -0.06976741552352905
0.24031007289886475 0.6233032941818237 -0.05426359176635742
0.24031007289886475 0.6805381774902344 -0.038759708404541016
0.24031007289886475 0.6975135803222656 -0.02325582504272461
0.24031007289886475 0.7024245262145996 -0.007751941680908203
0.24031008780002594 0.7072889804840088 0.00775194214656949
0.24031007289886475 0.712760329246521 0.02325582504272461
0.24031007289886475 0.7159802913665771 0.038759708404541016
0.24031007289886475 0.7208970785140991 0.05426359176635742
0.24031007289886475 0.7318482398986816 0.06976747512817383
0.24031007289886475 0.7459725737571716 0.08527135848999023
0.24031007289886475 0.7616775631904602 0.10077524185180664
0.24031007289886475 0.7754217386245728 0.11627912521362305
0.24031007289886475 0.7867318391799927 0.1317828893661499
0.24031007289886475 0.7981931567192078 0.1472867727279663
0.24031007289886475 0.8597684502601624 0.1472867727279663
0.24031007289886475 0.875582754611969 -0.10077518224716187
0.24031007289886475 0.890184223651886 0.11627912521362305
0.24031007289886475 0.8778635859489441 0.1317828893661499
0.24031007289886475 0.9015815854072571 0.10077524185180664
0.24031007289886475 0.9070426821708679 -0.08527129888534546
0.24031007289886475 0.9144635200500488 0.08527135848999023
0.24031007289886475 0.927599310874939 -0.06976741552352905
0.24031007289886475 0.9349995255470276 0.05426359176635742
0.24031007289886475 0.9265056848526001 0.06976747512817383
0.24031007289886475 0.9380908608436584 -0.05426359176635742
0.24031007289886475 0.9404783844947815 -0.038759708404541016
0.24031005799770355 0.9428318738937378 -0.02325582318007946
0.24031007289886475 0.9440852403640747 -0.007751941680908203
0.24031007289886475 0.9445477724075317 0.007751941680908203
0.24031007289886475 0.9431805610656738 0.02325582504272461
0.24031007289886475 0.9396992325782776 0.038759708404541016
0.25581395626068115 -0.9504438638687134 -0.08527129888534546
0.25581395626068115 -0.9509937763214111 -0.06976741552352905
0.25581395626068115 -0.9497040510177612 -0.05426359176635742
0.25581395626068115 -0.9510374069213867 -0.038759708404541016
0.25581395626068115 -0.948529839515686 -0.02325582504272461
0.25581395626068115 -0.9455924034118652 -0.007751941680908203
0.25581395626068115 -0.9433738589286804 0.007751941680908203
0.25581395626068115 -0.9429863691329956 0.02325582504272461
0.25581395626068115 -0.9386496543884277 0.038759708404541016
0.25581395626068115 -0.9329152703285217 -0.10077518224716187
0.25581395626068115 -0.9327366352081299 0.05426359176635742
0.25581395626068115 -0.9227339029312134 0.06976747512817383
0.25581395626068115 -0.912804126739502 0.08527135848999023
0.25581395626068115 -0.9015504717826843 0.10077524185180664
0.25581395626068115 -0.8913934826850891 0.11627912521362305
0.25581395626068115 -0.8777693510055542 0.1317828893661499
0.25581395626068115 -0.8598120212554932 0.1472867727279663
0.25581395626068115 -0.7503625154495239 0.1472867727279663
0.25581395626068115 -0.7277125716209412 0.11627912521362305
0.25581395626068115 -0.7359307408332825 0.1317828893661499
0.25581395626068115 -0.7154306173324585 0.10077524185180664
0.25581395626068115 -0.7020291686058044 0.08527135848999023
0.25581395626068115 -0.681220531463623 0.05426359176635742
0.25581395626068115 -0.689283549785614 0.06976747512817383
0.25581395626068115 -0.6605169773101807 -0.007751941680908203
0.25581395626068115 -0.6634501814842224 0.007751941680908203
0.25581395626068115 -0.6669995784759521 0.02325582504272461
0.25581395626068115 -0.6719207763671875 0.038759708404541016
0.25581395626068115 -0.6446511745452881 -0.038759708404541016
0.25581395626068115 -0.6569510102272034 -0.02325582318007946
0.25581395626068115 -0.6120070815086365 -0.05426359176635742
0.25581395626068115 -0.5659101605415344 -0.06976741552352905
0.25581395626068115 -0.5574772357940674 -0.10077518224716187
0.25581395626068115 -0.5566151738166809 -0.08527129888534546
0.25581395626068115 0.561578631401062 -0.10077518224716187
0.25581395626068115 0.5614641308784485 -0.08527129888534546
0.25581395626068115 0.5798785090446472 -0.06976741552352905
0.25581395626068115 0.6091189980506897 -0.05426359176635742
0.25581395626068115 0.6501836776733398 -0.038759708404541016
0.25581395626068115 0.6832476854324341 -0.02325582504272461
0.25581395626068115 0.689450740814209 -0.007751941680908203
0.25581395626068115 0.6971960067749023 0.007751941680908203
0.25581395626068115 0.7021744251251221 0.02325582504272461
0.25581395626068115 0.7044750452041626 0.038759708404541016
0.25581395626068115 0.7128744125366211 0.05426359176635742
0.25581395626068115 0.7199897170066833 0.06976747512817383
0.25581395626068115 0.7344581484794617 0.08527135848999023
0.25581395626068115 0.7504298090934753 0.10077524185180664
0.25581395626068115 0.7649694085121155 0.11627912521362305
0.25581395626068115 0.7785382270812988 0.1317828893661499
0.25581395626068115 0.7927510738372803 0.1472867727279663
0.25581395626068115 0.8547515273094177 0.1472867727279663
0.25581395626068115 0.8708857893943787 -0.10077518224716187
0.25581395626068115 0.873716413974762 0.1317828893661499
0.25581395626068115 0.8866767883300781 0.11627912521362305
0.25581395626068115 0.9047796726226807 -0.08527129888534546
0.25581395626068115 0.8974581360816956 0.10077524185180664
0.25581395626068115 0.9213727712631226 0.06976747512817383
0.25581395626068115 0.9089924693107605 0.08527135848999023
0.25581395626068115 0.9256431460380554 -0.06976741552352905
0.25581395626068115 0.9348289966583252 -0.05426359176635742
0.25581395626068115 0.9378786683082581 -0.038759708404541016
0.25581395626068115 0.9359323382377625 0.038759708404541016
0.25581395626068115 0.931940495967865 0.05426359176635742
0.25581395626068115 0.9384636878967285 -0.02325582504272461
0.25581395626068115 0.938717246055603 -0.007751941680908203
0.25581395626068115 0.9388580918312073 0.007751941215246916
0.25581392645835876 0.9381825923919678 0.02325582504272461
0.27131783962249756 -0.9471875429153442 -0.08527129888534546
0.27131783962249756 -0.947913646697998 -0.06976741552352905
0.27131783962249756 -0.944508969783783 -0.05426359176635742
0.27131783962249756 -0.9448360204696655 -0.038759708404541016
0.27131783962249756 -0.9433711767196655 -0.02325582504272461
0.27131783962249756 -0.9420502185821533 -0.007751941680908203
0.27131783962249756 -0.9413650035858154 0.007751941680908203
0.27131783962249756 -0.9401224851608276 0.02325582504272461
0.27131783962249756 -0.9303459525108337 -0.10077518224716187
0.27131783962249756 -0.9362161159515381 0.038759708404541016
0.27131783962249756 -0.930041491985321 0.05426359176635742
0.27131783962249756 -0.9196970462799072 0.06976747512817383
0.27131783962249756 -0.9090443253517151 0.08527135848999023
0.27131783962249756 -0.8989337086677551 0.10077524185180664
0.27131783962249756 -0.8876625299453735 0.11627912521362305
0.27131783962249756 -0.875575065612793 0.1317828893661499
0.27131783962249756 -0.8570948839187622 0.1472867727279663
0.27131783962249756 -0.7474562525749207 0.1472867727279663
0.27131783962249756 -0.733362078666687 0.1317828893661499
0.27131783962249756 -0.70770663022995 0.10077524185180664
0.27131783962249756 -0.7203818559646606 0.11627912521362305
0.27131783962249756 -0.6946365833282471 0.08527135848999023
0.27131783962249756 -0.681740403175354 0.06976747512817383
0.27131783962249756 -0.6621090173721313 0.038759708404541016
0.27131783962249756 -0.6711963415145874 0.05426359176635742
0.27131783962249756 -0.6445428729057312 -0.02325582504272461
0.27131783962249756 -0.6499470472335815 -0.007751941680908203
0.27131783962249756 -0.6528607606887817 0.007751941680908203
0.27131783962249756 -0.6563524603843689 0.02325582504272461
0.27131783962249756 -0.6327634453773499 -0.038759708404541016
0.27131783962249756 -0.5970298647880554 -0.05426359176635742
0.27131783962249756 -0.5606633424758911 -0.06976741552352905
0.27131783962249756 -0.5476385354995728 -0.10077518224716187
0.27131783962249756 -0.5475292205810547 -0.08527129888534546
0.27131783962249756 0.5483828186988831 -0.10077518224716187
0.27131783962249756 0.5487657189369202 -0.08527129888534546
