-0.22480618953704834 -0.39534884691238403 0.1863725781440735
-0.22480618953704834 -0.39534884691238403 0.23699374496936798
-0.22480618953704834 -0.39534884691238403 0.27586856484413147
-0.22480618953704834 -0.3798449635505676 0.08705931156873703
-0.22480618953704834 -0.3798449635505676 0.18616926670074463
-0.22480618953704834 -0.3798449635505676 0.23708370327949524
-0.22480618953704834 -0.3798449635505676 0.27548110485076904
-0.22480620443820953 -0.3643410801887512 0.08860906958580017
-0.22480618953704834 -0.3643410801887512 0.18599459528923035
-0.22480618953704834 -0.3643410801887512 0.23699945211410522
-0.22480618953704834 -0.3643410801887512 0.27545541524887085
-0.22480618953704834 -0.3488371968269348 0.08981658518314362
-0.22480618953704834 -0.3488371968269348 0.18574264645576477
-0.22480618953704834 -0.3488371968269348 0.23706333339214325
-0.22480618953704834 -0.3488371968269348 0.27533262968063354
-0.22480618953704834 -0.3333333134651184 0.09067346900701523
-0.22480618953704834 -0.3333333134651184 0.18572241067886353
-0.22480618953704834 -0.3333333134651184 0.23725439608097076
-0.22480618953704834 -0.3333333134651184 0.27522408962249756
-0.22480618953704834 -0.317829430103302 0.09143707901239395
-0.22480618953704834 -0.317829430103302 0.185957133769989
-0.22480618953704834 -0.317829430103302 0.23706546425819397
-0.22480618953704834 -0.317829430103302 0.2757857143878937
-0.22480618953704834 -0.30232560634613037 0.09214179217815399
-0.22480618953704834 -0.30232560634613037 0.18596184253692627
-0.22480618953704834 -0.30232560634613037 0.23686163127422333
-0.22480618953704834 -0.30232560634613037 0.27621716260910034
-0.22480618953704834 -0.28682172298431396 0.09220632910728455
-0.22480618953704834 -0.28682172298431396 0.18628016114234924
-0.22480618953704834 -0.28682172298431396 0.2366449385881424
-0.22480618953704834 -0.28682172298431396 0.27666252851486206
-0.22480618953704834 -0.27131783962249756 0.09249915182590485
-0.22480618953704834 -0.27131783962249756 0.18681734800338745
-0.22480618953704834 -0.27131783962249756 0.2364095151424408
-0.22480618953704834 -0.27131783962249756 0.27724117040634155
-0.22480618953704834 -0.25581395626068115 0.09253241866827011
-0.22480618953704834 -0.25581395626068115 0.18712306022644043
-0.22480618953704834 -0.25581395626068115 0.23613768815994263
-0.22480618953704834 -0.25581395626068115 0.2778211832046509
-0.22480618953704834 -0.24031007289886475 0.09276442229747772
-0.22480618953704834 -0.24031007289886475 0.1871786117553711
-0.22480618953704834 -0.24031007289886475 0.23617301881313324
-0.22480618953704834 -0.24031007289886475 0.27812185883522034
-0.22480618953704834 -0.22480618953704834 0.09301784634590149
-0.22480618953704834 -0.22480618953704834 0.18694399297237396
-0.22480618953704834 -0.22480618953704834 0.2365768700838089
-0.22480618953704834 -0.22480618953704834 0.2780691981315613
-0.22480618953704834 -0.20930230617523193 0.09383691847324371
-0.22480618953704834 -0.20930230617523193 0.18607953190803528
-0.22480618953704834 -0.20930230617523193 0.2371959388256073
-0.22480618953704834 -0.20930230617523193 0.2775654196739197
-0.22480618953704834 -0.19379842281341553 0.09492212533950806
-0.22480618953704834 -0.19379842281341553 0.1847563236951828
-0.22480618953704834 -0.19379842281341553 0.23780815303325653
-0.22480618953704834 -0.19379842281341553 0.27687323093414307
-0.22480618953704834 -0.1782945990562439 0.09554997086524963
-0.22480618953704834 -0.1782945990562439 0.18368612229824066
-0.22480618953704834 -0.1782945990562439 0.23840312659740448
-0.22480620443820953 -0.1782945990562439 0.27591946721076965
-0.22480618953704834 -0.1627907156944275 0.09593579173088074
-0.22480618953704834 -0.1627907156944275 0.18234388530254364
-0.22480618953704834 -0.1627907156944275 0.2390773594379425
-0.22480618953704834 -0.1627907156944275 0.274756520986557
-0.22480618953704834 -0.14728683233261108 0.0964767262339592
-0.22480618953704834 -0.14728683233261108 0.181471586227417
-0.22480618953704834 -0.14728683233261108 0.23962628841400146
-0.22480620443820953 -0.14728683233261108 0.27378231287002563
-0.22480618953704834 -0.13178294897079468 0.09660733491182327
-0.22480618953704834 -0.13178294897079468 0.18105724453926086
-0.22480618953704834 -0.13178294897079468 0.24005700647830963
-0.22480618953704834 -0.13178294897079468 0.27306199073791504
-0.22480618953704834 -0.11627906560897827 0.09639693796634674
-0.22480618953704834 -0.11627906560897827 0.1808328926563263
-0.22480618953704834 -0.11627906560897827 0.24104131758213043
-0.22480618953704834 -0.11627906560897827 0.2722272574901581
-0.22480618953704834 -0.10077518224716187 0.09630326926708221
-0.22480618953704834 -0.10077518224716187 0.18060150742530823
-0.22480618953704834 -0.10077518224716187 0.2419024109840393
-0.22480618953704834 -0.10077518969774246 0.2719915211200714
-0.22480618953704834 -0.08527129888534546 0.0963900163769722
-0.22480618953704834 -0.08527129888534546 0.18086384236812592
-0.22480620443820953 -0.08527129888534546 0.24122323095798492
-0.22480618953704834 -0.08527129888534546 0.27207791805267334
-0.22480618953704834 -0.06976741552352905 0.09613163769245148
-0.22480618953704834 -0.06976741552352905 0.18132075667381287
-0.22480618953704834 -0.06976741552352905 0.24027064442634583
-0.22480618953704834 -0.06976741552352905 0.2721917927265167
-0.22480618953704834 -0.05426359176635742 0.09603241831064224
-0.22480618953704834 -0.05426359176635742 0.18140633404254913
-0.22480618953704834 -0.05426359176635742 0.2402200549840927
-0.22480618953704834 -0.05426358804106712 0.2721810042858124
-0.22480618953704834 -0.038759708404541016 0.09616761654615402
-0.22480618953704834 -0.038759708404541016 0.1814316064119339
-0.22480618953704834 -0.038759708404541016 0.24017006158828735
-0.22480620443820953 -0.038759708404541016 0.27200114727020264
-0.22480618953704834 -0.02325582504272461 0.09655032306909561
-0.22480617463588715 -0.02325582504272461 0.18145930767059326
-0.22480618953704834 -0.02325582504272461 0.24006447196006775
-0.22480618953704834 -0.02325582504272461 0.2719177305698395
-0.22480618953704834 -0.007751941680908203 0.09683291614055634
-0.22480618953704834 -0.007751941680908203 0.18142691254615784
-0.22480618953704834 -0.007751941680908203 0.24025338888168335
-0.22480618953704834 -0.007751941680908203 0.2713956832885742
-0.22480618953704834 0.007751941680908203 0.09684780240058899
-0.22480618953704834 0.007751941680908203 0.18125668168067932
-0.22480618953704834 0.007751941680908203 0.24120740592479706
-0.22480618953704834 0.007751941680908203 0.2704189419746399
-0.22480618953704834 0.02325582504272461 0.097228042781353
-0.22480618953704834 0.02325582318007946 0.18141639232635498
-0.22480618953704834 0.02325582318007946 0.24124710261821747
-0.22480618953704834 0.02325582504272461 0.27025777101516724
-0.22480618953704834 0.038759708404541016 0.09710289537906647
-0.22480618953704834 0.038759708404541016 0.18163812160491943
-0.22480617463588715 0.038759708404541016 0.24155142903327942
-0.22480618953704834 0.038759708404541016 0.2701951265335083
-0.22480618953704834 0.05426359176635742 0.09680934995412827
-0.22480618953704834 0.05426359176635742 0.18199479579925537
-0.22480618953704834 0.05426359176635742 0.24155719578266144
-0.22480618953704834 0.05426359176635742 0.27046433091163635
-0.22480618953704834 0.06976747512817383 0.0964302197098732
-0.22480618953704834 0.06976747512817383 0.1824648380279541
-0.22480618953704834 0.06976747512817383 0.24018433690071106
-0.22480618953704834 0.06976747512817383 0.271969199180603
-0.22480618953704834 0.08527135848999023 0.0963820070028305
-0.22480618953704834 0.08527135848999023 0.18305572867393494
-0.22480618953704834 0.08527135848999023 0.23984678089618683
-0.22480618953704834 0.08527135848999023 0.2728878855705261
-0.22480618953704834 0.10077524185180664 0.09586907178163528
-0.22480618953704834 0.10077524185180664 0.18410229682922363
-0.22480618953704834 0.10077524185180664 0.23945429921150208
-0.22480618953704834 0.10077524185180664 0.2739689350128174
-0.22480618953704834 0.11627912521362305 0.09527616202831268
-0.22480618953704834 0.11627912521362305 0.18543769419193268
-0.22480618953704834 0.11627912521362305 0.23874713480472565
-0.22480618953704834 0.11627912521362305 0.2755802869796753
-0.22480618953704834 0.1317828893661499 0.09469753503799438
-0.22480618953704834 0.1317828893661499 0.18667912483215332
-0.22480618953704834 0.1317828893661499 0.23804762959480286
-0.22480620443820953 0.1317828893661499 0.27682268619537354
-0.22480618953704834 0.1472867727279663 0.0940900444984436
-0.22480618953704834 0.1472867727279663 0.18795554339885712
-0.22480618953704834 0.1472867727279663 0.23761656880378723
-0.22480618953704834 0.1472867727279663 0.2776249647140503
-0.22480618953704834 0.16279065608978271 0.09353165328502655
-0.22480618953704834 0.16279065608978271 0.18863847851753235
-0.22480618953704834 0.16279065608978271 0.23737527430057526
-0.22480620443820953 0.16279065608978271 0.2781979441642761
-0.22480618953704834 0.17829453945159912 0.09314588457345963
-0.22480618953704834 0.17829453945159912 0.1875484138727188
-0.22480618953704834 0.17829453945159912 0.23738732933998108
-0.22480618953704834 0.17829453945159912 0.27832233905792236
-0.22480618953704834 0.19379842281341553 0.09328976273536682
-0.22480618953704834 0.19379842281341553 0.18644018471240997
-0.22480618953704834 0.19379842281341553 0.23754991590976715
-0.22480618953704834 0.19379842281341553 0.27809399366378784
-0.22480618953704834 0.20930230617523193 0.09295971691608429
-0.22480618953704834 0.20930230617523193 0.18627843260765076
-0.22480618953704834 0.20930230617523193 0.2376970648765564
-0.22480618953704834 0.20930230617523193 0.27784061431884766
-0.22480618953704834 0.22480618953704834 0.09255139529705048
-0.22480618953704834 0.22480618953704834 0.186372309923172
-0.22480618953704834 0.22480618953704834 0.2377851903438568
-0.22480618953704834 0.22480618953704834 0.27755069732666016
-0.22480618953704834 0.24031007289886475 0.09228004515171051
-0.22480618953704834 0.24031007289886475 0.18629419803619385
-0.22480618953704834 0.24031007289886475 0.23777039349079132
-0.22480618953704834 0.24031007289886475 0.27746349573135376
-0.22480618953704834 0.25581395626068115 0.09186392277479172
-0.22480618953704834 0.25581395626068115 0.18623831868171692
-0.22480618953704834 0.25581395626068115 0.2376999855041504
-0.22480618953704834 0.25581395626068115 0.2774181067943573
-0.22480618953704834 0.27131783962249756 0.09119339287281036
-0.22480618953704834 0.27131783962249756 0.186039000749588
-0.22480618953704834 0.27131783962249756 0.2375655174255371
-0.22480618953704834 0.27131783962249756 0.2774483859539032
-0.22480618953704834 0.28682172298431396 0.09084054082632065
-0.22480618953704834 0.28682172298431396 0.18602505326271057
-0.22480618953704834 0.28682172298431396 0.23718464374542236
-0.22480618953704834 0.28682172298431396 0.277761310338974
-0.22480620443820953 0.30232560634613037 0.09020368754863739
-0.22480618953704834 0.30232560634613037 0.1863306164741516
-0.22480618953704834 0.30232560634613037 0.23672325909137726
-0.22480618953704834 0.30232560634613037 0.27818870544433594
-0.22480618953704834 0.3178294897079468 0.08939240127801895
-0.22480618953704834 0.3178294897079468 0.18708357214927673
-0.22480618953704834 0.3178294897079468 0.23617905378341675
-0.22480618953704834 0.3178294897079468 0.2784728705883026
-0.22480618953704834 0.3333333730697632 0.08883644640445709
-0.22480618953704834 0.3333333730697632 0.18722516298294067
-0.22480618953704834 0.3333333730697632 0.23577965795993805
-0.22480618953704834 0.3333333730697632 0.27887624502182007
-0.22480618953704834 0.3488372564315796 0.08880609273910522
-0.22480618953704834 0.3488372564315796 0.1869111955165863
-0.22480618953704834 0.3488372564315796 0.23562027513980865
-0.22480618953704834 0.3488372564315796 0.2787933647632599
-0.22480618953704834 0.364341139793396 0.08898024260997772
-0.22480618953704834 0.364341139793396 0.18594828248023987
-0.22480618953704834 0.364341139793396 0.23584981262683868
-0.22480618953704834 0.364341139793396 0.27860182523727417
-0.22480618953704834 0.37984490394592285 0.08955694735050201
-0.22480618953704834 0.37984490394592285 0.1846812665462494
-0.22480618953704834 0.37984490394592285 0.23654618859291077
-0.22480618953704834 0.37984490394592285 0.2780395746231079
-0.22480618953704834 0.39534878730773926 0.08961252868175507
-0.22480618953704834 0.39534878730773926 0.18356718122959137
-0.22480618953704834 0.39534878730773926 0.2371155023574829
-0.22480618953704834 0.39534878730773926 0.2774030566215515
-0.22480618953704834 0.41085267066955566 0.08933012187480927
-0.22480618953704834 0.41085267066955566 0.1827835887670517
-0.22480618953704834 0.41085267066955566 0.23739099502563477
-0.22480618953704834 0.41085267066955566 0.27704060077667236
-0.22480618953704834 0.4263565242290497 0.08863107860088348
-0.22480620443820953 0.42635658383369446 0.18226681649684906
-0.22480618953704834 0.42635655403137207 0.23766867816448212
-0.22480618953704834 0.42635655403137207 0.27670371532440186
-0.22480620443820953 0.4418604373931885 0.08771465718746185
-0.22480617463588715 0.4418604373931885 0.181818887591362
-0.22480618953704834 0.4418604373931885 0.2378784716129303
-0.22480618953704834 0.4418604373931885 0.276361346244812
-0.22480617463588715 0.4573643207550049 0.08699455112218857
-0.22480618953704834 0.4573643207550049 0.18139854073524475
-0.22480618953704834 0.4573643207550049 0.2378711700439453
-0.22480618953704834 0.4573643207550049 0.2761498689651489
-0.22480620443820953 0.4728682041168213 0.08645347505807877
-0.22480618953704834 0.4728682041168213 0.18085113167762756
-0.22480618953704834 0.4728682041168213 0.23792806267738342
-0.22480618953704834 0.4728682041168213 0.275960236787796
-0.22480618953704834 0.4883720874786377 0.08592052757740021
-0.22480617463588715 0.4883720874786377 0.1806860715150833
-0.22480618953704834 0.4883720874786377 0.23789668083190918
-0.22480618953704834 0.4883720874786377 0.27591174840927124
-0.22480620443820953 0.5038759708404541 0.08528748899698257
-0.22480618953704834 0.5038759708404541 0.1807383894920349
-0.22480618953704834 0.5038759708404541 0.23760785162448883
-0.22480618953704834 0.5038759708404541 0.276526540517807
-0.22480618953704834 0.5193798542022705 0.08553116768598557
-0.22480618953704834 0.5193798542022705 0.1807273030281067
-0.22480618953704834 0.5193798542022705 0.2374171018600464
-0.22480618953704834 0.5193798542022705 0.2769763469696045
-0.22480618953704834 0.5348837375640869 0.08611354231834412
-0.22480618953704834 0.5348837375640869 0.18047641217708588
-0.22480618953704834 0.5348837375640869 0.2376776486635208
-0.22480617463588715 0.5348837375640869 0.27700018882751465
-0.22480618953704834 0.5503876209259033 0.08744777739048004
-0.22480618953704834 0.5503876209259033 0.17972642183303833
-0.22480618953704834 0.5503876209259033 0.23806221783161163
-0.22480617463588715 0.5503876209259033 0.2766437232494354
-0.22480620443820953 0.5658915042877197 0.08936778455972672
-0.22480618953704834 0.5658915042877197 0.17823444306850433
-0.22480618953704834 0.5658915042877197 0.238728865981102
-0.22480618953704834 0.5658915042877197 0.275753915309906
-0.22480618953704834 0.5813953876495361 0.09104181826114655
-0.22480618953704834 0.5813953876495361 0.17330524325370789
-0.22480618953704834 0.5813953876495361 0.23944227397441864
-0.22480618953704834 0.5813953876495361 0.2744176387786865
-0.22480618953704834 0.5968992710113525 0.09146226942539215
-0.22480618953704834 0.5968992710113525 0.17058521509170532
-0.22480618953704834 0.5968992710113525 0.23995919525623322
-0.22480618953704834 0.5968992710113525 0.2732425928115845
-0.22480618953704834 0.612403154373169 0.09164567291736603
-0.22480618953704834 0.612403154373169 0.1699444055557251
-0.22480618953704834 0.612403154373169 0.24018725752830505
-0.22480618953704834 0.6124030947685242 0.2723979949951172
-0.22480618953704834 0.6279069185256958 0.09269402921199799
-0.22480618953704834 0.6279069185256958 0.1694275140762329
-0.22480618953704834 0.6279069185256958 0.24029865860939026
-0.22480618953704834 0.6279069185256958 0.2717534005641937
-0.22480618953704834 0.6434108018875122 0.09378726780414581
-0.22480618953704834 0.6434108018875122 0.1693863570690155
-0.22480618953704834 0.6434108018875122 0.2407151758670807
-0.22480618953704834 0.6434108018875122 0.2707524597644806
-0.22480618953704834 0.6589146852493286 0.09492871910333633
-0.22480618953704834 0.6589146852493286 0.16891935467720032
-0.22480618953704834 0.6589146852493286 0.2415422946214676
-0.22480618953704834 0.6589146852493286 0.26870888471603394
-0.22480618953704834 0.674418568611145 0.09571440517902374
-0.22480618953704834 0.674418568611145 0.168995201587677
-0.22480618953704834 0.674418568611145 0.24175262451171875
-0.22480618953704834 0.674418568611145 0.2680114507675171
-0.22480618953704834 0.6899224519729614 0.09662963449954987
-0.22480618953704834 0.6899224519729614 0.16950368881225586
-0.22480618953704834 0.6899224519729614 0.2411627322435379
-0.22480618953704834 0.6899224519729614 0.26802265644073486
-0.22480618953704834 0.7054263353347778 0.09803502261638641
-0.22480618953704834 0.7054263353347778 0.16960565745830536
-0.22480618953704834 0.7054263949394226 0.24159148335456848
-0.22480618953704834 0.7054263353347778 0.267344206571579
-0.22480618953704834 0.7209302186965942 0.09944706410169601
-0.22480618953704834 0.7209302186965942 0.16882753372192383
-0.22480618953704834 0.7209302186965942 0.2432575523853302
-0.22480618953704834 0.7209302186965942 0.2665739357471466
-0.22480618953704834 0.7364341020584106 0.1011287271976471
-0.22480618953704834 0.7364341020584106 0.16725581884384155
-0.22480618953704834 0.7364341020584106 0.24605514109134674
-0.22480618953704834 0.7364341020584106 0.2648155689239502
-0.22480618953704834 0.751937985420227 0.10479849576950073
-0.22480618953704834 0.751937985420227 0.16486433148384094
-0.22480618953704834 0.751937985420227 0.2501440644264221
-0.22480618953704834 0.751937985420227 0.26156702637672424
-0.22480618953704834 0.7674418687820435 0.1072610467672348
-0.22480618953704834 0.7674418687820435 0.1586177498102188
-0.22480618953704834 0.7674418687820435 0.2546689510345459
-0.22480618953704834 0.7674419283866882 0.25717365741729736
-0.22480618953704834 0.7829457521438599 0.10217876732349396
-0.22480618953704834 0.7829457521438599 0.15714134275913239
-0.22480618953704834 0.7984496355056763 -0.4592209458351135
-0.22480618953704834 0.7984496355056763 -0.43923288583755493
-0.22480618953704834 0.7984496355056763 0.08938642591238022
-0.22480618953704834 0.7984496355056763 0.17040178179740906
-0.22480618953704834 0.8139535188674927 -0.4607928693294525
-0.22480618953704834 0.8139535188674927 -0.42393630743026733
-0.22480618953704834 0.8139535188674927 0.01926158182322979
-0.22480618953704834 0.8139535188674927 0.18336951732635498
-0.22480618953704834 0.8294574022293091 -0.4607924222946167
-0.22480618953704834 0.8294574022293091 -0.42394837737083435
-0.22480618953704834 0.8294574022293091 -0.01891348324716091
-0.22480618953704834 0.8294574022293091 0.18973128497600555
-0.22480618953704834 0.8294574022293091 0.24317631125450134
-0.22480618953704834 0.8294574618339539 0.25834837555885315
-0.22480618953704834 0.8449612855911255 -0.4610682427883148
-0.22480618953704834 0.8449612855911255 -0.4254811704158783
-0.22480618953704834 0.8449612855911255 -0.021983008831739426
-0.22480618953704834 0.8449612855911255 0.19370310008525848
-0.22480618953704834 0.8449612855911255 0.23776176571846008
-0.22480618953704834 0.8449612855911255 0.26203471422195435
-0.22480618953704834 0.8604651689529419 -0.4613575041294098
-0.22480617463588715 0.8604651093482971 -0.4259644150733948
-0.22480618953704834 0.8604651689529419 -0.02198227494955063
-0.22480618953704834 0.8604651689529419 0.19761812686920166
-0.22480618953704834 0.8604651689529419 0.234551802277565
-0.22480618953704834 0.8604651689529419 0.2658132016658783
-0.22480618953704834 0.8759689331054688 -0.4630439281463623
-0.22480618953704834 0.8759689331054688 -0.42360514402389526
-0.22480618953704834 0.8759689331054688 -0.020717838779091835
-0.22480618953704834 0.8759689331054688 0.20072275400161743
-0.22480618953704834 0.8759689331054688 0.23112022876739502
-0.22480618953704834 0.8759689331054688 0.27085617184638977
-0.22480618953704834 0.8914728164672852 -0.017811892554163933
-0.22480618953704834 0.8914728164672852 0.20689105987548828
-0.22480618953704834 0.8914728164672852 0.2250683605670929
-0.22480620443820953 0.8914728164672852 0.27412980794906616
-0.22480618953704834 0.9069766998291016 -0.018227988854050636
-0.22480618953704834 0.9069766402244568 0.2758588194847107
-0.22480618953704834 0.922480583190918 -0.020116711035370827
-0.22480618953704834 0.9224805235862732 0.2767341732978821
-0.22480618953704834 0.9379844665527344 0.04185134172439575
-0.22480618953704834 0.9379844665527344 0.27767038345336914
-0.22480618953704834 0.9534883499145508 0.09359724819660187
-0.22480618953704834 0.953488290309906 0.2778848111629486
-0.22480617463588715 0.9689922332763672 0.11882832646369934
-0.22480618953704834 0.9689922332763672 0.27629679441452026
-0.22480618953704834 0.9844961166381836 0.14102177321910858
-0.22480618953704834 0.9844961166381836 0.2148425579071045
-0.20930230617523193 -0.9844961166381836 0.11249702423810959
-0.20930230617523193 -0.9844961166381836 0.21487993001937866
-0.20930230617523193 -0.9689922332763672 0.09747042506933212
-0.20930230617523193 -0.9689922332763672 0.23369228839874268
-0.20930230617523193 -0.9534883499145508 0.060932472348213196
-0.20930230617523193 -0.9534883499145508 0.2182627171278
-0.20930230617523193 -0.9379844665527344 -0.0028202279936522245
-0.20930230617523193 -0.9379844665527344 0.199163556098938
-0.20930230617523193 -0.9224807024002075 -0.026433823630213737
-0.20930230617523193 -0.9224806427955627 0.1880425214767456
-0.20930232107639313 -0.9069768190383911 -0.018828393891453743
-0.20930230617523193 -0.9069767594337463 0.18730786442756653
-0.20930230617523193 -0.8914728760719299 -0.4621129035949707
-0.20930230617523193 -0.8914728760719299 -0.423784464597702
-0.20930230617523193 -0.8914728760719299 -0.01691550575196743
-0.20930230617523193 -0.8914728760719299 0.1873757243156433
-0.20930230617523193 -0.8759689927101135 -0.4617895781993866
-0.20930230617523193 -0.8759689331054688 -0.4236869215965271
-0.20930230617523193 -0.8759690523147583 -0.017907993867993355
-0.20930230617523193 -0.8759689927101135 0.18700866401195526
-0.20930230617523193 -0.8604651093482971 -0.4611074924468994
-0.20930230617523193 -0.8604651689529419 -0.42216312885284424
-0.20930230617523193 -0.8604651093482971 -0.019970746710896492
-0.20930230617523193 -0.8604651093482971 0.18629559874534607
-0.20930230617523193 -0.8449612855911255 -0.4610443711280823
-0.20930230617523193 -0.8449612855911255 -0.4188319742679596
-0.20930230617523193 -0.8449611663818359 -0.018414225429296494
-0.20930230617523193 -0.8449612259864807 0.18644410371780396
-0.20930230617523193 -0.8294573426246643 -0.46106886863708496
-0.20930230617523193 -0.8294573426246643 -0.41854047775268555
-0.20930230617523193 -0.8294573426246643 -0.011414272710680962
-0.20930230617523193 -0.8294573426246643 0.18675285577774048
-0.20930230617523193 -0.8139535188674927 -0.4606887698173523
-0.20930230617523193 -0.8139535188674927 -0.4235052764415741
-0.20930230617523193 -0.8139535188674927 0.006104819476604462
-0.20930230617523193 -0.8139535188674927 0.18470220267772675
-0.20930230617523193 -0.7984496355056763 0.07953208684921265
-0.20930230617523193 -0.798449695110321 0.1803983449935913
-0.20930230617523193 -0.7829457521438599 0.08880884200334549
-0.20930230617523193 -0.7829457521438599 0.17447298765182495
-0.20930232107639313 -0.7674418687820435 0.09086766093969345
-0.20930230617523193 -0.7674418687820435 0.171912282705307
-0.20930230617523193 -0.751937985420227 0.08760688453912735
-0.20930230617523193 -0.751937985420227 0.1756071150302887
-0.20930230617523193 -0.7364341020584106 0.08492858707904816
-0.20930232107639313 -0.7364341020584106 0.17829859256744385
-0.20930230617523193 -0.7209302186965942 0.08424822241067886
-0.20930230617523193 -0.7209302186965942 0.17876318097114563
-0.20930230617523193 -0.7054263353347778 0.08378361165523529
-0.20930230617523193 -0.7054263353347778 0.1792544424533844
-0.20930230617523193 -0.6899224519729614 0.08342024683952332
-0.20930230617523193 -0.6899224519729614 0.17962290346622467
-0.20930230617523193 -0.674418568611145 0.08299405872821808
-0.20930230617523193 -0.674418568611145 0.1804421991109848
-0.20930230617523193 -0.6589146852493286 0.08218234777450562
-0.20930230617523193 -0.6589146852493286 0.18185219168663025
-0.20930230617523193 -0.643410861492157 0.08128950744867325
-0.20930230617523193 -0.643410861492157 0.1830768883228302
-0.20930230617523193 -0.6279069781303406 0.08045221120119095
-0.20930232107639313 -0.6279070377349854 0.18368104100227356
-0.20930230617523193 -0.6124030947685242 0.07958366721868515
-0.20930230617523193 -0.6124030947685242 0.1841253638267517
-0.20930230617523193 -0.5968992114067078 0.07904724776744843
-0.20930230617523193 -0.5968992114067078 0.1833948791027069
-0.20930230617523193 -0.5813953876495361 0.07886772602796555
-0.20930230617523193 -0.5813953876495361 0.18242670595645905
-0.20930230617523193 -0.5658915042877197 0.07872012257575989
-0.20930229127407074 -0.5658915042877197 0.18164418637752533
-0.20930230617523193 -0.5503876209259033 0.07905137538909912
-0.20930230617523193 -0.5503876209259033 0.1816023737192154
-0.20930230617523193 -0.5348837375640869 0.07984219491481781
-0.20930230617523193 -0.5348837375640869 0.18183821439743042
-0.20930230617523193 -0.5193798542022705 0.08053598552942276
-0.20930229127407074 -0.5193798542022705 0.18215201795101166
-0.20930230617523193 -0.5038759708404541 0.08099697530269623
-0.20930230617523193 -0.5038759708404541 0.18283692002296448
-0.20930230617523193 -0.4883720874786377 0.08090569823980331
-0.20930230617523193 -0.4883720874786377 0.183584064245224
-0.20930230617523193 -0.4728682041168213 0.08051982522010803
-0.20930230617523193 -0.4728682041168213 0.1848144233226776
-0.20930230617523193 -0.4573643207550049 0.07998600602149963
-0.20930230617523193 -0.4573643207550049 0.1862560659646988
-0.20930230617523193 -0.4418604373931885 0.07971785962581635
-0.20930230617523193 -0.4418604373931885 0.18774095177650452
-0.20930230617523193 -0.42635661363601685 0.07958933711051941
-0.20930230617523193 -0.42635661363601685 0.18870830535888672
-0.20930230617523193 -0.41085273027420044 0.08001735806465149
-0.20930230617523193 -0.41085273027420044 0.18948157131671906
-0.20930230617523193 -0.39534884691238403 0.08045752346515656
-0.20930230617523193 -0.39534884691238403 0.18937593698501587
-0.20930230617523193 -0.3798449635505676 0.0810328871011734
-0.20930230617523193 -0.3798449635505676 0.18894453346729279
-0.20930230617523193 -0.3643410801887512 0.08149714022874832
-0.20930230617523193 -0.3643410801887512 0.18858665227890015
-0.20930230617523193 -0.3488371968269348 0.08187282085418701
-0.20930230617523193 -0.3488371968269348 0.18820248544216156
-0.20930230617523193 -0.3333333134651184 0.08214536309242249
-0.20930230617523193 -0.3333333134651184 0.18820872902870178
-0.20930230617523193 -0.317829430103302 0.08229166269302368
-0.20930230617523193 -0.317829430103302 0.18877261877059937
-0.20930230617523193 -0.30232560634613037 0.08241540938615799
-0.20930230617523193 -0.30232560634613037 0.18907703459262848
-0.20930230617523193 -0.28682172298431396 0.0822962149977684
-0.20930230617523193 -0.28682172298431396 0.18988579511642456
-0.20930230617523193 -0.27131783962249756 0.08230795711278915
-0.20930230617523193 -0.27131783962249756 0.191139817237854
-0.20930230617523193 -0.25581395626068115 0.0822012722492218
-0.20930230617523193 -0.25581395626068115 0.19190095365047455
-0.20930230617523193 -0.24031007289886475 0.0822560042142868
-0.20930230617523193 -0.24031007289886475 0.19217745959758759
-0.20930230617523193 -0.22480618953704834 0.08240029960870743
-0.20930230617523193 -0.22480618953704834 0.1917618066072464
-0.20930230617523193 -0.20930230617523193 0.08287294954061508
-0.20930230617523193 -0.20930230617523193 0.19012439250946045
-0.20930230617523193 -0.19379842281341553 0.083450086414814
-0.20930230617523193 -0.19379842281341553 0.187773659825325
-0.20930230617523193 -0.1782945990562439 0.08383497595787048
-0.20930230617523193 -0.1782945990562439 0.18618270754814148
-0.20930230617523193 -0.1627907156944275 0.08419471979141235
-0.20930230617523193 -0.1627907156944275 0.18468861281871796
-0.20930230617523193 -0.14728683233261108 0.08462493121623993
-0.20930230617523193 -0.14728683233261108 0.18384359776973724
-0.20930230617523193 -0.13178294897079468 0.08476909250020981
-0.20930230617523193 -0.13178294897079468 0.1834227591753006
-0.20930230617523193 -0.11627906560897827 0.084726981818676
-0.20930230617523193 -0.11627906560897827 0.18319305777549744
-0.20930230617523193 -0.10077518224716187 0.0846530869603157
-0.20930230617523193 -0.10077518224716187 0.1830206960439682
-0.20930230617523193 -0.08527129888534546 0.08466994017362595
-0.20930230617523193 -0.08527129888534546 0.18342697620391846
-0.20930230617523193 -0.06976741552352905 0.08455400168895721
-0.20930230617523193 -0.06976741552352905 0.18398644030094147
-0.20930230617523193 -0.05426359176635742 0.08454395830631256
-0.20930230617523193 -0.05426359176635742 0.18411052227020264
-0.20930230617523193 -0.038759708404541016 0.08463434129953384
-0.20930230617523193 -0.038759708404541016 0.1841093897819519
-0.20930230617523193 -0.02325582504272461 0.08482582122087479
-0.20930230617523193 -0.02325582504272461 0.18402981758117676
-0.20930230617523193 -0.007751941680908203 0.08501822501420975
-0.20930230617523193 -0.007751941680908203 0.18381795287132263
-0.20930230617523193 0.007751941680908203 0.08503805845975876
-0.20930230617523193 0.007751941680908203 0.18341174721717834
-0.20930230617523193 0.02325582504272461 0.08521091938018799
-0.20930230617523193 0.02325582504272461 0.18345597386360168
-0.20930230617523193 0.038759708404541016 0.08509474992752075
-0.20930230617523193 0.038759708404541016 0.18364524841308594
-0.20930230617523193 0.05426359176635742 0.08487197756767273
-0.20930230617523193 0.05426359176635742 0.18396098911762238
-0.20930230617523193 0.06976747512817383 0.08443178981542587
-0.20930230617523193 0.06976747512817383 0.1844106912612915
-0.20930230617523193 0.08527135848999023 0.08419466018676758
-0.20930230617523193 0.08527135848999023 0.1850338727235794
-0.20930230617523193 0.10077524185180664 0.08372846245765686
-0.20930230617523193 0.10077524185180664 0.18614336848258972
-0.20930230617523193 0.11627912521362305 0.08318649232387543
-0.20930230617523193 0.11627912521362305 0.18784603476524353
-0.20930230617523193 0.1317828893661499 0.08270664513111115
-0.20930230617523193 0.1317828893661499 0.18945097923278809
-0.20930230617523193 0.1472867727279663 0.08230225741863251
-0.20930230617523193 0.1472867727279663 0.19106058776378632
-0.20930230617523193 0.16279065608978271 0.08190546184778214
-0.20930230617523193 0.16279065608978271 0.19165080785751343
-0.20930230617523193 0.17829453945159912 0.08163182437419891
-0.20930230617523193 0.17829453945159912 0.1901232898235321
-0.20930230617523193 0.19379842281341553 0.08171100914478302
-0.20930230617523193 0.19379842281341553 0.18876641988754272
-0.20930230617523193 0.20930230617523193 0.0815371721982956
-0.20930230617523193 0.20930230617523193 0.18840880692005157
-0.20930230617523193 0.22480618953704834 0.08139654994010925
-0.20930230617523193 0.22480618953704834 0.18846385180950165
-0.20930230617523193 0.24031007289886475 0.08140433579683304
-0.20930230617523193 0.24031007289886475 0.18864575028419495
-0.20930230617523193 0.25581395626068115 0.08132240176200867
-0.20930230617523193 0.25581395626068115 0.18891441822052002
-0.20930230617523193 0.27131783962249756 0.08108329027891159
-0.20930230617523193 0.27131783962249756 0.18891382217407227
-0.20930230617523193 0.28682172298431396 0.08086006343364716
-0.20930230617523193 0.28682172298431396 0.18920785188674927
-0.20930230617523193 0.30232560634613037 0.08056019991636276
-0.20930230617523193 0.30232560634613037 0.1900937259197235
-0.20930230617523193 0.3178294897079468 0.08028338104486465
-0.20930230617523193 0.3178294897079468 0.1916920244693756
-0.20930230617523193 0.3333333730697632 0.08015817403793335
-0.20930230617523193 0.3333333730697632 0.1921830177307129
-0.20930230617523193 0.3488372564315796 0.08036164939403534
-0.20930230617523193 0.3488372564315796 0.19170042872428894
-0.20930230617523193 0.364341139793396 0.08072473108768463
-0.20930230617523193 0.364341139793396 0.19002477824687958
-0.20930230617523193 0.37984490394592285 0.08139042556285858
-0.20930230617523193 0.37984490394592285 0.18791677057743073
-0.20930230617523193 0.39534878730773926 0.0816483199596405
-0.20930230617523193 0.39534878730773926 0.1862775683403015
-0.20930230617523193 0.41085267066955566 0.08170197159051895
-0.20930230617523193 0.41085267066955566 0.18535476922988892
-0.20930230617523193 0.42635655403137207 0.08148776739835739
-0.20930230617523193 0.42635655403137207 0.18483003973960876
-0.20930230617523193 0.4418604373931885 0.0811333954334259
-0.20930230617523193 0.4418604373931885 0.184353768825531
-0.20930230617523193 0.4573643207550049 0.08077656477689743
-0.20930230617523193 0.4573643207550049 0.18388527631759644
-0.20930230617523193 0.4728682041168213 0.08050559461116791
-0.20930230617523193 0.4728682041168213 0.18331342935562134
-0.20930230617523193 0.4883720874786377 0.08029276877641678
-0.20930230617523193 0.4883720874786377 0.18320119380950928
-0.20930230617523193 0.5038759708404541 0.08000509440898895
-0.20930230617523193 0.5038759708404541 0.1834607720375061
-0.20930230617523193 0.5193798542022705 0.08012609928846359
-0.20930230617523193 0.5193798542022705 0.18366384506225586
-0.20930230617523193 0.5348837375640869 0.08046003431081772
-0.20930230617523193 0.5348837375640869 0.18356290459632874
-0.20930230617523193 0.5503876209259033 0.08118313550949097
-0.20930230617523193 0.5503876209259033 0.1825626939535141
-0.20930230617523193 0.5658915042877197 0.08245611935853958
-0.20930230617523193 0.5658915042877197 0.18065015971660614
-0.20930230617523193 0.5813953876495361 0.0837777853012085
-0.20930232107639313 0.5813953876495361 0.1788448989391327
-0.20930230617523193 0.5968992710113525 0.08425769954919815
-0.20930230617523193 0.5968992710113525 0.17616954445838928
-0.20930230617523193 0.612403154373169 0.08460690081119537
-0.20930230617523193 0.612403154373169 0.17620976269245148
-0.20930232107639313 0.6279069185256958 0.08615730702877045
-0.20930230617523193 0.6279069185256958 0.17617167532444
-0.20930230617523193 0.6434108018875122 0.08856523036956787
-0.20930230617523193 0.6434108018875122 0.17639850080013275
-0.20930230617523193 0.6589146852493286 0.09076307713985443
-0.20930230617523193 0.6589146852493286 0.17590290307998657
-0.20930230617523193 0.674418568611145 0.09196107089519501
-0.20930230617523193 0.674418568611145 0.17637911438941956
-0.20930230617523193 0.6899224519729614 0.09292510151863098
-0.20930230617523193 0.6899224519729614 0.1777808666229248
-0.20930230617523193 0.7054263353347778 0.09431607276201248
-0.20930230617523193 0.7054262757301331 0.17839182913303375
-0.20930230617523193 0.7209302186965942 0.09583436697721481
-0.20930230617523193 0.7209302186965942 0.17816036939620972
-0.20930230617523193 0.7364341020584106 0.09765248745679855
-0.20930230617523193 0.7364341020584106 0.17591121792793274
-0.20930230617523193 0.751937985420227 0.09944549202919006
-0.20930230617523193 0.751937985420227 0.1716965287923813
-0.20930230617523193 0.7674418687820435 0.10067566484212875
-0.20930230617523193 0.7674418687820435 0.16607938706874847
-0.20930230617523193 0.7829457521438599 0.10044702142477036
-0.20930230617523193 0.7829457521438599 0.16339848935604095
-0.20930230617523193 0.7984496355056763 -0.45855772495269775
-0.20930230617523193 0.7984496355056763 -0.4441067576408386
-0.20930230617523193 0.7984496355056763 0.09473296999931335
-0.20930230617523193 0.7984496355056763 0.1684519350528717
-0.20930230617523193 0.8139535188674927 -0.46082258224487305
-0.20930230617523193 0.8139535188674927 -0.4230923056602478
-0.20930230617523193 0.8139535188674927 0.03839399665594101
-0.20930230617523193 0.8139535188674927 0.03894921764731407
-0.20930232107639313 0.8139535188674927 0.0756363719701767
-0.20930230617523193 0.8139535188674927 0.1799260526895523
-0.20930230617523193 0.8294574022293091 -0.4607633650302887
-0.20930230617523193 0.8294574022293091 -0.42252424359321594
-0.20930229127407074 0.8294574022293091 -0.036167874932289124
-0.20930230617523193 0.8294574022293091 0.18469911813735962
-0.20930230617523193 0.8449612855911255 -0.4609987139701843
-0.20930229127407074 0.8449612855911255 -0.42397475242614746
-0.20930230617523193 0.8449612855911255 -0.04890580475330353
-0.20930230617523193 0.8449612855911255 0.18841122090816498
-0.20930230617523193 0.8604651689529419 -0.46128049492836
-0.20930230617523193 0.8604651689529419 -0.42432552576065063
-0.20930230617523193 0.8604651689529419 -0.05260873958468437
-0.20930230617523193 0.8604651689529419 0.1920483559370041
-0.20930230617523193 0.8759689331054688 -0.46320539712905884
-0.20930230617523193 0.8759689331054688 -0.4210122525691986
-0.20930229127407074 0.8759689331054688 -0.05037931352853775
-0.20930230617523193 0.8759689331054688 0.19461524486541748
-0.20930230617523193 0.8914728164672852 -0.04222718998789787
-0.20930230617523193 0.8914728760719299 0.19733649492263794
-0.20930230617523193 0.9069766998291016 -0.04186725243926048
-0.20930230617523193 0.9069766998291016 0.20011243224143982
-0.20930230617523193 0.922480583190918 -0.02714502066373825
-0.20930230617523193 0.922480583190918 0.2024034857749939
-0.20930230617523193 0.9379844665527344 0.05417974665760994
-0.20930230617523193 0.9379844665527344 0.21510180830955505
-0.20930230617523193 0.9379844665527344 0.23983463644981384
-0.20930230617523193 0.9379844665527344 0.24099421501159668
-0.20930230617523193 0.9534883499145508 0.09373064339160919
-0.20930229127407074 0.9534883499145508 0.24473151564598083
-0.20930229127407074 0.9689922332763672 0.1167185828089714
-0.20930230617523193 0.9689922332763672 0.24167323112487793
-0.20930230617523193 0.9844961166381836 0.13525736331939697
-0.20930230617523193 0.9844961166381836 0.21720513701438904
-0.19379842281341553 -0.9844961166381836 0.12242933362722397
-0.19379842281341553 -0.9844961166381836 0.21424441039562225
-0.19379842281341553 -0.9689922332763672 0.10403594374656677
-0.19379842281341553 -0.9689922332763672 0.21911457180976868
-0.19379842281341553 -0.9534883499145508 0.0737125352025032
-0.19379842281341553 -0.9534883499145508 0.21433651447296143
-0.19379842281341553 -0.9379844665527344 -0.012760349549353123
-0.19379842281341553 -0.9379844069480896 0.19672290980815887
-0.19379842281341553 -0.9224806427955627 -0.07213610410690308
-0.19379842281341553 -0.922480583190918 0.18071897327899933
-0.19379842281341553 -0.9069767594337463 -0.07133643329143524
-0.19379842281341553 -0.9069767594337463 0.052968479692935944
-0.19379842281341553 -0.9069766998291016 0.08787126839160919
-0.19379842281341553 -0.9069768190383911 0.1808210015296936
-0.19379842281341553 -0.8914728760719299 -0.46221446990966797
-0.19379842281341553 -0.8914728164672852 -0.42265743017196655
-0.19379842281341553 -0.8914728760719299 -0.07196827232837677
-0.19379842281341553 -0.8914728164672852 0.03524306043982506
-0.19379842281341553 -0.8914728760719299 0.09381455183029175
-0.19379842281341553 -0.8914728760719299 0.1817186176776886
-0.19379842281341553 -0.8759689927101135 -0.4619003236293793
-0.19379842281341553 -0.8759690523147583 -0.42234933376312256
-0.19379842281341553 -0.8759689927101135 -0.07313095033168793
-0.19379842281341553 -0.8759690523147583 0.03450416028499603
-0.19379842281341553 -0.8759690523147583 0.09455306828022003
-0.19379842281341553 -0.8759689927101135 0.1814936250448227
-0.19379842281341553 -0.8604651093482971 -0.4611857235431671
-0.19379842281341553 -0.8604651689529419 -0.42015019059181213
-0.19379842281341553 -0.8604651689529419 -0.07477450370788574
-0.19379842281341553 -0.8604651093482971 0.04099777713418007
-0.19379842281341553 -0.8604650497436523 0.09225240349769592
-0.19379842281341553 -0.8604651689529419 0.18072082102298737
-0.19379842281341553 -0.8449612259864807 -0.46115410327911377
-0.19379842281341553 -0.8449612855911255 -0.41487157344818115
-0.19379842281341553 -0.8449612259864807 -0.07717309147119522
-0.19379842281341553 -0.8449612259864807 0.04624222218990326
-0.19379842281341553 -0.8449612259864807 0.08887650817632675
-0.19379843771457672 -0.8449612259864807 0.18024303019046783
-0.19379842281341553 -0.8294573426246643 -0.46119412779808044
-0.19379842281341553 -0.8294573426246643 -0.413377970457077
-0.19379842281341553 -0.8294573426246643 -0.07716606557369232
-0.19379842281341553 -0.8294573426246643 -0.03826222941279411
-0.19379842281341553 -0.8294573426246643 -0.01164991408586502
-0.19379842281341553 -0.8294573426246643 0.04533803090453148
-0.19379842281341553 -0.8294573426246643 0.08828213810920715
-0.19379842281341553 -0.8294573426246643 0.1793571412563324
-0.19379842281341553 -0.8139535188674927 -0.46088629961013794
-0.19379842281341553 -0.8139535188674927 -0.4206323027610779
-0.19379842281341553 -0.8139535188674927 0.011954796500504017
-0.19379842281341553 -0.8139535188674927 0.03261014446616173
-0.19379842281341553 -0.8139535188674927 0.0916723683476448
-0.19379842281341553 -0.8139535188674927 0.17589066922664642
-0.19379842281341553 -0.7984496355056763 0.0964631736278534
-0.19379842281341553 -0.7984496355056763 0.16951428353786469
-0.19379842281341553 -0.7829457521438599 0.09883402287960052
-0.19379842281341553 -0.7829457521438599 0.16523724794387817
-0.19379842281341553 -0.7674418687820435 0.09907480329275131
-0.19379840791225433 -0.7674418687820435 0.1636933982372284
-0.19379842281341553 -0.751937985420227 0.09727988392114639
-0.19379842281341553 -0.751937985420227 0.16617938876152039
-0.19379842281341553 -0.7364341020584106 0.0950726717710495
-0.19379842281341553 -0.7364341020584106 0.16811533272266388
-0.19379842281341553 -0.7209302186965942 0.09293985366821289
-0.19379842281341553 -0.7209302186965942 0.16922837495803833
-0.19379842281341553 -0.7054263353347778 0.09058371931314468
-0.19379842281341553 -0.7054263353347778 0.17018750309944153
-0.19379842281341553 -0.6899224519729614 0.08812059462070465
-0.19379842281341553 -0.6899224519729614 0.17068332433700562
-0.19379842281341553 -0.674418568611145 0.08520128577947617
-0.19379842281341553 -0.674418568611145 0.1720964014530182
-0.19379842281341553 -0.6589146852493286 0.08421662449836731
-0.19379842281341553 -0.6589146852493286 0.174758642911911
-0.19379842281341553 -0.643410861492157 0.08331828564405441
-0.19379842281341553 -0.643410861492157 0.17746832966804504
-0.19379842281341553 -0.6279069781303406 0.08263756334781647
-0.19379842281341553 -0.6279070377349854 0.17847461998462677
-0.19379842281341553 -0.6124030947685242 0.08208851516246796
-0.19379842281341553 -0.6124030947685242 0.17878083884716034
-0.19379842281341553 -0.5968992114067078 0.08182187378406525
-0.19379842281341553 -0.5968992114067078 0.1776130050420761
-0.19379842281341553 -0.5813953876495361 0.08169859647750854
-0.19379842281341553 -0.5813953876495361 0.17474177479743958
-0.19379842281341553 -0.5658915042877197 0.08145719021558762
-0.19379842281341553 -0.5658915042877197 0.1725727617740631
-0.19379842281341553 -0.5503876209259033 0.0816253125667572
-0.19379842281341553 -0.5503876209259033 0.17180868983268738
-0.19379842281341553 -0.5348837375640869 0.08196253329515457
-0.19379842281341553 -0.5348837375640869 0.17167407274246216
-0.19379842281341553 -0.5193798542022705 0.0821814239025116
-0.19379842281341553 -0.5193798542022705 0.17179596424102783
-0.19379842281341553 -0.5038759708404541 0.08219501376152039
-0.19379842281341553 -0.5038759708404541 0.17283189296722412
-0.19379842281341553 -0.4883720874786377 0.08182673901319504
-0.19379842281341553 -0.4883720874786377 0.17462819814682007
-0.19379842281341553 -0.4728682041168213 0.08128774166107178
-0.19379842281341553 -0.4728682041168213 0.17791223526000977
-0.19379842281341553 -0.4573643207550049 0.08058485388755798
-0.19379842281341553 -0.4573643207550049 0.17933033406734467
-0.19379842281341553 -0.4418604373931885 0.08005264401435852
-0.19379842281341553 -0.44186046719551086 0.18042445182800293
-0.19379842281341553 -0.42635661363601685 0.07970699667930603
-0.19379842281341553 -0.42635661363601685 0.18111325800418854
-0.19379842281341553 -0.41085273027420044 0.07988061010837555
-0.19379840791225433 -0.41085273027420044 0.1815759241580963
-0.19379842281341553 -0.39534884691238403 0.08014035224914551
-0.19379842281341553 -0.39534884691238403 0.18151253461837769
-0.19379842281341553 -0.3798449635505676 0.08053717762231827
-0.19379842281341553 -0.3798449635505676 0.18116837739944458
-0.19379842281341553 -0.3643410801887512 0.08074712008237839
-0.19379840791225433 -0.3643410801887512 0.18088726699352264
-0.19379842281341553 -0.3488371968269348 0.08087240904569626
-0.19379842281341553 -0.3488371968269348 0.18061058223247528
-0.19379842281341553 -0.3333333134651184 0.0809348076581955
-0.19379842281341553 -0.3333333134651184 0.1805824339389801
-0.19379842281341553 -0.317829430103302 0.08072281628847122
-0.19379842281341553 -0.317829430103302 0.18100103735923767
-0.19379842281341553 -0.30232560634613037 0.08047961443662643
-0.19379842281341553 -0.30232560634613037 0.18127956986427307
-0.19379842281341553 -0.28682172298431396 0.08006788790225983
-0.19379842281341553 -0.28682172298431396 0.18183553218841553
-0.19379842281341553 -0.27131783962249756 0.07975426316261292
-0.19379842281341553 -0.27131783962249756 0.18259143829345703
-0.19379842281341553 -0.25581395626068115 0.07931039482355118
-0.19379842281341553 -0.25581395626068115 0.18304461240768433
-0.19379842281341553 -0.24031007289886475 0.07910751551389694
-0.19379842281341553 -0.24031007289886475 0.18326647579669952
-0.19379842281341553 -0.22480618953704834 0.07934373617172241
-0.19379842281341553 -0.22480620443820953 0.1831233650445938
-0.19379842281341553 -0.20930230617523193 0.08003529906272888
-0.19379842281341553 -0.20930230617523193 0.1822558045387268
-0.19379842281341553 -0.19379842281341553 0.08065613359212875
-0.19379842281341553 -0.19379842281341553 0.18067939579486847
-0.19379842281341553 -0.1782945990562439 0.08108880370855331
-0.19379842281341553 -0.1782945990562439 0.17935553193092346
-0.19379842281341553 -0.1627907156944275 0.08167699724435806
-0.19379842281341553 -0.1627907156944275 0.17782345414161682
-0.19379842281341553 -0.14728683233261108 0.08219598233699799
-0.19379842281341553 -0.14728683233261108 0.17561045289039612
-0.19379842281341553 -0.13178294897079468 0.08239096403121948
-0.19379842281341553 -0.13178294897079468 0.17453499138355255
-0.19379842281341553 -0.11627906560897827 0.08254605531692505
-0.19379842281341553 -0.11627906560897827 0.17391201853752136
-0.19379842281341553 -0.10077518224716187 0.08247773349285126
-0.19379842281341553 -0.10077518224716187 0.17370598018169403
-0.19379842281341553 -0.08527129888534546 0.08248915523290634
-0.19379842281341553 -0.08527129888534546 0.17466044425964355
-0.19379842281341553 -0.06976741552352905 0.08233952522277832
-0.19379842281341553 -0.06976741552352905 0.17587244510650635
-0.19379842281341553 -0.05426359176635742 0.082343690097332
-0.19379842281341553 -0.05426359176635742 0.17608162760734558
-0.19379842281341553 -0.038759708404541016 0.0824393481016159
-0.19379842281341553 -0.038759708404541016 0.17575033009052277
-0.19379842281341553 -0.02325582504272461 0.08261435478925705
-0.19379842281341553 -0.02325582504272461 0.1751561462879181
