0.02325582504272461 0.2540346384048462 0.39534878730773926
0.02325582504272461 0.2580217719078064 0.22480618953704834
0.02325582504272461 0.26071733236312866 0.24031008780002594
0.02325582504272461 0.2640739977359772 0.41085267066955566
0.02325582504272461 0.2885701060295105 0.3178294897079468
0.02325582504272461 0.289535254240036 0.3333333730697632
0.02325582504272461 0.2896655201911926 0.3488372564315796
0.02325582504272461 0.28912097215652466 0.364341139793396
0.02325582504272461 0.2892671227455139 0.37984487414360046
0.02325582504272461 0.2908727824687958 0.39534878730773926
0.02325582504272461 0.29094865918159485 0.41085267066955566
0.038759708404541016 -0.35434451699256897 -0.05426359176635742
0.038759708404541016 -0.3553699254989624 -0.038759708404541016
0.038759708404541016 -0.2595418393611908 -0.06976741552352905
0.038759708404541016 -0.18574072420597076 -0.038759708404541016
0.038759708404541016 -0.17574724555015564 -0.06976741552352905
0.038759708404541016 -0.17516371607780457 -0.05426359176635742
0.038759708404541016 -0.1171964481472969 -0.06976741552352905
0.038759708404541016 -0.11819258332252502 -0.05426359176635742
0.038759708404541016 -0.1009671539068222 -0.038759708404541016
0.038759708404541016 0.010487064719200134 -0.038759708404541016
0.038759708404541016 0.13045409321784973 -0.038759708404541016
0.038759708404541016 0.1458343118429184 0.02325582504272461
0.038759708404541016 0.14558283984661102 0.038759708404541016
0.038759708404541016 0.14663811028003693 0.05426359176635742
0.038759708404541016 0.16265112161636353 -0.06976741552352905
0.038759708404541016 0.15944552421569824 -0.007751941680908203
0.038759708404541016 0.1510920375585556 0.007751941680908203
0.038759708404541016 0.15054278075695038 0.06976747512817383
0.038759708404541016 0.15482965111732483 0.08527135848999023
0.038759708404541016 0.15611660480499268 0.10077524185180664
0.038759708404541016 0.1599922925233841 0.11627912521362305
0.038759708404541016 0.1660574972629547 -0.05426359176635742
0.038759708404541016 0.16680729389190674 -0.038759708404541016
0.038759708404541016 0.16667217016220093 -0.007751941680908203
0.038759708404541016 0.17187151312828064 0.1317828893661499
0.038759708404541016 0.18234288692474365 0.007751941680908203
0.038759708404541016 0.19240839779376984 0.02325582504272461
0.038759708404541016 0.1835710108280182 0.1472867727279663
0.038759708404541016 0.19093365967273712 0.16279065608978271
0.038759708404541016 0.19156834483146667 0.17829453945159912
0.038759708404541016 0.19233915209770203 0.19379842281341553
0.038759708404541016 0.1934785693883896 0.20930230617523193
0.038759708404541016 0.19676747918128967 0.038759708404541016
0.038759708404541016 0.1986398696899414 0.05426358804106712
0.038759708404541016 0.19992421567440033 0.06976747512817383
0.038759708404541016 0.20240581035614014 0.08527135848999023
0.038759708404541016 0.20696547627449036 0.10077524185180664
0.038759708404541016 0.20713728666305542 0.1317828893661499
0.038759708404541016 0.20382165908813477 0.1472867727279663
0.038759708404541016 0.19924676418304443 0.22480618953704834
0.038759708404541016 0.2059953659772873 0.24031007289886475
0.038759712129831314 0.20947179198265076 0.11627912521362305
0.038759708404541016 0.21368390321731567 0.16279065608978271
0.038759708404541016 0.22854496538639069 0.17829453945159912
0.038759708404541016 0.24204875528812408 0.19379842281341553
0.038759708404541016 0.24881137907505035 0.20930230617523193
0.038759708404541016 0.2547566592693329 0.3178294897079468
0.038759708404541016 0.25277602672576904 0.3333333730697632
0.038759708404541016 0.25311726331710815 0.3488372564315796
0.038759708404541016 0.2540532648563385 0.364341139793396
0.038759708404541016 0.2540350556373596 0.37984490394592285
0.038759708404541016 0.25404074788093567 0.39534878730773926
0.038759708404541016 0.2582835257053375 0.22480618953704834
0.038759708404541016 0.26113080978393555 0.24031007289886475
0.038759708404541016 0.2638516426086426 0.41085267066955566
0.038759708404541016 0.2884506285190582 0.3178294897079468
0.038759708404541016 0.2894135117530823 0.3333333730697632
0.038759708404541016 0.289528489112854 0.348837286233902
0.038759708404541016 0.28899890184402466 0.364341139793396
0.038759708404541016 0.28915637731552124 0.37984490394592285
0.038759708404541016 0.29072993993759155 0.39534875750541687
0.038759708404541016 0.2909071445465088 0.41085267066955566
0.05426359176635742 -0.3543410897254944 -0.05426359176635742
0.05426359176635742 -0.35536956787109375 -0.038759708404541016
0.05426359176635742 -0.25883355736732483 -0.06976741552352905
0.05426359176635742 -0.18654072284698486 -0.038759708404541016
0.05426359176635742 -0.17598208785057068 -0.06976741552352905
0.05426359549164772 -0.17549188435077667 -0.05426359549164772
0.05426359176635742 -0.11703502386808395 -0.06976741552352905
0.05426359176635742 -0.11799906939268112 -0.05426359176635742
0.05426359176635742 -0.0992201715707779 -0.038759708404541016
0.05426359549164772 0.008779198862612247 -0.038759708404541016
0.05426359176635742 0.1317622810602188 -0.038759708404541016
0.05426359176635742 0.14592480659484863 0.02325582504272461
0.05426359176635742 0.14569434523582458 0.038759708404541016
0.05426359176635742 0.146776020526886 0.05426359176635742
0.05426359176635742 0.15987734496593475 -0.06976741552352905
0.05426359176635742 0.15972618758678436 -0.007751941680908203
0.05426359176635742 0.15142057836055756 0.00775194214656949
0.05426359176635742 0.15123611688613892 0.06976747512817383
0.05426359176635742 0.15519064664840698 0.08527135848999023
0.05426359176635742 0.15642839670181274 0.10077524185180664
0.05426359176635742 0.16026858985424042 0.11627912521362305
0.05426359176635742 0.1658555418252945 -0.05426359176635742
0.05426359176635742 0.1665872186422348 -0.038759708404541016
0.05426359176635742 0.16618552803993225 -0.007751941680908203
0.05426359176635742 0.17220333218574524 0.1317828893661499
0.05426359176635742 0.18206605315208435 0.007751941680908203
0.05426359176635742 0.19130782783031464 0.02325582504272461
0.05426359176635742 0.18410317599773407 0.1472867727279663
0.05426359176635742 0.1911214292049408 0.16279065608978271
0.05426359176635742 0.19165289402008057 0.17829453945159912
0.05426359176635742 0.19242244958877563 0.19379842281341553
0.05426359176635742 0.1936367303133011 0.20930230617523193
0.05426359176635742 0.19658254086971283 0.038759708404541016
0.05426359176635742 0.19844266772270203 0.05426359176635742
0.05426359176635742 0.19965746998786926 0.06976747512817383
0.05426359176635742 0.20192933082580566 0.08527135848999023
0.05426359176635742 0.20632587373256683 0.10077524185180664
0.05426359176635742 0.2090282142162323 0.11627912521362305
0.05426359176635742 0.20608124136924744 0.1317828893661499
0.05426359176635742 0.20294347405433655 0.1472867727279663
0.05426359176635742 0.1997501701116562 0.22480618953704834
0.05426359176635742 0.20623749494552612 0.24031007289886475
0.05426359176635742 0.21313738822937012 0.16279065608978271
0.05426359176635742 0.2283138930797577 0.17829453945159912
0.05426359176635742 0.24188761413097382 0.19379840791225433
0.05426359176635742 0.24861359596252441 0.20930230617523193
0.05426359176635742 0.25499778985977173 0.3178294897079468
0.05426359176635742 0.25296294689178467 0.3333333730697632
0.05426359176635742 0.25328946113586426 0.3488372564315796
0.05426359176635742 0.25417813658714294 0.364341139793396
0.05426359176635742 0.2541564702987671 0.37984490394592285
0.05426359176635742 0.2541287839412689 0.39534878730773926
0.05426358804106712 0.258198618888855 0.22480618953704834
0.05426359176635742 0.2610986828804016 0.24031007289886475
0.05426359176635742 0.26412877440452576 0.41085267066955566
0.05426359176635742 0.28824836015701294 0.3178294599056244
0.05426359176635742 0.2892501652240753 0.3333333730697632
0.05426359176635742 0.2893471121788025 0.3488372564315796
0.05426359176635742 0.2888321876525879 0.364341139793396
0.05426359176635742 0.2890186607837677 0.37984490394592285
0.05426359176635742 0.290609210729599 0.39534878730773926
0.05426359176635742 0.29077833890914917 0.41085267066955566
0.06976747512817383 -0.35434114933013916 -0.05426359176635742
0.06976747512817383 -0.35536259412765503 -0.038759708404541016
0.06976747512817383 -0.25819602608680725 -0.06976741552352905
0.06976747512817383 -0.1877233386039734 -0.038759708404541016
0.06976747512817383 -0.17644992470741272 -0.06976741552352905
0.06976747512817383 -0.17608146369457245 -0.05426359176635742
0.06976747512817383 -0.11665695905685425 -0.06976741552352905
0.06976747512817383 -0.11759009212255478 -0.05426359176635742
0.06976747512817383 -0.09594082832336426 -0.038759708404541016
0.06976747512817383 0.006751741282641888 -0.038759708404541016
0.06976747512817383 0.13301920890808105 -0.038759708404541016
0.06976747512817383 0.14616219699382782 0.02325582504272461
0.06976747512817383 0.1458713710308075 0.038759708404541016
0.06976747512817383 0.147003635764122 0.05426359176635742
0.06976747512817383 0.1575142741203308 -0.06976741552352905
0.06976747512817383 0.16085116565227509 -0.007751941680908203
0.06976747512817383 0.15288163721561432 0.007751941680908203
0.06976747512817383 0.152541384100914 0.06976747512817383
0.06976747512817383 0.15604335069656372 0.08527135848999023
0.06976747512817383 0.15711107850074768 0.10077524185180664
0.06976747512817383 0.16082298755645752 0.11627912521362305
0.06976747512817383 0.16548894345760345 -0.05426359176635742
0.06976747512817383 0.1662224978208542 -0.038759708404541016
0.06976747512817383 0.16485296189785004 -0.007751941680908203
0.06976747512817383 0.17290416359901428 0.1317828893661499
0.06976747512817383 0.1815205216407776 0.007751941680908203
0.06976747512817383 0.1893504410982132 0.02325582504272461
0.06976747512817383 0.1855633556842804 0.1472867727279663
0.06976747512817383 0.19168402254581451 0.16279065608978271
0.06976747512817383 0.19190067052841187 0.17829453945159912
0.06976747512817383 0.19259127974510193 0.19379842281341553
0.06976747512817383 0.19604726135730743 0.038759708404541016
0.06976747512817383 0.19780196249485016 0.05426359176635742
0.06976747512817383 0.19887185096740723 0.06976747512817383
0.06976747512817383 0.20088201761245728 0.08527135848999023
0.06976747512817383 0.20505154132843018 0.10077524185180664
0.06976747512817383 0.20710845291614532 0.11627912521362305
0.06976747512817383 0.2040008306503296 0.1317828893661499
0.06976747512817383 0.20104584097862244 0.1472867727279663
0.06976747512817383 0.19423949718475342 0.20930230617523193
0.06976747512817383 0.20054322481155396 0.22480618953704834
0.06976747512817383 0.2067672610282898 0.24031007289886475
0.06976747512817383 0.2119956761598587 0.16279064118862152
0.06976747512817383 0.2277202606201172 0.17829453945159912
0.06976746767759323 0.2412642389535904 0.19379842281341553
0.06976747512817383 0.24757227301597595 0.20930230617523193
0.06976747512817383 0.2552470564842224 0.3178294897079468
0.06976747512817383 0.2531290650367737 0.3333333730697632
0.06976747512817383 0.2534431517124176 0.3488372564315796
0.06976747512817383 0.25431761145591736 0.364341139793396
0.06976747512817383 0.2543795108795166 0.37984490394592285
0.06976747512817383 0.2544592618942261 0.39534878730773926
0.06976747512817383 0.25756826996803284 0.22480618953704834
0.06976747512817383 0.2604284882545471 0.24031007289886475
0.06976747512817383 0.2654457092285156 0.41085267066955566
0.06976747512817383 0.28814953565597534 0.3178294897079468
0.06976747512817383 0.289182186126709 0.3333333730697632
0.06976747512817383 0.28924790024757385 0.3488372564315796
0.06976747512817383 0.2887187600135803 0.364341139793396
0.06976747512817383 0.2889082133769989 0.37984490394592285
0.06976747512817383 0.29050546884536743 0.39534878730773926
0.06976747512817383 0.2905118465423584 0.41085267066955566
0.08527135848999023 -0.3544004559516907 -0.05426359176635742
0.08527135848999023 -0.35547173023223877 -0.038759708404541016
0.08527135848999023 -0.2582049071788788 -0.06976741552352905
0.08527135848999023 -0.1880016028881073 -0.038759708404541016
0.08527135848999023 -0.17655834555625916 -0.06976741552352905
0.08527135848999023 -0.17627151310443878 -0.05426359176635742
0.08527135848999023 -0.11658252775669098 -0.06976741552352905
0.08527135848999023 -0.1175006702542305 -0.05426359176635742
0.08527135848999023 -0.09534081816673279 -0.038759708404541016
0.08527135848999023 0.005788952112197876 -0.038759708404541016
0.08527135848999023 0.11468500643968582 -0.06976741552352905
0.08527136594057083 0.12010499089956284 -0.06976741552352905
0.08527135848999023 0.1340213268995285 -0.038759708404541016
0.08527135848999023 0.14639414846897125 0.02325582504272461
0.08527135848999023 0.1461312621831894 0.038759708404541016
0.08527135848999023 0.15649355947971344 -0.06976741552352905
0.08527135848999023 0.16185493767261505 -0.007751941680908203
0.08527135848999023 0.15398317575454712 0.007751941680908203
0.08527135848999023 0.14735199511051178 0.05426359176635742
0.08527135848999023 0.1536511778831482 0.06976747512817383
0.08527135848999023 0.156765416264534 0.08527135848999023
0.08527135848999023 0.15769952535629272 0.10077524185180664
0.08527135848999023 0.16125307977199554 0.11627912521362305
0.08527136594057083 0.16526846587657928 -0.05426359176635742
0.08527135848999023 0.16594251990318298 -0.038759708404541016
0.08527135848999023 0.16384844481945038 -0.007751941680908203
0.08527135848999023 0.1733400821685791 0.1317828893661499
0.08527135848999023 0.18128222227096558 0.007751941680908203
0.08527135848999023 0.18845131993293762 0.02325582504272461
0.08527135848999023 0.1862761527299881 0.1472867727279663
0.08527135848999023 0.19200652837753296 0.16279065608978271
0.08527135848999023 0.1920374631881714 0.17829453945159912
0.08527135848999023 0.19267110526561737 0.19379842281341553
0.08527135848999023 0.19571048021316528 0.038759708404541016
0.08527135848999023 0.1973477005958557 0.05426359176635742
0.08527135848999023 0.19828912615776062 0.06976747512817383
0.08527135848999023 0.20014095306396484 0.08527135848999023
0.08527135848999023 0.20413939654827118 0.10077524185180664
0.08527135848999023 0.20598360896110535 0.11627912521362305
0.08527135848999023 0.2029978632926941 0.1317828893661499
0.08527135848999023 0.20015168190002441 0.1472867727279663
0.08527135848999023 0.19487491250038147 0.20930230617523193
0.08527135848999023 0.2009587585926056 0.22480618953704834
0.08527135848999023 0.20698460936546326 0.24031007289886475
0.08527135848999023 0.21140217781066895 0.16279065608978271
0.08527135848999023 0.22745054960250854 0.17829453945159912
0.08527135848999023 0.24097146093845367 0.19379842281341553
0.08527135848999023 0.247210294008255 0.20930230617523193
0.08527135848999023 0.2553632855415344 0.3178294897079468
0.08527135848999023 0.25320112705230713 0.3333333730697632
0.08527135848999023 0.2535092532634735 0.3488372564315796
0.08527135848999023 0.25439512729644775 0.364341139793396
0.08527135848999023 0.25451189279556274 0.37984490394592285
0.08527135848999023 0.25467464327812195 0.39534878730773926
0.08527135848999023 0.2574084401130676 0.22480618953704834
0.08527135848999023 0.2604813873767853 0.24031007289886475
0.08527135848999023 0.2659894526004791 0.41085267066955566
0.08527135848999023 0.28814950585365295 0.3178294897079468
0.08527135848999023 0.2891240417957306 0.3333333730697632
0.08527136594057083 0.28917115926742554 0.3488372564315796
0.08527135848999023 0.28865084052085876 0.364341139793396
0.08527135848999023 0.28884950280189514 0.37984490394592285
0.08527135103940964 0.29044029116630554 0.39534878730773926
0.08527135848999023 0.2903812527656555 0.41085267066955566
0.10077524185180664 -0.35442858934402466 -0.05426359176635742
0.10077524185180664 -0.35547691583633423 -0.038759708404541016
0.10077524185180664 -0.258384108543396 -0.06976741552352905
0.10077524185180664 -0.18815326690673828 -0.038759708404541016
0.10077524185180664 -0.17648202180862427 -0.06976741552352905
0.10077523440122604 -0.17620673775672913 -0.05426359176635742
0.10077524185180664 -0.1165509819984436 -0.06976741552352905
0.10077524185180664 -0.11741240322589874 -0.05426359176635742
0.10077524185180664 -0.09399394690990448 -0.038759708404541016
0.10077524185180664 -0.05674745887517929 -0.038759708404541016
0.10077524185180664 -0.04732771962881088 -0.038759708404541016
0.10077524185180664 0.0031002117320895195 -0.038759708404541016
0.10077524185180664 0.11401627957820892 -0.06976741552352905
0.10077524185180664 0.1225098967552185 -0.06976741552352905
0.10077524185180664 0.1347174197435379 -0.038759708404541016
0.10077524185180664 0.1463916301727295 0.02325582504272461
0.10077524185180664 0.1460798978805542 0.038759708404541016
0.10077524185180664 0.14724664390087128 0.05426359176635742
0.10077524185180664 0.15552601218223572 -0.06976741552352905
0.10077524185180664 0.1625080108642578 -0.007751941680908203
0.10077524185180664 0.1542418897151947 0.007751941680908203
0.10077524185180664 0.15364772081375122 0.06976747512817383
0.10077524185180664 0.1568729728460312 0.08527135848999023
0.10077524185180664 0.15780292451381683 0.10077524185180664
0.10077524185180664 0.16125762462615967 0.11627912521362305
0.10077524185180664 0.16514872014522552 -0.05426359176635742
0.10077524185180664 0.16574141383171082 -0.038759708404541016
0.10077524185180664 0.1631089150905609 -0.007751941680908203
0.10077524185180664 0.17330047488212585 0.1317828893661499
0.10077524185180664 0.1810990869998932 0.007751941680908203
0.10077524185180664 0.18794280290603638 0.02325582504272461
0.10077524185180664 0.1860884428024292 0.1472867727279663
0.10077524185180664 0.1920548379421234 0.16279065608978271
0.10077524185180664 0.192001610994339 0.17829453945159912
0.10077524185180664 0.19255581498146057 0.19379842281341553
0.10077524930238724 0.19547545909881592 0.038759708404541016
0.10077524185180664 0.19705089926719666 0.05426359176635742
0.10077524185180664 0.19789846241474152 0.06976747512817383
0.10077524930238724 0.19964122772216797 0.08527135848999023
0.10077524185180664 0.2034721076488495 0.10077524185180664
0.10077524185180664 0.20517387986183167 0.11627912521362305
0.10077524185180664 0.20229093730449677 0.1317828893661499
0.10077524185180664 0.19960534572601318 0.1472867727279663
0.10077524185180664 0.1939762532711029 0.20930230617523193
0.10077524185180664 0.20076176524162292 0.22480618953704834
0.10077524185180664 0.20703163743019104 0.24031007289886475
0.10077524185180664 0.2109440118074417 0.16279065608978271
0.10077524930238724 0.22720947861671448 0.17829453945159912
0.10077524185180664 0.24071967601776123 0.19379842281341553
0.10077524185180664 0.24694973230361938 0.20930230617523193
0.10077524185180664 0.2552604377269745 0.3178294897079468
0.10077524185180664 0.2531318962574005 0.3333333730697632
0.10077524185180664 0.25346019864082336 0.3488372564315796
0.10077524185180664 0.25438156723976135 0.364341139793396
0.10077524185180664 0.25453099608421326 0.37984490394592285
0.10077524185180664 0.2547079920768738 0.39534878730773926
0.10077524185180664 0.25733229517936707 0.22480618953704834
0.10077524185180664 0.2605980634689331 0.24031007289886475
0.10077524185180664 0.2660045623779297 0.41085267066955566
0.10077524185180664 0.2882761061191559 0.3178294897079468
0.10077524185180664 0.28924357891082764 0.3333333730697632
0.10077524185180664 0.28929591178894043 0.348837286233902
0.10077524185180664 0.2887726128101349 0.364341139793396
0.10077524185180664 0.2889646291732788 0.37984490394592285
0.10077524185180664 0.2905935049057007 0.39534878730773926
0.10077524185180664 0.29053443670272827 0.41085270047187805
0.11627912521362305 -0.35442811250686646 -0.05426359176635742
0.11627912521362305 -0.35542958974838257 -0.038759708404541016
0.11627912521362305 -0.256647527217865 -0.06976741552352905
0.11627912521362305 -0.18825918436050415 -0.038759708404541016
0.11627912521362305 -0.17648564279079437 -0.06976741552352905
0.11627912521362305 -0.1761949062347412 -0.05426359176635742
0.11627912521362305 -0.11692915111780167 -0.05426359176635742
0.11627912521362305 -0.11443562060594559 -0.06976741552352905
0.11627912521362305 -0.09126363694667816 -0.038759708404541016
0.11627912521362305 -0.061103686690330505 -0.038759708404541016
0.11627912521362305 -0.03939344361424446 -0.038759708404541016
0.11627912521362305 0.0008429810404777527 -0.038759708404541016
0.11627912521362305 0.11008640378713608 -0.06976741552352905
0.11627913266420364 0.13232256472110748 -0.06976741552352905
0.11627912521362305 0.13421884179115295 -0.038759708404541016
0.11627912521362305 0.1463068127632141 0.02325582504272461
0.11627912521362305 0.14591921865940094 0.038759708404541016
0.11627912521362305 0.1470094919204712 0.05426359176635742
0.11627912521362305 0.15405017137527466 -0.06976741552352905
0.11627912521362305 0.16246865689754486 -0.007751941680908203
0.11627912521362305 0.15401995182037354 0.007751941680908203
0.11627912521362305 0.1530316174030304 0.06976747512817383
0.11627912521362305 0.1565629094839096 0.08527135848999023
0.11627912521362305 0.15755444765090942 0.10077524185180664
0.11627912521362305 0.16106460988521576 0.11627912521362305
0.11627912521362305 0.16506877541542053 -0.05426359176635742
0.11627912521362305 0.16569262742996216 -0.038759708404541016
0.11627913266420364 0.16313916444778442 -0.007751941680908203
0.11627912521362305 0.17313715815544128 0.1317828893661499
0.11627912521362305 0.18104147911071777 0.007751941680908203
0.11627912521362305 0.18797673285007477 0.02325582504272461
0.11627912521362305 0.1858278214931488 0.1472867727279663
0.11627912521362305 0.19201049208641052 0.16279065608978271
0.11627912521362305 0.19197127223014832 0.17829453945159912
0.11627912521362305 0.192522794008255 0.19379842281341553
0.11627912521362305 0.19547203183174133 0.03875970467925072
0.11627912521362305 0.197097510099411 0.05426359176635742
0.11627912521362305 0.19796589016914368 0.06976747512817383
0.11627912521362305 0.1997731328010559 0.08527135848999023
0.11627912521362305 0.20362389087677002 0.10077524185180664
0.11627912521362305 0.20519401133060455 0.11627912521362305
0.11627912521362305 0.2021733671426773 0.1317828893661499
0.11627912521362305 0.19949033856391907 0.1472867727279663
0.11627913266420364 0.19391770660877228 0.20930230617523193
0.11627912521362305 0.20076334476470947 0.22480618953704834
0.11627912521362305 0.207195445895195 0.24031007289886475
0.11627912521362305 0.2108248919248581 0.16279065608978271
0.11627912521362305 0.22710677981376648 0.17829453945159912
0.11627912521362305 0.24046897888183594 0.19379842281341553
0.11627912521362305 0.24652734398841858 0.20930230617523193
0.11627912521362305 0.2552950382232666 0.3178294897079468
0.11627912521362305 0.253169447183609 0.3333333730697632
0.11627912521362305 0.25350138545036316 0.3488372564315796
0.11627912521362305 0.2544457018375397 0.364341139793396
0.11627912521362305 0.2546336054801941 0.37984490394592285
0.11627912521362305 0.25481998920440674 0.39534878730773926
0.11627912521362305 0.25697049498558044 0.22480618953704834
0.11627912521362305 0.2602367699146271 0.24031007289886475
0.11627912521362305 0.26621609926223755 0.41085267066955566
0.11627912521362305 0.2883763909339905 0.3178294897079468
0.11627912521362305 0.28940457105636597 0.3333333730697632
0.11627912521362305 0.28946954011917114 0.3488372564315796
0.11627912521362305 0.28892940282821655 0.364341139793396
0.11627912521362305 0.2891025245189667 0.37984490394592285
0.11627912521362305 0.2907918691635132 0.39534878730773926
0.11627913266420364 0.29072505235671997 0.41085267066955566
0.1317828893661499 -0.35438454151153564 -0.05426359176635742
0.1317828893661499 -0.3554065227508545 -0.038759708404541016
0.1317828893661499 -0.25668442249298096 -0.06976741552352905
0.1317828893661499 -0.18779559433460236 -0.038759708404541016
0.1317828893661499 -0.17612363398075104 -0.06976741552352905
0.1317828893661499 -0.1757946014404297 -0.05426359176635742
0.1317828893661499 -0.11672470718622208 -0.05426359176635742
0.1317828893661499 -0.1131829172372818 -0.06976741552352905
0.1317828893661499 -0.09055840969085693 -0.038759708404541016
0.1317828893661499 -0.0627269595861435 -0.038759708404541016
0.1317828893661499 -0.038108956068754196 -0.038759708404541016
0.1317828893661499 0.00026025157421827316 -0.038759708404541016
0.1317828893661499 0.10983681678771973 -0.06976741552352905
0.1317828893661499 0.13225899636745453 -0.06976740807294846
0.1317828893661499 0.13289782404899597 -0.038759708404541016
0.1317828893661499 0.146192729473114 0.02325582504272461
0.1317828893661499 0.1457994282245636 0.038759708404541016
0.1317828893661499 0.14683230221271515 0.05426359176635742
0.1317828893661499 0.1544160544872284 -0.06976741552352905
0.1317828893661499 0.16234542429447174 -0.007751941680908203
0.1317828893661499 0.15352442860603333 0.007751941680908203
0.1317828893661499 0.15233348309993744 0.06976747512817383
0.1317828893661499 0.15623246133327484 0.08527135848999023
0.1317828893661499 0.1573401540517807 0.10077524185180664
0.1317828893661499 0.1608562171459198 0.11627912521362305
0.1317828893661499 0.16520844399929047 -0.05426359176635742
0.1317828893661499 0.16581761837005615 -0.038759708404541016
0.1317828744649887 0.16327674686908722 -0.007751941215246916
0.1317828893661499 0.17280210554599762 0.1317828893661499
0.1317828893661499 0.18127641081809998 0.007751941680908203
0.1317828893661499 0.18878096342086792 0.02325582504272461
0.1317828893661499 0.18461266160011292 0.1472867727279663
0.1317828893661499 0.191587433218956 0.16279065608978271
0.1317828893661499 0.1917933076620102 0.17829453945159912
0.1317828893661499 0.19238093495368958 0.19379842281341553
0.1317828893661499 0.19367648661136627 0.20930230617523193
0.1317828893661499 0.19579218327999115 0.038759708404541016
0.1317828893661499 0.19750180840492249 0.05426359176635742
0.1317828893661499 0.19843770563602448 0.06976747512817383
0.1317828893661499 0.20029033720493317 0.08527135848999023
0.1317828893661499 0.20429790019989014 0.10077524185180664
0.1317828893661499 0.20598404109477997 0.11627912521362305
0.1317828893661499 0.20294189453125 0.1317828893661499
0.1317828893661499 0.2002025544643402 0.1472867727279663
0.1317828893661499 0.20045693218708038 0.22480618953704834
0.1317828893661499 0.20695573091506958 0.24031007289886475
0.1317828893661499 0.21146951615810394 0.16279065608978271
0.1317828893661499 0.22748467326164246 0.17829453945159912
0.1317828893661499 0.24078352749347687 0.19379842281341553
0.1317828893661499 0.24689647555351257 0.20930230617523193
0.1317828893661499 0.2550603151321411 0.3178294897079468
0.1317828893661499 0.25303593277931213 0.3333333730697632
0.1317828893661499 0.25341352820396423 0.3488372564315796
0.1317828893661499 0.2544238567352295 0.364341139793396
0.1317828893661499 0.2546268701553345 0.37984490394592285
0.1317828893661499 0.2547646462917328 0.39534878730773926
0.1317828893661499 0.2574022710323334 0.22480617463588715
0.1317828893661499 0.26110467314720154 0.24031007289886475
0.1317828893661499 0.26584920287132263 0.41085267066955566
0.1317828893661499 0.2885412275791168 0.3178294897079468
0.1317828893661499 0.2895854115486145 0.3333333730697632
0.1317828893661499 0.28967538475990295 0.3488372564315796
0.1317828893661499 0.2891283929347992 0.364341139793396
0.1317828893661499 0.2892712354660034 0.37984490394592285
0.1317828893661499 0.2910267114639282 0.39534878730773926
0.1317828893661499 0.29102978110313416 0.41085267066955566
0.1472867727279663 -0.3543514013290405 -0.05426359176635742
0.1472867727279663 -0.3554108142852783 -0.038759708404541016
0.1472867727279663 -0.25696617364883423 -0.06976741552352905
0.1472867727279663 -0.18714256584644318 -0.038759708404541016
0.1472867727279663 -0.1758718639612198 -0.06976741552352905
0.1472867727279663 -0.1754978597164154 -0.05426359176635742
0.1472867727279663 -0.11667601764202118 -0.05426359176635742
0.1472867727279663 -0.11294091492891312 -0.06976741552352905
0.1472867727279663 -0.09131264686584473 -0.038759708404541016
0.1472867727279663 -0.06184247136116028 -0.038759708404541016
0.1472867727279663 -0.03904450312256813 -0.038759708404541016
0.1472867727279663 0.0004563871771097183 -0.038759708404541016
0.1472867727279663 0.11020247638225555 -0.06976741552352905
0.1472867727279663 0.13172504305839539 -0.06976741552352905
0.1472867727279663 0.1314673274755478 -0.038759708404541016
0.1472867727279663 0.14590400457382202 0.02325582504272461
0.1472867727279663 0.1454443335533142 0.038759708404541016
0.1472867727279663 0.14650893211364746 0.05426359176635742
0.1472867727279663 0.15508690476417542 -0.06976741552352905
0.1472867727279663 0.16218779981136322 -0.007751941680908203
0.1472867727279663 0.15239351987838745 0.007751941680908203
0.1472867727279663 0.15115980803966522 0.06976747512817383
0.1472867727279663 0.15581534802913666 0.08527135848999023
0.1472867727279663 0.15711870789527893 0.10077524185180664
0.1472867727279663 0.16066397726535797 0.11627912521362305
0.1472867727279663 0.16537189483642578 -0.05426359176635742
0.1472867727279663 0.16594621539115906 -0.038759708404541016
0.1472867727279663 0.16344985365867615 -0.007751941680908203
0.1472867727279663 0.1724790334701538 0.1317828893661499
0.1472867727279663 0.18159355223178864 0.007751941680908203
0.1472867727279663 0.189919114112854 0.02325582504272461
0.1472867727279663 0.18339169025421143 0.1472867727279663
0.1472867727279663 0.19115346670150757 0.16279065608978271
0.1472867727279663 0.1915832757949829 0.17829453945159912
0.1472867727279663 0.19219045341014862 0.19379842281341553
0.1472867727279663 0.19345484673976898 0.20930230617523193
0.1472867727279663 0.19618487358093262 0.038759708404541016
0.1472867727279663 0.19795610010623932 0.05426359176635742
0.1472867727279663 0.19893908500671387 0.06976747512817383
0.1472867727279663 0.2008843719959259 0.08527135848999023
0.1472867727279663 0.20500893890857697 0.10077524185180664
0.1472867727279663 0.20692706108093262 0.11627912521362305
0.1472867727279663 0.2038775235414505 0.1317828893661499
0.1472867727279663 0.20108965039253235 0.1472867727279663
0.1472867727279663 0.19992059469223022 0.22480618953704834
0.1472867727279663 0.20655417442321777 0.24031007289886475
0.1472867727279663 0.21234650909900665 0.16279065608978271
0.1472867727279663 0.2279725968837738 0.17829453945159912
0.1472867727279663 0.24122709035873413 0.19379842281341553
0.1472867727279663 0.2475055754184723 0.20930230617523193
0.1472867727279663 0.25474435091018677 0.3178294897079468
0.1472867727279663 0.25280413031578064 0.3333333730697632
0.1472867727279663 0.25323790311813354 0.3488372564315796
0.1472867727279663 0.2543315887451172 0.364341139793396
0.1472867727279663 0.2545580565929413 0.37984490394592285
0.1472867727279663 0.2546570599079132 0.39534878730773926
0.1472867727279663 0.2579241991043091 0.22480618953704834
0.1472867727279663 0.26200342178344727 0.24031007289886475
0.1472867727279663 0.26527005434036255 0.41085267066955566
0.1472867727279663 0.2887139320373535 0.3178294897079468
0.1472867727279663 0.28975141048431396 0.3333333730697632
0.1472867727279663 0.289867639541626 0.3488372564315796
0.1472867727279663 0.28931736946105957 0.364341139793396
0.1472867727279663 0.2894202470779419 0.37984490394592285
0.1472867727279663 0.2912108898162842 0.39534878730773926
0.1472867727279663 0.2912803590297699 0.41085270047187805
0.16279065608978271 -0.35437679290771484 -0.05426359176635742
0.16279065608978271 -0.35539087653160095 -0.038759708404541016
0.16279065608978271 -0.25688058137893677 -0.06976741552352905
0.16279065608978271 -0.18710526823997498 -0.038759708404541016
0.16279065608978271 -0.17604513466358185 -0.06976741552352905
0.16279065608978271 -0.1756812334060669 -0.05426359176635742
0.16279065608978271 -0.11651039868593216 -0.05426359176635742
0.16279065608978271 -0.11191917955875397 -0.06976741552352905
0.16279065608978271 -0.09174597263336182 -0.038759708404541016
0.16279065608978271 -0.06140460819005966 -0.038759708404541016
0.16279065608978271 -0.04055020213127136 -0.038759708404541016
0.16279065608978271 0.0007492676377296448 -0.038759708404541016
0.16279065608978271 0.11055652797222137 -0.06976741552352905
0.16279065608978271 0.13124042749404907 -0.06976741552352905
0.16279065608978271 0.13050688803195953 -0.038759708404541016
0.16279065608978271 0.1458096206188202 0.02325582504272461
0.16279065608978271 0.1452985405921936 0.038759708404541016
0.16279065608978271 0.1463305652141571 0.05426359176635742
0.16279065608978271 0.15551701188087463 -0.06976741552352905
0.16279065608978271 0.16202585399150848 -0.007751941680908203
0.16279065608978271 0.15198363363742828 0.00775194214656949
0.16279065608978271 0.15051396191120148 0.06976747512817383
0.16279065608978271 0.15563422441482544 0.08527135848999023
0.16279065608978271 0.15706130862236023 0.10077524185180664
0.16279065608978271 0.1606040745973587 0.11627912521362305
0.16279065608978271 0.16542033851146698 -0.05426359176635742
0.16279065608978271 0.1660081148147583 -0.038759708404541016
0.16279065608978271 0.1636177897453308 -0.007751941680908203
0.16279065608978271 0.17240244150161743 0.1317828893661499
0.16279065608978271 0.1818055659532547 0.007751941680908203
0.16279065608978271 0.19077174365520477 0.02325582504272461
0.16279065608978271 0.1829461008310318 0.1472867727279663
0.16279065608978271 0.19096757471561432 0.16279065608978271
0.16279065608978271 0.1914391815662384 0.17829453945159912
0.16279065608978271 0.1919938176870346 0.19379842281341553
0.16279065608978271 0.19317401945590973 0.20930230617523193
0.1627906709909439 0.19642773270606995 0.038759708404541016
0.16279065608978271 0.19821861386299133 0.05426359176635742
0.16279065608978271 0.1991981714963913 0.06976747512817383
0.16279065608978271 0.2011849284172058 0.08527135848999023
0.16279065608978271 0.20530575513839722 0.10077524185180664
0.16279065608978271 0.20721644163131714 0.11627912521362305
0.16279065608978271 0.2040574848651886 0.1317828893661499
0.16279065608978271 0.20131465792655945 0.1472867727279663
0.16279065608978271 0.19922462105751038 0.22480618953704834
0.16279065608978271 0.20627564191818237 0.24031007289886475
0.16279065608978271 0.21269625425338745 0.16279065608978271
0.16279065608978271 0.22815485298633575 0.17829453945159912
0.16279065608978271 0.24133048951625824 0.19379843771457672
0.16279065608978271 0.2476031482219696 0.20930230617523193
0.16279065608978271 0.2545456886291504 0.3178294897079468
0.16279065608978271 0.2526414692401886 0.3333333730697632
0.16279065608978271 0.2531161308288574 0.3488372564315796
0.16279065608978271 0.254276841878891 0.364341139793396
0.16279065608978271 0.254544198513031 0.37984490394592285
0.16279065608978271 0.25469470024108887 0.39534878730773926
0.16279065608978271 0.25792592763900757 0.22480617463588715
0.16279065608978271 0.26202672719955444 0.24031007289886475
0.16279065608978271 0.26531434059143066 0.41085267066955566
0.16279065608978271 0.28897103667259216 0.3178294897079468
0.16279065608978271 0.2900174558162689 0.3333333730697632
0.16279065608978271 0.2901448905467987 0.3488372564315796
0.16279065608978271 0.2895675301551819 0.364341139793396
0.16279065608978271 0.28960928320884705 0.37984490394592285
0.16279065608978271 0.2913733124732971 0.39534878730773926
0.16279065608978271 0.2914172410964966 0.41085267066955566
0.17829453945159912 -0.3543980121612549 -0.05426359176635742
0.17829453945159912 -0.35540151596069336 -0.038759708404541016
0.17829453945159912 -0.25628986954689026 -0.06976741552352905
0.17829453945159912 -0.18652315437793732 -0.038759708404541016
0.17829452455043793 -0.17600221931934357 -0.06976741552352905
0.17829453945159912 -0.17559589445590973 -0.05426359176635742
0.17829453945159912 -0.1166486069560051 -0.05426359176635742
0.17829453945159912 -0.11228328943252563 -0.06976741552352905
0.17829453945159912 -0.09342042356729507 -0.038759708404541016
0.17829453945159912 -0.058903276920318604 -0.038759708404541016
0.17829453945159912 -0.044610925018787384 -0.038759708404541016
0.17829453945159912 0.0022040922194719315 -0.038759708404541016
0.17829453945159912 0.10991016775369644 -0.06976741552352905
0.17829453945159912 0.13003094494342804 -0.038759708404541016
0.17829453945159912 0.13288357853889465 -0.06976741552352905
0.17829453945159912 0.14568665623664856 0.02325582504272461
0.17829453945159912 0.1452018916606903 0.038759708404541016
0.17829453945159912 0.14617840945720673 0.05426359176635742
0.17829453945159912 0.15528464317321777 -0.06976741552352905
0.17829453945159912 0.1619935929775238 -0.007751941680908203
0.17829453945159912 0.15131577849388123 0.00775194214656949
0.17829453945159912 0.14983047544956207 0.06976747512817383
0.17829453945159912 0.15536093711853027 0.08527135848999023
0.17829453945159912 0.15691304206848145 0.10077524185180664
0.17829453945159912 0.16049060225486755 0.11627912521362305
0.17829453945159912 0.16543133556842804 -0.05426359176635742
0.17829453945159912 0.16596271097660065 -0.038759708404541016
0.17829453945159912 0.16371560096740723 -0.007751941680908203
0.17829453945159912 0.17228521406650543 0.1317828893661499
0.17829453945159912 0.1820220947265625 0.007751941680908203
0.17829453945159912 0.19116495549678802 0.02325582504272461
0.17829453945159912 0.18247517943382263 0.1472867727279663
0.17829453945159912 0.19078810513019562 0.16279065608978271
0.17829453945159912 0.19132301211357117 0.17829453945159912
0.17829453945159912 0.19184531271457672 0.19379842281341553
0.17829453945159912 0.19294095039367676 0.20930230617523193
0.17829453945159912 0.19652065634727478 0.038759708404541016
0.17829453945159912 0.19832022488117218 0.05426359176635742
0.17829453945159912 0.19932961463928223 0.06976747512817383
0.17829453945159912 0.20130354166030884 0.08527135848999023
0.17829453945159912 0.20526549220085144 0.10077524185180664
0.17829453945159912 0.20714843273162842 0.11627912521362305
0.17829453945159912 0.20412516593933105 0.1317828893661499
0.17829453945159912 0.20155620574951172 0.1472867727279663
0.17829453945159912 0.198482483625412 0.22480618953704834
0.17829453945159912 0.20589250326156616 0.24031007289886475
0.17829453945159912 0.21297740936279297 0.16279065608978271
0.17829453945159912 0.22825518250465393 0.17829453945159912
0.17829452455043793 0.24147240817546844 0.19379840791225433
0.17829453945159912 0.24795657396316528 0.20930230617523193
0.17829453945159912 0.2544347643852234 0.3178294897079468
0.17829453945159912 0.25251325964927673 0.3333333730697632
0.17829453945159912 0.25299763679504395 0.3488372564315796
0.17829453945159912 0.25421378016471863 0.364341139793396
0.17829453945159912 0.25448372960090637 0.37984490394592285
0.17829453945159912 0.2546376883983612 0.39534878730773926
0.17829453945159912 0.25820398330688477 0.22480617463588715
0.17829453945159912 0.2624436318874359 0.24031007289886475
0.17829453945159912 0.2650703191757202 0.41085267066955566
0.17829453945159912 0.2891225516796112 0.3178294897079468
0.17829453945159912 0.29017162322998047 0.3333333730697632
0.17829453945159912 0.2903173565864563 0.3488372564315796
0.17829455435276031 0.2897198498249054 0.364341139793396
0.17829453945159912 0.28972166776657104 0.37984490394592285
0.17829453945159912 0.29142239689826965 0.39534878730773926
0.17829453945159912 0.2915800213813782 0.41085267066955566
0.19379842281341553 -0.3543801009654999 -0.05426359176635742
0.19379842281341553 -0.3554115891456604 -0.038759708404541016
0.19379842281341553 -0.25645026564598083 -0.06976741552352905
0.19379842281341553 -0.18586578965187073 -0.038759708404541016
0.19379842281341553 -0.17583073675632477 -0.06976741552352905
0.19379842281341553 -0.17539066076278687 -0.05426359176635742
0.19379842281341553 -0.11697953194379807 -0.05426359176635742
0.19379842281341553 -0.1140231266617775 -0.06976741552352905
0.19379843771457672 -0.09572013467550278 -0.038759708404541016
0.19379842281341553 -0.05563994497060776 -0.038759708404541016
0.19379842281341553 -0.05106983333826065 -0.038759708404541016
0.19379842281341553 0.004290975630283356 -0.038759708404541016
0.19379842281341553 0.11035381257534027 -0.06976741552352905
0.19379842281341553 0.12971124053001404 -0.038759708404541016
0.19379842281341553 0.13323523104190826 -0.06976742297410965
0.19379842281341553 0.14548978209495544 0.02325582504272461
0.19379842281341553 0.1450812816619873 0.038759708404541016
0.19379842281341553 0.14604222774505615 0.05426359176635742
0.19379842281341553 0.15516364574432373 -0.06976741552352905
0.19379842281341553 0.16139237582683563 -0.007751941680908203
0.19379842281341553 0.14960995316505432 0.007751941680908203
0.19379842281341553 0.1490306854248047 0.06976747512817383
0.19379842281341553 0.1550176441669464 0.08527135848999023
0.19379842281341553 0.15673395991325378 0.10077524185180664
0.19379842281341553 0.16037191450595856 0.11627912521362305
0.19379842281341553 0.165412038564682 -0.05426359176635742
0.19379842281341553 0.1658877432346344 -0.038759708404541016
0.19379842281341553 0.1644650548696518 -0.007751941680908203
0.19379842281341553 0.1721174716949463 0.1317828893661499
0.19379842281341553 0.1822672188282013 0.007751941215246916
0.19379842281341553 0.1914168894290924 0.02325582504272461
0.19379842281341553 0.18185901641845703 0.1472867727279663
0.19379842281341553 0.19055739045143127 0.16279065608978271
0.19379842281341553 0.19118395447731018 0.17829453945159912
0.19379842281341553 0.191701740026474 0.19379842281341553
0.19379842281341553 0.19274692237377167 0.20930230617523193
0.19379842281341553 0.1965479701757431 0.038759708404541016
0.19379842281341553 0.1983553171157837 0.05426359176635742
0.19379842281341553 0.19944313168525696 0.06976747512817383
0.19379842281341553 0.20141135156154633 0.08527135848999023
0.19379842281341553 0.20519694685935974 0.10077524185180664
0.19379842281341553 0.20708757638931274 0.11627912521362305
0.19379842281341553 0.2042952924966812 0.1317828893661499
0.19379842281341553 0.20197094976902008 0.1472867727279663
0.19379842281341553 0.197820246219635 0.22480618953704834
0.19379842281341553 0.20555377006530762 0.24031007289886475
0.19379842281341553 0.21334359049797058 0.16279065608978271
0.19379842281341553 0.2284187376499176 0.17829453945159912
0.19379842281341553 0.2416808158159256 0.19379842281341553
0.19379842281341553 0.24851159751415253 0.20930230617523193
0.19379842281341553 0.25435671210289 0.3178294897079468
0.19379842281341553 0.2524356245994568 0.3333333730697632
0.19379842281341553 0.2529198229312897 0.3488372564315796
0.19379842281341553 0.25417545437812805 0.364341139793396
0.19379842281341553 0.254440039396286 0.37984490394592285
0.19379842281341553 0.2545681595802307 0.39534878730773926
0.19379842281341553 0.2585736811161041 0.22480617463588715
0.19379842281341553 0.2629848122596741 0.24031007289886475
0.19379842281341553 0.2646874785423279 0.41085267066955566
0.19379842281341553 0.2891661524772644 0.3178294897079468
0.19379842281341553 0.29021650552749634 0.3333333730697632
0.19379842281341553 0.2903771698474884 0.3488372564315796
0.19379842281341553 0.2897760570049286 0.364341139793396
0.19379842281341553 0.2897602915763855 0.37984490394592285
0.19379842281341553 0.2914186716079712 0.39534878730773926
0.19379842281341553 0.291690856218338 0.41085267066955566
0.20930230617523193 -0.3543630540370941 -0.05426359176635742
0.20930230617523193 -0.35544198751449585 -0.038759708404541016
0.20930230617523193 -0.25612762570381165 -0.06976741552352905
0.20930230617523193 -0.18544670939445496 -0.038759708404541016
0.20930230617523193 -0.17585760354995728 -0.06976741552352905
0.20930230617523193 -0.17532075941562653 -0.05426359176635742
0.20930230617523193 -0.11690354347229004 -0.05426359176635742
0.20930230617523193 -0.11300870031118393 -0.06976741552352905
0.20930230617523193 -0.09681902080774307 -0.038759708404541016
0.20930230617523193 0.007698144763708115 -0.038759708404541016
0.20930230617523193 0.06858185678720474 -0.038759708404541016
0.20930230617523193 0.08657464385032654 -0.038759708404541016
0.20930230617523193 0.10974323004484177 -0.06976741552352905
0.20930230617523193 0.12799710035324097 -0.038759708404541016
0.20930230617523193 0.13399726152420044 -0.06976741552352905
0.20930230617523193 0.14725226163864136 0.007751941680908203
0.20930230617523193 0.1452474445104599 0.02325582504272461
0.20930230617523193 0.14484959840774536 0.038759708404541016
0.20930230617523193 0.14582142233848572 0.05426359176635742
0.20930230617523193 0.15478971600532532 -0.06976741552352905
0.20930230617523193 0.16043107211589813 -0.007751941680908203
0.20930230617523193 0.14751742780208588 0.06976746767759323
0.20930230617523193 0.15444590151309967 0.08527135848999023
0.20930230617523193 0.15639643371105194 0.10077524185180664
0.20930230617523193 0.1601388305425644 0.11627912521362305
0.20930230617523193 0.1654539555311203 -0.05426359176635742
0.20930232107639313 0.16596004366874695 -0.038759708404541016
0.20930230617523193 0.16542178392410278 -0.007751941680908203
0.20930230617523193 0.17182189226150513 0.1317828893661499
0.20930229127407074 0.18249300122261047 0.007751941680908203
0.20930230617523193 0.19195853173732758 0.02325582504272461
0.20930230617523193 0.18074175715446472 0.1472867727279663
0.20930230617523193 0.19029904901981354 0.16279065608978271
0.20930230617523193 0.19106663763523102 0.17829453945159912
0.20930230617523193 0.19163104891777039 0.19379842281341553
0.20930230617523193 0.19270163774490356 0.20930230617523193
0.20930230617523193 0.19667717814445496 0.038759708404541016
0.20930230617523193 0.19849266111850739 0.05426359176635742
0.20930230617523193 0.19966894388198853 0.06976747512817383
0.20930230617523193 0.20180901885032654 0.08527135848999023
0.20930230617523193 0.20563915371894836 0.10077524185180664
0.20930230617523193 0.20760948956012726 0.11627912521362305
0.20930230617523193 0.2048429399728775 0.1317828893661499
0.20930230617523193 0.20262035727500916 0.1472867727279663
0.20930230617523193 0.19773340225219727 0.22480618953704834
0.20930230617523193 0.205628901720047 0.24031007289886475
0.20930230617523193 0.2135661244392395 0.16279065608978271
0.20930230617523193 0.2284342646598816 0.17829453945159912
0.20930230617523193 0.2416277378797531 0.19379842281341553
0.20930230617523193 0.24832330644130707 0.20930230617523193
0.20930230617523193 0.25433027744293213 0.3178294897079468
0.20930230617523193 0.2525530457496643 0.3333333730697632
0.20930230617523193 0.253029465675354 0.3488372564315796
0.20930230617523193 0.25423264503479004 0.364341139793396
0.20930230617523193 0.25449323654174805 0.37984490394592285
0.20930230617523193 0.2546318471431732 0.39534878730773926
0.20930230617523193 0.2584499716758728 0.22480618953704834
0.20930230617523193 0.26290473341941833 0.24031007289886475
0.20930230617523193 0.26484784483909607 0.41085267066955566
0.20930230617523193 0.28913307189941406 0.3178294897079468
0.20930230617523193 0.2901586890220642 0.3333333730697632
0.20930230617523193 0.2903056740760803 0.3488372564315796
0.20930230617523193 0.28970906138420105 0.364341139793396
0.20930230617523193 0.28970640897750854 0.37984490394592285
0.20930230617523193 0.2913321852684021 0.39534878730773926
0.20930230617523193 0.29163622856140137 0.41085267066955566
0.22480618953704834 -0.35432279109954834 -0.05426359176635742
0.22480618953704834 -0.3554588556289673 -0.038759708404541016
0.22480618953704834 -0.2549802362918854 -0.06976741552352905
0.22480618953704834 -0.18510347604751587 -0.038759708404541016
0.22480618953704834 -0.1757582426071167 -0.06976741552352905
0.22480618953704834 -0.17500074207782745 -0.05426359176635742
0.22480618953704834 -0.11682962626218796 -0.05426359176635742
0.22480618953704834 -0.11224567145109177 -0.06976741552352905
0.22480618953704834 -0.09646489471197128 -0.038759708404541016
0.22480618953704834 0.00922548770904541 -0.038759708404541016
0.22480618953704834 0.06674542278051376 -0.038759708404541016
