0.16279065608978271 -0.5813953876495361 0.15467369556427002
0.16279065608978271 -0.5813953876495361 0.18588748574256897
0.16279064118862152 -0.5658915042877197 0.04078985005617142
0.16279065608978271 -0.5658915042877197 0.11113498359918594
0.16279065608978271 -0.5658915042877197 0.15517082810401917
0.16279065608978271 -0.5658915042877197 0.1856677085161209
0.16279065608978271 -0.5503876209259033 0.040824294090270996
0.16279065608978271 -0.5503876209259033 0.11068779975175858
0.16279065608978271 -0.5503876209259033 0.15534479916095734
0.16279065608978271 -0.5503876209259033 0.185230553150177
0.16279065608978271 -0.5348837375640869 0.04077690467238426
0.16279065608978271 -0.5348837375640869 0.11034110188484192
0.16279065608978271 -0.5348837375640869 0.15557065606117249
0.16279065608978271 -0.5348837375640869 0.18440690636634827
0.16279065608978271 -0.5193798542022705 0.040687039494514465
0.16279065608978271 -0.5193798542022705 0.10991965234279633
0.16279065608978271 -0.5193798542022705 0.15602315962314606
0.16279065608978271 -0.5193798542022705 0.18335652351379395
0.16279065608978271 -0.5038759708404541 0.03974085673689842
0.16279065608978271 -0.5038759708404541 0.10993309319019318
0.16279065608978271 -0.5038759708404541 0.15622398257255554
0.16279065608978271 -0.5038759708404541 0.18275292217731476
0.16279065608978271 -0.4883720874786377 0.038718339055776596
0.16279065608978271 -0.4883720874786377 0.11040058732032776
0.16279065608978271 -0.4883720874786377 0.15590187907218933
0.16279065608978271 -0.4883720874786377 0.18271984159946442
0.16279065608978271 -0.4728682041168213 0.03852858394384384
0.16279065608978271 -0.4728682041168213 0.11092717200517654
0.16279065608978271 -0.4728682041168213 0.15510797500610352
0.16279065608978271 -0.4728682041168213 0.1833185851573944
0.16279065608978271 -0.4573643207550049 0.03823133185505867
0.16279065608978271 -0.4573643207550049 0.11198395490646362
0.16279065608978271 -0.4573643207550049 0.15369045734405518
0.16279065608978271 -0.4573643207550049 0.18452253937721252
0.16279065608978271 -0.4418604373931885 0.03797862306237221
0.16279065608978271 -0.4418604373931885 0.11275475472211838
0.16279065608978271 -0.4418604373931885 0.1519966423511505
0.16279065608978271 -0.4418604373931885 0.1858173906803131
0.16279065608978271 -0.42635661363601685 0.03773631155490875
0.16279065608978271 -0.42635661363601685 0.11333175003528595
0.1627906709909439 -0.42635661363601685 0.15071043372154236
0.16279065608978271 -0.42635661363601685 0.18688395619392395
0.16279065608978271 -0.41085273027420044 0.037562306970357895
0.16279065608978271 -0.41085273027420044 0.11355410516262054
0.1627906709909439 -0.41085273027420044 0.15052209794521332
0.16279065608978271 -0.41085273027420044 0.18774548172950745
0.16279065608978271 -0.39534884691238403 0.03741823881864548
0.16279065608978271 -0.39534884691238403 0.11367471516132355
0.16279065608978271 -0.39534884691238403 0.15045499801635742
0.16279065608978271 -0.39534884691238403 0.18837706744670868
0.16279065608978271 -0.3798449635505676 0.03735462576150894
0.16279065608978271 -0.3798449635505676 0.1132909506559372
0.16279065608978271 -0.3798449635505676 0.1508897989988327
0.16279065608978271 -0.3798449635505676 0.1884443759918213
0.16279065608978271 -0.3643410801887512 0.03734598308801651
0.16279065608978271 -0.3643410801887512 0.11297507584095001
0.16279065608978271 -0.36434105038642883 0.15147212147712708
0.16279065608978271 -0.3643410801887512 0.1883821189403534
0.16279065608978271 -0.3488371968269348 0.03740193322300911
0.16279065608978271 -0.3488371968269348 0.11246357858181
0.16279065608978271 -0.3488371968269348 0.15234550833702087
0.16279065608978271 -0.3488371968269348 0.18780261278152466
0.16279065608978271 -0.3333333134651184 0.03746362403035164
0.16279065608978271 -0.3333333134651184 0.11177768558263779
0.16279065608978271 -0.3333333134651184 0.1533958911895752
0.16279065608978271 -0.3333333134651184 0.18716710805892944
0.16279065608978271 -0.317829430103302 0.03757718205451965
0.16279065608978271 -0.317829430103302 0.11135675013065338
0.16279065608978271 -0.317829430103302 0.1544584333896637
0.16279065608978271 -0.317829430103302 0.18663668632507324
0.16279065608978271 -0.30232560634613037 0.03765516355633736
0.16279065608978271 -0.30232560634613037 0.11137683689594269
0.16279065608978271 -0.30232560634613037 0.1553328037261963
0.16279065608978271 -0.30232560634613037 0.1858012080192566
0.16279065608978271 -0.28682172298431396 0.03763246536254883
0.16279065608978271 -0.28682172298431396 0.11188790202140808
0.16279065608978271 -0.28682172298431396 0.15537410974502563
0.16279065608978271 -0.28682172298431396 0.18583673238754272
0.16279065608978271 -0.27131783962249756 0.03758133947849274
0.16279065608978271 -0.27131783962249756 0.11268901079893112
0.16279065608978271 -0.27131783962249756 0.15485960245132446
0.16279065608978271 -0.27131783962249756 0.18672588467597961
0.16279065608978271 -0.25581395626068115 0.0375390462577343
0.16279065608978271 -0.25581395626068115 0.11369998008012772
0.16279065608978271 -0.25581395626068115 0.15394580364227295
0.16279065608978271 -0.25581395626068115 0.18783745169639587
0.16279065608978271 -0.24031007289886475 0.03743615373969078
0.16279065608978271 -0.24031007289886475 0.11477416008710861
0.16279065608978271 -0.24031007289886475 0.15326158702373505
0.16279065608978271 -0.24031007289886475 0.18873682618141174
0.16279065608978271 -0.22480618953704834 0.03738407418131828
0.16279065608978271 -0.22480618953704834 0.11499399691820145
0.16279065608978271 -0.22480618953704834 0.1529238075017929
0.16279065608978271 -0.22480618953704834 0.18952979147434235
0.16279065608978271 -0.20930230617523193 0.03741179034113884
0.16279065608978271 -0.20930230617523193 0.11462147533893585
0.16279065608978271 -0.20930230617523193 0.15323728322982788
0.16279065608978271 -0.20930230617523193 0.18940241634845734
0.16279065608978271 -0.19379842281341553 0.037472184747457504
0.16279065608978271 -0.19379842281341553 0.11418965458869934
0.16279065608978271 -0.19379842281341553 0.1536107063293457
0.16279065608978271 -0.19379842281341553 0.18851415812969208
0.16279065608978271 -0.1782945990562439 0.0375840961933136
0.16279065608978271 -0.1782945990562439 0.1134580746293068
0.16279065608978271 -0.1782945990562439 0.15359805524349213
0.16279065608978271 -0.1782945990562439 0.1878262758255005
0.16279065608978271 -0.1627907156944275 0.03773600608110428
0.16279065608978271 -0.1627907156944275 0.11244801431894302
0.16279065608978271 -0.1627907156944275 0.1537463665008545
0.16279065608978271 -0.1627907156944275 0.18652741611003876
0.16279065608978271 -0.14728683233261108 0.03795574605464935
0.16279065608978271 -0.14728683233261108 0.11134472489356995
0.16279065608978271 -0.14728683233261108 0.1540144681930542
0.16279065608978271 -0.14728683233261108 0.1854168176651001
0.16279065608978271 -0.13178294897079468 0.03809112310409546
0.16279065608978271 -0.13178294897079468 0.11055448651313782
0.16279065608978271 -0.13178294897079468 0.15456262230873108
0.16279065608978271 -0.13178294897079468 0.1842804104089737
0.16279065608978271 -0.11627906560897827 0.03815380856394768
0.16279065608978271 -0.11627906560897827 0.10977204889059067
0.16279065608978271 -0.11627906560897827 0.1552007496356964
0.16279065608978271 -0.11627906560897827 0.1830761730670929
0.16279065608978271 -0.10077518224716187 0.03815193846821785
0.16279065608978271 -0.10077518224716187 0.10946470499038696
0.16279065608978271 -0.10077518224716187 0.15540727972984314
0.16279065608978271 -0.10077518224716187 0.18242816627025604
0.16279065608978271 -0.08527129888534546 0.03812529891729355
0.16279065608978271 -0.08527129888534546 0.10939793288707733
0.16279065608978271 -0.08527129888534546 0.15454183518886566
0.16279065608978271 -0.08527129888534546 0.18285563588142395
0.16279065608978271 -0.06976741552352905 0.03788203373551369
0.16279065608978271 -0.06976741552352905 0.1100136786699295
0.16279065608978271 -0.06976741552352905 0.1525404453277588
0.16279065608978271 -0.06976741552352905 0.18396759033203125
0.16279065608978271 -0.05426359176635742 0.03766009584069252
0.16279065608978271 -0.05426359176635742 0.11031307280063629
0.16279065608978271 -0.05426359176635742 0.15086032450199127
0.16279065608978271 -0.05426359176635742 0.18473286926746368
0.16279065608978271 -0.038759708404541016 0.037433233112096786
0.16279065608978271 -0.038759708404541016 0.11041632294654846
0.16279065608978271 -0.038759708404541016 0.14975900948047638
0.16279065608978271 -0.038759708404541016 0.18515193462371826
0.16279065608978271 -0.02325582504272461 0.03722477704286575
0.16279065608978271 -0.02325582504272461 0.11057546734809875
0.16279065608978271 -0.02325582504272461 0.149202361702919
0.16279065608978271 -0.02325582504272461 0.18548253178596497
0.16279065608978271 -0.007751941680908203 0.037117552012205124
0.16279065608978271 -0.007751941680908203 0.11048878729343414
0.16279065608978271 -0.007751941680908203 0.1489790380001068
0.16279065608978271 -0.007751941680908203 0.1857447326183319
0.16279065608978271 0.007751941680908203 0.037125974893569946
0.16279065608978271 0.007751941680908203 0.11035021394491196
0.16279065608978271 0.007751941680908203 0.14933094382286072
0.16279065608978271 0.007751941680908203 0.18531551957130432
0.16279065608978271 0.02325582504272461 0.03721879422664642
0.16279065608978271 0.02325582504272461 0.11037032306194305
0.16279065608978271 0.02325582504272461 0.1493496149778366
0.16279065608978271 0.02325582504272461 0.1851828694343567
0.16279065608978271 0.038759708404541016 0.03732655569911003
0.16279065608978271 0.038759708404541016 0.11055360734462738
0.1627906709909439 0.038759708404541016 0.14992296695709229
0.16279065608978271 0.038759708404541016 0.18462295830249786
0.16279065608978271 0.05426359176635742 0.03743230551481247
0.16279065608978271 0.05426359176635742 0.11062030494213104
0.16279065608978271 0.05426359176635742 0.1510220766067505
0.16279065608978271 0.05426359176635742 0.18390418589115143
0.16279065608978271 0.06976747512817383 0.037486929446458817
0.16279065608978271 0.06976747512817383 0.11110858619213104
0.16279065608978271 0.06976747512817383 0.15198162198066711
0.16279065608978271 0.06976747512817383 0.183346226811409
0.16279065608978271 0.08527135848999023 0.03750121220946312
0.16279065608978271 0.08527135848999023 0.11169259995222092
0.16279065608978271 0.08527135848999023 0.15271541476249695
0.16279065608978271 0.08527135848999023 0.18322832882404327
0.16279065608978271 0.10077524185180664 0.03734783083200455
0.16279065608978271 0.10077524185180664 0.11293111741542816
0.16279065608978271 0.10077524185180664 0.15205132961273193
0.16279065608978271 0.10077524185180664 0.18400445580482483
0.16279065608978271 0.11627912521362305 0.037162840366363525
0.16279065608978271 0.11627912521362305 0.11484973877668381
0.16279065608978271 0.11627912521362305 0.15011942386627197
0.16279065608978271 0.11627912521362305 0.1855100691318512
0.16279065608978271 0.1317828893661499 0.03694251552224159
0.16279065608978271 0.1317828893661499 0.11685196310281754
0.16279065608978271 0.1317828744649887 0.14778262376785278
0.16279065608978271 0.1317828893661499 0.1870555579662323
0.16279065608978271 0.1472867727279663 0.036710429936647415
0.16279065608978271 0.1472867727279663 0.11790592968463898
0.16279065608978271 0.1472867727279663 0.14645208418369293
0.16279065608978271 0.1472867727279663 0.1882856786251068
0.16279065608978271 0.16279065608978271 0.03645385056734085
0.16279065608978271 0.16279065608978271 0.11822684109210968
0.16279065608978271 0.16279065608978271 0.14613603055477142
0.16279065608978271 0.16279065608978271 0.18892835080623627
0.16279065608978271 0.17829453945159912 0.036332935094833374
0.16279065608978271 0.17829453945159912 0.11770178377628326
0.16279065608978271 0.17829453945159912 0.14672884345054626
0.16279065608978271 0.17829453945159912 0.18880325555801392
0.16279065608978271 0.19379842281341553 0.03629421442747116
0.16279065608978271 0.19379842281341553 0.11706071346998215
0.16279065608978271 0.19379842281341553 0.14756831526756287
0.16279065608978271 0.19379842281341553 0.1880897730588913
0.16279065608978271 0.20930230617523193 0.03636839985847473
0.16279065608978271 0.20930230617523193 0.11624759435653687
0.16279065608978271 0.20930229127407074 0.14741204679012299
0.16279065608978271 0.20930230617523193 0.18795225024223328
0.16279065608978271 0.22480618953704834 0.03648074343800545
0.16279065608978271 0.22480618953704834 0.11528496444225311
0.16279065608978271 0.22480618953704834 0.1477721482515335
0.16279065608978271 0.22480618953704834 0.18715688586235046
0.16279065608978271 0.24031007289886475 0.03663384169340134
0.16279065608978271 0.24031007289886475 0.11422857642173767
0.16279065608978271 0.24031007289886475 0.14868268370628357
0.16279065608978271 0.24031007289886475 0.1859855055809021
0.16279065608978271 0.25581395626068115 0.03673733398318291
0.16279065608978271 0.25581395626068115 0.1133323609828949
0.1627906709909439 0.25581395626068115 0.14959202706813812
0.16279065608978271 0.25581395626068115 0.18515336513519287
0.16279065608978271 0.27131783962249756 0.03673010319471359
0.16279065608978271 0.27131783962249756 0.11275183409452438
0.16279065608978271 0.27131783962249756 0.15050888061523438
0.16279065608978271 0.27131783962249756 0.1842353343963623
0.16279065608978271 0.28682172298431396 0.03664258494973183
0.16279065608978271 0.28682172298431396 0.11280618607997894
0.16279064118862152 0.28682172298431396 0.15051962435245514
0.16279065608978271 0.28682172298431396 0.18369615077972412
0.16279065608978271 0.30232560634613037 0.036500170826911926
0.16279065608978271 0.30232560634613037 0.11333228647708893
0.16279065608978271 0.30232560634613037 0.14877235889434814
0.16279065608978271 0.30232560634613037 0.18405035138130188
0.16279065608978271 0.3178294897079468 0.03630381077528
0.16279065608978271 0.3178294897079468 0.11398875713348389
0.16279065608978271 0.3178294897079468 0.1465238630771637
0.16279065608978271 0.3178294897079468 0.18463321030139923
0.16279065608978271 0.3333333730697632 0.036088939756155014
0.16279065608978271 0.3333333730697632 0.11455604434013367
0.16279065608978271 0.3333333730697632 0.1455712765455246
0.16279065608978271 0.3333333730697632 0.18477517366409302
0.16279065608978271 0.3488372564315796 0.035996533930301666
0.16279065608978271 0.3488372564315796 0.11398907005786896
0.16279065608978271 0.3488372564315796 0.14573059976100922
0.16279065608978271 0.3488372564315796 0.18434089422225952
0.16279065608978271 0.364341139793396 0.035894934087991714
0.16279065608978271 0.364341139793396 0.11347085982561111
0.16279065608978271 0.364341139793396 0.14653004705905914
0.16279065608978271 0.364341139793396 0.1835833042860031
0.16279065608978271 0.37984490394592285 0.03589325770735741
0.16279065608978271 0.37984490394592285 0.11237303912639618
0.16279065608978271 0.37984490394592285 0.14842340350151062
0.16279065608978271 0.37984490394592285 0.18257169425487518
0.16279065608978271 0.39534878730773926 0.036023274064064026
0.16279065608978271 0.39534878730773926 0.11107069253921509
0.16279065608978271 0.39534878730773926 0.15162032842636108
0.16279065608978271 0.39534878730773926 0.18085497617721558
0.16279065608978271 0.41085267066955566 0.0362565852701664
0.16279065608978271 0.41085267066955566 0.10983410477638245
0.16279065608978271 0.41085267066955566 0.15454214811325073
0.16279065608978271 0.41085267066955566 0.1790391206741333
0.16279065608978271 0.42635655403137207 0.03652351722121239
0.16279065608978271 0.42635655403137207 0.10877272486686707
0.16279065608978271 0.42635655403137207 0.15743160247802734
0.16279065608978271 0.42635655403137207 0.17372992634773254
0.16279065608978271 0.4418604373931885 0.03687398135662079
0.16279065608978271 0.4418604373931885 0.10737726092338562
0.16279065608978271 0.4418604373931885 0.16064567863941193
0.16279065608978271 0.4418604373931885 0.1671171933412552
0.16279065608978271 0.4573643207550049 0.037196606397628784
0.16279065608978271 0.4573643207550049 0.10650533437728882
0.16279065608978271 0.4573643207550049 0.1623910665512085
0.16279065608978271 0.4573643207550049 0.1636258363723755
0.16279065608978271 0.4728682041168213 0.03743467107415199
0.16279065608978271 0.4728682041168213 0.10660669952630997
0.16279065608978271 0.4883720874786377 0.037524912506341934
0.16279065608978271 0.4883720576763153 0.10780279338359833
0.16279065608978271 0.4883720874786377 0.16173088550567627
0.16279065608978271 0.4883720874786377 0.1653706431388855
0.16279065608978271 0.5038759708404541 0.037564750760793686
0.16279065608978271 0.5038759708404541 0.10989437997341156
0.16279065608978271 0.5038759708404541 0.15919600427150726
0.16279065608978271 0.5038759708404541 0.17253759503364563
0.16279065608978271 0.5193798542022705 0.037560127675533295
0.16279065608978271 0.5193798542022705 0.11208204925060272
0.16279065608978271 0.5193798542022705 0.1566397100687027
0.16279065608978271 0.5193798542022705 0.17902836203575134
0.16279065608978271 0.5348837375640869 0.03750143572688103
0.16279065608978271 0.5348837375640869 0.11356406658887863
0.16279065608978271 0.5348837375640869 0.15467000007629395
0.16279065608978271 0.5348837375640869 0.18072286248207092
0.16279065608978271 0.5503876209259033 0.03752158209681511
0.16279065608978271 0.5503876209259033 0.11373233795166016
0.16279065608978271 0.5503876209259033 0.15405479073524475
0.16279065608978271 0.5503876209259033 0.181340292096138
0.16279065608978271 0.5658915042877197 0.03761018067598343
0.16279065608978271 0.5658915042877197 0.11327150464057922
0.16279065608978271 0.5658915042877197 0.1540677845478058
0.16279065608978271 0.5658915042877197 0.18166515231132507
0.16279065608978271 0.5813953876495361 0.03787442669272423
0.16279065608978271 0.5813953876495361 0.11201304197311401
0.16279065608978271 0.5813953876495361 0.15498891472816467
0.16279065608978271 0.5813953876495361 0.18115507066249847
0.16279065608978271 0.5968992710113525 0.038264352828264236
0.16279065608978271 0.5968992710113525 0.11025270074605942
0.16279065608978271 0.5968992710113525 0.15579478442668915
0.16279065608978271 0.5968992710113525 0.1806132048368454
0.16279065608978271 0.612403154373169 0.03874802961945534
0.16279065608978271 0.612403154373169 0.10833430290222168
0.16279065608978271 0.612403154373169 0.15704873204231262
0.16279065608978271 0.612403154373169 0.17945794761180878
0.16279065608978271 0.6279069185256958 0.0406864732503891
0.16279065608978271 0.6279069185256958 0.10671424865722656
0.16279065608978271 0.6279069185256958 0.15854448080062866
0.16279065608978271 0.6279069185256958 0.1769784390926361
0.16279065608978271 0.6434108018875122 0.042121388018131256
0.16279065608978271 0.6434108018875122 0.10529088973999023
0.16279065608978271 0.6434108018875122 0.16035813093185425
0.16279065608978271 0.6434108018875122 0.17014586925506592
0.16279065608978271 0.6589146852493286 0.043137289583683014
0.16279065608978271 0.6589146852493286 0.10427817702293396
0.16279065608978271 0.6589146852493286 0.16250847280025482
0.1627906709909439 0.6589147448539734 0.16355812549591064
0.16279065608978271 0.674418568611145 0.04330863803625107
0.16279065608978271 0.674418568611145 0.10391677916049957
0.16279065608978271 0.6899224519729614 0.04225769639015198
0.16279065608978271 0.6899224519729614 0.10449282079935074
0.16279065608978271 0.6899224519729614 0.1620229184627533
0.16279065608978271 0.6899224519729614 0.16509747505187988
0.16279065608978271 0.7054263353347778 0.04090705141425133
0.16279065608978271 0.7054263353347778 0.10500013828277588
0.16279065608978271 0.7054263353347778 0.160400852560997
0.16279065608978271 0.7054263353347778 0.1709502935409546
0.16279065608978271 0.7209302186965942 0.03950497880578041
0.16279065608978271 0.7209302186965942 0.10537434369325638
0.16279065608978271 0.7209302186965942 0.15916097164154053
0.16279065608978271 0.7209302186965942 0.1766633838415146
0.16279065608978271 0.7364341020584106 0.038668788969516754
0.16279065608978271 0.7364341020584106 0.1054602861404419
0.16279065608978271 0.7364341020584106 0.15843679010868073
0.16279065608978271 0.7364341020584106 0.17889170348644257
0.16279065608978271 0.751937985420227 0.03847090154886246
0.16279065608978271 0.751937985420227 0.10539689660072327
0.16279065608978271 0.751937985420227 0.15805526077747345
0.16279065608978271 0.751937985420227 0.1795499622821808
0.16279065608978271 0.7674418687820435 0.0384223498404026
0.16279065608978271 0.7674418687820435 0.10484416782855988
0.16279065608978271 0.7674418687820435 0.15832358598709106
0.16279065608978271 0.7674419283866882 0.17953139543533325
0.16279065608978271 0.7829457521438599 0.03851182758808136
0.16279065608978271 0.7829457521438599 0.10364270210266113
0.16279065608978271 0.7829457521438599 0.15897612273693085
0.16279065608978271 0.7829457521438599 0.17904546856880188
0.16279065608978271 0.7984496355056763 0.038688138127326965
0.16279065608978271 0.7984496355056763 0.1025325134396553
0.16279065608978271 0.7984496355056763 0.1598474234342575
0.16279065608978271 0.7984496355056763 0.17831452190876007
0.16279065608978271 0.8139535188674927 0.040429264307022095
0.16279065608978271 0.8139535188674927 0.10127031803131104
0.16279065608978271 0.8139535188674927 0.16104142367839813
0.16279065608978271 0.8139535188674927 0.17288684844970703
0.16279065608978271 0.8294574022293091 0.04214147478342056
0.16279065608978271 0.8294574022293091 0.10028707981109619
0.16279065608978271 0.8294574022293091 0.16172832250595093
0.16279065608978271 0.8294574022293091 0.17083445191383362
0.16279065608978271 0.8449612855911255 0.04222840815782547
0.16279065608978271 0.8449612855911255 0.1010204628109932
0.16279065608978271 0.8449612855911255 0.16150648891925812
0.16279065608978271 0.8449612855911255 0.17834730446338654
0.1627906709909439 0.8604652285575867 0.04130467772483826
0.16279065608978271 0.8604651689529419 0.10166022181510925
0.16279065608978271 0.8604651689529419 0.16115503013134003
0.16279065608978271 0.8604651689529419 0.17952004075050354
0.16279065608978271 0.8759689331054688 0.038689784705638885
0.16279065608978271 0.8759689331054688 0.1021454781293869
0.16279065608978271 0.8759689331054688 0.16012859344482422
0.16279065608978271 0.8759689331054688 0.18189232051372528
0.16279065608978271 0.8914728164672852 0.0346284955739975
0.16279065608978271 0.8914728164672852 0.10331706702709198
0.16279065608978271 0.8914728164672852 0.15781305730342865
0.16279065608978271 0.8914728164672852 0.18755295872688293
0.16279065608978271 0.9069766998291016 -0.35342639684677124
0.16279065608978271 0.9069766998291016 -0.2767312526702881
0.16279065608978271 0.9069766998291016 -0.05916580557823181
0.16279065608978271 0.9069766998291016 0.0003447101917117834
0.16279065608978271 0.9069766998291016 0.01862816885113716
0.16279065608978271 0.9069767594337463 0.10542933642864227
0.16279065608978271 0.9069766998291016 0.1545112580060959
0.16279065608978271 0.9069766998291016 0.19720207154750824
0.16279065608978271 0.922480583190918 -0.35942161083221436
0.16279065608978271 0.922480583190918 -0.27391913533210754
0.16279065608978271 0.922480583190918 -0.073576919734478
0.16279065608978271 0.922480583190918 0.10755497217178345
0.16279065608978271 0.922480583190918 0.1487025022506714
0.16279065608978271 0.922480583190918 0.20874492824077606
0.16279065608978271 0.9379844665527344 -0.36552706360816956
0.16279065608978271 0.9379844665527344 -0.3074931502342224
0.16279065608978271 0.9379844665527344 -0.0739671140909195
0.16279065608978271 0.9379844665527344 0.10860065370798111
0.16279065608978271 0.9379844665527344 0.14557184278964996
0.16279065608978271 0.9379845261573792 0.21131007373332977
0.16279065608978271 0.9534883499145508 -0.07061397284269333
0.16279065608978271 0.9534883499145508 0.10640202462673187
0.16279065608978271 0.9534883499145508 0.14594562351703644
0.16279065608978271 0.9534883499145508 0.21221333742141724
0.16279065608978271 0.9689922332763672 -0.06865658611059189
0.16279065608978271 0.9689922332763672 0.09906795620918274
0.16279065608978271 0.9689922332763672 0.14676035940647125
0.16279065608978271 0.9689922332763672 0.21370184421539307
0.16279065608978271 0.9844961166381836 0.1619255393743515
0.16279065608978271 0.9844961166381836 0.21194541454315186
0.17829453945159912 -0.9844961166381836 -0.06109704077243805
0.17829453945159912 -0.9844961166381836 -0.029361024498939514
0.17829453945159912 -0.9844961166381836 0.0022463900968432426
0.17829453945159912 -0.9844961166381836 0.01096496731042862
0.17829453945159912 -0.9844961166381836 0.02655576914548874
0.17829452455043793 -0.9844961166381836 0.10153369605541229
0.17829453945159912 -0.9844961166381836 0.1551152914762497
0.17829453945159912 -0.9844961166381836 0.21519677340984344
0.17829453945159912 -0.9689922332763672 -0.07526612281799316
0.17829453945159912 -0.9689922332763672 0.10899855196475983
0.17829453945159912 -0.9689922332763672 0.14374646544456482
0.17829453945159912 -0.9689922332763672 0.22169585525989532
0.17829453945159912 -0.9534883499145508 -0.07164423167705536
0.17829453945159912 -0.9534883499145508 0.11302690953016281
0.17829453945159912 -0.9534883499145508 0.14163923263549805
0.17829453945159912 -0.9534883499145508 0.22043626010417938
0.17829453945159912 -0.9379844665527344 -0.07093705236911774
0.17829453945159912 -0.9379844665527344 0.1156739667057991
0.17829453945159912 -0.9379844665527344 0.13958628475666046
0.17829453945159912 -0.9379844665527344 0.21907594799995422
0.17829453945159912 -0.9224806427955627 -0.06725827604532242
0.17829453945159912 -0.9224806427955627 0.1120784729719162
0.17829453945159912 -0.922480583190918 0.14153797924518585
0.17829453945159912 -0.9224806427955627 0.2166764736175537
0.17829453945159912 -0.9069766998291016 -0.34116241335868835
0.17829453945159912 -0.9069768190383911 -0.32423555850982666
0.17829453945159912 -0.9069767594337463 -0.05917771905660629
0.17829453945159912 -0.9069767594337463 0.10765431821346283
0.17829453945159912 -0.9069767594337463 0.14628897607326508
0.17829453945159912 -0.9069768190383911 0.21318022906780243
0.17829453945159912 -0.8914729356765747 -0.0028394372202455997
0.17829453945159912 -0.8914728760719299 0.10584504902362823
0.17829455435276031 -0.8914729356765747 0.15131063759326935
0.17829453945159912 -0.8914728760719299 0.20822547376155853
0.17829453945159912 -0.8759689927101135 0.02823619358241558
0.17829453945159912 -0.8759689927101135 0.10499514639377594
0.17829453945159912 -0.8759689927101135 0.15188750624656677
0.17829453945159912 -0.8759689331054688 0.19922643899917603
0.17829453945159912 -0.8604651093482971 0.03677266091108322
0.17829453945159912 -0.8604650497436523 0.10433543473482132
0.17829453945159912 -0.8604651093482971 0.15405094623565674
0.17829453945159912 -0.8604651093482971 0.19530341029167175
0.17829453945159912 -0.8449612259864807 0.03842262178659439
0.17829455435276031 -0.8449612259864807 0.10448823869228363
0.17829453945159912 -0.8449612259864807 0.15633004903793335
0.17829453945159912 -0.8449612259864807 0.1942451149225235
0.17829453945159912 -0.8294574022293091 0.03815830126404762
0.17829453945159912 -0.8294574022293091 0.10702307522296906
0.17829453945159912 -0.8294572830200195 0.15344765782356262
0.17829453945159912 -0.8294573426246643 0.19735223054885864
0.17829453945159912 -0.8139535188674927 0.03793710097670555
0.17829453945159912 -0.8139535188674927 0.10967729985713959
0.17829453945159912 -0.8139535188674927 0.14789646863937378
0.17829453945159912 -0.8139535188674927 0.20113778114318848
0.17829453945159912 -0.7984496355056763 0.037938058376312256
0.17829453945159912 -0.7984496355056763 0.11145398020744324
0.17829453945159912 -0.7984496355056763 0.1466400921344757
0.17829453945159912 -0.7984496355056763 0.2023634910583496
0.17829453945159912 -0.7829457521438599 0.03808974847197533
0.17829453945159912 -0.7829457521438599 0.11260315775871277
0.17829453945159912 -0.7829457521438599 0.14662915468215942
0.17829453945159912 -0.7829457521438599 0.2023887187242508
0.17829453945159912 -0.7674418687820435 0.038244012743234634
0.17829453945159912 -0.7674418687820435 0.1132555603981018
0.17829453945159912 -0.7674418687820435 0.1470145732164383
0.17829453945159912 -0.7674418687820435 0.20189979672431946
0.17829453945159912 -0.751937985420227 0.03844089433550835
0.17829453945159912 -0.751937985420227 0.11359843611717224
0.17829453945159912 -0.751937985420227 0.14806264638900757
0.17829453945159912 -0.751937985420227 0.20067504048347473
0.17829453945159912 -0.7364341020584106 0.03862239792943001
0.17829453945159912 -0.7364341020584106 0.11365333199501038
0.17829453945159912 -0.7364341020584106 0.14967156946659088
0.17829453945159912 -0.7364341020584106 0.19927428662776947
0.17829453945159912 -0.7209302186965942 0.03895513713359833
0.17829453945159912 -0.7209302186965942 0.11369690299034119
0.17829453945159912 -0.7209302186965942 0.15076541900634766
0.17829453945159912 -0.7209302186965942 0.19845137000083923
0.17829455435276031 -0.7054263353347778 0.040301475673913956
0.17829453945159912 -0.7054263353347778 0.11367584764957428
0.17829453945159912 -0.7054263353347778 0.15237535536289215
0.17829453945159912 -0.7054263353347778 0.19742396473884583
0.17829453945159912 -0.6899224519729614 0.041148606687784195
0.17829453945159912 -0.6899224519729614 0.1138930395245552
0.17829453945159912 -0.6899224519729614 0.15316791832447052
0.17829453945159912 -0.6899225115776062 0.19630777835845947
0.17829453945159912 -0.674418568611145 0.04039314016699791
0.17829453945159912 -0.674418568611145 0.11498142778873444
0.17829453945159912 -0.674418568611145 0.15276598930358887
0.17829453945159912 -0.674418568611145 0.19704513251781464
0.17829453945159912 -0.6589146852493286 0.03895563632249832
0.17829453945159912 -0.6589146852493286 0.11710353195667267
0.17829453945159912 -0.6589146852493286 0.15127471089363098
0.17829453945159912 -0.6589146852493286 0.19938088953495026
0.17829453945159912 -0.643410861492157 0.03852199763059616
0.17829455435276031 -0.6434109210968018 0.1189734935760498
0.17829453945159912 -0.6434108018875122 0.14970660209655762
0.17829453945159912 -0.643410861492157 0.20167702436447144
0.17829453945159912 -0.6279069781303406 0.038390737026929855
0.17829453945159912 -0.6279069781303406 0.1205686628818512
0.17829453945159912 -0.6279069781303406 0.1487480103969574
0.17829453945159912 -0.6279069781303406 0.2031928449869156
0.17829453945159912 -0.6124030947685242 0.03844726085662842
0.17829453945159912 -0.6124030947685242 0.12162725627422333
0.17829453945159912 -0.612403154373169 0.14835290610790253
0.17829453945159912 -0.6124030947685242 0.2049810290336609
0.17829453945159912 -0.5968992114067078 0.03856804221868515
0.17829453945159912 -0.5968992114067078 0.12197396159172058
0.17829452455043793 -0.596899151802063 0.14932817220687866
0.17829453945159912 -0.5968992114067078 0.20557723939418793
0.17829453945159912 -0.5813953876495361 0.03873889893293381
0.17829453945159912 -0.5813953876495361 0.12191706150770187
0.17829453945159912 -0.5813953876495361 0.15047623217105865
0.17829453945159912 -0.5813953876495361 0.20510023832321167
0.17829453945159912 -0.5658915042877197 0.03906496614217758
0.17829453945159912 -0.5658915042877197 0.12158681452274323
0.17829453945159912 -0.5658915042877197 0.1513632833957672
0.17829453945159912 -0.5658915042877197 0.20450711250305176
0.17829453945159912 -0.5503876209259033 0.03920409828424454
0.17829453945159912 -0.5503876209259033 0.12066042423248291
0.17829453945159912 -0.5503876209259033 0.1516764760017395
0.17829453945159912 -0.5503876209259033 0.20383915305137634
0.17829452455043793 -0.5348837375640869 0.03935345634818077
0.17829453945159912 -0.5348837375640869 0.11991793662309647
0.17829453945159912 -0.5348837375640869 0.15179193019866943
0.17829453945159912 -0.5348837375640869 0.20272088050842285
0.17829453945159912 -0.5193798542022705 0.039675626903772354
0.17829453945159912 -0.5193798542022705 0.11920764297246933
0.17829453945159912 -0.5193798542022705 0.15205419063568115
0.17829453945159912 -0.5193798542022705 0.20166409015655518
0.17829453945159912 -0.5038759708404541 0.03909610956907272
0.17829453945159912 -0.5038759708404541 0.11899694800376892
0.17829453945159912 -0.5038759708404541 0.15197871625423431
0.17829453945159912 -0.5038759708404541 0.20146210491657257
0.17829453945159912 -0.4883720874786377 0.0386674702167511
0.17829453945159912 -0.4883720874786377 0.11929117143154144
0.17829452455043793 -0.4883720576763153 0.1512947529554367
0.17829453945159912 -0.4883720874786377 0.20160889625549316
0.17829453945159912 -0.4728682041168213 0.03851801156997681
0.17829453945159912 -0.4728682041168213 0.119674451649189
0.17829453945159912 -0.4728682041168213 0.14996583759784698
0.17829453945159912 -0.4728682041168213 0.20214034616947174
0.17829453945159912 -0.4573643207550049 0.03825359791517258
0.17829453945159912 -0.4573643207550049 0.12062929570674896
0.17829453945159912 -0.4573643207550049 0.1476568728685379
0.17829453945159912 -0.4573643207550049 0.20327816903591156
0.17829453945159912 -0.4418604373931885 0.03799320012331009
0.17829453945159912 -0.4418604373931885 0.12165960669517517
0.17829453945159912 -0.4418604373931885 0.14480122923851013
0.17829453945159912 -0.4418604373931885 0.20488986372947693
0.17829453945159912 -0.42635661363601685 0.03771423548460007
0.17829453945159912 -0.42635664343833923 0.12254969030618668
0.17829453945159912 -0.42635661363601685 0.14289233088493347
0.17829453945159912 -0.42635661363601685 0.20635873079299927
0.17829453945159912 -0.41085273027420044 0.03750762343406677
0.17829453945159912 -0.41085273027420044 0.12277700752019882
0.17829453945159912 -0.41085273027420044 0.1424485146999359
0.17829453945159912 -0.41085273027420044 0.20766475796699524
0.17829453945159912 -0.39534884691238403 0.03730669245123863
0.17829453945159912 -0.39534884691238403 0.1229570284485817
0.17829453945159912 -0.39534884691238403 0.14214295148849487
0.17829453945159912 -0.39534884691238403 0.20836958289146423
0.17829453945159912 -0.3798449635505676 0.03721128776669502
0.17829453945159912 -0.3798449635505676 0.12255237996578217
0.17829453945159912 -0.3798449635505676 0.1425110101699829
0.17829453945159912 -0.3798449635505676 0.2081555426120758
0.17829453945159912 -0.3643410801887512 0.03719596192240715
0.17829453945159912 -0.3643410801887512 0.12202479690313339
0.17829453945159912 -0.3643410801887512 0.14309433102607727
0.17829453945159912 -0.3643410801887512 0.20743852853775024
0.17829453945159912 -0.3488371968269348 0.03724389895796776
0.17829453945159912 -0.3488371968269348 0.12133967131376266
0.17829453945159912 -0.3488371968269348 0.14412826299667358
0.17829453945159912 -0.3488371968269348 0.20620913803577423
0.17829453945159912 -0.3333333134651184 0.037285104393959045
0.17829453945159912 -0.3333333134651184 0.12050451338291168
0.17829453945159912 -0.3333333134651184 0.1454257369041443
0.17829453945159912 -0.3333333134651184 0.20536890625953674
0.17829453945159912 -0.317829430103302 0.03739318251609802
0.17829453945159912 -0.317829430103302 0.11981622874736786
0.17829453945159912 -0.317829430103302 0.14727739989757538
0.17829453945159912 -0.317829430103302 0.204706072807312
0.17829453945159912 -0.30232560634613037 0.037473808974027634
0.17829453945159912 -0.30232560634613037 0.11972245573997498
0.17829453945159912 -0.30232560634613037 0.14895641803741455
0.17829453945159912 -0.30232560634613037 0.2037755846977234
0.17829453945159912 -0.28682172298431396 0.03743218630552292
0.17829453945159912 -0.28682172298431396 0.12028387188911438
0.17829453945159912 -0.28682172298431396 0.14886245131492615
0.17829453945159912 -0.28682172298431396 0.2039642333984375
0.17829453945159912 -0.27131783962249756 0.03737631067633629
0.17829453945159912 -0.27131783962249756 0.12108269333839417
0.17829453945159912 -0.27131783962249756 0.14755429327487946
0.17829453945159912 -0.27131783962249756 0.20506805181503296
0.17829453945159912 -0.25581395626068115 0.03730529919266701
0.17829453945159912 -0.25581395626068115 0.12230361998081207
0.17829453945159912 -0.25581395626068115 0.14527206122875214
0.17829453945159912 -0.25581395626068115 0.20629525184631348
0.17829453945159912 -0.24031007289886475 0.037180352956056595
0.17829453945159912 -0.24031007289886475 0.12355652451515198
0.17829453945159912 -0.24031007289886475 0.14355188608169556
0.17829453945159912 -0.24031007289886475 0.20754891633987427
0.17829453945159912 -0.22480618953704834 0.03712259232997894
0.17829453945159912 -0.22480618953704834 0.1240997165441513
0.17829453945159912 -0.22480618953704834 0.14256051182746887
0.17829453945159912 -0.22480618953704834 0.20860151946544647
0.17829453945159912 -0.20930230617523193 0.037161193788051605
0.17829453945159912 -0.20930230617523193 0.1239955946803093
0.17829453945159912 -0.20930230617523193 0.14272503554821014
0.17829453945159912 -0.20930230617523193 0.2083102911710739
0.17829453945159912 -0.19379842281341553 0.03726105019450188
0.17829453945159912 -0.19379842281341553 0.12396746873855591
0.17829453945159912 -0.19379842281341553 0.14290037751197815
0.17829453945159912 -0.19379842281341553 0.20695947110652924
0.17829453945159912 -0.1782945990562439 0.03741193562746048
0.17829453945159912 -0.1782945990562439 0.12362003326416016
0.17829453945159912 -0.1782945990562439 0.14267578721046448
0.17829453945159912 -0.1782945990562439 0.20558597147464752
0.17829453945159912 -0.1627907156944275 0.03757600486278534
0.17829453945159912 -0.1627907156944275 0.12281878292560577
0.17829453945159912 -0.1627907156944275 0.14281252026557922
0.17829453945159912 -0.1627907156944275 0.20344465970993042
0.17829453945159912 -0.14728683233261108 0.03780108317732811
0.17829453945159912 -0.14728683233261108 0.12182902544736862
0.17829453945159912 -0.14728683233261108 0.14311528205871582
0.17829453945159912 -0.14728683233261108 0.20170915126800537
0.17829453945159912 -0.13178294897079468 0.037938669323921204
0.17829453945159912 -0.13178294897079468 0.1212407648563385
0.17829453945159912 -0.13178294897079468 0.14341020584106445
0.17829453945159912 -0.13178294897079468 0.20055077970027924
0.17829453945159912 -0.11627906560897827 0.037990402430295944
0.17829453945159912 -0.11627906560897827 0.12080883979797363
0.17829453945159912 -0.11627906560897827 0.14351816475391388
0.17829453945159912 -0.11627906560897827 0.1998584270477295
0.17829453945159912 -0.10077518224716187 0.03797418251633644
0.17829453945159912 -0.10077518224716187 0.1207287609577179
0.17829453945159912 -0.10077518224716187 0.1431628167629242
0.17829453945159912 -0.10077518224716187 0.19929879903793335
0.17829453945159912 -0.08527129888534546 0.037931736558675766
0.17829453945159912 -0.08527129888534546 0.12080301344394684
0.17829453945159912 -0.08527129888534546 0.14212308824062347
0.17829453945159912 -0.08527129888534546 0.19961576163768768
0.17829453945159912 -0.06976741552352905 0.03769964724779129
0.17829453945159912 -0.06976741552352905 0.12191544473171234
0.17829453945159912 -0.06976741552352905 0.14047448337078094
0.17829453945159912 -0.06976741552352905 0.20072011649608612
0.17829453945159912 -0.05426359176635742 0.0374634824693203
0.17829453945159912 -0.05426359176635742 0.12283116579055786
0.17829453945159912 -0.05426359176635742 0.13930177688598633
0.17829453945159912 -0.05426359176635742 0.20171824097633362
0.17829453945159912 -0.038759708404541016 0.0372181162238121
0.17829453945159912 -0.038759708404541016 0.12341520935297012
0.17829453945159912 -0.038759708404541016 0.13854964077472687
0.17829453945159912 -0.038759708404541016 0.20243924856185913
0.17829453945159912 -0.02325582504272461 0.03699204698204994
0.17829453945159912 -0.02325582504272461 0.12390244007110596
0.17829453945159912 -0.02325582504272461 0.13815909624099731
0.17829453945159912 -0.02325582504272461 0.20311349630355835
0.17829453945159912 -0.007751941680908203 0.03684045374393463
0.17829453945159912 -0.007751941680908203 0.12398982048034668
0.17829453945159912 -0.007751941680908203 0.13805164396762848
0.17829453945159912 -0.007751941680908203 0.20361554622650146
0.17829453945159912 0.007751941680908203 0.0368521548807621
0.17829453945159912 0.007751941680908203 0.12385445833206177
0.17829453945159912 0.007751941680908203 0.13816943764686584
0.17829453945159912 0.007751941680908203 0.20303896069526672
0.17829453945159912 0.02325582504272461 0.036984413862228394
0.17829453945159912 0.02325582504272461 0.12335874140262604
0.17829453945159912 0.02325582504272461 0.13850608468055725
0.17829453945159912 0.02325582504272461 0.20261412858963013
0.17829453945159912 0.038759708404541016 0.03710147738456726
0.17829453945159912 0.038759708404541016 0.12332210689783096
0.17829453945159912 0.038759708404541016 0.13869404792785645
0.17829453945159912 0.038759708404541016 0.20187082886695862
0.17829453945159912 0.05426359176635742 0.0372048020362854
0.17829453945159912 0.05426359176635742 0.12298962473869324
0.17829453945159912 0.05426359176635742 0.13921888172626495
0.17829453945159912 0.05426359176635742 0.20118208229541779
0.17829453945159912 0.06976747512817383 0.03728913143277168
0.17829453945159912 0.06976747512817383 0.1229248121380806
0.17829453945159912 0.06976747512817383 0.13972613215446472
0.17829453945159912 0.06976747512817383 0.200392946600914
0.17829453945159912 0.08527135848999023 0.037328653037548065
0.17829453945159912 0.08527135848999023 0.12283454835414886
0.17829453945159912 0.08527135848999023 0.14034289121627808
0.17829453945159912 0.08527135848999023 0.20004808902740479
0.17829453945159912 0.10077524185180664 0.03717367723584175
0.17829453945159912 0.10077524185180664 0.12390352040529251
0.17829453945159912 0.10077524185180664 0.13965535163879395
0.17829453945159912 0.10077524185180664 0.20086020231246948
0.17829453945159912 0.11627912521362305 0.037028566002845764
0.17829453945159912 0.11627912521362305 0.12570339441299438
0.17829453945159912 0.11627912521362305 0.13797420263290405
0.17829453945159912 0.11627912521362305 0.2025846242904663
0.17829453945159912 0.1317828893661499 0.03679867461323738
0.17829453945159912 0.1317828893661499 0.1276489496231079
0.17829453945159912 0.1317828893661499 0.1360063999891281
0.17829453945159912 0.1317828893661499 0.20437833666801453
0.17829453945159912 0.1472867727279663 0.036482639610767365
0.17829453945159912 0.1472867727279663 0.12888392806053162
0.17829453945159912 0.1472867727279663 0.13475662469863892
0.17829453945159912 0.1472867727279663 0.2061360627412796
0.17829453945159912 0.16279065608978271 0.03621600195765495
0.17829453945159912 0.16279065608978271 0.1296325922012329
0.17829453945159912 0.16279065608978271 0.13400624692440033
0.17829453945159912 0.16279065608978271 0.20718762278556824
0.17829453945159912 0.17829453945159912 0.03611288592219353
0.17829453945159912 0.17829453945159912 0.1292591392993927
0.17829453945159912 0.17829453945159912 0.13436752557754517
0.17829453945159912 0.17829453945159912 0.2068011611700058
0.17829453945159912 0.19379842281341553 0.03609561547636986
0.17829453945159912 0.19379842281341553 0.1287151426076889
0.17829453945159912 0.19379842281341553 0.13490726053714752
0.17829453945159912 0.19379842281341553 0.20585516095161438
0.17829453945159912 0.20930230617523193 0.036187052726745605
0.17829453945159912 0.20930230617523193 0.12818199396133423
0.17829453945159912 0.20930230617523193 0.13530880212783813
0.17829453945159912 0.20930230617523193 0.20558571815490723
0.17829453945159912 0.22480618953704834 0.03631061315536499
0.17829453945159912 0.22480618953704834 0.1273280680179596
0.17829453945159912 0.22480618953704834 0.1360257863998413
0.17829453945159912 0.22480618953704834 0.20460867881774902
0.17829453945159912 0.24031007289886475 0.03646710142493248
0.17829453945159912 0.24031007289886475 0.12625211477279663
0.17829453945159912 0.24031007289886475 0.1368991583585739
0.17829453945159912 0.24031007289886475 0.20322921872138977
0.17829453945159912 0.25581395626068115 0.036555901169776917
0.17829453945159912 0.25581395626068115 0.1252051293849945
0.17829453945159912 0.25581395626068115 0.1377158761024475
0.17829453945159912 0.25581395626068115 0.20242726802825928
0.17829453945159912 0.27131783962249756 0.036518339067697525
0.17829453945159912 0.27131783962249756 0.12476624548435211
0.17829453945159912 0.27131783962249756 0.1380872279405594
0.17829453945159912 0.27131783962249756 0.20168901979923248
0.17829453945159912 0.28682172298431396 0.036418065428733826
0.17829453945159912 0.28682172298431396 0.12522579729557037
0.17829453945159912 0.28682172298431396 0.13765138387680054
0.17829453945159912 0.28682172298431396 0.20118319988250732
0.17829453945159912 0.30232560634613037 0.03627602756023407
0.17829453945159912 0.30232560634613037 0.12633366882801056
0.17829453945159912 0.30232560634613037 0.13649776577949524
0.17829453945159912 0.30232560634613037 0.20154419541358948
0.17829453945159912 0.3178294897079468 0.03606487438082695
0.17829453945159912 0.3178294897079468 0.12817730009555817
0.17829453945159912 0.3178294897079468 0.13483743369579315
0.17829453945159912 0.3178294897079468 0.20248231291770935
0.17829453945159912 0.3333333730697632 0.03583094850182533
0.17829453945159912 0.3333333730697632 0.13005219399929047
0.17829453945159912 0.3333333730697632 0.13326452672481537
0.17829453945159912 0.3333333730697632 0.20280161499977112
0.17829453945159912 0.3488372564315796 0.03573320433497429
0.17829453945159912 0.3488372564315796 0.13029435276985168
0.17829453945159912 0.3488372266292572 0.13303552567958832
0.17829453945159912 0.3488372564315796 0.20239993929862976
0.17829453945159912 0.364341139793396 0.03565916791558266
0.17829453945159912 0.364341139793396 0.13020502030849457
0.17829453945159912 0.3643411695957184 0.133107990026474
0.17829453945159912 0.364341139793396 0.2016693502664566
0.17829453945159912 0.37984490394592285 0.03571302071213722
0.17829453945159912 0.37984490394592285 0.12928126752376556
0.17829453945159912 0.37984490394592285 0.13381971418857574
0.17829453945159912 0.37984490394592285 0.20074129104614258
0.17829453945159912 0.39534878730773926 0.03592901676893234
0.17829453945159912 0.39534878730773926 0.128540500998497
0.17829453945159912 0.39534878730773926 0.13436900079250336
0.17829453945159912 0.39534878730773926 0.1990191638469696
0.17829453945159912 0.41085267066955566 0.03627687320113182
0.17829453945159912 0.41085267066955566 0.1272265911102295
0.17829453945159912 0.41085267066955566 0.135353684425354
0.17829453945159912 0.41085267066955566 0.1973268687725067
0.17829453945159912 0.42635655403137207 0.036612216383218765
0.17829453945159912 0.42635655403137207 0.12575197219848633
0.17829453945159912 0.42635655403137207 0.1365896314382553
0.17829453945159912 0.42635655403137207 0.19536177814006805
0.17829453945159912 0.4418604373931885 0.03697977215051651
0.17829453945159912 0.4418604373931885 0.12290120124816895
0.17829453945159912 0.4418604373931885 0.1392277181148529
0.17829453945159912 0.4418604373931885 0.19207262992858887
0.17829453945159912 0.4573643207550049 0.037298910319805145
0.17829453945159912 0.4573643207550049 0.12020173668861389
0.17829453945159912 0.4573643207550049 0.14197155833244324
0.17829453945159912 0.4573643207550049 0.18932467699050903
0.17829453945159912 0.4728682041168213 0.037522923201322556
0.17829453945159912 0.4728682041168213 0.11924691498279572
0.17829453945159912 0.4728682041168213 0.14399388432502747
0.17829453945159912 0.4728682041168213 0.1880396008491516
0.17829453945159912 0.4883720874786377 0.03759680688381195
0.17829453945159912 0.4883720874786377 0.12014719843864441
0.17829453945159912 0.4883720874786377 0.14405159652233124
0.17829453945159912 0.4883720874786377 0.18863192200660706
0.17829453945159912 0.5038759708404541 0.0376528725028038
0.17829453945159912 0.5038759708404541 0.12230347096920013
0.17829453945159912 0.5038759708404541 0.14206892251968384
0.17829453945159912 0.5038759708404541 0.19087451696395874
