0.05426359176635742 0.16279065608978271 0.0786563903093338
0.05426359176635742 0.17829453945159912 -0.03115243650972843
0.05426359176635742 0.17829453945159912 0.10769309103488922
0.05426359176635742 0.19379842281341553 0.020990494638681412
0.05426358804106712 0.19379842281341553 0.14949090778827667
0.05426359176635742 0.20930230617523193 0.04889849200844765
0.05426359176635742 0.20930230617523193 0.18433508276939392
0.05426359176635742 0.22480618953704834 0.08118216693401337
0.05426359176635742 0.22480618953704834 0.2153916358947754
0.05426359176635742 0.24031007289886475 0.1305958777666092
0.05426359176635742 0.24031007289886475 0.26148879528045654
0.05426359176635742 0.25581395626068115 0.2236308455467224
0.05426359176635742 0.25581395626068115 0.32100504636764526
0.05426359176635742 0.27131783962249756 0.2518616020679474
0.05426359176635742 0.27131783962249756 0.38483044505119324
0.05426359176635742 0.28682172298431396 0.2896738052368164
0.05426359176635742 0.28682172298431396 0.39823514223098755
0.05426359176635742 0.30232560634613037 0.32308560609817505
0.05426359176635742 0.30232560634613037 0.3982345461845398
0.05426359176635742 0.3178294897079468 0.35896509885787964
0.05426359176635742 0.31782951951026917 0.3983427882194519
0.06976747512817383 -0.3333333134651184 -0.1325673609972
0.06976747512817383 -0.3333333134651184 -0.06631721556186676
0.06976747512817383 -0.317829430103302 -0.13217894732952118
0.06976747512817383 -0.317829430103302 -0.0652923583984375
0.06976747512817383 -0.30232560634613037 -0.13206784427165985
0.06976747512817383 -0.30232560634613037 -0.06373931467533112
0.06976747512817383 -0.28682172298431396 -0.13011644780635834
0.06976747512817383 -0.28682172298431396 -0.061404190957546234
0.06976747512817383 -0.27131783962249756 -0.12105090916156769
0.06976747512817383 -0.27131783962249756 -0.05950328707695007
0.06976747512817383 -0.25581395626068115 -0.10355737805366516
0.06976747512817383 -0.25581395626068115 -0.059681445360183716
0.06976747512817383 -0.24031007289886475 -0.07613292336463928
0.06976747512817383 -0.24031005799770355 -0.06712380796670914
0.06976747512817383 -0.19379842281341553 -0.09691659361124039
0.06976747512817383 -0.19379842281341553 -0.06311491876840591
0.06976747512817383 -0.1782945990562439 -0.10466798394918442
0.06976747512817383 -0.1782945990562439 -0.062280990183353424
0.06976747512817383 -0.1627907156944275 -0.10478249192237854
0.06976747512817383 -0.1627907156944275 -0.06231459975242615
0.06976747512817383 -0.14728683233261108 -0.10225236415863037
0.06976747512817383 -0.14728683233261108 -0.062232449650764465
0.06976747512817383 -0.13178294897079468 -0.08877794444561005
0.06976747512817383 -0.13178294897079468 -0.06339167058467865
0.06976747512817383 -0.08527129888534546 -0.08686739206314087
0.06976747512817383 -0.08527129888534546 -0.06763876229524612
0.06976747512817383 -0.06976741552352905 -0.13715803623199463
0.06976747512817383 -0.06976741552352905 -0.05811423063278198
0.06976747512817383 -0.05426359176635742 -0.14739927649497986
0.06976747512817383 -0.05426359176635742 -0.055669400840997696
0.06976747512817383 -0.038759708404541016 -0.1481337696313858
0.06976747512817383 -0.038759708404541016 -0.05570077896118164
0.06976747512817383 -0.02325582504272461 -0.1484130620956421
0.06976747512817383 -0.02325582504272461 -0.056489426642656326
0.06976747512817383 -0.007751941680908203 -0.1485520303249359
0.06976747512817383 -0.007751941680908203 -0.055510591715574265
0.06976747512817383 0.007751941680908203 -0.14864906668663025
0.06976747512817383 0.007751941680908203 -0.05524272099137306
0.06976747512817383 0.02325582504272461 -0.1487123668193817
0.06976747512817383 0.02325582318007946 -0.054114554077386856
0.06976747512817383 0.038759708404541016 -0.14850124716758728
0.06976747512817383 0.038759708404541016 -0.05516389384865761
0.06976747512817383 0.05426359176635742 -0.14201661944389343
0.06976747512817383 0.05426359176635742 -0.05846188962459564
0.06976747512817383 0.11627912521362305 -0.03949828818440437
0.06976747512817383 0.11627912521362305 -0.03217470645904541
0.06976747512817383 0.1317828893661499 -0.05679493024945259
0.06976747512817383 0.1317828893661499 0.0009254480246454477
0.06976747512817383 0.1472867727279663 -0.05804092064499855
0.06976747512817383 0.1472867727279663 0.05894193425774574
0.06976747512817383 0.16279065608978271 -0.05626629292964935
0.06976747512817383 0.16279065608978271 0.07909396290779114
0.06976747512817383 0.17829453945159912 -0.030529899522662163
0.06976747512817383 0.17829453945159912 0.10821446776390076
0.06976747512817383 0.19379842281341553 0.021545207127928734
0.06976747512817383 0.19379842281341553 0.1515858918428421
0.06976747512817383 0.20930230617523193 0.049436844885349274
0.06976747512817383 0.20930230617523193 0.1848423331975937
0.06976747512817383 0.22480618953704834 0.08179885894060135
0.06976747512817383 0.22480617463588715 0.21522103250026703
0.06976747512817383 0.24031007289886475 0.13152575492858887
0.06976747512817383 0.24031007289886475 0.26177147030830383
0.06976747512817383 0.25581395626068115 0.22559164464473724
0.06976747512817383 0.25581395626068115 0.3206224739551544
0.06976747512817383 0.27131783962249756 0.25222375988960266
0.06976747512817383 0.27131783962249756 0.3840201497077942
0.06976747512817383 0.28682172298431396 0.2892288863658905
0.06976747512817383 0.28682172298431396 0.39819273352622986
0.06976747512817383 0.30232560634613037 0.3225187659263611
0.06976747512817383 0.30232560634613037 0.39819756150245667
0.06976747512817383 0.3178294897079468 0.35831767320632935
0.06976747512817383 0.3178294897079468 0.3982786238193512
0.08527135848999023 -0.3333333134651184 -0.13268782198429108
0.08527135848999023 -0.3333333134651184 -0.0661570131778717
0.08527135848999023 -0.317829430103302 -0.13225997984409332
0.08527135848999023 -0.317829430103302 -0.06511914730072021
0.08527135848999023 -0.30232560634613037 -0.1321558803319931
0.08527135848999023 -0.30232560634613037 -0.06349267065525055
0.08527135848999023 -0.28682172298431396 -0.13076063990592957
0.08527135848999023 -0.28682172298431396 -0.06108349561691284
0.08527135848999023 -0.27131783962249756 -0.12113657593727112
0.08527135848999023 -0.27131783962249756 -0.059139151126146317
0.08527135848999023 -0.25581395626068115 -0.10347484797239304
0.08527135848999023 -0.25581395626068115 -0.05941145494580269
0.08527135848999023 -0.24031007289886475 -0.07548768818378448
0.08527135848999023 -0.24031007289886475 -0.06738517433404922
0.08527135848999023 -0.19379842281341553 -0.09664996713399887
0.08527135848999023 -0.19379842281341553 -0.06306786090135574
0.08527135848999023 -0.1782945990562439 -0.10458416491746902
0.08527135848999023 -0.1782945990562439 -0.06206122413277626
0.08527135848999023 -0.1627907156944275 -0.10474959760904312
0.08527135848999023 -0.1627907156944275 -0.062046997249126434
0.08527135848999023 -0.14728683233261108 -0.10219869762659073
0.08527135848999023 -0.14728683233261108 -0.061964839696884155
0.08527135848999023 -0.13178294897079468 -0.08855533599853516
0.08527135848999023 -0.13178294897079468 -0.06329037249088287
0.08527135848999023 -0.08527129888534546 -0.08632118999958038
0.08527135848999023 -0.08527129888534546 -0.06783857941627502
0.08527135848999023 -0.06976741552352905 -0.1366795301437378
0.08527135848999023 -0.06976741552352905 -0.0578288659453392
0.08527135848999023 -0.05426359176635742 -0.14735864102840424
0.08527135848999023 -0.05426359176635742 -0.05535519868135452
0.08527135848999023 -0.038759708404541016 -0.1481170505285263
0.08527135848999023 -0.038759708404541016 -0.055468495935201645
0.08527135848999023 -0.02325582504272461 -0.1484193652868271
0.08527135848999023 -0.02325582504272461 -0.056248944252729416
0.08527135848999023 -0.007751941680908203 -0.14857015013694763
0.08527135848999023 -0.007751941680908203 -0.055311307311058044
0.08527135848999023 0.007751941680908203 -0.14866295456886292
0.08527135848999023 0.007751941680908203 -0.05516735836863518
0.08527135848999023 0.02325582504272461 -0.14873073995113373
0.08527135848999023 0.02325582504272461 -0.05410671979188919
0.08527135848999023 0.038759708404541016 -0.14853163063526154
0.08527135848999023 0.038759708404541016 -0.05506770312786102
0.08527135848999023 0.05426359176635742 -0.1415054351091385
0.08527135848999023 0.05426359176635742 -0.05828546732664108
0.08527135848999023 0.11627912521362305 -0.03904657065868378
0.08527135848999023 0.11627912521362305 -0.03595463186502457
0.08527135848999023 0.1317828893661499 -0.056699324399232864
0.08527135848999023 0.1317828893661499 0.0003788881003856659
0.08527135848999023 0.1472867727279663 -0.05793525651097298
0.08527135848999023 0.1472867727279663 0.058062419295310974
0.08527135848999023 0.16279065608978271 -0.05625087395310402
0.08527135848999023 0.16279065608978271 0.07882591336965561
0.08527135848999023 0.17829453945159912 -0.030785128474235535
0.08527135848999023 0.17829453945159912 0.10827143490314484
0.08527135848999023 0.19379842281341553 0.021658744663000107
0.08527135848999023 0.19379842281341553 0.15345510840415955
0.08527135848999023 0.20930230617523193 0.04934871941804886
0.08527135848999023 0.20930230617523193 0.18498238921165466
0.08527135848999023 0.22480618953704834 0.08124447613954544
0.08527135848999023 0.22480617463588715 0.2145959436893463
0.08527135848999023 0.24031007289886475 0.13177213072776794
0.08527135848999023 0.24031007289886475 0.2617361843585968
0.08527135848999023 0.25581395626068115 0.2268059253692627
0.08527135103940964 0.25581395626068115 0.3197563886642456
0.08527135848999023 0.27131783962249756 0.2522108554840088
0.08527135848999023 0.27131783962249756 0.38354915380477905
0.08527135848999023 0.28682172298431396 0.2887650728225708
0.08527135848999023 0.28682172298431396 0.39817702770233154
0.08527135848999023 0.30232560634613037 0.3220381438732147
0.08527135848999023 0.30232560634613037 0.3981505036354065
0.08527135848999023 0.3178294897079468 0.3577268719673157
0.08527135848999023 0.3178294897079468 0.3981970250606537
0.10077524185180664 -0.3333333134651184 -0.13266155123710632
0.10077524185180664 -0.3333333134651184 -0.06624321639537811
0.10077524185180664 -0.317829430103302 -0.13224782049655914
0.10077524185180664 -0.317829430103302 -0.06525667011737823
0.10077524185180664 -0.30232560634613037 -0.13213317096233368
0.10077524185180664 -0.30232560634613037 -0.06364014744758606
0.10077523440122604 -0.28682172298431396 -0.13038624823093414
0.10077524185180664 -0.28682172298431396 -0.06122564524412155
0.10077524185180664 -0.27131783962249756 -0.12088803946971893
0.10077524185180664 -0.27131783962249756 -0.059283845126628876
0.10077524185180664 -0.25581395626068115 -0.1032642126083374
0.10077524185180664 -0.25581395626068115 -0.05959586054086685
0.10077524185180664 -0.24031007289886475 -0.07544630765914917
0.10077524930238724 -0.24031007289886475 -0.06748754531145096
0.10077523440122604 -0.19379842281341553 -0.09628446400165558
0.10077524185180664 -0.19379842281341553 -0.06331977248191833
0.10077524185180664 -0.1782945990562439 -0.1044466644525528
0.10077524185180664 -0.1782945990562439 -0.062234893441200256
0.10077524185180664 -0.1627907156944275 -0.10458166897296906
0.10077524185180664 -0.1627907156944275 -0.062189843505620956
0.10077524185180664 -0.14728683233261108 -0.1020413488149643
0.10077524185180664 -0.14728683233261108 -0.06204919517040253
0.10077524185180664 -0.13178294897079468 -0.08818709850311279
0.10077524185180664 -0.13178294897079468 -0.06348639726638794
0.10077524185180664 -0.08527129888534546 -0.08548498153686523
0.10077524185180664 -0.08527129888534546 -0.06823273003101349
0.10077524185180664 -0.06976741552352905 -0.13629183173179626
0.10077524185180664 -0.06976741552352905 -0.05792266130447388
0.10077524185180664 -0.05426359176635742 -0.14729531109333038
0.10077524185180664 -0.05426359176635742 -0.05555367469787598
0.10077524185180664 -0.038759708404541016 -0.14807157218456268
0.10077524185180664 -0.038759708404541016 -0.05573505163192749
0.10077524185180664 -0.02325582504272461 -0.14837992191314697
0.10077524185180664 -0.02325582504272461 -0.056645363569259644
0.10077524185180664 -0.007751941680908203 -0.14854928851127625
0.10077524185180664 -0.007751941680908203 -0.05585777759552002
0.10077524185180664 0.007751941680908203 -0.14864476025104523
0.10077524185180664 0.007751941680908203 -0.055806390941143036
0.10077524185180664 0.02325582504272461 -0.14870955049991608
0.10077524185180664 0.02325582504272461 -0.05422278866171837
0.10077524185180664 0.038759708404541016 -0.14848721027374268
0.10077524185180664 0.038759708404541016 -0.05559556558728218
0.10077524185180664 0.05426359176635742 -0.14062508940696716
0.10077524185180664 0.05426359176635742 -0.058757681399583817
0.10077524185180664 0.1317828893661499 -0.0565728060901165
0.10077524185180664 0.1317828893661499 -0.0004578474909067154
0.10077524185180664 0.1472867727279663 -0.057828404009342194
0.10077524185180664 0.1472867727279663 0.058224670588970184
0.10077524185180664 0.16279065608978271 -0.05620213970541954
0.10077524185180664 0.16279065608978271 0.0793711394071579
0.10077524185180664 0.17829453945159912 -0.03075319528579712
0.10077524185180664 0.17829453945159912 0.10923764109611511
0.10077524185180664 0.19379842281341553 0.02190220169723034
0.10077524185180664 0.19379842281341553 0.1544908583164215
0.10077524185180664 0.20930230617523193 0.04944022744894028
0.10077524185180664 0.20930230617523193 0.18480341136455536
0.10077524185180664 0.22480618953704834 0.08105908334255219
0.10077523440122604 0.22480618953704834 0.21367740631103516
0.10077524185180664 0.24031007289886475 0.13145320117473602
0.10077524185180664 0.24031007289886475 0.2617993652820587
0.10077523440122604 0.25581395626068115 0.22855611145496368
0.10077524930238724 0.25581395626068115 0.31891411542892456
0.10077524185180664 0.27131783962249756 0.25226259231567383
0.10077524185180664 0.27131783962249756 0.3832756280899048
0.10077524185180664 0.28682172298431396 0.2887228727340698
0.10077524185180664 0.28682172298431396 0.3982052505016327
0.10077524930238724 0.30232560634613037 0.32187020778656006
0.10077524185180664 0.30232560634613037 0.39816948771476746
0.10077524185180664 0.3178294897079468 0.3573724031448364
0.10077524185180664 0.3178294897079468 0.3981989920139313
0.11627912521362305 -0.3333333134651184 -0.13243454694747925
0.11627912521362305 -0.3333333134651184 -0.06637221574783325
0.11627912521362305 -0.317829430103302 -0.13208909332752228
0.11627912521362305 -0.317829430103302 -0.06545199453830719
0.11627912521362305 -0.30232560634613037 -0.13191884756088257
0.11627912521362305 -0.30232560634613037 -0.06383025646209717
0.11627913266420364 -0.28682172298431396 -0.12824349105358124
0.11627912521362305 -0.28682172298431396 -0.061404675245285034
0.11627912521362305 -0.27131783962249756 -0.11965933442115784
0.11627912521362305 -0.27131783962249756 -0.05952524393796921
0.11627912521362305 -0.25581395626068115 -0.1020582988858223
0.11627912521362305 -0.25581395626068115 -0.06002611666917801
0.11627912521362305 -0.24031007289886475 -0.07165515422821045
0.11627912521362305 -0.24031007289886475 -0.06892010569572449
0.11627912521362305 -0.19379842281341553 -0.09415082633495331
0.11627912521362305 -0.19379842281341553 -0.06386119872331619
0.11627912521362305 -0.1782945990562439 -0.1038120910525322
0.11627912521362305 -0.1782945990562439 -0.06241368129849434
0.11627912521362305 -0.1627907156944275 -0.10387980192899704
0.11627912521362305 -0.1627907156944275 -0.06237225607037544
0.11627912521362305 -0.14728683233261108 -0.10131067782640457
0.11627912521362305 -0.14728683233261108 -0.06214115023612976
0.11627912521362305 -0.13178294897079468 -0.08688487112522125
0.11627912521362305 -0.13178294897079468 -0.06408167630434036
0.11627912521362305 -0.08527129888534546 -0.07585793733596802
0.11627913266420364 -0.08527129888534546 -0.06913518905639648
0.11627912521362305 -0.06976741552352905 -0.135483056306839
0.11627912521362305 -0.06976741552352905 -0.058175571262836456
0.11627912521362305 -0.05426358804106712 -0.14556513726711273
0.11627912521362305 -0.05426359176635742 -0.05596937611699104
0.11627912521362305 -0.038759708404541016 -0.147915318608284
0.11627912521362305 -0.038759708404541016 -0.056210342794656754
0.11627912521362305 -0.02325582504272461 -0.1482526808977127
0.11627912521362305 -0.02325582504272461 -0.05722072720527649
0.11627912521362305 -0.007751941680908203 -0.1484447568655014
0.11627912521362305 -0.007751941680908203 -0.05655879154801369
0.11627912521362305 0.007751941680908203 -0.14853821694850922
0.11627912521362305 0.007751941680908203 -0.056540437042713165
0.11627912521362305 0.02325582504272461 -0.14857053756713867
0.11627912521362305 0.02325582504272461 -0.055070314556360245
0.11627912521362305 0.038759708404541016 -0.14823997020721436
0.11627912521362305 0.038759708404541016 -0.056320883333683014
0.11627912521362305 0.05426359176635742 -0.13921791315078735
0.11627912521362305 0.05426359176635742 -0.05965907871723175
0.11627912521362305 0.1317828893661499 -0.056254301220178604
0.11627912521362305 0.1317828893661499 -0.0017898697406053543
0.11627912521362305 0.1472867727279663 -0.057546697556972504
0.11627911776304245 0.1472867727279663 0.0581686906516552
0.11627912521362305 0.16279065608978271 -0.05589745193719864
0.11627912521362305 0.16279065608978271 0.07889143377542496
0.11627912521362305 0.17829453945159912 -0.029155176132917404
0.11627912521362305 0.17829453945159912 0.10835704207420349
0.11627912521362305 0.19379842281341553 0.022178931161761284
0.11627912521362305 0.19379842281341553 0.15194353461265564
0.11627912521362305 0.20930230617523193 0.0495804063975811
0.11627912521362305 0.20930232107639313 0.18377408385276794
0.11627912521362305 0.22480618953704834 0.08126486092805862
0.11627912521362305 0.22480618953704834 0.21226593852043152
0.11627912521362305 0.24031007289886475 0.13079075515270233
0.11627912521362305 0.24031007289886475 0.2601585388183594
0.11627912521362305 0.25581395626068115 0.23010380566120148
0.11627912521362305 0.25581395626068115 0.3146008253097534
0.11627912521362305 0.27131783962249756 0.25252482295036316
0.11627912521362305 0.27131783962249756 0.3822936713695526
0.11627913266420364 0.28682172298431396 0.28902244567871094
0.11627912521362305 0.28682172298431396 0.39815863966941833
0.11627913266420364 0.30232560634613037 0.3218855559825897
0.11627912521362305 0.30232560634613037 0.39817652106285095
0.11627912521362305 0.3178294897079468 0.35719209909439087
0.11627912521362305 0.3178294897079468 0.3982193171977997
0.1317828893661499 -0.3333333134651184 -0.13220280408859253
0.1317828893661499 -0.333333283662796 -0.0665246993303299
0.1317828893661499 -0.317829430103302 -0.13189594447612762
0.1317828893661499 -0.317829430103302 -0.06560193002223969
0.1317828893661499 -0.30232560634613037 -0.13082700967788696
0.1317828893661499 -0.30232560634613037 -0.0640113428235054
0.1317828893661499 -0.28682172298431396 -0.12617969512939453
0.1317828893661499 -0.28682172298431396 -0.06163384020328522
0.1317828893661499 -0.27131783962249756 -0.11863277852535248
0.1317828893661499 -0.27131783962249756 -0.0598331056535244
0.1317828893661499 -0.25581395626068115 -0.10142745822668076
0.1317828893661499 -0.25581395626068115 -0.06036437675356865
0.1317828893661499 -0.24031007289886475 -0.07033897191286087
0.1317828893661499 -0.24031007289886475 -0.06950601190328598
0.1317828893661499 -0.19379842281341553 -0.09290207922458649
0.1317828893661499 -0.19379842281341553 -0.06414147466421127
0.1317828893661499 -0.1782945990562439 -0.10333588719367981
0.1317828893661499 -0.1782945990562439 -0.06250281631946564
0.1317828893661499 -0.1627907156944275 -0.1033996045589447
0.1317828893661499 -0.1627907156944275 -0.06243784725666046
0.1317828893661499 -0.14728683233261108 -0.10075952857732773
0.1317828893661499 -0.14728683233261108 -0.062190938740968704
0.1317828893661499 -0.13178294897079468 -0.08610337972640991
0.1317828893661499 -0.13178294897079468 -0.06444206088781357
0.1317828893661499 -0.06976741552352905 -0.1347079873085022
0.1317828893661499 -0.06976741552352905 -0.0584937185049057
0.1317828893661499 -0.05426359176635742 -0.14398515224456787
0.1317828893661499 -0.05426359176635742 -0.056352242827415466
0.1317828893661499 -0.038759708404541016 -0.14774896204471588
0.1317828893661499 -0.038759708404541016 -0.0566483736038208
0.1317828893661499 -0.02325582504272461 -0.14810426533222198
0.1317828893661499 -0.02325582504272461 -0.05774998664855957
0.1317828893661499 -0.007751941680908203 -0.14829669892787933
0.1317828893661499 -0.007751941680908203 -0.05715666711330414
0.1317828893661499 0.007751941680908203 -0.14837291836738586
0.1317828893661499 0.007751941680908203 -0.05702625960111618
0.1317828893661499 0.02325582504272461 -0.14836525917053223
0.1317828893661499 0.02325582504272461 -0.05565495789051056
0.1317828893661499 0.038759708404541016 -0.14794106781482697
0.1317828893661499 0.038759708404541016 -0.0567145012319088
0.1317828893661499 0.05426359176635742 -0.13826356828212738
0.1317828893661499 0.05426359176635742 -0.060420483350753784
0.1317828893661499 0.1317828893661499 -0.05599009990692139
0.1317828893661499 0.1317828893661499 -0.0026238325517624617
0.1317828893661499 0.1472867727279663 -0.057301320135593414
0.1317828893661499 0.1472867727279663 0.05836483836174011
0.1317828893661499 0.16279065608978271 -0.055733680725097656
0.1317828893661499 0.16279065608978271 0.07892497628927231
0.1317828893661499 0.17829453945159912 -0.02926478534936905
0.1317828893661499 0.17829453945159912 0.10877849161624908
0.1317828893661499 0.19379842281341553 0.021970519796013832
0.1317828893661499 0.19379842281341553 0.15116026997566223
0.1317828893661499 0.20930230617523193 0.04909693822264671
0.1317828893661499 0.20930230617523193 0.18322251737117767
0.1317828893661499 0.22480618953704834 0.08058760315179825
0.1317828893661499 0.22480618953704834 0.21142050623893738
0.1317828893661499 0.24031007289886475 0.12876856327056885
0.1317828893661499 0.24031007289886475 0.2594189941883087
0.1317828893661499 0.25581395626068115 0.23065811395645142
0.1317828893661499 0.25581395626068115 0.31219226121902466
0.1317828893661499 0.27131783962249756 0.25229090452194214
0.1317828893661499 0.27131783962249756 0.38192132115364075
0.1317828893661499 0.28682172298431396 0.2889573574066162
0.1317828893661499 0.28682172298431396 0.39817574620246887
0.1317828893661499 0.30232560634613037 0.3219601511955261
0.1317828893661499 0.30232560634613037 0.3982424736022949
0.1317828893661499 0.3178294897079468 0.35721468925476074
0.1317828893661499 0.3178294897079468 0.39829254150390625
0.1472867727279663 -0.3333333134651184 -0.13204330205917358
0.1472867727279663 -0.3333333134651184 -0.06661037355661392
0.1472867727279663 -0.317829430103302 -0.13137798011302948
0.1472867727279663 -0.317829430103302 -0.06571333110332489
0.1472867727279663 -0.30232560634613037 -0.12921126186847687
0.1472867727279663 -0.30232560634613037 -0.0641339123249054
0.1472867727279663 -0.28682172298431396 -0.12450869381427765
0.1472867727279663 -0.28682172298431396 -0.06179254129528999
0.1472867727279663 -0.27131783962249756 -0.11759891360998154
0.1472867727279663 -0.27131783962249756 -0.06018726900219917
0.1472867876291275 -0.25581395626068115 -0.10030791908502579
0.1472867727279663 -0.25581395626068115 -0.06092122569680214
0.1472867727279663 -0.19379842281341553 -0.09184537827968597
0.1472867727279663 -0.19379842281341553 -0.06439150869846344
0.1472867727279663 -0.1782945990562439 -0.10301975905895233
0.1472867727279663 -0.1782945990562439 -0.06256206333637238
0.1472867727279663 -0.1627907156944275 -0.10316211730241776
0.1472867727279663 -0.1627907156944275 -0.06248990818858147
0.1472867727279663 -0.14728683233261108 -0.09908613562583923
0.1472867727279663 -0.14728683233261108 -0.062283389270305634
0.1472867727279663 -0.13178294897079468 -0.08562599867582321
0.1472867727279663 -0.13178294897079468 -0.06468304991722107
0.1472867727279663 -0.06976741552352905 -0.1341467648744583
0.1472867727279663 -0.06976741552352905 -0.05881606787443161
0.1472867727279663 -0.05426359176635742 -0.1431875377893448
0.1472867727279663 -0.05426359176635742 -0.05665560066699982
0.1472867727279663 -0.038759708404541016 -0.14764446020126343
0.1472867727279663 -0.038759708404541016 -0.05694777891039848
0.1472867727279663 -0.02325582504272461 -0.14800381660461426
0.1472867727279663 -0.02325582504272461 -0.058210451155900955
0.1472867727279663 -0.007751941680908203 -0.14819036424160004
0.1472867727279663 -0.007751941680908203 -0.0576830729842186
0.1472867727279663 0.007751941680908203 -0.1482611894607544
0.1472867727279663 0.007751941680908203 -0.05744186416268349
0.1472867727279663 0.02325582504272461 -0.1482531577348709
0.1472867727279663 0.02325582504272461 -0.05609435588121414
0.1472867727279663 0.038759708404541016 -0.14776946604251862
0.1472867727279663 0.038759708404541016 -0.05704518407583237
0.1472867727279663 0.05426359176635742 -0.13755929470062256
0.1472867727279663 0.05426359176635742 -0.06107717752456665
0.1472867727279663 0.1317828893661499 -0.05571279674768448
0.1472867727279663 0.1317828893661499 -0.0027947602793574333
0.1472867727279663 0.1472867727279663 -0.057008806616067886
0.1472867727279663 0.1472867727279663 0.05922253429889679
0.1472867727279663 0.16279065608978271 -0.05555348843336105
0.1472867727279663 0.16279065608978271 0.07920210063457489
0.1472867727279663 0.17829453945159912 -0.030348768457770348
0.1472867727279663 0.17829453945159912 0.10913680493831635
0.1472867727279663 0.19379842281341553 0.021550310775637627
0.1472867727279663 0.19379842281341553 0.15154039859771729
0.1472867727279663 0.20930230617523193 0.048225756734609604
0.1472867727279663 0.20930230617523193 0.1829243004322052
0.1472867727279663 0.22480618953704834 0.0793156772851944
0.1472867727279663 0.22480620443820953 0.2102966606616974
0.1472867727279663 0.24031007289886475 0.12670673429965973
0.1472867727279663 0.24031007289886475 0.2592542767524719
0.1472867727279663 0.25581395626068115 0.23131191730499268
0.1472867727279663 0.25581395626068115 0.3108447790145874
0.1472867727279663 0.27131783962249756 0.2520619332790375
0.1472867727279663 0.27131783962249756 0.3816131353378296
0.1472867727279663 0.28682172298431396 0.288827121257782
0.1472867727279663 0.28682172298431396 0.3983304500579834
0.1472867727279663 0.30232560634613037 0.3221908211708069
0.1472867727279663 0.30232560634613037 0.3983950912952423
0.1472867727279663 0.3178294897079468 0.35740530490875244
0.1472867727279663 0.3178294897079468 0.39840078353881836
0.16279065608978271 -0.3333333134651184 -0.1319080889225006
0.16279065608978271 -0.3333333134651184 -0.06668902933597565
0.16279065608978271 -0.317829430103302 -0.13025030493736267
0.16279065608978271 -0.317829430103302 -0.06590677797794342
0.16279065608978271 -0.30232560634613037 -0.1278436779975891
0.16279065608978271 -0.30232560634613037 -0.0644172802567482
0.16279065608978271 -0.28682172298431396 -0.12321920692920685
0.16279065608978271 -0.28682172298431396 -0.06219020113348961
0.16279065608978271 -0.27131783962249756 -0.11638423055410385
0.16279065608978271 -0.27131783962249756 -0.06079884618520737
0.16279065608978271 -0.25581395626068115 -0.09688719362020493
0.16279065608978271 -0.25581395626068115 -0.061722904443740845
0.16279065608978271 -0.19379842281341553 -0.09066227078437805
0.16279065608978271 -0.19379842281341553 -0.06490296125411987
0.16279065608978271 -0.1782945990562439 -0.10242222249507904
0.16279065608978271 -0.1782945990562439 -0.06278640776872635
0.16279065608978271 -0.1627907156944275 -0.10264305770397186
0.16279065608978271 -0.1627907156944275 -0.06271601468324661
0.16279065608978271 -0.14728683233261108 -0.09661412239074707
0.16279065608978271 -0.14728683233261108 -0.06250516325235367
0.16279065608978271 -0.13178294897079468 -0.08196166902780533
0.16279065608978271 -0.13178294897079468 -0.0653352439403534
0.16279065608978271 -0.06976741552352905 -0.133520245552063
0.16279065608978271 -0.06976741552352905 -0.05917739123106003
0.16279065608978271 -0.05426359176635742 -0.14198696613311768
0.16279065608978271 -0.05426359176635742 -0.05723380297422409
0.16279065608978271 -0.038759708404541016 -0.1474580615758896
0.16279065608978271 -0.038759708404541016 -0.05750442296266556
0.16279065608978271 -0.02325582504272461 -0.14784222841262817
0.16279065608978271 -0.02325582504272461 -0.05871787667274475
0.16279065608978271 -0.007751941680908203 -0.14803020656108856
0.16279065608978271 -0.007751941680908203 -0.05824260413646698
0.16279065608978271 0.007751941680908203 -0.14809973537921906
0.16279065608978271 0.007751941680908203 -0.0580495223402977
0.16279065608978271 0.02325582504272461 -0.1480799913406372
0.16279065608978271 0.02325582504272461 -0.05692227929830551
0.16279065608978271 0.038759708404541016 -0.14753365516662598
0.16279065608978271 0.038759708404541016 -0.05780978500843048
0.16279065608978271 0.05426359176635742 -0.13687998056411743
0.16279065608978271 0.05426359176635742 -0.06192834675312042
0.16279065608978271 0.1317828893661499 -0.05543854460120201
0.16279065608978271 0.1317828893661499 -0.0035191485658288
0.16279065608978271 0.1472867727279663 -0.05674494802951813
0.16279065608978271 0.1472867727279663 0.0586734339594841
0.16279065608978271 0.16279065608978271 -0.05528724938631058
0.16279065608978271 0.16279065608978271 0.07782694697380066
0.16279065608978271 0.17829453945159912 -0.029881883412599564
0.16279065608978271 0.17829453945159912 0.10697364807128906
0.16279065608978271 0.19379842281341553 0.021431950852274895
0.16279065608978271 0.19379842281341553 0.1499955952167511
0.16279065608978271 0.20930230617523193 0.04795442894101143
0.16279065608978271 0.20930230617523193 0.18249624967575073
0.16279065608978271 0.22480618953704834 0.07869306206703186
0.16279065608978271 0.22480618953704834 0.20976915955543518
0.16279065608978271 0.24031007289886475 0.12709149718284607
0.16279065608978271 0.24031007289886475 0.25825780630111694
0.16279065608978271 0.25581395626068115 0.23220029473304749
0.16279065608978271 0.25581395626068115 0.30833834409713745
0.16279065608978271 0.27131783962249756 0.2523854672908783
0.16279065608978271 0.27131783962249756 0.3805404007434845
0.16279065608978271 0.28682172298431396 0.28866642713546753
0.16279065608978271 0.28682172298431396 0.39832109212875366
0.16279065608978271 0.30232560634613037 0.32200390100479126
0.16279065608978271 0.30232560634613037 0.3984113335609436
0.16279065608978271 0.3178294897079468 0.3571801483631134
0.16279065608978271 0.31782951951026917 0.3983669579029083
0.17829453945159912 -0.3333333134651184 -0.13193346560001373
0.17829453945159912 -0.3333333134651184 -0.06669056415557861
0.17829455435276031 -0.317829430103302 -0.1301937848329544
0.17829453945159912 -0.317829430103302 -0.06602438539266586
0.17829455435276031 -0.30232560634613037 -0.12763263285160065
0.17829453945159912 -0.30232560634613037 -0.06455430388450623
0.17829453945159912 -0.28682172298431396 -0.12288340926170349
0.17829453945159912 -0.28682172298431396 -0.06227967143058777
0.17829453945159912 -0.27131783962249756 -0.11459460854530334
0.17829453945159912 -0.27131783962249756 -0.06080728396773338
0.17829453945159912 -0.25581395626068115 -0.09524497389793396
0.17829453945159912 -0.25581395626068115 -0.061666302382946014
0.17829453945159912 -0.19379842281341553 -0.0901869386434555
0.17829453945159912 -0.19379842281341553 -0.06485507637262344
0.17829453945159912 -0.1782945990562439 -0.10218241810798645
0.17829453945159912 -0.1782945990562439 -0.06269263476133347
0.17829453945159912 -0.1627907156944275 -0.10235892981290817
0.17829453945159912 -0.1627907156944275 -0.06260798871517181
0.17829453945159912 -0.14728683233261108 -0.09578797966241837
0.17829453945159912 -0.14728683233261108 -0.06235119327902794
0.17829453945159912 -0.13178294897079468 -0.08049877732992172
0.17829453945159912 -0.13178294897079468 -0.06527820229530334
0.17829453945159912 -0.06976741552352905 -0.13310037553310394
0.17829453945159912 -0.06976741552352905 -0.059230148792266846
0.17829453945159912 -0.05426359176635742 -0.14180539548397064
0.17829453945159912 -0.05426359176635742 -0.05739764869213104
0.17829453945159912 -0.038759708404541016 -0.14747343957424164
0.17829453945159912 -0.038759708404541016 -0.05769409239292145
0.17829453945159912 -0.02325582504272461 -0.14789192378520966
0.17829453945159912 -0.02325582504272461 -0.058803535997867584
0.17829453945159912 -0.007751941680908203 -0.1481090784072876
0.17829453945159912 -0.007751941680908203 -0.05833651125431061
0.17829453945159912 0.007751941680908203 -0.1481959968805313
0.17829453945159912 0.007751941680908203 -0.0582440011203289
0.17829453945159912 0.02325582504272461 -0.1481827199459076
0.17829453945159912 0.02325582504272461 -0.057195864617824554
0.17829453945159912 0.038759708404541016 -0.14764238893985748
0.17829453945159912 0.038759708404541016 -0.05814465135335922
0.17829453945159912 0.05426359176635742 -0.13714517652988434
0.17829453945159912 0.05426359176635742 -0.062064386904239655
0.17829453945159912 0.1317828893661499 -0.05542990192770958
0.17829453945159912 0.1317828893661499 -0.0038706776686012745
0.17829453945159912 0.1472867727279663 -0.05667513981461525
0.17829453945159912 0.1472867727279663 0.05795963108539581
0.17829453945159912 0.16279065608978271 -0.05524030327796936
0.17829453945159912 0.16279065608978271 0.07710707187652588
0.17829453945159912 0.17829453945159912 -0.03023001179099083
0.17829453945159912 0.17829453945159912 0.10578234493732452
0.17829453945159912 0.19379842281341553 0.021132195368409157
0.17829453945159912 0.19379842281341553 0.1479242742061615
0.17829453945159912 0.20930230617523193 0.04760386422276497
0.17829453945159912 0.20930230617523193 0.18219271302223206
0.17829453945159912 0.22480618953704834 0.07799924910068512
0.17829453945159912 0.22480618953704834 0.20996177196502686
0.17829453945159912 0.24031007289886475 0.127844899892807
0.17829453945159912 0.24031007289886475 0.2577372193336487
0.17829453945159912 0.25581395626068115 0.2326093316078186
0.17829453945159912 0.25581395626068115 0.307446151971817
0.17829453945159912 0.27131783962249756 0.25251615047454834
0.17829453945159912 0.27131783962249756 0.3801397383213043
0.17829453945159912 0.28682172298431396 0.28818339109420776
0.17829453945159912 0.28682172298431396 0.39829128980636597
0.17829453945159912 0.30232560634613037 0.3215903043746948
0.17829452455043793 0.30232560634613037 0.3983176052570343
0.17829453945159912 0.3178294897079468 0.35703808069229126
0.17829453945159912 0.3178294897079468 0.3982730507850647
0.19379842281341553 -0.3333333134651184 -0.13202081620693207
0.19379842281341553 -0.3333333134651184 -0.06666886806488037
0.19379842281341553 -0.317829430103302 -0.13084754347801208
0.19379842281341553 -0.317829430103302 -0.06604629009962082
0.19379842281341553 -0.30232560634613037 -0.12831220030784607
0.19379842281341553 -0.30232560634613037 -0.06463012099266052
0.19379842281341553 -0.28682172298431396 -0.12332838773727417
0.19379842281341553 -0.28682172298431396 -0.06232060492038727
0.19379842281341553 -0.27131783962249756 -0.1162831038236618
0.19379842281341553 -0.27131783962249756 -0.06069312244653702
0.19379842281341553 -0.25581395626068115 -0.0959501713514328
0.19379842281341553 -0.25581395626068115 -0.06132069230079651
0.19379842281341553 -0.19379842281341553 -0.09059828519821167
0.19379842281341553 -0.19379842281341553 -0.06452716886997223
0.19379842281341553 -0.1782945990562439 -0.10246559232473373
0.19379842281341553 -0.1782945990562439 -0.06259865313768387
0.19379842281341553 -0.1627907156944275 -0.10260731726884842
0.19379842281341553 -0.1627907156944275 -0.062483951449394226
0.19379842281341553 -0.14728683233261108 -0.09698475897312164
0.19379842281341553 -0.14728683233261108 -0.062194302678108215
0.19379842281341553 -0.13178294897079468 -0.08302895724773407
0.19379842281341553 -0.13178294897079468 -0.06474553048610687
0.19379842281341553 -0.06976741552352905 -0.13326236605644226
0.19379842281341553 -0.06976741552352905 -0.05915527045726776
0.19379842281341553 -0.05426358804106712 -0.14197026193141937
0.19379842281341553 -0.05426359176635742 -0.05735073983669281
0.19379842281341553 -0.038759708404541016 -0.1475190818309784
0.19379842281341553 -0.038759708404541016 -0.05764154717326164
0.19379842281341553 -0.02325582504272461 -0.1479485183954239
0.19379842281341553 -0.02325582504272461 -0.058655232191085815
0.19379842281341553 -0.007751941680908203 -0.14817221462726593
0.19379842281341553 -0.007751941680908203 -0.05816861242055893
0.19379842281341553 0.007751941680908203 -0.1482718288898468
0.19379842281341553 0.007751941680908203 -0.05809886008501053
0.19379842281341553 0.02325582504272461 -0.14826959371566772
0.19379842281341553 0.02325582504272461 -0.0569840669631958
0.19379842281341553 0.038759708404541016 -0.14776062965393066
0.19379842281341553 0.038759708404541016 -0.05808575078845024
0.19379842281341553 0.05426359176635742 -0.13760024309158325
0.19379842281341553 0.05426359176635742 -0.061757877469062805
0.19379842281341553 0.1317828893661499 -0.05560838431119919
0.19379842281341553 0.1317828893661499 -0.003701000940054655
0.19379842281341553 0.1472867727279663 -0.05677306652069092
0.19379842281341553 0.1472867727279663 0.05771017447113991
0.19379842281341553 0.16279065608978271 -0.0553835853934288
0.19379842281341553 0.16279065608978271 0.07704167068004608
0.19379842281341553 0.17829453945159912 -0.031699832528829575
0.19379842281341553 0.17829453945159912 0.10583126544952393
0.19379842281341553 0.19379842281341553 0.020595591515302658
0.19379842281341553 0.19379842281341553 0.14717574417591095
0.19379842281341553 0.20930230617523193 0.04704148322343826
0.19379843771457672 0.20930232107639313 0.18209517002105713
0.19379842281341553 0.22480618953704834 0.07712487876415253
0.19379842281341553 0.22480620443820953 0.21017204225063324
0.19379842281341553 0.24031007289886475 0.1269553303718567
0.19379842281341553 0.24031007289886475 0.2578534781932831
0.19379842281341553 0.25581395626068115 0.23228158056735992
0.19379842281341553 0.25581395626068115 0.3074360489845276
0.19379842281341553 0.27131783962249756 0.25219419598579407
0.19379842281341553 0.27131783962249756 0.38013574481010437
0.19379842281341553 0.28682172298431396 0.2875096797943115
0.19379842281341553 0.28682172298431396 0.39825761318206787
0.19379842281341553 0.30232560634613037 0.32113713026046753
0.19379842281341553 0.30232560634613037 0.39822468161582947
0.19379842281341553 0.3178294897079468 0.3567720055580139
0.19379842281341553 0.3178294897079468 0.3981831967830658
0.20930230617523193 -0.3333333134651184 -0.132096067070961
0.20930230617523193 -0.3333333134651184 -0.0665423646569252
0.20930230617523193 -0.317829430103302 -0.1316237598657608
0.20930230617523193 -0.317829430103302 -0.06591828912496567
0.20930230617523193 -0.30232560634613037 -0.1292317807674408
0.20930230617523193 -0.30232560634613037 -0.06451795995235443
0.20930230617523193 -0.28682172298431396 -0.12409854680299759
0.20930230617523193 -0.28682172298431396 -0.06220921874046326
0.20930230617523193 -0.27131783962249756 -0.11699120700359344
0.20930230617523193 -0.27131783962249756 -0.06057757884263992
0.20930230617523193 -0.25581395626068115 -0.09741294384002686
0.20930230617523193 -0.25581395626068115 -0.061204273253679276
0.20930230617523193 -0.19379842281341553 -0.09090323746204376
0.20930230617523193 -0.19379842281341553 -0.06420230865478516
0.20930230617523193 -0.1782945990562439 -0.10277282446622849
0.20930230617523193 -0.1782945990562439 -0.06231816112995148
0.20930230617523193 -0.1627907156944275 -0.10299350321292877
0.20930230617523193 -0.1627907156944275 -0.06213477998971939
0.20930230617523193 -0.14728683233261108 -0.09910282492637634
0.20930230617523193 -0.14728683233261108 -0.06190573424100876
0.20930230617523193 -0.13178294897079468 -0.0855795368552208
0.20930230617523193 -0.13178294897079468 -0.06426485627889633
0.20930230617523193 -0.06976741552352905 -0.13391831517219543
0.20930230617523193 -0.06976741552352905 -0.058718688786029816
0.20930230617523193 -0.05426359176635742 -0.14237435162067413
0.20930230617523193 -0.05426359176635742 -0.05669989436864853
0.20930230617523193 -0.038759708404541016 -0.1475982666015625
0.20930230617523193 -0.038759708404541016 -0.05687134340405464
0.20930230617523193 -0.02325582504272461 -0.14800845086574554
0.20930230617523193 -0.02325582504272461 -0.057843104004859924
0.20930230617523193 -0.007751941680908203 -0.1482139229774475
0.20930230617523193 -0.007751941680908203 -0.05728266388177872
0.20930230617523193 0.007751941680908203 -0.14831705391407013
0.20930230617523193 0.007751941680908203 -0.05727645009756088
0.20930230617523193 0.02325582504272461 -0.1483345627784729
0.20930230617523193 0.02325582504272461 -0.056113775819540024
0.20930230617523193 0.038759708404541016 -0.14788402616977692
0.20930230617523193 0.038759708404541016 -0.05752261355519295
0.20930230617523193 0.05426359176635742 -0.13811612129211426
0.20930230617523193 0.05426359176635742 -0.06129031628370285
0.20930230617523193 0.1317828893661499 -0.055705368518829346
0.20930229127407074 0.1317828893661499 -0.00317623233422637
0.20930230617523193 0.1472867727279663 -0.05687931552529335
0.20930230617523193 0.1472867727279663 0.05911785364151001
0.20930230617523193 0.16279065608978271 -0.05549934133887291
0.20930230617523193 0.16279065608978271 0.07796117663383484
0.20930230617523193 0.17829453945159912 -0.03283588960766792
0.20930230617523193 0.17829453945159912 0.10678577423095703
0.20930230617523193 0.19379842281341553 0.020019903779029846
0.20930230617523193 0.19379842281341553 0.14832840859889984
0.20930230617523193 0.20930230617523193 0.04658137261867523
0.20930232107639313 0.20930232107639313 0.1824059784412384
0.20930230617523193 0.22480618953704834 0.07680290937423706
0.20930230617523193 0.22480617463588715 0.2110154777765274
0.20930230617523193 0.24031007289886475 0.12577956914901733
0.20930230617523193 0.24031005799770355 0.2583865821361542
0.20930230617523193 0.25581395626068115 0.23090308904647827
0.20930230617523193 0.25581395626068115 0.3080626428127289
0.20930230617523193 0.27131783962249756 0.251703679561615
0.20930230617523193 0.27131783962249756 0.38007432222366333
0.20930230617523193 0.28682172298431396 0.28686127066612244
0.20930230617523193 0.28682172298431396 0.3983774781227112
0.20930232107639313 0.30232560634613037 0.3208296000957489
0.20930230617523193 0.30232560634613037 0.3983679413795471
0.20930230617523193 0.3178294897079468 0.3566141128540039
0.20930230617523193 0.3178294897079468 0.3983091711997986
0.22480618953704834 -0.3333333134651184 -0.13219456374645233
0.22480618953704834 -0.3333333134651184 -0.06631270796060562
0.22480618953704834 -0.317829430103302 -0.1318780779838562
0.22480618953704834 -0.317829430103302 -0.06566397100687027
0.22480618953704834 -0.30232560634613037 -0.13042549788951874
0.22480618953704834 -0.30232560634613037 -0.06422440707683563
0.22480618953704834 -0.28682172298431396 -0.12532281875610352
0.22480618953704834 -0.28682172298431396 -0.06185975670814514
0.22480618953704834 -0.27131783962249756 -0.11802272498607635
0.22480618953704834 -0.27131783962249756 -0.0601288266479969
0.22480618953704834 -0.25581395626068115 -0.10044976323843002
0.22480618953704834 -0.25581395626068115 -0.060683537274599075
0.22480618953704834 -0.19379842281341553 -0.09165379405021667
0.22480618953704834 -0.19379842281341553 -0.06361386924982071
0.22480618953704834 -0.1782945990562439 -0.10325032472610474
0.22480618953704834 -0.1782945990562439 -0.06185757368803024
0.22480618953704834 -0.1627907156944275 -0.1035289317369461
0.22480618953704834 -0.1627907156944275 -0.0615745410323143
0.22480618953704834 -0.14728683233261108 -0.10115008056163788
0.22480618953704834 -0.14728683233261108 -0.06142526492476463
0.22480618953704834 -0.13178294897079468 -0.08681143820285797
0.22480618953704834 -0.13178294897079468 -0.06345459818840027
0.22480618953704834 -0.06976741552352905 -0.13445837795734406
0.22480618953704834 -0.06976741552352905 -0.05822226405143738
0.22480618953704834 -0.05426359176635742 -0.1426517516374588
0.22480618953704834 -0.05426359176635742 -0.055989257991313934
0.22480618953704834 -0.038759708404541016 -0.14764399826526642
0.22480618953704834 -0.038759708404541016 -0.05598355457186699
0.22480618953704834 -0.02325582504272461 -0.14804191887378693
0.22480618953704834 -0.02325582504272461 -0.05678950250148773
0.22480618953704834 -0.007751941680908203 -0.1482345163822174
0.22480618953704834 -0.007751941680908203 -0.056089483201503754
0.22480618953704834 0.007751941680908203 -0.14833980798721313
0.22480618953704834 0.007751941680908203 -0.05612676963210106
0.22480618953704834 0.02325582504272461 -0.1483713686466217
0.22480618953704834 0.02325582504272461 -0.054843489080667496
0.22480618953704834 0.038759708404541016 -0.14798226952552795
0.22480618953704834 0.038759708404541016 -0.05665858834981918
0.22480618953704834 0.05426359176635742 -0.1388687789440155
0.22480618953704834 0.05426359176635742 -0.060393936932086945
0.22480618953704834 0.1317828893661499 -0.055850058794021606
0.22480618953704834 0.1317828893661499 -0.002516631269827485
0.22480618953704834 0.1472867727279663 -0.057060807943344116
0.22480618953704834 0.1472867727279663 0.0601787343621254
0.22480618953704834 0.16279065608978271 -0.05572143569588661
0.22480618953704834 0.16279065608978271 0.07896583527326584
0.22480618953704834 0.17829453945159912 -0.034822121262550354
0.22480618953704834 0.17829453945159912 0.10830525308847427
0.22480618953704834 0.19379842281341553 0.019182169809937477
0.22480618953704834 0.19379842281341553 0.15009763836860657
0.22480618953704834 0.20930230617523193 0.045748792588710785
0.22480618953704834 0.20930230617523193 0.18288597464561462
0.22480618953704834 0.22480618953704834 0.07584568113088608
0.22480618953704834 0.22480618953704834 0.21220052242279053
0.22480618953704834 0.24031007289886475 0.12326431274414062
0.22480618953704834 0.24031007289886475 0.2591620683670044
0.22480618953704834 0.25581395626068115 0.22786104679107666
0.22480618953704834 0.25581395626068115 0.30929017066955566
0.22480618953704834 0.27131783962249756 0.25061357021331787
0.22480618953704834 0.27131783962249756 0.3803873360157013
0.22480618953704834 0.28682172298431396 0.2860965132713318
0.22480618953704834 0.28682172298431396 0.39844125509262085
0.22480618953704834 0.30232560634613037 0.3201519548892975
0.22480618953704834 0.30232560634613037 0.39844995737075806
0.22480618953704834 0.3178294897079468 0.356024831533432
0.22480618953704834 0.3178294897079468 0.39838355779647827
0.24031007289886475 -0.3333333134651184 -0.13238738477230072
0.24031007289886475 -0.3333333134651184 -0.06598290055990219
0.24031007289886475 -0.317829430103302 -0.13205742835998535
0.24031007289886475 -0.317829430103302 -0.06527890264987946
0.24031007289886475 -0.30232560634613037 -0.13187390565872192
0.24031008780002594 -0.30232560634613037 -0.06375282257795334
0.24031007289886475 -0.28682172298431396 -0.12753388285636902
0.24031007289886475 -0.28682172298431396 -0.06123446673154831
0.24031007289886475 -0.27131783962249756 -0.1193874180316925
0.24031007289886475 -0.27131783962249756 -0.059213608503341675
0.24031007289886475 -0.25581395626068115 -0.10193262994289398
0.24031007289886475 -0.25581395626068115 -0.05954712629318237
0.24031007289886475 -0.19379842281341553 -0.09296126663684845
0.24031007289886475 -0.19379842281341553 -0.0626930296421051
0.24031007289886475 -0.1782945990562439 -0.10391313582658768
0.24031007289886475 -0.1782945990562439 -0.06112121418118477
0.24031007289886475 -0.1627907156944275 -0.1043318659067154
0.24031007289886475 -0.1627907156944275 -0.06067012995481491
0.24031007289886475 -0.14728683233261108 -0.10201941430568695
0.24031007289886475 -0.14728683233261108 -0.06067296117544174
