0.007751941680908203 0.046278223395347595 -0.1627907156944275
0.007751941680908203 0.09177635610103607 -0.14728683233261108
0.007751941680908203 0.13140146434307098 -0.13178294897079468
0.007751941680908203 0.17212915420532227 -0.11627906560897827
0.007751941680908203 0.20896928012371063 -0.10077518224716187
0.007751941680908203 0.2425999939441681 -0.08527129888534546
0.007751941680908203 0.30097347497940063 -0.06976741552352905
0.007751941680908203 0.41061797738075256 0.08527135848999023
0.007751941680908203 0.4756947159767151 0.10077524930238724
0.007751941680908203 0.48752257227897644 0.11627912521362305
0.007751941680908203 0.49892446398735046 0.1317828893661499
0.007751941680908203 0.5152326822280884 0.1472867727279663
0.007751941680908203 0.5372083187103271 0.16279065608978271
0.007751941680908203 0.5624897480010986 0.17829453945159912
0.007751941680908203 0.583509087562561 0.19379842281341553
0.007751941680908203 0.6065629720687866 0.20930230617523193
0.007751941680908203 0.6351504325866699 0.22480618953704834
0.007751941680908203 0.6670148372650146 -0.05426359176635742
0.007751941680908203 0.6663992404937744 -0.038759708404541016
0.007751941680908203 0.6651816368103027 -0.02325582504272461
0.007751941680908203 0.6629514098167419 -0.007751941680908203
0.007751941680908203 0.6613894104957581 0.007751941680908203
0.007751941680908203 0.6614156365394592 0.02325582504272461
0.007751941680908203 0.6619393825531006 0.038759708404541016
0.007751941680908203 0.6618407964706421 0.05426359176635742
0.007751941680908203 0.661596953868866 0.06976747512817383
0.007751941215246916 0.6612269282341003 0.08527135848999023
0.007751941680908203 0.6605258584022522 0.10077524185180664
0.007751941680908203 0.660554051399231 0.11627912521362305
0.007751941680908203 0.6615989804267883 0.1317828893661499
0.007751941680908203 0.6640990376472473 0.1472867727279663
0.007751941680908203 0.6669459342956543 0.16279065608978271
0.007751941680908203 0.6684801578521729 0.17829453945159912
0.007751941680908203 0.6718451380729675 0.19379842281341553
0.007751941680908203 0.676143229007721 0.20930230617523193
0.007751941680908203 0.6752553582191467 0.22480618953704834
0.02325582504272461 -0.39672473073005676 0.038759708404541016
0.02325582504272461 -0.36441752314567566 -0.13178294897079468
0.02325582504272461 -0.37778154015541077 0.02325582504272461
0.02325582504272461 -0.3778986930847168 0.05426359176635742
0.02325582504272461 -0.35495245456695557 -0.14728683233261108
0.02325582504272461 -0.3609730899333954 -0.11627906560897827
0.02325582504272461 -0.33740246295928955 -0.1782945990562439
0.02325582504272461 -0.3474743068218231 -0.1627907156944275
0.02325582504272461 -0.3388040065765381 -0.10077518224716187
0.02325582504272461 -0.3353045880794525 0.007751941680908203
0.02325582504272461 -0.33005082607269287 -0.19379842281341553
0.02325582504272461 -0.31520989537239075 -0.20930230617523193
0.02325582504272461 -0.30325061082839966 -0.007751941680908203
0.02325582504272461 -0.2887076139450073 -0.038759708404541016
0.02325582504272461 -0.29473811388015747 -0.02325582504272461
0.02325582504272461 -0.2821616530418396 0.06976747512817383
0.02325582504272461 -0.25999870896339417 -0.05426359176635742
0.02325582504272461 -0.22820353507995605 -0.20930230617523193
0.02325582504272461 -0.16335338354110718 -0.19379842281341553
0.02325582504272461 -0.1484675109386444 -0.08527129888534546
0.02325582504272461 -0.1598239541053772 -0.06976741552352905
0.02325582504272461 -0.023326776921749115 -0.1782945990562439
0.02325582504272461 0.047635823488235474 -0.1627907156944275
0.02325582504272461 0.09347673505544662 -0.14728683233261108
0.02325582504272461 0.1328534036874771 -0.13178294897079468
0.02325582504272461 0.17412462830543518 -0.11627906560897827
0.02325582690536976 0.21065908670425415 -0.10077518224716187
0.02325582504272461 0.2439216822385788 -0.08527129888534546
0.02325582504272461 0.3022567331790924 -0.06976741552352905
0.02325582504272461 0.45806682109832764 0.08527135848999023
0.02325582504272461 0.5731104612350464 -0.007751941680908203
0.02325582504272461 0.5828914642333984 0.007751941680908203
0.02325582504272461 0.595285177230835 0.02325582504272461
0.02325582504272461 0.6058854460716248 0.038759708404541016
0.02325582504272461 0.6352015733718872 -0.02325582504272461
0.02325582504272461 0.6291405558586121 0.05426359176635742
0.02325582504272461 0.6452845931053162 -0.05426359176635742
0.02325582504272461 0.6472916007041931 -0.038759708404541016
0.02325582690536976 0.6439836025238037 0.06976748257875443
0.02325582504272461 0.6448453664779663 0.08527135848999023
0.038759708404541016 -0.34906330704689026 -0.25581395626068115
0.038759708404541016 -0.35313522815704346 -0.14728683233261108
0.038759708404541016 -0.36088138818740845 -0.13178294897079468
0.038759708404541016 -0.35843515396118164 -0.11627905815839767
0.038759708404541016 -0.35143452882766724 0.02325582504272461
0.038759708404541016 -0.3627307415008545 0.038759708404541016
0.038759708404541016 -0.3469712436199188 -0.25581395626068115
0.038759708404541016 -0.3335094153881073 -0.19379842281341553
0.038759708404541016 -0.33678460121154785 -0.1782945990562439
0.038759708404541016 -0.3447656035423279 -0.1627907156944275
0.038759708404541016 -0.3393114507198334 -0.10077518224716187
0.038759708404541016 -0.3464001715183258 0.05426359176635742
0.038759708404541016 -0.3210661709308624 -0.20930230617523193
0.038759708404541016 -0.32735955715179443 0.007751941680908203
0.038759708404541016 -0.2896721661090851 -0.22480618953704834
0.038759708404541016 -0.29088443517684937 -0.038759708404541016
0.038759708404541016 -0.29383668303489685 -0.02325582504272461
0.038759708404541016 -0.30086424946784973 -0.007751941680908203
0.038759708404541016 -0.281984806060791 -0.22480618953704834
0.038759708404541016 -0.2718701660633087 -0.05426359176635742
0.038759708404541016 -0.25305724143981934 0.06976747512817383
0.038759708404541016 -0.22237488627433777 -0.20930230617523193
0.038759708404541016 -0.20618240535259247 -0.06976741552352905
0.038759708404541016 -0.170619934797287 -0.08527129888534546
0.038759708404541016 -0.15645255148410797 -0.19379842281341553
0.038759708404541016 -0.018483230844140053 -0.1782945990562439
0.038759708404541016 0.05170993506908417 -0.1627907156944275
0.038759708404541016 0.09625845402479172 -0.14728683233261108
0.038759708404541016 0.13544009625911713 -0.13178294897079468
0.038759708404541016 0.17744110524654388 -0.11627906560897827
0.038759708404541016 0.21264943480491638 -0.10077518224716187
0.038759708404541016 0.24533359706401825 -0.08527129888534546
0.038759708404541016 0.3037242889404297 -0.06976741552352905
0.038759708404541016 0.48052918910980225 0.08527135848999023
0.038759708404541016 0.5312049388885498 -0.05426359176635742
0.038759708404541016 0.56185382604599 -0.038759708404541016
0.038759708404541016 0.5534204244613647 -0.02325582504272461
0.038759708404541016 0.5513890981674194 -0.007751941680908203
0.038759708404541016 0.5658628940582275 0.007751941680908203
0.038759708404541016 0.582021951675415 0.02325582504272461
0.038759708404541016 0.5995636582374573 0.038759708404541016
0.038759708404541016 0.6256003975868225 0.05426359176635742
0.038759708404541016 0.6439480185508728 0.06976746767759323
0.038759708404541016 0.6449427008628845 0.08527135848999023
0.05426359176635742 -0.3543982207775116 -0.25581395626068115
0.05426359176635742 -0.3491537868976593 -0.14728683233261108
0.05426359176635742 -0.3529270887374878 -0.13178294897079468
0.05426359176635742 -0.3498544991016388 -0.11627906560897827
0.05426359176635742 -0.3340635895729065 -0.1782945990562439
0.05426359176635742 -0.34038877487182617 -0.1627907156944275
0.05426359176635742 -0.3359280824661255 0.02325582504272461
0.05426359176635742 -0.3389134109020233 0.038759708404541016
0.05426359176635742 -0.32764512300491333 -0.25581395626068115
0.05426359176635742 -0.32046598196029663 -0.20930230617523193
0.05426359176635742 -0.32957372069358826 -0.19379842281341553
0.05426359176635742 -0.3267737030982971 -0.10077518224716187
0.05426359176635742 -0.3192845582962036 0.007751941680908203
0.05426359176635742 -0.3196989595890045 0.05426359176635742
0.05426359176635742 -0.29189157485961914 -0.038759708404541016
0.05426359176635742 -0.2933698892593384 -0.02325582504272461
0.05426359176635742 -0.29782089591026306 -0.007751941680908203
0.05426359176635742 -0.27603286504745483 -0.05426359176635742
0.05426359176635742 -0.24396371841430664 -0.06976741552352905
0.05426359176635742 -0.2169775813817978 -0.20930230617523193
0.05426359176635742 -0.21386289596557617 -0.08527129888534546
0.05426359176635742 -0.18296483159065247 0.06976747512817383
0.05426359176635742 -0.151384174823761 -0.19379842281341553
0.05426359549164772 -0.0072113703936338425 -0.1782945990562439
0.05426359176635742 0.05862530693411827 -0.1627907156944275
0.05426359176635742 0.09855497628450394 -0.14728683233261108
0.05426359176635742 0.137780100107193 -0.13178294897079468
0.05426358804106712 0.17927336692810059 -0.11627905815839767
0.05426359549164772 0.21328043937683105 -0.10077518224716187
0.05426359176635742 0.24481752514839172 -0.08527129888534546
0.05426359176635742 0.2994069457054138 -0.06976741552352905
0.05426359176635742 0.42992421984672546 -0.05426359176635742
0.05426359176635742 0.5098478198051453 -0.038759708404541016
0.05426359176635742 0.5154867172241211 -0.02325582504272461
0.05426359176635742 0.5219053626060486 -0.007751941680908203
0.05426359176635742 0.5386252403259277 0.007751941680908203
0.05426359176635742 0.5360503792762756 0.08527135848999023
0.05426359176635742 0.5581982135772705 0.02325582504272461
0.05426358804106712 0.5815380811691284 0.038759708404541016
0.05426359176635742 0.6255531311035156 0.05426359176635742
0.05426359176635742 0.6447297930717468 0.06976747512817383
0.05426359176635742 0.6448205709457397 0.08527135848999023
0.06976747512817383 -0.3368268609046936 -0.1627907156944275
0.06976747512817383 -0.34454816579818726 -0.14728683233261108
0.06976747512817383 -0.34552568197250366 -0.13178294897079468
0.06976747512817383 -0.33367666602134705 -0.11627906560897827
0.06976747512817383 -0.3210161328315735 -0.19379842281341553
0.06976747512817383 -0.3310106694698334 -0.1782945990562439
0.06976747512817383 -0.3182874917984009 0.02325582504272461
0.06976747512817383 -0.30623531341552734 -0.20930230617523193
0.06976747512817383 -0.30639755725860596 0.007751941680908203
0.06976747512817383 -0.3149610161781311 0.038759708404541016
0.06976747512817383 -0.29158562421798706 -0.038759708404541016
0.06976747512817383 -0.2921968996524811 -0.02325582504272461
0.06976747512817383 -0.2924933433532715 -0.007751941680908203
0.06976747512817383 -0.27913787961006165 -0.05426359176635742
0.06976747512817383 -0.26105615496635437 -0.10077518224716187
0.06976747512817383 -0.26975664496421814 0.05426359176635742
0.06976747512817383 -0.25452759861946106 -0.06976741552352905
0.06976747512817383 -0.2368193119764328 -0.08527129888534546
0.06976747512817383 -0.2129020094871521 -0.20930230617523193
0.06976747512817383 -0.14457908272743225 -0.19379842281341553
0.06976747512817383 0.013943284749984741 -0.1782945990562439
0.06976747512817383 0.07381662726402283 -0.1627907156944275
0.06976747512817383 0.10528004914522171 -0.14728683233261108
0.06976747512817383 0.14063936471939087 -0.13178294897079468
0.06976747512817383 0.1791868507862091 -0.11627905815839767
0.06976747512817383 0.20548003911972046 -0.10077518224716187
0.06976747512817383 0.21434485912322998 -0.08527129888534546
0.06976747512817383 0.2752714157104492 -0.06976741552352905
0.06976747512817383 0.3468897342681885 -0.05426359176635742
0.06976747512817383 0.3753783702850342 -0.02325582504272461
0.06976747512817383 0.39228135347366333 -0.038759708404541016
0.06976747512817383 0.3913886845111847 -0.007751941680908203
0.06976747512817383 0.42834025621414185 -0.007751941680908203
0.06976747512817383 0.46221262216567993 -0.007751941680908203
0.06976747512817383 0.4859420657157898 0.007751941680908203
0.06976747512817383 0.5046430230140686 0.02325582504272461
0.06976747512817383 0.5150259137153625 0.06976747512817383
0.06976747512817383 0.5324999690055847 0.038759708404541016
0.06976747512817383 0.5591155290603638 0.08527135848999023
0.06976747512817383 0.6143293976783752 0.05426358804106712
0.06976747512817383 0.6447139978408813 0.06976747512817383
0.06976747512817383 0.6440277695655823 0.08527135848999023
0.08527135848999023 -0.31822872161865234 -0.1627907156944275
0.08527135848999023 -0.32844817638397217 -0.14728683233261108
0.08527135848999023 -0.32066476345062256 -0.13178294897079468
0.08527135848999023 -0.2972848415374756 -0.13178294897079468
0.08527135848999023 -0.28976091742515564 -0.038759708404541016
0.08527135848999023 -0.28902319073677063 -0.02325582504272461
0.08527135848999023 -0.28294771909713745 -0.1782945990562439
0.08527135848999023 -0.27824845910072327 -0.05426359176635742
0.08527135848999023 -0.2807629704475403 -0.007751941680908203
0.08527135848999023 -0.2796197533607483 0.007751941680908203
0.08527135848999023 -0.2856905162334442 0.02325582504272461
0.08527135848999023 -0.2708759903907776 -0.13178294897079468
0.08527135848999023 -0.26692524552345276 0.038759708404541016
0.08527135848999023 -0.25496453046798706 -0.19379842281341553
0.08527135848999023 -0.2520897388458252 -0.06976741552352905
0.08527135848999023 -0.23451316356658936 -0.11627906560897827
0.08527135848999023 -0.2239418625831604 -0.10077518224716187
0.08527135848999023 -0.21369820833206177 -0.08527129888534546
0.08527135848999023 -0.1916545331478119 -0.19379842281341553
0.08527135848999023 -0.1858651041984558 -0.14728683233261108
0.08527135848999023 -0.16432946920394897 -0.1782945990562439
0.08527135848999023 -0.1709064245223999 -0.1627907156944275
0.08527135848999023 -0.17541345953941345 -0.13178294897079468
0.08527135848999023 -0.12216095626354218 -0.14728683233261108
0.08527135848999023 -0.11884810775518417 -0.13178294897079468
0.08527135848999023 -0.0837056115269661 -0.1627907156944275
0.08527135848999023 -0.05224767327308655 0.05426359176635742
0.08527135848999023 0.02719409391283989 -0.06976741552352905
0.08527135848999023 0.028859887272119522 -0.05426359176635742
0.08527135848999023 0.030182022601366043 0.05426359176635742
0.08527135848999023 0.05193358287215233 -0.1627907156944275
0.08527135848999023 0.053451262414455414 -0.14728683233261108
0.08527135848999023 0.04272276163101196 -0.13178294897079468
0.08527135848999023 0.046259015798568726 -0.11627906560897827
0.08527135848999023 0.052965156733989716 -0.10077518224716187
0.08527135848999023 0.04528594762086868 -0.08527129888534546
0.08527135848999023 0.07248856127262115 -0.05426359176635742
0.08527135848999023 0.07618878781795502 0.05426359176635742
0.08527135848999023 0.10003741085529327 -0.08527129888534546
0.08527135848999023 0.09890773892402649 -0.06976741552352905
0.08527135848999023 0.11150360107421875 -0.11627906560897827
0.08527135848999023 0.10538043826818466 -0.10077518224716187
0.08527135848999023 0.12962713837623596 -0.08527129888534546
0.08527135848999023 0.12583279609680176 -0.06976741552352905
0.08527135848999023 0.13721555471420288 -0.10077518224716187
0.08527135848999023 0.14161182940006256 -0.05426359176635742
0.08527135848999023 0.14939317107200623 -0.11627905815839767
0.08527135848999023 0.1522572934627533 -0.038759708404541016
0.08527135848999023 0.1585751473903656 -0.02325582504272461
0.08527135848999023 0.16784504055976868 -0.00775194214656949
0.08527135848999023 0.18808236718177795 0.007751941680908203
0.08527135848999023 0.21753430366516113 0.05426359176635742
0.08527135848999023 0.26527324318885803 0.02325582504272461
0.08527135848999023 0.27719298005104065 0.038759708404541016
0.08527135848999023 0.5503754019737244 0.06976747512817383
0.08527135848999023 0.5699453353881836 0.08527135848999023
0.08527135848999023 0.6434073448181152 0.08527135848999023
0.08527135103940964 0.6439993381500244 0.06976747512817383
0.10077524185180664 -0.2880619764328003 -0.038759708404541016
0.10077524185180664 -0.27415916323661804 -0.05426359176635742
0.10077524185180664 -0.28478261828422546 -0.02325582504272461
0.10077524185180664 -0.26845258474349976 -0.007751941680908203
0.10077524185180664 -0.21670162677764893 0.007751941680908203
0.10077524185180664 -0.12641549110412598 -0.06976741552352905
0.10077524185180664 -0.11878666281700134 0.007751941680908203
0.10077524185180664 -0.08135446161031723 -0.007751941680908203
0.10077524185180664 -0.04671700671315193 -0.02325582504272461
0.10077524185180664 -0.00013007130473852158 -0.06976741552352905
0.10077524185180664 0.005322923883795738 -0.038759708404541016
0.10077524185180664 0.008825440891087055 -0.05426358804106712
0.10077524185180664 0.577825129032135 0.06976747512817383
0.10077524185180664 0.5779159069061279 0.08527135848999023
0.10077524185180664 0.6397119164466858 0.06976747512817383
0.10077524185180664 0.6403676271438599 0.08527135848999023
0.11627912521362305 -0.2875839173793793 -0.038759708404541016
0.11627913266420364 -0.2807919681072235 -0.02325582504272461
0.11627912521362305 -0.26858508586883545 -0.05426359549164772
0.11627912521362305 -0.1707032024860382 -0.02325582504272461
0.11627912521362305 -9.59422904998064e-05 -0.05426359176635742
0.11627912521362305 -0.005322433076798916 -0.038759708404541016
0.11627912521362305 0.5802508592605591 0.08527135848999023
0.11627912521362305 0.588910698890686 0.06976747512817383
0.11627912521362305 0.6365225315093994 0.06976747512817383
0.11627912521362305 0.6402500867843628 0.08527135848999023
0.1317828893661499 -0.28722935914993286 -0.038759708404541016
0.1317828893661499 -0.2797299027442932 -0.02325582504272461
0.1317828893661499 -0.18873457610607147 -0.02325582504272461
0.1317828893661499 -0.17108795046806335 -0.05426359176635742
0.1317828893661499 -0.00020712101832032204 -0.05426359176635742
0.1317828893661499 -0.005631492007523775 -0.038759708404541016
0.1317828893661499 0.5813128352165222 0.08527135848999023
0.1317828893661499 0.5953410267829895 0.06976747512817383
0.1317828893661499 0.633831262588501 0.06976747512817383
0.1317828893661499 0.6390976309776306 0.08527135848999023
0.1472867727279663 -0.2869911193847656 -0.038759708404541016
0.1472867727279663 -0.27788135409355164 -0.02325582504272461
0.1472867727279663 -0.18891672790050507 -0.02325582504272461
0.1472867727279663 -0.1645466834306717 -0.05426359176635742
0.1472867727279663 0.001099978806450963 -0.05426359176635742
0.1472867727279663 -0.005355765111744404 -0.038759708404541016
0.1472867727279663 0.5896639227867126 0.08527135848999023
0.1472867727279663 0.6085390448570251 0.06976747512817383
0.1472867727279663 0.6299053430557251 0.06976747512817383
0.1472867727279663 0.6382049322128296 0.08527135848999023
0.16279065608978271 -0.2859196960926056 -0.038759708404541016
0.16279065608978271 -0.2750954031944275 -0.02325582504272461
0.16279065608978271 -0.19025760889053345 -0.02325582504272461
0.16279065608978271 -0.16259954869747162 -0.05426358804106712
0.16279065608978271 0.0013867963571101427 -0.05426359176635742
0.16279065608978271 -0.005469080992043018 -0.038759708404541016
0.16279065608978271 0.5945780277252197 0.08527135848999023
0.16279065608978271 0.6377231478691101 0.08527135848999023
0.17829453945159912 -0.2829757630825043 -0.038759708404541016
0.17829453945159912 -0.27271491289138794 -0.02325582504272461
0.17829455435276031 -0.19220414757728577 -0.02325582690536976
0.17829453945159912 -0.15816287696361542 -0.05426359176635742
0.17829453945159912 0.0016990231815725565 -0.05426359176635742
0.17829452455043793 -0.0054818796925246716 -0.038759708404541016
0.17829453945159912 0.5967578291893005 0.08527135848999023
0.17829453945159912 0.6362099647521973 0.08527135848999023
0.19379842281341553 -0.28070706129074097 -0.038759708404541016
0.19379842281341553 -0.2651316225528717 -0.02325582504272461
0.19379842281341553 -0.20172113180160522 -0.02325582504272461
0.19379842281341553 -0.1485852301120758 -0.05426359176635742
0.19379842281341553 0.0014221889432519674 -0.05426359176635742
0.19379842281341553 -0.005679722875356674 -0.03875970467925072
0.19379842281341553 0.6051456928253174 0.08527135848999023
0.19379842281341553 0.634876012802124 0.08527135848999023
0.20930230617523193 -0.27822014689445496 -0.038759708404541016
0.20930230617523193 -0.2568984925746918 -0.02325582504272461
0.20930230617523193 -0.21689490973949432 -0.02325582504272461
0.20930230617523193 -0.13297420740127563 -0.05426359176635742
0.20930230617523193 0.00011507770977914333 -0.05426359176635742
0.20930230617523193 -0.0061105284839868546 -0.038759708404541016
0.20930230617523193 0.6069718599319458 0.08527135848999023
0.20930230617523193 0.6343384981155396 0.08527135848999023
0.22480618953704834 -0.27708542346954346 -0.038759708404541016
0.22480618953704834 -0.24716803431510925 -0.02325582504272461
0.22480618953704834 -0.22863076627254486 -0.02325582504272461
0.22480618953704834 -0.12210952490568161 -0.05426359176635742
0.22480618953704834 -0.0006079601589590311 -0.05426359176635742
0.22480618953704834 -0.006369330920279026 -0.038759708404541016
0.22480618953704834 0.6053410768508911 0.08527135848999023
0.22480618953704834 0.635529637336731 0.08527135848999023
0.24031007289886475 -0.27629950642585754 -0.038759708404541016
0.24031007289886475 -0.24976478517055511 -0.02325582504272461
0.24031007289886475 -0.22984150052070618 -0.02325582504272461
0.24031008780002594 -0.11412648856639862 -0.05426359176635742
0.24031007289886475 -0.001018444076180458 -0.05426359176635742
0.24031007289886475 -0.00653473287820816 -0.038759708404541016
0.24031007289886475 0.6028719544410706 0.08527135848999023
0.24031007289886475 0.6371840238571167 0.08527135848999023
0.25581395626068115 -0.27575159072875977 -0.038759708404541016
0.25581395626068115 -0.2573436498641968 -0.02325582504272461
0.25581395626068115 -0.22331497073173523 -0.02325582504272461
0.25581395626068115 -0.10022415220737457 -0.05426359176635742
0.25581395626068115 -0.002375090029090643 -0.05426359176635742
0.25581395626068115 -0.006748886778950691 -0.038759708404541016
0.25581395626068115 0.6004011631011963 0.08527135848999023
0.25581395626068115 0.6402111053466797 0.08527135848999023
0.27131783962249756 -0.2751828134059906 -0.038759708404541016
0.27131783962249756 -0.2599441111087799 -0.02325582504272461
0.27131783962249756 -0.21916444599628448 -0.02325582504272461
0.27131783962249756 -0.09042161703109741 -0.05426359176635742
0.27131783962249756 -0.0030735216569155455 -0.05426359176635742
0.27131783962249756 -0.006707536987960339 -0.038759708404541016
0.27131783962249756 0.6016038060188293 0.08527135848999023
0.27131783962249756 0.6425788402557373 0.08527135848999023
0.28682172298431396 -0.2749030888080597 -0.038759708404541016
0.28682172298431396 -0.2620292901992798 -0.02325582504272461
0.28682172298431396 -0.2172277271747589 -0.02325582504272461
0.28682172298431396 -0.0879640206694603 -0.05426359176635742
0.28682172298431396 -0.0026507372967898846 -0.05426358804106712
0.28682172298431396 -0.006399804260581732 -0.038759708404541016
0.28682172298431396 0.6060000658035278 0.08527135848999023
0.28682172298431396 0.6434180736541748 0.08527135848999023
0.30232560634613037 -0.27473020553588867 -0.038759708404541016
0.30232560634613037 -0.2625071108341217 -0.02325582504272461
0.30232560634613037 -0.2187126874923706 -0.02325582504272461
0.30232560634613037 -0.09170234203338623 -0.05426359176635742
0.30232560634613037 -0.0016899746842682362 -0.05426359176635742
0.302325576543808 -0.005889133084565401 -0.038759708404541016
0.30232560634613037 0.6069289445877075 0.08527135848999023
0.30232560634613037 0.6440685987472534 0.08527135848999023
0.3178294897079468 -0.2742588520050049 -0.038759708404541016
0.3178294897079468 -0.2609235644340515 -0.02325582504272461
0.3178294599056244 -0.2238539308309555 -0.02325582504272461
0.3178294897079468 -0.08727534115314484 -0.05426359176635742
0.3178294897079468 -0.0012145889922976494 -0.05426359176635742
0.3178294897079468 -0.005275780335068703 -0.038759708404541016
0.3178294897079468 0.6073325872421265 0.08527135848999023
0.3178294897079468 0.6435729265213013 0.08527135103940964
0.3333333730697632 -0.2736496031284332 -0.038759708404541016
0.3333333730697632 -0.2579849362373352 -0.02325582504272461
0.3333333730697632 -0.23406943678855896 -0.02325582504272461
0.3333333730697632 -0.07891571521759033 -0.05426359176635742
0.3333333730697632 -0.0004166513681411743 -0.05426359176635742
0.3333333432674408 -0.004806110635399818 -0.038759708404541016
0.3488372564315796 -0.2728169560432434 -0.038759708404541016
0.3488372564315796 -0.0727366954088211 -0.05426359176635742
0.3488372564315796 -0.0003511924296617508 -0.05426359176635742
0.3488372564315796 -0.004925328306853771 -0.038759708404541016
0.364341139793396 -0.27187323570251465 -0.038759708404541016
0.364341139793396 -0.06732804328203201 -0.05426359549164772
0.364341139793396 -0.0001721640583127737 -0.05426359176635742
0.364341139793396 -0.005186164751648903 -0.038759708404541016
0.37984490394592285 -0.27037209272384644 -0.038759712129831314
0.37984490394592285 -0.06801985204219818 -0.05426359176635742
0.37984490394592285 0.0005375843029469252 -0.05426359176635742
0.37984490394592285 -0.005166752263903618 -0.038759708404541016
0.39534878730773926 -0.2662186026573181 -0.038759708404541016
0.39534878730773926 -0.0703839510679245 -0.05426359176635742
0.39534878730773926 0.0010532147716730833 -0.05426359176635742
0.39534878730773926 -0.005036515183746815 -0.038759708404541016
0.41085267066955566 -0.26247191429138184 -0.038759708404541016
0.41085267066955566 -0.07470634579658508 -0.05426359176635742
0.41085267066955566 0.0013159520458430052 -0.05426359176635742
0.41085267066955566 -0.005427999421954155 -0.038759708404541016
0.42635655403137207 -0.2602499723434448 -0.038759708404541016
0.42635655403137207 -0.08126957714557648 -0.05426359176635742
0.42635655403137207 0.002212231745943427 -0.05426359176635742
0.42635658383369446 -0.0050871893763542175 -0.038759708404541016
0.4418604373931885 -0.25800076127052307 -0.038759708404541016
0.4418604373931885 -0.08806496858596802 -0.05426359176635742
0.4418604373931885 0.0032294245902448893 -0.05426359176635742
0.4418604075908661 -0.005100112408399582 -0.03875970467925072
0.4573643207550049 -0.2559625208377838 -0.038759708404541016
0.4573643207550049 -0.09034818410873413 -0.05426359176635742
0.4573643207550049 0.00342708476819098 -0.05426359176635742
0.45736435055732727 -0.005037343129515648 -0.038759708404541016
0.4728682041168213 -0.2488342523574829 -0.038759708404541016
0.4728682041168213 -0.09119927883148193 -0.05426359176635742
0.4728682041168213 0.00475285854190588 -0.05426359176635742
0.4728682041168213 -0.004874858073890209 -0.038759708404541016
0.4883720874786377 -0.2424931824207306 -0.038759708404541016
0.4883720874786377 -0.09138927608728409 -0.05426359176635742
0.4883720874786377 0.006659107282757759 -0.05426359176635742
0.4883720874786377 -0.004732907749712467 -0.038759708404541016
0.5038759708404541 -0.2355526089668274 -0.038759708404541016
0.5038759708404541 -0.08794372528791428 -0.05426359176635742
0.5038759708404541 -0.0043839579448103905 -0.038759708404541016
0.5038759708404541 0.007756755221635103 -0.05426358804106712
0.5193798542022705 -0.22569939494132996 -0.038759708404541016
0.5193798542022705 -0.0870855450630188 -0.05426359176635742
0.5193798542022705 -0.003679366083815694 -0.038759708404541016
0.5193798542022705 0.007965555414557457 -0.05426359176635742
0.5348837375640869 -0.21582388877868652 -0.038759708404541016
0.5348837375640869 -0.08676770329475403 -0.05426359176635742
0.5348837375640869 -0.00297402567230165 -0.038759708404541016
0.5348837375640869 0.008125930093228817 -0.05426359176635742
0.5503876209259033 -0.20277190208435059 -0.038759708404541016
0.5503876209259033 -0.08339440822601318 -0.05426359176635742
0.5503876209259033 -0.0026997642125934362 -0.038759708404541016
0.5503876209259033 0.00809453520923853 -0.05426359176635742
0.5658915042877197 -0.18939858675003052 -0.038759708404541016
0.5658915042877197 -0.0854175016283989 -0.05426359176635742
0.5658915042877197 -0.00210762582719326 -0.038759708404541016
0.5658915042877197 0.008171198889613152 -0.05426359176635742
0.5813953876495361 -0.18051065504550934 -0.038759708404541016
0.5813953876495361 -0.08702406287193298 -0.05426359176635742
0.5813953876495361 -0.0014847253914922476 -0.038759708404541016
0.5813953876495361 0.008266720920801163 -0.05426359176635742
0.5968992710113525 -0.1691758632659912 -0.038759708404541016
0.5968992710113525 -0.08793789893388748 -0.05426359176635742
0.5968992710113525 -0.001178292790427804 -0.038759708404541016
0.5968992710113525 0.008240096271038055 -0.05426359176635742
0.612403154373169 -0.16485999524593353 -0.038759708404541016
0.612403154373169 -0.0907936543226242 -0.05426359176635742
0.612403154373169 -0.0007760673761367798 -0.038759708404541016
0.612403154373169 0.0082961805164814 -0.05426359176635742
0.6279069185256958 -0.15547135472297668 -0.038759708404541016
0.6279069185256958 -0.09523527324199677 -0.05426359176635742
0.6279069185256958 -0.000605658395215869 -0.038759708404541016
0.6279069185256958 0.008314462378621101 -0.05426359176635742
0.6434108018875122 -0.15196660161018372 -0.038759708404541016
0.6434108018875122 -0.09371630847454071 -0.05426359176635742
0.6434108018875122 -0.0007215770892798901 -0.038759708404541016
0.6434108018875122 0.008195072412490845 -0.05426359176635742
0.6589146852493286 -0.14925013482570648 -0.038759708404541016
0.6589146852493286 -0.0882885679602623 -0.05426359176635742
0.6589146852493286 -0.0006248694844543934 -0.038759708404541016
0.6589146852493286 0.008123420178890228 -0.05426359176635742
0.674418568611145 -0.14599116146564484 -0.038759708404541016
0.674418568611145 -0.08222942054271698 -0.05426359176635742
0.674418568611145 -0.0003462724853307009 -0.038759708404541016
0.6744186282157898 0.0080800112336874 -0.05426359549164772
0.6899224519729614 -0.14105269312858582 -0.038759708404541016
0.6899224519729614 -0.07367590069770813 -0.05426359176635742
0.6899224519729614 0.0006409166380763054 -0.038759708404541016
0.6899224519729614 0.008058562874794006 -0.05426359176635742
0.7054263353347778 -0.13966917991638184 -0.038759708404541016
0.7054263353347778 -0.06189990043640137 -0.05426359176635742
0.7054263353347778 0.002668040804564953 -0.038759708404541016
0.7054263353347778 0.008126412518322468 -0.05426359176635742
0.7209302186965942 -0.13759920001029968 -0.038759708404541016
0.7209302186965942 -0.04663463309407234 -0.05426359176635742
0.7209302186965942 0.005481495521962643 -0.038759708404541016
0.7209302186965942 0.008155940100550652 -0.05426359176635742
0.7364341020584106 -0.13582070171833038 -0.038759708404541016
0.7364341020584106 -0.03326671943068504 -0.05426359176635742
0.7364341020584106 0.007363155484199524 -0.038759708404541016
0.7364341020584106 0.008008710108697414 -0.05426359176635742
0.751937985420227 -0.13424646854400635 -0.038759708404541016
0.751937985420227 -0.016408637166023254 -0.05426359176635742
0.751937985420227 0.007753938902169466 -0.05426359176635742
0.751937985420227 0.007861119695007801 -0.038759708404541016
0.7674418687820435 -0.13264790177345276 -0.038759708404541016
0.7674418687820435 0.008023408241569996 -0.03875970467925072
0.7829457521438599 -0.13038362562656403 -0.038759708404541016
0.7829457521438599 0.00823040958493948 -0.038759708404541016
0.7984496355056763 -0.12862756848335266 -0.038759708404541016
0.7984496355056763 0.00844569317996502 -0.038759708404541016
0.8139535188674927 -0.1275848001241684 -0.038759708404541016
0.8139535188674927 0.008622616529464722 -0.038759708404541016
0.8294574022293091 -0.12624719738960266 -0.038759708404541016
0.8294574022293091 0.00872045662254095 -0.038759708404541016
0.8449612855911255 -0.12446404993534088 -0.038759708404541016
0.8449612855911255 0.008651822805404663 -0.038759708404541016
0.8604651689529419 -0.12295621633529663 -0.038759708404541016
0.8604652285575867 0.00858287513256073 -0.038759708404541016
0.8759689331054688 -0.12142015993595123 -0.038759708404541016
0.8759689331054688 0.008637367747724056 -0.038759708404541016
0.8914728164672852 -0.1202927678823471 -0.038759708404541016
0.8914728164672852 0.008712388575077057 -0.038759708404541016
0.9069766998291016 -0.11952648311853409 -0.038759708404541016
0.9069766998291016 0.008769434876739979 -0.038759708404541016
0.922480583190918 -0.11859524995088577 -0.038759708404541016
0.922480583190918 0.008680436760187149 -0.038759708404541016
0.9379844665527344 -0.11765334010124207 -0.038759708404541016
0.9379844665527344 0.008606146089732647 -0.038759708404541016
0.9534883499145508 -0.11664815247058868 -0.038759708404541016
0.953488290309906 0.008614566177129745 -0.03875970467925072
0.968992292881012 -0.11486347019672394 -0.038759708404541016
0.9689922332763672 0.008816216140985489 -0.038759708404541016
0.9844961166381836 -0.10839114338159561 -0.038759708404541016
0.9844961166381836 0.008992986753582954 -0.038759708404541016
-0.9844961166381836 -0.10077518224716187 -0.04064576327800751
-0.9844961166381836 -0.10077518224716187 -0.03551154211163521
-0.9844961166381836 -0.08527129888534546 -0.04211550951004028
-0.9844960570335388 -0.08527129888534546 -0.03283069655299187
-0.9844961166381836 -0.06976741552352905 -0.042481087148189545
-0.9844961166381836 -0.06976741552352905 -0.03310174494981766
-0.9844961166381836 -0.05426359176635742 -0.0425981841981411
-0.9844961166381836 -0.05426359176635742 -0.03373934328556061
-0.9844961166381836 -0.038759708404541016 -0.04269462078809738
-0.9844961166381836 -0.038759708404541016 -0.0342288613319397
-0.9844961166381836 -0.02325582504272461 -0.04290927201509476
-0.9844961166381836 -0.02325582504272461 -0.03442944958806038
-0.9844961166381836 -0.007751941680908203 -0.042349234223365784
-0.9844961166381836 -0.007751941680908203 -0.035114821046590805
-0.9844961166381836 0.007751941680908203 -0.03955307975411415
-0.9844961762428284 0.007751941680908203 -0.037974387407302856
-0.9689922332763672 -0.10077518224716187 -0.040411416441202164
-0.9689922332763672 -0.10077517479658127 -0.033789850771427155
-0.9689922332763672 -0.08527129888534546 -0.04104064032435417
-0.9689921736717224 -0.08527129888534546 -0.03214515745639801
-0.9689922332763672 -0.06976741552352905 -0.041298769414424896
-0.9689922332763672 -0.06976741552352905 -0.0327780619263649
-0.9689922332763672 -0.05426359176635742 -0.04153015464544296
-0.9689922332763672 -0.05426359176635742 -0.033765338361263275
-0.9689922332763672 -0.038759708404541016 -0.041692182421684265
-0.9689922332763672 -0.038759708404541016 -0.03485933318734169
-0.9689922332763672 -0.02325582504272461 -0.041983697563409805
-0.9689922332763672 -0.02325582504272461 -0.035670313984155655
-0.9689922332763672 -0.007751941680908203 -0.04188315570354462
-0.9689922332763672 -0.007751941680908203 -0.03615766763687134
-0.9689922332763672 0.007751941680908203 -0.0395604707300663
-0.9689922332763672 0.007751941680908203 -0.038162436336278915
-0.9534883499145508 -0.10077518224716187 -0.04054953530430794
-0.9534883499145508 -0.10077518224716187 -0.03374379500746727
-0.9534883499145508 -0.08527129888534546 -0.04068286716938019
-0.9534883499145508 -0.08527129888534546 -0.03349490463733673
-0.9534883499145508 -0.06976741552352905 -0.04078228026628494
-0.9534883499145508 -0.06976741552352905 -0.03448433429002762
-0.9534883499145508 -0.05426359176635742 -0.04103400185704231
-0.9534883499145508 -0.05426359176635742 -0.03514459356665611
-0.9534883499145508 -0.038759708404541016 -0.04130777716636658
-0.9534883499145508 -0.038759708404541016 -0.03581410273909569
-0.9534883499145508 -0.02325582504272461 -0.041603222489356995
-0.9534883499145508 -0.02325582504272461 -0.03643029183149338
-0.9534883499145508 -0.007751941680908203 -0.0414518341422081
-0.9534883499145508 -0.007751941680908203 -0.03673524037003517
-0.9534883499145508 0.007751941680908203 -0.03958391398191452
-0.9534883499145508 0.007751941680908203 -0.038207489997148514
-0.9379844665527344 -0.10077518224716187 -0.040994662791490555
-0.9379844665527344 -0.10077518224716187 -0.03275619447231293
-0.9379844665527344 -0.08527129888534546 -0.040685467422008514
-0.9379845261573792 -0.08527129888534546 -0.033759452402591705
-0.9379844665527344 -0.06976741552352905 -0.0407010056078434
-0.9379844069480896 -0.06976741552352905 -0.035070501267910004
-0.9379844665527344 -0.05426359176635742 -0.04111228883266449
-0.9379844665527344 -0.05426359176635742 -0.035578638315200806
-0.9379844665527344 -0.038759708404541016 -0.04153957590460777
-0.9379844665527344 -0.038759708404541016 -0.036085888743400574
-0.9379844665527344 -0.02325582504272461 -0.041868094354867935
-0.9379844665527344 -0.02325582504272461 -0.03662654757499695
-0.9379844665527344 -0.007751941680908203 -0.04163714125752449
-0.9379844069480896 -0.007751941680908203 -0.03686455637216568
-0.9379844665527344 0.007751941680908203 -0.04002169892191887
-0.9379845261573792 0.007751941680908203 -0.03803650289773941
-0.9224806427955627 -0.11627906560897827 -0.03913092240691185
-0.9224806427955627 -0.11627905815839767 -0.038151323795318604
-0.9224806427955627 -0.10077518224716187 -0.041327036917209625
-0.922480583190918 -0.10077518224716187 -0.032224833965301514
-0.9224806427955627 -0.08527129888534546 -0.04085102677345276
-0.9224807024002075 -0.08527129888534546 -0.03383646905422211
-0.9224806427955627 -0.06976741552352905 -0.04095245525240898
-0.9224806427955627 -0.06976741552352905 -0.035228848457336426
-0.9224807024002075 -0.05426359176635742 -0.04157968610525131
-0.9224806427955627 -0.05426359176635742 -0.035642288625240326
-0.9224807024002075 -0.038759708404541016 -0.042124971747398376
-0.922480583190918 -0.038759708404541016 -0.03611508011817932
-0.9224806427955627 -0.02325582504272461 -0.04248573258519173
-0.9224806427955627 -0.02325582504272461 -0.03664799779653549
-0.9224806427955627 -0.007751941680908203 -0.04217570275068283
-0.9224806427955627 -0.007751941680908203 -0.03686884418129921
-0.9224806427955627 0.007751941680908203 -0.04059991240501404
-0.9224806427955627 0.007751941680908203 -0.0378723181784153
-0.9069767594337463 -0.11627906560897827 -0.03965425491333008
-0.9069767594337463 -0.11627906560897827 -0.03730490431189537
-0.9069767594337463 -0.10077518224716187 -0.04154589772224426
-0.9069766998291016 -0.10077518224716187 -0.03192843496799469
-0.9069767594337463 -0.08527129888534546 -0.04108131676912308
-0.9069766998291016 -0.08527129888534546 -0.033837541937828064
-0.9069767594337463 -0.06976741552352905 -0.041335783898830414
-0.9069767594337463 -0.06976741552352905 -0.03523259982466698
-0.9069766998291016 -0.05426359176635742 -0.042134251445531845
-0.9069767594337463 -0.05426359176635742 -0.03560076281428337
-0.9069768190383911 -0.038759708404541016 -0.04278412461280823
-0.9069767594337463 -0.038759708404541016 -0.036074284464120865
-0.9069767594337463 -0.02325582504272461 -0.04318529739975929
-0.9069767594337463 -0.02325582504272461 -0.036622561514377594
-0.9069767594337463 -0.007751941680908203 -0.042880646884441376
-0.9069767594337463 -0.007751941680908203 -0.036826495081186295
-0.9069767594337463 0.007751941680908203 -0.04108124598860741
-0.9069767594337463 0.007751941680908203 -0.037819523364305496
-0.8914728760719299 -0.11627906560897827 -0.04004655405879021
-0.8914728760719299 -0.11627906560897827 -0.03669481724500656
-0.8914728760719299 -0.10077518224716187 -0.04169357568025589
-0.8914728760719299 -0.10077518224716187 -0.0317603163421154
-0.8914728164672852 -0.08527129888534546 -0.04126433655619621
-0.8914728760719299 -0.08527129888534546 -0.03382454067468643
-0.8914728760719299 -0.06976741552352905 -0.04157422482967377
-0.8914728760719299 -0.06976741552352905 -0.035246361047029495
-0.8914728164672852 -0.05426359176635742 -0.042410463094711304
-0.8914728164672852 -0.05426359176635742 -0.03560293838381767
-0.8914728760719299 -0.038759708404541016 -0.043096162378787994
-0.8914728760719299 -0.038759708404541016 -0.036070648580789566
-0.8914728164672852 -0.02325582504272461 -0.043470315635204315
-0.8914728760719299 -0.02325582504272461 -0.03661859780550003
-0.8914729356765747 -0.007751941680908203 -0.04321614280343056
-0.8914728760719299 -0.007751941680908203 -0.03678591921925545
-0.8914728760719299 0.007751941680908203 -0.04120267927646637
-0.8914728760719299 0.007751941680908203 -0.03781447187066078
-0.8759690523147583 -0.11627906560897827 -0.040421195328235626
-0.8759689927101135 -0.11627906560897827 -0.03616143763065338
-0.8759689927101135 -0.10077518224716187 -0.04182884097099304
-0.8759690523147583 -0.10077518224716187 -0.03182202950119972
-0.8759689927101135 -0.08527129888534546 -0.04140881448984146
-0.8759689927101135 -0.08527129888534546 -0.033993903547525406
-0.8759689927101135 -0.06976741552352905 -0.04174117371439934
-0.8759689927101135 -0.06976741552352905 -0.03538478538393974
-0.8759689927101135 -0.05426359176635742 -0.04261550307273865
-0.8759690523147583 -0.05426359176635742 -0.03569049388170242
-0.8759689331054688 -0.038759708404541016 -0.04332166910171509
-0.8759689927101135 -0.03875970467925072 -0.03612079098820686
-0.8759689331054688 -0.02325582504272461 -0.043638311326503754
-0.8759689927101135 -0.02325582504272461 -0.0366528257727623
-0.8759690523147583 -0.007751941680908203 -0.04335179179906845
-0.8759689927101135 -0.00775194214656949 -0.036805689334869385
-0.8759689927101135 0.007751941680908203 -0.04109837859869003
-0.8759689927101135 0.007751941680908203 -0.03789108619093895
-0.8604651093482971 -0.11627906560897827 -0.04071515053510666
-0.8604651093482971 -0.11627906560897827 -0.03573393449187279
-0.8604651093482971 -0.10077518224716187 -0.04192167893052101
-0.8604650497436523 -0.10077518224716187 -0.0319976881146431
-0.8604651093482971 -0.08527129888534546 -0.04167274385690689
-0.8604651093482971 -0.08527129888534546 -0.034044597297906876
-0.8604651093482971 -0.06976741552352905 -0.04209497198462486
-0.8604651093482971 -0.06976741552352905 -0.03539098799228668
-0.8604651093482971 -0.05426359176635742 -0.043039023876190186
-0.8604651093482971 -0.05426359176635742 -0.035705626010894775
-0.8604651689529419 -0.038759708404541016 -0.04382111132144928
-0.8604651093482971 -0.038759712129831314 -0.03613617643713951
-0.8604650497436523 -0.02325582504272461 -0.04418874904513359
-0.8604650497436523 -0.02325582504272461 -0.03666172921657562
-0.8604651093482971 -0.007751941680908203 -0.04391162097454071
-0.8604650497436523 -0.007751941680908203 -0.03680698946118355
-0.8604651093482971 0.007751941680908203 -0.04178232327103615
-0.8604651093482971 0.007751941680908203 -0.03773248568177223
-0.8449612259864807 -0.11627906560897827 -0.04099034518003464
-0.8449612259864807 -0.11627905815839767 -0.035453327000141144
-0.8449612855911255 -0.10077518224716187 -0.0421944297850132
-0.8449612259864807 -0.10077518224716187 -0.03202478960156441
-0.8449611663818359 -0.08527129888534546 -0.04196977615356445
-0.8449611663818359 -0.08527129888534546 -0.03410905972123146
-0.8449612259864807 -0.06976741552352905 -0.04237940534949303
-0.8449612259864807 -0.06976741552352905 -0.03551674634218216
-0.8449612855911255 -0.05426359176635742 -0.043392837047576904
-0.8449612259864807 -0.05426359176635742 -0.035832587629556656
-0.8449612259864807 -0.038759708404541016 -0.04423588514328003
-0.8449612259864807 -0.038759708404541016 -0.03624653071165085
-0.8449612259864807 -0.02325582504272461 -0.04459761083126068
-0.8449612259864807 -0.02325582504272461 -0.036725930869579315
-0.8449612855911255 -0.007751941680908203 -0.04428612440824509
-0.8449612259864807 -0.007751941215246916 -0.03682560473680496
-0.8449612259864807 0.007751941680908203 -0.04217224940657616
-0.8449612855911255 0.007751941680908203 -0.03767351806163788
-0.8294574022293091 -0.11627906560897827 -0.0411604680120945
-0.8294573426246643 -0.11627907305955887 -0.035341016948223114
-0.8294574022293091 -0.10077518224716187 -0.042311906814575195
-0.8294574022293091 -0.10077518224716187 -0.03236193209886551
-0.8294573426246643 -0.08527129888534546 -0.04215408116579056
-0.8294572830200195 -0.08527129888534546 -0.034325357526540756
-0.8294572830200195 -0.06976741552352905 -0.042612865567207336
-0.8294572830200195 -0.06976741552352905 -0.03561589494347572
-0.8294572830200195 -0.05426359176635742 -0.043687865138053894
-0.8294572830200195 -0.05426359176635742 -0.0359157957136631
-0.8294573426246643 -0.038759708404541016 -0.04458821564912796
-0.8294573426246643 -0.03875970467925072 -0.036318499594926834
-0.8294573426246643 -0.02325582504272461 -0.04496343061327934
-0.8294573426246643 -0.02325582504272461 -0.03677491471171379
-0.8294572830200195 -0.007751941680908203 -0.04458646476268768
-0.8294572830200195 -0.007751941680908203 -0.03685920685529709
-0.8294573426246643 0.007751941680908203 -0.042614951729774475
-0.8294573426246643 0.007751941680908203 -0.0376126728951931
-0.8139535188674927 -0.11627906560897827 -0.04125303402543068
-0.8139535188674927 -0.11627906560897827 -0.035342443734407425
-0.8139535188674927 -0.10077518224716187 -0.04232846572995186
-0.8139535188674927 -0.10077518224716187 -0.032817937433719635
-0.8139535188674927 -0.08527129888534546 -0.042298197746276855
-0.8139535188674927 -0.08527129888534546 -0.03453097119927406
-0.8139535188674927 -0.06976741552352905 -0.04288635030388832
-0.8139535188674927 -0.06976741552352905 -0.03562918305397034
-0.8139535188674927 -0.05426359176635742 -0.04404544085264206
-0.8139535188674927 -0.05426359176635742 -0.03592877462506294
-0.8139535188674927 -0.038759708404541016 -0.04504668712615967
-0.8139535188674927 -0.038759712129831314 -0.03634542226791382
-0.8139535188674927 -0.02325582504272461 -0.04544059932231903
-0.8139535188674927 -0.02325582504272461 -0.03681084141135216
-0.8139535188674927 -0.007751941680908203 -0.0449414998292923
-0.8139535188674927 -0.007751941680908203 -0.03689803183078766
-0.8139535188674927 0.007751941680908203 -0.04296141117811203
-0.8139535188674927 0.00775194214656949 -0.037563178688287735
-0.7984496355056763 -0.11627906560897827 -0.041254326701164246
-0.7984496355056763 -0.11627905815839767 -0.0355740562081337
-0.7984496355056763 -0.10077518224716187 -0.04226230829954147
-0.7984496355056763 -0.10077518224716187 -0.03356107324361801
-0.7984496355056763 -0.08527129888534546 -0.042433954775333405
-0.798449695110321 -0.08527130633592606 -0.03478781133890152
-0.7984496355056763 -0.06976741552352905 -0.043189823627471924
-0.7984496355056763 -0.06976741552352905 -0.035607580095529556
-0.7984496355056763 -0.05426359176635742 -0.044430844485759735
-0.7984496355056763 -0.05426359176635742 -0.03589526563882828
-0.7984496355056763 -0.038759708404541016 -0.045528434216976166
-0.7984496355056763 -0.038759708404541016 -0.03634146600961685
-0.7984496355056763 -0.02325582504272461 -0.04591794312000275
-0.7984496355056763 -0.02325582504272461 -0.036843422800302505
-0.7984496355056763 -0.007751941680908203 -0.045251794159412384
-0.7984496355056763 -0.007751941680908203 -0.03695084527134895
-0.7984496355056763 0.007751941680908203 -0.0429973304271698
-0.7984496355056763 0.007751941680908203 -0.03760417550802231
-0.7829457521438599 -0.11627906560897827 -0.041219405829906464
-0.7829457521438599 -0.11627907305955887 -0.035848598927259445
-0.7829457521438599 -0.10077518224716187 -0.04209054261445999
-0.7829457521438599 -0.10077518224716187 -0.034308113157749176
-0.7829457521438599 -0.08527129888534546 -0.04243914783000946
-0.7829457521438599 -0.08527129888534546 -0.03506134822964668
-0.7829457521438599 -0.06976741552352905 -0.04337824881076813
-0.7829457521438599 -0.06976741552352905 -0.03557620570063591
-0.7829457521438599 -0.05426359176635742 -0.04471292346715927
-0.7829457521438599 -0.05426359176635742 -0.03583122044801712
-0.7829457521438599 -0.038759708404541016 -0.045953355729579926
-0.7829457521438599 -0.038759708404541016 -0.03629688173532486
-0.7829457521438599 -0.02325582504272461 -0.046397119760513306
