-0.06976741552352905 0.038759708404541016 -0.15255478024482727
-0.06976741552352905 0.038759708404541016 0.03672628849744797
-0.06976741552352905 0.05426359176635742 -0.1505489945411682
-0.06976741552352905 0.05426359176635742 0.03644893318414688
-0.06976741552352905 0.06976747512817383 -0.14792069792747498
-0.06976741552352905 0.06976747512817383 0.03634786605834961
-0.06976741552352905 0.08527135848999023 -0.14445248246192932
-0.06976741552352905 0.08527135848999023 0.03647784888744354
-0.06976741552352905 0.10077524185180664 -0.14203648269176483
-0.06976741552352905 0.10077524185180664 0.037486761808395386
-0.06976741552352905 0.11627912521362305 -0.14054763317108154
-0.06976741552352905 0.11627912521362305 0.038836345076560974
-0.06976741552352905 0.1317828893661499 -0.13922567665576935
-0.06976741552352905 0.1317828893661499 0.039916425943374634
-0.06976741552352905 0.1472867727279663 -0.137765035033226
-0.06976741552352905 0.1472867727279663 0.041072674095630646
-0.06976741552352905 0.16279065608978271 -0.13556230068206787
-0.06976741552352905 0.16279065608978271 0.04174733906984329
-0.06976741552352905 0.17829453945159912 -0.13259807229042053
-0.06976741552352905 0.17829453945159912 0.04193643480539322
-0.06976741552352905 0.19379842281341553 -0.12856395542621613
-0.06976741552352905 0.19379842281341553 0.04189101234078407
-0.06976741552352905 0.20930230617523193 -0.12550891935825348
-0.06976741552352905 0.20930230617523193 0.04129936546087265
-0.06976741552352905 0.22480618953704834 -0.12298331409692764
-0.06976741552352905 0.22480618953704834 0.04044833779335022
-0.06976741552352905 0.24031007289886475 -0.11926941573619843
-0.06976741552352905 0.24031007289886475 0.039612047374248505
-0.06976741552352905 0.25581395626068115 -0.11443185806274414
-0.06976741552352905 0.25581395626068115 0.038644950836896896
-0.06976741552352905 0.27131783962249756 -0.10985167324542999
-0.06976741552352905 0.27131783962249756 0.0377645418047905
-0.06976741552352905 0.28682172298431396 -0.10678552091121674
-0.06976741552352905 0.28682172298431396 0.036931317299604416
-0.06976741552352905 0.30232560634613037 -0.1044015884399414
-0.06976741552352905 0.30232560634613037 0.03624279424548149
-0.06976741552352905 0.3178294897079468 -0.1018887311220169
-0.06976741552352905 0.3178294897079468 0.03576396033167839
-0.06976741552352905 0.3333333730697632 -0.09827098995447159
-0.06976741552352905 0.3333333730697632 0.03504958748817444
-0.06976741552352905 0.3488372564315796 -0.0935654267668724
-0.06976741552352905 0.3488372564315796 0.03429754823446274
-0.06976741552352905 0.364341139793396 -0.08935306966304779
-0.06976741552352905 0.364341139793396 0.03285369277000427
-0.06976741552352905 0.37984490394592285 -0.08561672270298004
-0.06976741552352905 0.37984490394592285 0.030607353895902634
-0.06976741552352905 0.39534878730773926 -0.07639205455780029
-0.06976741552352905 0.39534878730773926 0.02772703766822815
-0.06976741552352905 0.4108526408672333 -0.06760643422603607
-0.06976741552352905 0.41085267066955566 0.025108274072408676
-0.06976741552352905 0.42635655403137207 -0.0522303432226181
-0.06976741552352905 0.42635655403137207 0.020700082182884216
-0.06976741552352905 0.4418604373931885 -0.02461514249444008
-0.06976741552352905 0.4418604373931885 0.010062048211693764
-0.06976741552352905 0.5348837375640869 -0.02423430047929287
-0.06976741552352905 0.5348837375640869 -0.021226227283477783
-0.06976741552352905 0.5503876209259033 -0.029076416045427322
-0.06976741552352905 0.5503876209259033 -0.007445108145475388
-0.06976741552352905 0.5658915042877197 -0.030181564390659332
-0.06976741552352905 0.5658915042877197 -0.006611198652535677
-0.06976741552352905 0.5658915042877197 0.052566662430763245
-0.06976741552352905 0.5658915042877197 0.0651235580444336
-0.06976741552352905 0.5813953876495361 -0.027605067938566208
-0.06976741552352905 0.5813953876495361 -0.00710660545155406
-0.06976741552352905 0.5813953876495361 0.04743391275405884
-0.06976741552352905 0.5813953876495361 0.07034412771463394
-0.06976741552352905 0.5968992710113525 0.04412715137004852
-0.06976741552352905 0.5968992710113525 0.07025162130594254
-0.06976741552352905 0.612403154373169 0.050881609320640564
-0.06976740807294846 0.612403154373169 0.06995642930269241
-0.05426359176635742 -0.8294574022293091 -0.0271581020206213
-0.05426359176635742 -0.8294573426246643 -0.005175222642719746
-0.05426359176635742 -0.8139535188674927 -0.02775721624493599
-0.05426359176635742 -0.8139535188674927 -0.004191133193671703
-0.05426359176635742 -0.7984496355056763 -0.031957291066646576
-0.05426359176635742 -0.7984496355056763 -0.0022615722846239805
-0.05426359176635742 -0.7829457521438599 -0.039428215473890305
-0.05426359176635742 -0.7829457521438599 0.00024825497530400753
-0.05426359176635742 -0.7674418687820435 -0.0405142642557621
-0.05426359176635742 -0.7674418687820435 0.0024123850744217634
-0.05426359176635742 -0.751937985420227 -0.04211531579494476
-0.05426359176635742 -0.751937985420227 0.005596844479441643
-0.05426359176635742 -0.7364341020584106 -0.0456274077296257
-0.05426359176635742 -0.7364341616630554 0.01125981193035841
-0.05426359176635742 -0.720930278301239 -0.051202837377786636
-0.05426359176635742 -0.7209302186965942 0.017464661970734596
-0.05426359176635742 -0.7054263353347778 -0.056461162865161896
-0.05426358804106712 -0.7054262757301331 0.025485720485448837
-0.05426359176635742 -0.6899224519729614 -0.06037828326225281
-0.05426359176635742 -0.6899224519729614 0.030427224934101105
-0.05426359176635742 -0.674418568611145 -0.06669117510318756
-0.05426359176635742 -0.674418568611145 0.03463255614042282
-0.05426359176635742 -0.6589146852493286 -0.07372204959392548
-0.05426359176635742 -0.6589146852493286 0.03745313733816147
-0.05426359176635742 -0.643410861492157 -0.07938996702432632
-0.05426359176635742 -0.643410861492157 0.03923138603568077
-0.05426359176635742 -0.6279069781303406 -0.08661065250635147
-0.05426359176635742 -0.6279069781303406 0.040267765522003174
-0.05426359176635742 -0.6124030947685242 -0.09110798686742783
-0.05426359176635742 -0.6124030947685242 0.04136726260185242
-0.05426359176635742 -0.5968992114067078 -0.09494885802268982
-0.05426358804106712 -0.5968992114067078 0.042153675109148026
-0.05426359176635742 -0.5813953876495361 -0.10027103871107101
-0.05426359176635742 -0.5813953876495361 0.04299526661634445
-0.05426359176635742 -0.5658915042877197 -0.10369661450386047
-0.05426359176635742 -0.5658915042877197 0.043720442801713943
-0.05426359176635742 -0.5503876209259033 -0.10744138062000275
-0.05426359549164772 -0.5503876209259033 0.04434693604707718
-0.05426359176635742 -0.5348837375640869 -0.11022552847862244
-0.05426359176635742 -0.5348837375640869 0.04505268484354019
-0.05426359549164772 -0.5193798542022705 -0.11436431854963303
-0.05426359176635742 -0.5193798542022705 0.045883819460868835
-0.05426359176635742 -0.5038759708404541 -0.11819449812173843
-0.05426359176635742 -0.5038759708404541 0.0465644970536232
-0.05426359176635742 -0.4883720874786377 -0.12168882042169571
-0.05426359176635742 -0.4883720874786377 0.047212570905685425
-0.05426359176635742 -0.4728682041168213 -0.12460197508335114
-0.05426359176635742 -0.4728682041168213 0.04787905886769295
-0.05426359176635742 -0.4573643207550049 -0.12758801877498627
-0.05426359176635742 -0.4573643207550049 0.04849584400653839
-0.05426359176635742 -0.4418604373931885 -0.13117586076259613
-0.05426359176635742 -0.4418604373931885 0.04934524744749069
-0.05426359176635742 -0.42635661363601685 -0.13380110263824463
-0.05426359176635742 -0.42635661363601685 0.04977802187204361
-0.05426359176635742 -0.41085273027420044 -0.13709872961044312
-0.05426359176635742 -0.41085273027420044 0.049962811172008514
-0.05426359176635742 -0.39534884691238403 -0.14018462598323822
-0.05426359176635742 -0.39534884691238403 0.04974067211151123
-0.05426359549164772 -0.3798449635505676 -0.1453406661748886
-0.05426359176635742 -0.3798449635505676 0.04959174245595932
-0.05426359176635742 -0.3643410801887512 -0.14905574917793274
-0.05426359176635742 -0.3643410801887512 0.04920776188373566
-0.05426359176635742 -0.3488371968269348 -0.15076790750026703
-0.05426359176635742 -0.3488371968269348 0.04857184365391731
-0.05426359176635742 -0.3333333134651184 -0.15215250849723816
-0.05426359176635742 -0.3333333134651184 0.047574423253536224
-0.05426359176635742 -0.317829430103302 -0.15380558371543884
-0.05426359176635742 -0.317829430103302 0.04647354409098625
-0.05426359176635742 -0.30232560634613037 -0.15624098479747772
-0.05426359176635742 -0.30232560634613037 0.046005599200725555
-0.05426359176635742 -0.28682172298431396 -0.1588214933872223
-0.05426359176635742 -0.28682172298431396 0.046183645725250244
-0.05426359176635742 -0.27131783962249756 -0.16127945482730865
-0.05426359176635742 -0.27131783962249756 0.046550292521715164
-0.05426359176635742 -0.25581395626068115 -0.16333597898483276
-0.05426359176635742 -0.25581395626068115 0.04738413169980049
-0.05426359176635742 -0.24031007289886475 -0.1645047813653946
-0.05426359176635742 -0.24031007289886475 0.048369888216257095
-0.05426359176635742 -0.22480618953704834 -0.16504546999931335
-0.05426359176635742 -0.22480618953704834 0.04871523380279541
-0.05426359176635742 -0.20930230617523193 -0.16520185768604279
-0.05426359176635742 -0.20930230617523193 0.04864811897277832
-0.05426359176635742 -0.19379842281341553 -0.16507093608379364
-0.05426359176635742 -0.19379842281341553 0.04857600852847099
-0.05426359176635742 -0.1782945990562439 -0.16473820805549622
-0.05426359176635742 -0.1782945990562439 0.048359889537096024
-0.05426359176635742 -0.1627907156944275 -0.1644146591424942
-0.05426359176635742 -0.1627907156944275 0.04786842316389084
-0.05426359176635742 -0.14728683233261108 -0.16411922872066498
-0.05426359176635742 -0.14728683233261108 0.047836095094680786
-0.05426359176635742 -0.13178294897079468 -0.16374707221984863
-0.05426359176635742 -0.13178294897079468 0.04779624938964844
-0.05426359176635742 -0.11627906560897827 -0.16341984272003174
-0.05426359176635742 -0.11627906560897827 0.04805059731006622
-0.05426359176635742 -0.10077518224716187 -0.16293466091156006
-0.05426359176635742 -0.10077518224716187 0.04850303754210472
-0.05426359176635742 -0.08527129888534546 -0.1620364785194397
-0.05426359176635742 -0.08527129888534546 0.04916296899318695
-0.05426359176635742 -0.06976741552352905 -0.1612723469734192
-0.05426359176635742 -0.06976741552352905 0.04973510652780533
-0.05426359176635742 -0.05426359176635742 -0.16046537458896637
-0.05426359176635742 -0.05426359176635742 0.050227198749780655
-0.05426359176635742 -0.038759708404541016 -0.15969154238700867
-0.05426359176635742 -0.038759708404541016 0.05058366805315018
-0.05426359176635742 -0.02325582504272461 -0.1589224636554718
-0.05426359176635742 -0.02325582504272461 0.05084984004497528
-0.05426359176635742 -0.007751941680908203 -0.15813136100769043
-0.05426359176635742 -0.007751941680908203 0.050926465541124344
-0.05426359176635742 0.007751941680908203 -0.15731394290924072
-0.05426359176635742 0.007751941680908203 0.05093766003847122
-0.05426359176635742 0.02325582504272461 -0.15607315301895142
-0.05426359176635742 0.02325582504272461 0.05081216245889664
-0.05426359176635742 0.038759708404541016 -0.15434527397155762
-0.05426359176635742 0.038759708404541016 0.05034305900335312
-0.05426359176635742 0.05426359176635742 -0.15267330408096313
-0.05426359176635742 0.05426359176635742 0.05030233412981033
-0.05426359176635742 0.06976747512817383 -0.15048947930335999
-0.05426359176635742 0.06976747512817383 0.050498977303504944
-0.05426359176635742 0.08527135848999023 -0.1481533944606781
-0.05426359176635742 0.08527135848999023 0.05083872377872467
-0.05426359176635742 0.10077524185180664 -0.14597299695014954
-0.05426359176635742 0.10077524185180664 0.05167556181550026
-0.05426359176635742 0.11627912521362305 -0.14389947056770325
-0.05426359176635742 0.11627912521362305 0.05268848314881325
-0.05426359176635742 0.1317828893661499 -0.1421556919813156
-0.05426359176635742 0.1317828893661499 0.0535241961479187
-0.05426359176635742 0.1472867727279663 -0.14040502905845642
-0.05426359176635742 0.1472867727279663 0.05445915088057518
-0.05426359176635742 0.16279065608978271 -0.1383272111415863
-0.05426358804106712 0.16279064118862152 0.05507742986083031
-0.05426359176635742 0.17829453945159912 -0.13613709807395935
-0.05426359549164772 0.17829455435276031 0.055387165397405624
-0.05426359176635742 0.19379842281341553 -0.13310551643371582
-0.05426359176635742 0.19379842281341553 0.05557171255350113
-0.05426359176635742 0.20930230617523193 -0.12852229177951813
-0.05426358804106712 0.20930230617523193 0.055247120559215546
-0.05426359176635742 0.22480618953704834 -0.12523174285888672
-0.05426359176635742 0.22480617463588715 0.05459794029593468
-0.05426359176635742 0.24031007289886475 -0.12282728403806686
-0.05426359176635742 0.24031007289886475 0.053894706070423126
-0.05426359176635742 0.25581395626068115 -0.11971260607242584
-0.05426359176635742 0.25581395626068115 0.05315999314188957
-0.05426359176635742 0.27131783962249756 -0.11655602604150772
-0.05426359176635742 0.27131783962249756 0.05267125368118286
-0.05426359176635742 0.28682172298431396 -0.11236152052879333
-0.05426359176635742 0.28682172298431396 0.05231570079922676
-0.05426359176635742 0.30232560634613037 -0.10993987321853638
-0.05426359176635742 0.30232560634613037 0.052121903747320175
-0.05426359176635742 0.3178294897079468 -0.10833674669265747
-0.05426359176635742 0.3178294897079468 0.052100636065006256
-0.05426359176635742 0.3333333730697632 -0.10674893856048584
-0.05426359176635742 0.3333333730697632 0.05180453509092331
-0.05426359176635742 0.3488372564315796 -0.10395099967718124
-0.05426359176635742 0.3488372564315796 0.051365919411182404
-0.05426359176635742 0.364341139793396 -0.10106492042541504
-0.05426359176635742 0.364341139793396 0.050620004534721375
-0.05426359176635742 0.37984490394592285 -0.09541963040828705
-0.05426359176635742 0.37984490394592285 0.04937662184238434
-0.05426359176635742 0.39534878730773926 -0.09200076758861542
-0.05426359176635742 0.39534878730773926 0.047439537942409515
-0.05426359176635742 0.41085267066955566 -0.08890046179294586
-0.05426359176635742 0.41085267066955566 0.045867785811424255
-0.05426359176635742 0.42635655403137207 -0.08539742231369019
-0.05426359176635742 0.42635655403137207 0.0447392463684082
-0.05426359176635742 0.4418604373931885 -0.07683305442333221
-0.05426359549164772 0.4418604373931885 0.043963201344013214
-0.05426359176635742 0.4573643207550049 -0.0698389858007431
-0.05426359176635742 0.4573643207550049 0.04263460263609886
-0.05426359176635742 0.4728682041168213 -0.05710361897945404
-0.05426359176635742 0.4728682041168213 0.03914715349674225
-0.05426359176635742 0.4883720874786377 -0.043376464396715164
-0.05426358804106712 0.4883720576763153 0.02749278023838997
-0.05426359176635742 0.5038759708404541 -0.02846669778227806
-0.05426359176635742 0.5038759708404541 0.007232625037431717
-0.05426359176635742 0.5193798542022705 -0.02767222374677658
-0.05426359176635742 0.5193798542022705 -0.011177955195307732
-0.05426358804106712 0.5348837375640869 -0.03283735364675522
-0.05426359176635742 0.5348837375640869 -0.006063600070774555
-0.05426359176635742 0.5503876209259033 -0.038831476122140884
-0.05426358804106712 0.5503876209259033 -0.004876264836639166
-0.05426359176635742 0.5658915042877197 -0.03906100615859032
-0.05426359176635742 0.5658915042877197 -0.0054651712998747826
-0.05426359176635742 0.5658915042877197 0.052657600492239
-0.05426359176635742 0.5658915042877197 0.07024195790290833
-0.05426359176635742 0.5813953876495361 -0.03306800127029419
-0.05426359176635742 0.5813953876495361 -0.006170506589114666
-0.05426359176635742 0.5813953876495361 0.0476856529712677
-0.05426359176635742 0.5813953876495361 0.07105093449354172
-0.05426359176635742 0.5968992710113525 -0.025880685076117516
-0.05426359176635742 0.5968992710113525 -0.014890287071466446
-0.05426359176635742 0.5968992710113525 0.044838353991508484
-0.05426359176635742 0.5968992710113525 0.07098644226789474
-0.05426359176635742 0.612403154373169 0.05080532655119896
-0.05426359176635742 0.612403154373169 0.0707961842417717
-0.038759708404541016 -0.8294573426246643 -0.027331408113241196
-0.038759708404541016 -0.8294573426246643 -0.0043182373046875
-0.038759708404541016 -0.8139535188674927 -0.028297049924731255
-0.038759708404541016 -0.8139535188674927 -0.0016255062073469162
-0.038759708404541016 -0.7984496355056763 -0.03389585390686989
-0.038759708404541016 -0.798449695110321 0.008096455596387386
-0.038759708404541016 -0.7829457521438599 -0.03979988396167755
-0.038759708404541016 -0.7829457521438599 0.023088522255420685
-0.038759708404541016 -0.7674418687820435 -0.041274603456258774
-0.038759708404541016 -0.7674418687820435 0.036740001291036606
-0.038759708404541016 -0.751937985420227 -0.044173359870910645
-0.038759708404541016 -0.7519380450248718 0.041863322257995605
-0.038759708404541016 -0.7364341020584106 -0.0493081733584404
-0.038759708404541016 -0.7364341020584106 0.04485233873128891
-0.038759708404541016 -0.7209302186965942 -0.05587809532880783
-0.038759708404541016 -0.7209302186965942 0.04761620610952377
-0.038759708404541016 -0.7054263353347778 -0.05986274778842926
-0.038759708404541016 -0.7054263353347778 0.05120592936873436
-0.038759708404541016 -0.6899224519729614 -0.06483814865350723
-0.038759708404541016 -0.6899224519729614 0.05418993905186653
-0.038759708404541016 -0.674418568611145 -0.07259318977594376
-0.038759708404541016 -0.674418568611145 0.05472775176167488
-0.038759708404541016 -0.6589146852493286 -0.0785321593284607
-0.038759708404541016 -0.6589146852493286 0.055014971643686295
-0.038759708404541016 -0.643410861492157 -0.08587142825126648
-0.038759708404541016 -0.643410861492157 0.05531105026602745
-0.038759708404541016 -0.6279069781303406 -0.09126326441764832
-0.038759712129831314 -0.6279069781303406 0.055665381252765656
-0.038759708404541016 -0.6124030947685242 -0.09586606174707413
-0.038759708404541016 -0.6124030947685242 0.05605863779783249
-0.038759708404541016 -0.596899151802063 -0.10162033885717392
-0.038759708404541016 -0.596899151802063 0.056229617446660995
-0.038759708404541016 -0.5813953876495361 -0.10521063208580017
-0.038759708404541016 -0.5813953876495361 0.05644936487078667
-0.038759708404541016 -0.5658915042877197 -0.10844774544239044
-0.03875970467925072 -0.5658915042877197 0.05661691725254059
-0.038759708404541016 -0.5503876209259033 -0.11161419004201889
-0.03875970467925072 -0.5503876209259033 0.05671040713787079
-0.038759708404541016 -0.5348837375640869 -0.11633013933897018
-0.038759708404541016 -0.5348837375640869 0.05676296353340149
-0.038759708404541016 -0.5193798542022705 -0.1199382096529007
-0.038759708404541016 -0.5193798542022705 0.056963060051202774
-0.038759708404541016 -0.5038759708404541 -0.12317745387554169
-0.038759708404541016 -0.5038759708404541 0.05707594007253647
-0.038759708404541016 -0.4883720874786377 -0.12568460404872894
-0.038759708404541016 -0.4883720874786377 0.05718567594885826
-0.038759712129831314 -0.4728682041168213 -0.1292809695005417
-0.038759708404541016 -0.4728682041168213 0.057319629937410355
-0.038759708404541016 -0.4573643207550049 -0.13301081955432892
-0.038759708404541016 -0.4573643207550049 0.0574873648583889
-0.038759708404541016 -0.4418604373931885 -0.13624539971351624
-0.038759708404541016 -0.4418604373931885 0.05782099813222885
-0.038759708404541016 -0.42635661363601685 -0.13900555670261383
-0.038759708404541016 -0.42635658383369446 0.05792064964771271
-0.038759708404541016 -0.4108527600765228 -0.14209043979644775
-0.038759708404541016 -0.41085270047187805 0.05797909200191498
-0.038759708404541016 -0.39534884691238403 -0.14739380776882172
-0.038759708404541016 -0.39534884691238403 0.0578598827123642
-0.038759708404541016 -0.3798449635505676 -0.15147504210472107
-0.038759708404541016 -0.3798449635505676 0.05785548686981201
-0.038759708404541016 -0.3643410801887512 -0.15401780605316162
-0.038759708404541016 -0.3643410801887512 0.057684559375047684
-0.038759708404541016 -0.3488371968269348 -0.15518754720687866
-0.038759708404541016 -0.3488371968269348 0.057321492582559586
-0.038759708404541016 -0.3333333134651184 -0.156024768948555
-0.038759708404541016 -0.3333333134651184 0.056730590760707855
-0.038759708404541016 -0.317829430103302 -0.15737535059452057
-0.038759708404541016 -0.317829430103302 0.05609290674328804
-0.038759708404541016 -0.30232560634613037 -0.1592663824558258
-0.038759708404541016 -0.30232560634613037 0.05586155876517296
-0.038759708404541016 -0.28682172298431396 -0.16118600964546204
-0.038759708404541016 -0.28682172298431396 0.05610021948814392
-0.038759708404541016 -0.27131783962249756 -0.16325463354587555
-0.038759708404541016 -0.27131783962249756 0.056448474526405334
-0.038759708404541016 -0.25581395626068115 -0.1646999567747116
-0.038759708404541016 -0.25581395626068115 0.056940529495477676
-0.038759708404541016 -0.24031007289886475 -0.1658593714237213
-0.038759708404541016 -0.24031007289886475 0.05753913149237633
-0.038759708404541016 -0.22480618953704834 -0.16636286675930023
-0.038759708404541016 -0.22480618953704834 0.05777190625667572
-0.038759708404541016 -0.20930230617523193 -0.16653487086296082
-0.038759708404541016 -0.20930230617523193 0.05770934373140335
-0.038759708404541016 -0.19379842281341553 -0.16644909977912903
-0.038759708404541016 -0.19379843771457672 0.05764036253094673
-0.038759708404541016 -0.1782945990562439 -0.16613343358039856
-0.038759708404541016 -0.1782945990562439 0.05747243016958237
-0.038759708404541016 -0.1627907156944275 -0.16577257215976715
-0.038759708404541016 -0.1627907156944275 0.05713405832648277
-0.038759708404541016 -0.14728683233261108 -0.16541990637779236
-0.038759708404541016 -0.14728683233261108 0.057011086493730545
-0.038759708404541016 -0.13178294897079468 -0.16500630974769592
-0.038759708404541016 -0.13178294897079468 0.05689769238233566
-0.038759708404541016 -0.11627906560897827 -0.16464580595493317
-0.038759708404541016 -0.11627906560897827 0.05704741179943085
-0.038759708404541016 -0.10077518224716187 -0.1641000211238861
-0.038759708404541016 -0.10077518224716187 0.057318516075611115
-0.038759708404541016 -0.08527129888534546 -0.16352975368499756
-0.038759708404541016 -0.08527129888534546 0.05773640424013138
-0.038759708404541016 -0.06976741552352905 -0.16310302913188934
-0.038759708404541016 -0.06976741552352905 0.05818150192499161
-0.038759708404541016 -0.05426359176635742 -0.16245849430561066
-0.038759708404541016 -0.05426359176635742 0.05855982378125191
-0.038759708404541016 -0.038759708404541016 -0.16158629953861237
-0.038759708404541016 -0.038759708404541016 0.058826375752687454
-0.038759708404541016 -0.02325582504272461 -0.16070838272571564
-0.038759708404541016 -0.02325582504272461 0.05911786109209061
-0.038759708404541016 -0.007751941680908203 -0.15977022051811218
-0.038759708404541016 -0.00775194214656949 0.05924145132303238
-0.038759708404541016 0.007751941680908203 -0.1587880402803421
-0.038759708404541016 0.007751941680908203 0.0593673512339592
-0.038759708404541016 0.02325582504272461 -0.15740971267223358
-0.038759708404541016 0.02325582504272461 0.059286102652549744
-0.038759708404541016 0.038759708404541016 -0.15575282275676727
-0.038759708404541016 0.038759708404541016 0.058992933481931686
-0.038759708404541016 0.05426359176635742 -0.15429887175559998
-0.038759708404541016 0.05426359176635742 0.05914793908596039
-0.038759708404541016 0.06976747512817383 -0.15242047607898712
-0.038759708404541016 0.06976747512817383 0.05933374911546707
-0.038759708404541016 0.08527135848999023 -0.15025216341018677
-0.038759708404541016 0.08527135848999023 0.05956645309925079
-0.038759708404541016 0.10077524185180664 -0.14848782122135162
-0.038759708404541016 0.10077524185180664 0.060398250818252563
-0.038759708404541016 0.11627912521362305 -0.14688432216644287
-0.038759708404541016 0.11627912521362305 0.06153249740600586
-0.038759708404541016 0.1317828893661499 -0.14468474686145782
-0.038759708404541016 0.1317828893661499 0.06262166053056717
-0.038759708404541016 0.1472867727279663 -0.14261169731616974
-0.038759708404541016 0.1472867727279663 0.063609778881073
-0.038759708404541016 0.16279065608978271 -0.1403566300868988
-0.038759708404541016 0.16279065608978271 0.06425835937261581
-0.038759708404541016 0.17829453945159912 -0.1382560431957245
-0.038759708404541016 0.17829453945159912 0.0645783394575119
-0.038759708404541016 0.19379842281341553 -0.1359226554632187
-0.038759708404541016 0.19379842281341553 0.0647389143705368
-0.038759708404541016 0.20930230617523193 -0.1326371282339096
-0.038759708404541016 0.20930230617523193 0.06452369689941406
-0.038759708404541016 0.22480618953704834 -0.12762784957885742
-0.038759708404541016 0.22480618953704834 0.06418336927890778
-0.038759708404541016 0.24031007289886475 -0.12474324554204941
-0.038759708404541016 0.24031007289886475 0.06386476755142212
-0.038759708404541016 0.25581395626068115 -0.12249600142240524
-0.038759708404541016 0.25581395626068115 0.06350013613700867
-0.038759708404541016 0.27131783962249756 -0.11993418633937836
-0.038759708404541016 0.27131783962249756 0.06333650648593903
-0.038759708404541016 0.28682172298431396 -0.11752407252788544
-0.038759708404541016 0.28682172298431396 0.06325436383485794
-0.038759708404541016 0.30232560634613037 -0.11411364376544952
-0.038759708404541016 0.30232560634613037 0.06333161145448685
-0.038759708404541016 0.3178294897079468 -0.11081573367118835
-0.038759708404541016 0.3178294897079468 0.06345629692077637
-0.038759708404541016 0.3333333730697632 -0.10872308909893036
-0.038759708404541016 0.3333333730697632 0.0632728710770607
-0.038759708404541016 0.3488372564315796 -0.10679873824119568
-0.038759708404541016 0.3488372564315796 0.06297220289707184
-0.038759708404541016 0.364341139793396 -0.10494554042816162
-0.038759708404541016 0.364341139793396 0.06262193620204926
-0.038759708404541016 0.37984490394592285 -0.10277864336967468
-0.038759708404541016 0.37984490394592285 0.06213292479515076
-0.038759708404541016 0.39534878730773926 -0.09973152726888657
-0.038759708404541016 0.39534878730773926 0.061390697956085205
-0.038759708404541016 0.41085267066955566 -0.09474372863769531
-0.038759708404541016 0.41085267066955566 0.061159051954746246
-0.038759708404541016 0.42635655403137207 -0.09237298369407654
-0.038759708404541016 0.42635655403137207 0.061347052454948425
-0.038759708404541016 0.4418604373931885 -0.0896531492471695
-0.038759708404541016 0.4418604373931885 0.06187654286623001
-0.038759708404541016 0.4573643207550049 -0.08646915853023529
-0.038759708404541016 0.4573643207550049 0.06205577030777931
-0.038759708404541016 0.4728681743144989 -0.08051735907793045
-0.038759708404541016 0.4728682041168213 0.061873964965343475
-0.038759708404541016 0.4883720874786377 -0.07361360639333725
-0.038759708404541016 0.4883720874786377 0.06061970070004463
-0.038759708404541016 0.5038759708404541 -0.06718982756137848
-0.038759708404541016 0.5038759708404541 0.05636801943182945
-0.038759708404541016 0.5193798542022705 -0.05615247040987015
-0.038759708404541016 0.5193798542022705 0.04874848201870918
-0.038759708404541016 0.5348837375640869 -0.048037998378276825
-0.038759708404541016 0.5348837375640869 0.0311899334192276
-0.038759708404541016 0.5503876209259033 -0.04385192692279816
-0.038759708404541016 0.5503876209259033 0.006121729500591755
-0.038759708404541016 0.5658915042877197 -0.04133576899766922
-0.038759708404541016 0.5658915042877197 -0.00012941844761371613
-0.038759708404541016 0.5658915042877197 0.05220318213105202
-0.038759708404541016 0.5658915042877197 0.07082904875278473
-0.038759708404541016 0.5813953876495361 -0.03994867205619812
-0.038759708404541016 0.5813953876495361 -0.0035688341595232487
-0.038759708404541016 0.5813953876495361 0.0457911342382431
-0.038759708404541016 0.5813953876495361 0.07229433953762054
-0.038759708404541016 0.5968992710113525 -0.03183707967400551
-0.038759708404541016 0.5968992710113525 -0.006753465160727501
-0.038759708404541016 0.5968992710113525 0.042870763689279556
-0.038759708404541016 0.5968992710113525 0.07249774038791656
-0.038759708404541016 0.612403154373169 0.049912676215171814
-0.038759708404541016 0.612403154373169 0.07217739522457123
-0.038759708404541016 0.6279069185256958 0.06931009143590927
-0.038759708404541016 0.627906858921051 0.0698140412569046
-0.02325582504272461 -0.8294573426246643 -0.02763129398226738
-0.02325582504272461 -0.8294572830200195 -0.0033398079685866833
-0.02325582504272461 -0.8139535188674927 -0.02879694476723671
-0.02325582504272461 -0.8139535188674927 0.0030131263192743063
-0.02325582504272461 -0.7984496355056763 -0.03570283576846123
-0.02325582504272461 -0.7984496355056763 0.03962929919362068
-0.02325582504272461 -0.7829457521438599 -0.04007629305124283
-0.02325582504272461 -0.7829457521438599 0.04786599427461624
-0.02325582504272461 -0.7674418687820435 -0.04209325462579727
-0.02325582504272461 -0.7674418687820435 0.054635342210531235
-0.02325582504272461 -0.751937985420227 -0.04597082734107971
-0.02325582690536976 -0.751937985420227 0.05632573366165161
-0.02325582690536976 -0.7364341616630554 -0.05298272520303726
-0.02325582504272461 -0.7364341616630554 0.057618893682956696
-0.02325582504272461 -0.7209302186965942 -0.057726241648197174
-0.02325582504272461 -0.7209302186965942 0.05855927988886833
-0.02325582504272461 -0.7054263353347778 -0.06222470849752426
-0.02325582504272461 -0.7054263353347778 0.059327319264411926
-0.02325582504272461 -0.6899224519729614 -0.06853969395160675
-0.02325582504272461 -0.6899224519729614 0.059976767748594284
-0.02325582504272461 -0.674418568611145 -0.07540468871593475
-0.02325582504272461 -0.674418568611145 0.06063828989863396
-0.02325582504272461 -0.6589146852493286 -0.08138479292392731
-0.02325582504272461 -0.6589146852493286 0.06131795421242714
-0.02325582504272461 -0.643410861492157 -0.08901993185281754
-0.02325582504272461 -0.6434109210968018 0.06192320957779884
-0.02325582504272461 -0.6279070377349854 -0.09439806640148163
-0.02325582504272461 -0.6279069781303406 0.06248605251312256
-0.02325582504272461 -0.6124030947685242 -0.10114027559757233
-0.02325582504272461 -0.6124030947685242 0.06280718743801117
-0.02325582504272461 -0.5968992114067078 -0.1051359623670578
-0.02325582504272461 -0.5968992114067078 0.06275352835655212
-0.02325582504272461 -0.5813953876495361 -0.10834962129592896
-0.02325582504272461 -0.5813953876495361 0.06283020973205566
-0.02325582504272461 -0.5658915042877197 -0.1118893101811409
-0.02325582504272461 -0.5658915042877197 0.06289879232645035
-0.02325582504272461 -0.5503876209259033 -0.11680756509304047
-0.02325582504272461 -0.5503876209259033 0.06287001818418503
-0.02325582504272461 -0.5348837375640869 -0.12047325819730759
-0.02325582504272461 -0.5348837375640869 0.06286276131868362
-0.02325582504272461 -0.5193798542022705 -0.1234130784869194
-0.02325582504272461 -0.5193798542022705 0.06301313638687134
-0.02325582504272461 -0.5038759708404541 -0.1258712112903595
-0.02325582504272461 -0.5038759708404541 0.06303523480892181
-0.02325582504272461 -0.4883720874786377 -0.12931670248508453
-0.02325582504272461 -0.4883720874786377 0.06307303160429001
-0.02325582504272461 -0.4728682041168213 -0.13350282609462738
-0.02325582504272461 -0.4728682041168213 0.0631323903799057
-0.02325582504272461 -0.4573643207550049 -0.13714179396629333
-0.02325582504272461 -0.4573643207550049 0.06323643773794174
-0.02325582504272461 -0.4418604373931885 -0.13974863290786743
-0.02325582504272461 -0.4418604373931885 0.06352841109037399
-0.02325582504272461 -0.42635661363601685 -0.14238977432250977
-0.02325582504272461 -0.42635661363601685 0.0636441558599472
-0.02325582504272461 -0.41085273027420044 -0.14657443761825562
-0.02325582504272461 -0.41085273027420044 0.06369705498218536
-0.02325582504272461 -0.39534884691238403 -0.15117403864860535
-0.02325582504272461 -0.39534884691238403 0.06361524760723114
-0.02325582504272461 -0.3798449635505676 -0.1548113375902176
-0.02325582504272461 -0.3798449635505676 0.06359685212373734
-0.02325582504272461 -0.3643410801887512 -0.1572357714176178
-0.02325582504272461 -0.3643410801887512 0.06344135105609894
-0.02325582504272461 -0.3488371968269348 -0.15827898681163788
-0.02325582504272461 -0.3488371968269348 0.06316189467906952
-0.02325582504272461 -0.3333333134651184 -0.15885211527347565
-0.02325582504272461 -0.3333333134651184 0.06261695921421051
-0.02325582318007946 -0.317829430103302 -0.15968817472457886
-0.02325582504272461 -0.317829430103302 0.062016017735004425
-0.02325582504272461 -0.30232560634613037 -0.16100174188613892
-0.02325582504272461 -0.30232560634613037 0.061936598271131516
-0.02325582504272461 -0.28682172298431396 -0.1628129929304123
-0.02325582504272461 -0.28682172298431396 0.06252897530794144
-0.02325582504272461 -0.27131783962249756 -0.164341539144516
-0.02325582504272461 -0.27131783962249756 0.06309433281421661
-0.02325582504272461 -0.25581395626068115 -0.16579991579055786
-0.02325582504272461 -0.25581395626068115 0.06367666274309158
-0.02325582504272461 -0.24031007289886475 -0.16689056158065796
-0.02325582504272461 -0.24031007289886475 0.06432104110717773
-0.02325582504272461 -0.22480618953704834 -0.167361319065094
-0.02325582504272461 -0.22480618953704834 0.0645352154970169
-0.02325582504272461 -0.20930230617523193 -0.1675567775964737
-0.02325582504272461 -0.20930230617523193 0.06440289318561554
-0.02325582504272461 -0.19379842281341553 -0.167505145072937
-0.02325582504272461 -0.19379842281341553 0.06423261016607285
-0.02325582504272461 -0.1782945990562439 -0.16722142696380615
-0.02325582504272461 -0.1782945990562439 0.06387697160243988
-0.02325582504272461 -0.1627907156944275 -0.1668749451637268
-0.02325582504272461 -0.1627907156944275 0.06341718882322311
-0.02325582504272461 -0.14728683233261108 -0.16651099920272827
-0.02325582504272461 -0.14728683233261108 0.06317050009965897
-0.02325582504272461 -0.13178294897079468 -0.1660865843296051
-0.02325582504272461 -0.13178294897079468 0.0629984438419342
-0.02325582504272461 -0.11627906560897827 -0.16570734977722168
-0.02325582504272461 -0.11627906560897827 0.06306025385856628
-0.02325582504272461 -0.10077518224716187 -0.16513580083847046
-0.02325582504272461 -0.10077518224716187 0.06323078274726868
-0.02325582504272461 -0.08527129888534546 -0.16455084085464478
-0.02325582504272461 -0.08527129888534546 0.06346321851015091
-0.02325582504272461 -0.06976741552352905 -0.16415457427501678
-0.02325582504272461 -0.06976741552352905 0.06375952064990997
-0.02325582504272461 -0.05426359176635742 -0.16367462277412415
-0.02325582504272461 -0.05426359176635742 0.06399297714233398
-0.02325582504272461 -0.038759708404541016 -0.163111612200737
-0.02325582504272461 -0.038759708404541016 0.06412656605243683
-0.02325582690536976 -0.02325582690536976 -0.16226550936698914
-0.02325582504272461 -0.02325582504272461 0.06429661810398102
-0.02325582318007946 -0.007751941215246916 -0.16113246977329254
-0.02325582504272461 -0.007751941680908203 0.06433083117008209
-0.02325582504272461 0.007751941680908203 -0.15994754433631897
-0.02325582504272461 0.007751941680908203 0.06444001197814941
-0.02325582504272461 0.02325582504272461 -0.1583152711391449
-0.02325582504272461 0.02325582504272461 0.06430809199810028
-0.02325582504272461 0.038759708404541016 -0.15653830766677856
-0.02325582504272461 0.038759708404541016 0.06416492164134979
-0.02325582504272461 0.05426359176635742 -0.15517207980155945
-0.02325582504272461 0.05426359176635742 0.06437595188617706
-0.02325582504272461 0.06976747512817383 -0.15330374240875244
-0.02325582504272461 0.06976747512817383 0.06463206559419632
-0.02325582504272461 0.08527135848999023 -0.1512153148651123
-0.02325582504272461 0.08527135848999023 0.0649203211069107
-0.02325582504272461 0.10077524185180664 -0.14952126145362854
-0.02325582504272461 0.10077524185180664 0.06571602821350098
-0.02325582504272461 0.11627912521362305 -0.14819568395614624
-0.02325582504272461 0.11627912521362305 0.06659209728240967
-0.02325582504272461 0.1317828893661499 -0.1464991271495819
-0.02325582504272461 0.1317828893661499 0.06741216033697128
-0.02325582504272461 0.1472867727279663 -0.14407427608966827
-0.02325582504272461 0.1472867727279663 0.06831222772598267
-0.02325582504272461 0.16279065608978271 -0.14142310619354248
-0.02325582504272461 0.16279065608978271 0.06902991235256195
-0.02325582504272461 0.17829453945159912 -0.13926979899406433
-0.02325582504272461 0.17829453945159912 0.06949248909950256
-0.02325582504272461 0.19379842281341553 -0.13705216348171234
-0.02325582504272461 0.19379842281341553 0.06976940482854843
-0.02325582504272461 0.20930230617523193 -0.13410452008247375
-0.02325582504272461 0.20930230617523193 0.06960321217775345
-0.02325582504272461 0.22480618953704834 -0.12936048209667206
-0.02325582504272461 0.22480618953704834 0.06937215477228165
-0.02325582504272461 0.24031007289886475 -0.1256006360054016
-0.02325582504272461 0.24031007289886475 0.06922436505556107
-0.02325582504272461 0.25581395626068115 -0.12331953644752502
-0.02325582504272461 0.25581395626068115 0.06908650696277618
-0.02325582504272461 0.27131783962249756 -0.12121903896331787
-0.02325582504272461 0.27131783962249756 0.0692596361041069
-0.02325582504272461 0.28682172298431396 -0.1190229207277298
-0.02325582504272461 0.28682172298431396 0.06960146129131317
-0.02325582504272461 0.30232560634613037 -0.11711271852254868
-0.02325582504272461 0.30232560634613037 0.0700707733631134
-0.02325582504272461 0.31782951951026917 -0.11364296823740005
-0.02325582504272461 0.3178294897079468 0.07063645124435425
-0.02325582504272461 0.3333333730697632 -0.11003715544939041
-0.02325582504272461 0.3333333730697632 0.07095973938703537
-0.02325582504272461 0.3488372564315796 -0.10772731155157089
-0.02325582504272461 0.3488372564315796 0.07114014774560928
-0.02325582504272461 0.364341139793396 -0.10594044625759125
-0.02325582504272461 0.364341139793396 0.07124838978052139
-0.02325582504272461 0.37984490394592285 -0.10444531589746475
-0.02325582504272461 0.37984490394592285 0.07122695446014404
-0.02325582504272461 0.39534878730773926 -0.10284815728664398
-0.02325582504272461 0.39534878730773926 0.07111725956201553
-0.02325582504272461 0.41085267066955566 -0.1011686697602272
-0.02325582504272461 0.41085267066955566 0.07142342627048492
-0.02325582318007946 0.42635655403137207 -0.09613935649394989
-0.02325582318007946 0.42635655403137207 0.07223961502313614
-0.02325582504272461 0.4418604373931885 -0.09359921514987946
-0.02325582504272461 0.4418604373931885 0.07340581715106964
-0.02325582504272461 0.4573643207550049 -0.09105368703603745
-0.02325582504272461 0.4573643207550049 0.07428519427776337
-0.02325582504272461 0.4728682041168213 -0.08796742558479309
-0.02325582504272461 0.4728682041168213 0.07496175169944763
-0.02325582504272461 0.4883720874786377 -0.08580898493528366
-0.02325582504272461 0.4883720874786377 0.07533286511898041
-0.02325582504272461 0.5038759708404541 -0.07930953800678253
-0.02325582504272461 0.5038759708404541 0.07513739913702011
-0.02325582504272461 0.5193798542022705 -0.07426150143146515
-0.02325582504272461 0.5193798542022705 0.07510483264923096
-0.02325582504272461 0.5348837375640869 -0.070986807346344
-0.02325582504272461 0.5348837375640869 0.07461561262607574
-0.02325582504272461 0.5503876209259033 -0.06743846833705902
-0.02325582504272461 0.5503876209259033 0.07424573600292206
-0.02325582504272461 0.5658915042877197 -0.05810993164777756
-0.02325582504272461 0.5658915042877197 0.0781623125076294
-0.02325582504272461 0.5813953876495361 -0.05380178987979889
-0.02325582504272461 0.5813953876495361 0.08404995501041412
-0.02325582504272461 0.5968992710113525 -0.04530198872089386
-0.02325582504272461 0.5968992710113525 0.003996988758444786
-0.02325582504272461 0.5968992710113525 0.029053030535578728
-0.02325582504272461 0.5968992710113525 0.08590566366910934
-0.02325582504272461 0.612403154373169 -0.03274933993816376
-0.02325582504272461 0.612403154373169 -0.00487692654132843
-0.02325582504272461 0.612403154373169 0.03591253608465195
-0.02325582504272461 0.612403154373169 0.08241839706897736
-0.02325582504272461 0.6279069185256958 0.04693105071783066
-0.02325582504272461 0.6279069185256958 0.07725080847740173
-0.007751941680908203 -0.8294573426246643 -0.0276494063436985
-0.007751941680908203 -0.8294573426246643 -0.0022528625559061766
-0.007751941680908203 -0.8139535188674927 -0.028515424579381943
-0.007751941680908203 -0.8139535188674927 0.01623004488646984
-0.00775194214656949 -0.7984496355056763 -0.03593909367918968
-0.007751941680908203 -0.7984496355056763 0.04927029833197594
-0.007751941680908203 -0.7829457521438599 -0.04017629474401474
-0.007751941680908203 -0.7829457521438599 0.055413782596588135
-0.007751941680908203 -0.7674418687820435 -0.04252265766263008
-0.007751941680908203 -0.7674418687820435 0.05760879069566727
-0.007751941680908203 -0.751937985420227 -0.046876922249794006
-0.007751941680908203 -0.751937985420227 0.05989225581288338
-0.007751941680908203 -0.7364341020584106 -0.05461536720395088
-0.007751941680908203 -0.7364341020584106 0.061884161084890366
-0.007751941680908203 -0.7209302186965942 -0.058778662234544754
-0.007751941680908203 -0.7209302186965942 0.0633857399225235
-0.007751941680908203 -0.7054263353347778 -0.0634189173579216
-0.007751941680908203 -0.7054263353347778 0.06433814764022827
-0.007751941680908203 -0.6899224519729614 -0.07040330767631531
-0.007751941680908203 -0.6899224519729614 0.06517377495765686
-0.007751941680908203 -0.674418568611145 -0.07692381739616394
-0.007751941680908203 -0.674418568611145 0.06579717993736267
-0.007751941680908203 -0.6589146852493286 -0.08349157869815826
-0.007751941680908203 -0.6589146852493286 0.06633495539426804
-0.007751941680908203 -0.643410861492157 -0.09091512113809586
-0.007751941680908203 -0.643410861492157 0.06685929745435715
-0.007751941680908203 -0.6279069781303406 -0.09676482528448105
-0.007751941680908203 -0.6279069781303406 0.06739078462123871
-0.007751941680908203 -0.6124030947685242 -0.1033359095454216
-0.007751941680908203 -0.6124030947685242 0.06762503832578659
-0.007751941680908203 -0.5968992114067078 -0.10704685747623444
-0.007751941680908203 -0.5968992114067078 0.06739524006843567
-0.007751941680908203 -0.5813953876495361 -0.11041222512722015
-0.007751941680908203 -0.5813953876495361 0.06726738065481186
-0.007751941680908203 -0.5658915042877197 -0.11551110446453094
-0.007751941680908203 -0.5658915042877197 0.0671560987830162
-0.007751941680908203 -0.5503876209259033 -0.11967787146568298
-0.007751941680908203 -0.5503876209259033 0.06697259843349457
-0.007751941680908203 -0.5348837375640869 -0.12268558144569397
-0.007751941680908203 -0.5348837375640869 0.06690554320812225
-0.00775194214656949 -0.5193798542022705 -0.12500791251659393
-0.007751941680908203 -0.5193798542022705 0.06705083698034286
-0.007751941680908203 -0.5038759708404541 -0.12801621854305267
-0.007751941680908203 -0.5038759708404541 0.06702019274234772
-0.007751941680908203 -0.4883720874786377 -0.1325102001428604
-0.007751941680908203 -0.4883720874786377 0.06700912117958069
-0.007751941680908203 -0.4728682041168213 -0.1362467110157013
-0.007751941680908203 -0.4728682041168213 0.06697174161672592
-0.007751941680908203 -0.4573643207550049 -0.13919566571712494
-0.007751941680908203 -0.4573643207550049 0.06699403375387192
-0.007751941680908203 -0.4418604373931885 -0.14164486527442932
-0.007751941680908203 -0.4418604373931885 0.06719756126403809
-0.007751941680908203 -0.42635658383369446 -0.14485599100589752
-0.007751941680908203 -0.42635661363601685 0.06727779656648636
-0.007751941680908203 -0.41085273027420044 -0.14892280101776123
-0.007751941680908203 -0.41085273027420044 0.06724940985441208
-0.007751941680908203 -0.39534884691238403 -0.1529897153377533
-0.007751941680908203 -0.39534884691238403 0.0671563372015953
-0.007751941680908203 -0.3798449635505676 -0.15627673268318176
-0.007751941680908203 -0.3798449635505676 0.06706016510725021
-0.007751941680908203 -0.3643410801887512 -0.15872521698474884
-0.007751941680908203 -0.3643410801887512 0.0668262243270874
-0.007751941680908203 -0.3488371670246124 -0.159882053732872
-0.007751941680908203 -0.3488371968269348 0.06656555086374283
-0.007751941215246916 -0.3333333134651184 -0.16039691865444183
-0.007751941680908203 -0.3333333134651184 0.06618580967187881
-0.007751941680908203 -0.317829430103302 -0.1611035168170929
-0.007751941680908203 -0.317829430103302 0.06580464541912079
-0.007751941215246916 -0.30232560634613037 -0.1624664068222046
-0.007751941680908203 -0.30232560634613037 0.06582329422235489
-0.007751941680908203 -0.28682172298431396 -0.16389143466949463
-0.007751941680908203 -0.28682172298431396 0.06632839888334274
-0.007751941680908203 -0.27131783962249756 -0.16543017327785492
-0.007751941680908203 -0.27131783962249756 0.06675450503826141
-0.007751941680908203 -0.25581395626068115 -0.16676683723926544
-0.007751941680908203 -0.25581395626068115 0.06731494516134262
-0.007751941680908203 -0.24031007289886475 -0.16771672666072845
-0.007751941680908203 -0.24031007289886475 0.06798245757818222
-0.007751941680908203 -0.22480618953704834 -0.1681266576051712
-0.007751941680908203 -0.22480618953704834 0.06819383800029755
-0.007751941680908203 -0.20930230617523193 -0.16829238831996918
-0.007751941680908203 -0.20930230617523193 0.06798740476369858
-0.007751941680908203 -0.19379842281341553 -0.16822177171707153
-0.007751941680908203 -0.19379842281341553 0.06771799176931381
-0.007751941680908203 -0.1782945990562439 -0.16794341802597046
-0.007751941680908203 -0.1782945990562439 0.06723331660032272
-0.007751941680908203 -0.1627907156944275 -0.16761837899684906
-0.007751941680908203 -0.1627907156944275 0.06663863360881805
-0.007751941680908203 -0.14728683233261108 -0.16728802025318146
-0.007751941680908203 -0.14728683233261108 0.06623818725347519
-0.007751941680908203 -0.13178294897079468 -0.16688455641269684
-0.007751941680908203 -0.13178294897079468 0.06593605130910873
-0.007751941680908203 -0.11627906560897827 -0.16650858521461487
-0.007751941680908203 -0.11627906560897827 0.06585511565208435
-0.007751941680908203 -0.10077518224716187 -0.16594669222831726
-0.007751941680908203 -0.10077518224716187 0.06589481234550476
-0.007751941680908203 -0.08527129888534546 -0.1653856337070465
-0.007751941680908203 -0.08527129888534546 0.06598898768424988
-0.007751941680908203 -0.06976741552352905 -0.1650303453207016
-0.007751941680908203 -0.06976741552352905 0.06619981676340103
-0.007751941680908203 -0.05426359176635742 -0.16459786891937256
-0.007751941680908203 -0.05426359176635742 0.06635470688343048
-0.007751941680908203 -0.038759708404541016 -0.16407719254493713
-0.007751941680908203 -0.038759708404541016 0.06643237918615341
-0.007751941680908203 -0.02325582504272461 -0.16337987780570984
-0.007751941680908203 -0.02325582504272461 0.06654892861843109
-0.007751941680908203 -0.007751941680908203 -0.1622847616672516
-0.007751941680908203 -0.007751941680908203 0.06652794778347015
-0.007751941680908203 0.007751941680908203 -0.16079021990299225
-0.007751941680908203 0.007751941680908203 0.06660637259483337
-0.007751941680908203 0.02325582504272461 -0.15884751081466675
-0.007751941680908203 0.02325582504272461 0.06639378517866135
-0.007751941680908203 0.038759708404541016 -0.15691763162612915
-0.007751941680908203 0.038759708404541016 0.06624699383974075
-0.007751941680908203 0.05426359176635742 -0.15546023845672607
-0.007751941680908203 0.05426359176635742 0.0664706602692604
-0.007751941680908203 0.06976747512817383 -0.153479665517807
-0.007751941680908203 0.06976747512817383 0.06682270765304565
-0.007751941680908203 0.08527135848999023 -0.15127818286418915
-0.007751941680908203 0.08527135848999023 0.06719444692134857
-0.007751941680908203 0.10077524185180664 -0.14953842759132385
