-0.1627907156944275 0.01859048195183277 0.10077524185180664
-0.1627907156944275 0.054808359593153 -0.10077518224716187
-0.1627907156944275 0.08105002343654633 -0.08527129888534546
-0.1627907156944275 0.07279400527477264 0.08527135848999023
-0.1627907156944275 0.09512124955654144 -0.06976741552352905
-0.1627907156944275 0.09899210184812546 0.007751941680908203
-0.1627907156944275 0.09551843255758286 0.02325582504272461
-0.1627907156944275 0.09474760293960571 0.038759708404541016
-0.1627907156944275 0.09292635321617126 0.05426359176635742
-0.1627907156944275 0.08817806094884872 0.06976747512817383
-0.1627907156944275 0.11294334381818771 -0.05426359176635742
-0.1627907156944275 0.10512293875217438 -0.038759708404541016
-0.1627907007932663 0.10248075425624847 -0.02325582318007946
-0.1627907156944275 0.10188038647174835 -0.007751941680908203
-0.1627907156944275 0.12243849039077759 -0.05426359176635742
-0.1627907156944275 0.15227890014648438 -0.06976741552352905
-0.1627907156944275 0.3705863356590271 -0.06976741552352905
-0.1627907156944275 0.509533703327179 -0.038759708404541016
-0.1627907156944275 0.5696680545806885 -0.05426359176635742
-0.1627907156944275 0.6882850527763367 -0.02325582504272461
-0.1627907156944275 0.7821940183639526 -0.038759708404541016
-0.1627907156944275 0.9856646656990051 -0.02325582504272461
-0.14728683233261108 -0.9861273169517517 -0.02325582504272461
-0.14728683233261108 -0.715708315372467 -0.038759708404541016
-0.14728683233261108 -0.61148601770401 -0.02325582504272461
-0.14728683233261108 -0.44388285279273987 -0.05426359176635742
-0.14728683233261108 -0.40816444158554077 -0.038759708404541016
-0.14728683233261108 -0.2574434280395508 -0.06976741552352905
-0.14728683233261108 -0.14822274446487427 -0.06976741552352905
-0.14728683233261108 -0.12491686642169952 -0.038759708404541016
-0.14728683233261108 -0.11122213304042816 -0.06976741552352905
-0.14728683233261108 -0.11270465701818466 -0.02325582504272461
-0.14728683233261108 -0.11013700813055038 -0.007751941680908203
-0.14728683233261108 -0.10508619248867035 0.007751941680908203
-0.14728683233261108 -0.10262419283390045 0.02325582504272461
-0.14728683233261108 -0.10164885222911835 0.038759708404541016
-0.14728683233261108 -0.10078516602516174 0.05426359176635742
-0.14728683233261108 -0.08805451542139053 -0.08527129888534546
-0.14728683233261108 -0.09450998902320862 0.06976747512817383
-0.14728683233261108 -0.08140651881694794 0.08527135848999023
-0.14728683233261108 -0.06359324604272842 -0.10077518224716187
-0.14728683233261108 -0.03233550488948822 0.10077524185180664
-0.14728683233261108 0.018172627314925194 0.10077524185180664
-0.14728683233261108 0.05773434042930603 -0.10077518224716187
-0.14728683233261108 0.08368128538131714 -0.08527129888534546
-0.14728683233261108 0.07275612652301788 0.08527135848999023
-0.14728683233261108 0.09662172943353653 -0.06976741552352905
-0.14728683233261108 0.10025767982006073 0.007751941680908203
-0.14728683233261108 0.09648112952709198 0.02325582504272461
-0.14728683233261108 0.0954485684633255 0.038759708404541016
-0.14728683233261108 0.09330099821090698 0.05426359176635742
-0.14728683233261108 0.08825948089361191 0.06976747512817383
-0.14728683233261108 0.1113707646727562 -0.05426359176635742
-0.14728683233261108 0.10669945180416107 -0.038759708404541016
-0.14728683233261108 0.10333805531263351 -0.02325582690536976
-0.14728683233261108 0.10229624062776566 -0.007751941680908203
-0.14728683233261108 0.13143528997898102 -0.05426359176635742
-0.14728683233261108 0.16742829978466034 -0.06976741552352905
-0.14728683233261108 0.34814101457595825 -0.06976741552352905
-0.14728683233261108 0.49000948667526245 -0.038759708404541016
-0.14728683233261108 0.535018801689148 -0.05426358804106712
-0.14728683233261108 0.6736536026000977 -0.02325582504272461
-0.14728683233261108 0.7828298211097717 -0.038759708404541016
-0.14728683233261108 0.9852302074432373 -0.02325582504272461
-0.13178294897079468 -0.985000729560852 -0.02325582504272461
-0.13178294897079468 -0.7023190259933472 -0.038759708404541016
-0.13178294897079468 -0.5813530683517456 -0.02325582504272461
-0.13178294897079468 -0.4287547469139099 -0.05426359176635742
-0.13178294897079468 -0.4138667583465576 -0.038759708404541016
-0.13178294897079468 -0.24160844087600708 -0.06976741552352905
-0.13178294897079468 -0.14896786212921143 -0.06976741552352905
-0.13178294897079468 -0.1264181137084961 -0.038759708404541016
-0.13178294897079468 -0.11361747235059738 -0.06976741552352905
-0.13178294897079468 -0.11311808973550797 -0.02325582318007946
-0.13178294897079468 -0.1098347157239914 -0.007751941680908203
-0.13178294897079468 -0.10476617515087128 0.007751941680908203
-0.13178294897079468 -0.10251931846141815 0.02325582504272461
-0.13178294897079468 -0.10163780301809311 0.038759708404541016
-0.13178294897079468 -0.0908491462469101 -0.08527129888534546
-0.13178294897079468 -0.10066010057926178 0.05426358804106712
-0.13178294897079468 -0.09457404911518097 0.06976747512817383
-0.13178294897079468 -0.08135993033647537 0.08527135848999023
-0.13178294897079468 -0.06578119844198227 -0.10077518969774246
-0.13178294897079468 -0.030357135459780693 0.10077524185180664
-0.13178294897079468 0.016920071095228195 0.10077524185180664
-0.13178294897079468 0.06027185916900635 -0.10077518224716187
-0.13178294897079468 0.07272666692733765 0.08527135848999023
-0.13178296387195587 0.0855255275964737 -0.08527129888534546
-0.13178294897079468 0.09818638861179352 -0.06976741552352905
-0.13178294897079468 0.10059630125761032 0.007751941680908203
-0.13178294897079468 0.09723572432994843 0.02325582504272461
-0.13178294897079468 0.09628063440322876 0.038759708404541016
-0.13178294897079468 0.09385330975055695 0.05426359176635742
-0.13178294897079468 0.08840523660182953 0.06976747512817383
-0.13178294897079468 0.11171770095825195 -0.05426359176635742
-0.13178294897079468 0.10729138553142548 -0.038759708404541016
-0.13178294897079468 0.10357969254255295 -0.02325582504272461
-0.13178294897079468 0.10234963893890381 -0.007751941680908203
-0.13178294897079468 0.13771265745162964 -0.05426359176635742
-0.13178294897079468 0.18019118905067444 -0.06976741552352905
-0.13178294897079468 0.3293069005012512 -0.06976741552352905
-0.13178294897079468 0.4772591292858124 -0.038759708404541016
-0.13178294897079468 0.513619065284729 -0.05426359176635742
-0.13178294897079468 0.6633936762809753 -0.02325582504272461
-0.13178294897079468 0.7820758819580078 -0.038759708404541016
-0.13178294897079468 0.9809039831161499 -0.02325582504272461
-0.11627906560897827 -0.9799215197563171 -0.02325582504272461
-0.11627906560897827 -0.6935626268386841 -0.038759708404541016
-0.11627906560897827 -0.5660057663917542 -0.02325582504272461
-0.11627906560897827 -0.4263610243797302 -0.038759708404541016
-0.11627906560897827 -0.41047048568725586 -0.05426359176635742
-0.11627906560897827 -0.23324954509735107 -0.06976741552352905
-0.11627906560897827 -0.14888346195220947 -0.06976741552352905
-0.11627906560897827 -0.12638363242149353 -0.038759708404541016
-0.11627905815839767 -0.11465701460838318 -0.06976741552352905
-0.11627906560897827 -0.11258302628993988 -0.02325582504272461
-0.11627906560897827 -0.10901342332363129 -0.007751941680908203
-0.11627906560897827 -0.10430938005447388 0.007751941680908203
-0.11627906560897827 -0.10235626995563507 0.02325582504272461
-0.11627906560897827 -0.10162413865327835 0.038759708404541016
-0.11627906560897827 -0.09252375364303589 -0.08527129888534546
-0.11627905815839767 -0.10058391094207764 0.05426359176635742
-0.11627906560897827 -0.09447528421878815 0.06976747512817383
-0.11627906560897827 -0.0812428817152977 0.08527135848999023
-0.11627906560897827 -0.0674360916018486 -0.10077518224716187
-0.11627906560897827 -0.027878476306796074 0.10077524185180664
-0.11627906560897827 0.015190478414297104 0.10077524185180664
-0.11627906560897827 0.062268756330013275 -0.10077518224716187
-0.11627905815839767 0.07267553359270096 0.08527135103940964
-0.11627905815839767 0.08638834953308105 -0.08527129888534546
-0.11627906560897827 0.09916002303361893 -0.06976741552352905
-0.11627906560897827 0.09794945269823074 0.02325582504272461
-0.11627906560897827 0.09712767601013184 0.038759708404541016
-0.11627906560897827 0.09437635540962219 0.05426359176635742
-0.11627906560897827 0.08847010880708694 0.06976747512817383
-0.11627906560897827 0.11130982637405396 -0.05426359176635742
-0.11627906560897827 0.1068100780248642 -0.038759708404541016
-0.11627905815839767 0.10339809209108353 -0.02325582504272461
-0.11627907305955887 0.10228094458580017 -0.007751941680908203
-0.11627906560897827 0.10081374645233154 0.007751941680908203
-0.11627906560897827 0.14279881119728088 -0.05426359176635742
-0.11627906560897827 0.19729822874069214 -0.06976741552352905
-0.11627906560897827 0.2427586019039154 -0.06976741552352905
-0.11627906560897827 0.29030680656433105 -0.06976741552352905
-0.11627907305955887 0.32095617055892944 -0.06976741552352905
-0.11627906560897827 0.47148287296295166 -0.038759708404541016
-0.11627906560897827 0.5028032064437866 -0.05426359176635742
-0.11627906560897827 0.6544700264930725 -0.02325582504272461
-0.11627906560897827 0.7808787822723389 -0.038759708404541016
-0.11627906560897827 0.9744992852210999 -0.02325582504272461
-0.10077518224716187 -0.9739924669265747 -0.02325582504272461
-0.10077518224716187 -0.9480392336845398 -0.007751941680908203
-0.10077518969774246 -0.921322226524353 -0.007751941680908203
-0.10077518224716187 -0.6916061043739319 -0.038759708404541016
-0.10077518224716187 -0.5596562027931213 -0.02325582504272461
-0.10077518224716187 -0.433368980884552 -0.038759708404541016
-0.10077518224716187 -0.385951429605484 -0.05426359176635742
-0.10077518224716187 -0.23291251063346863 -0.06976741552352905
-0.10077517479658127 -0.1471870243549347 -0.06976741552352905
-0.10077518224716187 -0.1263105869293213 -0.038759708404541016
-0.10077518224716187 -0.11580134928226471 -0.06976741552352905
-0.10077518224716187 -0.11227352172136307 -0.02325582504272461
-0.10077518224716187 -0.1085750162601471 -0.007751941680908203
-0.10077518224716187 -0.10404938459396362 0.007751941680908203
-0.10077518224716187 -0.10216333717107773 0.02325582504272461
-0.10077518224716187 -0.10143852978944778 0.038759708404541016
-0.10077518224716187 -0.09445080906152725 -0.08527129888534546
-0.10077518224716187 -0.10001359134912491 0.05426359176635742
-0.10077518224716187 -0.09422151744365692 0.06976747512817383
-0.10077518224716187 -0.07013007253408432 -0.10077518224716187
-0.10077518224716187 -0.08133639395236969 0.08527135848999023
-0.10077518224716187 -0.026260055601596832 0.10077524185180664
-0.10077518224716187 0.01415847335010767 0.10077524185180664
-0.10077518224716187 0.06505824625492096 -0.10077518224716187
-0.10077518224716187 0.07261001318693161 0.08527135848999023
-0.10077518224716187 0.08759671449661255 -0.08527129888534546
-0.10077518224716187 0.10053245723247528 -0.06976741552352905
-0.10077518224716187 0.09809441864490509 0.02325582504272461
-0.10077518224716187 0.09720391035079956 0.038759708404541016
-0.10077518224716187 0.09431526809930801 0.05426359176635742
-0.10077518224716187 0.08826524019241333 0.06976747512817383
-0.10077518224716187 0.11160026490688324 -0.05426359176635742
-0.10077518224716187 0.10659421980381012 -0.038759708404541016
-0.10077518224716187 0.10326311737298965 -0.02325582504272461
-0.10077518224716187 0.10225432366132736 -0.007751941680908203
-0.10077517479658127 0.10085655003786087 0.007751941680908203
-0.10077518224716187 0.14431697130203247 -0.05426359176635742
-0.10077518224716187 0.2979002892971039 -0.08527129888534546
-0.10077517479658127 0.28704291582107544 -0.06976741552352905
-0.10077518224716187 0.318522572517395 -0.08527129888534546
-0.10077518224716187 0.32383614778518677 -0.06976741552352905
-0.10077518224716187 0.47209492325782776 -0.038759708404541016
-0.10077518224716187 0.5028976798057556 -0.05426359176635742
-0.10077518224716187 0.6499853134155273 -0.02325582504272461
-0.10077518224716187 0.7856932878494263 -0.038759708404541016
-0.10077518224716187 0.9696889519691467 -0.02325582504272461
-0.08527129888534546 -0.9667440056800842 -0.02325582504272461
-0.08527129888534546 -0.9394621253013611 -0.007751941680908203
-0.08527129888534546 -0.9284312725067139 -0.007751941680908203
-0.08527129888534546 -0.696878969669342 -0.038759708404541016
-0.08527129888534546 -0.5563501119613647 -0.02325582504272461
-0.08527129888534546 -0.43400174379348755 -0.038759708404541016
-0.08527129888534546 -0.39756399393081665 -0.05426359176635742
-0.08527129888534546 -0.23810137808322906 -0.06976741552352905
-0.08527129888534546 -0.14213953912258148 -0.06976741552352905
-0.08527129888534546 -0.12428122758865356 -0.06976741552352905
-0.08527129888534546 -0.1266278326511383 -0.038759708404541016
-0.08527129143476486 -0.11262357234954834 -0.02325582504272461
-0.08527129888534546 -0.1089475154876709 -0.007751941680908203
-0.08527129888534546 -0.10426604002714157 0.007751941680908203
-0.08527129888534546 -0.10226881504058838 0.02325582504272461
-0.08527129888534546 -0.10147032141685486 0.038759708404541016
-0.08527129888534546 -0.09684979915618896 -0.08527129888534546
-0.08527129143476486 -0.10008608549833298 0.05426358804106712
-0.08527129888534546 -0.09453552961349487 0.06976747512817383
-0.08527129888534546 -0.07286137342453003 -0.10077518224716187
-0.08527129888534546 -0.08225506544113159 0.08527135848999023
-0.08527129888534546 -0.026628926396369934 0.10077524185180664
-0.08527129888534546 0.01484193280339241 0.10077524185180664
-0.08527129888534546 0.06857260316610336 -0.10077518224716187
-0.08527129888534546 0.07293657958507538 0.08527135848999023
-0.08527129888534546 0.08953210711479187 -0.08527129888534546
-0.08527129888534546 0.09881777316331863 0.02325582504272461
-0.08527129888534546 0.0975809395313263 0.038759708404541016
-0.08527129888534546 0.0945267602801323 0.05426359176635742
-0.08527129888534546 0.08833688497543335 0.06976747512817383
-0.08527129888534546 0.10301236808300018 -0.06976741552352905
-0.08527129888534546 0.11275056004524231 -0.05426359176635742
-0.08527129888534546 0.1071033924818039 -0.038759708404541016
-0.08527129888534546 0.10347398370504379 -0.02325582504272461
-0.08527129888534546 0.10248199105262756 -0.007751941680908203
-0.08527129888534546 0.10110852122306824 0.007751941680908203
-0.08527129888534546 0.142961323261261 -0.05426359176635742
-0.08527129888534546 0.2038916051387787 -0.06976741552352905
-0.08527129888534546 0.22963924705982208 -0.06976741552352905
-0.08527129888534546 0.2824837863445282 -0.1627907156944275
-0.08527129888534546 0.2855433225631714 -0.08527129888534546
-0.08527129888534546 0.27402108907699585 -0.06976741552352905
-0.08527129888534546 0.3008617162704468 -0.1627907156944275
-0.08527129888534546 0.30181172490119934 -0.10077518224716187
-0.08527129888534546 0.304447203874588 -0.10077518224716187
-0.08527129888534546 0.32456207275390625 -0.08527129888534546
-0.08527129888534546 0.3294612169265747 -0.06976741552352905
-0.08527129888534546 0.47255799174308777 -0.038759708404541016
-0.08527129888534546 0.5144838094711304 -0.05426359176635742
-0.08527129888534546 0.6468592286109924 -0.02325582504272461
-0.08527129888534546 0.7950953245162964 -0.038759708404541016
-0.08527129888534546 0.9623297452926636 -0.02325582504272461
-0.06976741552352905 -0.9443852305412292 -0.02325582504272461
-0.06976741552352905 -0.7042856216430664 -0.038759708404541016
-0.06976741552352905 -0.5572980642318726 -0.02325582504272461
-0.06976741552352905 -0.43028247356414795 -0.05426359176635742
-0.06976741552352905 -0.4245666265487671 -0.038759708404541016
-0.06976741552352905 -0.30342209339141846 -0.08527129888534546
-0.06976741552352905 -0.3048371970653534 -0.06976741552352905
-0.06976741552352905 -0.29907751083374023 -0.08527129888534546
-0.06976741552352905 -0.29457616806030273 -0.06976741552352905
-0.06976741552352905 -0.25095802545547485 -0.06976741552352905
-0.06976741552352905 -0.12769806385040283 -0.038759708404541016
-0.06976741552352905 -0.11391278356313705 -0.02325582504272461
-0.06976741552352905 -0.1101592481136322 -0.007751941680908203
-0.06976741552352905 -0.10514365136623383 0.007751941680908203
-0.06976741552352905 -0.1028376892209053 0.02325582504272461
-0.06976741552352905 -0.10188249498605728 0.038759708404541016
-0.06976741552352905 -0.10090937465429306 0.05426359176635742
-0.06976741552352905 -0.10013435781002045 -0.08527129888534546
-0.06976741552352905 -0.0956466943025589 0.06976747512817383
-0.06976741552352905 -0.07616320252418518 -0.10077518224716187
-0.06976741552352905 -0.08379490673542023 0.08527135848999023
-0.06976741552352905 -0.027721155434846878 0.10077524185180664
-0.06976741552352905 0.015600545331835747 0.10077524185180664
-0.06976741552352905 0.07131892442703247 -0.10077518224716187
-0.06976741552352905 0.07343283295631409 0.08527135848999023
-0.06976741552352905 0.09222129732370377 -0.08527129888534546
-0.06976741552352905 0.10040785372257233 0.02325582504272461
-0.06976741552352905 0.09851779043674469 0.038759708404541016
-0.06976741552352905 0.09516898542642593 0.05426359176635742
-0.06976741552352905 0.08871600031852722 0.06976747512817383
-0.06976741552352905 0.10628334432840347 -0.06976741552352905
-0.06976741552352905 0.11480050534009933 -0.05426359176635742
-0.06976741552352905 0.1084655225276947 -0.038759708404541016
-0.06976741552352905 0.10409124195575714 -0.02325582504272461
-0.06976741552352905 0.10304061323404312 -0.007751941680908203
-0.06976741552352905 0.10162100195884705 0.007751941680908203
-0.06976741552352905 0.13736434280872345 -0.05426359176635742
-0.06976741552352905 0.18276165425777435 -0.06976741552352905
-0.06976741552352905 0.27749717235565186 -0.1627907156944275
-0.06976741552352905 0.2866809368133545 -0.14728683233261108
-0.06976741552352905 0.2809706926345825 -0.08527129888534546
-0.06976741552352905 0.2946159839630127 -0.10077518224716187
-0.06976741552352905 0.3050379753112793 -0.1627907156944275
-0.06976741552352905 0.30385059118270874 -0.14728683233261108
-0.06976741552352905 0.327527791261673 -0.10077518224716187
-0.06976741552352905 0.3392571210861206 -0.08527129888534546
-0.06976741552352905 0.3412543833255768 -0.06976741552352905
-0.06976741552352905 0.4713250398635864 -0.038759708404541016
-0.06976741552352905 0.546256422996521 -0.05426359176635742
-0.06976741552352905 0.6433781385421753 -0.02325582504272461
-0.06976741552352905 0.8011419177055359 -0.038759708404541016
-0.06976741552352905 0.9513464570045471 -0.02325582504272461
-0.05426359176635742 -0.875567615032196 -0.02325582504272461
-0.05426359176635742 -0.7093871831893921 -0.038759708404541016
-0.05426359176635742 -0.5632697343826294 -0.02325582504272461
-0.05426359176635742 -0.462507426738739 -0.05426359176635742
-0.05426359176635742 -0.4033905863761902 -0.038759708404541016
-0.05426359176635742 -0.31794223189353943 -0.08527129888534546
-0.05426359176635742 -0.32244691252708435 -0.06976741552352905
-0.05426359176635742 -0.3044668138027191 -0.10077518224716187
-0.05426359176635742 -0.2861764430999756 -0.10077518224716187
-0.05426359176635742 -0.27784842252731323 -0.08527129888534546
-0.05426359176635742 -0.12844987213611603 -0.038759708404541016
-0.05426359176635742 -0.10688690841197968 -0.08527129888534546
-0.05426359176635742 -0.1153310164809227 -0.02325582504272461
-0.05426359176635742 -0.11162550002336502 -0.007751941680908203
-0.05426359176635742 -0.106272853910923 0.007751941680908203
-0.05426359176635742 -0.10348646342754364 0.02325582504272461
-0.05426359176635742 -0.10235598683357239 0.038759708404541016
-0.05426359176635742 -0.1013452336192131 0.05426359176635742
-0.05426359176635742 -0.0969638079404831 0.06976747512817383
-0.05426359176635742 -0.08538179844617844 0.08527135848999023
-0.05426359176635742 -0.07888469099998474 -0.10077518224716187
-0.05426359176635742 -0.028534866869449615 0.10077524185180664
-0.05426359176635742 0.01617014966905117 0.10077524185180664
-0.05426359176635742 0.07412470877170563 -0.10077518224716187
-0.05426359176635742 0.07387150079011917 0.08527135848999023
-0.05426359176635742 0.09473176300525665 -0.08527129888534546
-0.05426359176635742 0.09934230893850327 0.038759708404541016
-0.05426359176635742 0.0957588329911232 0.05426359176635742
-0.05426359176635742 0.08908487856388092 0.06976747512817383
-0.05426359176635742 0.10890129953622818 -0.06976741552352905
-0.05426359176635742 0.11008593440055847 -0.038759708404541016
-0.05426359176635742 0.10492198914289474 -0.02325582504272461
-0.05426359176635742 0.1037849485874176 -0.007751941680908203
-0.05426359176635742 0.10218319296836853 0.007751941680908203
-0.05426359549164772 0.10107648372650146 0.02325582504272461
-0.05426359176635742 0.16969525814056396 -0.06976741552352905
-0.05426359176635742 0.27942129969596863 -0.1627907156944275
-0.05426359176635742 0.27695393562316895 -0.08527129888534546
-0.05426359176635742 0.2969096601009369 -0.14728683233261108
-0.05426359176635742 0.2901687026023865 -0.10077518224716187
-0.05426358804106712 0.30472591519355774 -0.1627907156944275
-0.05426359176635742 0.3028925061225891 -0.14728683233261108
-0.05426359176635742 0.3420104682445526 -0.10077518224716187
-0.05426359549164772 0.35357606410980225 -0.08527129888534546
-0.05426359176635742 0.3583793044090271 -0.06976741552352905
-0.05426359176635742 0.47044047713279724 -0.038759708404541016
-0.05426359176635742 0.5746188759803772 -0.05426359176635742
-0.05426359176635742 0.6441584825515747 -0.02325582504272461
-0.05426359176635742 0.803890585899353 -0.038759708404541016
-0.05426359176635742 0.9261630773544312 -0.02325582504272461
-0.038759708404541016 -0.7963231801986694 -0.02325582318007946
-0.038759708404541016 -0.7081688046455383 -0.038759708404541016
-0.038759708404541016 -0.5728157758712769 -0.02325582504272461
-0.038759708404541016 -0.4746043384075165 -0.05426359176635742
-0.038759708404541016 -0.3793775737285614 -0.038759708404541016
-0.038759708404541016 -0.3191438615322113 -0.08527129888534546
-0.038759712129831314 -0.3303483724594116 -0.06976741552352905
-0.038759708404541016 -0.3052186965942383 -0.10077518224716187
-0.038759708404541016 -0.2841287851333618 -0.10077518224716187
-0.038759708404541016 -0.2657749652862549 -0.08527129888534546
-0.038759708404541016 -0.12849053740501404 -0.038759708404541016
-0.038759708404541016 -0.10952732712030411 -0.08527129888534546
-0.038759708404541016 -0.11463680118322372 -0.02325582504272461
-0.038759708404541016 -0.11141691356897354 -0.007751941680908203
-0.038759708404541016 -0.10643142461776733 0.007751941680908203
-0.038759708404541016 -0.1036549061536789 0.02325582504272461
-0.038759708404541016 -0.10256914794445038 0.038759708404541016
-0.038759708404541016 -0.10159935802221298 0.05426359176635742
-0.038759708404541016 -0.09772307425737381 0.06976747512817383
-0.038759708404541016 -0.08579052984714508 0.08527135848999023
-0.038759708404541016 -0.07986529171466827 -0.10077518224716187
-0.038759708404541016 -0.02820541337132454 0.10077524185180664
-0.038759708404541016 0.01570725627243519 0.10077524185180664
-0.038759708404541016 0.07567934691905975 -0.10077518224716187
-0.038759708404541016 0.0745484009385109 0.08527135848999023
-0.038759708404541016 0.09652377665042877 -0.08527129888534546
-0.038759708404541016 0.09989181160926819 0.038759708404541016
-0.038759708404541016 0.09634767472743988 0.05426359176635742
-0.038759708404541016 0.0896022766828537 0.06976747512817383
-0.038759708404541016 0.11038528382778168 -0.06976741552352905
-0.038759708404541016 0.11096930503845215 -0.038759708404541016
-0.038759708404541016 0.10492213815450668 -0.02325582504272461
-0.038759708404541016 0.10378939658403397 -0.007751941680908203
-0.038759708404541016 0.10233689844608307 0.007751941680908203
-0.038759708404541016 0.10122009366750717 0.02325582504272461
-0.038759708404541016 0.16036081314086914 -0.06976741552352905
-0.038759708404541016 0.2747558057308197 -0.08527129143476486
-0.038759708404541016 0.2892927825450897 -0.10077518224716187
-0.038759708404541016 0.33841219544410706 -0.10077518224716187
-0.038759708404541016 0.3520541191101074 -0.08527129888534546
-0.038759708404541016 0.3597303330898285 -0.06976741552352905
-0.038759708404541016 0.46821001172065735 -0.038759708404541016
-0.038759708404541016 0.585993230342865 -0.05426359176635742
-0.038759708404541016 0.6509416103363037 -0.02325582504272461
-0.038759708404541016 0.8008495569229126 -0.038759708404541016
-0.038759708404541016 0.8320422172546387 -0.02325582504272461
-0.02325582504272461 -0.6772887706756592 -0.038759708404541016
-0.02325582504272461 -0.6743373274803162 -0.02325582504272461
-0.02325582504272461 -0.5861349701881409 -0.02325582504272461
-0.02325582504272461 -0.47973573207855225 -0.05426359176635742
-0.02325582504272461 -0.36433976888656616 -0.038759708404541016
-0.02325582504272461 -0.33686673641204834 -0.06976741552352905
-0.02325582318007946 -0.3134492039680481 -0.08527129888534546
-0.02325582504272461 -0.26534146070480347 -0.08527129888534546
-0.02325582504272461 -0.1277826577425003 -0.038759708404541016
-0.02325582504272461 -0.10872481763362885 -0.08527129888534546
-0.02325582504272461 -0.11230763792991638 -0.02325582504272461
-0.02325582504272461 -0.10963054746389389 -0.007751941680908203
-0.02325582504272461 -0.10551485419273376 0.007751941680908203
-0.02325582504272461 -0.10320396721363068 0.02325582504272461
-0.02325582504272461 -0.10231327265501022 0.038759708404541016
-0.02325582504272461 -0.10145736485719681 0.05426359176635742
-0.02325582690536976 -0.09717512875795364 0.06976747512817383
-0.02325582504272461 -0.08554776012897491 0.08527135848999023
-0.02325582504272461 -0.07801209390163422 -0.10077518224716187
-0.02325582504272461 -0.02189534902572632 0.10077524185180664
-0.02325582504272461 0.010992104187607765 0.10077524185180664
-0.02325582504272461 0.07487025856971741 -0.10077518969774246
-0.02325582504272461 0.07478500157594681 0.08527135848999023
-0.02325582504272461 0.09685760736465454 -0.08527129888534546
-0.02325582504272461 0.10002464801073074 0.038759708404541016
-0.02325582504272461 0.09660080075263977 0.05426359176635742
-0.02325582504272461 0.08983605355024338 0.06976747512817383
-0.02325582504272461 0.1111440658569336 -0.06976741552352905
-0.02325582504272461 0.1107887253165245 -0.038759708404541016
-0.02325582504272461 0.10412128269672394 -0.02325582504272461
-0.02325582690536976 0.10322356969118118 -0.00775194214656949
-0.02325582504272461 0.10215646773576736 0.007751941680908203
-0.02325582504272461 0.10115695744752884 0.02325582504272461
-0.02325582504272461 0.1548078954219818 -0.06976741552352905
-0.02325582504272461 0.2777002155780792 -0.08527129888534546
-0.02325582504272461 0.2994528114795685 -0.10077518224716187
-0.02325582504272461 0.3096070885658264 -0.10077518224716187
-0.02325582504272461 0.3364757299423218 -0.08527129143476486
-0.02325582504272461 0.3536418378353119 -0.06976741552352905
-0.02325582504272461 0.46624085307121277 -0.038759708404541016
-0.02325582504272461 0.5867925882339478 -0.05426359176635742
-0.02325582504272461 0.6627570390701294 -0.02325582504272461
-0.02325582504272461 0.750041663646698 -0.02325582504272461
-0.02325582504272461 0.7543599009513855 -0.038759708404541016
-0.007751941680908203 -0.6463431119918823 -0.038759708404541016
-0.007751941680908203 -0.6156226396560669 -0.02325582504272461
-0.007751941215246916 -0.5945035815238953 -0.02325582318007946
-0.007751941680908203 -0.476157546043396 -0.05426359176635742
-0.007751941680908203 -0.3617767095565796 -0.038759708404541016
-0.007751941680908203 -0.33362069725990295 -0.06976741552352905
-0.007751941680908203 -0.12719614803791046 -0.038759708404541016
-0.007751941680908203 -0.10690956562757492 -0.08527129888534546
-0.007751941680908203 -0.11044754087924957 -0.02325582504272461
-0.007751941680908203 -0.10783595591783524 -0.007751941680908203
-0.007751941680908203 -0.10445718467235565 0.007751941680908203
-0.007751941680908203 -0.10253476351499557 0.02325582504272461
-0.007751941680908203 -0.1017477959394455 0.038759708404541016
-0.007751941680908203 -0.10097425431013107 0.05426359176635742
-0.007751941680908203 -0.09573372453451157 0.06976747512817383
-0.007751941680908203 -0.07496549934148788 -0.10077518224716187
-0.007751941215246916 -0.08427209407091141 0.08527135848999023
-0.007751941680908203 0.07142720371484756 -0.10077518224716187
-0.007751941680908203 0.07435153424739838 0.08527135848999023
-0.007751941680908203 0.09596596658229828 -0.08527129888534546
-0.007751941680908203 0.10012780129909515 0.02325582504272461
-0.007751941680908203 0.09869839996099472 0.038759708404541016
-0.007751941680908203 0.09579141438007355 0.05426359176635742
-0.007751941680908203 0.08947554975748062 0.06976747512817383
-0.007751941680908203 0.11098967492580414 -0.06976741552352905
-0.007751941680908203 0.11010351032018661 -0.038759708404541016
-0.007751941680908203 0.1029493510723114 -0.02325582504272461
-0.007751941215246916 0.10239604860544205 -0.007751941215246916
-0.007751941680908203 0.10151567310094833 0.007751941680908203
-0.007751941680908203 0.15459874272346497 -0.06976741552352905
-0.007751941680908203 0.2881985306739807 -0.08527129888534546
-0.007751941680908203 0.32117223739624023 -0.08527129888534546
-0.007751941680908203 0.36094042658805847 -0.06976741552352905
-0.007751941680908203 0.4665490984916687 -0.038759708404541016
-0.007751941680908203 0.5747226476669312 -0.05426359176635742
-0.007751941680908203 0.6909534335136414 -0.038759708404541016
0.007751941680908203 -0.6148504018783569 -0.038759708404541016
0.007751941680908203 -0.46708351373672485 -0.05426359176635742
0.007751941680908203 -0.36448466777801514 -0.038759708404541016
0.007751941215246916 -0.3269936442375183 -0.06976741552352905
0.007751941680908203 -0.12686148285865784 -0.038759708404541016
0.007751941680908203 -0.10473982989788055 -0.08527129888534546
0.007751941680908203 -0.10921500623226166 -0.02325582504272461
0.007751941680908203 -0.10650217533111572 -0.007751941680908203
0.007751941680908203 -0.1037386953830719 0.007751941680908203
0.007751941680908203 -0.10203991830348969 0.02325582504272461
0.007751941680908203 -0.10120412707328796 0.038759708404541016
0.007751941680908203 -0.09967000782489777 0.05426359176635742
0.007751941680908203 -0.0943465530872345 0.06976747512817383
0.007751941680908203 -0.07102486491203308 -0.10077518224716187
0.007751941680908203 -0.08253864198923111 0.08527135848999023
0.007751941680908203 0.06349161267280579 -0.10077518224716187
0.007751941215246916 0.07359533756971359 0.08527135848999023
0.007751941680908203 0.09464920312166214 -0.08527129888534546
0.007751941680908203 0.0983622595667839 0.02325582504272461
0.007751941680908203 0.09750114381313324 0.038759708404541016
0.007751941680908203 0.0949464961886406 0.05426359176635742
0.007751941680908203 0.08904469013214111 0.06976747512817383
0.007751941680908203 0.11030854284763336 -0.06976741552352905
0.007751941680908203 0.11005545407533646 -0.038759708404541016
0.007751941680908203 0.10216855257749557 -0.02325582504272461
0.007751941680908203 0.1018906682729721 -0.007751941680908203
0.007751941680908203 0.10097217559814453 0.007751941680908203
0.007751941680908203 0.15486504137516022 -0.06976741552352905
0.007751941680908203 0.36468952894210815 -0.06976741552352905
0.007751941680908203 0.46834665536880493 -0.038759708404541016
0.007751941680908203 0.5629734992980957 -0.05426359176635742
0.007751941215246916 0.644996166229248 -0.038759708404541016
0.02325582504272461 -0.5819991230964661 -0.038759708404541016
0.02325582504272461 -0.4604758024215698 -0.05426359176635742
0.02325582504272461 -0.3717023432254791 -0.038759708404541016
0.02325582504272461 -0.3193418085575104 -0.06976741552352905
0.02325582504272461 -0.12765397131443024 -0.038759708404541016
0.02325582504272461 -0.10420861095190048 -0.08527129888534546
0.02325582504272461 -0.10884280502796173 -0.02325582504272461
0.02325582504272461 -0.10592663288116455 -0.007751941680908203
0.02325582504272461 -0.10347296297550201 0.007751941680908203
0.02325582504272461 -0.10184991359710693 0.02325582504272461
0.02325582504272461 -0.10090940445661545 0.038759708404541016
0.02325582504272461 -0.09863027930259705 0.05426359176635742
0.02325582504272461 -0.09359201788902283 0.06976747512817383
0.02325582504272461 -0.08192979544401169 0.08527135103940964
0.02325582504272461 -0.067323699593544 -0.10077518224716187
0.02325582318007946 0.057294126600027084 -0.10077518224716187
0.02325582504272461 0.07367579638957977 0.08527135848999023
0.02325582504272461 0.09374284744262695 -0.08527129888534546
0.02325582504272461 0.09992068260908127 0.007751941680908203
0.02325582504272461 0.09741917997598648 0.02325582504272461
0.02325582504272461 0.09700705111026764 0.038759708404541016
0.02325582504272461 0.09472431987524033 0.05426359176635742
0.02325582504272461 0.08909565210342407 0.06976747512817383
0.02325582504272461 0.11139875650405884 -0.06976741552352905
0.02325582504272461 0.11140581220388412 -0.038759708404541016
0.02325582504272461 0.10182096809148788 -0.02325582504272461
0.02325582690536976 0.10160385817289352 -0.007751941680908203
0.02325582690536976 0.14750052988529205 -0.06976741552352905
0.02325582504272461 0.3684045374393463 -0.06976741552352905
0.02325582318007946 0.47531941533088684 -0.03875970467925072
0.02325582504272461 0.5591993927955627 -0.05426359176635742
0.02325582504272461 0.6099786162376404 -0.038759708404541016
0.038759708404541016 -0.5395943522453308 -0.038759708404541016
0.038759708404541016 -0.45446789264678955 -0.05426359176635742
0.038759708404541016 -0.38457369804382324 -0.038759708404541016
0.038759708404541016 -0.29701173305511475 -0.06976741552352905
0.038759708404541016 -0.12858431041240692 -0.038759708404541016
0.038759708404541016 -0.10287077724933624 -0.08527129888534546
0.038759708404541016 -0.10864163935184479 -0.02325582504272461
0.038759708404541016 -0.10550470650196075 -0.007751941680908203
0.038759708404541016 -0.10325131565332413 0.007751941680908203
0.038759708404541016 -0.10172127932310104 0.02325582504272461
0.03875970467925072 -0.10064484924077988 0.03875970467925072
0.038759708404541016 -0.0979481041431427 0.05426359176635742
0.038759708404541016 -0.0929245799779892 0.06976747512817383
0.038759708404541016 -0.08189190179109573 0.08527135848999023
0.038759708404541016 -0.06551262736320496 -0.10077518224716187
0.038759708404541016 0.05214271321892738 -0.10077518224716187
0.038759708404541016 0.07381267845630646 0.08527135848999023
0.038759708404541016 0.09267620742321014 -0.08527129888534546
0.038759708404541016 0.09772033989429474 0.007751941680908203
0.038759708404541016 0.09598024189472198 0.02325582504272461
0.038759708404541016 0.09600907564163208 0.038759708404541016
0.038759708404541016 0.09405887126922607 0.05426359176635742
0.038759708404541016 0.08888596296310425 0.06976747512817383
0.038759708404541016 0.11243974417448044 -0.06976741552352905
0.038759708404541016 0.11172416061162949 -0.038759708404541016
0.038759708404541016 0.10138047486543655 -0.02325582690536976
0.038759708404541016 0.10122299194335938 -0.007751941680908203
0.038759708404541016 0.14296184480190277 -0.06976741552352905
0.038759708404541016 0.36796265840530396 -0.06976741552352905
0.038759708404541016 0.48653480410575867 -0.038759708404541016
0.038759708404541016 0.5521683692932129 -0.05426359176635742
0.038759708404541016 0.5796007513999939 -0.038759708404541016
0.05426359176635742 -0.46777957677841187 -0.038759708404541016
0.05426359176635742 -0.4331648051738739 -0.05426359176635742
0.05426359176635742 -0.408824622631073 -0.038759708404541016
0.05426359176635742 -0.2753642797470093 -0.06976741552352905
0.05426359176635742 -0.1281505525112152 -0.038759708404541016
0.05426359176635742 -0.10760297626256943 -0.02325582504272461
0.05426359176635742 -0.10458669066429138 -0.007751941680908203
0.05426359176635742 -0.10286860167980194 0.007751941680908203
0.05426359176635742 -0.10161367803812027 0.02325582504272461
0.05426359176635742 -0.09975462406873703 -0.08527129888534546
0.05426359549164772 -0.10044406354427338 0.038759708404541016
0.05426359176635742 -0.09743727743625641 0.05426359176635742
0.05426359176635742 -0.09202443063259125 0.06976747512817383
0.05426359176635742 -0.0814477950334549 0.08527135848999023
0.05426359176635742 -0.06178918480873108 -0.10077518224716187
0.05426359176635742 0.02196662686765194 -0.10077518224716187
0.05426359176635742 0.0736117884516716 0.08527135848999023
0.05426359176635742 0.09057816863059998 -0.08527129888534546
0.05426359176635742 0.09987187385559082 -0.02325582504272461
0.05426359176635742 0.09935253858566284 -0.007751941680908203
0.05426359176635742 0.09500676393508911 0.007751941680908203
0.05426359176635742 0.09436316788196564 0.02325582504272461
0.05426359176635742 0.0948590487241745 0.038759708404541016
0.05426359176635742 0.09313374012708664 0.05426359176635742
0.05426359176635742 0.08840148895978928 0.06976747512817383
0.05426359176635742 0.11017710715532303 -0.06976741552352905
0.05426359176635742 0.10830628871917725 -0.038759708404541016
0.05426359176635742 0.1435580998659134 -0.06976741552352905
0.05426359176635742 0.3581964373588562 -0.06976741552352905
0.05426359176635742 0.5066993832588196 -0.05426359176635742
0.06976747512817383 -0.3624318838119507 -0.05426359176635742
0.06976747512817383 -0.2567989230155945 -0.06976741552352905
0.06976747512817383 -0.12423935532569885 -0.038759708404541016
0.06976747512817383 -0.10573746263980865 -0.02325582504272461
0.06976747512817383 -0.10356447845697403 -0.007751941680908203
0.06976747512817383 -0.1024196594953537 0.007751941680908203
0.06976747512817383 -0.1013651043176651 0.02325582504272461
0.06976747512817383 -0.096629798412323 -0.08527129888534546
0.06976747512817383 -0.09925904870033264 0.038759708404541016
0.06976747512817383 -0.09580658376216888 0.05426359176635742
0.06976747512817383 -0.09039915353059769 0.06976747512817383
0.06976747512817383 -0.07922449707984924 0.08527135848999023
0.06976747512817383 -0.05581849440932274 -0.10077518224716187
0.06976747512817383 0.005059308372437954 -0.10077518224716187
0.06976747512817383 0.07288693636655807 0.08527135848999023
0.06976747512817383 0.08814172446727753 -0.08527129888534546
0.06976747512817383 0.09528796374797821 -0.02325582504272461
0.06976747512817383 0.09424947202205658 -0.007751941680908203
0.06976747512817383 0.09231496602296829 0.007751941215246916
0.06976747512817383 0.09250394999980927 0.02325582504272461
0.06976747512817383 0.09323189407587051 0.038759708404541016
0.06976747512817383 0.09168650209903717 0.05426359176635742
0.06976747512817383 0.08748199045658112 0.06976747512817383
0.06976747512817383 0.1039520725607872 -0.06976741552352905
0.06976747512817383 0.10268092155456543 -0.038759708404541016
0.06976747512817383 0.1542118787765503 -0.06976741552352905
0.06976747512817383 0.3180175721645355 -0.06976741552352905
0.06976747512817383 0.40086090564727783 -0.05426359176635742
0.08527135848999023 -0.262071430683136 -0.05426359176635742
0.08527135848999023 -0.23413121700286865 -0.06976741552352905
0.08527135848999023 -0.15552496910095215 -0.06976741552352905
0.08527135848999023 -0.11586681008338928 -0.06976741552352905
0.08527135848999023 -0.11345620453357697 -0.038759708404541016
0.08527135848999023 -0.10366219282150269 -0.02325582504272461
0.08527135848999023 -0.10268072783946991 -0.007751941680908203
0.08527135848999023 -0.10175375640392303 0.007751941680908203
0.08527135848999023 -0.09282612800598145 -0.08527129888534546
0.08527135848999023 -0.10007230192422867 0.02325582504272461
0.08527135848999023 -0.09606916457414627 0.038759708404541016
0.08527135848999023 -0.0925000011920929 0.05426359176635742
0.08527135848999023 -0.08831378817558289 0.06976747512817383
0.08527135848999023 -0.07616690546274185 0.08527135848999023
0.08527135848999023 -0.04406627267599106 -0.10077518224716187
0.08527135848999023 -0.009919015690684319 -0.10077518224716187
0.08527135848999023 0.07109526544809341 0.08527135848999023
0.08527135103940964 0.08607440441846848 -0.08527129888534546
0.08527135848999023 0.09919606149196625 -0.06976741552352905
0.08527135848999023 0.09717139601707458 -0.038759708404541016
0.08527135848999023 0.09058233350515366 -0.02325582504272461
0.08527135848999023 0.0900883674621582 -0.007751941680908203
0.08527135848999023 0.08953402936458588 0.00775194214656949
0.08527135848999023 0.08984216302633286 0.02325582504272461
0.08527135848999023 0.09029357880353928 0.038759708404541016
0.08527135848999023 0.08905031532049179 0.05426359176635742
0.08527136594057083 0.08564791828393936 0.06976747512817383
0.08527135848999023 0.10434846580028534 -0.05426359176635742
0.08527135848999023 0.1416005790233612 -0.05426359176635742
0.08527135848999023 0.21375548839569092 -0.06976741552352905
0.08527135848999023 0.2406160831451416 -0.06976741552352905
0.08527135848999023 0.28558188676834106 -0.05426359176635742
0.10077524185180664 -0.22513076663017273 -0.05426359176635742
0.10077524185180664 -0.2005692571401596 -0.06976741552352905
0.10077524185180664 -0.17808210849761963 -0.06976741552352905
0.10077524185180664 -0.10943135619163513 -0.06976741552352905
0.10077524185180664 -0.10780074447393417 -0.038759708404541016
0.10077524185180664 -0.10244289040565491 -0.02325582504272461
0.10077524185180664 -0.1019565612077713 -0.007751941680908203
0.10077524185180664 -0.10078784823417664 0.007751941680908203
0.10077524185180664 -0.08908906579017639 -0.08527129888534546
0.10077524185180664 -0.09552827477455139 0.02325582504272461
0.10077524185180664 -0.09253641963005066 0.038759708404541016
0.10077524185180664 -0.08960169553756714 0.05426359176635742
0.10077524185180664 -0.08644271641969681 0.06976747512817383
0.10077524185180664 -0.07320347428321838 0.08527135848999023
0.10077524185180664 0.06512796133756638 0.08527135848999023
0.10077524185180664 0.08297240734100342 -0.08527129888534546
0.10077524185180664 0.07937510311603546 0.06976747512817383
0.10077524185180664 0.09566676616668701 -0.06976741552352905
0.10077524185180664 0.0986870601773262 -0.05426359176635742
0.10077524185180664 0.09224355220794678 -0.038759708404541016
0.10077524185180664 0.08768526464700699 -0.02325582504272461
0.10077524185180664 0.0873541533946991 -0.007751941680908203
0.10077524185180664 0.08685615658760071 0.007751941680908203
0.10077524185180664 0.0870574563741684 0.02325582504272461
0.10077524185180664 0.08726406842470169 0.038759708404541016
0.10077524185180664 0.08610391616821289 0.05426359176635742
0.10077524185180664 0.16229823231697083 -0.05426359176635742
0.10077524185180664 0.23307029902935028 -0.05426359176635742
0.11627912521362305 -0.18866483867168427 -0.05426359176635742
0.11627912521362305 -0.15391957759857178 -0.05426359176635742
0.11627912521362305 -0.10332517325878143 -0.06976741552352905
0.11627912521362305 -0.11255820840597153 -0.05426358804106712
0.11627912521362305 -0.10509569942951202 -0.038759708404541016
0.11627912521362305 -0.10186105221509933 -0.02325582504272461
0.11627912521362305 -0.10136757791042328 -0.007751941680908203
0.11627912521362305 -0.08590931445360184 -0.08527129888534546
0.11627912521362305 -0.0968286469578743 0.007751941680908203
0.11627912521362305 -0.0928942859172821 0.02325582504272461
0.11627912521362305 -0.09016746282577515 0.038759708404541016
0.11627912521362305 -0.08753935247659683 0.05426359176635742
0.11627912521362305 -0.08398653566837311 0.06976746767759323
0.11627912521362305 -0.07102648168802261 0.08527135848999023
0.11627912521362305 0.05834166705608368 0.08527135848999023
0.11627912521362305 0.07913246750831604 -0.08527129888534546
0.11627912521362305 0.08356384932994843 0.007751941680908203
0.11627912521362305 0.08394251018762589 0.02325582504272461
0.11627912521362305 0.08401815593242645 0.038759708404541016
0.11627912521362305 0.08073242008686066 0.05426359176635742
0.11627912521362305 0.07444234192371368 0.06976747512817383
0.11627912521362305 0.09250818938016891 -0.06976741552352905
0.11627912521362305 0.09500513970851898 -0.05426359176635742
0.11627912521362305 0.08939453959465027 -0.038759708404541016
0.11627912521362305 0.0860578715801239 -0.02325582504272461
0.11627912521362305 0.08565846085548401 -0.007751941680908203
0.1317828893661499 -0.10747799277305603 -0.05426359176635742
0.1317828893661499 -0.10372596979141235 -0.038759708404541016
0.1317828893661499 -0.1015152856707573 -0.02325582504272461
0.1317828893661499 -0.10094635933637619 -0.007751941680908203
0.1317828893661499 -0.09936656057834625 -0.06976741552352905
0.1317828893661499 -0.09500633180141449 0.007751941680908203
0.1317828893661499 -0.09108829498291016 0.02325582504272461
0.1317828893661499 -0.08852190524339676 0.038759708404541016
0.1317828893661499 -0.08624628931283951 0.05426359176635742
0.1317828893661499 -0.0820271223783493 -0.08527129888534546
0.1317828893661499 -0.07982616126537323 0.06976747512817383
0.1317828893661499 -0.06829909235239029 0.08527135848999023
0.1317828893661499 0.051588915288448334 0.08527135848999023
0.1317828893661499 0.0751531571149826 -0.08527129888534546
0.1317828893661499 0.08491669595241547 -0.02325582504272461
0.1317828893661499 0.08318658918142319 -0.007751941680908203
0.1317828893661499 0.0799625962972641 0.007751941680908203
0.1317828893661499 0.0797158032655716 0.02325582504272461
0.1317828893661499 0.07911604642868042 0.038759708404541016
0.1317828893661499 0.07625751197338104 0.05426359176635742
0.1317828893661499 0.07093336433172226 0.06976747512817383
0.1317828893661499 0.08940044045448303 -0.06976741552352905
0.1317828893661499 0.09232302010059357 -0.05426359176635742
0.1317828893661499 0.08775735646486282 -0.038759708404541016
0.1472867727279663 -0.10293707996606827 -0.05426359176635742
0.1472867727279663 -0.1021304726600647 -0.038759708404541016
0.1472867727279663 -0.09539645910263062 -0.06976741552352905
0.1472867727279663 -0.10061044245958328 -0.02325582504272461
0.1472867727279663 -0.09815113991498947 -0.007751941680908203
0.1472867727279663 -0.09243564307689667 0.007751941680908203
0.1472867727279663 -0.08902949839830399 0.02325582504272461
0.1472867727279663 -0.08681020885705948 0.038759708404541016
0.1472867727279663 -0.07708632946014404 -0.08527129888534546
0.1472867727279663 -0.08380292356014252 0.05426359176635742
0.1472867727279663 -0.07558190077543259 0.06976747512817383
0.1472867727279663 -0.06176625192165375 0.08527135848999023
0.1472867727279663 0.04043876752257347 0.08527135848999023
0.1472867727279663 0.0672578439116478 -0.08527129888534546
0.1472867727279663 0.0653110221028328 0.06976747512817383
0.1472867727279663 0.08212440460920334 -0.02325582504272461
0.1472867727279663 0.07942579686641693 -0.007751941680908203
0.1472867727279663 0.07661391794681549 0.007751941680908203
0.1472867727279663 0.0760045051574707 0.02325582504272461
0.1472867727279663 0.07506817579269409 0.038759708404541016
0.1472867727279663 0.07247932255268097 0.05426359176635742
0.1472867727279663 0.0856228843331337 -0.06976741552352905
0.1472867727279663 0.08903329074382782 -0.05426359176635742
0.1472867727279663 0.08577332645654678 -0.038759708404541016
0.16279065608978271 -0.09165730327367783 -0.06976741552352905
0.16279065608978271 -0.09892819821834564 -0.05426358804106712
0.16279065608978271 -0.09952712059020996 -0.03875970467925072
0.16279065608978271 -0.09703423082828522 -0.02325582504272461
0.16279065608978271 -0.09420952200889587 -0.007751941680908203
0.16279065608978271 -0.08980871737003326 0.007751941680908203
0.16279065608978271 -0.08715054392814636 0.02325582504272461
0.16279065608978271 -0.08537064492702484 0.038759708404541016
0.16279065608978271 -0.07162829488515854 -0.08527129888534546
0.16279065608978271 -0.07815125584602356 0.05426359176635742
0.16279065608978271 -0.07194104790687561 0.06976747512817383
0.16279065608978271 -0.056275058537721634 0.08527135848999023
