0.6279069185256958 0.007751941680908203 0.044923119246959686
0.6279069185256958 0.02325582504272461 -0.04121005907654762
0.6279069185256958 0.02325582318007946 0.026114393025636673
0.6279069185256958 0.038759708404541016 -0.03885980322957039
0.6279069185256958 0.038759708404541016 0.01406236831098795
0.6279069185256958 0.05426359176635742 -0.033314887434244156
0.627906858921051 0.05426359176635742 0.007793640252202749
0.6279069185256958 0.06976747512817383 -0.02681276574730873
0.6279069185256958 0.06976747512817383 -0.004993584007024765
0.6434108018875122 -0.06976741552352905 -0.010334685444831848
0.6434108018875122 -0.06976741552352905 -0.005366362631320953
0.6434108018875122 -0.05426359176635742 -0.025793137028813362
0.6434108018875122 -0.05426359176635742 0.008883712813258171
0.6434108018875122 -0.038759708404541016 -0.03105207532644272
0.6434108018875122 -0.038759708404541016 0.017270568758249283
0.6434108018875122 -0.02325582504272461 -0.03680340573191643
0.6434107422828674 -0.02325582318007946 0.026515966281294823
0.6434108018875122 -0.007751941680908203 -0.039788585156202316
0.6434108018875122 -0.007751941680908203 0.04935484007000923
0.6434108018875122 -0.00775194214656949 0.05517256259918213
0.6434108018875122 -0.007751941680908203 0.1490720510482788
0.6434108018875122 0.007751941680908203 -0.0397401824593544
0.6434108018875122 0.007751941680908203 0.037630848586559296
0.6434108018875122 0.007751941680908203 0.06888315081596375
0.6434108018875122 0.007751941680908203 0.1086687296628952
0.643410861492157 0.02325582504272461 -0.03532302379608154
0.6434108018875122 0.02325582504272461 0.023867662996053696
0.6434108018875122 0.038759708404541016 -0.031021567061543465
0.6434108018875122 0.038759708404541016 0.011839663609862328
0.6434108018875122 0.05426359176635742 -0.028223605826497078
0.6434108018875122 0.05426359176635742 0.006097218953073025
0.6434108018875122 0.06976747512817383 -0.02456710860133171
0.6434108018875122 0.06976747512817383 -0.005441055633127689
0.6589146852493286 -0.06976741552352905 -0.010049897246062756
0.6589146852493286 -0.06976741552352905 -0.004418643191456795
0.6589146852493286 -0.05426359176635742 -0.023939508944749832
0.6589146256446838 -0.05426359176635742 0.00861923024058342
0.6589146852493286 -0.038759708404541016 -0.0273980014026165
0.6589146852493286 -0.038759708404541016 0.013624518178403378
0.6589146852493286 -0.02325582504272461 -0.03014836087822914
0.6589147448539734 -0.02325582504272461 0.024326186627149582
0.6589146852493286 -0.00775194214656949 -0.031817179173231125
0.6589146852493286 -0.007751941680908203 0.03611501306295395
0.6589146852493286 -0.007751941680908203 0.052736617624759674
0.6589146852493286 -0.007751941680908203 0.1580560952425003
0.6589146852493286 0.007751941680908203 -0.03149469196796417
0.6589146852493286 0.007751941680908203 0.035003092139959335
0.6589146852493286 0.007751941680908203 0.061084598302841187
0.6589146852493286 0.007751941680908203 0.1259351521730423
0.6589146852493286 0.02325582504272461 -0.028972599655389786
0.6589146852493286 0.02325582504272461 0.020902173593640327
0.6589146852493286 0.038759708404541016 -0.026709411293268204
0.6589146852493286 0.038759708404541016 0.01041773147881031
0.6589146852493286 0.05426359176635742 -0.0251473318785429
0.6589146852493286 0.05426359176635742 0.00591706857085228
0.6589146852493286 0.06976747512817383 -0.021306809037923813
0.6589146852493286 0.06976747512817383 -0.005104865878820419
0.674418568611145 -0.06976741552352905 -0.010641844943165779
0.674418568611145 -0.06976741552352905 -0.0010257735848426819
0.674418568611145 -0.05426359176635742 -0.019654108211398125
0.674418568611145 -0.05426359176635742 0.008709353394806385
0.674418568611145 -0.038759708404541016 -0.024769403040409088
0.674418568611145 -0.038759708404541016 0.011975731700658798
0.674418568611145 -0.02325582504272461 -0.02698524296283722
0.674418568611145 -0.02325582504272461 0.023365313187241554
0.674418568611145 -0.007751941680908203 -0.0281568244099617
0.674418568611145 -0.007751941680908203 0.03534199297428131
0.674418568611145 -0.007751941680908203 0.04637204110622406
0.674418568611145 -0.00775194214656949 0.16698622703552246
0.674418568611145 0.007751941680908203 -0.02786082774400711
0.674418568611145 0.007751941680908203 0.034611474722623825
0.674418568611145 0.007751941680908203 0.049464426934719086
0.674418568611145 0.007751941680908203 0.13801047205924988
0.674418568611145 0.02325582504272461 -0.02591646835207939
0.674418568611145 0.02325582504272461 0.018550850450992584
0.674418568611145 0.038759708404541016 -0.024292562156915665
0.674418568611145 0.038759708404541016 0.009901289828121662
0.674418568611145 0.05426359176635742 -0.023381751030683517
0.674418568611145 0.05426359176635742 0.007463357411324978
0.674418568611145 0.06976747512817383 -0.015021437779068947
0.674418568611145 0.06976747512817383 -0.003868245519697666
0.6899224519729614 -0.08527129888534546 -0.008284958079457283
0.6899224519729614 -0.08527129888534546 -0.006022743880748749
0.6899224519729614 -0.06976741552352905 -0.01093749888241291
0.6899224519729614 -0.06976741552352905 0.0077936165034770966
0.6899224519729614 -0.05426359176635742 -0.015583640895783901
0.6899224519729614 -0.05426359176635742 0.009103244170546532
0.6899224519729614 -0.038759708404541016 -0.02195308730006218
0.6899224519729614 -0.038759708404541016 0.011739959008991718
0.6899224519729614 -0.02325582504272461 -0.02460796944797039
0.6899224519729614 -0.02325582504272461 0.022225817665457726
0.6899224519729614 -0.007751941680908203 -0.025616472586989403
0.6899224519729614 -0.007751941680908203 0.03693568706512451
0.6899224519729614 -0.00775194214656949 0.04169480502605438
0.6899224519729614 -0.007751941680908203 0.18015152215957642
0.6899224519729614 0.007751941680908203 -0.025355016812682152
0.6899224519729614 0.007751941680908203 0.03678591549396515
0.6899224519729614 0.007751941680908203 0.04241719841957092
0.6899224519729614 0.007751941680908203 0.1490015834569931
0.6899224519729614 0.02325582504272461 -0.023828580975532532
0.6899224519729614 0.02325582504272461 0.017953449860215187
0.6899224519729614 0.038759708404541016 -0.020002124831080437
0.6899224519729614 0.038759708404541016 0.009998295456171036
0.6899224519729614 0.05426359176635742 -0.016562530770897865
0.6899225115776062 0.05426359549164772 0.008103033527731895
0.6899224519729614 0.06976747512817383 -0.012288542464375496
0.6899224519729614 0.06976747512817383 -0.0017688893713057041
0.6899224519729614 0.08527135848999023 -0.008224870078265667
0.6899224519729614 0.08527135103940964 -0.0072490135207772255
0.7054263353347778 -0.10077518224716187 -0.0079226428642869
0.7054263353347778 -0.10077518224716187 -0.006642506457865238
0.7054263353347778 -0.08527129888534546 -0.008981199003756046
0.7054263353347778 -0.08527129888534546 0.0056343963369727135
0.7054263353347778 -0.06976741552352905 -0.010238869115710258
0.7054263353347778 -0.06976741552352905 0.0088364128023386
0.7054263353347778 -0.05426359176635742 -0.012542329728603363
0.7054263353347778 -0.05426359176635742 0.009717234410345554
0.7054263353347778 -0.038759708404541016 -0.015695011243224144
0.7054263353347778 -0.038759708404541016 0.012164056301116943
0.7054263353347778 -0.02325582504272461 -0.019470661878585815
0.7054263353347778 -0.02325582504272461 0.022605812177062035
0.7054263353347778 -0.007751941680908203 -0.023271972313523293
0.7054263353347778 -0.007751941680908203 0.19247470796108246
0.7054263353347778 0.007751941680908203 -0.022124672308564186
0.7054263353347778 0.007751941680908203 0.15753933787345886
0.7054263353347778 0.02325582504272461 -0.01711367815732956
0.7054263353347778 0.02325582504272461 0.018347593024373055
0.7054263353347778 0.038759708404541016 -0.013992059975862503
0.7054263353347778 0.038759708404541016 0.010355687700212002
0.7054263353347778 0.05426359176635742 -0.012243110686540604
0.7054263353347778 0.05426359176635742 0.00851819571107626
0.7054263353347778 0.06976747512817383 -0.01040651649236679
0.7054263353347778 0.06976747512817383 0.0014833405148237944
0.7054263353347778 0.08527135848999023 -0.008972521871328354
0.7054263353347778 0.08527135848999023 -0.005004161037504673
0.7054263353347778 0.10077524185180664 -0.00829539354890585
0.7054263353347778 0.10077524185180664 -0.006567221134901047
0.7209302186965942 -0.11627906560897827 0.005886879749596119
0.7209302186965942 -0.11627906560897827 0.007977522909641266
0.7209302186965942 -0.10077518224716187 -0.008117049001157284
0.7209302186965942 -0.10077518224716187 0.008179672062397003
0.7209302186965942 -0.08527129888534546 -0.0087512182071805
0.7209302186965942 -0.08527129888534546 0.008629055693745613
0.7209302186965942 -0.06976741552352905 -0.009345542639493942
0.720930278301239 -0.06976741552352905 0.009472372941672802
0.7209302186965942 -0.05426359176635742 -0.010536943562328815
0.7209302186965942 -0.05426359176635742 0.010674642398953438
0.7209302186965942 -0.038759708404541016 -0.012232238426804543
0.7209302186965942 -0.038759708404541016 0.013189151883125305
0.7209302186965942 -0.02325582504272461 -0.014206469058990479
0.7209302186965942 -0.02325582504272461 0.023428378626704216
0.7209302186965942 -0.007751941680908203 -0.015342671424150467
0.7209302186965942 -0.007751941680908203 0.19900722801685333
0.7209302186965942 0.007751941680908203 -0.014708921313285828
0.7209302186965942 0.007751941680908203 0.16615818440914154
0.7209302186965942 0.02325582504272461 -0.012735828757286072
0.7209302186965942 0.02325582504272461 0.018622322008013725
0.7209302186965942 0.038759708404541016 -0.0111326202750206
0.7209302186965942 0.038759708404541016 0.010703397914767265
0.7209302186965942 0.05426359176635742 -0.010193788446485996
0.7209302186965942 0.05426358804106712 0.008930575102567673
0.7209302186965942 0.06976747512817383 -0.009409910999238491
0.7209302186965942 0.06976747512817383 0.007782060652971268
0.7209302186965942 0.08527135848999023 -0.009033010341227055
0.7209302186965942 0.08527135848999023 -0.0010550294537097216
0.7209302186965942 0.10077524185180664 -0.008902188390493393
0.7209302186965942 0.10077523440122604 -0.0018901706207543612
0.7209302186965942 0.11627912521362305 -0.008716651238501072
0.7209302186965942 0.11627912521362305 0.0019017625600099564
0.7209302186965942 0.1317828893661499 -0.008046557195484638
0.7209302186965942 0.1317828893661499 0.008096293546259403
0.7209302186965942 0.1472867727279663 0.004174543544650078
0.7209302186965942 0.14728675782680511 0.00810492318123579
0.7364341020584106 -0.1627907156944275 0.006918509490787983
0.7364341020584106 -0.1627907156944275 0.008258023299276829
0.7364341020584106 -0.14728683233261108 0.005488576367497444
0.7364341020584106 -0.14728683233261108 0.008941646665334702
0.7364341020584106 -0.13178294897079468 0.004182339645922184
0.7364341020584106 -0.13178294897079468 0.009088482707738876
0.7364341020584106 -0.11627906560897827 0.0021109331864863634
0.7364341020584106 -0.11627906560897827 0.008884785696864128
0.7364341020584106 -0.10077518224716187 -0.006135802716016769
0.7364341020584106 -0.10077518224716187 0.008792649023234844
0.7364341020584106 -0.08527129888534546 -0.008507865481078625
0.7364341020584106 -0.08527129888534546 0.008980014361441135
0.7364341020584106 -0.06976741552352905 -0.00871997233480215
0.7364341020584106 -0.06976741552352905 0.009922919794917107
0.7364341020584106 -0.05426359176635742 -0.009201494045555592
0.7364341020584106 -0.05426359176635742 0.011564254760742188
0.7364341020584106 -0.038759708404541016 -0.010059647262096405
0.7364341020584106 -0.038759708404541016 0.0139242485165596
0.7364341020584106 -0.02325582504272461 -0.011345715261995792
0.7364341020584106 -0.02325582504272461 0.023520687595009804
0.7364341020584106 -0.007751941680908203 -0.012114421464502811
0.7364341020584106 -0.007751941680908203 0.21106554567813873
0.7364341020584106 0.007751941680908203 -0.011761143803596497
0.7364341020584106 0.007751941680908203 0.17595496773719788
0.7364341020584106 0.02325582504272461 -0.01043020747601986
0.7364341020584106 0.02325582504272461 0.017863044515252113
0.7364341020584106 0.038759708404541016 -0.009419448673725128
0.7364341020584106 0.038759708404541016 0.010808510705828667
0.7364341020584106 0.05426359176635742 -0.009042411111295223
0.7364341020584106 0.05426359176635742 0.009212613105773926
0.7364341020584106 0.06976747512817383 -0.008994332514703274
0.7364341020584106 0.06976747512817383 0.008259388618171215
0.7364341020584106 0.08527135848999023 -0.009075354784727097
0.7364341020584106 0.08527135848999023 0.004575015045702457
0.7364341020584106 0.10077524185180664 -0.009069547057151794
0.7364341020584106 0.10077524185180664 0.0039630066603422165
0.7364341020584106 0.11627912521362305 -0.008837454952299595
0.7364341020584106 0.11627912521362305 0.00807455275207758
0.7364341020584106 0.1317828893661499 -0.00813785009086132
0.7364341020584106 0.1317828893661499 0.008805655874311924
0.7364341020584106 0.1472867727279663 -0.0031202819664031267
0.7364341020584106 0.1472867727279663 0.009371347725391388
0.7364341020584106 0.16279065608978271 -0.00013430509716272354
0.7364341020584106 0.16279065608978271 0.00954766757786274
0.7364341020584106 0.17829453945159912 0.003151645651087165
0.7364341020584106 0.17829453945159912 0.00897512398660183
0.7364341020584106 0.19379842281341553 0.006961311213672161
0.7364341020584106 0.19379842281341553 0.008068809285759926
0.751937985420227 -0.19379842281341553 0.007515843026340008
0.751937985420227 -0.19379842281341553 0.007934105582535267
0.751937985420227 -0.1782945990562439 0.00575355626642704
0.751937985420227 -0.1782945990562439 0.009344208985567093
0.751937985420227 -0.1627907156944275 0.005184975452721119
0.751937985420227 -0.1627907156944275 0.009732705540955067
0.751937985420227 -0.14728683233261108 0.004770143888890743
0.7519380450248718 -0.14728683233261108 0.00965726375579834
0.751937985420227 -0.13178294897079468 0.0038985477294772863
0.751937985420227 -0.13178294897079468 0.009489217773079872
0.751937985420227 -0.11627906560897827 0.002251566154882312
0.751937985420227 -0.11627906560897827 0.009288931265473366
0.751937985420227 -0.10077518224716187 -0.001134050078690052
0.7519380450248718 -0.10077518969774246 0.009185828268527985
0.751937985420227 -0.08527129888534546 -0.007845037616789341
0.7519380450248718 -0.08527129888534546 0.009283240884542465
0.751937985420227 -0.06976741552352905 -0.008331318385899067
0.751937985420227 -0.06976741552352905 0.010216529481112957
0.751937985420227 -0.05426359176635742 -0.00848519429564476
0.751937985420227 -0.05426359176635742 0.012122264131903648
0.751937985420227 -0.038759708404541016 -0.008845193311572075
0.751937985420227 -0.038759708404541016 0.014346664771437645
0.751937985420227 -0.02325582504272461 -0.009598310105502605
0.7519380450248718 -0.02325582504272461 0.02341902069747448
0.751937985420227 -0.007751941680908203 -0.01021416112780571
0.751937985420227 -0.007751941680908203 0.21463869512081146
0.751937985420227 0.007751941680908203 -0.01001700758934021
0.751937985420227 0.007751941680908203 0.18474158644676208
0.751937985420227 0.02325582504272461 -0.009063348174095154
0.751937985420227 0.02325582504272461 0.01648978888988495
0.751937985420227 0.038759708404541016 -0.008483890444040298
0.7519380450248718 0.038759708404541016 0.010682978667318821
0.751937985420227 0.05426359176635742 -0.00847178790718317
0.751937985420227 0.05426359176635742 0.009326305240392685
0.751937985420227 0.06976747512817383 -0.008708499372005463
0.751937985420227 0.06976747512817383 0.008513047359883785
0.751937985420227 0.08527135848999023 -0.008972949348390102
0.751937985420227 0.08527136594057083 0.007944688200950623
0.751937985420227 0.10077524185180664 -0.00901819858700037
0.751937985420227 0.10077524185180664 0.007878993637859821
0.751937985420227 0.11627912521362305 -0.008608292788267136
0.751937985420227 0.11627912521362305 0.008483792655169964
0.7519379258155823 0.1317828893661499 -0.007247111760079861
0.751937985420227 0.1317828893661499 0.009128275327384472
0.751937985420227 0.1472867727279663 -0.0006619519554078579
0.751937985420227 0.1472867727279663 0.010044567286968231
0.751937985420227 0.16279065608978271 0.00045401020906865597
0.751937985420227 0.16279065608978271 0.011273485608398914
0.751937985420227 0.17829453945159912 0.0010662360582500696
0.751937985420227 0.17829453945159912 0.011365723796188831
0.751937985420227 0.19379842281341553 0.0032375408336520195
0.751937985420227 0.19379842281341553 0.010293932631611824
0.751937985420227 0.20930230617523193 0.005349611863493919
0.751937985420227 0.20930229127407074 0.009379837661981583
0.751937985420227 0.22480618953704834 0.0067591313272714615
0.751937985420227 0.22480618953704834 0.008594059385359287
0.7674418687820435 -0.20930230617523193 0.007006034255027771
0.7674418687820435 -0.20930232107639313 0.008434293791651726
0.7674418687820435 -0.19379842281341553 0.005391893908381462
0.7674418687820435 -0.19379842281341553 0.010482649318873882
0.7674418687820435 -0.1782945990562439 0.005010731518268585
0.7674418687820435 -0.1782945990562439 0.011428827419877052
0.7674418687820435 -0.1627907156944275 0.004968283697962761
0.7674418687820435 -0.1627907156944275 0.01105896569788456
0.7674418687820435 -0.14728683233261108 0.004769951105117798
0.7674418687820435 -0.14728683233261108 0.010282037779688835
0.7674418687820435 -0.13178294897079468 0.004040374420583248
0.7674418687820435 -0.13178294897079468 0.009872033260762691
0.7674418687820435 -0.11627906560897827 0.0028447157237678766
0.7674418687820435 -0.11627906560897827 0.009670853614807129
0.7674418687820435 -0.10077518224716187 0.0012670883443206549
0.7674418091773987 -0.10077517479658127 0.009584169834852219
0.7674418687820435 -0.08527129888534546 -0.0006613179575651884
0.7674418687820435 -0.08527129888534546 0.009695670567452908
0.7674418687820435 -0.06976741552352905 -0.004175414331257343
0.7674418091773987 -0.06976741552352905 0.010679274797439575
0.7674418687820435 -0.05426359176635742 -0.007953790947794914
0.7674418687820435 -0.05426359176635742 0.012918340042233467
0.7674418687820435 -0.038759708404541016 -0.008272247388958931
0.7674418687820435 -0.038759708404541016 0.015125710517168045
0.7674418687820435 -0.02325582504272461 -0.008656052872538567
0.7674418091773987 -0.02325582504272461 0.023295314982533455
0.7674418687820435 -0.007751941680908203 -0.009150738827884197
0.7674418687820435 -0.007751941680908203 0.22565412521362305
0.7674418687820435 0.007751941680908203 -0.009072479791939259
0.7674418687820435 0.007751941680908203 0.03747738152742386
0.7674418687820435 0.007751941215246916 0.03986227139830589
0.7674418687820435 0.007751941680908203 0.1962229460477829
0.7674418687820435 0.02325582504272461 -0.008383427746593952
0.7674418687820435 0.02325582504272461 0.01543231401592493
0.7674418687820435 0.038759708404541016 -0.007920999079942703
0.7674418687820435 0.038759708404541016 0.010709086433053017
0.7674418687820435 0.05426359176635742 -0.007249782793223858
0.7674418687820435 0.05426359176635742 0.009443562477827072
0.7674418687820435 0.06976747512817383 -0.007835138589143753
0.7674418687820435 0.06976747512817383 0.008775584399700165
0.7674418687820435 0.08527135848999023 -0.008295136503875256
0.7674418687820435 0.08527135848999023 0.008412623777985573
0.7674418687820435 0.10077524185180664 -0.00848436076194048
0.7674418091773987 0.10077523440122604 0.008376949466764927
0.7674418687820435 0.11627912521362305 -0.008005969226360321
0.7674418687820435 0.11627911776304245 0.008870509453117847
0.7674418687820435 0.1317828893661499 -0.0016367146745324135
0.7674418687820435 0.1317828893661499 0.009515061974525452
0.7674418687820435 0.1472867727279663 0.0010501910001039505
0.7674418687820435 0.1472867727279663 0.01081273052841425
0.7674418687820435 0.16279065608978271 0.0016060268972069025
0.7674418687820435 0.16279065608978271 0.013243943452835083
0.7674418687820435 0.17829453945159912 0.0017931784968823195
0.7674418687820435 0.17829453945159912 0.015297641977667809
0.7674418687820435 0.19379842281341553 0.003036567009985447
0.7674418687820435 0.19379842281341553 0.014622056856751442
0.7674418687820435 0.20930230617523193 0.004414456896483898
0.7674418687820435 0.20930230617523193 0.013146059587597847
0.7674418687820435 0.22480618953704834 0.005503875203430653
0.7674418687820435 0.22480618953704834 0.012006251141428947
0.7674418687820435 0.24031007289886475 0.006204445846378803
0.7674418687820435 0.24031007289886475 0.010948766022920609
0.7674418687820435 0.25581395626068115 0.006774740293622017
0.7674418687820435 0.25581395626068115 0.009846722707152367
0.7829457521438599 -0.22480618953704834 0.007737929001450539
0.7829458117485046 -0.22480618953704834 0.007767136208713055
0.7829457521438599 -0.20930230617523193 0.005522155202925205
0.7829457521438599 -0.20930230617523193 0.01139550656080246
0.7829457521438599 -0.19379842281341553 0.00500254612416029
0.7829457521438599 -0.19379842281341553 0.014280895702540874
0.7829457521438599 -0.1782945990562439 0.004956409335136414
0.7829457521438599 -0.1782945990562439 0.015223285183310509
0.7829457521438599 -0.1627907156944275 0.005020800977945328
0.7829457521438599 -0.1627907156944275 0.013279307633638382
0.7829457521438599 -0.14728683233261108 0.004871629178524017
0.7829457521438599 -0.14728683233261108 0.011349432170391083
0.7829457521438599 -0.13178294897079468 0.004306379705667496
0.7829456925392151 -0.13178294897079468 0.010421977378427982
0.7829457521438599 -0.11627906560897827 0.0035600243136286736
0.7829457521438599 -0.11627906560897827 0.010129350237548351
0.7829457521438599 -0.10077518224716187 0.002865670481696725
0.7829457521438599 -0.10077518224716187 0.010085788555443287
0.7829457521438599 -0.08527129888534546 0.0022978847846388817
0.7829457521438599 -0.08527129888534546 0.010377060621976852
0.7829457521438599 -0.06976741552352905 0.0012557199224829674
0.7829457521438599 -0.06976741552352905 0.011766469106078148
0.7829457521438599 -0.05426359176635742 -0.0017792070284485817
0.7829457521438599 -0.05426359176635742 0.014989830553531647
0.7829457521438599 -0.038759708404541016 -0.007778233382850885
0.7829457521438599 -0.038759708404541016 0.01708339713513851
0.7829457521438599 -0.02325582504272461 -0.008252858184278011
0.7829457521438599 -0.02325582504272461 0.023303749039769173
0.7829457521438599 -0.007751941680908203 -0.008695462718605995
0.7829457521438599 -0.007751941680908203 0.036273714154958725
0.7829457521438599 -0.00775194214656949 0.04042809084057808
0.7829457521438599 -0.007751941680908203 0.2282162308692932
0.7829457521438599 0.007751941680908203 -0.008658750914037228
0.7829457521438599 0.007751941680908203 0.029447492212057114
0.7829457521438599 0.007751941680908203 0.04583127051591873
0.7829457521438599 0.007751941680908203 0.2036776840686798
0.7829457521438599 0.02325582504272461 -0.007937169633805752
0.7829457521438599 0.02325582504272461 0.014717185869812965
0.7829457521438599 0.038759708404541016 -0.002473830245435238
0.7829456925392151 0.038759708404541016 0.010803425684571266
0.7829457521438599 0.05426359176635742 0.00019152392633259296
0.7829457521438599 0.05426359176635742 0.009597187861800194
0.7829457521438599 0.06976747512817383 0.0007372181862592697
0.7829457521438599 0.06976747512817383 0.009081708267331123
0.7829457521438599 0.08527135848999023 -0.0009070017840713263
0.7829457521438599 0.08527135848999023 0.008801577612757683
0.7829457521438599 0.10077524185180664 -0.0027080317959189415
0.7829457521438599 0.10077524185180664 0.008752375841140747
0.7829457521438599 0.11627912521362305 -0.0008082946296781301
0.7829457521438599 0.11627912521362305 0.009193584322929382
0.7829457521438599 0.1317828893661499 0.0012208940461277962
0.7829456925392151 0.1317828893661499 0.009880881756544113
0.7829457521438599 0.1472867727279663 0.0023294994607567787
0.7829457521438599 0.1472867727279663 0.01150619238615036
0.7829457521438599 0.16279065608978271 0.002656528726220131
0.7829457521438599 0.16279065608978271 0.015102310106158257
0.7829457521438599 0.17829453945159912 0.0028004448395222425
0.7829457521438599 0.17829453945159912 0.020273877307772636
0.7829457521438599 0.19379842281341553 0.003627485828474164
0.7829457521438599 0.19379842281341553 0.02246476337313652
0.7829457521438599 0.20930230617523193 0.0045397477224469185
0.7829457521438599 0.20930230617523193 0.02141016349196434
0.7829457521438599 0.22480618953704834 0.0053324270993471146
0.7829457521438599 0.22480618953704834 0.02024441584944725
0.7829457521438599 0.24031007289886475 0.005801776424050331
0.7829457521438599 0.24031007289886475 0.01926688477396965
0.7829457521438599 0.25581395626068115 0.0061083026230335236
0.7829457521438599 0.25581395626068115 0.018597321584820747
0.7829457521438599 0.27131783962249756 0.006472273729741573
0.7829457521438599 0.27131783962249756 0.016112070530653
0.7829457521438599 0.28682172298431396 0.007337696850299835
0.7829457521438599 0.28682172298431396 0.009999376721680164
0.7984496355056763 -0.22480618953704834 0.006148473359644413
0.7984495759010315 -0.22480618953704834 0.010486958548426628
0.7984496355056763 -0.20930230617523193 0.005195498466491699
0.7984496355056763 -0.20930230617523193 0.01605033315718174
0.7984496355056763 -0.19379842281341553 0.004929679445922375
0.7984496355056763 -0.19379842281341553 0.021013913676142693
0.7984496355056763 -0.1782945990562439 0.004957580007612705
0.7984496355056763 -0.1782945990562439 0.020729893818497658
0.7984496355056763 -0.1627907156944275 0.005038831382989883
0.7984496355056763 -0.1627907156944275 0.015814710408449173
0.7984496355056763 -0.14728683233261108 0.0049196528270840645
0.7984496355056763 -0.14728683233261108 0.01247769221663475
0.7984496355056763 -0.13178294897079468 0.004486793652176857
0.7984496355056763 -0.13178294897079468 0.010974293574690819
0.7984496355056763 -0.11627906560897827 0.004006454721093178
0.7984496355056763 -0.11627906560897827 0.010544189251959324
0.7984496355056763 -0.10077518224716187 0.0036658979952335358
0.7984496355056763 -0.10077518224716187 0.010581658221781254
0.7984496355056763 -0.08527129888534546 0.0034753959625959396
0.7984496355056763 -0.08527129888534546 0.011187106370925903
0.7984496355056763 -0.06976741552352905 0.002967669628560543
0.7984496355056763 -0.06976741552352905 0.013302797451615334
0.7984496355056763 -0.05426359176635742 0.00109105184674263
0.7984496355056763 -0.05426359176635742 0.018089978024363518
0.7984495759010315 -0.038759708404541016 -0.003253459930419922
0.7984496355056763 -0.038759708404541016 0.01930796355009079
0.7984496355056763 -0.02325582504272461 -0.007988951168954372
0.7984496355056763 -0.02325582504272461 0.023359887301921844
0.7984496355056763 -0.007751941680908203 -0.008488559164106846
0.7984496355056763 -0.007751941680908203 0.035771116614341736
0.7984496355056763 -0.00775194214656949 0.04032929241657257
0.7984496355056763 -0.007751941680908203 0.2346445620059967
0.7984496355056763 0.007751941680908203 -0.008425935171544552
0.798449695110321 0.007751941680908203 0.02597813494503498
0.7984496355056763 0.007751941680908203 0.048242587596178055
0.7984496355056763 0.007751941680908203 0.21142905950546265
0.7984496355056763 0.02325582504272461 -0.005293874070048332
0.7984496355056763 0.02325582504272461 0.01434161514043808
0.7984496355056763 0.038759708404541016 0.0002114053349941969
0.7984496355056763 0.038759708404541016 0.010924458503723145
0.7984496355056763 0.05426359176635742 0.0020757580641657114
0.7984496355056763 0.05426359176635742 0.009774226695299149
0.7984496355056763 0.06976747512817383 0.002457608701661229
0.7984496355056763 0.06976747512817383 0.009332623332738876
0.7984496355056763 0.08527135848999023 0.002067216672003269
0.7984496355056763 0.08527135848999023 0.009026291780173779
0.7984496355056763 0.10077524185180664 0.0017985815647989511
0.7984496355056763 0.10077524185180664 0.00892238412052393
0.7984496355056763 0.11627912521362305 0.0018708070274442434
0.7984496355056763 0.11627912521362305 0.009332508780062199
0.7984496355056763 0.1317828893661499 0.0023580200504511595
0.798449695110321 0.1317828893661499 0.010042530484497547
0.7984496355056763 0.1472867727279663 0.0028682637494057417
0.7984496355056763 0.1472867727279663 0.011744968593120575
0.7984496355056763 0.16279065608978271 0.0031129904091358185
0.7984496355056763 0.16279065608978271 0.015806229785084724
0.7984496355056763 0.17829453945159912 0.003260137280449271
0.7984496355056763 0.17829453945159912 0.022984115406870842
0.7984496355056763 0.19379842281341553 0.003926443867385387
0.7984496355056763 0.19379843771457672 0.023669114336371422
0.7984496355056763 0.20930230617523193 0.004637072794139385
0.7984496355056763 0.20930232107639313 0.023730741813778877
0.7984496355056763 0.22480618953704834 0.005311221815645695
0.7984496355056763 0.22480617463588715 0.023746082559227943
0.7984496355056763 0.24031007289886475 0.005731794051826
0.7984496355056763 0.24031007289886475 0.023736514151096344
0.7984496355056763 0.25581395626068115 0.005946779623627663
0.798449695110321 0.25581395626068115 0.023779354989528656
0.7984496355056763 0.27131783962249756 0.00616875197738409
0.7984496355056763 0.27131783962249756 0.023724008351564407
0.7984496355056763 0.28682172298431396 0.006558440625667572
0.7984496355056763 0.28682172298431396 0.02208220772445202
0.7984496355056763 0.30232560634613037 0.007719054818153381
0.7984496355056763 0.30232560634613037 0.007976080290973186
0.8139535188674927 -0.22480618953704834 0.005787990987300873
0.8139535784721375 -0.22480618953704834 0.013609098270535469
0.8139535188674927 -0.20930230617523193 0.005218209698796272
0.8139535188674927 -0.20930230617523193 0.022931093350052834
0.8139535188674927 -0.19379842281341553 0.0050192540511488914
0.8139534592628479 -0.19379842281341553 0.02384284697473049
0.8139535188674927 -0.1782945990562439 0.005063878372311592
0.8139535188674927 -0.1782946139574051 0.023583991453051567
0.8139535188674927 -0.1627907156944275 0.0051453011110424995
0.8139535188674927 -0.1627907156944275 0.01822943426668644
0.8139535188674927 -0.14728683233261108 0.0050862254574894905
0.8139535188674927 -0.14728683233261108 0.01361609622836113
0.8139535188674927 -0.13178294897079468 0.004793770611286163
0.8139535188674927 -0.13178294897079468 0.01154724694788456
0.8139535188674927 -0.11627906560897827 0.004487547092139721
0.8139535188674927 -0.11627906560897827 0.010967613197863102
0.8139535188674927 -0.10077518224716187 0.004323763772845268
0.8139535784721375 -0.10077518224716187 0.011060714721679688
0.8139535188674927 -0.08527129888534546 0.004288597963750362
0.8139535188674927 -0.08527129888534546 0.011902851983904839
0.8139535188674927 -0.06976741552352905 0.004048069939017296
0.8139535188674927 -0.06976741552352905 0.014532017521560192
0.8139535188674927 -0.05426359176635742 0.0028600282967090607
0.8139535188674927 -0.05426359176635742 0.019870106130838394
0.8139535188674927 -0.038759708404541016 0.0002772025763988495
0.8139535188674927 -0.038759708404541016 0.019945325329899788
0.8139535188674927 -0.02325582504272461 -0.004836114589124918
0.8139535188674927 -0.02325582504272461 0.02329636923968792
0.8139535188674927 -0.007751941680908203 -0.008110743016004562
0.8139535188674927 -0.007751941680908203 0.028473209589719772
0.8139535188674927 -0.007751941680908203 0.04462897777557373
0.8139535188674927 -0.007751941680908203 0.24197155237197876
0.8139535188674927 0.007751941680908203 -0.007997744716703892
0.8139535188674927 0.007751941680908203 0.023754119873046875
0.8139535188674927 0.007751941680908203 0.05087297409772873
0.8139535188674927 0.007751941680908203 0.22528789937496185
0.8139535188674927 0.02325582504272461 -0.0012882743030786514
0.8139535188674927 0.02325582504272461 0.01374460943043232
0.8139535188674927 0.038759708404541016 0.0019947607070207596
0.8139535188674927 0.038759708404541016 0.01086827926337719
0.8139535188674927 0.05426359176635742 0.003267548745498061
0.8139535188674927 0.05426359176635742 0.009861927479505539
0.8139535188674927 0.06976747512817383 0.00351095013320446
0.8139535188674927 0.06976747512817383 0.009511884301900864
0.8139535188674927 0.08527135848999023 0.003555841976776719
0.8139535188674927 0.08527135848999023 0.009157461114227772
0.8139535188674927 0.10077524185180664 0.0036644276697188616
0.8139535188674927 0.10077524185180664 0.008999504148960114
0.8139535188674927 0.11627912521362305 0.0033455363009124994
0.8139535188674927 0.11627912521362305 0.009397216141223907
0.8139535188674927 0.1317828893661499 0.003245643340051174
0.8139535784721375 0.1317828893661499 0.010124817490577698
0.8139535188674927 0.1472867727279663 0.0034303993452340364
0.8139535188674927 0.1472867727279663 0.011782639659941196
0.8139535188674927 0.16279065608978271 0.0035641442518681288
0.8139535188674927 0.16279065608978271 0.015895219519734383
0.8139535188674927 0.17829453945159912 0.003699464490637183
0.8139535188674927 0.17829453945159912 0.02331973984837532
0.8139535188674927 0.19379842281341553 0.004203242249786854
0.8139535188674927 0.19379842281341553 0.023876719176769257
0.8139535188674927 0.20930230617523193 0.0047451648861169815
0.8139534592628479 0.20930230617523193 0.024008430540561676
0.8139535188674927 0.22480618953704834 0.005303709767758846
0.8139534592628479 0.22480618953704834 0.024109039455652237
0.8139535188674927 0.24031007289886475 0.005698231980204582
0.8139535188674927 0.24031007289886475 0.024150822311639786
0.8139535188674927 0.25581395626068115 0.005895241163671017
0.8139534592628479 0.25581395626068115 0.024195771664381027
0.8139535188674927 0.27131783962249756 0.006066291593015194
0.8139535188674927 0.27131783962249756 0.02415969967842102
0.8139535188674927 0.28682172298431396 0.006363541819155216
0.8139535188674927 0.28682172298431396 0.023741187527775764
0.8139535188674927 0.30232560634613037 0.007283435203135014
0.8139534592628479 0.30232560634613037 0.011943686753511429
0.8294574022293091 -0.24031007289886475 0.007656969130039215
0.8294574022293091 -0.24031007289886475 0.007948090322315693
0.8294574022293091 -0.22480618953704834 0.005780386738479137
0.8294574022293091 -0.22480618953704834 0.017024312168359756
0.8294574022293091 -0.20930230617523193 0.005351118743419647
0.8294574022293091 -0.20930232107639313 0.02365458942949772
0.8294574022293091 -0.19379842281341553 0.005183802917599678
0.8294574022293091 -0.19379842281341553 0.02401861734688282
0.8294574022293091 -0.1782945990562439 0.005226470530033112
0.8294574022293091 -0.1782945990562439 0.023691369220614433
0.8294574022293091 -0.1627907156944275 0.005294683389365673
0.8294574022293091 -0.1627907156944275 0.01882585696876049
0.8294574022293091 -0.14728683233261108 0.005257369019091129
0.8294574022293091 -0.14728683233261108 0.013987056910991669
0.8294574022293091 -0.13178294897079468 0.0050439778715372086
0.8294574618339539 -0.13178294897079468 0.011770922690629959
0.8294574022293091 -0.11627906560897827 0.004840201698243618
0.8294574022293091 -0.11627906560897827 0.011157181113958359
0.8294574022293091 -0.10077518224716187 0.004778298549354076
0.8294574022293091 -0.10077518224716187 0.011251017451286316
0.8294574022293091 -0.08527129888534546 0.004836047068238258
0.8294574022293091 -0.08527129888534546 0.012118661776185036
0.8294574022293091 -0.06976741552352905 0.004775837995111942
0.8294574022293091 -0.06976741552352905 0.014680160209536552
0.8294574022293091 -0.05426359176635742 0.00405484065413475
0.8294574022293091 -0.05426359176635742 0.019010385498404503
0.8294574022293091 -0.038759708404541016 0.0024840289261192083
0.8294574022293091 -0.038759708404541016 0.017881514504551888
0.8294574022293091 -0.02325582504272461 -0.00023717107251286507
0.8294574022293091 -0.02325582504272461 0.021027175709605217
0.8294574022293091 -0.007751941680908203 -0.004325659945607185
0.8294574618339539 -0.00775194214656949 0.024143224582076073
0.8294574022293091 -0.007751941680908203 0.05092940106987953
0.8294574022293091 -0.007751941680908203 0.24454908072948456
0.8294574022293091 0.007751941680908203 -0.0032266201451420784
0.8294574022293091 0.007751941680908203 0.021636566147208214
0.8294574022293091 0.007751941680908203 0.05928811430931091
0.8294574022293091 0.007751941680908203 0.24046112596988678
0.8294574022293091 0.02325582504272461 0.001521859085187316
0.8294574022293091 0.02325582504272461 0.012867141515016556
0.8294574022293091 0.038759708404541016 0.0033133451361209154
0.8294574022293091 0.038759708404541016 0.010692650452256203
0.8294574022293091 0.05426359176635742 0.004124779254198074
0.8294574022293091 0.05426359176635742 0.009915166534483433
0.8294574022293091 0.06976747512817383 0.00424532126635313
0.8294574022293091 0.06976747512817383 0.009621625766158104
0.8294574022293091 0.08527135848999023 0.00451604463160038
0.8294574022293091 0.08527135848999023 0.009189659729599953
0.8294574022293091 0.10077524185180664 0.004822050221264362
0.8294574022293091 0.10077524185180664 0.008963683620095253
0.8294574022293091 0.11627912521362305 0.004408069886267185
0.8294574618339539 0.11627912521362305 0.009355029091238976
0.8294574022293091 0.1317828893661499 0.004037625156342983
0.8294574022293091 0.1317828893661499 0.01008335966616869
0.8294574022293091 0.1472867727279663 0.004028433933854103
0.8294574022293091 0.1472867727279663 0.011515326797962189
0.8294574022293091 0.16279065608978271 0.004118737764656544
0.8294574022293091 0.16279065608978271 0.015201847068965435
0.8294574022293091 0.17829453945159912 0.004252433776855469
0.8294574022293091 0.17829453945159912 0.02282080426812172
0.8294574022293091 0.19379842281341553 0.004628559574484825
0.8294574022293091 0.19379843771457672 0.02391362376511097
0.8294574022293091 0.20930230617523193 0.005012257024645805
0.8294574022293091 0.20930230617523193 0.024033965542912483
0.8294574022293091 0.22480618953704834 0.005397617816925049
0.8294574022293091 0.22480618953704834 0.024202363565564156
0.8294574022293091 0.24031007289886475 0.005700396373867989
0.8294574022293091 0.24031007289886475 0.024340322241187096
0.8294574022293091 0.25581395626068115 0.005883344449102879
0.8294574022293091 0.25581395626068115 0.024358829483389854
0.8294574022293091 0.27131783962249756 0.006050304509699345
0.8294574022293091 0.27131783962249756 0.024247735738754272
0.8294574022293091 0.28682172298431396 0.006382838822901249
0.8294574022293091 0.28682172298431396 0.02370227687060833
0.8294574022293091 0.30232560634613037 0.007414817810058594
0.8294574022293091 0.30232560634613037 0.01012413203716278
0.8449612855911255 -0.24031007289886475 0.0073308637365698814
0.8449612855911255 -0.24031007289886475 0.008744776248931885
0.8449612855911255 -0.22480618953704834 0.005833152681589127
0.8449612855911255 -0.22480618953704834 0.021325230598449707
0.8449612855911255 -0.20930230617523193 0.005451977252960205
0.8449612855911255 -0.20930230617523193 0.02329747937619686
0.8449612855911255 -0.19379842281341553 0.0052969250828027725
0.8449612855911255 -0.19379842281341553 0.023280441761016846
0.8449612855911255 -0.1782945990562439 0.005351085215806961
0.8449612855911255 -0.1782945990562439 0.022192463278770447
0.8449612855911255 -0.1627907156944275 0.005391226150095463
0.8449612855911255 -0.1627907156944275 0.01648196578025818
0.8449612855911255 -0.14728683233261108 0.005344783887267113
0.8449612855911255 -0.14728683233261108 0.012950440868735313
0.8449612855911255 -0.13178294897079468 0.005162411369383335
0.8449612855911255 -0.13178294897079468 0.011319616809487343
0.8449612855911255 -0.11627906560897827 0.005003347061574459
0.8449612855911255 -0.11627907305955887 0.010868160054087639
0.8449612855911255 -0.10077518224716187 0.004995384253561497
0.8449612855911255 -0.10077518224716187 0.010874675586819649
0.8449612855911255 -0.08527129888534546 0.005112231709063053
0.8449612855911255 -0.08527129888534546 0.011350448243319988
0.8449612855911255 -0.06976741552352905 0.005157760344445705
0.8449612855911255 -0.06976741552352905 0.01274474710226059
0.8449612855911255 -0.05426359176635742 0.004783155396580696
0.8449612855911255 -0.05426359176635742 0.013743897899985313
0.8449612855911255 -0.038759708404541016 0.0038269294891506433
0.8449612855911255 -0.038759708404541016 0.012479772791266441
0.8449612855911255 -0.02325582504272461 0.002247563563287258
0.8449612855911255 -0.02325582504272461 0.013751666061580181
0.8449612855911255 -0.007751941680908203 0.00029710307717323303
0.8449612855911255 -0.007751941680908203 0.018516244366765022
0.8449612855911255 -0.007751941680908203 0.0659279003739357
0.8449612855911255 -0.007751941680908203 0.25097525119781494
0.8449612855911255 0.007751941680908203 0.0008168013300746679
0.8449612855911255 0.007751941680908203 0.016075709834694862
0.8449612855911255 0.007751941680908203 0.06871750950813293
0.8449612855911255 0.007751941680908203 0.24198447167873383
0.8449612855911255 0.02325582504272461 0.0031828859355300665
0.8449612855911255 0.02325582504272461 0.011019461788237095
0.8449612855911255 0.038759708404541016 0.004340730607509613
0.8449612855911255 0.038759708404541016 0.009986677207052708
0.8449612855911255 0.05426359176635742 0.004768911749124527
0.8449612855911255 0.05426359176635742 0.009722204878926277
0.8449612855911255 0.06976747512817383 0.004797722212970257
0.8449612259864807 0.06976747512817383 0.009575216099619865
0.8449612855911255 0.08527135848999023 0.005239146761596203
0.8449612855911255 0.08527135848999023 0.00908147543668747
0.8449612855911255 0.10077524185180664 0.005697526969015598
0.8449612855911255 0.10077524185180664 0.008770357817411423
0.8449612855911255 0.11627912521362305 0.005184999667108059
0.8449612855911255 0.11627912521362305 0.009178484790027142
0.8449612855911255 0.1317828893661499 0.004605188965797424
0.8449612855911255 0.1317828893661499 0.009900528006255627
0.8449612855911255 0.1472867727279663 0.004480792209506035
0.8449612855911255 0.1472867727279663 0.010952429845929146
0.8449612855911255 0.16279065608978271 0.0045715998858213425
0.8449612855911255 0.16279065608978271 0.013488799333572388
0.8449612855911255 0.17829453945159912 0.004696669057011604
0.8449612855911255 0.17829453945159912 0.019703594967722893
0.8449612855911255 0.19379842281341553 0.004898357205092907
0.8449613451957703 0.19379842281341553 0.02372249960899353
0.8449612855911255 0.20930230617523193 0.005191280506551266
0.8449612855911255 0.20930230617523193 0.02380576729774475
0.8449612855911255 0.22480618953704834 0.005487645976245403
0.8449612855911255 0.22480618953704834 0.02390645258128643
0.8449612855911255 0.24031007289886475 0.005706994794309139
0.8449612855911255 0.24031007289886475 0.02418605238199234
0.8449612855911255 0.25581395626068115 0.005881326273083687
0.8449612855911255 0.25581395626068115 0.024257797747850418
0.8449612855911255 0.27131783962249756 0.0060937898233532906
0.8449612855911255 0.27131783962249756 0.023977603763341904
0.8449612855911255 0.28682172298431396 0.0066149309277534485
0.8449612855911255 0.28682172298431396 0.018125982955098152
0.8604651689529419 -0.24031007289886475 0.007166423834860325
0.8604651689529419 -0.24031007289886475 0.010831417515873909
0.8604651689529419 -0.22480618953704834 0.005723003298044205
0.8604651689529419 -0.22480618953704834 0.031145183369517326
0.8604651689529419 -0.20930230617523193 0.005384701304137707
0.8604652285575867 -0.20930232107639313 0.027092602103948593
0.8604651689529419 -0.19379842281341553 0.005439719185233116
0.8604651689529419 -0.19379842281341553 0.02331630326807499
0.8604651689529419 -0.1782945990562439 0.005493082106113434
0.8604651689529419 -0.1782945990562439 0.018725043162703514
0.8604651689529419 -0.1627907156944275 0.005504296161234379
0.8604651689529419 -0.1627907156944275 0.013235274702310562
0.8604651689529419 -0.14728683233261108 0.005405220203101635
0.8604651689529419 -0.14728683233261108 0.011367058381438255
0.8604651689529419 -0.13178294897079468 0.005223588086664677
0.8604651689529419 -0.13178294897079468 0.0106303496286273
0.8604651689529419 -0.11627906560897827 0.005087327212095261
0.8604651689529419 -0.11627906560897827 0.010373149067163467
0.8604651689529419 -0.10077518224716187 0.0050909025594592094
0.8604651689529419 -0.10077518224716187 0.01031211856752634
0.8604651689529419 -0.08527129888534546 0.005203805863857269
0.8604651689529419 -0.08527129888534546 0.010433126240968704
0.8604651689529419 -0.06976741552352905 0.005231904797255993
0.8604651689529419 -0.06976741552352905 0.01082288846373558
0.8604651689529419 -0.05426359176635742 0.004983475431799889
0.8604651689529419 -0.05426359176635742 0.010740954428911209
0.8604651689529419 -0.038759708404541016 0.004302377812564373
0.8604652285575867 -0.038759712129831314 0.010297119617462158
0.8604651689529419 -0.02325582504272461 0.0029455216135829687
0.8604651689529419 -0.02325582504272461 0.01073447149246931
0.8604651689529419 -0.007751941680908203 0.0014057683292776346
0.8604651689529419 -0.007751941680908203 0.012536090798676014
0.8604651689529419 -0.007751941680908203 0.0802675187587738
0.8604652285575867 -0.00775194214656949 0.2558141350746155
0.8604651689529419 0.007751941680908203 0.0018752359319478273
0.8604651689529419 0.00775194214656949 0.01208888553082943
0.8604651689529419 0.007751941680908203 0.08685047924518585
0.8604651689529419 0.007751941680908203 0.1871655136346817
0.8604651689529419 0.007751941680908203 0.20396867394447327
0.8604651093482971 0.007751941215246916 0.24072091281414032
0.8604651689529419 0.02325582504272461 0.0039006220176815987
0.8604652285575867 0.02325582504272461 0.009901907294988632
0.8604651689529419 0.038759708404541016 0.0050095682963728905
0.8604651689529419 0.038759708404541016 0.009433724917471409
0.8604651689529419 0.05426359176635742 0.005150012671947479
0.8604651689529419 0.05426359176635742 0.009462123736739159
0.8604651689529419 0.06976747512817383 0.005048772320151329
0.8604651689529419 0.06976747512817383 0.009465702809393406
0.8604651689529419 0.08527135848999023 0.005882008001208305
0.8604651689529419 0.08527135848999023 0.008765414357185364
0.8604651689529419 0.10077524185180664 0.006754380650818348
0.8604651689529419 0.10077524185180664 0.008242715150117874
0.8604651689529419 0.11627912521362305 0.005908295512199402
0.8604651689529419 0.11627912521362305 0.008756439201533794
0.8604651689529419 0.1317828893661499 0.00488300621509552
0.8604651689529419 0.1317828893661499 0.009620393626391888
0.8604651689529419 0.1472867727279663 0.004607937298715115
0.8604651689529419 0.1472867727279663 0.010380608960986137
0.8604651689529419 0.16279065608978271 0.004762397147715092
0.8604651689529419 0.16279065608978271 0.011785025708377361
0.8604651689529419 0.17829453945159912 0.004827557131648064
0.8604651689529419 0.17829453945159912 0.016825605183839798
0.8604651689529419 0.19379842281341553 0.004728998988866806
0.8604651689529419 0.19379842281341553 0.025655429810285568
0.8604651689529419 0.20930230617523193 0.004882131703197956
0.8604651689529419 0.20930230617523193 0.027191750705242157
0.8604651689529419 0.22480618953704834 0.005388789810240269
0.8604651689529419 0.22480618953704834 0.024491090327501297
0.8604651689529419 0.24031007289886475 0.005692885257303715
0.8604651689529419 0.24031007289886475 0.0235105212777853
0.8604651689529419 0.25581395626068115 0.005879541859030724
0.8604651689529419 0.25581395626068115 0.023621128872036934
0.8604651689529419 0.27131783962249756 0.006201682612299919
0.8604651689529419 0.27131783962249756 0.0209491103887558
0.8604651689529419 0.28682172298431396 0.0072646066546440125
0.8604651689529419 0.28682172298431396 0.011010129004716873
0.8759689331054688 -0.24031007289886475 0.006706533953547478
0.8759689331054688 -0.24031007289886475 0.02070027031004429
0.8759689331054688 -0.22480618953704834 0.00489107146859169
0.8759689331054688 -0.22480618953704834 0.05578220263123512
0.8759689331054688 -0.20930230617523193 0.004800849594175816
0.8759689927101135 -0.20930230617523193 0.05463129281997681
