0.24031007289886475 0.8656293153762817 -0.5193798542022705
0.24031008780002594 0.8638774156570435 -0.5038759708404541
0.24031007289886475 0.8610330820083618 -0.4883720874786377
0.24031007289886475 0.9916189908981323 0.5193798542022705
0.25581395626068115 -0.9913915395736694 0.5193798542022705
0.25581395626068115 -0.8453711867332458 -0.5193798542022705
0.25581395626068115 -0.8435287475585938 -0.5038759708404541
0.25581395626068115 -0.8380188941955566 -0.4883720874786377
0.25581395626068115 -0.8159120082855225 -0.4883720874786377
0.25581395626068115 -0.8090225458145142 -0.5193798542022705
0.25581395626068115 -0.8115637898445129 -0.5038759708404541
0.25581395626068115 -0.7778447866439819 0.5038759708404541
0.25581395626068115 -0.6015861630439758 0.5038759708404541
0.25581395626068115 -0.5635771155357361 0.5038759708404541
0.25581395626068115 -0.5081198215484619 0.5038759708404541
0.25581395626068115 0.8138978481292725 -0.5193798542022705
0.25581395626068115 0.8190003037452698 -0.5038759708404541
0.25581395626068115 0.8258075714111328 -0.4883720874786377
0.25581395626068115 0.8597435355186462 -0.4883720874786377
0.25581395626068115 0.8654494881629944 -0.5193798542022705
0.25581395626068115 0.8636883497238159 -0.5038759708404541
0.25581395626068115 0.9915689826011658 0.5193798542022705
0.27131783962249756 -0.9913699626922607 0.5193798542022705
0.27131783962249756 -0.8453211784362793 -0.5193798542022705
0.27131783962249756 -0.8438742756843567 -0.5038759708404541
0.27131783962249756 -0.8384851217269897 -0.4883720874786377
0.27131783962249756 -0.8063094615936279 -0.5193798542022705
0.27131783962249756 -0.8101871013641357 -0.5038759708404541
0.27131783962249756 -0.813145101070404 -0.4883720874786377
0.27131783962249756 -0.8108693361282349 0.5038759708404541
0.27131783962249756 -0.47868919372558594 0.5038759708404541
0.27131783962249756 -0.45116686820983887 0.5038759708404541
0.27131783962249756 -0.42109596729278564 0.5038759708404541
0.27131783962249756 0.7031101584434509 0.5038759708404541
0.27131783962249756 0.7271127700805664 0.5038759708404541
0.27131783962249756 0.8131997585296631 -0.5193798542022705
0.27131783962249756 0.8149006366729736 -0.5038759708404541
0.27131783962249756 0.825354814529419 -0.4883720874786377
0.27131783962249756 0.856652557849884 -0.4883720874786377
0.27131783962249756 0.8650586009025574 -0.5193798542022705
0.27131783962249756 0.8632835149765015 -0.5038759708404541
0.27131783962249756 0.9914649128913879 0.5193798542022705
0.28682172298431396 -0.9913069605827332 0.5193798542022705
0.28682172298431396 -0.845332145690918 -0.5193798542022705
0.28682172298431396 -0.8442116975784302 -0.5038759708404541
0.28682172298431396 -0.8384963274002075 -0.4883720874786377
0.28682172298431396 -0.8025592565536499 -0.5193798542022705
0.28682172298431396 -0.8084253072738647 -0.5038759708404541
0.28682172298431396 -0.8121985197067261 -0.4883720874786377
0.28682172298431396 -0.8081594109535217 0.5038759708404541
0.28682172298431396 -0.6058678030967712 0.5038759708404541
0.28682172298431396 -0.5280624032020569 0.5038759708404541
0.28682172298431396 -0.5028983354568481 0.5038759708404541
0.28682172298431396 -0.44199392199516296 0.5038759708404541
0.28682172298431396 -0.44071733951568604 0.5038759708404541
0.28682172298431396 0.6834298372268677 0.5038759708404541
0.28682172298431396 0.7447258234024048 0.5038759708404541
0.28682172298431396 0.812649667263031 -0.5193798542022705
0.28682172298431396 0.8134436011314392 -0.5038759708404541
0.28682172298431396 0.8245254755020142 -0.4883720874786377
0.28682172298431396 0.8542524576187134 -0.4883720874786377
0.28682172298431396 0.8646306395530701 -0.5193798542022705
0.28682172298431396 0.8628122806549072 -0.5038759708404541
0.28682172298431396 0.991407036781311 0.5193798542022705
0.30232560634613037 -0.9912686944007874 0.5193798542022705
0.30232560634613037 -0.8453876376152039 -0.5193798542022705
0.30232560634613037 -0.844482421875 -0.5038759708404541
0.30232560634613037 -0.8381679654121399 -0.4883720874786377
0.30232560634613037 -0.8063355684280396 -0.5038759708404541
0.30232560634613037 -0.8114385008811951 -0.4883720874786377
0.30232560634613037 -0.8077082633972168 0.5038759708404541
0.30232560634613037 -0.798396646976471 -0.5193797945976257
0.30232560634613037 -0.6063939332962036 0.5038759708404541
0.30232560634613037 0.6908384561538696 0.5038759708404541
0.30232560634613037 0.7435069680213928 0.5038759708404541
0.30232560634613037 0.812407374382019 -0.5193798542022705
0.30232560634613037 0.8130061030387878 -0.5038759708404541
0.30232560634613037 0.8235119581222534 -0.4883720874786377
0.30232560634613037 0.8527568578720093 -0.4883720874786377
0.30232560634613037 0.864286482334137 -0.5193798542022705
0.30232560634613037 0.8624570369720459 -0.5038759708404541
0.30232560634613037 0.9913275241851807 0.5193798542022705
0.3178294897079468 -0.9913386702537537 0.5193798542022705
0.3178294897079468 -0.8455139994621277 -0.5193798542022705
0.3178294897079468 -0.844988226890564 -0.5038759708404541
0.3178294897079468 -0.8381636738777161 -0.4883720874786377
0.3178294897079468 -0.8048100471496582 -0.5038759708404541
0.3178294897079468 -0.8108124136924744 -0.4883721172809601
0.3178294897079468 -0.8081960678100586 0.5038759708404541
0.3178294897079468 -0.7979979515075684 -0.5193798542022705
0.3178294897079468 -0.6010382175445557 0.5038759708404541
0.3178294897079468 0.8130219578742981 -0.5193798542022705
0.3178294897079468 0.8134528994560242 -0.5038759708404541
0.3178294897079468 0.8100658655166626 0.5038759708404541
0.3178294897079468 0.8238332867622375 -0.4883720874786377
0.3178294897079468 0.8151586055755615 0.5038759708404541
0.3178294897079468 0.8518407940864563 -0.4883720874786377
0.3178294897079468 0.8639523386955261 -0.5193798542022705
0.3178294897079468 0.8622379302978516 -0.5038759708404541
0.3178294897079468 0.9913748502731323 0.5193798542022705
0.3333333730697632 -0.9913924336433411 0.5193798542022705
0.3333333730697632 -0.8456092476844788 -0.5193798542022705
0.3333333730697632 -0.8450987935066223 -0.5038759708404541
0.3333333730697632 -0.83851158618927 -0.4883720874786377
0.3333333730697632 -0.8039618134498596 -0.5038759708404541
0.3333333730697632 -0.8104408383369446 -0.4883720874786377
0.3333333730697632 -0.8021809458732605 0.5038759708404541
0.3333333730697632 -0.7978957891464233 -0.5193798542022705
0.3333333730697632 -0.6099674105644226 0.5038759708404541
0.3333333730697632 0.8143845796585083 -0.5193798542022705
0.3333333730697632 0.8173295259475708 -0.5038759708404541
0.3333333730697632 0.8251466751098633 -0.4883720874786377
0.3333333730697632 0.8515039682388306 -0.4883720874786377
0.3333333730697632 0.8636345863342285 -0.5193798542022705
0.3333333730697632 0.8620610237121582 -0.5038759708404541
0.3333333730697632 0.9914690256118774 0.5193798542022705
0.3488372564315796 -0.991389274597168 0.5193798542022705
0.3488372564315796 -0.845548152923584 -0.5193798542022705
0.3488372564315796 -0.8450577855110168 -0.5038759708404541
0.3488372564315796 -0.8386350870132446 -0.4883720874786377
0.3488372564315796 -0.8053007125854492 -0.5038759708404541
0.3488372564315796 -0.8109086155891418 -0.4883720874786377
0.3488372564315796 -0.7984464764595032 -0.5193798542022705
0.348837286233902 -0.7669277787208557 0.5038759708404541
0.3488372564315796 -0.6313066482543945 0.5038759708404541
0.3488372564315796 0.8204847574234009 -0.5193798542022705
0.3488372564315796 0.8223981261253357 -0.5038759708404541
0.3488372564315796 0.8272136449813843 -0.4883720874786377
0.3488372564315796 0.8509303331375122 -0.4883720874786377
0.3488372564315796 0.8632869720458984 -0.5193798542022705
0.3488372564315796 0.8617985248565674 -0.5038759708404541
0.3488372564315796 0.9914686679840088 0.5193798542022705
0.364341139793396 -0.9913765788078308 0.5193798542022705
0.364341139793396 -0.845384418964386 -0.5193798542022705
0.364341139793396 -0.8447405099868774 -0.5038759708404541
0.364341139793396 -0.8384374380111694 -0.4883720576763153
0.364341139793396 -0.8025515079498291 -0.5193798542022705
0.364341139793396 -0.8070602416992188 -0.5038759708404541
0.364341139793396 -0.8117077350616455 -0.4883720874786377
0.364341139793396 -0.7194743156433105 0.5038759708404541
0.364341139793396 -0.6948213577270508 0.5038759708404541
0.364341139793396 0.8239346742630005 -0.5193798542022705
0.364341139793396 0.8247905373573303 -0.5038759708404541
0.364341139793396 0.8290584683418274 -0.4883720874786377
0.364341139793396 0.8498631119728088 -0.4883720874786377
0.364341139793396 0.8630110025405884 -0.5193798542022705
0.3643411099910736 0.8615866303443909 -0.5038759708404541
0.364341139793396 0.9914023876190186 0.5193798542022705
0.37984490394592285 -0.9913166165351868 0.5193798542022705
0.37984490394592285 -0.8452586531639099 -0.5193798542022705
0.37984487414360046 -0.8437286019325256 -0.5038759708404541
0.37984490394592285 -0.8377541899681091 -0.4883720874786377
0.37984490394592285 -0.8045392036437988 -0.5193798542022705
0.37984490394592285 -0.8081312775611877 -0.5038759708404541
0.37984487414360046 -0.8125753998756409 -0.4883720874786377
0.37984490394592285 0.8245598077774048 -0.5193798542022705
0.37984490394592285 0.8254169225692749 -0.5038759708404541
0.37984490394592285 0.8370382189750671 -0.4883720874786377
0.37984490394592285 0.847251832485199 -0.4883720874786377
0.37984490394592285 0.8627675175666809 -0.5193798542022705
0.37984490394592285 0.8613845705986023 -0.5038759708404541
0.37984490394592285 0.9913808703422546 0.5193798542022705
0.39534878730773926 -0.9913464188575745 0.5193798542022705
0.39534878730773926 -0.8452966809272766 -0.5193798542022705
0.39534878730773926 -0.8431219458580017 -0.5038759708404541
0.39534878730773926 -0.8368293642997742 -0.4883720874786377
0.39534878730773926 -0.8062973022460938 -0.5193798542022705
0.39534875750541687 -0.8092254400253296 -0.5038759708404541
0.39534878730773926 -0.8135839700698853 -0.4883720874786377
0.39534878730773926 0.8237136602401733 -0.5193798542022705
0.39534878730773926 0.8252937197685242 -0.5038759708404541
0.39534881711006165 0.862591028213501 -0.5193798542022705
0.39534878730773926 0.8611422777175903 -0.5038759708404541
0.39534878730773926 0.9914178848266602 0.5193798542022705
0.41085267066955566 -0.9913933873176575 0.5193798542022705
0.41085267066955566 -0.8454129695892334 -0.5193798542022705
0.41085270047187805 -0.8426176309585571 -0.5038759708404541
0.41085267066955566 -0.8350317478179932 -0.4883720874786377
0.41085267066955566 -0.8186438083648682 -0.4883720874786377
0.41085267066955566 -0.8070701360702515 -0.5193798542022705
0.41085267066955566 -0.8098545074462891 -0.5038759708404541
0.41085267066955566 0.8204081058502197 -0.5193798542022705
0.41085267066955566 0.8240569829940796 -0.5038759708404541
0.4108526408672333 0.8625525832176208 -0.5193798542022705
0.41085267066955566 0.8608061671257019 -0.5038759708404541
0.41085267066955566 0.9914149641990662 0.5193798542022705
0.42635655403137207 -0.9914596080780029 0.5193798542022705
0.42635655403137207 -0.8454385995864868 -0.5193798542022705
0.42635655403137207 -0.8419776558876038 -0.5038759708404541
0.42635655403137207 -0.8313325643539429 -0.4883720874786377
0.42635655403137207 -0.8261336088180542 -0.4883720874786377
0.42635655403137207 -0.8051168322563171 -0.5193798542022705
0.42635655403137207 -0.8093900680541992 -0.5038759708404541
0.42635655403137207 0.8127344250679016 -0.5193798542022705
0.42635655403137207 0.818297266960144 -0.5038759708404541
0.42635655403137207 0.8628459572792053 -0.5193798542022705
0.42635655403137207 0.8605324029922485 -0.5038759708404541
0.42635655403137207 0.9914907813072205 0.5193798542022705
0.4418604373931885 -0.9914965033531189 0.5193798542022705
0.4418604373931885 -0.8453059792518616 -0.5193798542022705
0.4418604373931885 -0.8410214781761169 -0.5038759708404541
0.4418604373931885 -0.8076293468475342 -0.5038759708404541
0.4418604373931885 -0.7979768514633179 -0.5193798542022705
0.4418604373931885 0.8039226531982422 -0.5193798542022705
0.4418604373931885 0.8108563423156738 -0.5038759708404541
0.4418604373931885 0.8592050075531006 -0.5038759708404541
0.4418604075908661 0.8631143569946289 -0.5193798542022705
0.4418604373931885 0.9914905428886414 0.5193798542022705
0.4573643207550049 -0.9915893077850342 0.5193798542022705
0.4573643207550049 -0.8454111814498901 -0.5193798542022705
0.4573643207550049 -0.8402527570724487 -0.5038759708404541
0.4573643207550049 -0.8017188906669617 -0.5038759708404541
0.4573643207550049 -0.7456622123718262 -0.5193798542022705
0.4573643207550049 0.7704315185546875 -0.5193798542022705
0.4573643207550049 0.7979746460914612 -0.5038759708404541
0.4573643207550049 0.8586669564247131 -0.5038759708404541
0.4573643207550049 0.8635947704315186 -0.5193798542022705
0.4573643207550049 0.9915747046470642 0.5193798542022705
0.4728682041168213 -0.9918312430381775 0.5193798542022705
0.4728682041168213 -0.8455328941345215 -0.5193798542022705
0.4728682041168213 -0.8403359651565552 -0.5038759708404541
0.4728682041168213 -0.791968584060669 -0.5038759708404541
0.4728682041168213 0.7699757218360901 -0.5038759708404541
0.4728682041168213 0.8592300415039062 -0.5038759708404541
0.4728682041168213 0.863957405090332 -0.5193798542022705
0.4728682041168213 0.9917508959770203 0.5193798542022705
0.4883720874786377 -0.9868054389953613 0.5193798542022705
0.4883720874786377 -0.9716624021530151 0.5193798542022705
0.4883720874786377 -0.8457717895507812 -0.5193798542022705
0.4883720874786377 -0.8407337069511414 -0.5038759708404541
0.4883720874786377 -0.7856748700141907 -0.5038759708404541
0.4883720874786377 -0.7642425298690796 -0.5038759708404541
0.4883720874786377 -0.6823282837867737 -0.5038759708404541
0.4883720874786377 -0.47289735078811646 -0.5038759708404541
0.4883720874786377 -0.4850781559944153 -0.39534884691238403
0.4883720874786377 -0.4690806567668915 -0.3798449635505676
0.4883720874786377 -0.2757899761199951 -0.3798449635505676
0.4883720874786377 -0.23968720436096191 -0.3798449635505676
0.4883720874786377 -0.1827278435230255 -0.39534884691238403
0.4883720874786377 -0.18773531913757324 -0.3798449635505676
0.4883720874786377 -0.1329786777496338 -0.5038759708404541
0.4883720874786377 -0.08991517126560211 -0.5038759708404541
0.4883720874786377 -0.03727896511554718 -0.39534884691238403
0.4883720874786377 -0.02356278896331787 -0.3798449635505676
0.4883720874786377 0.027213577181100845 -0.3798449635505676
0.4883720874786377 0.06359843164682388 -0.39534884691238403
0.4883720874786377 0.14709486067295074 -0.39534884691238403
0.4883720874786377 0.18448187410831451 -0.3798449635505676
0.4883720874786377 0.23187565803527832 -0.3798449635505676
0.4883720874786377 0.24646064639091492 -0.5038759708404541
0.4883720874786377 0.3086435794830322 -0.5038759708404541
0.4883721172809601 0.3061103820800781 -0.3798449635505676
0.4883720874786377 0.5737564563751221 -0.3798449635505676
0.4883720874786377 0.6118583083152771 -0.39534884691238403
0.4883720874786377 0.7712786197662354 0.5193798542022705
0.4883720874786377 0.8593525886535645 -0.5038759708404541
0.4883720874786377 0.8644662499427795 -0.5193798542022705
0.4883720874786377 0.9231266379356384 0.5193798542022705
0.4883720874786377 0.9714004993438721 0.5193798542022705
0.4883720874786377 0.9861260652542114 0.5193798542022705
0.5038759708404541 -0.8464908599853516 -0.5193798542022705
0.5038759708404541 -0.8421245813369751 -0.5038759708404541
0.5038759708404541 -0.790656566619873 -0.5038759708404541
0.5038759708404541 -0.7556533813476562 -0.5038759708404541
0.5038759708404541 -0.6852116584777832 -0.5038759708404541
0.5038759708404541 -0.4203788638114929 -0.5038759708404541
0.5038759708404541 -0.3545437455177307 -0.5038759708404541
0.5038759708404541 -0.04221692308783531 -0.5038759708404541
0.5038759708404541 0.06863275170326233 -0.5038759708404541
0.5038759708404541 0.07551556080579758 -0.5038759708404541
0.5038759708404541 0.08878298103809357 -0.5038759708404541
0.5038759708404541 0.32443031668663025 -0.5038759708404541
0.5038759708404541 0.8577255010604858 -0.5038759708404541
0.5038759708404541 0.8648657202720642 -0.5193798542022705
0.5193798542022705 -0.8437552452087402 -0.5193798542022705
0.5193798542022705 -0.7946308851242065 -0.5193798542022705
0.5193798542022705 -0.7594605684280396 -0.5193798542022705
0.5193798542022705 0.8590056300163269 -0.5193798542022705
-0.5193798542022705 -0.9844961166381836 0.5132395625114441
-0.5193798542022705 -0.9844961166381836 0.5251725912094116
-0.5193798542022705 -0.9689922332763672 0.5169153809547424
-0.5193798542022705 -0.9689922332763672 0.5216480493545532
-0.5193798542022705 -0.9534883499145508 0.5179793834686279
-0.5193798542022705 -0.9534883499145508 0.5206769108772278
-0.5193798542022705 -0.9379844665527344 0.5182342529296875
-0.5193798542022705 -0.9379844665527344 0.5205473899841309
-0.5193798542022705 -0.922480583190918 0.5180912613868713
-0.5193798542022705 -0.9224806427955627 0.5208460688591003
-0.5193798542022705 -0.9069767594337463 0.5177850723266602
-0.5193798542022705 -0.9069768190383911 0.5213497877120972
-0.5193798542022705 -0.8914728760719299 0.5175766348838806
-0.5193798542022705 -0.8914729356765747 0.5215857028961182
-0.5193798542022705 -0.8759689927101135 0.5174102187156677
-0.5193798542022705 -0.8759689927101135 0.5214524865150452
-0.5193798542022705 -0.8604651093482971 0.516929030418396
-0.5193798542022705 -0.8604650497436523 0.5212031602859497
-0.5193798542022705 -0.8449611663818359 0.5158193111419678
-0.5193798542022705 -0.8449612259864807 0.5211617946624756
-0.5193798542022705 -0.8294574022293091 -0.5219865441322327
-0.5193798542022705 -0.8294574022293091 -0.5141080617904663
-0.5193798542022705 -0.8294573426246643 0.37793228030204773
-0.5193798542022705 -0.8294573426246643 0.38851121068000793
-0.5193798542022705 -0.8294573426246643 0.5146607160568237
-0.5193798542022705 -0.8294573426246643 0.5211924314498901
-0.5193798542022705 -0.8139535188674927 0.514675498008728
-0.5193798542022705 -0.8139535188674927 0.5210156440734863
-0.5193798542022705 -0.7984496355056763 0.5152266025543213
-0.5193798542022705 -0.7984496355056763 0.5207998156547546
-0.5193798542022705 -0.7829457521438599 0.5153372883796692
-0.5193798542022705 -0.7829457521438599 0.520664632320404
-0.5193798542022705 -0.7674418687820435 0.5149720311164856
-0.5193798542022705 -0.7674418687820435 0.5206887125968933
-0.5193798542022705 -0.751937985420227 0.5139862298965454
-0.5193798542022705 -0.751937985420227 0.5209082961082458
-0.5193798542022705 -0.7364341020584106 0.5143491625785828
-0.5193798542022705 -0.7364341020584106 0.5207752585411072
-0.5193798542022705 -0.7209302186965942 0.5148192048072815
-0.5193798542022705 -0.720930278301239 0.5206863284111023
-0.5193798542022705 -0.7054263353347778 0.5156177282333374
-0.5193798542022705 -0.7054263353347778 0.5205285549163818
-0.5193798542022705 -0.6899224519729614 0.5165113210678101
-0.5193798542022705 -0.6899224519729614 0.5202886462211609
-0.5193798542022705 -0.674418568611145 0.5171291828155518
-0.5193798542022705 -0.6744185090065002 0.5201285481452942
-0.5193798542022705 -0.6589146852493286 0.5173819065093994
-0.5193798542022705 -0.6589146852493286 0.5200907588005066
-0.5193798542022705 -0.643410861492157 0.5176181793212891
-0.5193798542022705 -0.643410861492157 0.5200511813163757
-0.5193798542022705 -0.6279069781303406 0.5177856683731079
-0.5193798542022705 -0.6279069781303406 0.5199975967407227
-0.5193798542022705 -0.6124030947685242 0.5176956653594971
-0.5193798542022705 -0.6124030947685242 0.5200167894363403
-0.5193798542022705 -0.5968992114067078 0.5178723335266113
-0.5193799138069153 -0.5968992114067078 0.5199400782585144
-0.5193798542022705 -0.5813953876495361 0.5179362297058105
-0.5193798542022705 -0.5813953876495361 0.5198991894721985
-0.5193798542022705 -0.5658915042877197 0.5183992981910706
-0.5193798542022705 -0.5658915042877197 0.5197190046310425
-0.5193798542022705 -0.5503876209259033 0.5185869336128235
-0.5193798542022705 -0.5503876209259033 0.5196541547775269
-0.5193798542022705 -0.5348837375640869 0.5187971591949463
-0.5193799138069153 -0.5348837375640869 0.5195884108543396
-0.5193798542022705 -0.5193798542022705 0.5190384387969971
-0.5193798542022705 -0.5193798542022705 0.5195028185844421
-0.5193798542022705 -0.5038759708404541 0.5191846489906311
-0.5193798542022705 -0.5038759708404541 0.5194483399391174
-0.5193798542022705 -0.4883720874786377 0.5190449953079224
-0.5193797945976257 -0.4883720576763153 0.5194953083992004
-0.5193798542022705 -0.4728682041168213 0.5188150405883789
-0.5193798542022705 -0.4728682041168213 0.5195726156234741
-0.5193798542022705 -0.4573643207550049 0.51847243309021
-0.5193798542022705 -0.4573643207550049 0.5196825861930847
-0.5193798542022705 -0.4418604373931885 0.518062949180603
-0.5193798542022705 -0.4418604373931885 0.5198125839233398
-0.5193798542022705 -0.42635661363601685 0.5179047584533691
-0.5193798542022705 -0.42635664343833923 0.5198507308959961
-0.5193798542022705 -0.41085273027420044 0.51746666431427
-0.5193798542022705 -0.41085273027420044 0.5199639797210693
-0.5193798542022705 -0.39534884691238403 0.5171070098876953
-0.5193798542022705 -0.39534884691238403 0.5200427770614624
-0.5193798542022705 -0.3798449635505676 0.5172299146652222
-0.5193798542022705 -0.3798449635505676 0.520025908946991
-0.5193798542022705 -0.3643410801887512 0.5172524452209473
-0.5193798542022705 -0.3643410801887512 0.5200687646865845
-0.5193798542022705 -0.3488371968269348 0.5174365639686584
-0.5193798542022705 -0.3488371968269348 0.5200483202934265
-0.5193798542022705 -0.3333333134651184 0.5177108645439148
-0.5193798542022705 -0.333333283662796 0.5200003981590271
-0.5193798542022705 -0.317829430103302 0.5179798603057861
-0.5193798542022705 -0.317829430103302 0.5199471712112427
-0.5193798542022705 -0.30232560634613037 0.5184189677238464
-0.5193798542022705 -0.30232560634613037 0.5197767019271851
-0.5193798542022705 -0.28682172298431396 0.5185685157775879
-0.5193797945976257 -0.28682172298431396 0.5197165608406067
-0.5193798542022705 -0.27131783962249756 0.5186775922775269
-0.5193798542022705 -0.27131783962249756 0.5196822285652161
-0.5193798542022705 -0.25581395626068115 0.5187546610832214
-0.5193798542022705 -0.25581395626068115 0.5196587443351746
-0.5193798542022705 -0.24031007289886475 0.5188601613044739
-0.5193798542022705 -0.24031007289886475 0.519614577293396
-0.5193798542022705 -0.22480618953704834 0.5187515020370483
-0.5193798542022705 -0.22480618953704834 0.5196604132652283
-0.5193798542022705 -0.20930230617523193 0.5188496112823486
-0.5193798542022705 -0.20930230617523193 0.5196101069450378
-0.5193798542022705 -0.19379842281341553 0.518836259841919
-0.5193797945976257 -0.19379840791225433 0.5196077227592468
-0.5193798542022705 -0.1782945990562439 0.5189148783683777
-0.5193798542022705 -0.1782946139574051 0.5195678472518921
-0.5193798542022705 -0.1627907156944275 0.5191503763198853
-0.5193798542022705 -0.1627907156944275 0.5194694399833679
-0.5193798542022705 -0.14728683233261108 0.5192053318023682
-0.5193798542022705 -0.14728683233261108 0.5194470286369324
-0.5193798542022705 -0.08527129888534546 0.5191593766212463
-0.5193798542022705 -0.08527129143476486 0.5194619297981262
-0.5193798542022705 -0.06976741552352905 0.5188384056091309
-0.5193798542022705 -0.06976741552352905 0.5195796489715576
-0.5193798542022705 -0.05426359176635742 0.5183647274971008
-0.5193798542022705 -0.05426359176635742 0.5197445154190063
-0.5193798542022705 -0.038759708404541016 0.5183711051940918
-0.5193798542022705 -0.038759708404541016 0.5197197198867798
-0.5193798542022705 -0.02325582504272461 0.5181753039360046
-0.5193798542022705 -0.02325582504272461 0.5197635293006897
-0.5193798542022705 -0.007751941680908203 0.5177361369132996
-0.5193798542022705 -0.007751941680908203 0.5198840498924255
-0.5193798542022705 0.007751941680908203 0.517937421798706
-0.5193799138069153 0.00775194214656949 0.5198153257369995
-0.5193798542022705 0.02325582504272461 0.5176581144332886
-0.5193798542022705 0.02325582504272461 0.5199192762374878
-0.5193798542022705 0.038759708404541016 0.5177236795425415
-0.5193798542022705 0.038759708404541016 0.5199162364006042
-0.5193798542022705 0.05426359176635742 0.5179131031036377
-0.5193798542022705 0.05426359549164772 0.5198851227760315
-0.5193798542022705 0.06976747512817383 0.5183186531066895
-0.5193798542022705 0.06976747512817383 0.5197661519050598
-0.5193798542022705 0.08527135848999023 0.5187670588493347
-0.5193798542022705 0.08527135848999023 0.519608736038208
-0.5193798542022705 0.10077524185180664 0.5189422369003296
-0.5193798542022705 0.10077524185180664 0.519548773765564
-0.5193798542022705 0.11627912521362305 0.5190216898918152
-0.5193798542022705 0.11627911776304245 0.5195253491401672
-0.5193798542022705 0.1317828893661499 0.5192133188247681
-0.5193798542022705 0.1317828744649887 0.5194492936134338
-0.5193798542022705 0.1472867727279663 0.5193017721176147
-0.5193797945976257 0.14728675782680511 0.5194127559661865
-0.5193798542022705 0.16279065608978271 0.5193649530410767
-0.5193798542022705 0.16279064118862152 0.5193862915039062
-0.5193798542022705 0.20930230617523193 0.5193060636520386
-0.5193798542022705 0.20930230617523193 0.519409716129303
-0.5193798542022705 0.24031007289886475 0.5192617177963257
-0.5193798542022705 0.24031007289886475 0.5194263458251953
-0.5193798542022705 0.25581395626068115 0.5193731784820557
-0.5193798542022705 0.25581395626068115 0.5193824768066406
-0.5193798542022705 0.30232560634613037 0.5193385481834412
-0.5193798542022705 0.30232560634613037 0.5193955898284912
-0.5193798542022705 0.3178294897079468 0.5190728902816772
-0.5193798542022705 0.3178294897079468 0.5194923877716064
-0.5193798542022705 0.3333333730697632 0.5188243389129639
-0.5193798542022705 0.3333333432674408 0.5195775628089905
-0.5193798542022705 0.3488372564315796 0.5185828804969788
-0.5193798542022705 0.348837286233902 0.5196491479873657
-0.5193798542022705 0.364341139793396 0.5184819102287292
-0.5193798542022705 0.364341139793396 0.51966392993927
-0.5193798542022705 0.37984490394592285 0.5178242325782776
-0.5193798542022705 0.37984490394592285 0.519862711429596
-0.5193798542022705 0.39534878730773926 0.5177826285362244
-0.5193798542022705 0.39534881711006165 0.5198779702186584
-0.5193798542022705 0.41085267066955566 0.5173760652542114
-0.5193798542022705 0.41085267066955566 0.5200347304344177
-0.5193798542022705 0.42635655403137207 0.5173721313476562
-0.5193798542022705 0.42635655403137207 0.5200549960136414
-0.5193798542022705 0.4418604373931885 0.5176394581794739
-0.5193798542022705 0.4418604075908661 0.5199960470199585
-0.5193798542022705 0.4573643207550049 0.5177798867225647
-0.5193798542022705 0.4573643207550049 0.5199717283248901
-0.5193798542022705 0.4728682041168213 0.518128514289856
-0.5193798542022705 0.4728682041168213 0.5198481678962708
-0.5193798542022705 0.4883720874786377 0.5183320045471191
-0.5193798542022705 0.4883720874786377 0.5197821259498596
-0.5193798542022705 0.5038759708404541 0.5183324217796326
-0.5193797945976257 0.5038759708404541 0.5198010802268982
-0.5193798542022705 0.5193798542022705 0.5183585286140442
-0.5193798542022705 0.5193798542022705 0.5197949409484863
-0.5193798542022705 0.5348837375640869 0.518277645111084
-0.5193798542022705 0.5348837375640869 0.519825279712677
-0.5193798542022705 0.5503876209259033 0.5183090567588806
-0.5193798542022705 0.5503876209259033 0.5198103189468384
-0.5193798542022705 0.5658915042877197 0.5182434320449829
-0.5193798542022705 0.5658915042877197 0.5198214054107666
-0.5193798542022705 0.5813953876495361 0.5181229710578918
-0.5193798542022705 0.5813953280448914 0.519853949546814
-0.5193798542022705 0.5968992710113525 0.5178755521774292
-0.5193798542022705 0.5968992710113525 0.5199400186538696
-0.5193798542022705 0.612403154373169 0.5180639028549194
-0.5193798542022705 0.612403154373169 0.5198709964752197
-0.5193798542022705 0.6279069185256958 0.5179389715194702
-0.5193798542022705 0.6279069185256958 0.5199211239814758
-0.5193798542022705 0.6434108018875122 0.5177744030952454
-0.5193798542022705 0.6434108018875122 0.5199803113937378
-0.5193798542022705 0.6589146852493286 0.5179215669631958
-0.5193798542022705 0.6589146852493286 0.5199136137962341
-0.5193798542022705 0.674418568611145 0.517415463924408
-0.5193798542022705 0.674418568611145 0.5200985670089722
-0.5193798542022705 0.6899224519729614 0.5169727802276611
-0.5193798542022705 0.6899224519729614 0.5202412009239197
-0.5193798542022705 0.7054263353347778 0.5161040425300598
-0.5193798542022705 0.7054263353347778 0.5205267667770386
-0.5193798542022705 0.7209302186965942 0.5155248641967773
-0.5193798542022705 0.7209302186965942 0.5206940174102783
-0.5193798542022705 0.7364341020584106 0.5151640176773071
-0.5193798542022705 0.7364341020584106 0.5207825899124146
-0.5193798542022705 0.751937985420227 0.5147637724876404
-0.5193798542022705 0.751937985420227 0.5209044814109802
-0.5193798542022705 0.7674418687820435 0.5146960020065308
-0.5193798542022705 0.7674418687820435 0.5209783911705017
-0.5193798542022705 0.7829457521438599 0.5154207944869995
-0.5193798542022705 0.7829456925392151 0.5208432674407959
-0.5193798542022705 0.7984496355056763 0.5156756639480591
-0.5193798542022705 0.7984496355056763 0.5208837985992432
-0.5193798542022705 0.8139535188674927 0.5151525735855103
-0.5193798542022705 0.8139535188674927 0.5211650133132935
-0.5193798542022705 0.8294574022293091 0.5150300860404968
-0.5193798542022705 0.8294574022293091 0.5212032794952393
-0.5193798542022705 0.8449612855911255 -0.5211904048919678
-0.5193798542022705 0.8449612855911255 -0.5155460238456726
-0.5193798542022705 0.8449612855911255 0.51482754945755
-0.5193798542022705 0.8449612855911255 0.5214125514030457
-0.5193798542022705 0.8604651689529419 -0.5198048949241638
-0.5193798542022705 0.8604651689529419 -0.5177029371261597
-0.5193798542022705 0.8604651689529419 0.5151491761207581
-0.5193798542022705 0.8604651689529419 0.521481454372406
-0.5193798542022705 0.8759689331054688 0.5152773857116699
-0.5193798542022705 0.8759689331054688 0.5216872096061707
-0.5193798542022705 0.8914728164672852 0.5150565505027771
-0.5193798542022705 0.8914728164672852 0.5219802856445312
-0.5193798542022705 0.9069766998291016 0.515216588973999
-0.5193798542022705 0.9069766998291016 0.5219941139221191
-0.5193798542022705 0.922480583190918 0.5158289074897766
-0.5193798542022705 0.9224806427955627 0.5217067003250122
-0.5193798542022705 0.9379844665527344 0.5163171291351318
-0.5193798542022705 0.9379844665527344 0.5214627385139465
-0.5193798542022705 0.9534883499145508 0.5165518522262573
-0.5193798542022705 0.9534883499145508 0.5212517380714417
-0.5193798542022705 0.9689922332763672 0.5160717964172363
-0.5193798542022705 0.9689922332763672 0.5215844511985779
-0.5193798542022705 0.9844961166381836 0.5133312344551086
-0.5193798542022705 0.9844961166381836 0.5246314406394958
-0.5038759708404541 -0.9844961166381836 0.5076699256896973
-0.5038759708404541 -0.9844961166381836 0.5287855267524719
-0.5038759708404541 -0.9689922332763672 0.5093562006950378
-0.5038759708404541 -0.9689922332763672 0.5264331102371216
-0.5038759708404541 -0.9534883499145508 0.5105164647102356
-0.5038759708404541 -0.9534883499145508 0.5255981683731079
-0.5038759708404541 -0.9379844665527344 0.5114972591400146
-0.5038759708404541 -0.9379844665527344 0.5256848335266113
-0.5038759708404541 -0.9224806427955627 0.5125942230224609
-0.5038759708404541 -0.9224806427955627 0.5259966850280762
-0.5038759708404541 -0.9069766998291016 0.5133264660835266
-0.5038759708404541 -0.9069767594337463 0.5263702869415283
-0.5038759708404541 -0.8914728760719299 0.5134062767028809
-0.5038759708404541 -0.8914729356765747 0.5265395641326904
-0.5038759708404541 -0.8759689927101135 0.512678861618042
-0.5038759708404541 -0.8759689927101135 0.5264315009117126
-0.5038759708404541 -0.8604650497436523 0.5103691816329956
-0.5038759708404541 -0.8604650497436523 0.5260116457939148
-0.5038759708404541 -0.8449612259864807 -0.5229074954986572
-0.5038759708404541 -0.8449612855911255 -0.5100669860839844
-0.5038759708404541 -0.8449612259864807 0.3638986051082611
-0.5038759708404541 -0.8449612259864807 0.46534037590026855
-0.5038759708404541 -0.8449612259864807 0.5031610727310181
-0.5038759708404541 -0.8449612259864807 0.52577805519104
-0.5038759708404541 -0.8294573426246643 -0.5269037485122681
-0.5038759708404541 -0.8294573426246643 -0.49901294708251953
-0.5038759708404541 -0.8294573426246643 0.3500739336013794
-0.5038759708404541 -0.8294572830200195 0.5257861018180847
-0.5038759708404541 -0.8139535188674927 -0.5248116254806519
-0.5038759708404541 -0.8139535784721375 -0.5015205144882202
-0.5038759708404541 -0.8139535188674927 0.3552858829498291
-0.5038759708404541 -0.8139535188674927 0.5257609486579895
-0.5038759708404541 -0.7984496355056763 0.36102232336997986
-0.5038759708404541 -0.7984496355056763 0.5256589651107788
-0.5038759708404541 -0.7829457521438599 0.36211147904396057
-0.5038759708404541 -0.7829457521438599 0.5256073474884033
-0.5038759708404541 -0.7674418687820435 0.3619407117366791
-0.5038759708404541 -0.7674418687820435 0.5256323218345642
-0.5038759708404541 -0.751937985420227 0.36166176199913025
-0.5038759708404541 -0.751937985420227 0.5256656408309937
-0.5038759708404541 -0.7364341020584106 0.3616049885749817
-0.5038759708404541 -0.7364341020584106 0.5256045460700989
-0.5038759708404541 -0.7209302186965942 0.36175066232681274
-0.5038759708404541 -0.7209302186965942 0.5256150364875793
-0.5038759708404541 -0.7054263353347778 0.3619917035102844
-0.5038759708404541 -0.7054263353347778 0.5257045030593872
-0.5038759708404541 -0.6899224519729614 0.3622925281524658
-0.5038759708404541 -0.6899224519729614 0.5257082581520081
-0.5038759708404541 -0.674418568611145 0.3626798391342163
-0.5038759708404541 -0.674418568611145 0.525728166103363
-0.5038759708404541 -0.6589146852493286 0.36305323243141174
-0.5038759708404541 -0.6589146852493286 0.5258241295814514
-0.5038759708404541 -0.643410861492157 0.36321988701820374
-0.5038759708404541 -0.643410861492157 0.5258073806762695
-0.5038759708404541 -0.6279069781303406 0.3632534146308899
-0.5038759708404541 -0.6279069781303406 0.5257177352905273
-0.5038759708404541 -0.6124030947685242 0.363185852766037
-0.5038759708404541 -0.6124030947685242 0.5256699323654175
-0.5038759708404541 -0.5968992114067078 0.36304572224617004
-0.5038759708404541 -0.5968992710113525 0.5255637168884277
-0.5038759708404541 -0.5813953876495361 0.3628844916820526
-0.5038759708404541 -0.5813953876495361 0.5255113840103149
-0.5038759708404541 -0.5658915042877197 0.3628700077533722
-0.5038759708404541 -0.5658915042877197 0.5254543423652649
-0.5038759708404541 -0.5503876209259033 0.3630034327507019
-0.5038759708404541 -0.5503876209259033 0.5255351662635803
-0.5038759708404541 -0.5348837375640869 0.36325356364250183
-0.5038759708404541 -0.5348837375640869 0.5256154537200928
-0.5038759708404541 -0.5193798542022705 0.3634340763092041
-0.5038759708404541 -0.5193798542022705 0.4882485866546631
-0.5038759708404541 -0.5193798542022705 0.48863381147384644
-0.5038759708404541 -0.5193798542022705 0.5256898999214172
-0.5038759708404541 -0.5038759708404541 0.36352410912513733
-0.5038759708404541 -0.5038759708404541 0.48771482706069946
-0.5038759708404541 -0.5038759708404541 0.48958712816238403
-0.5038759708404541 -0.5038759708404541 0.5257499814033508
-0.5038759708404541 -0.4883720874786377 0.36347484588623047
-0.5038759708404541 -0.4883720874786377 0.5258274674415588
-0.5038759708404541 -0.4728682041168213 0.36333271861076355
-0.5038759708404541 -0.4728682041168213 0.5258452892303467
-0.5038759708404541 -0.4573643207550049 0.36313343048095703
-0.5038759708404541 -0.4573643207550049 0.525845468044281
-0.5038759708404541 -0.4418604373931885 0.36284807324409485
-0.5038759708404541 -0.4418604373931885 0.5258992910385132
-0.5038759708404541 -0.42635661363601685 0.36252763867378235
-0.5038759708404541 -0.42635661363601685 0.5258213877677917
-0.5038759708404541 -0.41085273027420044 0.36215585470199585
-0.5038759708404541 -0.41085273027420044 0.5257875919342041
-0.5038759708404541 -0.39534884691238403 0.36185282468795776
-0.5038759708404541 -0.39534884691238403 0.5257524251937866
-0.5038759708404541 -0.3798449635505676 0.3617333471775055
-0.5038759708404541 -0.3798449635505676 0.5257550477981567
-0.5038759708404541 -0.3643410801887512 0.36185383796691895
-0.5038759708404541 -0.3643410801887512 0.5257387161254883
-0.5038759708404541 -0.3488371968269348 0.3622199594974518
-0.5038759708404541 -0.3488371968269348 0.5257967710494995
-0.5038759708404541 -0.3333333134651184 0.36254164576530457
-0.5038759708404541 -0.3333333134651184 0.5258972644805908
-0.5038759708404541 -0.317829430103302 0.362837553024292
-0.5038759708404541 -0.317829430103302 0.5259982347488403
-0.5038759708404541 -0.30232560634613037 0.3631400167942047
-0.5038759708404541 -0.30232560634613037 0.5260157585144043
-0.5038759708404541 -0.28682172298431396 0.36343851685523987
-0.5038759708404541 -0.28682172298431396 0.5260351896286011
-0.5038759708404541 -0.27131783962249756 0.36374497413635254
-0.5038759708404541 -0.27131783962249756 0.5261093974113464
-0.5038759708404541 -0.25581395626068115 0.363864541053772
-0.5038759708404541 -0.25581395626068115 0.5260990262031555
-0.5038759708404541 -0.24031007289886475 0.3638637363910675
-0.5038759708404541 -0.24031007289886475 0.5260481834411621
-0.5038759708404541 -0.22480618953704834 0.36377647519111633
-0.5038759708404541 -0.22480618953704834 0.5260021686553955
-0.5038759708404541 -0.20930230617523193 0.36369338631629944
-0.5038759708404541 -0.20930230617523193 0.5259118676185608
-0.5038759708404541 -0.19379842281341553 0.3637343943119049
-0.5038759708404541 -0.19379842281341553 0.5258709788322449
-0.5038759708404541 -0.1782945990562439 0.36391133069992065
-0.5038759708404541 -0.1782945990562439 0.5258862972259521
-0.5038759708404541 -0.1627907156944275 0.36417144536972046
-0.5038759708404541 -0.1627907156944275 0.5258930921554565
-0.5038759708404541 -0.14728683233261108 0.3656449615955353
-0.5038759708404541 -0.14728683233261108 0.5258903503417969
-0.5038759708404541 -0.13178294897079468 0.3680681586265564
-0.5038759708404541 -0.13178294897079468 0.5258608460426331
-0.5038759708404541 -0.11627906560897827 0.36978214979171753
-0.5038759708404541 -0.11627906560897827 0.5259050130844116
-0.5038759708404541 -0.10077518224716187 0.36999040842056274
-0.5038759708404541 -0.10077518224716187 0.5259025692939758
-0.5038759708404541 -0.08527129888534546 0.36838507652282715
-0.5038759708404541 -0.08527129888534546 0.5259389281272888
-0.5038759708404541 -0.06976741552352905 0.36455923318862915
-0.5038759708404541 -0.06976741552352905 0.5259832143783569
-0.5038759708404541 -0.05426359176635742 0.36370915174484253
-0.5038759708404541 -0.05426359176635742 0.5260547399520874
-0.5038759708404541 -0.038759708404541016 0.3631995618343353
-0.5038759708404541 -0.038759708404541016 0.5259190797805786
-0.5038759708404541 -0.02325582504272461 0.3628953695297241
-0.5038759708404541 -0.02325582504272461 0.5258021950721741
-0.5038759708404541 -0.007751941680908203 0.3627323806285858
-0.5038759708404541 -0.007751941680908203 0.5257347822189331
-0.5038759708404541 0.007751941680908203 0.36273330450057983
-0.5038759708404541 0.007751941680908203 0.5256526470184326
-0.5038759708404541 0.02325582504272461 0.3628206253051758
-0.5038759708404541 0.02325582504272461 0.5256640911102295
-0.5038759708404541 0.038759708404541016 0.36301928758621216
-0.5038759708404541 0.038759708404541016 0.5256834030151367
-0.5038759708404541 0.05426359176635742 0.3633022606372833
-0.5038759708404541 0.05426359176635742 0.5257590413093567
-0.5038759708404541 0.06976747512817383 0.36368319392204285
-0.5038759708404541 0.06976747512817383 0.5257385969161987
-0.5038759708404541 0.08527135848999023 0.36408230662345886
-0.5038759708404541 0.08527135848999023 0.5256966352462769
-0.5038759708404541 0.10077524930238724 0.3648451864719391
-0.5038759708404541 0.10077524185180664 0.5256729125976562
-0.5038759708404541 0.11627912521362305 0.3657550811767578
-0.5038759708404541 0.11627912521362305 0.5257102251052856
-0.5038759708404541 0.1317828893661499 0.3646429479122162
-0.5038759708404541 0.1317828893661499 0.5256367921829224
-0.5038759708404541 0.1472867727279663 0.36411961913108826
-0.5038759708404541 0.1472867727279663 0.5255697965621948
-0.5038759708404541 0.16279065608978271 0.3638470470905304
-0.5038759708404541 0.16279065608978271 0.525503396987915
-0.5038759708404541 0.17829453945159912 0.36368751525878906
-0.5038759708404541 0.17829453945159912 0.5253835916519165
-0.5038759708404541 0.19379842281341553 0.3636418581008911
-0.5038759708404541 0.19379842281341553 0.5252816081047058
-0.5038759708404541 0.20930230617523193 0.36364689469337463
-0.5038759708404541 0.20930230617523193 0.5253029465675354
-0.5038759708404541 0.22480618953704834 0.36366984248161316
-0.5038759708404541 0.22480618953704834 0.5253416895866394
-0.5038759708404541 0.24031007289886475 0.3636845052242279
-0.5038759708404541 0.24031007289886475 0.5253943800926208
-0.5038759708404541 0.25581395626068115 0.3636951446533203
-0.5038759708404541 0.25581395626068115 0.5254299640655518
-0.5038759708404541 0.27131783962249756 0.36369940638542175
-0.5038759708404541 0.27131783962249756 0.5255143642425537
-0.5038759708404541 0.28682172298431396 0.3636558949947357
-0.5038759708404541 0.28682172298431396 0.5255514979362488
-0.5038759708404541 0.30232560634613037 0.36352768540382385
-0.5038759708404541 0.30232560634613037 0.5255805850028992
-0.5038759708404541 0.3178294897079468 0.3634072542190552
-0.5038759708404541 0.3178294897079468 0.5256603360176086
-0.5038759708404541 0.3333333730697632 0.36327511072158813
-0.5038759708404541 0.3333333730697632 0.5257227420806885
-0.5038759708404541 0.3488372564315796 0.36312177777290344
-0.5038759708404541 0.3488372564315796 0.5256930589675903
-0.5038759708404541 0.364341139793396 0.36299365758895874
-0.5038759708404541 0.364341139793396 0.5256121158599854
-0.5038759708404541 0.37984490394592285 0.36286014318466187
-0.5038759708404541 0.37984490394592285 0.5256581902503967
-0.5038759708404541 0.39534878730773926 0.3627847731113434
-0.5038759708404541 0.39534878730773926 0.5256204009056091
-0.5038759708404541 0.41085267066955566 0.36274856328964233
-0.5038759708404541 0.41085267066955566 0.52568519115448
-0.5038759708404541 0.42635655403137207 0.36274945735931396
-0.5038759708404541 0.42635655403137207 0.5257179737091064
-0.5038759708404541 0.4418604373931885 0.3627806305885315
-0.5038759708404541 0.4418604373931885 0.5257785320281982
-0.5038759708404541 0.4573643207550049 0.3628171682357788
-0.5038759708404541 0.4573643207550049 0.5258128643035889
-0.5038759708404541 0.4728682041168213 0.3628554940223694
-0.5038759708404541 0.4728682041168213 0.5257930755615234
-0.5038759708404541 0.4883720874786377 0.36289146542549133
-0.5038759708404541 0.4883720874786377 0.5258209705352783
-0.5038759708404541 0.5038759708404541 0.3629206120967865
-0.5038759708404541 0.5038759708404541 0.5258468985557556
-0.5038759708404541 0.5193798542022705 0.36295104026794434
-0.5038759708404541 0.5193798542022705 0.5258319973945618
-0.5038759708404541 0.5348837375640869 0.3629837930202484
-0.5038759708404541 0.5348837375640869 0.5257594585418701
-0.5038759708404541 0.5503876209259033 0.36311957240104675
-0.5038759708404541 0.5503876209259033 0.5256940722465515
-0.5038759708404541 0.5658915042877197 0.3632907271385193
-0.5038759708404541 0.5658915042877197 0.5255813598632812
-0.5038759708404541 0.5813953876495361 0.36350923776626587
-0.5038759708404541 0.5813953876495361 0.5255509614944458
-0.5038759708404541 0.5968992710113525 0.36370623111724854
-0.5038759708404541 0.5968992710113525 0.5255842804908752
-0.5038759708404541 0.612403154373169 0.3638668656349182
-0.5038759708404541 0.612403154373169 0.5255796909332275
-0.5038759708404541 0.6279069185256958 0.36389589309692383
-0.5038759708404541 0.6279069185256958 0.5255874395370483
-0.5038759708404541 0.6434108018875122 0.36386638879776
-0.5038759708404541 0.6434108018875122 0.5256320834159851
-0.5038759708404541 0.6589146852493286 0.36379918456077576
-0.5038759708404541 0.6589146852493286 0.5256518125534058
-0.5038759708404541 0.674418568611145 0.3635942339897156
-0.5038759708404541 0.674418568611145 0.5256786346435547
-0.5038759708404541 0.6899224519729614 0.3634163439273834
-0.5038759708404541 0.6899224519729614 0.5257008075714111
-0.5038759708404541 0.7054263353347778 0.3631889224052429
-0.5038759708404541 0.7054263353347778 0.5257558226585388
-0.5038759708404541 0.7209302186965942 0.36285310983657837
-0.5038759708404541 0.7209302186965942 0.5257561206817627
-0.5038759708404541 0.7364341020584106 0.36259153485298157
-0.5038759708404541 0.7364341020584106 0.5256790518760681
-0.5038759708404541 0.751937985420227 0.3624679148197174
-0.5038759708404541 0.751937985420227 0.5256180167198181
-0.5038759708404541 0.7674418687820435 0.362422913312912
-0.5038759708404541 0.7674418687820435 0.5255968570709229
-0.5038759708404541 0.7829457521438599 0.36244505643844604
-0.5038759708404541 0.7829457521438599 0.5254803895950317
-0.5038759708404541 0.7984496355056763 0.36235910654067993
-0.5038759708404541 0.7984496355056763 0.5253984928131104
-0.5038759708404541 0.8139535188674927 0.3621741235256195
-0.5038759708404541 0.8139535188674927 0.5254257917404175
-0.5038759708404541 0.8294574022293091 -0.5248833298683167
-0.5038759708404541 0.8294574022293091 -0.502129077911377
-0.5038759708404541 0.8294574022293091 0.36181640625
-0.5038759708404541 0.8294574022293091 0.5254371166229248
-0.5038759708404541 0.8449612855911255 -0.5262120962142944
-0.5038759708404541 0.8449612855911255 -0.5001946687698364
-0.5038759708404541 0.8449612855911255 0.3612731099128723
-0.5038759708404541 0.8449612855911255 0.5256044864654541
-0.5038759708404541 0.8604651689529419 -0.5255838632583618
-0.5038759708404541 0.8604651689529419 -0.5016337633132935
-0.5038759708404541 0.8604651689529419 0.36296260356903076
-0.5038759708404541 0.8604651689529419 0.4785672426223755
-0.5038759708404541 0.8604651689529419 0.4984014332294464
-0.5038759708404541 0.8604651689529419 0.5257846117019653
-0.5038759708404541 0.8759689331054688 0.5024746060371399
-0.5038759708404541 0.8759689331054688 0.5260588526725769
-0.5038759708404541 0.8914728164672852 0.5030745267868042
-0.5038759708404541 0.8914728164672852 0.5263180732727051
-0.5038759708404541 0.9069766998291016 0.503515362739563
-0.5038759708404541 0.9069766998291016 0.5263117551803589
-0.5038759708404541 0.922480583190918 0.5042694211006165
-0.5038759708404541 0.922480583190918 0.5259837508201599
-0.5038759708404541 0.9379844665527344 0.5053800344467163
-0.5038759708404541 0.9379844665527344 0.5257264375686646
-0.5038759708404541 0.9534883499145508 0.5051708221435547
-0.5038759708404541 0.9534883499145508 0.5255376100540161
-0.5038759708404541 0.968992292881012 0.5039438605308533
-0.5038759708404541 0.9689922332763672 0.5261565446853638
-0.5038759708404541 0.9844961166381836 0.5019277334213257
-0.5038759708404541 0.9844961166381836 0.5288965702056885
-0.4883720874786377 -0.9844961166381836 0.509317934513092
-0.4883720874786377 -0.9844961166381836 0.5285428762435913
-0.4883720874786377 -0.9689922332763672 0.5138630270957947
-0.4883720874786377 -0.9689922332763672 0.5241898894309998
-0.4883720874786377 -0.9534883499145508 0.5149469971656799
-0.4883720874786377 -0.9534883499145508 0.5231897234916687
-0.4883720874786377 -0.9379844665527344 0.5151663422584534
-0.4883720874786377 -0.9379844665527344 0.5233566761016846
-0.4883720874786377 -0.9224806427955627 0.5153798460960388
-0.4883720874786377 -0.9224806427955627 0.5238425135612488
-0.4883720874786377 -0.9069767594337463 0.515461266040802
-0.4883720874786377 -0.9069767594337463 0.5244504809379578
-0.4883720874786377 -0.8914729356765747 0.5154093503952026
-0.4883721172809601 -0.8914729356765747 0.5246981978416443
