-0.9529711604118347 -0.41085273027420044 0.02325582504272461
-0.9534589648246765 -0.41085273027420044 0.03875970467925072
-0.9447731375694275 -0.41085273027420044 0.4573643207550049
-0.9520842432975769 -0.39534884691238403 -0.4728682041168213
-0.9518080353736877 -0.39534884691238403 -0.4573643207550049
-0.9518965482711792 -0.39534884691238403 -0.4418604373931885
-0.9522251486778259 -0.39534884691238403 -0.42635658383369446
-0.9516447186470032 -0.39534884691238403 -0.41085273027420044
-0.9502348303794861 -0.39534884691238403 -0.39534884691238403
-0.9494554996490479 -0.39534884691238403 -0.3798449635505676
-0.949521541595459 -0.39534884691238403 -0.3643410801887512
-0.9492568373680115 -0.39534884691238403 -0.3488371968269348
-0.9492952227592468 -0.39534884691238403 -0.3333333134651184
-0.9495130777359009 -0.3953488767147064 -0.317829430103302
-0.949771523475647 -0.39534884691238403 -0.30232560634613037
-0.9500150084495544 -0.39534884691238403 -0.28682172298431396
-0.9500048756599426 -0.39534884691238403 -0.27131783962249756
-0.9498263597488403 -0.39534884691238403 -0.25581395626068115
-0.9494284987449646 -0.39534884691238403 -0.24031007289886475
-0.9487724900245667 -0.39534884691238403 -0.22480618953704834
-0.9478424191474915 -0.39534881711006165 -0.20930229127407074
-0.9464999437332153 -0.39534884691238403 -0.19379842281341553
-0.944888710975647 -0.39534884691238403 -0.1782945990562439
-0.9435811042785645 -0.39534884691238403 -0.1627907156944275
-0.9433479309082031 -0.39534884691238403 -0.14728683233261108
-0.9433110952377319 -0.39534884691238403 -0.13178294897079468
-0.9435688853263855 -0.39534884691238403 -0.11627906560897827
-0.9451040029525757 -0.39534884691238403 -0.10077518224716187
-0.9461774230003357 -0.39534884691238403 -0.08527129888534546
-0.9452461004257202 -0.39534884691238403 -0.06976741552352905
-0.9507763385772705 -0.3798449635505676 -0.4728682041168213
-0.9500691294670105 -0.3798449635505676 -0.4573643207550049
-0.9500744938850403 -0.3798449635505676 -0.4418604373931885
-0.9499594569206238 -0.3798449635505676 -0.42635661363601685
-0.9472701549530029 -0.3798449635505676 -0.41085273027420044
-0.9390603303909302 -0.3798449635505676 -0.3488371968269348
-0.9424288272857666 -0.3798449635505676 -0.3333333134651184
-0.9444717168807983 -0.3798449635505676 -0.317829430103302
-0.9454765319824219 -0.3798449635505676 -0.30232560634613037
-0.9463386535644531 -0.3798449635505676 -0.28682172298431396
-0.9468302726745605 -0.3798449635505676 -0.27131783962249756
-0.9468755722045898 -0.3798449635505676 -0.25581395626068115
-0.9465869069099426 -0.3798449635505676 -0.24031005799770355
-0.9458667635917664 -0.3798449635505676 -0.22480618953704834
-0.9446617364883423 -0.3798449635505676 -0.20930230617523193
-0.9429665803909302 -0.3798449635505676 -0.19379842281341553
-0.9412388801574707 -0.3798449635505676 -0.1782945990562439
-0.9400191307067871 -0.3798449635505676 -0.1627907156944275
-0.9400106072425842 -0.3798449635505676 -0.14728683233261108
-0.9397072196006775 -0.3798449635505676 -0.13178294897079468
-0.9398155212402344 -0.3798449635505676 -0.11627906560897827
-0.9425463676452637 -0.3798449635505676 -0.10077518224716187
-0.9439666271209717 -0.3798449635505676 -0.08527129888534546
-0.9431824684143066 -0.3798449635505676 -0.06976741552352905
-0.9505538940429688 -0.3643410801887512 -0.4728682041168213
-0.949743926525116 -0.3643410801887512 -0.4573643207550049
-0.9496564269065857 -0.3643410801887512 -0.4418604373931885
-0.9490780830383301 -0.3643410801887512 -0.42635661363601685
-0.940238356590271 -0.3643410801887512 -0.41085273027420044
-0.9426156282424927 -0.3643410801887512 -0.317829430103302
-0.9449670314788818 -0.3643410801887512 -0.30232560634613037
-0.9461138248443604 -0.3643410801887512 -0.28682172298431396
-0.946675181388855 -0.3643410801887512 -0.27131783962249756
-0.9466217160224915 -0.3643410801887512 -0.25581395626068115
-0.9460808634757996 -0.3643410801887512 -0.24031005799770355
-0.9448549747467041 -0.3643410801887512 -0.22480618953704834
-0.9432703256607056 -0.3643410801887512 -0.20930230617523193
-0.9419121146202087 -0.3643410801887512 -0.19379842281341553
-0.9410809278488159 -0.3643410801887512 -0.1782945990562439
-0.9410404562950134 -0.3643410801887512 -0.1627907156944275
-0.9415574073791504 -0.3643410801887512 -0.14728683233261108
-0.9413703680038452 -0.3643410801887512 -0.13178294897079468
-0.9412833452224731 -0.3643410801887512 -0.11627906560897827
-0.9436691403388977 -0.3643410801887512 -0.10077518224716187
-0.9451489448547363 -0.3643410801887512 -0.08527129888534546
-0.9445565938949585 -0.3643410801887512 -0.06976741552352905
-0.9388558268547058 -0.3643410801887512 -0.05426359176635742
-0.9507582783699036 -0.3488371968269348 -0.4728682041168213
-0.9498328566551208 -0.3488371968269348 -0.4573643207550049
-0.9497418999671936 -0.3488371968269348 -0.4418604373931885
-0.9491389989852905 -0.3488371968269348 -0.42635658383369446
-0.9386370182037354 -0.3488371968269348 -0.41085273027420044
-0.9433041214942932 -0.3488371968269348 -0.3333333134651184
-0.9464748501777649 -0.3488371968269348 -0.317829430103302
-0.9476382732391357 -0.3488371968269348 -0.30232560634613037
-0.9482115507125854 -0.3488371968269348 -0.28682172298431396
-0.9485299587249756 -0.3488371968269348 -0.27131783962249756
-0.9484083652496338 -0.3488371968269348 -0.25581395626068115
-0.9480047225952148 -0.3488371968269348 -0.24031007289886475
-0.9473271369934082 -0.3488371968269348 -0.22480617463588715
-0.946561872959137 -0.3488371968269348 -0.20930230617523193
-0.9461727142333984 -0.3488371968269348 -0.19379842281341553
-0.9459218978881836 -0.3488371968269348 -0.1782945990562439
-0.9460183382034302 -0.3488371968269348 -0.1627907156944275
-0.9462762475013733 -0.3488371968269348 -0.14728683233261108
-0.9461520910263062 -0.3488371968269348 -0.13178294897079468
-0.9459717273712158 -0.3488371968269348 -0.11627906560897827
-0.9470360279083252 -0.3488371968269348 -0.10077518224716187
-0.9481300711631775 -0.3488371968269348 -0.08527129888534546
-0.9477310180664062 -0.3488371968269348 -0.06976741552352905
-0.9437751770019531 -0.3488371968269348 -0.05426359176635742
-0.9507086277008057 -0.3333333134651184 -0.4728682041168213
-0.9496331810951233 -0.3333333134651184 -0.4573643207550049
-0.9494859576225281 -0.3333333134651184 -0.4418604373931885
-0.9487510919570923 -0.3333333134651184 -0.42635661363601685
-0.9417857527732849 -0.3333333134651184 -0.41085273027420044
-0.9419276714324951 -0.3333333134651184 -0.3643410801887512
-0.9460022449493408 -0.3333333134651184 -0.3488371968269348
-0.9472460746765137 -0.3333333134651184 -0.3333333134651184
-0.947763979434967 -0.3333333134651184 -0.317829430103302
-0.9480303525924683 -0.3333333134651184 -0.30232560634613037
-0.9483013153076172 -0.3333333134651184 -0.28682172298431396
-0.948480486869812 -0.3333333134651184 -0.27131783962249756
-0.9483710527420044 -0.3333333134651184 -0.25581395626068115
-0.948052167892456 -0.3333333134651184 -0.24031007289886475
-0.9476464986801147 -0.3333333134651184 -0.22480618953704834
-0.9473352432250977 -0.3333333134651184 -0.20930230617523193
-0.9471997022628784 -0.3333333134651184 -0.19379842281341553
-0.9470220804214478 -0.3333333134651184 -0.1782945990562439
-0.9469531774520874 -0.3333333134651184 -0.1627907156944275
-0.9470310211181641 -0.3333333134651184 -0.14728683233261108
-0.9468854069709778 -0.3333333134651184 -0.13178294897079468
-0.9466378688812256 -0.3333333134651184 -0.11627906560897827
-0.9472892880439758 -0.3333333134651184 -0.10077518224716187
-0.9484022855758667 -0.3333333134651184 -0.08527129888534546
-0.9478480815887451 -0.3333333134651184 -0.06976741552352905
-0.9438530206680298 -0.3333333134651184 -0.05426359176635742
-0.9380789995193481 -0.3333333134651184 -0.038759708404541016
-0.9380228519439697 -0.3333333134651184 0.007751941680908203
-0.9380742311477661 -0.3333333134651184 0.05426359176635742
-0.9382615089416504 -0.3333333134651184 0.06976747512817383
-0.9384335279464722 -0.3333333134651184 0.08527135848999023
-0.9389215111732483 -0.3333333134651184 0.10077524185180664
-0.9392051696777344 -0.3333333134651184 0.11627912521362305
-0.9387909770011902 -0.3333333134651184 0.1317828893661499
-0.9381933808326721 -0.3333333134651184 0.1472867727279663
-0.9504528045654297 -0.3178294003009796 -0.4728682041168213
-0.9493401050567627 -0.317829430103302 -0.4573643207550049
-0.9491356015205383 -0.317829430103302 -0.4418604373931885
-0.9481854438781738 -0.317829430103302 -0.42635661363601685
-0.9424527883529663 -0.317829430103302 -0.41085273027420044
-0.944489598274231 -0.317829430103302 -0.3643410801887512
-0.9464883804321289 -0.317829430103302 -0.3488371968269348
-0.9469456076622009 -0.317829430103302 -0.3333333134651184
-0.9470945596694946 -0.317829430103302 -0.317829430103302
-0.9471985697746277 -0.317829430103302 -0.30232560634613037
-0.9473430514335632 -0.317829430103302 -0.28682172298431396
-0.9474506378173828 -0.317829430103302 -0.27131783962249756
-0.9473844766616821 -0.317829430103302 -0.25581395626068115
-0.9471524953842163 -0.317829430103302 -0.24031007289886475
-0.9467837810516357 -0.317829430103302 -0.22480620443820953
-0.9465392231941223 -0.317829430103302 -0.20930230617523193
-0.9465019702911377 -0.317829430103302 -0.19379842281341553
-0.9463502168655396 -0.317829430103302 -0.1782945990562439
-0.9462750554084778 -0.317829430103302 -0.1627907156944275
-0.9463406801223755 -0.317829430103302 -0.14728683233261108
-0.9462693929672241 -0.317829430103302 -0.13178294897079468
-0.9459927082061768 -0.317829430103302 -0.11627906560897827
-0.9464358687400818 -0.317829430103302 -0.10077518224716187
-0.9475034475326538 -0.317829430103302 -0.08527129888534546
-0.9466081857681274 -0.317829430103302 -0.06976741552352905
-0.9417576789855957 -0.317829430103302 -0.05426359176635742
-0.9380347728729248 -0.317829430103302 0.05426359176635742
-0.9381435513496399 -0.317829430103302 0.06976747512817383
-0.9381668567657471 -0.317829430103302 0.08527135848999023
-0.9383101463317871 -0.317829430103302 0.10077524185180664
-0.9383054971694946 -0.317829430103302 0.11627912521362305
-0.9501595497131348 -0.30232560634613037 -0.4728682041168213
-0.9490917921066284 -0.30232560634613037 -0.4573642909526825
-0.9488528966903687 -0.30232560634613037 -0.4418604373931885
-0.947791576385498 -0.30232560634613037 -0.42635661363601685
-0.9422423839569092 -0.30232560634613037 -0.41085273027420044
-0.9387208819389343 -0.30232560634613037 -0.3798449635505676
-0.9440656900405884 -0.30232560634613037 -0.3643410801887512
-0.9461172819137573 -0.30232560634613037 -0.3488371968269348
-0.946308434009552 -0.30232560634613037 -0.3333333134651184
-0.9463256597518921 -0.30232560634613037 -0.317829430103302
-0.9464114904403687 -0.30232560634613037 -0.30232560634613037
-0.9465656280517578 -0.30232560634613037 -0.28682172298431396
-0.9467105865478516 -0.30232560634613037 -0.27131783962249756
-0.9466766119003296 -0.30232560634613037 -0.25581395626068115
-0.9464938044548035 -0.30232560634613037 -0.24031007289886475
-0.9462063312530518 -0.30232560634613037 -0.22480618953704834
-0.9460060596466064 -0.30232560634613037 -0.20930230617523193
-0.945968508720398 -0.30232560634613037 -0.19379842281341553
-0.9457986354827881 -0.30232560634613037 -0.1782945990562439
-0.9457665085792542 -0.30232560634613037 -0.1627907156944275
-0.9458990097045898 -0.30232560634613037 -0.14728683233261108
-0.945901095867157 -0.30232560634613037 -0.13178294897079468
-0.94564288854599 -0.30232560634613037 -0.11627906560897827
-0.9460066556930542 -0.30232560634613037 -0.10077518224716187
-0.9470335245132446 -0.30232560634613037 -0.08527129888534546
-0.9459365606307983 -0.30232560634613037 -0.06976741552352905
-0.9404547214508057 -0.30232560634613037 -0.05426359176635742
-0.949913501739502 -0.28682172298431396 -0.4728682041168213
-0.9489032030105591 -0.28682172298431396 -0.4573642909526825
-0.9486526250839233 -0.28682172298431396 -0.4418604373931885
-0.9476122260093689 -0.28682172298431396 -0.42635661363601685
-0.9422640800476074 -0.28682172298431396 -0.41085273027420044
-0.9386894702911377 -0.28682172298431396 -0.3798449635505676
-0.9435945749282837 -0.28682172298431396 -0.3643410801887512
-0.94556725025177 -0.28682172298431396 -0.3488371968269348
-0.9457257986068726 -0.28682172298431396 -0.3333333134651184
-0.9457813501358032 -0.28682172298431396 -0.317829430103302
-0.9459607601165771 -0.28682172298431396 -0.30232560634613037
-0.9461902379989624 -0.28682172298431396 -0.28682172298431396
-0.946375846862793 -0.28682172298431396 -0.27131783962249756
-0.9463514685630798 -0.28682172298431396 -0.25581395626068115
-0.9461578130722046 -0.28682172298431396 -0.24031007289886475
-0.9458845853805542 -0.28682172298431396 -0.22480618953704834
-0.9456813335418701 -0.28682172298431396 -0.20930230617523193
-0.9455841779708862 -0.28682172298431396 -0.19379842281341553
-0.9453786611557007 -0.28682172298431396 -0.1782945990562439
-0.9453738927841187 -0.28682172298431396 -0.1627907156944275
-0.9455475807189941 -0.28682172298431396 -0.14728683233261108
-0.9455664157867432 -0.28682172298431396 -0.13178294897079468
-0.945339024066925 -0.28682172298431396 -0.11627906560897827
-0.9457803964614868 -0.28682172298431396 -0.10077518224716187
-0.9469040036201477 -0.28682172298431396 -0.08527129888534546
-0.9457684755325317 -0.28682172298431396 -0.06976741552352905
-0.9399528503417969 -0.28682172298431396 -0.05426359176635742
-0.9497296810150146 -0.27131783962249756 -0.4728682041168213
-0.9487507343292236 -0.27131783962249756 -0.4573643207550049
-0.9484790563583374 -0.27131783962249756 -0.44186046719551086
-0.9475048780441284 -0.27131783962249756 -0.42635664343833923
-0.9423810839653015 -0.27131783962249756 -0.41085273027420044
-0.9388552308082581 -0.27131783962249756 -0.3798449635505676
-0.9433821439743042 -0.27131783962249756 -0.3643410801887512
-0.9452469348907471 -0.27131783962249756 -0.3488371968269348
-0.9454079270362854 -0.27131783962249756 -0.3333333134651184
-0.9454935193061829 -0.27131783962249756 -0.317829430103302
-0.9457732439041138 -0.27131783962249756 -0.30232560634613037
-0.9460954070091248 -0.27131783962249756 -0.28682172298431396
-0.9462902545928955 -0.27131783962249756 -0.27131783962249756
-0.9462631344795227 -0.27131783962249756 -0.25581395626068115
-0.9460488557815552 -0.27131783962249756 -0.24031007289886475
-0.9457570910453796 -0.27131783962249756 -0.22480618953704834
-0.9455432295799255 -0.27131783962249756 -0.20930230617523193
-0.9453905820846558 -0.27131783962249756 -0.19379842281341553
-0.9451595544815063 -0.27131783962249756 -0.1782945990562439
-0.9451866745948792 -0.27131783962249756 -0.1627907156944275
-0.9454081058502197 -0.27131783962249756 -0.14728683233261108
-0.9454208612442017 -0.27131783962249756 -0.13178294897079468
-0.9452012181282043 -0.27131783962249756 -0.11627906560897827
-0.9456847906112671 -0.27131783962249756 -0.10077518224716187
-0.9468665719032288 -0.27131783962249756 -0.08527129888534546
-0.9457497596740723 -0.27131783962249756 -0.06976741552352905
-0.9397760629653931 -0.27131783962249756 -0.05426359176635742
-0.9495038986206055 -0.25581395626068115 -0.4728682041168213
-0.9485582113265991 -0.25581395626068115 -0.4573643207550049
-0.9482710361480713 -0.25581395626068115 -0.4418604373931885
-0.9472867250442505 -0.25581395626068115 -0.42635661363601685
-0.9421303868293762 -0.25581395626068115 -0.41085273027420044
-0.9387401938438416 -0.25581395626068115 -0.3798449635505676
-0.9430809617042542 -0.25581395626068115 -0.3643410801887512
-0.9449549317359924 -0.25581395626068115 -0.3488371968269348
-0.9451214671134949 -0.25581395626068115 -0.3333333134651184
-0.9451791048049927 -0.25581395626068115 -0.317829430103302
-0.9455098509788513 -0.25581395626068115 -0.30232560634613037
-0.9459197521209717 -0.25581395626068115 -0.28682172298431396
-0.9461851119995117 -0.25581395626068115 -0.27131783962249756
-0.9462056756019592 -0.25581395626068115 -0.25581395626068115
-0.9459881782531738 -0.25581395626068115 -0.24031007289886475
-0.9456708431243896 -0.25581395626068115 -0.22480618953704834
-0.9454569816589355 -0.25581395626068115 -0.20930230617523193
-0.9452810287475586 -0.25581395626068115 -0.19379842281341553
-0.9450291395187378 -0.25581395626068115 -0.1782945990562439
-0.9450645446777344 -0.25581395626068115 -0.1627907156944275
-0.9453001022338867 -0.25581395626068115 -0.14728683233261108
-0.9452921748161316 -0.25581395626068115 -0.13178294897079468
-0.9450579881668091 -0.25581395626068115 -0.11627906560897827
-0.9455666542053223 -0.25581395626068115 -0.10077518224716187
-0.9468308687210083 -0.25581395626068115 -0.08527129888534546
-0.9457134008407593 -0.25581395626068115 -0.06976741552352905
-0.9394296407699585 -0.25581395626068115 -0.05426359176635742
-0.9492840766906738 -0.24031007289886475 -0.4728682041168213
-0.9483984708786011 -0.24031007289886475 -0.4573643207550049
-0.9481052160263062 -0.24031008780002594 -0.4418604373931885
-0.9470335245132446 -0.24031007289886475 -0.42635661363601685
-0.941723108291626 -0.24031007289886475 -0.41085273027420044
-0.9385179281234741 -0.24031007289886475 -0.3798449635505676
-0.9427400231361389 -0.24031007289886475 -0.3643410801887512
-0.9446198344230652 -0.24031007289886475 -0.3488371968269348
-0.9447898268699646 -0.24031007289886475 -0.3333333134651184
-0.9448207020759583 -0.24031007289886475 -0.317829430103302
-0.9451689720153809 -0.24031007289886475 -0.30232560634613037
-0.9456299543380737 -0.24031007289886475 -0.28682172298431396
-0.9459767937660217 -0.24031007289886475 -0.27131783962249756
-0.9460582137107849 -0.24031007289886475 -0.25581395626068115
-0.9458431005477905 -0.24031007289886475 -0.24031007289886475
-0.9455069303512573 -0.24031007289886475 -0.22480618953704834
-0.9453034400939941 -0.24031007289886475 -0.20930230617523193
-0.9451208114624023 -0.24031007289886475 -0.19379842281341553
-0.9448568820953369 -0.24031007289886475 -0.1782945990562439
-0.9448912739753723 -0.24031007289886475 -0.1627907156944275
-0.9451329708099365 -0.24031007289886475 -0.14728683233261108
-0.9451145529747009 -0.24031007289886475 -0.13178294897079468
-0.9448542594909668 -0.24031007289886475 -0.11627906560897827
-0.9453397989273071 -0.24031007289886475 -0.10077518224716187
-0.9466410875320435 -0.24031007289886475 -0.08527129888534546
-0.9454777240753174 -0.24031007289886475 -0.06976741552352905
-0.9387762546539307 -0.24031007289886475 -0.05426359176635742
-0.9491375684738159 -0.22480618953704834 -0.4728682041168213
-0.9482855796813965 -0.22480618953704834 -0.4573643207550049
-0.9480278491973877 -0.22480618953704834 -0.4418604373931885
-0.9469910860061646 -0.22480618953704834 -0.42635661363601685
-0.9420950412750244 -0.22480618953704834 -0.41085273027420044
-0.9390432834625244 -0.22480618953704834 -0.3798449635505676
-0.9429599642753601 -0.22480618953704834 -0.3643410801887512
-0.9447029829025269 -0.22480618953704834 -0.3488371968269348
-0.9448281526565552 -0.22480618953704834 -0.3333333134651184
-0.9448415637016296 -0.22480618953704834 -0.317829430103302
-0.9451792240142822 -0.22480618953704834 -0.30232560634613037
-0.9456537365913391 -0.22480618953704834 -0.28682172298431396
-0.946036159992218 -0.22480618953704834 -0.27131783962249756
-0.9461522698402405 -0.22480618953704834 -0.25581395626068115
-0.9459625482559204 -0.22480618953704834 -0.24031007289886475
-0.9456709623336792 -0.22480618953704834 -0.22480618953704834
-0.9454948902130127 -0.22480618953704834 -0.20930230617523193
-0.9453142881393433 -0.22480618953704834 -0.19379842281341553
-0.9450523853302002 -0.22480618953704834 -0.1782945990562439
-0.9450703859329224 -0.22480618953704834 -0.1627907156944275
-0.9453096389770508 -0.22480618953704834 -0.14728683233261108
-0.9452711343765259 -0.22480618953704834 -0.13178294897079468
-0.9449798464775085 -0.22480618953704834 -0.11627906560897827
-0.9454337954521179 -0.22480618953704834 -0.10077518224716187
-0.9467169046401978 -0.22480618953704834 -0.08527129888534546
-0.9455956220626831 -0.22480618953704834 -0.06976741552352905
-0.9390743374824524 -0.22480618953704834 -0.05426359176635742
-0.9490868449211121 -0.20930230617523193 -0.4728682041168213
-0.9482495188713074 -0.20930230617523193 -0.4573643207550049
-0.9480748176574707 -0.20930230617523193 -0.4418604373931885
-0.9472030401229858 -0.20930230617523193 -0.42635661363601685
-0.9429534077644348 -0.20930230617523193 -0.41085273027420044
-0.9399740695953369 -0.20930230617523193 -0.3798449635505676
-0.9438285827636719 -0.20930230617523193 -0.3643410801887512
-0.9454147815704346 -0.20930230617523193 -0.3488371968269348
-0.945541501045227 -0.20930230617523193 -0.3333333134651184
-0.9455835223197937 -0.20930230617523193 -0.317829430103302
-0.9458487629890442 -0.20930230617523193 -0.30232560634613037
-0.9462723731994629 -0.20930230617523193 -0.28682172298431396
-0.9466034770011902 -0.20930230617523193 -0.27131783962249756
-0.946674108505249 -0.20930230617523193 -0.25581395626068115
-0.9465218782424927 -0.20930230617523193 -0.24031007289886475
-0.9463261365890503 -0.20930230617523193 -0.22480618953704834
-0.9461613297462463 -0.20930230617523193 -0.20930230617523193
-0.9460011720657349 -0.20930230617523193 -0.19379842281341553
-0.9457564353942871 -0.20930230617523193 -0.1782945990562439
-0.9457406997680664 -0.20930230617523193 -0.1627907156944275
-0.9459596872329712 -0.20930230617523193 -0.14728683233261108
-0.9459090232849121 -0.20930230617523193 -0.13178294897079468
-0.9456072449684143 -0.20930230617523193 -0.11627906560897827
-0.9460501670837402 -0.20930230617523193 -0.10077518224716187
-0.9472733736038208 -0.20930230617523193 -0.08527129888534546
-0.9463024735450745 -0.20930230617523193 -0.06976741552352905
-0.9406726360321045 -0.20930230617523193 -0.05426359176635742
-0.9490779638290405 -0.19379842281341553 -0.4728682041168213
-0.948314905166626 -0.19379842281341553 -0.4573643207550049
-0.9481528401374817 -0.19379840791225433 -0.4418604075908661
-0.9472459554672241 -0.19379842281341553 -0.42635661363601685
-0.9428994655609131 -0.19379842281341553 -0.41085273027420044
-0.9393191933631897 -0.19379842281341553 -0.3798449635505676
-0.943604588508606 -0.19379842281341553 -0.3643410801887512
-0.9453333616256714 -0.19379842281341553 -0.3488371968269348
-0.9456563591957092 -0.19379842281341553 -0.3333333134651184
-0.9458383321762085 -0.19379842281341553 -0.317829430103302
-0.9461362361907959 -0.19379842281341553 -0.30232560634613037
-0.9465552568435669 -0.19379842281341553 -0.28682172298431396
-0.9468684196472168 -0.19379842281341553 -0.27131783962249756
-0.9469137191772461 -0.19379842281341553 -0.25581395626068115
-0.9467660188674927 -0.19379842281341553 -0.24031007289886475
-0.9465854167938232 -0.19379842281341553 -0.22480618953704834
-0.9464165568351746 -0.19379842281341553 -0.20930230617523193
-0.9462969303131104 -0.19379842281341553 -0.19379842281341553
-0.9460943937301636 -0.19379842281341553 -0.1782945990562439
-0.9460933208465576 -0.19379842281341553 -0.1627907156944275
-0.9463076591491699 -0.19379842281341553 -0.14728683233261108
-0.9462419748306274 -0.19379842281341553 -0.13178294897079468
-0.9459114074707031 -0.19379842281341553 -0.11627906560897827
-0.9463366270065308 -0.19379842281341553 -0.10077518224716187
-0.9475125074386597 -0.19379842281341553 -0.08527129888534546
-0.9465497136116028 -0.19379842281341553 -0.06976741552352905
-0.9411182403564453 -0.19379842281341553 -0.05426359176635742
-0.9379933476448059 -0.19379842281341553 0.1472867727279663
-0.9379969239234924 -0.19379842281341553 0.16279065608978271
-0.9491238594055176 -0.1782945990562439 -0.4728682041168213
-0.9483727216720581 -0.1782945990562439 -0.4573642909526825
-0.9481204748153687 -0.1782945990562439 -0.4418604373931885
-0.9469748735427856 -0.1782945990562439 -0.42635661363601685
-0.942406415939331 -0.1782945990562439 -0.41085273027420044
-0.9424206018447876 -0.1782945990562439 -0.3643410801887512
-0.94437575340271 -0.1782945990562439 -0.3488371968269348
-0.9449067115783691 -0.1782945990562439 -0.3333333134651184
-0.9452451467514038 -0.1782945990562439 -0.317829430103302
-0.9456871747970581 -0.1782945990562439 -0.30232560634613037
-0.9461528062820435 -0.1782945990562439 -0.28682172298431396
-0.9464892745018005 -0.1782945990562439 -0.27131783962249756
-0.9465503692626953 -0.1782945990562439 -0.25581395626068115
-0.946351170539856 -0.1782945990562439 -0.24031005799770355
-0.946113109588623 -0.1782945990562439 -0.22480618953704834
-0.9459672570228577 -0.1782945990562439 -0.20930230617523193
-0.9459171295166016 -0.1782945990562439 -0.19379842281341553
-0.9458029270172119 -0.1782945990562439 -0.1782945990562439
-0.9458901882171631 -0.1782945990562439 -0.1627907156944275
-0.9461401104927063 -0.1782945990562439 -0.14728683233261108
-0.946045994758606 -0.1782945990562439 -0.13178294897079468
-0.9456290006637573 -0.1782945990562439 -0.11627906560897827
-0.9459919929504395 -0.1782945990562439 -0.10077518224716187
-0.9471967816352844 -0.1782945990562439 -0.08527129888534546
-0.9461276531219482 -0.1782945990562439 -0.06976741552352905
-0.9402357339859009 -0.1782945990562439 -0.05426359176635742
-0.949082612991333 -0.1627907156944275 -0.4728682041168213
-0.9483187794685364 -0.1627907156944275 -0.45736435055732727
-0.9479514360427856 -0.1627907156944275 -0.4418604373931885
-0.9466903209686279 -0.1627907156944275 -0.42635661363601685
-0.9422312378883362 -0.1627907156944275 -0.41085273027420044
-0.9383092522621155 -0.1627907156944275 -0.3798449635505676
-0.9419536590576172 -0.1627907156944275 -0.3643410801887512
-0.9438665509223938 -0.1627907156944275 -0.3488371968269348
-0.9444106817245483 -0.1627907156944275 -0.3333333134651184
-0.9447473883628845 -0.1627907156944275 -0.317829430103302
-0.9452747106552124 -0.1627907156944275 -0.30232560634613037
-0.9457365870475769 -0.1627907156944275 -0.28682172298431396
-0.9460371732711792 -0.1627907156944275 -0.27131783962249756
-0.9460853338241577 -0.1627907156944275 -0.25581395626068115
-0.9458245635032654 -0.1627907156944275 -0.24031007289886475
-0.9455200433731079 -0.1627907156944275 -0.22480618953704834
-0.9454030394554138 -0.1627907156944275 -0.20930230617523193
-0.945385217666626 -0.1627907156944275 -0.19379842281341553
-0.9453026056289673 -0.1627907156944275 -0.1782945990562439
-0.9454745650291443 -0.1627907156944275 -0.1627907156944275
-0.9457848072052002 -0.1627907156944275 -0.14728683233261108
-0.9456862807273865 -0.1627907156944275 -0.13178294897079468
-0.9451799392700195 -0.1627907156944275 -0.11627906560897827
-0.9454134702682495 -0.1627907156944275 -0.10077518224716187
-0.9465662240982056 -0.1627907156944275 -0.08527129888534546
-0.9453513622283936 -0.1627907156944275 -0.06976741552352905
-0.9389822483062744 -0.1627907156944275 -0.05426359176635742
-0.9490668773651123 -0.14728683233261108 -0.4728682041168213
-0.9482408165931702 -0.14728683233261108 -0.4573643207550049
-0.9477812647819519 -0.14728683233261108 -0.4418604373931885
-0.9465229511260986 -0.14728683233261108 -0.42635661363601685
-0.9424312114715576 -0.14728683233261108 -0.41085273027420044
-0.9396752715110779 -0.14728683233261108 -0.3798449635505676
-0.9425858855247498 -0.14728683233261108 -0.3643410801887512
-0.9442968368530273 -0.14728683233261108 -0.3488371968269348
-0.9446322917938232 -0.14728683233261108 -0.3333333134651184
-0.9448302984237671 -0.14728683233261108 -0.317829430103302
-0.9453158378601074 -0.14728683233261108 -0.30232560634613037
-0.9457589387893677 -0.14728683233261108 -0.28682172298431396
-0.9460066556930542 -0.14728683233261108 -0.27131783962249756
-0.9459953308105469 -0.14728683233261108 -0.25581395626068115
-0.9457105398178101 -0.14728683233261108 -0.24031007289886475
-0.9454266428947449 -0.14728683233261108 -0.22480618953704834
-0.9453425407409668 -0.14728683233261108 -0.20930230617523193
-0.9453357458114624 -0.14728683233261108 -0.19379842281341553
-0.9452380537986755 -0.14728683233261108 -0.1782945990562439
-0.9454367756843567 -0.14728683233261108 -0.1627907156944275
-0.9457931518554688 -0.14728683233261108 -0.14728683233261108
-0.9457172155380249 -0.14728683233261108 -0.13178294897079468
-0.9451873898506165 -0.14728683233261108 -0.11627906560897827
-0.9453551173210144 -0.14728683233261108 -0.10077518224716187
-0.9464693069458008 -0.14728683233261108 -0.08527129888534546
-0.9451920986175537 -0.14728683233261108 -0.06976741552352905
-0.9387808442115784 -0.14728683233261108 -0.05426359176635742
-0.9489809274673462 -0.13178294897079468 -0.4728682041168213
-0.948073148727417 -0.13178294897079468 -0.4573643207550049
-0.9475299715995789 -0.13178294897079468 -0.4418604373931885
-0.9462628364562988 -0.13178294897079468 -0.42635661363601685
-0.9423074126243591 -0.13178294897079468 -0.41085273027420044
-0.939975917339325 -0.13178294897079468 -0.3798449635505676
-0.9428061842918396 -0.13178294897079468 -0.3643410801887512
-0.9443331956863403 -0.13178294897079468 -0.3488371968269348
-0.9445467591285706 -0.13178294897079468 -0.3333333134651184
-0.9447463750839233 -0.13178294897079468 -0.317829430103302
-0.9452699422836304 -0.13178294897079468 -0.30232560634613037
-0.9457350969314575 -0.13178294897079468 -0.28682172298431396
-0.9459658861160278 -0.13178294897079468 -0.27131783962249756
-0.9459038972854614 -0.13178294897079468 -0.25581395626068115
-0.9455934762954712 -0.13178294897079468 -0.24031007289886475
-0.9453145861625671 -0.13178294897079468 -0.22480618953704834
-0.9452285170555115 -0.13178294897079468 -0.20930230617523193
-0.9452108144760132 -0.13178294897079468 -0.19379842281341553
-0.9451181888580322 -0.13178294897079468 -0.1782945990562439
-0.9453462958335876 -0.13178294897079468 -0.1627907156944275
-0.9457415342330933 -0.13178294897079468 -0.14728683233261108
-0.9456893801689148 -0.13178294897079468 -0.13178294897079468
-0.9451770782470703 -0.13178294897079468 -0.11627906560897827
-0.945331335067749 -0.13178294897079468 -0.10077518224716187
-0.946430504322052 -0.13178294897079468 -0.08527129888534546
-0.945115327835083 -0.13178294897079468 -0.06976741552352905
-0.9386538863182068 -0.13178294897079468 -0.05426359176635742
-0.9488693475723267 -0.11627906560897827 -0.4728682041168213
-0.9478938579559326 -0.11627906560897827 -0.4573643207550049
-0.9473057985305786 -0.11627906560897827 -0.4418604373931885
-0.9459853172302246 -0.11627906560897827 -0.42635661363601685
-0.9419137835502625 -0.11627906560897827 -0.41085273027420044
-0.9395589828491211 -0.11627906560897827 -0.3798449635505676
-0.9424844980239868 -0.11627906560897827 -0.3643410801887512
-0.9440654516220093 -0.11627906560897827 -0.3488371968269348
-0.9443400502204895 -0.11627906560897827 -0.3333333134651184
-0.9446238279342651 -0.11627906560897827 -0.317829430103302
-0.9452083110809326 -0.11627906560897827 -0.30232560634613037
-0.9456964731216431 -0.11627906560897827 -0.28682172298431396
-0.9459306001663208 -0.11627906560897827 -0.27131783962249756
-0.9458496570587158 -0.11627906560897827 -0.25581395626068115
-0.9455310106277466 -0.11627906560897827 -0.24031007289886475
-0.9452410936355591 -0.11627906560897827 -0.22480618953704834
-0.9451333284378052 -0.11627906560897827 -0.20930230617523193
-0.9451004266738892 -0.11627906560897827 -0.19379842281341553
-0.9450176358222961 -0.11627906560897827 -0.1782945990562439
-0.9452458620071411 -0.11627906560897827 -0.1627907156944275
-0.945637047290802 -0.11627906560897827 -0.14728683233261108
-0.9455997943878174 -0.11627906560897827 -0.13178294897079468
-0.9451345205307007 -0.11627906560897827 -0.11627906560897827
-0.9453028440475464 -0.11627906560897827 -0.10077518224716187
-0.9463717937469482 -0.11627906560897827 -0.08527129888534546
-0.9449536204338074 -0.11627906560897827 -0.06976741552352905
-0.9381701350212097 -0.11627906560897827 -0.05426359176635742
-0.9486687183380127 -0.10077518224716187 -0.4728682041168213
-0.9476656317710876 -0.10077518224716187 -0.4573643207550049
-0.9470930099487305 -0.10077518224716187 -0.44186046719551086
-0.9457852840423584 -0.10077518224716187 -0.42635661363601685
-0.9416764378547668 -0.10077518224716187 -0.41085273027420044
-0.93934166431427 -0.10077518224716187 -0.3798449635505676
-0.9423041343688965 -0.10077518224716187 -0.3643410801887512
-0.9439356327056885 -0.10077518224716187 -0.3488371968269348
-0.9442615509033203 -0.10077518224716187 -0.3333333134651184
-0.9446108341217041 -0.10077518224716187 -0.317829430103302
-0.9452313184738159 -0.10077518224716187 -0.30232560634613037
-0.9457354545593262 -0.10077518224716187 -0.28682172298431396
-0.945976972579956 -0.10077518224716187 -0.27131783962249756
-0.945882260799408 -0.10077518224716187 -0.25581395626068115
-0.9455707669258118 -0.10077518224716187 -0.24031007289886475
-0.9452743530273438 -0.10077518224716187 -0.22480618953704834
-0.9451417326927185 -0.10077518224716187 -0.20930230617523193
-0.9450883865356445 -0.10077518224716187 -0.19379842281341553
-0.9450050592422485 -0.10077518224716187 -0.1782945990562439
-0.9452168941497803 -0.10077518224716187 -0.1627907156944275
-0.9455832242965698 -0.10077518224716187 -0.14728683233261108
-0.94557124376297 -0.10077518224716187 -0.13178294897079468
-0.9451795816421509 -0.10077518224716187 -0.11627906560897827
-0.945378839969635 -0.10077518224716187 -0.10077518224716187
-0.9464384317398071 -0.10077518224716187 -0.08527129888534546
-0.944948673248291 -0.10077518224716187 -0.06976741552352905
-0.9484719038009644 -0.08527129888534546 -0.4728682041168213
-0.9474700689315796 -0.08527129888534546 -0.4573643207550049
-0.9469636678695679 -0.08527129888534546 -0.44186046719551086
-0.9457635879516602 -0.08527129888534546 -0.42635661363601685
-0.9418256878852844 -0.08527129888534546 -0.41085273027420044
-0.939559817314148 -0.08527129888534546 -0.3798449635505676
-0.942371129989624 -0.08527129888534546 -0.3643410801887512
-0.9440206289291382 -0.08527129888534546 -0.3488371968269348
-0.9443689584732056 -0.08527129888534546 -0.3333333134651184
-0.9447606205940247 -0.08527129888534546 -0.317829430103302
-0.9454277157783508 -0.08527129888534546 -0.30232560634613037
-0.9459636211395264 -0.08527129888534546 -0.28682172298431396
-0.9462237358093262 -0.08527129888534546 -0.27131783962249756
-0.9461333751678467 -0.08527129888534546 -0.25581395626068115
-0.9458367824554443 -0.08527129888534546 -0.24031007289886475
-0.9455319046974182 -0.08527129888534546 -0.22480618953704834
-0.9453732967376709 -0.08527129888534546 -0.20930230617523193
-0.94528728723526 -0.08527129888534546 -0.19379842281341553
-0.9451843500137329 -0.08527129888534546 -0.1782945990562439
-0.9453725218772888 -0.08527129888534546 -0.1627907156944275
-0.9457098245620728 -0.08527129888534546 -0.14728683233261108
-0.9457179307937622 -0.08527129888534546 -0.13178294897079468
-0.9453868865966797 -0.08527129888534546 -0.11627906560897827
-0.9456208944320679 -0.08527129888534546 -0.10077518224716187
-0.9467125535011292 -0.08527129888534546 -0.08527129888534546
-0.9452179670333862 -0.08527129888534546 -0.06976741552352905
-0.9381256103515625 -0.08527129888534546 -0.05426359176635742
-0.9482465982437134 -0.06976741552352905 -0.4728682041168213
-0.9472312331199646 -0.06976741552352905 -0.4573643207550049
-0.9468190670013428 -0.06976741552352905 -0.4418604373931885
-0.9457749128341675 -0.06976741552352905 -0.42635661363601685
-0.9420211315155029 -0.06976741552352905 -0.41085273027420044
-0.9399248957633972 -0.06976741552352905 -0.3798449635505676
-0.9424892663955688 -0.06976741552352905 -0.3643410801887512
-0.9441107511520386 -0.06976741552352905 -0.3488371968269348
-0.9444645047187805 -0.06976741552352905 -0.3333333134651184
-0.9448713660240173 -0.06976741552352905 -0.317829430103302
-0.945556640625 -0.06976741552352905 -0.30232560634613037
-0.9461115598678589 -0.06976741552352905 -0.28682172298431396
-0.9463968873023987 -0.06976741552352905 -0.27131783962249756
-0.9463334679603577 -0.06976741552352905 -0.25581395626068115
-0.9460529088973999 -0.06976741552352905 -0.24031007289886475
-0.9457305669784546 -0.06976741552352905 -0.22480618953704834
-0.9455528855323792 -0.06976741552352905 -0.20930230617523193
-0.9454313516616821 -0.06976741552352905 -0.19379842281341553
-0.9452966451644897 -0.06976741552352905 -0.1782945990562439
-0.9454630613327026 -0.06976741552352905 -0.1627907156944275
-0.9457793235778809 -0.06976741552352905 -0.14728683233261108
-0.9458032846450806 -0.06976741552352905 -0.13178294897079468
-0.9455127716064453 -0.06976741552352905 -0.11627906560897827
-0.9458050727844238 -0.06976741552352905 -0.10077518224716187
-0.946986973285675 -0.06976741552352905 -0.08527129888534546
-0.945534348487854 -0.06976741552352905 -0.06976741552352905
-0.9383394718170166 -0.06976741552352905 -0.05426359176635742
-0.9479560852050781 -0.05426359176635742 -0.4728682041168213
-0.9469603300094604 -0.05426359176635742 -0.4573643207550049
-0.9466260671615601 -0.05426359176635742 -0.4418604373931885
-0.9457061886787415 -0.05426359176635742 -0.42635661363601685
-0.9420138597488403 -0.05426359176635742 -0.41085273027420044
-0.938017725944519 -0.05426359176635742 -0.39534884691238403
-0.9401236772537231 -0.05426359176635742 -0.3798449635505676
-0.9425395727157593 -0.05426359176635742 -0.3643410801887512
-0.9441672563552856 -0.05426359176635742 -0.3488371968269348
-0.9445376992225647 -0.05426359176635742 -0.3333333134651184
-0.9449375867843628 -0.05426359176635742 -0.317829430103302
-0.9456209540367126 -0.05426359176635742 -0.30232560634613037
-0.9461733102798462 -0.05426359176635742 -0.28682172298431396
-0.946479320526123 -0.05426359176635742 -0.27131783962249756
-0.9464507102966309 -0.05426359176635742 -0.25581395626068115
-0.9461638927459717 -0.05426359176635742 -0.24031007289886475
-0.9457933306694031 -0.05426359176635742 -0.22480618953704834
-0.9455990791320801 -0.05426359176635742 -0.20930230617523193
-0.9454495310783386 -0.05426359176635742 -0.19379842281341553
-0.9452861547470093 -0.05426359176635742 -0.1782945990562439
-0.945452094078064 -0.05426359176635742 -0.1627907156944275
-0.9457597732543945 -0.05426359176635742 -0.14728683233261108
-0.9457995891571045 -0.05426359176635742 -0.13178294897079468
-0.9455263614654541 -0.05426359176635742 -0.11627906560897827
-0.9458450675010681 -0.05426359176635742 -0.10077518224716187
-0.9470787048339844 -0.05426359176635742 -0.08527129888534546
-0.9456086158752441 -0.05426359176635742 -0.06976741552352905
-0.9476840496063232 -0.038759708404541016 -0.4728682041168213
-0.9467114210128784 -0.038759708404541016 -0.4573643207550049
-0.9464982748031616 -0.038759708404541016 -0.4418604373931885
-0.9457307457923889 -0.038759708404541016 -0.42635661363601685
-0.9422672390937805 -0.038759708404541016 -0.41085273027420044
-0.93853360414505 -0.038759708404541016 -0.39534884691238403
-0.9405707120895386 -0.038759708404541016 -0.3798449635505676
-0.9427841901779175 -0.038759708404541016 -0.3643410801887512
-0.9443628787994385 -0.038759708404541016 -0.3488371968269348
-0.9447503089904785 -0.038759708404541016 -0.3333333134651184
-0.9451466798782349 -0.038759708404541016 -0.317829430103302
-0.9458062052726746 -0.038759708404541016 -0.30232560634613037
-0.9463216066360474 -0.038759708404541016 -0.28682172298431396
-0.9466285705566406 -0.038759708404541016 -0.27131783962249756
-0.9465996026992798 -0.038759708404541016 -0.25581395626068115
-0.9462630748748779 -0.038759708404541016 -0.24031007289886475
-0.9458264112472534 -0.038759708404541016 -0.22480618953704834
-0.9456119537353516 -0.038759708404541016 -0.20930230617523193
-0.9454338550567627 -0.038759708404541016 -0.19379842281341553
-0.9452437162399292 -0.038759708404541016 -0.1782945990562439
-0.9454188346862793 -0.038759708404541016 -0.1627907156944275
-0.945728063583374 -0.038759708404541016 -0.14728683233261108
-0.94579017162323 -0.038759708404541016 -0.13178294897079468
-0.9455363750457764 -0.038759708404541016 -0.11627906560897827
-0.9459208846092224 -0.038759708404541016 -0.10077518224716187
-0.9472384452819824 -0.038759708404541016 -0.08527129888534546
-0.9457452297210693 -0.038759708404541016 -0.06976741552352905
-0.9475834965705872 -0.02325582504272461 -0.4728682041168213
-0.9467039108276367 -0.02325582504272461 -0.4573643207550049
-0.9466507434844971 -0.02325582504272461 -0.4418604373931885
-0.9460639953613281 -0.02325582504272461 -0.42635661363601685
-0.9429241418838501 -0.02325582504272461 -0.41085273027420044
-0.9395061135292053 -0.02325582504272461 -0.39534884691238403
-0.941426157951355 -0.02325582504272461 -0.3798449635505676
-0.9435780048370361 -0.02325582504272461 -0.3643410801887512
-0.9450278282165527 -0.02325582504272461 -0.3488371968269348
-0.9453380703926086 -0.02325582504272461 -0.3333333134651184
-0.9456905126571655 -0.02325582504272461 -0.317829430103302
-0.9462721943855286 -0.02325582504272461 -0.30232560634613037
-0.9467263221740723 -0.02325582504272461 -0.28682172298431396
-0.9470196962356567 -0.02325582504272461 -0.27131783962249756
-0.9469459056854248 -0.02325582504272461 -0.25581395626068115
-0.9465614557266235 -0.02325582504272461 -0.24031007289886475
-0.9461179971694946 -0.02325582504272461 -0.22480618953704834
-0.9458839893341064 -0.02325582504272461 -0.20930230617523193
-0.9457118511199951 -0.02325582504272461 -0.19379842281341553
-0.9455163478851318 -0.02325582504272461 -0.1782945990562439
-0.9456509351730347 -0.02325582504272461 -0.1627907156944275
-0.945933997631073 -0.02325582504272461 -0.14728683233261108
-0.946007490158081 -0.02325582504272461 -0.13178294897079468
-0.9458037614822388 -0.02325582504272461 -0.11627906560897827
-0.9464530944824219 -0.02325582504272461 -0.10077518224716187
-0.9479058980941772 -0.02325582504272461 -0.08527129888534546
-0.9465474486351013 -0.02325582504272461 -0.06976741552352905
-0.9387518167495728 -0.02325582504272461 -0.05426359176635742
-0.9476929903030396 -0.007751941680908203 -0.4728682041168213
-0.946851372718811 -0.007751941215246916 -0.4573643207550049
-0.9468815326690674 -0.007751941680908203 -0.4418604373931885
-0.9464033842086792 -0.007751941680908203 -0.42635661363601685
-0.9433559775352478 -0.007751941680908203 -0.41085273027420044
-0.939874529838562 -0.007751941680908203 -0.39534884691238403
-0.9418557286262512 -0.007751941680908203 -0.3798449635505676
-0.9443265199661255 -0.007751941680908203 -0.3643410801887512
-0.9456846714019775 -0.007751941680908203 -0.3488371968269348
-0.94591224193573 -0.007751941680908203 -0.3333333134651184
-0.9461883306503296 -0.007751941680908203 -0.317829430103302
-0.9466454982757568 -0.007751941680908203 -0.30232560634613037
-0.9470213651657104 -0.007751941680908203 -0.28682172298431396
-0.9472623467445374 -0.007751941680908203 -0.27131783962249756
-0.9471485018730164 -0.007751941680908203 -0.25581395626068115
-0.9467706680297852 -0.007751941680908203 -0.24031007289886475
-0.9463680982589722 -0.007751941680908203 -0.22480618953704834
-0.946122407913208 -0.007751941680908203 -0.20930230617523193
-0.9459697008132935 -0.007751941680908203 -0.19379842281341553
-0.9457488059997559 -0.007751941680908203 -0.1782945990562439
-0.9457738399505615 -0.007751941680908203 -0.1627907156944275
-0.94600510597229 -0.007751941680908203 -0.14728683233261108
-0.9460518956184387 -0.007751941680908203 -0.13178294897079468
-0.945857048034668 -0.007751941680908203 -0.11627906560897827
-0.9466643929481506 -0.007751941680908203 -0.10077518224716187
-0.9480908513069153 -0.007751941680908203 -0.08527129888534546
-0.9468767642974854 -0.007751941680908203 -0.06976741552352905
-0.9398700594902039 -0.007751941680908203 -0.05426359176635742
-0.9380691051483154 -0.007751941680908203 0.17829453945159912
-0.9479959607124329 0.007751941680908203 -0.4728682041168213
-0.9471043348312378 0.007751941680908203 -0.45736435055732727
-0.9470584392547607 0.007751941680908203 -0.4418604075908661
-0.9464638829231262 0.007751941680908203 -0.42635661363601685
-0.9429963827133179 0.007751941680908203 -0.41085273027420044
-0.938652753829956 0.007751941680908203 -0.39534884691238403
-0.9408787488937378 0.007751941680908203 -0.3798449635505676
-0.9437915086746216 0.007751941680908203 -0.3643410801887512
-0.9454147815704346 0.007751941680908203 -0.3488371968269348
-0.9458339810371399 0.007751941680908203 -0.3333333134651184
-0.946180522441864 0.007751941680908203 -0.317829430103302
-0.9466207027435303 0.007751941680908203 -0.30232560634613037
-0.9469814300537109 0.007751941680908203 -0.28682172298431396
-0.9472039937973022 0.007751941680908203 -0.27131783962249756
-0.9470878839492798 0.007751941680908203 -0.25581395626068115
-0.9466946125030518 0.00775194214656949 -0.24031007289886475
-0.9462741613388062 0.007751941680908203 -0.22480618953704834
-0.9460285902023315 0.007751941680908203 -0.20930230617523193
-0.9459083080291748 0.007751941680908203 -0.19379842281341553
-0.9457032680511475 0.007751941680908203 -0.1782945990562439
-0.9457005858421326 0.007751941680908203 -0.1627907156944275
-0.9459190368652344 0.007751941680908203 -0.14728683233261108
-0.9459319710731506 0.007751941680908203 -0.13178294897079468
-0.9457031488418579 0.007751941680908203 -0.11627906560897827
-0.9465674161911011 0.007751941680908203 -0.10077518224716187
-0.9480463266372681 0.007751941215246916 -0.08527129888534546
-0.9468392133712769 0.007751941680908203 -0.06976741552352905
-0.9397597908973694 0.007751941680908203 -0.05426359176635742
-0.9380238652229309 0.007751941680908203 0.1472867727279663
-0.9485517740249634 0.02325582504272461 -0.4728682041168213
-0.9476200342178345 0.02325582504272461 -0.4573643207550049
-0.9474526047706604 0.02325582504272461 -0.4418604373931885
-0.946536660194397 0.02325582504272461 -0.42635661363601685
-0.9423260688781738 0.02325582504272461 -0.41085273027420044
-0.9391646385192871 0.02325582504272461 -0.3798449635505676
-0.9426136016845703 0.02325582504272461 -0.3643410801887512
-0.9446804523468018 0.02325582504272461 -0.3488371968269348
-0.9453786611557007 0.02325582504272461 -0.3333333134651184
-0.945880651473999 0.02325582504272461 -0.317829430103302
-0.9464355111122131 0.02325582504272461 -0.30232560634613037
-0.9468178749084473 0.02325582504272461 -0.28682172298431396
-0.9470270872116089 0.02325582504272461 -0.27131783962249756
-0.9469224214553833 0.02325582504272461 -0.25581395626068115
-0.9464648962020874 0.02325582504272461 -0.24031007289886475
-0.9459498524665833 0.02325582504272461 -0.22480618953704834
-0.9457043409347534 0.02325582504272461 -0.20930230617523193
-0.9456400871276855 0.02325582504272461 -0.19379842281341553
-0.9455125331878662 0.02325582504272461 -0.1782945990562439
-0.9455753564834595 0.02325582504272461 -0.1627907156944275
-0.9458194971084595 0.02325582504272461 -0.14728683233261108
-0.945799708366394 0.02325582504272461 -0.13178294897079468
-0.9455063343048096 0.02325582504272461 -0.11627906560897827
-0.9462754726409912 0.02325582504272461 -0.10077518224716187
-0.9478274583816528 0.02325582504272461 -0.08527129888534546
-0.9465379118919373 0.02325582504272461 -0.06976741552352905
-0.9390513896942139 0.02325582504272461 -0.05426359176635742
-0.9489433169364929 0.038759708404541016 -0.4728682041168213
-0.9479753971099854 0.038759708404541016 -0.4573643207550049
-0.9477018117904663 0.038759708404541016 -0.4418604373931885
-0.9464855194091797 0.038759708404541016 -0.42635661363601685
-0.9414550065994263 0.038759708404541016 -0.41085273027420044
-0.9385267496109009 0.038759708404541016 -0.3798449635505676
-0.9420198202133179 0.038759708404541016 -0.3643410801887512
-0.944241464138031 0.038759708404541016 -0.3488371968269348
-0.9449383020401001 0.038759708404541016 -0.3333333134651184
-0.9453932046890259 0.038759708404541016 -0.317829430103302
-0.9460042715072632 0.038759708404541016 -0.30232560634613037
-0.9464403986930847 0.038759708404541016 -0.28682172298431396
-0.9466661810874939 0.038759708404541016 -0.27131783962249756
-0.9465655088424683 0.038759708404541016 -0.25581395626068115
-0.9460440874099731 0.038759708404541016 -0.24031007289886475
-0.9454295635223389 0.038759708404541016 -0.22480618953704834
-0.945173978805542 0.038759708404541016 -0.20930230617523193
