0.5813953876495361 -0.25581395626068115 -0.5369887351989746
0.5813953876495361 -0.25581395626068115 -0.21867798268795013
0.5813953876495361 -0.25581395626068115 -0.1403208076953888
0.5813953876495361 -0.25581395626068115 -0.030713647603988647
0.5813953876495361 -0.25581395626068115 0.254605233669281
0.5813953876495361 -0.25581395626068115 0.4161616563796997
0.5813953876495361 -0.25581395626068115 0.43991100788116455
0.5813953876495361 -0.25581395626068115 0.5374712944030762
0.5813953876495361 -0.25581395626068115 0.5830649137496948
0.5813953876495361 -0.24031007289886475 -0.5797099471092224
0.5813953876495361 -0.24031007289886475 -0.5364947319030762
0.5813953876495361 -0.24031007289886475 -0.21884292364120483
0.5813953876495361 -0.24031007289886475 -0.13897675275802612
0.5813953876495361 -0.24031007289886475 -0.035526685416698456
0.5813953876495361 -0.24031007289886475 0.2570379078388214
0.5813953876495361 -0.24031007289886475 0.4102429747581482
0.5813953876495361 -0.24031007289886475 0.4485713541507721
0.5813953876495361 -0.24031008780002594 0.535343587398529
0.5813953876495361 -0.24031007289886475 0.5832864046096802
0.5813953876495361 -0.22480618953704834 -0.5798656940460205
0.5813953876495361 -0.22480618953704834 -0.5346923470497131
0.5813953876495361 -0.22480618953704834 -0.21910181641578674
0.5813953876495361 -0.22480618953704834 -0.13822367787361145
0.5813953876495361 -0.22480618953704834 -0.042213596403598785
0.5813953876495361 -0.22480618953704834 0.2582138180732727
0.5813953876495361 -0.22480618953704834 0.4090160131454468
0.5813953876495361 -0.22480618953704834 0.45842480659484863
0.5813953876495361 -0.22480618953704834 0.5317273736000061
0.5813953876495361 -0.22480620443820953 0.5834882259368896
0.5813953876495361 -0.20930230617523193 -0.5799498558044434
0.5813953876495361 -0.20930232107639313 -0.5336449146270752
0.5813953876495361 -0.20930230617523193 -0.21871225535869598
0.5813953876495361 -0.20930230617523193 -0.13810878992080688
0.5813953876495361 -0.20930230617523193 -0.04460334777832031
0.5813953876495361 -0.20930232107639313 0.2559676766395569
0.5813953876495361 -0.20930230617523193 0.411995530128479
0.5813953876495361 -0.20930230617523193 0.45890939235687256
0.5813953876495361 -0.20930230617523193 0.530142605304718
0.5813953876495361 -0.20930230617523193 0.5835007429122925
0.5813953876495361 -0.19379842281341553 -0.5802563428878784
0.5813953876495361 -0.19379843771457672 -0.5332205295562744
0.5813953876495361 -0.19379842281341553 -0.2166672945022583
0.5813953876495361 -0.19379842281341553 -0.13967299461364746
0.5813953876495361 -0.19379842281341553 -0.02861800044775009
0.5813953876495361 -0.19379842281341553 0.241423100233078
0.5813953876495361 -0.19379842281341553 0.532180905342102
0.5813953876495361 -0.19379840791225433 0.5834947228431702
0.5813953876495361 -0.1782945990562439 -0.5804690718650818
0.5813953876495361 -0.1782945990562439 -0.533097505569458
0.5813953876495361 -0.1782945990562439 -0.2154066264629364
0.5813953876495361 -0.1782945990562439 -0.1403585970401764
0.5813953876495361 -0.1782945990562439 -0.01769440807402134
0.5813953876495361 -0.1782946139574051 0.2283068299293518
0.5813953876495361 -0.1782945990562439 0.5344805717468262
0.5813953876495361 -0.1782945990562439 0.5834699869155884
0.5813953876495361 -0.16279073059558868 -0.5806483030319214
0.5813953876495361 -0.1627907156944275 -0.5329714417457581
0.5813953876495361 -0.1627907156944275 -0.2157396376132965
0.5813953876495361 -0.1627907156944275 -0.1393982321023941
0.5813953876495361 -0.1627907156944275 -0.02098555490374565
0.5813953876495361 -0.1627907156944275 0.22680774331092834
0.5813953876495361 -0.1627907156944275 0.5351725220680237
0.5813953876495361 -0.1627907156944275 0.5834629535675049
0.5813953876495361 -0.14728683233261108 -0.5807994604110718
0.5813953876495361 -0.14728683233261108 -0.5331505537033081
0.5813953876495361 -0.14728683233261108 -0.2161201685667038
0.5813953876495361 -0.14728683233261108 -0.1384720653295517
0.5813953876495361 -0.14728683233261108 -0.02386755309998989
0.5813953876495361 -0.14728683233261108 0.22766786813735962
0.5813953876495361 -0.14728683233261108 0.5345707535743713
0.5813953876495361 -0.14728683233261108 0.583541750907898
0.5813953876495361 -0.13178294897079468 -0.5809198021888733
0.5813953876495361 -0.13178294897079468 -0.5340569019317627
0.5813953876495361 -0.13178294897079468 -0.21598602831363678
0.5813953876495361 -0.13178294897079468 -0.13821756839752197
0.5813953876495361 -0.13178294897079468 -0.024046707898378372
0.5813953876495361 -0.13178294897079468 0.22862006723880768
0.5813953876495361 -0.13178294897079468 0.5335083603858948
0.5813953876495361 -0.13178294897079468 0.5835105180740356
0.5813953280448914 -0.11627906560897827 -0.5810096859931946
0.5813953876495361 -0.11627906560897827 -0.5351441502571106
0.5813953876495361 -0.11627906560897827 -0.21576017141342163
0.5813953876495361 -0.11627906560897827 -0.13826905190944672
0.5813953876495361 -0.11627906560897827 -0.022112274542450905
0.5813953876495361 -0.11627907305955887 0.2288210093975067
0.5813953876495361 -0.11627906560897827 0.5321941375732422
0.5813953876495361 -0.11627906560897827 0.5835093855857849
0.5813953876495361 -0.10077518224716187 -0.5809705853462219
0.5813953876495361 -0.10077518224716187 -0.5368515849113464
0.5813953876495361 -0.10077518224716187 -0.21581147611141205
0.5813953876495361 -0.10077518224716187 -0.13840948045253754
0.5813953876495361 -0.10077518224716187 -0.023443423211574554
0.5813953876495361 -0.10077518224716187 0.23218922317028046
0.5813953876495361 -0.10077518224716187 0.5307625532150269
0.5813953876495361 -0.10077518224716187 0.583538830280304
0.5813953876495361 -0.08527129888534546 -0.5810019373893738
0.5813953876495361 -0.08527129888534546 -0.5372989177703857
0.5813953876495361 -0.08527129888534546 -0.21625381708145142
0.5813953876495361 -0.08527129888534546 -0.13809674978256226
0.5813953876495361 -0.08527129888534546 -0.03042953461408615
0.5813953876495361 -0.08527129888534546 0.23750795423984528
0.5813953876495361 -0.08527129888534546 0.5293578505516052
0.5813953876495361 -0.08527129888534546 0.5835750102996826
0.5813953876495361 -0.06976741552352905 -0.5810680389404297
0.5813953876495361 -0.06976741552352905 -0.5374163389205933
0.5813953876495361 -0.06976741552352905 -0.21683602035045624
0.5813953876495361 -0.06976741552352905 -0.13734664022922516
0.5813953876495361 -0.06976741552352905 -0.03995979577302933
0.5813953876495361 -0.06976741552352905 0.24221429228782654
0.5813953876495361 -0.06976741552352905 0.5276675224304199
0.5813953876495361 -0.06976741552352905 0.5836177468299866
0.5813953876495361 -0.05426359176635742 -0.5811546444892883
0.5813953876495361 -0.05426359176635742 -0.5372337102890015
0.5813953876495361 -0.05426359176635742 -0.21743261814117432
0.5813953876495361 -0.05426359176635742 -0.13648852705955505
0.5813953876495361 -0.05426359176635742 -0.044482070952653885
0.5813953876495361 -0.05426358804106712 0.24319705367088318
0.5813953876495361 -0.05426359176635742 0.5244462490081787
0.5813953876495361 -0.05426359176635742 0.583727240562439
0.5813953876495361 -0.038759708404541016 -0.581232488155365
0.5813953876495361 -0.038759708404541016 -0.5364854335784912
0.5813953876495361 -0.038759708404541016 -0.21748843789100647
0.5813953876495361 -0.038759708404541016 -0.13643892109394073
0.5813953876495361 -0.038759708404541016 -0.04038091376423836
0.5813953876495361 -0.038759708404541016 0.2387062907218933
0.5813953876495361 -0.038759708404541016 0.520453155040741
0.5813953876495361 -0.038759708404541016 0.5836799144744873
0.5813953876495361 -0.02325582504272461 -0.5812496542930603
0.5813953876495361 -0.02325582504272461 -0.5346903204917908
0.5813953876495361 -0.02325582504272461 -0.21741148829460144
0.5813953876495361 -0.02325582504272461 -0.13683485984802246
0.5813953876495361 -0.02325582504272461 -0.03791257366538048
0.5813953876495361 -0.02325582504272461 0.2388189136981964
0.5813953876495361 -0.02325582690536976 0.4308483600616455
0.5813953876495361 -0.02325582504272461 0.48747456073760986
0.5813953876495361 -0.02325582318007946 0.5085034370422363
0.5813953876495361 -0.02325582504272461 0.5836961269378662
0.5813953876495361 -0.00775194214656949 -0.581148624420166
0.5813953876495361 -0.007751941680908203 -0.5340213179588318
0.5813953876495361 -0.007751941680908203 -0.21774843335151672
0.5813953876495361 -0.007751941680908203 -0.13688217103481293
0.5813953876495361 -0.007751941680908203 -0.045774202793836594
0.5813953876495361 -0.007751941680908203 0.2458418905735016
0.5813953876495361 -0.007751941680908203 0.42587268352508545
0.5813953876495361 -0.007751941215246916 0.5837075114250183
0.5813953876495361 0.007751941680908203 -0.5810927152633667
0.5813953876495361 0.00775194214656949 -0.5344098210334778
0.5813953876495361 0.007751941680908203 -0.2169899046421051
0.5813953876495361 0.007751941680908203 -0.1380738914012909
0.5813953876495361 0.007751941680908203 -0.03176085650920868
0.5813953876495361 0.007751941680908203 0.23791342973709106
0.5813953876495361 0.007751941680908203 0.47244223952293396
0.5813953876495361 0.007751941680908203 0.4729899764060974
0.5813953280448914 0.007751941215246916 0.5196176767349243
0.5813953876495361 0.007751941680908203 0.5835568308830261
0.5813953876495361 0.02325582504272461 -0.5810065865516663
0.5813953876495361 0.02325582504272461 -0.5368629693984985
0.5813953876495361 0.02325582504272461 -0.21613340079784393
0.5813953876495361 0.02325582504272461 -0.13954675197601318
0.5813953876495361 0.02325582504272461 -0.0095592075958848
0.5813953876495361 0.02325582690536976 0.07127968221902847
0.5813953876495361 0.02325582504272461 0.19247576594352722
0.5813953876495361 0.02325582504272461 0.21553556621074677
0.5813953876495361 0.02325582504272461 0.5301569700241089
0.5813953280448914 0.02325582504272461 0.5834072828292847
0.5813953876495361 0.038759708404541016 -0.580935537815094
0.5813953876495361 0.038759708404541016 -0.5377853512763977
0.5813953876495361 0.038759708404541016 -0.21606579422950745
0.5813953876495361 0.038759708404541016 -0.14003127813339233
0.5813953876495361 0.038759708404541016 -0.000941071892157197
0.5813953876495361 0.038759708404541016 0.02851415053009987
0.5813953876495361 0.038759708404541016 0.5366330742835999
0.5813953876495361 0.038759708404541016 0.5834105014801025
0.5813953876495361 0.05426358804106712 -0.5810797214508057
0.5813953876495361 0.05426359176635742 -0.5385545492172241
0.5813953876495361 0.05426359176635742 -0.2155206799507141
0.5813953876495361 0.05426359176635742 -0.14057189226150513
0.5813953876495361 0.05426359176635742 0.5407342910766602
0.5813953876495361 0.05426359176635742 0.5834985971450806
0.5813953876495361 0.06976747512817383 -0.5811527371406555
0.5813953876495361 0.06976747512817383 -0.5402730107307434
0.5813953876495361 0.06976747512817383 -0.2144095003604889
0.5813953876495361 0.06976747512817383 -0.14158912003040314
0.5813953876495361 0.06976747512817383 0.5431718230247498
0.5813953876495361 0.06976747512817383 0.5835027098655701
0.5813953876495361 0.08527135848999023 -0.581046998500824
0.5813953876495361 0.08527135848999023 -0.5424164533615112
0.5813953876495361 0.08527135848999023 -0.21304485201835632
0.5813953876495361 0.08527135848999023 -0.14280849695205688
0.5813953876495361 0.08527135848999023 0.5445727705955505
0.5813953876495361 0.08527135103940964 0.5834654569625854
0.5813953876495361 0.10077524930238724 -0.5810996890068054
0.5813953876495361 0.10077524185180664 -0.54414963722229
0.5813953876495361 0.10077524185180664 -0.2112397402524948
0.5813953876495361 0.10077524185180664 -0.14429856836795807
0.5813953876495361 0.10077524185180664 0.5458115339279175
0.5813953876495361 0.10077524185180664 0.5834335684776306
0.5813953876495361 0.11627912521362305 -0.5811562538146973
0.5813953876495361 0.11627912521362305 -0.5454114675521851
0.5813953876495361 0.11627912521362305 -0.20933735370635986
0.5813953876495361 0.11627912521362305 -0.14604546129703522
0.5813953876495361 0.11627912521362305 0.5468142032623291
0.5813953876495361 0.11627912521362305 0.5834082365036011
0.5813953280448914 0.1317828893661499 -0.5810847878456116
0.5813953876495361 0.1317828893661499 -0.54632967710495
0.5813953876495361 0.1317828893661499 -0.20514215528964996
0.5813953876495361 0.1317828893661499 -0.14934496581554413
0.5813953876495361 0.1317828893661499 0.5475099682807922
0.5813953876495361 0.1317828893661499 0.5833958387374878
0.5813953876495361 0.14728675782680511 -0.5808961987495422
0.5813953876495361 0.1472867727279663 -0.5468515753746033
0.5813953876495361 0.1472867727279663 -0.20190297067165375
0.5813953876495361 0.1472867727279663 -0.15397587418556213
0.5813953876495361 0.1472867727279663 0.5477633476257324
0.5813953876495361 0.1472867727279663 0.5834279656410217
0.5813953876495361 0.16279065608978271 -0.5808444023132324
0.5813953876495361 0.16279065608978271 -0.547145426273346
0.5813953876495361 0.16279065608978271 -0.19921167194843292
0.5813953876495361 0.16279065608978271 -0.15749628841876984
0.5813953876495361 0.16279065608978271 0.5477291345596313
0.5813953876495361 0.16279065608978271 0.5834211707115173
0.5813953876495361 0.17829453945159912 -0.5807151794433594
0.5813953876495361 0.17829453945159912 -0.547301173210144
0.5813953876495361 0.17829453945159912 -0.19723542034626007
0.5813953876495361 0.17829453945159912 -0.15974925458431244
0.5813953876495361 0.17829453945159912 0.5475423336029053
0.5813953876495361 0.17829455435276031 0.583325982093811
0.5813953876495361 0.19379840791225433 -0.5805664658546448
0.5813953876495361 0.19379842281341553 -0.5474725961685181
0.5813953876495361 0.19379842281341553 -0.19546373188495636
0.5813953876495361 0.19379842281341553 -0.16150540113449097
0.5813953876495361 0.19379842281341553 0.5477662086486816
0.5813953876495361 0.19379842281341553 0.5832446813583374
0.5813953876495361 0.20930230617523193 -0.5803577303886414
0.5813953876495361 0.20930230617523193 -0.5475959777832031
0.5813953280448914 0.20930229127407074 -0.19373737275600433
0.5813953876495361 0.20930230617523193 -0.16332878172397614
0.5813953876495361 0.20930230617523193 0.5481970310211182
0.5813953876495361 0.20930230617523193 0.583157479763031
0.5813953876495361 0.22480618953704834 -0.580119788646698
0.5813953876495361 0.22480618953704834 -0.5478077530860901
0.5813953876495361 0.22480618953704834 -0.18814751505851746
0.5813953876495361 0.22480618953704834 -0.1685342788696289
0.5813953876495361 0.22480618953704834 0.5483756065368652
0.5813953876495361 0.22480618953704834 0.5829961895942688
0.5813953876495361 0.24031008780002594 -0.5799537897109985
0.5813953876495361 0.24031007289886475 -0.5479748249053955
0.5813953876495361 0.24031007289886475 -0.1843588948249817
0.5813953876495361 0.24031007289886475 -0.17258016765117645
0.5813953876495361 0.24031007289886475 0.5478742718696594
0.5813953876495361 0.24031007289886475 0.5828362107276917
0.5813953876495361 0.25581395626068115 -0.5796421766281128
0.5813953876495361 0.25581395626068115 -0.548305869102478
0.5813953876495361 0.25581395626068115 -0.18133176863193512
0.5813953876495361 0.25581395626068115 -0.17550106346607208
0.5813953876495361 0.25581395626068115 0.5471624732017517
0.5813953876495361 0.25581395626068115 0.5826655626296997
0.5813953876495361 0.27131783962249756 -0.5794196128845215
0.5813953876495361 0.27131783962249756 -0.5487664341926575
0.5813953876495361 0.27131783962249756 -0.17843033373355865
0.5813953876495361 0.27131783962249756 -0.1781720519065857
0.5813953876495361 0.27131783962249756 0.5461273193359375
0.5813953876495361 0.27131783962249756 0.5825522541999817
0.5813953876495361 0.28682172298431396 -0.5792490243911743
0.5813953876495361 0.28682172298431396 -0.5491293668746948
0.5813953876495361 0.28682172298431396 0.5443708300590515
0.5813953876495361 0.28682172298431396 0.5824929475784302
0.5813953876495361 0.30232560634613037 -0.5791548490524292
0.5813953876495361 0.30232560634613037 -0.549313485622406
0.5813953876495361 0.30232560634613037 0.5399899482727051
0.5813954472541809 0.30232560634613037 0.5823957324028015
0.5813953876495361 0.3178294897079468 -0.5790604948997498
0.5813953876495361 0.3178294897079468 -0.5492451190948486
0.5813953876495361 0.3178294897079468 0.49882376194000244
0.5813953876495361 0.3178294897079468 0.5824084877967834
0.5813953876495361 0.3333333730697632 -0.5789388418197632
0.5813953876495361 0.3333333730697632 -0.5491136908531189
0.5813953876495361 0.3333333730697632 -0.1797531545162201
0.5813953876495361 0.3333333730697632 -0.17723795771598816
0.5813953876495361 0.3333333730697632 0.4690966308116913
0.5813953876495361 0.3333333730697632 0.582430899143219
0.5813953876495361 0.3488372564315796 -0.5787109136581421
0.5813953876495361 0.3488372564315796 -0.5484116077423096
0.5813953876495361 0.3488372564315796 -0.19156934320926666
0.5813953876495361 0.3488372564315796 -0.1709115207195282
0.5813953876495361 0.3488372564315796 0.455346018075943
0.5813953876495361 0.3488372564315796 0.5823884010314941
0.5813953876495361 0.364341139793396 -0.5782337784767151
0.5813953876495361 0.364341139793396 -0.5450640320777893
0.5813953876495361 0.364341139793396 -0.2177906632423401
0.5813953876495361 0.364341139793396 -0.15341080725193024
0.5813953876495361 0.364341139793396 -0.12311411648988724
0.5813953876495361 0.364341139793396 0.31135988235473633
0.5813953876495361 0.364341139793396 0.35431015491485596
0.5813953876495361 0.364341139793396 0.5823578834533691
0.5813953876495361 0.37984490394592285 -0.5777345299720764
0.5813953876495361 0.37984490394592285 -0.4492495059967041
0.5813953876495361 0.37984490394592285 -0.3115274906158447
0.5813953876495361 0.37984490394592285 0.5822899341583252
0.5813953876495361 0.39534878730773926 -0.5781769752502441
0.5813953876495361 0.39534878730773926 0.4409696161746979
0.5813953876495361 0.39534878730773926 0.5039684772491455
0.5813953876495361 0.39534878730773926 0.5820337533950806
0.5813953876495361 0.41085267066955566 -0.5801881551742554
0.5813953876495361 0.41085267066955566 -0.5344470739364624
0.5813953876495361 0.41085270047187805 -0.19363228976726532
0.5813953876495361 0.41085270047187805 -0.16170798242092133
0.5813953876495361 0.41085267066955566 0.558682918548584
0.5813953876495361 0.41085267066955566 0.5817524194717407
0.5813953876495361 0.42635655403137207 -0.5689807534217834
0.5813953876495361 0.42635655403137207 -0.5627464056015015
0.5813953876495361 0.42635655403137207 0.5629417896270752
0.5813954472541809 0.42635655403137207 0.5822301506996155
0.5813953876495361 0.4418604373931885 0.5622321367263794
0.5813953876495361 0.4418604373931885 0.5821736454963684
0.5968992710113525 -0.4418604373931885 0.5592586994171143
0.5968992710113525 -0.4418604373931885 0.5786771774291992
0.5968992710113525 -0.42635661363601685 0.5542315244674683
0.5968992710113525 -0.42635661363601685 0.5821632146835327
0.5968992710113525 -0.41085273027420044 -0.5672656297683716
0.5968992710113525 -0.41085273027420044 -0.5445494651794434
0.5968992710113525 -0.41085273027420044 -0.22595103085041046
0.5968992710113525 -0.41085273027420044 -0.15105310082435608
0.5968992710113525 -0.41085273027420044 -0.14441551268100739
0.5968992710113525 -0.41085273027420044 -0.02996920421719551
0.5968992710113525 -0.41085273027420044 0.5489917397499084
0.5968992710113525 -0.41085273027420044 0.5818514823913574
0.5968992710113525 -0.39534884691238403 -0.5758353471755981
0.5968992710113525 -0.39534884691238403 0.5818654894828796
0.5968992710113525 -0.3798449635505676 -0.5772045254707336
0.5968992710113525 -0.3798449635505676 0.582059383392334
0.5968992710113525 -0.3643410801887512 -0.5776364803314209
0.5968992114067078 -0.3643410801887512 0.5821793675422668
0.5968992710113525 -0.3488372266292572 -0.5782206058502197
0.5968992710113525 -0.3488371968269348 -0.5374621748924255
0.5968992710113525 -0.3488371968269348 -0.5003418922424316
0.5968992710113525 -0.3488371968269348 -0.43750905990600586
0.5968992710113525 -0.3488371968269348 -0.2588507831096649
0.5968992710113525 -0.3488371968269348 -0.15117160975933075
0.5968992710113525 -0.3488371968269348 -0.10452476888895035
0.5968992710113525 -0.3488371968269348 0.2781635522842407
0.5968992710113525 -0.3488371968269348 0.3972705006599426
0.5968992710113525 -0.3488371968269348 0.45826926827430725
0.5968992710113525 -0.3488371968269348 0.515466570854187
0.5968992710113525 -0.3488371968269348 0.5822482705116272
0.5968992710113525 -0.3333333134651184 -0.5786848664283752
0.5968992710113525 -0.3333333134651184 -0.5381318926811218
0.5968992710113525 -0.3333333134651184 -0.21247850358486176
0.5968992710113525 -0.3333333134651184 -0.15424513816833496
0.5968992710113525 -0.3333333134651184 0.5348141193389893
0.5968992710113525 -0.3333333134651184 0.5823318362236023
0.5968992710113525 -0.317829430103302 -0.5789029598236084
0.5968992710113525 -0.317829430103302 -0.538212776184082
0.5968992710113525 -0.317829430103302 -0.21352827548980713
0.5968992710113525 -0.317829430103302 -0.15145261585712433
0.5968992710113525 -0.317829430103302 0.026370152831077576
0.5968992710113525 -0.317829430103302 0.047478318214416504
0.5968992710113525 -0.317829430103302 0.5373650193214417
0.5968992710113525 -0.317829430103302 0.5824058651924133
0.5968992710113525 -0.30232560634613037 -0.579042375087738
0.5968992710113525 -0.30232560634613037 -0.5390305519104004
0.5968992710113525 -0.30232560634613037 -0.21488510072231293
0.5968992710113525 -0.30232560634613037 -0.14776445925235748
0.5968992710113525 -0.30232560634613037 0.005305226892232895
0.5968992710113525 -0.30232560634613037 0.06464898586273193
0.5968992710113525 -0.30232560634613037 0.20423519611358643
0.5968993306159973 -0.30232560634613037 0.21050243079662323
0.5968992710113525 -0.30232560634613037 0.5381860136985779
0.5968992710113525 -0.30232560634613037 0.5824897289276123
0.5968992710113525 -0.28682172298431396 -0.5791128873825073
0.5968992710113525 -0.28682172298431396 -0.5395752191543579
0.5968992710113525 -0.28682172298431396 -0.21555522084236145
0.5968992710113525 -0.28682172298431396 -0.14509567618370056
0.5968992710113525 -0.28682172298431396 -0.0021594723220914602
0.5968992710113525 -0.28682172298431396 0.07843410968780518
0.5968992710113525 -0.28682172298431396 0.17968766391277313
0.5968992710113525 -0.28682172298431396 0.2214631736278534
0.5968992710113525 -0.28682172298431396 0.538539469242096
0.5968992114067078 -0.28682172298431396 0.582667350769043
0.5968992114067078 -0.27131783962249756 -0.5792295932769775
0.5968992710113525 -0.27131783962249756 -0.5400744676589966
0.5968992710113525 -0.27131783962249756 -0.21593394875526428
0.5968992710113525 -0.27131783962249756 -0.1435079127550125
0.5968992710113525 -0.27131783962249756 -0.009297085925936699
0.5968992710113525 -0.27131783962249756 0.09208910167217255
0.5968992710113525 -0.27131783962249756 0.15813395380973816
0.5968992710113525 -0.27131783962249756 0.22928641736507416
0.5968992710113525 -0.27131783962249756 0.5386940240859985
0.5968992710113525 -0.27131783962249756 0.5828969478607178
0.5968992114067078 -0.25581395626068115 -0.5793375372886658
0.5968992710113525 -0.25581395626068115 -0.5401932001113892
0.5968992710113525 -0.25581395626068115 -0.21623387932777405
0.5968992710113525 -0.25581395626068115 -0.1419849991798401
0.5968992710113525 -0.25581395626068115 -0.014050759375095367
0.5968992710113525 -0.25581395626068115 0.11006435751914978
0.5968992710113525 -0.25581395626068115 0.13612298667430878
0.5968992710113525 -0.25581395626068115 0.23475894331932068
0.5968992710113525 -0.25581395626068115 0.5383718013763428
0.5968992710113525 -0.25581395626068115 0.5830912590026855
0.5968993306159973 -0.24031007289886475 -0.5794975161552429
0.5968992710113525 -0.24031007289886475 -0.539806604385376
0.5968992710113525 -0.24031007289886475 -0.2163584679365158
0.5968992710113525 -0.24031007289886475 -0.14085140824317932
0.5968992710113525 -0.24031007289886475 -0.017508696764707565
0.5968992710113525 -0.24031007289886475 0.23743025958538055
0.5968992114067078 -0.24031007289886475 0.5365319848060608
0.5968992710113525 -0.24031007289886475 0.5833009481430054
0.5968992710113525 -0.22480618953704834 -0.5796500444412231
0.5968992710113525 -0.22480618953704834 -0.538486123085022
0.5968992710113525 -0.22480618953704834 -0.2164098620414734
0.5968992710113525 -0.22480617463588715 -0.1404217928647995
0.5968992710113525 -0.22480618953704834 -0.020627759397029877
0.5968992710113525 -0.22480618953704834 0.23910897970199585
0.5968992710113525 -0.22480618953704834 0.42402002215385437
0.5968992710113525 -0.22480618953704834 0.43284279108047485
0.5968992710113525 -0.22480618953704834 0.5332474708557129
0.5968992710113525 -0.22480618953704834 0.5835093259811401
0.5968992710113525 -0.20930230617523193 -0.5797399878501892
0.5968992710113525 -0.20930230617523193 -0.5372857451438904
0.5968992710113525 -0.20930230617523193 -0.2159384787082672
0.5968992710113525 -0.20930230617523193 -0.14061301946640015
0.5968992710113525 -0.20930230617523193 -0.01979852467775345
0.5968992710113525 -0.20930230617523193 0.2367483675479889
0.5968992710113525 -0.20930230617523193 0.5314674377441406
0.5968992710113525 -0.20930230617523193 0.5835407972335815
0.5968992710113525 -0.19379842281341553 -0.5800637602806091
0.5968992710113525 -0.19379842281341553 -0.536054790019989
0.5968992710113525 -0.19379842281341553 -0.21461327373981476
0.5968992710113525 -0.19379842281341553 -0.1414886862039566
0.5968992710113525 -0.19379842281341553 -0.009928636252880096
0.5968992710113525 -0.19379842281341553 0.10871484875679016
0.5968992710113525 -0.19379842281341553 0.17918674647808075
0.5968992710113525 -0.19379842281341553 0.22387301921844482
0.5968992710113525 -0.19379842281341553 0.5331469774246216
0.5968992710113525 -0.19379842281341553 0.583543062210083
0.5968992114067078 -0.1782945841550827 -0.5803095102310181
0.5968992710113525 -0.1782945990562439 -0.5355011820793152
0.5968992710113525 -0.1782945990562439 -0.21376091241836548
0.5968992710113525 -0.1782945990562439 -0.1418371945619583
0.5968992710113525 -0.1782945990562439 -0.0001691109500825405
0.5968992710113525 -0.1782945990562439 0.07871638983488083
0.5968992710113525 -0.1782945990562439 0.5354263782501221
0.5968992710113525 -0.1782945841550827 0.5835171341896057
0.5968992114067078 -0.1627907156944275 -0.5805379152297974
0.5968992710113525 -0.1627907156944275 -0.5352795720100403
0.5968992710113525 -0.1627907156944275 -0.2139868140220642
0.5968992710113525 -0.1627907156944275 -0.14110898971557617
0.5968992710113525 -0.1627907156944275 -0.0008885662537068129
0.5968992710113525 -0.1627907156944275 0.07453939318656921
0.5968992710113525 -0.1627907156944275 0.536048412322998
0.5968992710113525 -0.1627907156944275 0.5835177898406982
0.5968992710113525 -0.14728683233261108 -0.5807008743286133
0.5968992710113525 -0.14728683233261108 -0.5355231761932373
0.5968992710113525 -0.14728683233261108 -0.21427521109580994
0.5968992710113525 -0.14728683233261108 -0.14040663838386536
0.5968992710113525 -0.14728683233261108 -0.0016917085740715265
0.5968992710113525 -0.14728683233261108 0.07718780636787415
0.5968992710113525 -0.14728683233261108 0.5353637933731079
0.5968992710113525 -0.14728683233261108 0.5835965871810913
0.5968992710113525 -0.13178294897079468 -0.5808317065238953
0.5968992710113525 -0.13178294897079468 -0.5368649363517761
0.5968992710113525 -0.13178294897079468 -0.21420420706272125
0.5968992710113525 -0.13178294897079468 -0.140179842710495
0.5968992710113525 -0.13178294897079468 0.0001577502116560936
0.5968992710113525 -0.13178294897079468 0.07948969304561615
0.5968992710113525 -0.13178294897079468 0.5340771675109863
0.5968992710113525 -0.13178294897079468 0.5835638046264648
0.5968992710113525 -0.11627907305955887 -0.5809394121170044
0.5968992710113525 -0.11627906560897827 -0.538122832775116
0.5968992710113525 -0.11627906560897827 -0.21407341957092285
0.5968992710113525 -0.11627906560897827 -0.14015959203243256
0.5968992710113525 -0.11627906560897827 0.0035325682256370783
0.5968992710113525 -0.11627906560897827 0.07462842762470245
0.5968992710113525 -0.11627906560897827 0.5325725674629211
0.5968992710113525 -0.11627906560897827 0.5835629105567932
0.5968992710113525 -0.10077518224716187 -0.5809097290039062
0.5968992710113525 -0.10077518224716187 -0.5394094586372375
0.5968992710113525 -0.10077518224716187 -0.21415975689888
0.5968992710113525 -0.10077518224716187 -0.1402527093887329
0.5968992710113525 -0.10077518224716187 0.00235108844935894
0.5968992710113525 -0.10077518224716187 0.07738252729177475
0.5968992710113525 -0.10077518224716187 0.5310643911361694
0.5968992710113525 -0.10077518224716187 0.5835884809494019
0.5968992710113525 -0.08527129888534546 -0.5809422135353088
0.5968992710113525 -0.08527129888534546 -0.539798378944397
0.5968992710113525 -0.08527129888534546 -0.21456733345985413
0.5968992710113525 -0.08527129888534546 -0.13995350897312164
0.5968992710113525 -0.08527129888534546 -0.004671803209930658
0.5968992710113525 -0.08527129888534546 0.08525259047746658
0.5968992710113525 -0.08527129888534546 0.19172027707099915
0.5968992710113525 -0.08527129888534546 0.2151627391576767
0.5968992710113525 -0.08527129888534546 0.5298171043395996
0.5968992710113525 -0.08527129888534546 0.5836189985275269
0.5968992710113525 -0.06976741552352905 -0.5810144543647766
0.5968992710113525 -0.06976741552352905 -0.5399885773658752
0.5968992710113525 -0.06976741552352905 -0.21506045758724213
0.5968992710113525 -0.06976741552352905 -0.13930094242095947
0.5968992710113525 -0.06976741552352905 -0.013229982927441597
0.5968992710113525 -0.06976741552352905 0.09082874655723572
0.5968992710113525 -0.06976741552352905 0.17813347280025482
0.5968992710113525 -0.06976741552352905 0.22168977558612823
0.5968992710113525 -0.06976741552352905 0.5285905599594116
0.5968992710113525 -0.06976741552352905 0.5836548209190369
0.5968992710113525 -0.05426359176635742 -0.5810965299606323
0.5968992710113525 -0.05426359176635742 -0.5398679375648499
0.5968992710113525 -0.05426359176635742 -0.21563389897346497
0.5968992710113525 -0.05426359176635742 -0.1384858787059784
0.5968992710113525 -0.05426359176635742 -0.017670994624495506
0.5968992710113525 -0.05426359176635742 0.0927727222442627
0.5968992710113525 -0.05426359176635742 0.16041693091392517
0.5968992710113525 -0.05426359176635742 0.22469252347946167
0.5968992710113525 -0.05426359176635742 0.5258312225341797
0.5968992710113525 -0.05426359176635742 0.5837534070014954
0.5968992114067078 -0.03875970467925072 -0.5811222791671753
0.5968992710113525 -0.038759708404541016 -0.5392647981643677
0.5968992710113525 -0.038759708404541016 -0.21590599417686462
0.5968992710113525 -0.038759708404541016 -0.1381424516439438
0.5968992710113525 -0.038759708404541016 -0.015156017616391182
0.5968992710113525 -0.038759708404541016 0.08980220556259155
0.5968992710113525 -0.038759708404541016 0.1756870597600937
0.5968992710113525 -0.038759708404541016 0.22324934601783752
0.5968992710113525 -0.038759708404541016 0.5218411087989807
0.5968992710113525 -0.038759708404541016 0.5836845636367798
0.5968993306159973 -0.02325582504272461 -0.581110417842865
0.5968992710113525 -0.02325582504272461 -0.5375789999961853
0.5968992710113525 -0.02325582504272461 -0.2159242480993271
0.5968992710113525 -0.02325582504272461 -0.13833540678024292
0.5968992710113525 -0.02325582504272461 -0.012471118941903114
0.5968992710113525 -0.02325582504272461 0.08784398436546326
0.5968992710113525 -0.02325582504272461 0.1831933856010437
0.5968992710113525 -0.02325582504272461 0.22342534363269806
0.5968992710113525 -0.02325582504272461 0.512946367263794
0.5968992710113525 -0.02325582504272461 0.58369380235672
0.5968992710113525 -0.007751941680908203 -0.5810278058052063
0.5968992710113525 -0.007751941680908203 -0.5364392995834351
0.5968992710113525 -0.007751941680908203 -0.21590793132781982
0.5968992710113525 -0.007751941680908203 -0.13872936367988586
0.5968992710113525 -0.007751941680908203 -0.011051524430513382
0.5968992710113525 -0.007751941680908203 0.08532954752445221
0.5968992710113525 -0.007751941680908203 0.18493789434432983
0.5968992710113525 -0.007751941680908203 0.22456881403923035
0.5968992710113525 -0.007751941680908203 0.46412575244903564
0.5968992710113525 -0.007751941680908203 0.4767615795135498
0.5968992710113525 -0.007751941680908203 0.5087984204292297
0.5968992710113525 -0.007751941680908203 0.5837063193321228
0.5968992710113525 0.007751941680908203 -0.5809863805770874
0.5968992710113525 0.007751941680908203 -0.5370914340019226
0.5968992710113525 0.007751941680908203 -0.2153419554233551
0.5968992710113525 0.007751941680908203 -0.13963143527507782
0.5968992710113525 0.007751941680908203 -0.0036824746057391167
0.5968992710113525 0.007751941680908203 0.06569310277700424
0.5968992710113525 0.007751941680908203 0.20074206590652466
0.5968992710113525 0.00775194214656949 0.21484440565109253
0.5968992710113525 0.007751941680908203 0.5206596255302429
0.5968992710113525 0.007751941680908203 0.5835524201393127
0.5968992710113525 0.02325582504272461 -0.5809617638587952
0.5968992710113525 0.02325582504272461 -0.5395441651344299
0.5968992710113525 0.02325582504272461 -0.214743509888649
0.5968992710113525 0.02325582504272461 -0.14081323146820068
0.5968992710113525 0.02325582504272461 0.5312661528587341
0.5968993306159973 0.02325582690536976 0.5834084749221802
0.5968992710113525 0.038759708404541016 -0.5809322595596313
0.5968992710113525 0.038759708404541016 -0.540305495262146
0.5968992710113525 0.038759708404541016 -0.21459051966667175
0.5968992710113525 0.038759708404541016 -0.14134299755096436
0.5968992710113525 0.038759708404541016 0.5376566052436829
0.5968992710113525 0.038759708404541016 0.5834103226661682
0.5968992710113525 0.05426359176635742 -0.581098735332489
0.5968992710113525 0.05426359176635742 -0.5408210754394531
0.5968992710113525 0.05426359176635742 -0.21407999098300934
0.5968992710113525 0.05426359176635742 -0.14184239506721497
0.5968992710113525 0.05426359176635742 0.5415162444114685
0.5968992710113525 0.05426359176635742 0.5835027694702148
0.5968992710113525 0.06976747512817383 -0.5811740159988403
0.5968992710113525 0.06976747512817383 -0.5421079397201538
0.5968992710113525 0.06976747512817383 -0.2131374329328537
0.5968992710113525 0.06976747512817383 -0.14270730316638947
0.5968992710113525 0.06976747512817383 0.5438119173049927
0.5968992710113525 0.06976747512817383 0.5835071802139282
0.5968992114067078 0.08527135848999023 -0.5810732841491699
0.5968992710113525 0.08527135848999023 -0.5438176989555359
0.5968992710113525 0.08527135848999023 -0.21197308599948883
0.5968992710113525 0.08527135848999023 -0.14375154674053192
0.5968992710113525 0.08527135848999023 0.5450568199157715
0.5968992710113525 0.08527135848999023 0.5834701061248779
0.5968993306159973 0.10077524930238724 -0.5811377763748169
0.5968992710113525 0.10077524185180664 -0.5452436804771423
0.5968992710113525 0.10077524185180664 -0.21034595370292664
0.5968993306159973 0.10077524185180664 -0.1451321691274643
0.5968992710113525 0.10077524185180664 0.5461897850036621
0.5968992710113525 0.10077524185180664 0.5834434628486633
0.5968992710113525 0.11627911776304245 -0.5812045335769653
0.5968992710113525 0.11627912521362305 -0.5462892055511475
0.5968992710113525 0.11627912521362305 -0.20708663761615753
0.5968993306159973 0.11627913266420364 -0.14687040448188782
0.5968992710113525 0.11627912521362305 0.5471776723861694
0.5968992710113525 0.11627912521362305 0.5834243893623352
0.5968992710113525 0.1317828893661499 -0.5811316967010498
0.5968992710113525 0.1317828893661499 -0.5470809936523438
0.5968992710113525 0.1317828893661499 -0.2033202201128006
0.5968992710113525 0.1317828893661499 -0.15168088674545288
0.5968992710113525 0.1317828893661499 0.5479416251182556
0.5968992114067078 0.1317828893661499 0.5834057927131653
0.5968992710113525 0.1472867727279663 -0.5809427499771118
0.5968992710113525 0.1472867727279663 -0.5475406646728516
0.5968992710113525 0.1472867727279663 -0.2004787027835846
0.5968992710113525 0.1472867727279663 -0.15561005473136902
0.5968992710113525 0.1472867727279663 0.5482579469680786
0.5968992710113525 0.1472867727279663 0.5834259390830994
0.5968992710113525 0.16279065608978271 -0.5808945894241333
0.5968992710113525 0.16279065608978271 -0.547785758972168
0.5968992710113525 0.16279065608978271 -0.19810640811920166
0.5968992710113525 0.16279065608978271 -0.1586846113204956
0.5968992710113525 0.16279065608978271 0.5480847358703613
0.5968992710113525 0.16279065608978271 0.5834178328514099
0.5968992710113525 0.17829453945159912 -0.5807468295097351
0.5968992710113525 0.17829455435276031 -0.5479308366775513
0.5968992710113525 0.17829453945159912 -0.19627851247787476
0.5968992710113525 0.17829453945159912 -0.16072215139865875
0.5968992710113525 0.17829453945159912 0.5478118658065796
0.5968993306159973 0.17829453945159912 0.5833059549331665
0.5968992710113525 0.19379842281341553 -0.5805978178977966
0.5968992710113525 0.19379842281341553 -0.5480920672416687
0.5968992710113525 0.19379842281341553 -0.19445940852165222
0.5968992710113525 0.19379842281341553 -0.1624845266342163
0.5968992710113525 0.19379842281341553 0.5479612350463867
0.5968992710113525 0.19379842281341553 0.5832167863845825
0.5968992710113525 0.20930230617523193 -0.5803905725479126
0.5968992710113525 0.20930230617523193 -0.5482184290885925
0.5968992710113525 0.20930230617523193 -0.18893878161907196
0.5968992710113525 0.20930230617523193 -0.16777238249778748
0.5968992710113525 0.20930230617523193 0.5483480095863342
0.5968992114067078 0.20930230617523193 0.5831313729286194
0.5968992710113525 0.22480618953704834 -0.5801517963409424
0.5968992710113525 0.22480618953704834 -0.5484126210212708
0.5968992710113525 0.22480618953704834 -0.18449589610099792
0.5968992710113525 0.22480618953704834 -0.17215672135353088
0.5968992710113525 0.22480618953704834 0.5485326647758484
0.5968992710113525 0.22480618953704834 0.5829761028289795
0.5968992710113525 0.24031007289886475 -0.5799724459648132
0.5968992114067078 0.24031007289886475 -0.5485664010047913
0.5968992710113525 0.24031007289886475 -0.18118694424629211
0.5968992710113525 0.24031007289886475 -0.175583153963089
0.5968992710113525 0.24031007289886475 0.5481002330780029
0.5968992710113525 0.24031007289886475 0.5828182697296143
0.5968992710113525 0.25581395626068115 -0.5796452164649963
0.5968992710113525 0.25581395626068115 -0.5488688349723816
0.5968992710113525 0.25581395626068115 -0.17848287522792816
0.5968992710113525 0.25581395626068115 -0.1781216710805893
0.5968992710113525 0.25581395626068115 0.5474481582641602
0.5968992710113525 0.25581395626068115 0.5826526284217834
0.5968992114067078 0.27131783962249756 -0.5794164538383484
0.5968992710113525 0.27131786942481995 -0.5492857098579407
0.5968992710113525 0.27131783962249756 0.5464016795158386
0.5968992710113525 0.27131783962249756 0.5825504064559937
0.5968992710113525 0.28682172298431396 -0.5792232751846313
0.5968992114067078 0.28682172298431396 -0.549636721611023
0.5968992710113525 0.28682172298431396 0.5448469519615173
0.5968992710113525 0.28682172298431396 0.5824946165084839
0.5968992710113525 0.302325576543808 -0.5791062116622925
0.5968992710113525 0.30232560634613037 -0.5498394966125488
0.5968992710113525 0.30232560634613037 0.5414746403694153
0.5968992710113525 0.30232560634613037 0.5823975205421448
0.5968992710113525 0.31782951951026917 -0.578989565372467
0.5968992710113525 0.3178294897079468 -0.5498204827308655
0.5968992710113525 0.3178294897079468 0.507434606552124
0.5968992710113525 0.3178294897079468 0.5824102759361267
0.5968992710113525 0.3333333730697632 -0.5788508057594299
0.5968992710113525 0.3333333730697632 -0.5497641563415527
0.5968992114067078 0.3333333730697632 0.4736280143260956
0.5968992710113525 0.3333333730697632 0.5824296474456787
0.5968992710113525 0.3488372564315796 -0.5786060690879822
0.5968992710113525 0.3488372564315796 -0.549378514289856
0.5968992710113525 0.3488372564315796 -0.1853908747434616
0.5968992710113525 0.3488372564315796 -0.17378497123718262
0.5968992710113525 0.3488372564315796 0.46414363384246826
0.5968992710113525 0.3488372564315796 0.5823789238929749
0.5968992710113525 0.364341139793396 -0.5781623125076294
0.5968992710113525 0.3643411099910736 -0.5479984283447266
0.5968992710113525 0.3643411695957184 -0.2048710435628891
0.5968992710113525 0.364341139793396 -0.16015717387199402
0.5968992710113525 0.364341139793396 -0.09000177681446075
0.5968992710113525 0.364341139793396 0.251735657453537
0.5968992710113525 0.364341139793396 0.3995625376701355
0.5968992710113525 0.364341139793396 0.5823469161987305
0.5968992710113525 0.37984490394592285 -0.5776181221008301
0.5968992710113525 0.37984490394592285 -0.5389455556869507
0.5968992710113525 0.37984490394592285 -0.2675916850566864
0.5968992710113525 0.37984490394592285 0.5822963714599609
0.5968992710113525 0.39534878730773926 -0.5778630971908569
0.5968992710113525 0.39534878730773926 -0.5239917039871216
0.5968992710113525 0.39534878730773926 -0.4937625527381897
0.5968992710113525 0.39534878730773926 -0.3603828251361847
0.5968992710113525 0.39534878730773926 -0.34109705686569214
0.5968992710113525 0.39534878730773926 0.4299410581588745
0.5968992710113525 0.39534878730773926 0.5258625745773315
0.5968992710113525 0.39534878730773926 0.5820540189743042
0.5968992710113525 0.41085267066955566 -0.5798143148422241
0.5968992710113525 0.41085267066955566 -0.537693440914154
0.5968992710113525 0.41085267066955566 -0.1805553436279297
0.5968992710113525 0.41085267066955566 -0.17583471536636353
0.5968992710113525 0.41085267066955566 0.5592477321624756
0.5968992710113525 0.41085267066955566 0.5817732214927673
0.5968992710113525 0.42635655403137207 -0.5694302320480347
0.5968992710113525 0.42635658383369446 -0.5621896386146545
0.5968992710113525 0.42635655403137207 0.5631211400032043
0.5968992710113525 0.42635655403137207 0.5822365880012512
0.5968992710113525 0.4418604373931885 0.5624327063560486
0.5968992114067078 0.4418604373931885 0.5821937322616577
0.612403154373169 -0.4418604373931885 0.5585384368896484
0.612403154373169 -0.4418604373931885 0.5787789225578308
0.612403154373169 -0.42635661363601685 0.55317223072052
0.612403154373169 -0.42635661363601685 0.5821322202682495
0.612403154373169 -0.41085273027420044 -0.567144513130188
0.612403154373169 -0.41085273027420044 -0.5451746582984924
0.612403154373169 -0.41085273027420044 -0.2130771279335022
0.612403154373169 -0.41085273027420044 -0.16164645552635193
0.612403154373169 -0.41085273027420044 -0.13186457753181458
0.612403154373169 -0.41085273027420044 -0.061204150319099426
0.612403154373169 -0.41085273027420044 0.5493497848510742
0.6124032139778137 -0.41085273027420044 0.5818347334861755
0.612403154373169 -0.39534884691238403 -0.5753496289253235
0.612403154373169 -0.39534884691238403 0.5818488597869873
0.612403154373169 -0.3798449635505676 -0.5767908692359924
0.612403154373169 -0.3798449635505676 0.5820469260215759
0.612403154373169 -0.36434105038642883 -0.5772948861122131
0.612403154373169 -0.3643410801887512 0.5821852684020996
0.612403154373169 -0.3488371968269348 -0.5779520273208618
0.612403154373169 -0.3488371968269348 -0.541476845741272
0.612403154373169 -0.3488371968269348 -0.2166716605424881
0.612403154373169 -0.3488371968269348 -0.1551327407360077
0.612403154373169 -0.3488371968269348 0.02741510607302189
0.612403154373169 -0.3488371968269348 0.10196226835250854
0.612403154373169 -0.3488371968269348 0.16558654606342316
0.612403154373169 -0.3488371968269348 0.23530209064483643
0.612403154373169 -0.3488371968269348 0.4155377447605133
0.612403154373169 -0.3488371968269348 0.435345321893692
0.612403154373169 -0.3488371968269348 0.5238263607025146
0.612403154373169 -0.3488371670246124 0.5822662115097046
0.612403154373169 -0.333333283662796 -0.5784745812416077
0.612403154373169 -0.3333333134651184 -0.541575014591217
0.612403154373169 -0.3333333134651184 -0.20759359002113342
0.612403154373169 -0.3333333134651184 -0.15682868659496307
0.612403154373169 -0.3333333134651184 0.5367666482925415
0.612403154373169 -0.333333283662796 0.5823566317558289
0.612403154373169 -0.317829430103302 -0.5787178874015808
0.612403154373169 -0.317829430103302 -0.541461706161499
0.612403154373169 -0.317829430103302 -0.20992133021354675
0.612403154373169 -0.317829430103302 -0.15414561331272125
0.612403154373169 -0.317829430103302 0.538923978805542
0.612403154373169 -0.317829430103302 0.5824335217475891
0.612403154373169 -0.30232560634613037 -0.5788717865943909
0.612403154373169 -0.30232560634613037 -0.5419895648956299
0.612403154373169 -0.30232560634613037 -0.21190592646598816
0.612403154373169 -0.30232560634613037 -0.1509178727865219
0.612403154373169 -0.30232560634613037 0.5394824743270874
0.612403154373169 -0.30232560634613037 0.5825205445289612
0.612403154373169 -0.28682172298431396 -0.5789450407028198
0.612403154373169 -0.28682172298431396 -0.5424461364746094
0.612403154373169 -0.28682172298431396 -0.2128845900297165
0.612403154373169 -0.28682172298431396 -0.14789751172065735
0.612403154373169 -0.28682172298431396 0.5398127436637878
0.612403154373169 -0.2868216931819916 0.5826975703239441
0.612403154373169 -0.27131783962249756 -0.5790591835975647
0.612403154373169 -0.27131783962249756 -0.5429131984710693
0.612403154373169 -0.27131783962249756 -0.21342691779136658
0.612403154373169 -0.27131783962249756 -0.14596931636333466
0.612403154373169 -0.27131783962249756 0.5399914383888245
0.612403154373169 -0.27131783962249756 0.5829215049743652
0.612403154373169 -0.25581395626068115 -0.579158365726471
0.612403154373169 -0.25581395626068115 -0.543197751045227
0.612403154373169 -0.25581395626068115 -0.21375030279159546
0.612403154373169 -0.25581395626068115 -0.1444244235754013
0.612403154373169 -0.25581395626068115 0.20407883822917938
0.612403154373169 -0.25581395626068115 0.21040479838848114
0.612403154373169 -0.25581395626068115 0.5400457382202148
0.612403154373169 -0.25581395626068115 0.5830895900726318
0.6124032139778137 -0.24031007289886475 -0.5793150067329407
0.612403154373169 -0.24031007289886475 -0.5430433750152588
0.612403154373169 -0.24031007289886475 -0.21385499835014343
0.612403154373169 -0.24031007289886475 -0.14334061741828918
0.612403154373169 -0.24031007289886475 0.031862664967775345
0.612403154373169 -0.24031007289886475 0.0473942831158638
0.612403154373169 -0.24031007289886475 0.19335128366947174
0.612403154373169 -0.24031005799770355 0.21382947266101837
0.612403154373169 -0.24031007289886475 0.5388222932815552
0.612403154373169 -0.24031007289886475 0.583274781703949
0.6124032139778137 -0.22480618953704834 -0.5794587731361389
0.612403154373169 -0.22480618953704834 -0.5422559976577759
0.612403154373169 -0.22480618953704834 -0.21375983953475952
0.612403154373169 -0.22480618953704834 -0.143059641122818
0.612403154373169 -0.22480618953704834 0.01323891244828701
0.612403154373169 -0.22480618953704834 0.06238672137260437
0.612403154373169 -0.22480618953704834 0.1929464042186737
0.612403154373169 -0.22480618953704834 0.2151871919631958
0.6124030947685242 -0.22480617463588715 0.5364658832550049
0.6124032139778137 -0.22480618953704834 0.5834754705429077
0.612403154373169 -0.20930229127407074 -0.5795484185218811
0.612403154373169 -0.20930230617523193 -0.5415140986442566
0.612403154373169 -0.20930230617523193 -0.2131890058517456
0.612403154373169 -0.20930230617523193 -0.1434522122144699
0.612403154373169 -0.20930230617523193 0.02054557390511036
0.612403154373169 -0.20930230617523193 0.05381256714463234
0.612403154373169 -0.20930230617523193 0.20588365197181702
0.612403154373169 -0.20930230617523193 0.21079005300998688
0.6124032139778137 -0.20930230617523193 0.5352450609207153
0.612403154373169 -0.20930229127407074 0.583534300327301
0.612403154373169 -0.19379842281341553 -0.5798898339271545
0.612403154373169 -0.19379842281341553 -0.5404672622680664
0.612403154373169 -0.19379842281341553 -0.2120722085237503
0.612403154373169 -0.19379842281341553 -0.14415079355239868
