0.11459925025701523 0.1472867727279663 -0.7364341020584106
0.11443381756544113 0.1472867727279663 -0.7209302186965942
0.11439737677574158 0.1472867727279663 -0.7054263353347778
0.1141183152794838 0.1472867727279663 -0.6899224519729614
0.11364142596721649 0.1472867727279663 -0.674418568611145
0.1134798526763916 0.1472867727279663 -0.6589146852493286
0.11356110870838165 0.1472867727279663 -0.643410861492157
0.11339346319437027 0.1472867727279663 -0.6279069781303406
0.11456955224275589 0.1472867727279663 -0.6124030947685242
0.11615050584077835 0.16279065608978271 -0.8604651093482971
0.1155916154384613 0.16279065608978271 -0.8449612259864807
0.11496154963970184 0.16279065608978271 -0.8294572830200195
0.1139914020895958 0.16279065608978271 -0.8139535188674927
0.11234521120786667 0.16279065608978271 -0.7984496355056763
0.11173434555530548 0.16279065608978271 -0.7829457521438599
0.11315882205963135 0.16279065608978271 -0.7674418687820435
0.11387436091899872 0.16279065608978271 -0.751937985420227
0.11372998356819153 0.16279065608978271 -0.7364341020584106
0.11345256865024567 0.16279065608978271 -0.7209302186965942
0.11355732381343842 0.16279065608978271 -0.7054263353347778
0.11381921172142029 0.16279065608978271 -0.6899224519729614
0.11423175036907196 0.16279065608978271 -0.674418568611145
0.11530902236700058 0.16279065608978271 -0.6589146852493286
0.11592888087034225 0.17829453945159912 -0.9379844665527344
0.11478827148675919 0.17829453945159912 -0.9224806427955627
0.11466766148805618 0.17829453945159912 -0.9069767594337463
0.11489209532737732 0.17829453945159912 -0.8914728760719299
0.1149476021528244 0.17829453945159912 -0.8759689927101135
0.11479272693395615 0.17829453945159912 -0.8604651093482971
0.11474782973527908 0.17829453945159912 -0.8449612855911255
0.11461064964532852 0.17829453945159912 -0.8294573426246643
0.11370208859443665 0.17829453945159912 -0.8139535188674927
0.1109134629368782 0.17829453945159912 -0.7984496355056763
0.11129900813102722 0.17829453945159912 -0.7829457521438599
0.11374583840370178 0.17829453945159912 -0.7674418687820435
0.11448526382446289 0.17829453945159912 -0.751937985420227
0.11432674527168274 0.17829453945159912 -0.7364341020584106
0.1145244613289833 0.17829453945159912 -0.7209302186965942
0.11581209301948547 0.17829453945159912 -0.7054263353347778
0.11275210976600647 0.19379842281341553 -0.9844961166381836
0.11534655094146729 0.19379842281341553 -0.9689922332763672
0.1158800944685936 0.19379842281341553 -0.9379844665527344
0.1150214821100235 0.19379842281341553 -0.9224806427955627
0.11504737287759781 0.19379842281341553 -0.9069767594337463
0.11536046862602234 0.19379842281341553 -0.8914728760719299
0.11552033573389053 0.19379842281341553 -0.8759689927101135
0.11556036025285721 0.19379842281341553 -0.8604651093482971
0.1157311275601387 0.19379842281341553 -0.8449612259864807
0.11597633361816406 0.19379842281341553 -0.8294573426246643
0.11573398858308792 0.19379842281341553 -0.8139535188674927
0.11513511836528778 0.19379842281341553 -0.7984496355056763
0.11594819277524948 0.19379842281341553 -0.7829457521438599
0.11129975318908691 0.20930230617523193 -0.9844961166381836
0.11544500291347504 0.20930230617523193 -0.9689922332763672
0.11592350155115128 0.20930230617523193 -0.9224806427955627
0.1160687580704689 0.20930230617523193 -0.9069767594337463
0.11098974198102951 0.22480618953704834 -0.9844961166381836
0.11568218469619751 0.22480618953704834 -0.9689922332763672
0.11093460023403168 0.24031007289886475 -0.9844961166381836
0.1159789189696312 0.24031007289886475 -0.9689922332763672
0.11102670431137085 0.25581395626068115 -0.9844961166381836
0.11127123236656189 0.27131783962249756 -0.9844961166381836
0.11131173372268677 0.28682172298431396 -0.9844961166381836
0.11143369972705841 0.30232560634613037 -0.9844961166381836
0.11540044844150543 0.3178294897079468 -0.9844961166381836
0.11906296759843826 -0.317829430103302 -0.9844961166381836
0.13005542755126953 -0.30232560634613037 -0.9689922332763672
0.12279988080263138 -0.28682172298431396 -0.9689922332763672
0.1260373592376709 -0.27131783962249756 -0.9534883499145508
0.13043518364429474 -0.27131783962249756 -0.9379844665527344
0.12110313773155212 -0.25581395626068115 -0.9534883499145508
0.12384868413209915 -0.25581395626068115 -0.9379844665527344
0.12585610151290894 -0.25581395626068115 -0.922480583190918
0.11959493160247803 -0.24031007289886475 -0.9534883499145508
0.12144774198532104 -0.24031007289886475 -0.9379844665527344
0.12283699214458466 -0.24031007289886475 -0.9224807024002075
0.12489186972379684 -0.24031007289886475 -0.9069767594337463
0.12948015332221985 -0.24031007289886475 -0.8914728760719299
0.11811302602291107 -0.22480618953704834 -0.9534883499145508
0.1183188334107399 -0.22480618953704834 -0.9379844665527344
0.11855677515268326 -0.22480618953704834 -0.922480583190918
0.1206153929233551 -0.22480618953704834 -0.9069766998291016
0.12266632914543152 -0.22480618953704834 -0.8914729356765747
0.12520457804203033 -0.22480618953704834 -0.8759689927101135
0.13058456778526306 -0.22480618953704834 -0.8604651093482971
0.11978810280561447 -0.20930230617523193 -0.8294573426246643
0.1314648687839508 -0.20930230617523193 -0.8139535188674927
0.12519431114196777 -0.1782945990562439 -0.9534883499145508
0.1199302226305008 -0.10077517479658127 -0.3488371968269348
0.11757554113864899 -0.08527130633592606 -0.4728682041168213
0.12514375150203705 -0.08527129888534546 -0.27131783962249756
0.12143756449222565 -0.06976741552352905 -0.20930230617523193
0.12935814261436462 -0.05426359176635742 -0.317829430103302
0.12071803212165833 -0.05426359176635742 -0.14728683233261108
0.12816497683525085 -0.038759708404541016 -0.10077518224716187
0.130689799785614 -0.02325582504272461 0.39534878730773926
0.11662677675485611 -0.02325582504272461 0.7984496355056763
0.11872833967208862 -0.02325582504272461 0.9844960570335388
0.1174975335597992 -0.007751941680908203 0.8294574618339539
0.11851836740970612 0.007751941680908203 0.8294574022293091
0.12771566212177277 0.02325582504272461 0.37984490394592285
0.12237761914730072 0.02325582504272461 0.39534878730773926
0.11907853186130524 0.02325582504272461 0.5193798542022705
0.12064477801322937 0.02325582504272461 0.5348837375640869
0.11763719469308853 0.02325582504272461 0.6589146852493286
0.12010033428668976 0.02325582318007946 0.674418568611145
0.12232203781604767 0.02325582504272461 0.6899224519729614
0.12376724183559418 0.02325582504272461 0.7054263353347778
0.12338799238204956 0.02325582504272461 0.7209302186965942
0.12088604271411896 0.02325582504272461 0.7364341020584106
0.11753056943416595 0.02325582318007946 0.751937985420227
0.11880373954772949 0.02325582504272461 0.7674418687820435
0.12854266166687012 0.02325582504272461 0.7829457521438599
0.11782126128673553 0.02325582504272461 0.8139534592628479
0.125726580619812 0.02325582504272461 0.8294574022293091
0.12366527318954468 0.02325582504272461 0.8449612855911255
0.12650366127490997 0.02325582504272461 0.9379844665527344
0.12871503829956055 0.038759708404541016 -0.20930230617523193
0.12677906453609467 0.038759708404541016 -0.19379842281341553
0.1267586052417755 0.038759708404541016 -0.1782945990562439
0.12663103640079498 0.038759708404541016 -0.1627907156944275
0.12880104780197144 0.038759708404541016 -0.14728683233261108
0.11966552585363388 0.05426359176635742 -0.20930230617523193
0.12732692062854767 0.06976747512817383 -0.41085273027420044
0.12184993922710419 0.06976747512817383 -0.25581395626068115
0.11827147006988525 0.08527135848999023 -0.3333333134651184
0.12477025389671326 0.10077524185180664 -0.5658915042877197
0.1246190220117569 0.11627912521362305 -0.6589146852493286
0.1287202537059784 0.1317828893661499 -0.7364341020584106
0.11710115522146225 0.1317828893661499 -0.5813953876495361
0.12042101472616196 0.1317828893661499 -0.5658915042877197
0.12971274554729462 0.1472867727279663 -0.5968992114067078
0.12810315191745758 0.16279065608978271 -0.9069767594337463
0.12301935255527496 0.16279065608978271 -0.8914729356765747
0.1199570894241333 0.16279065608978271 -0.8759689927101135
0.12336049973964691 0.17829453945159912 -0.9689922332763672
0.12283674627542496 0.17829453945159912 -0.9534883499145508
0.11877527832984924 0.19379842281341553 -0.9534883499145508
0.13064366579055786 0.19379842281341553 -0.7674418687820435
0.1204216256737709 0.20930230617523193 -0.9534883499145508
0.11821851134300232 0.20930230617523193 -0.9379844069480896
0.11844007670879364 0.20930230617523193 -0.8914728760719299
0.12126478552818298 0.20930230617523193 -0.8759689331054688
0.12377940118312836 0.20930230617523193 -0.8604650497436523
0.12684662640094757 0.20930230617523193 -0.8449612259864807
0.13171637058258057 0.20930230617523193 -0.8294573426246643
0.12244321405887604 0.22480618953704834 -0.9534883499145508
0.12313209474086761 0.22480618953704834 -0.9379844665527344
0.1222403347492218 0.22480618953704834 -0.9224806427955627
0.12426991760730743 0.22480618953704834 -0.9069767594337463
0.12755462527275085 0.22480618953704834 -0.8914728164672852
0.13174355030059814 0.22480618953704834 -0.8759689927101135
0.1242670863866806 0.24031007289886475 -0.9534883499145508
0.12614335119724274 0.24031007289886475 -0.9379844665527344
0.12696421146392822 0.24031007289886475 -0.9224806427955627
0.13052916526794434 0.24031007289886475 -0.9069767594337463
0.11664940416812897 0.25581395626068115 -0.9689922332763672
0.12666985392570496 0.25581395626068115 -0.9534883499145508
0.1291881650686264 0.25581395626068115 -0.9379844665527344
0.12151084840297699 0.27131783962249756 -0.9689922332763672
0.13061079382896423 0.27131783962249756 -0.9534883499145508
0.1258028745651245 0.28682172298431396 -0.9689922332763672
0.13771770894527435 -0.317829430103302 -0.9844961762428284
0.1430867463350296 -0.30232560634613037 -0.9844961166381836
0.1330394148826599 -0.30232560634613037 -0.968992292881012
0.14267128705978394 -0.28682172298431396 -0.9844961166381836
0.13760942220687866 -0.28682172298431396 -0.9689922332763672
0.14265033602714539 -0.27131783962249756 -0.9844961166381836
0.13886690139770508 -0.27131783962249756 -0.9689922332763672
0.13484150171279907 -0.27131783962249756 -0.9534883499145508
0.13264966011047363 -0.27131783962249756 -0.9379844665527344
0.14332786202430725 -0.25581395626068115 -0.9844961166381836
0.13998878002166748 -0.25581395626068115 -0.9689922332763672
0.13682907819747925 -0.25581395626068115 -0.9534883499145508
0.13615718483924866 -0.25581395626068115 -0.9379844665527344
0.13576176762580872 -0.25581395626068115 -0.9224807024002075
0.14357790350914001 -0.24031007289886475 -0.9844961166381836
0.14035357534885406 -0.24031007289886475 -0.9689922332763672
0.137483611702919 -0.24031007289886475 -0.9534883499145508
0.137131929397583 -0.24031007289886475 -0.9379844665527344
0.13710041344165802 -0.24031007289886475 -0.922480583190918
0.13686320185661316 -0.24031007289886475 -0.9069768190383911
0.13330906629562378 -0.24031007289886475 -0.8914728760719299
0.14337760210037231 -0.22480618953704834 -0.9844961166381836
0.14068558812141418 -0.22480618953704834 -0.9689922332763672
0.13802403211593628 -0.22480618953704834 -0.9534883499145508
0.13797347247600555 -0.22480617463588715 -0.9379844069480896
0.13798946142196655 -0.22480618953704834 -0.9224807024002075
0.13829658925533295 -0.22480618953704834 -0.9069767594337463
0.1384105682373047 -0.22480618953704834 -0.8914729356765747
0.13764512538909912 -0.22480618953704834 -0.8759689331054688
0.13269327580928802 -0.22480618953704834 -0.8604651093482971
0.14282219111919403 -0.20930230617523193 -0.9844961166381836
0.14117611944675446 -0.20930230617523193 -0.9689922332763672
0.1389094442129135 -0.20930230617523193 -0.9534883499145508
0.13889306783676147 -0.20930230617523193 -0.9379844665527344
0.1386656016111374 -0.20930230617523193 -0.922480583190918
0.13867349922657013 -0.20930230617523193 -0.9069768190383911
0.13908842206001282 -0.20930230617523193 -0.8914728760719299
0.1394907832145691 -0.20930230617523193 -0.8759690523147583
0.13967859745025635 -0.20930230617523193 -0.8604651093482971
0.13978329300880432 -0.20930230617523193 -0.8449612259864807
0.13757863640785217 -0.20930229127407074 -0.8294572830200195
0.13193415105342865 -0.20930230617523193 -0.8139535188674927
0.14029589295387268 -0.19379842281341553 -0.9844961166381836
0.14107546210289001 -0.19379842281341553 -0.9689922332763672
0.1393706500530243 -0.19379842281341553 -0.9534883499145508
0.13943955302238464 -0.19379842281341553 -0.9379844665527344
0.1390324980020523 -0.19379842281341553 -0.9224806427955627
0.13867223262786865 -0.19379842281341553 -0.9069767594337463
0.13866180181503296 -0.19379842281341553 -0.8914728760719299
0.138648122549057 -0.19379842281341553 -0.8759689331054688
0.1386617124080658 -0.19379842281341553 -0.8604651093482971
0.1389223337173462 -0.19379842281341553 -0.8449612855911255
0.13956810534000397 -0.19379842281341553 -0.8294573426246643
0.14021959900856018 -0.19379842281341553 -0.8139535188674927
0.14054064452648163 -0.19379842281341553 -0.7984496355056763
0.13700450956821442 -0.19379842281341553 -0.7829457521438599
0.1334170699119568 -0.1782945990562439 -0.9534883499145508
0.13738295435905457 -0.1782945990562439 -0.9379844665527344
0.13946819305419922 -0.1782945990562439 -0.9224806427955627
0.13973914086818695 -0.1782945990562439 -0.9069767594337463
0.13951575756072998 -0.1782945990562439 -0.8914729356765747
0.1392425298690796 -0.1782945990562439 -0.8759689927101135
0.13889342546463013 -0.1782945990562439 -0.8604651093482971
0.13866209983825684 -0.1782945990562439 -0.8449612259864807
0.13869526982307434 -0.1782945990562439 -0.8294573426246643
0.1387925148010254 -0.1782945990562439 -0.8139535188674927
0.138987734913826 -0.1782945990562439 -0.7984496355056763
0.13945011794567108 -0.1782945990562439 -0.7829457521438599
0.13948401808738708 -0.1782945990562439 -0.7674418687820435
0.138408362865448 -0.1782945990562439 -0.751937985420227
0.13740596175193787 -0.1782945990562439 -0.7364341020584106
0.13530585169792175 -0.1782945990562439 -0.7209302186965942
0.13525214791297913 -0.1627907156944275 -0.8604651689529419
0.13834577798843384 -0.1627907156944275 -0.8449611663818359
0.13959947228431702 -0.1627907156944275 -0.8294573426246643
0.1394835114479065 -0.1627907156944275 -0.8139535188674927
0.13918158411979675 -0.1627907156944275 -0.7984496355056763
0.13900446891784668 -0.1627907156944275 -0.7829457521438599
0.1387825459241867 -0.1627907156944275 -0.7674418687820435
0.13859125971794128 -0.1627907156944275 -0.751937985420227
0.13852661848068237 -0.1627907156944275 -0.7364341020584106
0.13869953155517578 -0.1627907156944275 -0.7209302186965942
0.13928385078907013 -0.1627907156944275 -0.7054263353347778
0.13913071155548096 -0.1627907156944275 -0.6899224519729614
0.13684387505054474 -0.1627907156944275 -0.674418568611145
0.13384756445884705 -0.1627907156944275 -0.6589146852493286
0.13525289297103882 -0.14728683233261108 -0.7829457521438599
0.1371108591556549 -0.14728683233261108 -0.7674418687820435
0.13753382861614227 -0.14728683233261108 -0.751937985420227
0.13821399211883545 -0.14728683233261108 -0.7364341020584106
0.13855639100074768 -0.14728683233261108 -0.7209302186965942
0.13860008120536804 -0.14728683233261108 -0.7054263353347778
0.13848777115345 -0.14728683233261108 -0.6899224519729614
0.13829493522644043 -0.14728683233261108 -0.674418568611145
0.13822118937969208 -0.14728683233261108 -0.6589146852493286
0.13831497728824615 -0.14728683233261108 -0.643410861492157
0.13838490843772888 -0.14728683233261108 -0.6279069781303406
0.13725407421588898 -0.14728683233261108 -0.6124030947685242
0.1345449686050415 -0.14728683233261108 -0.5968992114067078
0.13378305733203888 -0.13178294897079468 -0.674418568611145
0.13668930530548096 -0.13178294897079468 -0.6589146852493286
0.13797250390052795 -0.13178294897079468 -0.643410861492157
0.13793931901454926 -0.13178294897079468 -0.6279069781303406
0.13793352246284485 -0.13178294897079468 -0.6124030351638794
0.13794904947280884 -0.13178294897079468 -0.5968992114067078
0.13807575404644012 -0.13178294897079468 -0.5813953876495361
0.1384201943874359 -0.13178294897079468 -0.5658915042877197
0.13890638947486877 -0.13178294897079468 -0.5503876209259033
0.1382032334804535 -0.13178294897079468 -0.5348837375640869
0.13625487685203552 -0.13178294897079468 -0.5193798542022705
0.1339098960161209 -0.13178294897079468 -0.5038759708404541
0.13352201879024506 -0.11627906560897827 -0.6124030947685242
0.13659650087356567 -0.11627906560897827 -0.5968992114067078
0.13772830367088318 -0.11627907305955887 -0.5813953876495361
0.13786174356937408 -0.11627906560897827 -0.5658915042877197
0.13792552053928375 -0.11627906560897827 -0.5503876209259033
0.1377868950366974 -0.11627905815839767 -0.5348837375640869
0.13740426301956177 -0.11627906560897827 -0.5193798542022705
0.13714727759361267 -0.11627906560897827 -0.5038759708404541
0.1375196874141693 -0.11627906560897827 -0.4883720576763153
0.13786259293556213 -0.11627906560897827 -0.4728682041168213
0.1378168761730194 -0.11627906560897827 -0.4573643207550049
0.1364964246749878 -0.11627906560897827 -0.4418604373931885
0.13334131240844727 -0.11627906560897827 -0.42635661363601685
0.13240619003772736 -0.10077518224716187 -0.5348837375640869
0.13573670387268066 -0.10077518224716187 -0.5193798542022705
0.13690581917762756 -0.10077518224716187 -0.5038759708404541
0.13719803094863892 -0.10077518224716187 -0.4883720874786377
0.13723090291023254 -0.10077518224716187 -0.4728682041168213
0.13699518144130707 -0.10077518224716187 -0.4573643207550049
0.13684651255607605 -0.10077518224716187 -0.4418604373931885
0.13705746829509735 -0.10077518224716187 -0.42635661363601685
0.13790111243724823 -0.10077518224716187 -0.41085273027420044
0.1384090781211853 -0.10077518224716187 -0.39534884691238403
0.13844814896583557 -0.10077518224716187 -0.3798449635505676
0.13634881377220154 -0.10077517479658127 -0.3643410801887512
0.13342677056789398 -0.10077517479658127 -0.3488371968269348
0.13345524668693542 -0.08527129888534546 -0.4573643207550049
0.13584336638450623 -0.08527129888534546 -0.4418604373931885
0.13727401196956635 -0.08527129888534546 -0.42635661363601685
0.13783909380435944 -0.08527129888534546 -0.41085273027420044
0.13765044510364532 -0.08527129888534546 -0.39534884691238403
0.13742196559906006 -0.08527129888534546 -0.3798449635505676
0.13729485869407654 -0.08527129888534546 -0.3643410801887512
0.1377437263727188 -0.08527129888534546 -0.3488371968269348
0.13838306069374084 -0.08527129888534546 -0.3333333134651184
0.13878503441810608 -0.08527129888534546 -0.317829430103302
0.13836148381233215 -0.08527129888534546 -0.30232560634613037
0.13623720407485962 -0.08527129888534546 -0.28682172298431396
0.13316941261291504 -0.08527129888534546 -0.27131783962249756
0.13520365953445435 -0.06976741552352905 -0.3798449635505676
0.1371447741985321 -0.06976741552352905 -0.3643410801887512
0.13777534663677216 -0.06976741552352905 -0.3488371968269348
0.13795682787895203 -0.06976741552352905 -0.3333333134651184
0.13792431354522705 -0.06976741552352905 -0.317829430103302
0.13790719211101532 -0.06976741552352905 -0.30232560634613037
0.13780245184898376 -0.06976741552352905 -0.28682172298431396
0.13805274665355682 -0.06976741552352905 -0.27131783962249756
0.13841310143470764 -0.06976741552352905 -0.25581395626068115
0.1386033594608307 -0.06976741552352905 -0.24031007289886475
0.13680224120616913 -0.06976741552352905 -0.22480618953704834
0.1342303454875946 -0.06976741552352905 -0.20930230617523193
0.13592606782913208 -0.05426359176635742 -0.30232560634613037
0.13793832063674927 -0.05426359176635742 -0.28682172298431396
0.13834524154663086 -0.05426359549164772 -0.27131783962249756
0.13841919600963593 -0.05426359176635742 -0.25581395626068115
0.13862285017967224 -0.05426359176635742 -0.24031007289886475
0.1387922614812851 -0.05426359176635742 -0.22480618953704834
0.13892871141433716 -0.05426359176635742 -0.20930230617523193
0.13882404565811157 -0.05426359176635742 -0.19379842281341553
0.1385059356689453 -0.05426359176635742 -0.1782945990562439
0.13731051981449127 -0.05426359176635742 -0.1627907156944275
0.13467450439929962 -0.05426359176635742 -0.14728683233261108
0.13425299525260925 -0.038759708404541016 -0.22480618953704834
0.13683930039405823 -0.038759708404541016 -0.20930230617523193
0.13806018233299255 -0.038759708404541016 -0.19379842281341553
0.13798686861991882 -0.038759708404541016 -0.1782945990562439
0.1373564600944519 -0.038759708404541016 -0.1627907156944275
0.1372893750667572 -0.038759708404541016 -0.14728683233261108
0.13749457895755768 -0.038759708404541016 -0.13178294897079468
0.13666734099388123 -0.038759708404541016 -0.11627906560897827
0.13283856213092804 -0.038759708404541016 -0.10077518224716187
0.1350535750389099 -0.02325582504272461 -0.1782945990562439
0.1375785768032074 -0.02325582504272461 -0.1627907156944275
0.13699966669082642 -0.02325582504272461 -0.14728683233261108
0.1368841677904129 -0.02325582504272461 -0.13178294897079468
0.13719424605369568 -0.02325582504272461 -0.11627906560897827
0.13616801798343658 -0.02325582504272461 -0.10077518224716187
0.1360488384962082 -0.02325582504272461 -0.08527129888534546
0.136243999004364 -0.02325582504272461 -0.06976741552352905
0.1364206075668335 -0.02325582504272461 -0.05426359176635742
0.1364361196756363 -0.02325582504272461 -0.038759708404541016
0.13631826639175415 -0.02325582504272461 -0.02325582504272461
0.136276975274086 -0.02325582504272461 -0.007751941680908203
0.13607174158096313 -0.02325582504272461 0.007751941680908203
0.13572821021080017 -0.02325582504272461 0.02325582504272461
0.13571736216545105 -0.02325582504272461 0.038759708404541016
0.13578662276268005 -0.02325582504272461 0.05426359176635742
0.13545171916484833 -0.02325582504272461 0.06976747512817383
0.1355307549238205 -0.02325582504272461 0.08527135848999023
0.13541947305202484 -0.02325582504272461 0.10077523440122604
0.13513964414596558 -0.02325582504272461 0.11627912521362305
0.13480547070503235 -0.02325582690536976 0.1317828893661499
0.13458870351314545 -0.02325582504272461 0.1472867727279663
0.13431553542613983 -0.02325582504272461 0.16279065608978271
0.1340010017156601 -0.02325582504272461 0.17829453945159912
0.13373298943042755 -0.02325582504272461 0.19379842281341553
0.13340240716934204 -0.02325582504272461 0.20930232107639313
0.13315507769584656 -0.02325582504272461 0.22480618953704834
0.13333527743816376 -0.02325582504272461 0.24031008780002594
0.133588045835495 -0.02325582504272461 0.25581395626068115
0.13331490755081177 -0.02325582504272461 0.27131783962249756
0.1330357789993286 -0.02325582318007946 0.2868216931819916
0.13310185074806213 -0.02325582504272461 0.30232560634613037
0.13310667872428894 -0.02325582504272461 0.3178294897079468
0.1330658495426178 -0.02325582504272461 0.3333333730697632
0.13271723687648773 -0.02325582690536976 0.3488372564315796
0.13230466842651367 -0.02325582504272461 0.364341139793396
0.13205651938915253 -0.02325582504272461 0.37984487414360046
0.13477873802185059 -0.007751941680908203 -0.14728683233261108
0.13585364818572998 -0.007751941680908203 -0.13178294897079468
0.1354696899652481 -0.007751941680908203 -0.11627906560897827
0.135299414396286 -0.007751941680908203 -0.10077518224716187
0.1360780894756317 -0.007751941680908203 -0.08527129888534546
0.13624116778373718 -0.007751941680908203 -0.06976741552352905
0.13626934587955475 -0.007751941680908203 -0.05426359176635742
0.13615301251411438 -0.007751941680908203 -0.038759708404541016
0.1360613852739334 -0.007751941215246916 -0.02325582318007946
0.13596326112747192 -0.007751941680908203 -0.007751941680908203
0.1357967108488083 -0.007751941215246916 0.007751941215246916
0.13560751080513 -0.007751941680908203 0.02325582504272461
0.13552364706993103 -0.007751941680908203 0.038759708404541016
0.1356094628572464 -0.007751941680908203 0.05426359176635742
0.13550934195518494 -0.007751941680908203 0.06976747512817383
0.13552206754684448 -0.007751941680908203 0.08527135848999023
0.13538150489330292 -0.007751941680908203 0.10077524185180664
0.13535721600055695 -0.007751941680908203 0.11627912521362305
0.1352422535419464 -0.007751941215246916 0.1317828893661499
0.13503599166870117 -0.007751941680908203 0.1472867727279663
0.13479238748550415 -0.007751941680908203 0.16279065608978271
0.1345887929201126 -0.007751941680908203 0.17829453945159912
0.13437420129776 -0.007751941680908203 0.19379840791225433
0.13417524099349976 -0.007751941680908203 0.20930230617523193
0.13416437804698944 -0.007751941680908203 0.22480618953704834
0.1341739147901535 -0.007751941680908203 0.24031007289886475
0.13419751822948456 -0.007751941215246916 0.25581395626068115
0.1342884600162506 -0.007751941680908203 0.27131783962249756
0.13434815406799316 -0.007751941680908203 0.28682172298431396
0.13436755537986755 -0.007751941680908203 0.30232563614845276
0.13435620069503784 -0.007751941680908203 0.3178294897079468
0.1342308521270752 -0.007751941680908203 0.3333333730697632
0.13403047621250153 -0.007751941680908203 0.3488372564315796
0.1337234526872635 -0.007751941680908203 0.364341139793396
0.13352715969085693 -0.007751941680908203 0.37984490394592285
0.1333518922328949 -0.007751941680908203 0.39534878730773926
0.1332409381866455 -0.007751941680908203 0.41085267066955566
0.13319548964500427 -0.007751941215246916 0.42635655403137207
0.1332622468471527 -0.007751941680908203 0.4418604373931885
0.13327443599700928 -0.007751941215246916 0.4573643207550049
0.1332966387271881 -0.007751941215246916 0.4728682041168213
0.13334429264068604 -0.007751941680908203 0.4883720874786377
0.1333954930305481 -0.007751941680908203 0.5038759708404541
0.13329455256462097 -0.007751941680908203 0.5193798542022705
0.1330680400133133 -0.007751941680908203 0.5348837375640869
0.1328473687171936 -0.007751941680908203 0.5503876209259033
0.13265962898731232 -0.007751941680908203 0.5658915042877197
0.13250932097434998 -0.007751941680908203 0.5813953876495361
0.1323712319135666 -0.007751941680908203 0.5968992710113525
0.13239066302776337 -0.007751941680908203 0.612403154373169
0.1324872523546219 -0.007751941680908203 0.6279069185256958
0.13261732459068298 -0.007751941215246916 0.6434108018875122
0.1327582746744156 -0.007751941680908203 0.6589146852493286
0.1328793168067932 -0.00775194214656949 0.6744186282157898
0.1330258995294571 -0.007751941680908203 0.6899224519729614
0.1330309957265854 -0.007751941680908203 0.7054263353347778
0.13279765844345093 -0.007751941680908203 0.7209302186965942
0.13244450092315674 -0.00775194214656949 0.7364341020584106
0.1322953999042511 -0.007751941680908203 0.751937985420227
0.1324552446603775 -0.00775194214656949 0.7674418687820435
0.1327921450138092 -0.007751941680908203 0.7829457521438599
0.1333797425031662 -0.007751941680908203 0.7984496355056763
0.13471674919128418 -0.007751941680908203 0.8139535188674927
0.13487960398197174 -0.007751941680908203 0.8294574022293091
0.13373993337154388 -0.007751941680908203 0.8449613451957703
0.13285435736179352 -0.007751941680908203 0.8604651689529419
0.1327372044324875 -0.007751941680908203 0.8759689331054688
0.13274841010570526 -0.00775194214656949 0.8914728760719299
0.13289500772953033 -0.007751941680908203 0.9069766998291016
0.1331283450126648 -0.00775194214656949 0.922480583190918
0.13339658081531525 -0.007751941680908203 0.9379844069480896
0.13364443182945251 -0.00775194214656949 0.9534883499145508
0.13469788432121277 -0.007751941680908203 0.968992292881012
0.13783693313598633 -0.007751941680908203 0.9844961166381836
0.133497953414917 0.007751941680908203 -0.1472868174314499
0.13545656204223633 0.007751941680908203 -0.13178294897079468
0.13590988516807556 0.007751941680908203 -0.11627906560897827
0.13628777861595154 0.007751941680908203 -0.10077518224716187
0.13678042590618134 0.007751941680908203 -0.08527129888534546
0.1367374211549759 0.007751941680908203 -0.06976741552352905
0.13668742775917053 0.007751941680908203 -0.05426359176635742
0.13650833070278168 0.007751941680908203 -0.038759708404541016
0.13633574545383453 0.007751941680908203 -0.02325582504272461
0.1361735314130783 0.007751941680908203 -0.007751941680908203
0.13595989346504211 0.007751941680908203 0.007751941680908203
0.13574281334877014 0.007751941680908203 0.02325582504272461
0.1356307715177536 0.007751941215246916 0.038759708404541016
0.13569560647010803 0.007751941680908203 0.05426359549164772
0.1355557143688202 0.007751941680908203 0.06976747512817383
0.13553044199943542 0.007751941680908203 0.08527135848999023
0.1354241520166397 0.007751941680908203 0.10077524185180664
0.13536854088306427 0.007751941680908203 0.11627912521362305
0.13520771265029907 0.007751941680908203 0.1317828893661499
0.13506539165973663 0.007751941680908203 0.1472867727279663
0.1348578929901123 0.007751941680908203 0.16279065608978271
0.13468334078788757 0.007751941215246916 0.17829452455043793
0.13446417450904846 0.007751941680908203 0.19379842281341553
0.13425111770629883 0.007751941680908203 0.20930230617523193
0.13424386084079742 0.007751941680908203 0.22480618953704834
0.13425739109516144 0.007751941680908203 0.24031007289886475
0.13429000973701477 0.007751941680908203 0.25581395626068115
0.13434623181819916 0.007751941680908203 0.27131783962249756
0.13434742391109467 0.007751941215246916 0.28682172298431396
0.13430733978748322 0.007751941215246916 0.30232560634613037
0.13425315916538239 0.007751941680908203 0.3178294599056244
0.13413576781749725 0.007751941680908203 0.3333333730697632
0.13396626710891724 0.007751941680908203 0.3488372564315796
0.13367445766925812 0.007751941680908203 0.364341139793396
0.1334872841835022 0.00775194214656949 0.37984490394592285
0.13333012163639069 0.007751941215246916 0.39534878730773926
0.1332409679889679 0.007751941680908203 0.41085267066955566
0.13320758938789368 0.007751941680908203 0.42635655403137207
0.13329333066940308 0.007751941680908203 0.4418604373931885
0.13332416117191315 0.007751941215246916 0.4573643207550049
0.13334910571575165 0.007751941680908203 0.4728682041168213
0.13333283364772797 0.007751941680908203 0.4883721172809601
0.1333674192428589 0.007751941680908203 0.5038759708404541
0.1333293318748474 0.007751941680908203 0.5193798542022705
0.13311892747879028 0.007751941680908203 0.5348837375640869
0.13285590708255768 0.007751941680908203 0.5503876209259033
0.13264618813991547 0.007751941215246916 0.5658915042877197
0.132515549659729 0.007751941680908203 0.5813953876495361
0.1324089914560318 0.007751941680908203 0.5968992710113525
0.13244448602199554 0.00775194214656949 0.612403154373169
0.13255147635936737 0.007751941680908203 0.6279069781303406
0.1326819211244583 0.007751941680908203 0.6434108018875122
0.1328107714653015 0.00775194214656949 0.6589146852493286
0.13287855684757233 0.007751941680908203 0.674418568611145
0.1329527199268341 0.00775194214656949 0.6899224519729614
0.13292962312698364 0.007751941680908203 0.7054263353347778
0.13272549211978912 0.00775194214656949 0.7209302186965942
0.13243691623210907 0.007751941680908203 0.7364341020584106
0.1323203593492508 0.007751941680908203 0.7519380450248718
0.13250574469566345 0.007751941680908203 0.7674418687820435
0.13284863531589508 0.007751941680908203 0.7829457521438599
0.13346648216247559 0.007751941680908203 0.7984496355056763
0.13479256629943848 0.007751941215246916 0.8139535188674927
0.13494126498699188 0.007751941680908203 0.8294574022293091
0.1338828206062317 0.007751941215246916 0.8449612855911255
0.1330079585313797 0.007751941680908203 0.8604651689529419
0.13281668722629547 0.007751941680908203 0.8759689331054688
0.13279041647911072 0.007751941215246916 0.8914727568626404
0.1328953355550766 0.007751941680908203 0.9069766402244568
0.1330929398536682 0.007751941680908203 0.922480583190918
0.13332901895046234 0.007751941680908203 0.9379844665527344
0.13360753655433655 0.007751941680908203 0.9534883499145508
0.13469241559505463 0.007751941680908203 0.9689922332763672
0.13779331743717194 0.007751941680908203 0.9844961166381836
0.13383281230926514 0.02325582504272461 -0.1627907156944275
0.13594281673431396 0.02325582504272461 -0.14728683233261108
0.13647887110710144 0.02325582504272461 -0.13178294897079468
0.13628579676151276 0.02325582504272461 -0.11627906560897827
0.13613161444664001 0.02325582504272461 -0.10077517479658127
0.1360645741224289 0.02325582318007946 -0.08527129888534546
0.1357470154762268 0.02325582690536976 -0.06976741552352905
0.13562390208244324 0.02325582504272461 -0.05426359176635742
0.13546662032604218 0.02325582504272461 -0.038759708404541016
0.13528978824615479 0.02325582504272461 -0.02325582504272461
0.1351453959941864 0.02325582504272461 -0.007751941680908203
0.13495706021785736 0.02325582504272461 0.007751941680908203
0.1347210556268692 0.02325582504272461 0.02325582504272461
0.13459832966327667 0.02325582504272461 0.038759708404541016
0.13448147475719452 0.02325582504272461 0.05426359176635742
0.13418035209178925 0.02325582504272461 0.06976747512817383
0.13421356678009033 0.02325582504272461 0.08527135848999023
0.1341872215270996 0.02325582504272461 0.10077524185180664
0.13405784964561462 0.02325582504272461 0.11627912521362305
0.13405345380306244 0.02325582504272461 0.1317828893661499
0.133966863155365 0.02325582690536976 0.1472867727279663
0.13368678092956543 0.02325582504272461 0.16279065608978271
0.13340775668621063 0.02325582504272461 0.17829453945159912
0.13320834934711456 0.02325582504272461 0.19379842281341553
0.13302288949489594 0.02325582504272461 0.20930229127407074
0.132897287607193 0.02325582504272461 0.22480618953704834
0.13286720216274261 0.02325582504272461 0.24031007289886475
0.1329379826784134 0.02325582690536976 0.25581395626068115
0.13285745680332184 0.02325582504272461 0.27131783962249756
0.13283802568912506 0.02325582504272461 0.28682172298431396
0.13301783800125122 0.02325582504272461 0.30232560634613037
0.13308240473270416 0.02325582504272461 0.3178294897079468
0.13297441601753235 0.02325582504272461 0.3333333730697632
0.1324906200170517 0.02325582504272461 0.3488372564315796
0.1319093257188797 0.02325582504272461 0.3643411099910736
0.13225848972797394 0.02325582504272461 0.7984496355056763
0.13318468630313873 0.02325582504272461 0.8139535188674927
0.13327017426490784 0.02325582504272461 0.8294574022293091
0.13252347707748413 0.02325582318007946 0.8449612855911255
0.13203920423984528 0.02325582504272461 0.8604651689529419
0.1320985108613968 0.02325582504272461 0.8759689331054688
0.13201746344566345 0.02325582504272461 0.8914728164672852
0.1323184072971344 0.02325582504272461 0.9069766998291016
0.13196761906147003 0.02325582504272461 0.922480583190918
0.13203619420528412 0.02325582504272461 0.9534883499145508
0.13270370662212372 0.02325582504272461 0.9689921736717224
0.13614368438720703 0.02325582504272461 0.9844961166381836
0.13214468955993652 0.038759708404541016 -0.20930232107639313
0.1325005292892456 0.038759708404541016 -0.19379842281341553
0.1326592117547989 0.038759708404541016 -0.1782945990562439
0.1328907608985901 0.038759708404541016 -0.1627907156944275
0.13251933455467224 0.038759708404541016 -0.14728683233261108
0.13228817284107208 0.05426359176635742 -0.3333333134651184
0.13510282337665558 0.05426359176635742 -0.317829430103302
0.13690802454948425 0.05426359549164772 -0.30232560634613037
0.13805776834487915 0.05426359176635742 -0.28682172298431396
0.13876201212406158 0.05426359176635742 -0.27131783962249756
0.13882504403591156 0.05426359176635742 -0.25581395626068115
0.13833558559417725 0.05426359176635742 -0.24031007289886475
0.13661536574363708 0.05426359176635742 -0.22480618953704834
0.13439254462718964 0.05426359176635742 -0.20930230617523193
0.1361064314842224 0.06976747512817383 -0.39534884691238403
0.13895823061466217 0.06976747512817383 -0.3798449635505676
0.13926711678504944 0.06976747512817383 -0.3643410801887512
0.1393144130706787 0.06976747512817383 -0.3488371968269348
0.13945883512496948 0.06976747512817383 -0.3333333134651184
0.13933593034744263 0.06976747512817383 -0.317829430103302
0.13884404301643372 0.06976747512817383 -0.30232560634613037
0.1376129388809204 0.06976747512817383 -0.28682172298431396
0.13571828603744507 0.06976747512817383 -0.27131783962249756
0.13306520879268646 0.06976747512817383 -0.25581395626068115
0.13317546248435974 0.08527135848999023 -0.4883720874786377
0.13571800291538239 0.08527135848999023 -0.4728682339191437
0.13724327087402344 0.08527135848999023 -0.4573643207550049
0.1378985345363617 0.08527135848999023 -0.4418604373931885
0.13824644684791565 0.08527135848999023 -0.42635661363601685
0.1385563462972641 0.08527135848999023 -0.41085273027420044
0.13853678107261658 0.08527135848999023 -0.39534884691238403
0.1388290524482727 0.08527135848999023 -0.3798449635505676
0.138549342751503 0.08527135848999023 -0.3643410801887512
0.13647766411304474 0.08527135848999023 -0.3488371968269348
0.13297927379608154 0.08527135848999023 -0.3333333134651184
0.1326233446598053 0.10077524185180664 -0.5658915042877197
0.13503789901733398 0.10077524185180664 -0.5503876209259033
0.13678042590618134 0.10077524185180664 -0.5348837375640869
0.13756152987480164 0.10077524185180664 -0.5193798542022705
0.13713966310024261 0.10077524185180664 -0.5038759708404541
0.13691435754299164 0.10077524185180664 -0.4883720874786377
0.13675972819328308 0.10077524185180664 -0.4728682041168213
0.13684941828250885 0.10077524185180664 -0.4573643207550049
0.1373966932296753 0.10077524185180664 -0.4418604075908661
0.13780497014522552 0.10077524185180664 -0.42635664343833923
0.13672959804534912 0.10077524185180664 -0.41085273027420044
0.13427942991256714 0.10077524185180664 -0.39534884691238403
0.13449731469154358 0.11627912521362305 -0.6434108018875122
0.13613596558570862 0.11627913266420364 -0.6279070377349854
0.13714291155338287 0.11627912521362305 -0.6124030947685242
0.13736657798290253 0.11627912521362305 -0.5968992114067078
0.13705897331237793 0.11627912521362305 -0.5813953876495361
0.13692454993724823 0.11627912521362305 -0.5658915042877197
0.13694725930690765 0.11627912521362305 -0.5503876209259033
0.136570543050766 0.11627911776304245 -0.5348837375640869
0.1365458071231842 0.11627912521362305 -0.5193798542022705
0.13669365644454956 0.11627912521362305 -0.5038759708404541
0.13702775537967682 0.11627912521362305 -0.4883720874786377
0.1361936330795288 0.11627911776304245 -0.4728682041168213
0.13402628898620605 0.11627912521362305 -0.4573643207550049
0.13300660252571106 0.1317828893661499 -0.7364341020584106
0.13750678300857544 0.1317828893661499 -0.7209302186965942
0.13899481296539307 0.1317828893661499 -0.7054263353347778
0.1389218270778656 0.1317828893661499 -0.6899224519729614
0.13855718076229095 0.1317828893661499 -0.674418568611145
0.1381230354309082 0.1317828893661499 -0.6589146852493286
0.13769422471523285 0.1317828893661499 -0.643410861492157
0.13726848363876343 0.1317828893661499 -0.6279069781303406
0.13715291023254395 0.1317828893661499 -0.6124030947685242
0.1372566521167755 0.1317828893661499 -0.5968992114067078
0.13688883185386658 0.1317828893661499 -0.5813953876495361
0.13612374663352966 0.1317828893661499 -0.5658915042877197
0.13513906300067902 0.1317828893661499 -0.5503876209259033
0.13331349194049835 0.1317828893661499 -0.5348837375640869
0.13742104172706604 0.1472867727279663 -0.7984496355056763
0.14004471898078918 0.1472867727279663 -0.7829457521438599
0.13955962657928467 0.1472867727279663 -0.7674418687820435
0.1389361470937729 0.1472867727279663 -0.751937985420227
0.13840141892433167 0.1472867727279663 -0.7364341020584106
0.1379430741071701 0.1472867727279663 -0.7209302186965942
0.13783156871795654 0.1472867727279663 -0.7054263353347778
0.1378493309020996 0.1472867727279663 -0.6899224519729614
0.13787952065467834 0.1472867727279663 -0.674418568611145
0.13806287944316864 0.1472867727279663 -0.6589146852493286
0.13828147947788239 0.1472867727279663 -0.643410861492157
0.13786262273788452 0.1472867727279663 -0.6279069781303406
0.13575725257396698 0.1472867727279663 -0.6124030947685242
0.1320836991071701 0.1472867727279663 -0.5968992710113525
0.13357272744178772 0.16279065608978271 -0.9069767594337463
0.13625212013721466 0.16279065608978271 -0.8914729356765747
0.13799487054347992 0.16279065608978271 -0.8759689331054688
0.13943776488304138 0.16279065608978271 -0.8604651093482971
0.14018772542476654 0.16279065608978271 -0.8449612259864807
0.14058957993984222 0.16279065608978271 -0.8294573426246643
0.1403868943452835 0.16279065608978271 -0.8139535188674927
0.13979068398475647 0.16279065608978271 -0.7984496355056763
0.1393507421016693 0.16279065608978271 -0.7829457521438599
0.13877320289611816 0.16279065608978271 -0.7674418687820435
0.13836759328842163 0.16279065608978271 -0.751937985420227
0.13799984753131866 0.16279065608978271 -0.7364341020584106
0.13811513781547546 0.16279065608978271 -0.7209302186965942
0.1388230174779892 0.16279065608978271 -0.7054263353347778
0.13970203697681427 0.16279065608978271 -0.6899224519729614
0.13958920538425446 0.16279065608978271 -0.674418568611145
0.13610482215881348 0.16279065608978271 -0.6589146852493286
0.1360115110874176 0.17829455435276031 -0.9689922332763672
0.13690339028835297 0.17829453945159912 -0.9534883499145508
0.13859614729881287 0.17829453945159912 -0.9379844665527344
0.13934549689292908 0.17829453945159912 -0.922480583190918
0.13928772509098053 0.17829453945159912 -0.9069768190383911
0.13927733898162842 0.17829453945159912 -0.8914729356765747
0.13945534825325012 0.17829453945159912 -0.8759689331054688
0.13955050706863403 0.17829453945159912 -0.8604651093482971
0.13961336016654968 0.17829453945159912 -0.8449612259864807
0.13975557684898376 0.17829453945159912 -0.8294573426246643
0.13966518640518188 0.17829453945159912 -0.8139535188674927
0.13949072360992432 0.17829453945159912 -0.7984496355056763
0.1396920084953308 0.17829453945159912 -0.7829457521438599
0.14016425609588623 0.17829453945159912 -0.7674418687820435
0.14067813754081726 0.17829453945159912 -0.751937985420227
0.14100617170333862 0.17829453945159912 -0.7364341020584106
0.1391235589981079 0.17829453945159912 -0.7209302186965942
0.13550691306591034 0.17829453945159912 -0.7054263353347778
0.14132553339004517 0.19379842281341553 -0.9844961166381836
0.14060652256011963 0.19379842281341553 -0.9689922332763672
0.13853350281715393 0.19379842281341553 -0.9534883499145508
0.13857287168502808 0.19379842281341553 -0.9379844665527344
0.13844987750053406 0.19379842281341553 -0.9224807024002075
0.1383291631937027 0.19379842281341553 -0.9069768190383911
0.13850033283233643 0.19379842281341553 -0.8914728760719299
0.13879400491714478 0.19379842281341553 -0.8759689331054688
0.139032781124115 0.19379842281341553 -0.8604651093482971
0.13924956321716309 0.19379842281341553 -0.8449612855911255
0.13974180817604065 0.19379842281341553 -0.8294573426246643
0.14038988947868347 0.19379842281341553 -0.8139535188674927
0.14061947166919708 0.19379842281341553 -0.7984496355056763
0.13877522945404053 0.19379842281341553 -0.7829457521438599
0.13266149163246155 0.19379842281341553 -0.7674418687820435
0.1428256332874298 0.20930230617523193 -0.9844961166381836
0.1406133472919464 0.20930230617523193 -0.9689922332763672
0.1382497251033783 0.20930230617523193 -0.9534883499145508
0.1380922794342041 0.20930230617523193 -0.9379844665527344
0.13796767592430115 0.20930230617523193 -0.922480583190918
0.13799290359020233 0.20930230617523193 -0.9069768190383911
0.13829557597637177 0.20930230617523193 -0.8914728164672852
0.1385217308998108 0.20930230617523193 -0.8759689927101135
0.13813206553459167 0.20930230617523193 -0.8604651689529419
0.13649162650108337 0.20930229127407074 -0.8449611663818359
0.131851926445961 0.20930229127407074 -0.8294572830200195
0.14277198910713196 0.22480618953704834 -0.9844961166381836
0.1396988332271576 0.22480618953704834 -0.9689922332763672
0.13730695843696594 0.22480618953704834 -0.9534883499145508
0.13698573410511017 0.22480618953704834 -0.9379844665527344
0.13704055547714233 0.22480618953704834 -0.9224806427955627
0.13695119321346283 0.22480618953704834 -0.9069767594337463
0.1358070820569992 0.22480618953704834 -0.8914728164672852
0.13182547688484192 0.22480618953704834 -0.8759689927101135
0.14216575026512146 0.24031007289886475 -0.9844961166381836
0.13827727735042572 0.24031007289886475 -0.9689922332763672
0.1359533816576004 0.24031007289886475 -0.9534883499145508
0.13531988859176636 0.24031007289886475 -0.9379844665527344
0.13480894267559052 0.24031007289886475 -0.9224806427955627
0.13261526823043823 0.24031007289886475 -0.9069768190383911
0.14147423207759857 0.25581395626068115 -0.9844961166381836
0.13686826825141907 0.25581395626068115 -0.968992292881012
0.1345304250717163 0.25581395626068115 -0.9534883499145508
0.13328391313552856 0.25581395626068115 -0.9379844665527344
0.14114150404930115 0.27131783962249756 -0.9844961166381836
0.13564735651016235 0.27131783962249756 -0.9689922332763672
0.13241881132125854 0.27131783962249756 -0.9534883499145508
0.14137786626815796 0.28682172298431396 -0.9844961166381836
0.13428646326065063 0.28682172298431396 -0.9689922332763672
0.14222677052021027 0.30232560634613037 -0.9844961166381836
0.13987793028354645 0.3178294897079468 -0.9844961166381836
-0.13178294897079468 -0.3221011459827423 -0.9844961166381836
-0.13178294897079468 -0.3038667142391205 -0.9689922332763672
-0.13178294897079468 -0.2857852578163147 -0.9534883499145508
-0.13178294897079468 -0.27333956956863403 -0.9379844665527344
-0.13178294897079468 -0.2638576328754425 -0.922480583190918
-0.13178294897079468 -0.25610968470573425 -0.9069767594337463
-0.13178294897079468 -0.24193771183490753 -0.8914728760719299
-0.13178294897079468 -0.23019883036613464 -0.8759689331054688
-0.13178294897079468 -0.22516967356204987 -0.8604651093482971
-0.13178294897079468 -0.21635939180850983 -0.8449612259864807
-0.13178294897079468 -0.2111818939447403 -0.8294573426246643
-0.13178294897079468 -0.20913304388523102 -0.8139535188674927
-0.13178294897079468 -0.20117005705833435 -0.7984496355056763
-0.13178294897079468 -0.19541706144809723 -0.7829457521438599
-0.13178294897079468 -0.18326231837272644 -0.9844961166381836
-0.13178294897079468 -0.17871001362800598 -0.9689922332763672
-0.13178294897079468 -0.18819788098335266 -0.7674418687820435
-0.13178294897079468 -0.18265658617019653 -0.751937985420227
-0.13178294897079468 -0.18037483096122742 -0.7364341020584106
-0.13178294897079468 -0.17911586165428162 -0.7209302186965942
-0.13178294897079468 -0.1774710714817047 -0.9534883499145508
-0.13178294897079468 -0.17601583898067474 -0.9379844665527344
-0.13178294897079468 -0.17452016472816467 -0.9224806427955627
-0.13178294897079468 -0.17179656028747559 -0.9069768190383911
-0.13178294897079468 -0.1686708927154541 -0.8914728760719299
-0.13178294897079468 -0.16412881016731262 -0.8759689927101135
-0.13178294897079468 -0.1753154695034027 -0.7054263353347778
-0.13178294897079468 -0.169328510761261 -0.6899224519729614
-0.13178294897079468 -0.16542679071426392 -0.674418568611145
-0.13178294897079468 -0.1633690446615219 -0.6589146852493286
-0.13178294897079468 -0.16210366785526276 -0.8604651093482971
-0.13178294897079468 -0.1611068993806839 -0.8449612259864807
-0.13178294897079468 -0.15953516960144043 -0.8294574022293091
-0.13178294897079468 -0.156310573220253 -0.8139535188674927
-0.13178294897079468 -0.14934426546096802 -0.7984496355056763
-0.13178294897079468 -0.15887507796287537 -0.6434109210968018
-0.13178294897079468 -0.15314939618110657 -0.6279069781303406
-0.13178294897079468 -0.15004661679267883 -0.6124030947685242
-0.13178294897079468 -0.1482551246881485 -0.5968992114067078
-0.13178296387195587 -0.14650629460811615 -0.7829458117485046
-0.13178294897079468 -0.14589914679527283 -0.7674418687820435
-0.13178294897079468 -0.1451929807662964 -0.751937985420227
-0.13178294897079468 -0.14368216693401337 -0.7364341020584106
-0.13178294897079468 -0.14079643785953522 -0.7209302186965942
-0.13178294897079468 -0.13717947900295258 -0.7054263353347778
-0.13178294897079468 -0.14611732959747314 -0.5813953876495361
