0.1317828893661499 0.5000779628753662 -0.7674418687820435
0.1317828893661499 0.500282883644104 -0.751937985420227
0.1317828893661499 0.5002643465995789 -0.7364341020584106
0.1317828893661499 0.5003442168235779 -0.7209302186965942
0.1317828893661499 0.5004260540008545 -0.7054263353347778
0.1317828893661499 0.5003605484962463 -0.6899224519729614
0.1317828893661499 0.5002446174621582 -0.674418568611145
0.1317828893661499 0.5001680850982666 -0.6589146852493286
0.1317828893661499 0.5001312494277954 -0.643410861492157
0.1317828893661499 0.5001333951950073 -0.6279069781303406
0.1317828893661499 0.5002686977386475 -0.6124030947685242
0.1317828893661499 0.500288724899292 -0.5968992114067078
0.1317828893661499 0.5003278851509094 -0.5813953876495361
0.1317828893661499 0.5005285143852234 -0.5658915042877197
0.1317828893661499 0.500952959060669 -0.5503876209259033
0.1317828893661499 0.5012153387069702 -0.5348837375640869
0.1317828893661499 0.5008530616760254 -0.5193798542022705
0.1317828893661499 0.5009809136390686 -0.5038759708404541
0.1317828893661499 0.5015993118286133 -0.4883720874786377
0.1317828893661499 0.5017029643058777 -0.4728682041168213
0.1317828893661499 0.5016779899597168 -0.4573643207550049
0.1317828893661499 0.5018830299377441 -0.4418604373931885
0.1317828893661499 0.502265214920044 -0.42635661363601685
0.1317828893661499 0.5025433301925659 -0.41085273027420044
0.1317828893661499 0.5026758909225464 -0.39534884691238403
0.1317828893661499 0.5026336908340454 -0.3798449635505676
0.1317828893661499 0.5025399923324585 -0.3643410801887512
0.1317828893661499 0.5024322867393494 -0.3488371968269348
0.1317828893661499 0.5023090243339539 -0.3333333134651184
0.1317828893661499 0.5022192597389221 -0.317829430103302
0.1317828893661499 0.5022416114807129 -0.30232560634613037
0.1317828893661499 0.5025204420089722 -0.28682172298431396
0.1317828893661499 0.5029023885726929 -0.27131783962249756
0.1317828893661499 0.5032064914703369 -0.25581395626068115
0.1317828893661499 0.502987265586853 -0.24031007289886475
0.1317828893661499 0.5024983882904053 -0.22480618953704834
0.1317828893661499 0.5018612146377563 -0.20930230617523193
0.1317828893661499 0.5013710856437683 -0.19379842281341553
0.1317828893661499 0.5014374256134033 -0.1782945990562439
0.1317828893661499 0.5007674694061279 -0.1627907156944275
0.1317828893661499 0.4978475570678711 -0.14728683233261108
0.1317828893661499 0.49746406078338623 -0.13178294897079468
0.1317828893661499 0.5003254413604736 -0.11627906560897827
0.1317828893661499 0.5010283589363098 -0.10077518224716187
0.1317828893661499 0.5008360147476196 -0.08527129888534546
0.1317828893661499 0.5006410479545593 -0.06976741552352905
0.1317828893661499 0.5005794167518616 -0.05426359176635742
0.1317828893661499 0.5006883144378662 -0.038759708404541016
0.1317828893661499 0.5007429122924805 -0.02325582504272461
0.1317828893661499 0.5003578662872314 -0.007751941680908203
0.1317828893661499 0.4991844594478607 0.007751941680908203
0.1317828893661499 0.4994853436946869 0.02325582504272461
0.1317828893661499 0.5015214681625366 0.038759708404541016
0.1317828893661499 0.5024961233139038 0.05426359176635742
0.1317828893661499 0.5030152201652527 0.06976747512817383
0.1317828893661499 0.5030308961868286 0.08527135848999023
0.1317828893661499 0.5028572082519531 0.10077524185180664
0.1317828893661499 0.502395749092102 0.11627912521362305
0.1317828893661499 0.5016927719116211 0.1317828893661499
0.1317828893661499 0.501528263092041 0.1472867727279663
0.1317828893661499 0.5010583400726318 0.16279065608978271
0.1317828893661499 0.5010395050048828 0.17829453945159912
0.1317828893661499 0.5014601945877075 0.19379842281341553
0.1317828893661499 0.5016220808029175 0.20930230617523193
0.1317828893661499 0.5019980669021606 0.22480618953704834
0.1317828893661499 0.5025084614753723 0.24031007289886475
0.1317828893661499 0.5028976798057556 0.25581395626068115
0.1317828893661499 0.5028381943702698 0.27131783962249756
0.1317828893661499 0.5023666024208069 0.28682172298431396
0.1317828893661499 0.5016869306564331 0.30232560634613037
0.1317828893661499 0.5012046098709106 0.3178294897079468
0.1317828893661499 0.5010539293289185 0.3333333730697632
0.1317828893661499 0.5012706518173218 0.3488372564315796
0.1317828893661499 0.5016058683395386 0.364341139793396
0.1317828893661499 0.5020593404769897 0.37984490394592285
0.1317828893661499 0.5026012063026428 0.39534878730773926
0.1317828893661499 0.5030103325843811 0.41085267066955566
0.1317828893661499 0.5032385587692261 0.42635655403137207
0.1317828893661499 0.503040075302124 0.4418604373931885
0.1317828893661499 0.5023213624954224 0.4573643207550049
0.1317828893661499 0.5001531839370728 0.4728682041168213
0.1317828893661499 0.49773168563842773 0.4883720874786377
0.1317828893661499 0.4966416656970978 0.5038759708404541
0.1317828893661499 0.4991307556629181 0.5193798542022705
0.1317828893661499 0.5011745095252991 0.5348837375640869
0.1317828893661499 0.5018832683563232 0.5503876209259033
0.1317828893661499 0.5023314952850342 0.5658915042877197
0.1317828893661499 0.5028457641601562 0.5813953876495361
0.1317828893661499 0.5035378932952881 0.5968992710113525
0.1317828893661499 0.5036505460739136 0.6434108018875122
0.1317828893661499 0.5029894113540649 0.6589146852493286
0.1317828893661499 0.5020909309387207 0.674418568611145
0.1317828893661499 0.5013608932495117 0.6899224519729614
0.1317828893661499 0.501021146774292 0.7054263353347778
0.1317828893661499 0.5013549327850342 0.7209302186965942
0.1317828893661499 0.501988410949707 0.7364341020584106
0.1317828893661499 0.5026482343673706 0.751937985420227
0.1317828893661499 0.5025633573532104 0.7674418687820435
0.1317828893661499 0.5021948218345642 0.7829457521438599
0.1317828893661499 0.5018875002861023 0.7984496355056763
0.1317828893661499 0.5019487142562866 0.8139535188674927
0.1317828893661499 0.5011505484580994 0.8294574022293091
0.1317828893661499 0.49032437801361084 0.8449612259864807
0.1317828893661499 0.4956395626068115 0.8604651689529419
0.1317828893661499 0.5038251876831055 0.9689922332763672
0.1317828893661499 0.5025367736816406 0.9844961166381836
0.1317828893661499 0.5062431693077087 0.612403154373169
0.1317828893661499 0.5062631964683533 0.6279069781303406
0.1317828893661499 0.5144928097724915 0.8759689331054688
0.1317828893661499 0.5162233114242554 0.9534883499145508
0.1317828893661499 0.5214521884918213 0.8914728164672852
0.1317828893661499 0.5234754681587219 0.9069766998291016
0.1317828893661499 0.5235839486122131 0.922480583190918
0.1317828893661499 0.5213821530342102 0.9379844665527344
0.1317828893661499 0.541808009147644 -0.9844961166381836
0.1317828893661499 0.5384163856506348 -0.9689922332763672
0.1317828893661499 0.5377017855644226 -0.9534883499145508
0.1317828893661499 0.5375375151634216 -0.9379844665527344
0.1317828893661499 0.5374780893325806 -0.922480583190918
0.1317828893661499 0.5374339818954468 -0.9069766998291016
0.1317828893661499 0.5374547839164734 -0.8914728760719299
0.1317828893661499 0.5375703573226929 -0.8759690523147583
0.1317828893661499 0.5376836061477661 -0.8604651093482971
0.1317828893661499 0.5377985239028931 -0.8449612259864807
0.1317828893661499 0.53780198097229 -0.8294573426246643
0.1317828893661499 0.5377743244171143 -0.8139535188674927
0.1317828893661499 0.53767991065979 -0.798449695110321
0.1317828893661499 0.5376690626144409 -0.7829457521438599
0.1317828893661499 0.5376101732254028 -0.7674418687820435
0.1317828893661499 0.5376070737838745 -0.751937985420227
0.1317828893661499 0.537574291229248 -0.7364341020584106
0.1317828893661499 0.5375537276268005 -0.7209302186965942
0.1317828893661499 0.537555456161499 -0.7054263353347778
0.1317828893661499 0.5375422239303589 -0.6899224519729614
0.1317828893661499 0.5375649333000183 -0.674418568611145
0.1317828893661499 0.5375365018844604 -0.6589146852493286
0.1317828893661499 0.5375200510025024 -0.643410861492157
0.1317828893661499 0.5375009775161743 -0.6279070377349854
0.1317828893661499 0.537506103515625 -0.6124030947685242
0.1317828893661499 0.5374470353126526 -0.5968992114067078
0.1317828893661499 0.5373196601867676 -0.5813953876495361
0.1317828893661499 0.5371648669242859 -0.5658915042877197
0.1317828893661499 0.5369701385498047 -0.5503876209259033
0.1317828893661499 0.5370606184005737 -0.5348837375640869
0.1317828893661499 0.5372609496116638 -0.5193798542022705
0.1317828893661499 0.5373071432113647 -0.5038759708404541
0.1317828893661499 0.5373017191886902 -0.4883720874786377
0.1317828893661499 0.5374751091003418 -0.4728682041168213
0.1317828893661499 0.5377142429351807 -0.4573643207550049
0.1317828893661499 0.5378508567810059 -0.4418604373931885
0.1317828893661499 0.5377707481384277 -0.42635661363601685
0.1317828893661499 0.5377373695373535 -0.41085273027420044
0.1317828893661499 0.5377400517463684 -0.39534884691238403
0.1317828893661499 0.5376594066619873 -0.3798449635505676
0.1317828893661499 0.537621259689331 -0.36434105038642883
0.1317828893661499 0.5375945568084717 -0.3488371968269348
0.1317828893661499 0.5374970436096191 -0.3333333134651184
0.1317828893661499 0.5375269055366516 -0.317829430103302
0.1317828893661499 0.5375186204910278 -0.30232560634613037
0.1317828893661499 0.5375952124595642 -0.28682172298431396
0.1317828893661499 0.5376700162887573 -0.27131783962249756
0.1317828893661499 0.5376657843589783 -0.25581395626068115
0.1317828893661499 0.5377739071846008 -0.24031007289886475
0.1317828893661499 0.5378946661949158 -0.22480618953704834
0.1317828893661499 0.5379288792610168 -0.20930229127407074
0.1317828893661499 0.5379616022109985 -0.19379842281341553
0.1317828893661499 0.5379944443702698 -0.1782945990562439
0.1317828893661499 0.5379352569580078 -0.1627907156944275
0.1317828893661499 0.5380454659461975 -0.14728683233261108
0.1317828893661499 0.5381642580032349 -0.13178294897079468
0.1317828893661499 0.5382351279258728 -0.11627906560897827
0.1317828893661499 0.5384081602096558 -0.10077518224716187
0.1317828893661499 0.5385817885398865 -0.08527129888534546
0.1317828893661499 0.5387247800827026 -0.06976741552352905
0.1317828893661499 0.5387741923332214 -0.05426359176635742
0.1317828893661499 0.5388082265853882 -0.038759708404541016
0.1317828893661499 0.538857102394104 -0.02325582504272461
0.1317828893661499 0.5388123989105225 -0.007751941680908203
0.1317828893661499 0.5386365652084351 0.007751941680908203
0.1317828893661499 0.5385103821754456 0.02325582504272461
0.1317828893661499 0.5383747816085815 0.038759708404541016
0.1317828893661499 0.5379950404167175 0.05426359176635742
0.1317828893661499 0.5379027128219604 0.06976747512817383
0.1317828893661499 0.5381072759628296 0.08527135848999023
0.1317828893661499 0.5383244156837463 0.10077524185180664
0.1317828893661499 0.5384601354598999 0.11627912521362305
0.1317828893661499 0.5385448336601257 0.1317828893661499
0.1317828893661499 0.5384275317192078 0.1472867727279663
0.1317828893661499 0.538260281085968 0.16279065608978271
0.1317828893661499 0.5383294820785522 0.17829453945159912
0.1317828893661499 0.5384212136268616 0.19379842281341553
0.1317828893661499 0.5382292866706848 0.20930230617523193
0.1317828893661499 0.53793865442276 0.22480618953704834
0.1317828893661499 0.5377101302146912 0.24031007289886475
0.1317828893661499 0.5375515222549438 0.25581395626068115
0.1317828893661499 0.5375354290008545 0.27131783962249756
0.1317828893661499 0.5378819108009338 0.28682172298431396
0.1317828893661499 0.538117527961731 0.30232560634613037
0.1317828893661499 0.5382093787193298 0.3178294897079468
0.1317828893661499 0.5381604433059692 0.3333333730697632
0.1317828893661499 0.538084089756012 0.3488372564315796
0.1317828893661499 0.5379470586776733 0.364341139793396
0.1317828893661499 0.5376508235931396 0.37984490394592285
0.1317828893661499 0.5372908711433411 0.39534878730773926
0.1317828893661499 0.5368797183036804 0.41085267066955566
0.1317828893661499 0.5365078449249268 0.42635655403137207
0.1317828893661499 0.5363305807113647 0.4418604373931885
0.1317828893661499 0.5367862582206726 0.4573643207550049
0.1317828893661499 0.5374170541763306 0.4728682041168213
0.1317828893661499 0.5376262068748474 0.4883720874786377
0.1317828893661499 0.5375450849533081 0.5038759708404541
0.1317828893661499 0.5376565456390381 0.5193798542022705
0.1317828893661499 0.53763347864151 0.5348837375640869
0.1317828893661499 0.5374297499656677 0.5503876209259033
0.1317828893661499 0.5372075438499451 0.5658915042877197
0.1317828893661499 0.5368449091911316 0.5813953876495361
0.1317828893661499 0.536175549030304 0.5968992710113525
0.1317828893661499 0.5356543660163879 0.612403154373169
0.1317828744649887 0.5355746746063232 0.6279069185256958
0.1317828893661499 0.5361250042915344 0.6434108018875122
0.1317828893661499 0.5368866324424744 0.6589146852493286
0.1317828893661499 0.5374485850334167 0.674418568611145
0.1317828893661499 0.5377208590507507 0.6899224519729614
0.1317828893661499 0.5378180146217346 0.7054263353347778
0.1317828893661499 0.5378998517990112 0.7209302186965942
0.1317828893661499 0.537853479385376 0.7364341020584106
0.1317828893661499 0.5377910733222961 0.751937985420227
0.1317828893661499 0.5377424955368042 0.7674418687820435
0.1317828893661499 0.5377412438392639 0.7829457521438599
0.1317828893661499 0.5376726388931274 0.7984496355056763
0.1317828893661499 0.5375005602836609 0.8139535188674927
0.1317828893661499 0.5372638702392578 0.8294574022293091
0.1317828893661499 0.5373129844665527 0.8449612855911255
0.1317828893661499 0.5383157730102539 0.8604651689529419
0.1317828893661499 0.5386618971824646 0.8759689331054688
0.1317828893661499 0.5385535955429077 0.8914728164672852
0.1317828893661499 0.5384318828582764 0.9069766998291016
0.1317828893661499 0.5382193326950073 0.922480583190918
0.1317828893661499 0.5381535291671753 0.9379844665527344
0.1317828893661499 0.5380479693412781 0.9534883499145508
0.1317828893661499 0.538658857345581 0.9689922332763672
0.1317828893661499 0.5395057797431946 0.9844961166381836
0.1472867727279663 -0.5414679050445557 -0.9844961166381836
0.1472867727279663 -0.5373758673667908 -0.9689922332763672
0.1472867727279663 -0.5371571779251099 -0.9534883499145508
0.1472867727279663 -0.5371978282928467 -0.9379844665527344
0.1472867727279663 -0.5371890664100647 -0.922480583190918
0.1472867727279663 -0.5370920896530151 -0.9069766998291016
0.1472867727279663 -0.5370410084724426 -0.8914728164672852
0.1472867727279663 -0.5370251536369324 -0.8759689927101135
0.1472867727279663 -0.5369867086410522 -0.8604651093482971
0.1472867727279663 -0.5369366407394409 -0.8449612259864807
0.1472867727279663 -0.5369085669517517 -0.8294573426246643
0.1472867727279663 -0.5368900895118713 -0.8139535188674927
0.1472867727279663 -0.5368672013282776 -0.7984496355056763
0.1472867727279663 -0.5369030237197876 -0.7829457521438599
0.1472867727279663 -0.5369012355804443 -0.7674418687820435
0.1472867727279663 -0.5369060039520264 -0.751937985420227
0.1472867727279663 -0.5369288325309753 -0.7364341020584106
0.1472867727279663 -0.5369346141815186 -0.7209302186965942
0.1472867727279663 -0.5368927717208862 -0.7054263353347778
0.1472867727279663 -0.5368636846542358 -0.6899224519729614
0.1472867727279663 -0.5368475914001465 -0.674418568611145
0.1472867727279663 -0.53684401512146 -0.6589146852493286
0.1472867727279663 -0.5368366837501526 -0.643410861492157
0.1472867727279663 -0.5368127822875977 -0.6279069781303406
0.1472867727279663 -0.5368102192878723 -0.6124030947685242
0.1472867727279663 -0.5367744565010071 -0.5968992114067078
0.1472867727279663 -0.5366194844245911 -0.5813953876495361
0.1472867727279663 -0.5366662740707397 -0.5658915042877197
0.1472867727279663 -0.5366681814193726 -0.5503876209259033
0.1472867727279663 -0.5368157625198364 -0.5348837375640869
0.1472867727279663 -0.5367486476898193 -0.5193798542022705
0.1472867727279663 -0.5367178320884705 -0.5038759708404541
0.1472867727279663 -0.5367380976676941 -0.4883720874786377
0.1472867727279663 -0.5366970896720886 -0.4728682041168213
0.1472867727279663 -0.5366987586021423 -0.4573643207550049
0.1472867727279663 -0.5367504358291626 -0.4418604373931885
0.1472867727279663 -0.5367050170898438 -0.42635661363601685
0.1472867727279663 -0.5366657972335815 -0.41085273027420044
0.1472867727279663 -0.5367019176483154 -0.39534884691238403
0.1472867727279663 -0.536737859249115 -0.3798449635505676
0.1472867727279663 -0.5367634892463684 -0.3643410801887512
0.1472867727279663 -0.5367713570594788 -0.3488371968269348
0.1472867727279663 -0.536719799041748 -0.3333333134651184
0.1472867727279663 -0.5367183685302734 -0.317829430103302
0.1472867727279663 -0.5367346405982971 -0.30232560634613037
0.1472867727279663 -0.5367840528488159 -0.28682172298431396
0.1472867727279663 -0.5368340611457825 -0.27131783962249756
0.1472867727279663 -0.5368456840515137 -0.25581395626068115
0.1472867727279663 -0.5368065237998962 -0.24031007289886475
0.1472867727279663 -0.5367816090583801 -0.22480618953704834
0.1472867727279663 -0.5367756485939026 -0.20930230617523193
0.1472867727279663 -0.5368215441703796 -0.19379842281341553
0.1472867727279663 -0.536811888217926 -0.1782945990562439
0.1472867727279663 -0.5367141962051392 -0.1627907156944275
0.1472867727279663 -0.5366348624229431 -0.14728683233261108
0.1472867727279663 -0.5365681648254395 -0.13178294897079468
0.1472867727279663 -0.5365970730781555 -0.11627906560897827
0.1472867727279663 -0.5366787314414978 -0.10077518224716187
0.1472867727279663 -0.5367307066917419 -0.08527129888534546
0.1472867727279663 -0.5367580056190491 -0.06976741552352905
0.1472867727279663 -0.5367727279663086 -0.05426359176635742
0.1472867727279663 -0.5367549657821655 -0.038759708404541016
0.1472867727279663 -0.536789059638977 -0.02325582504272461
0.1472867727279663 -0.5367499589920044 -0.007751941680908203
0.1472867727279663 -0.5365811586380005 0.007751941680908203
0.1472867727279663 -0.5365829467773438 0.02325582504272461
0.1472867727279663 -0.5368281006813049 0.038759708404541016
0.1472867727279663 -0.5369420647621155 0.05426359176635742
0.1472867727279663 -0.5369613170623779 0.06976747512817383
0.1472867727279663 -0.5369121432304382 0.08527135848999023
0.1472867727279663 -0.5368764996528625 0.10077524185180664
0.1472867727279663 -0.536888837814331 0.11627912521362305
0.1472867727279663 -0.5369076132774353 0.1317828893661499
0.1472867727279663 -0.536885678768158 0.1472867727279663
0.1472867727279663 -0.5367221832275391 0.16279065608978271
0.1472867727279663 -0.536733865737915 0.17829453945159912
0.1472867727279663 -0.5367864370346069 0.19379842281341553
0.1472867727279663 -0.5368261933326721 0.20930230617523193
0.1472867727279663 -0.5368552207946777 0.22480618953704834
0.1472867727279663 -0.536865234375 0.24031007289886475
0.1472867727279663 -0.5368279814720154 0.25581395626068115
0.1472867727279663 -0.5367712378501892 0.27131783962249756
0.1472867727279663 -0.5367099046707153 0.28682172298431396
0.1472867727279663 -0.5366755723953247 0.30232560634613037
0.1472867727279663 -0.5367076396942139 0.3178294897079468
0.1472867727279663 -0.5367372035980225 0.3333333730697632
0.1472867727279663 -0.536721408367157 0.3488372564315796
0.1472867727279663 -0.5367102026939392 0.364341139793396
0.1472867727279663 -0.5367463231086731 0.37984490394592285
0.1472867727279663 -0.5367899537086487 0.39534878730773926
0.1472867727279663 -0.5368072390556335 0.41085267066955566
0.1472867727279663 -0.5368418097496033 0.42635655403137207
0.1472867727279663 -0.5368143916130066 0.4418604373931885
0.1472867727279663 -0.5366420149803162 0.4573643207550049
0.1472867727279663 -0.5365918278694153 0.4728682041168213
0.1472867727279663 -0.5367122292518616 0.4883720874786377
0.1472867727279663 -0.5367063879966736 0.5038759708404541
0.1472867727279663 -0.5366356372833252 0.5193798542022705
0.1472867727279663 -0.5369935035705566 0.5348837375640869
0.1472867727279663 -0.5371215343475342 0.5503876209259033
0.1472867727279663 -0.5371527671813965 0.5658915042877197
0.1472867727279663 -0.5371387004852295 0.5813953876495361
0.1472867727279663 -0.5371760129928589 0.5968992710113525
0.1472867727279663 -0.537160336971283 0.612403154373169
0.1472867727279663 -0.5371053814888 0.6279069185256958
0.1472867727279663 -0.5370835065841675 0.6434108018875122
0.1472867727279663 -0.5370419025421143 0.6589146852493286
0.1472867727279663 -0.5370445251464844 0.674418568611145
0.1472867727279663 -0.5370502471923828 0.6899224519729614
0.1472867727279663 -0.5370886325836182 0.7054263353347778
0.1472867727279663 -0.5371028780937195 0.7209302186965942
0.1472867727279663 -0.5370848774909973 0.7364341020584106
0.1472867727279663 -0.5370789170265198 0.751937985420227
0.1472867727279663 -0.5371004939079285 0.7674418687820435
0.1472867727279663 -0.5370933413505554 0.7829457521438599
0.1472867727279663 -0.5370643734931946 0.7984496355056763
0.1472867727279663 -0.5369579195976257 0.8139535188674927
0.1472867727279663 -0.5366528630256653 0.8294574022293091
0.1472867727279663 -0.5365921854972839 0.8449612855911255
0.1472867727279663 -0.5368877053260803 0.8604651689529419
0.1472867727279663 -0.5373695492744446 0.8759689331054688
0.1472867727279663 -0.537778377532959 0.8914728164672852
0.1472867727279663 -0.53777676820755 0.9069766998291016
0.1472867727279663 -0.5374450087547302 0.922480583190918
0.1472867727279663 -0.5371999740600586 0.9379844665527344
0.1472867727279663 -0.537217915058136 0.9534883499145508
0.1472867727279663 -0.537727952003479 0.9689922332763672
0.1472867727279663 -0.5384690761566162 0.9844961166381836
0.1472867727279663 -0.48977431654930115 0.5968992710113525
0.1472867727279663 -0.4920298159122467 0.612403154373169
0.1472867727279663 -0.4919971227645874 0.6279069185256958
0.1472867727279663 -0.49074897170066833 0.6434108018875122
0.1472867727279663 -0.4817236065864563 -0.9844961166381836
0.1472867727279663 -0.4869312345981598 -0.9689921736717224
0.1472867727279663 -0.4873747229576111 -0.953488290309906
0.1472867727279663 -0.48725467920303345 -0.9379844665527344
0.1472867727279663 -0.4871184229850769 -0.9224806427955627
0.1472867727279663 -0.48675110936164856 -0.9069766998291016
0.1472867727279663 -0.48651206493377686 -0.8914728760719299
0.1472867727279663 -0.4861859977245331 -0.8759689927101135
0.1472867727279663 -0.48528075218200684 -0.8604651093482971
0.1472867727279663 -0.4844798147678375 -0.8449612855911255
0.1472867727279663 -0.48438262939453125 -0.8294573426246643
0.1472867727279663 -0.48454535007476807 -0.8139535188674927
0.1472867727279663 -0.4848734736442566 -0.7984496355056763
0.1472867727279663 -0.4852904677391052 -0.7829457521438599
0.1472867727279663 -0.4857555031776428 -0.7674418687820435
0.14728675782680511 -0.48602864146232605 -0.751937985420227
0.1472867727279663 -0.48590368032455444 -0.7364341616630554
0.1472867727279663 -0.48579642176628113 -0.7209302186965942
0.1472867727279663 -0.48581892251968384 -0.7054263353347778
0.1472867727279663 -0.48575010895729065 -0.6899224519729614
0.1472867727279663 -0.4855164885520935 -0.674418568611145
0.1472867727279663 -0.485397607088089 -0.6589146852493286
0.1472867727279663 -0.4855375587940216 -0.643410861492157
0.1472867727279663 -0.4858825206756592 -0.6279069781303406
0.1472867727279663 -0.4860309660434723 -0.6124030947685242
0.1472867727279663 -0.48594626784324646 -0.596899151802063
0.1472867727279663 -0.4851953983306885 -0.5813953876495361
0.1472867727279663 -0.48505520820617676 -0.5658915042877197
0.1472867727279663 -0.4850093424320221 -0.5503876209259033
0.1472867727279663 -0.48372969031333923 -0.5348837375640869
0.1472867727279663 -0.48000264167785645 -0.4883720874786377
0.1472867727279663 -0.48372882604599 -0.4728682041168213
0.1472867727279663 -0.48463869094848633 -0.4573643207550049
0.1472867727279663 -0.48521119356155396 -0.4418604373931885
0.1472867727279663 -0.48600542545318604 -0.42635661363601685
0.1472867727279663 -0.486563116312027 -0.41085273027420044
0.1472867727279663 -0.48661425709724426 -0.39534884691238403
0.1472867727279663 -0.48595255613327026 -0.3798449635505676
0.1472867727279663 -0.4852977395057678 -0.3643410801887512
0.1472867727279663 -0.4847540259361267 -0.3488371968269348
0.1472867727279663 -0.4844914674758911 -0.3333333134651184
0.1472867727279663 -0.4846591353416443 -0.317829430103302
0.1472867727279663 -0.48509839177131653 -0.30232560634613037
0.1472867727279663 -0.4856855571269989 -0.28682172298431396
0.1472867727279663 -0.4868563711643219 -0.27131783962249756
0.1472867727279663 -0.48787614703178406 -0.25581395626068115
0.1472867727279663 -0.48808208107948303 -0.24031007289886475
0.1472867727279663 -0.4876680374145508 -0.22480618953704834
0.1472867727279663 -0.48657169938087463 -0.20930230617523193
0.1472867727279663 -0.48530858755111694 -0.19379842281341553
0.1472867727279663 -0.48477932810783386 -0.1782945990562439
0.1472867727279663 -0.48305726051330566 -0.1627907156944275
0.1472867727279663 -0.48104703426361084 -0.11627906560897827
0.1472867727279663 -0.4839746952056885 -0.10077518224716187
0.1472867727279663 -0.48385345935821533 -0.08527129888534546
0.1472867727279663 -0.4832608103752136 -0.06976741552352905
0.1472867727279663 -0.48313337564468384 -0.05426359176635742
0.1472867727279663 -0.48306959867477417 -0.038759708404541016
0.1472867727279663 -0.48220711946487427 -0.02325582504272461
0.1472867727279663 -0.47505810856819153 -0.007751941680908203
0.1472867727279663 -0.4762585163116455 0.038759708404541016
0.1472867727279663 -0.4825037717819214 0.05426359176635742
0.1472867727279663 -0.48406773805618286 0.06976747512817383
0.1472867727279663 -0.48558762669563293 0.08527135848999023
0.1472867727279663 -0.48634350299835205 0.10077524185180664
0.1472867727279663 -0.4858313500881195 0.11627912521362305
0.1472867727279663 -0.4843718409538269 0.1317828893661499
0.1472867727279663 -0.4791925549507141 0.1472867727279663
0.1472867727279663 -0.4821301996707916 0.19379842281341553
0.1472867727279663 -0.4844243824481964 0.20930230617523193
0.1472867727279663 -0.4852791428565979 0.22480620443820953
0.1472867727279663 -0.4857267737388611 0.24031007289886475
0.1472867727279663 -0.4860018491744995 0.25581395626068115
0.1472867727279663 -0.4857584834098816 0.27131783962249756
0.1472867727279663 -0.4852050840854645 0.28682172298431396
0.1472867727279663 -0.48453661799430847 0.30232560634613037
0.1472867727279663 -0.4840909242630005 0.3178294897079468
0.1472867727279663 -0.484285444021225 0.3333333730697632
0.1472867727279663 -0.4847269356250763 0.3488372564315796
0.1472867727279663 -0.48526719212532043 0.364341139793396
0.1472867727279663 -0.4860004782676697 0.37984490394592285
0.1472867727279663 -0.48654407262802124 0.39534878730773926
0.1472867727279663 -0.4864635169506073 0.41085267066955566
0.1472867727279663 -0.48585760593414307 0.42635655403137207
0.1472867727279663 -0.4849798381328583 0.4418604373931885
0.1472867727279663 -0.48419517278671265 0.45736435055732727
0.1472867727279663 -0.4772034287452698 0.4728682041168213
0.1472867727279663 -0.48284512758255005 0.5348837375640869
0.1472867727279663 -0.48545607924461365 0.5503876209259033
0.1472867727279663 -0.4867095351219177 0.5658915042877197
0.1472867727279663 -0.48770615458488464 0.5813953876495361
0.1472867876291275 -0.488280326128006 0.6589146852493286
0.1472867727279663 -0.4877144694328308 0.674418568611145
0.1472867727279663 -0.48728787899017334 0.6899224519729614
0.1472867727279663 -0.48703664541244507 0.7054263353347778
0.1472867727279663 -0.4873995780944824 0.7209302186965942
0.1472867727279663 -0.4878186583518982 0.7364340424537659
0.1472867727279663 -0.48820215463638306 0.751937985420227
0.1472867876291275 -0.4881908595561981 0.7674418687820435
0.1472867727279663 -0.4877711832523346 0.7829457521438599
0.1472867876291275 -0.48733600974082947 0.7984496355056763
0.1472867876291275 -0.4869307279586792 0.8139535188674927
0.1472867727279663 -0.48419249057769775 0.8294574022293091
0.1472867727279663 -0.4780770242214203 0.8759689331054688
0.1472867727279663 -0.48600053787231445 0.8914728164672852
0.14728675782680511 -0.48765748739242554 0.9069766998291016
0.1472867727279663 -0.4882563352584839 0.922480583190918
0.1472867727279663 -0.4879308044910431 0.9379844665527344
0.1472867727279663 -0.48699331283569336 0.9534883499145508
0.1472867727279663 -0.485048770904541 0.9689922332763672
0.1472867727279663 -0.48427048325538635 0.9844961166381836
0.1472867727279663 -0.46357637643814087 -0.007751941680908203
0.1472867727279663 -0.44551634788513184 -0.4883720874786377
0.1472867727279663 -0.4459827244281769 -0.1627907156944275
0.1472867727279663 -0.4451942443847656 -0.11627906560897827
0.1472867727279663 -0.45098525285720825 0.8759689331054688
0.1472867727279663 -0.428638219833374 0.1472867727279663
0.1472867727279663 -0.3980584144592285 -0.4883720874786377
0.1472867727279663 -0.40874114632606506 0.5348837375640869
0.1472867727279663 -0.3869224488735199 0.1472867727279663
0.1472867727279663 -0.36132270097732544 -0.1627907156944275
0.1472867727279663 -0.34957462549209595 -0.11627906560897827
0.1472867727279663 -0.3083859086036682 0.5348837375640869
0.1472867727279663 -0.29386794567108154 -0.5193798542022705
0.1472867727279663 -0.25669577717781067 0.5348837375640869
0.1472867727279663 -0.21613185107707977 -0.5193798542022705
0.1472867727279663 -0.1429123729467392 -0.5193798542022705
0.1472867727279663 -0.10777535289525986 -0.5038759708404541
0.1472867727279663 -0.09448442608118057 -0.5038759708404541
0.1472867727279663 0.11144468933343887 -0.5193798542022705
0.1472867727279663 0.21150249242782593 -0.5193798542022705
0.1472867727279663 0.24300611019134521 0.5348837375640869
0.1472867727279663 0.30116820335388184 -0.5193798542022705
0.1472867727279663 0.3418947458267212 -0.11627906560897827
0.1472867727279663 0.3994821012020111 -0.1627907156944275
0.1472867727279663 0.4228828251361847 -0.11627906560897827
0.1472867727279663 0.42592117190361023 -0.007751941680908203
0.1472867727279663 0.4268539547920227 -0.1627907156944275
0.1472867727279663 0.4539927840232849 -0.5193798542022705
0.1472867727279663 0.45676127076148987 0.02325582504272461
0.1472867727279663 0.4513164758682251 0.16279065608978271
0.1472867727279663 0.44437259435653687 0.17829453945159912
0.1472867727279663 0.45246174931526184 0.4883720874786377
0.1472867727279663 0.45437875390052795 0.8759689331054688
0.1472867727279663 0.45777198672294617 -0.5038759708404541
0.1472867727279663 0.4641624093055725 -0.14728683233261108
0.1472867727279663 0.46630674600601196 -0.13178294897079468
0.1472867727279663 0.45852428674697876 0.007751941680908203
0.1472867727279663 0.4598701596260071 0.5193798542022705
0.1472867727279663 0.4833036959171295 0.4883720874786377
0.1472867727279663 0.4945226311683655 -0.9844961166381836
0.1472867727279663 0.49800121784210205 -0.9689922332763672
0.1472867727279663 0.4988694190979004 -0.9534883499145508
0.1472867727279663 0.4990033805370331 -0.9379844665527344
0.1472867727279663 0.4989393651485443 -0.9224806427955627
0.1472867727279663 0.498871386051178 -0.9069768190383911
0.1472867727279663 0.49888932704925537 -0.8914728164672852
0.1472867727279663 0.49883508682250977 -0.8759690523147583
0.1472867727279663 0.4982236623764038 -0.8604650497436523
0.1472867727279663 0.49775707721710205 -0.8449612855911255
0.1472867727279663 0.4975753724575043 -0.8294573426246643
0.1472867727279663 0.49757879972457886 -0.8139535188674927
0.1472867727279663 0.4977630078792572 -0.7984496355056763
0.1472867727279663 0.4981491267681122 -0.7829457521438599
0.1472867727279663 0.49868810176849365 -0.7674418687820435
0.1472867727279663 0.4989973306655884 -0.751937985420227
0.1472867727279663 0.49901485443115234 -0.7364341020584106
0.1472867727279663 0.4991295039653778 -0.7209302186965942
0.1472867727279663 0.49922865629196167 -0.7054263353347778
0.1472867727279663 0.4990556538105011 -0.6899224519729614
0.1472867727279663 0.4987466335296631 -0.674418568611145
0.1472867727279663 0.4985634684562683 -0.6589146852493286
0.1472867727279663 0.4984879493713379 -0.643410861492157
0.1472867727279663 0.49851179122924805 -0.6279069781303406
0.1472867727279663 0.49873995780944824 -0.6124030947685242
0.1472867727279663 0.4989778995513916 -0.5968992114067078
0.1472867727279663 0.499206006526947 -0.5813953876495361
0.1472867727279663 0.49950993061065674 -0.5658915042877197
0.1472867727279663 0.4999602735042572 -0.5503876209259033
0.1472867727279663 0.49984732270240784 -0.5348837375640869
0.1472867727279663 0.4977002739906311 -0.5193798542022705
0.1472867727279663 0.49685338139533997 -0.5038759708404541
0.1472867727279663 0.49965885281562805 -0.4883720874786377
0.1472867727279663 0.5002495050430298 -0.4728682041168213
0.1472867727279663 0.5002903938293457 -0.4573643207550049
0.1472867727279663 0.5004921555519104 -0.4418604373931885
0.1472867727279663 0.5008876323699951 -0.42635661363601685
0.1472867727279663 0.5012967586517334 -0.41085273027420044
0.1472867727279663 0.5014266967773438 -0.39534884691238403
0.1472867727279663 0.5013307332992554 -0.3798449635505676
0.1472867727279663 0.5011559724807739 -0.3643410801887512
0.1472867727279663 0.500969409942627 -0.3488371968269348
0.1472867727279663 0.5008253455162048 -0.3333333134651184
0.1472867727279663 0.5006899833679199 -0.317829430103302
0.1472867727279663 0.500648021697998 -0.30232560634613037
0.1472867727279663 0.5008986592292786 -0.28682172298431396
0.1472867727279663 0.5012990236282349 -0.27131783962249756
0.1472867727279663 0.5016267895698547 -0.25581395626068115
0.1472867727279663 0.501456618309021 -0.24031007289886475
0.1472867727279663 0.5009993314743042 -0.22480618953704834
0.1472867727279663 0.500296950340271 -0.20930230617523193
0.1472867727279663 0.49962836503982544 -0.19379842281341553
0.1472867727279663 0.4996112287044525 -0.1782945990562439
0.1472867727279663 0.49860385060310364 -0.1627907156944275
0.1472867727279663 0.4927285313606262 -0.14728683233261108
0.1472867727279663 0.4912218749523163 -0.13178294897079468
0.1472867727279663 0.49763813614845276 -0.11627906560897827
0.1472867727279663 0.49906671047210693 -0.10077518224716187
0.1472867727279663 0.4988400340080261 -0.08527129888534546
0.1472867727279663 0.49862241744995117 -0.06976741552352905
0.1472867727279663 0.49860861897468567 -0.05426359176635742
0.1472867727279663 0.4988222122192383 -0.038759708404541016
0.1472867727279663 0.49875837564468384 -0.02325582504272461
0.1472867727279663 0.49722158908843994 -0.007751941680908203
0.1472867727279663 0.4916475713253021 0.007751941680908203
0.1472867727279663 0.49074241518974304 0.02325582504272461
0.1472867727279663 0.49741747975349426 0.038759708404541016
0.1472867727279663 0.4993707537651062 0.05426359176635742
0.1472867727279663 0.5003011226654053 0.06976747512817383
0.1472867727279663 0.5010143518447876 0.08527135848999023
0.1472867727279663 0.5012229681015015 0.10077524185180664
0.1472867727279663 0.5005673170089722 0.11627912521362305
0.1472867727279663 0.499347060918808 0.1317828893661499
0.1472867727279663 0.49817293882369995 0.1472867727279663
0.1472867727279663 0.4960256814956665 0.16279065608978271
0.1472867727279663 0.4967538118362427 0.17829453945159912
0.1472867727279663 0.4983816146850586 0.19379842281341553
0.1472867727279663 0.4990619421005249 0.20930230617523193
0.1472867727279663 0.49971139430999756 0.22480618953704834
0.1472867727279663 0.50014728307724 0.24031007289886475
0.1472867727279663 0.5003979206085205 0.25581395626068115
0.1472867727279663 0.5002305507659912 0.27131783962249756
0.1472867727279663 0.4996178150177002 0.28682172298431396
0.1472867727279663 0.4987458884716034 0.30232560634613037
0.1472867727279663 0.4983368515968323 0.3178294897079468
0.1472867727279663 0.49845343828201294 0.3333333730697632
0.1472867727279663 0.49905499815940857 0.3488372564315796
0.1472867727279663 0.49976646900177 0.364341139793396
0.1472867727279663 0.500291109085083 0.37984490394592285
0.1472867727279663 0.5006694793701172 0.39534878730773926
0.1472867727279663 0.500698447227478 0.41085267066955566
0.1472867727279663 0.5004281997680664 0.42635655403137207
0.1472867727279663 0.5000290870666504 0.4418604373931885
0.1472867727279663 0.4994966685771942 0.4573643207550049
0.1472867727279663 0.4955396056175232 0.4728682041168213
0.1472867727279663 0.4954991340637207 0.5193798542022705
0.1472867727279663 0.4992789030075073 0.5348837375640869
0.1472867727279663 0.5003004670143127 0.5503876209259033
0.1472867727279663 0.5008605718612671 0.5658915042877197
0.1472867727279663 0.5015056729316711 0.5813953876495361
0.1472867727279663 0.5024827718734741 0.5968992710113525
0.1472867727279663 0.5030659437179565 0.612403154373169
0.1472867727279663 0.5031253099441528 0.6279069185256958
0.1472867727279663 0.502833366394043 0.6434108018875122
0.1472867727279663 0.5020915865898132 0.6589146852493286
0.1472867727279663 0.5010715126991272 0.674418568611145
0.1472867727279663 0.5002816915512085 0.6899224519729614
0.1472867727279663 0.500023365020752 0.7054263353347778
0.1472867727279663 0.5005505084991455 0.7209302186965942
0.1472867727279663 0.501358687877655 0.7364341020584106
0.1472867727279663 0.5021665692329407 0.751937985420227
0.1472867727279663 0.5021491646766663 0.7674418687820435
0.1472867727279663 0.501609206199646 0.7829457521438599
0.1472867727279663 0.5009379982948303 0.7984496355056763
0.1472867727279663 0.5004326105117798 0.8139535188674927
0.1472867727279663 0.49829286336898804 0.8294574022293091
0.1472867727279663 0.49480515718460083 0.8759689331054688
0.1472867727279663 0.5001782178878784 0.8914728164672852
0.1472867727279663 0.5005816221237183 0.9069766998291016
0.1472867727279663 0.5008055567741394 0.922480583190918
0.1472867727279663 0.5010789632797241 0.9379844665527344
0.1472867727279663 0.5012226700782776 0.9534883499145508
0.1472867727279663 0.5002356767654419 0.9689922332763672
0.1472867727279663 0.4977997839450836 0.9844961166381836
0.1472867727279663 0.5437189340591431 -0.9844961166381836
0.1472867727279663 0.5390482544898987 -0.9689921736717224
0.1472867727279663 0.5384754538536072 -0.9534883499145508
0.1472867727279663 0.5383501052856445 -0.9379844665527344
0.1472867727279663 0.538273811340332 -0.9224806427955627
0.1472867727279663 0.5382410883903503 -0.9069767594337463
0.1472867727279663 0.5383439660072327 -0.8914728164672852
0.1472867727279663 0.5384794473648071 -0.8759690523147583
0.1472867727279663 0.5386416912078857 -0.8604651093482971
0.1472867727279663 0.5387864112854004 -0.8449612855911255
0.1472867727279663 0.5388465523719788 -0.8294573426246643
0.1472867727279663 0.5388436317443848 -0.8139535188674927
0.1472867727279663 0.538793683052063 -0.7984496355056763
0.1472867727279663 0.538811206817627 -0.7829457521438599
0.1472867727279663 0.5387458205223083 -0.7674418687820435
0.1472867727279663 0.5387471914291382 -0.751937985420227
0.1472867727279663 0.5386422872543335 -0.7364341020584106
0.1472867727279663 0.5385905504226685 -0.7209302186965942
0.1472867727279663 0.5385748147964478 -0.7054263353347778
0.1472867727279663 0.5385710000991821 -0.6899224519729614
0.1472867727279663 0.5386332273483276 -0.674418568611145
0.1472867727279663 0.5386493802070618 -0.6589146852493286
0.1472867727279663 0.5386461615562439 -0.643410861492157
0.1472867727279663 0.5385997295379639 -0.6279069781303406
0.1472867727279663 0.5385609865188599 -0.6124030947685242
0.1472867727279663 0.5384571552276611 -0.5968992114067078
0.1472867727279663 0.5384676456451416 -0.5813953876495361
0.1472867727279663 0.5385892987251282 -0.5658915042877197
0.1472867727279663 0.538427472114563 -0.5503876209259033
0.1472867727279663 0.5382777452468872 -0.5348837375640869
0.1472867727279663 0.5384726524353027 -0.5193798542022705
0.1472867727279663 0.5385972261428833 -0.5038759708404541
0.1472867727279663 0.538619875907898 -0.4883720874786377
0.1472867727279663 0.5388039350509644 -0.4728682041168213
0.1472867727279663 0.5390162467956543 -0.4573643207550049
0.1472867727279663 0.5391696691513062 -0.44186046719551086
0.1472867727279663 0.5391297340393066 -0.42635661363601685
0.1472867727279663 0.539081335067749 -0.41085273027420044
0.1472867727279663 0.5390689969062805 -0.39534884691238403
0.1472867727279663 0.5389816761016846 -0.3798449635505676
0.1472867727279663 0.5389724969863892 -0.3643410801887512
0.1472867727279663 0.5389470458030701 -0.3488371968269348
0.1472867727279663 0.5388527512550354 -0.3333333134651184
0.1472867727279663 0.5389040112495422 -0.317829430103302
0.1472867727279663 0.5389086604118347 -0.30232560634613037
0.1472867727279663 0.5390270948410034 -0.28682172298431396
0.1472867727279663 0.5392054319381714 -0.27131783962249756
0.1472867727279663 0.5392823815345764 -0.25581395626068115
0.1472867727279663 0.5392897129058838 -0.24031007289886475
0.1472867727279663 0.5392362475395203 -0.22480618953704834
0.1472867727279663 0.5391766428947449 -0.20930230617523193
0.1472867727279663 0.5392030477523804 -0.19379842281341553
0.1472867727279663 0.5392379760742188 -0.1782945990562439
0.1472867727279663 0.5390918254852295 -0.1627907156944275
0.1472867727279663 0.5391380786895752 -0.14728683233261108
0.1472867727279663 0.5392332077026367 -0.13178294897079468
0.1472867727279663 0.5393776893615723 -0.11627906560897827
0.1472867727279663 0.5395886898040771 -0.10077518224716187
0.1472867727279663 0.5397471785545349 -0.08527129888534546
0.1472867727279663 0.539902925491333 -0.06976741552352905
0.1472867727279663 0.539980411529541 -0.05426359176635742
0.1472867727279663 0.5400347709655762 -0.038759708404541016
0.1472867727279663 0.5400577783584595 -0.02325582504272461
0.1472867727279663 0.5398847460746765 -0.007751941680908203
0.1472867727279663 0.539652407169342 0.007751941680908203
0.1472867727279663 0.539592981338501 0.02325582504272461
0.1472867727279663 0.5396718382835388 0.038759708404541016
0.1472867727279663 0.5397135019302368 0.05426359176635742
0.1472867727279663 0.5397434830665588 0.06976747512817383
0.1472867727279663 0.5396476984024048 0.08527135848999023
0.1472867727279663 0.5395726561546326 0.10077524185180664
0.1472867727279663 0.5396550893783569 0.11627912521362305
0.1472867727279663 0.5397025346755981 0.1317828893661499
0.1472867727279663 0.5395789742469788 0.1472867727279663
0.1472867727279663 0.5394223928451538 0.16279065608978271
0.1472867727279663 0.539423942565918 0.17829453945159912
0.1472867727279663 0.5394991040229797 0.19379840791225433
0.1472867727279663 0.5394493341445923 0.20930230617523193
0.1472867727279663 0.5392741560935974 0.22480618953704834
0.1472867727279663 0.5392231941223145 0.24031005799770355
0.1472867727279663 0.5392793416976929 0.25581395626068115
0.1472867727279663 0.5393601655960083 0.27131783962249756
0.1472867727279663 0.539574146270752 0.28682172298431396
0.1472867727279663 0.5396695137023926 0.30232560634613037
0.1472867727279663 0.5396977066993713 0.3178294897079468
0.1472867727279663 0.5396169424057007 0.3333333730697632
0.1472867727279663 0.5394818782806396 0.3488372564315796
0.1472867727279663 0.5393469929695129 0.3643411695957184
0.1472867727279663 0.5392158627510071 0.37984490394592285
0.1472867727279663 0.5391252636909485 0.39534878730773926
0.1472867727279663 0.539055347442627 0.41085267066955566
0.1472867727279663 0.5390143394470215 0.42635655403137207
0.1472867727279663 0.5388500690460205 0.4418604373931885
0.1472867727279663 0.5387424230575562 0.4573642909526825
0.1472867727279663 0.5388040542602539 0.4728682041168213
0.1472867727279663 0.5391148328781128 0.4883720874786377
0.1472867727279663 0.5394390821456909 0.5038759708404541
0.1472867727279663 0.5394109487533569 0.5193798542022705
0.1472867727279663 0.5393972992897034 0.5348837375640869
0.1472867727279663 0.5395673513412476 0.5503876209259033
0.1472867727279663 0.539374589920044 0.5658915042877197
0.1472867727279663 0.5393161177635193 0.5813953876495361
0.1472867727279663 0.5393960475921631 0.5968992710113525
0.1472867727279663 0.5393410921096802 0.612403154373169
0.1472867727279663 0.5392420291900635 0.6279069185256958
0.1472867727279663 0.5392230749130249 0.6434108018875122
0.1472867727279663 0.5391480922698975 0.6589146852493286
0.1472867727279663 0.5391945838928223 0.674418568611145
0.1472867727279663 0.539310872554779 0.6899224519729614
0.1472867727279663 0.539405107498169 0.7054263353347778
0.1472867727279663 0.5394692420959473 0.7209302186965942
0.1472867727279663 0.5394269824028015 0.7364340424537659
0.1472867727279663 0.5394126176834106 0.751937985420227
0.1472867727279663 0.5393904447555542 0.7674418687820435
0.1472867727279663 0.5393881797790527 0.7829457521438599
0.1472867727279663 0.5393620729446411 0.7984496355056763
0.1472867727279663 0.5392675995826721 0.8139535188674927
0.1472867727279663 0.5390642285346985 0.8294574022293091
0.1472867727279663 0.5388800501823425 0.8449612855911255
0.1472867727279663 0.5392662286758423 0.8604651689529419
0.1472867727279663 0.5398359894752502 0.8759689331054688
0.1472867727279663 0.5403566360473633 0.8914727568626404
0.1472867727279663 0.5402069687843323 0.9069766998291016
0.1472867727279663 0.5397170782089233 0.922480583190918
0.1472867727279663 0.5394463539123535 0.9379844665527344
0.1472867727279663 0.5394051671028137 0.9534883499145508
0.1472867727279663 0.5399430990219116 0.9689922332763672
0.1472867727279663 0.5414018034934998 0.9844961166381836
0.16279065608978271 -0.43630629777908325 -0.5193798542022705
0.16279065608978271 -0.4071911573410034 -0.5193798542022705
0.16279065608978271 -0.3158501386642456 -0.5193798542022705
0.16279065608978271 -0.11990977078676224 -0.5038759708404541
0.16279065608978271 -0.08956381678581238 -0.5038759708404541
0.16279065608978271 -0.0276072658598423 -0.5193798542022705
0.16279065608978271 0.03919369354844093 -0.5193798542022705
0.16279065608978271 0.17313255369663239 -0.5193798542022705
0.16279065608978271 0.2266732156276703 -0.5193798542022705
0.16279065608978271 0.33275994658470154 -0.5193798542022705
0.16279065608978271 0.3748351037502289 -0.5193798542022705
0.16279065608978271 0.42673933506011963 -0.5193798542022705
-0.1627907156944275 -0.4418604373931885 -0.5199311971664429
-0.1627907156944275 -0.4418604373931885 -0.5126656889915466
-0.1627907156944275 -0.42635661363601685 -0.5213397741317749
-0.1627907156944275 -0.42635661363601685 -0.5039340853691101
-0.1627907156944275 -0.41085273027420044 -0.5214968919754028
-0.1627907156944275 -0.41085273027420044 -0.501431941986084
-0.1627907156944275 -0.39534884691238403 -0.5206854343414307
-0.1627907156944275 -0.39534884691238403 -0.5062962174415588
-0.1627907156944275 -0.3798449635505676 -0.5201035141944885
-0.1627907156944275 -0.3798449635505676 -0.5118750333786011
-0.1627907156944275 -0.3643410801887512 -0.519783079624176
-0.1627907156944275 -0.3643410801887512 -0.5152459740638733
-0.1627907156944275 -0.3488371968269348 -0.519830048084259
-0.1627907156944275 -0.3488371968269348 -0.5145824551582336
-0.1627907156944275 -0.3333333134651184 -0.5203152298927307
-0.1627907156944275 -0.3333333134651184 -0.5088021755218506
-0.1627907156944275 -0.317829430103302 -0.52056884765625
-0.1627907156944275 -0.317829430103302 -0.503990113735199
-0.1627907156944275 -0.30232560634613037 -0.5207826495170593
-0.1627907156944275 -0.30232560634613037 -0.5033388137817383
-0.1627907156944275 -0.28682172298431396 -0.5211515426635742
-0.1627907156944275 -0.28682172298431396 -0.5026078224182129
-0.1627907156944275 -0.28682172298431396 0.020005181431770325
-0.1627907156944275 -0.2868216931819916 0.02334224060177803
-0.1627907156944275 -0.27131783962249756 -0.521450936794281
-0.1627907156944275 -0.27131783962249756 -0.5021359324455261
-0.1627907156944275 -0.27131783962249756 0.020283028483390808
-0.1627907156944275 -0.27131783962249756 0.02334028296172619
-0.1627907156944275 -0.25581395626068115 -0.5216967463493347
-0.1627907007932663 -0.25581395626068115 -0.5017685890197754
-0.1627907156944275 -0.25581395626068115 0.016158422455191612
-0.1627907156944275 -0.25581395626068115 0.023465890437364578
-0.1627907156944275 -0.24031007289886475 -0.521654486656189
-0.1627907156944275 -0.24031005799770355 -0.5021094083786011
-0.1627907156944275 -0.24031007289886475 0.018121328204870224
