-0.49940335750579834 -0.20930230617523193 0.22480618953704834
-0.4979366064071655 -0.19379842281341553 0.28682172298431396
-0.5026953220367432 -0.1627907156944275 0.42635655403137207
-0.5000755786895752 -0.10077518224716187 0.7209302186965942
-0.4934627413749695 -0.10077518224716187 0.7364341020584106
-0.49815720319747925 -0.06976741552352905 0.6589146852493286
-0.4932575821876526 -0.06976741552352905 0.9379844665527344
-0.4967692494392395 -0.06976741552352905 0.9534883499145508
-0.5001475811004639 -0.05426359176635742 0.674418568611145
-0.48909032344818115 -0.05426359176635742 0.6899224519729614
-0.49082478880882263 -0.05426359176635742 0.8139535188674927
-0.4894256293773651 -0.05426359176635742 0.8604651689529419
-0.4892142713069916 -0.05426359176635742 0.8759689331054688
-0.5030975341796875 -0.038759708404541016 0.7364341020584106
-0.49378424882888794 -0.038759708404541016 0.751937985420227
-0.5000166893005371 -0.038759708404541016 0.7674418687820435
-0.49123454093933105 -0.038759708404541016 0.8914728164672852
-0.5008910894393921 -0.02325582504272461 0.8914728164672852
-0.5008772611618042 -0.00775194214656949 0.8914728164672852
-0.5031753182411194 0.007751941680908203 0.8914728164672852
-0.5010601282119751 0.02325582504272461 0.8914728164672852
-0.501298189163208 0.038759708404541016 0.7829457521438599
-0.49047815799713135 0.038759708404541016 0.7984496355056763
-0.49885937571525574 0.05426359176635742 0.9069766998291016
-0.4920029044151306 0.05426359176635742 0.9844961166381836
-0.49442264437675476 0.06976747512817383 0.7054263353347778
-0.4897831678390503 0.08527135848999023 0.7829457521438599
-0.4917562007904053 0.10077524185180664 0.7209302186965942
-0.5009811520576477 0.11627912521362305 0.674418568611145
-0.4892924427986145 0.16279065608978271 0.4573643207550049
-0.4926028847694397 0.17829453945159912 0.364341139793396
-0.49698325991630554 0.19379842281341553 0.28682172298431396
-0.4978548288345337 0.24031008780002594 0.06976747512817383
-0.5015639662742615 0.25581395626068115 -0.11627906560897827
-0.49184370040893555 0.25581395626068115 0.007751941680908203
-0.48937949538230896 0.3333333730697632 -0.22480618953704834
-0.4915529489517212 0.3488372564315796 -0.39534884691238403
-0.502881646156311 0.37984490394592285 -0.3643410801887512
-0.5025973320007324 0.39534878730773926 -0.5503876209259033
-0.4928930401802063 0.39534878730773926 -0.41085273027420044
-0.4991734027862549 0.4883720874786377 -0.8139535188674927
-0.49298834800720215 0.5038759708404541 -0.8449612855911255
-0.49466297030448914 0.5193798542022705 -0.8759689331054688
-0.5024056434631348 0.5348837375640869 -0.9224806427955627
-0.4903550148010254 0.5348837375640869 -0.9069767594337463
-0.5038745999336243 0.5503875613212585 -0.9689922332763672
-0.4983360767364502 0.5503876209259033 -0.953488290309906
-0.5021200180053711 0.5503876209259033 -0.8604650497436523
-0.49653154611587524 0.5658915042877197 -0.9844961166381836
-0.4948881268501282 0.5658915042877197 -0.9689922332763672
-0.4957464635372162 0.5658915042877197 -0.8914728760719299
-0.4931948781013489 0.5813953876495361 -0.9844961166381836
-0.4910520017147064 0.5813953876495361 -0.9689922332763672
-0.49069535732269287 0.5968992710113525 -0.9844961166381836
-0.4923916161060333 0.5968992710113525 -0.9689922332763672
-0.49382638931274414 0.612403154373169 -0.9844961166381836
-0.48668453097343445 -0.5813953876495361 -0.9689922332763672
-0.4844350516796112 -0.5813953876495361 -0.9534883499145508
-0.4859344959259033 -0.5813953876495361 -0.9379844665527344
-0.48804283142089844 -0.5658915042877197 -0.9689922332763672
-0.48431575298309326 -0.5658915042877197 -0.9534883499145508
-0.47999948263168335 -0.5658915042877197 -0.9379844665527344
-0.48693421483039856 -0.5503876209259033 -0.953488290309906
-0.4821687936782837 -0.5503876209259033 -0.9379844665527344
-0.48700404167175293 -0.5348837375640869 -0.9379844665527344
-0.47945621609687805 -0.5348837375640869 -0.922480583190918
-0.47924673557281494 -0.5193798542022705 -0.9069767594337463
-0.4871847331523895 -0.5038759708404541 -0.7829457521438599
-0.48269903659820557 -0.3798449635505676 -0.3488371968269348
-0.4865090548992157 -0.3643411099910736 -0.28682175278663635
-0.4740371108055115 -0.30232560634613037 -0.1782945990562439
-0.47418028116226196 -0.14728683233261108 0.5193798542022705
-0.475411593914032 -0.13178294897079468 0.42635655403137207
-0.47804874181747437 -0.11627906560897827 0.7054263353347778
-0.4819754362106323 -0.10077518224716187 0.612403154373169
-0.48682892322540283 -0.10077518224716187 0.751937985420227
-0.4809591472148895 -0.10077518224716187 0.7674418687820435
-0.4762725234031677 -0.10077518224716187 0.7829457521438599
-0.48578566312789917 -0.08527129888534546 0.7829457521438599
-0.47883403301239014 -0.08527129888534546 0.7984496355056763
-0.4773420989513397 -0.08527129888534546 0.8139535188674927
-0.47763127088546753 -0.08527129888534546 0.8294574022293091
-0.4782487154006958 -0.08527129888534546 0.8449612855911255
-0.4776843786239624 -0.08527129888534546 0.8604651689529419
-0.4748968780040741 -0.08527129888534546 0.8759689331054688
-0.4869017004966736 -0.06976741552352905 0.674418568611145
-0.47454023361206055 -0.06976741552352905 0.8604651689529419
-0.47343796491622925 -0.06976741552352905 0.8759689331054688
-0.47350722551345825 -0.06976741552352905 0.922480583190918
-0.48315784335136414 -0.06976741552352905 0.9689922332763672
-0.4817340672016144 -0.06976741552352905 0.9844961166381836
-0.4803731441497803 -0.05426359176635742 0.8914728164672852
-0.4761122465133667 -0.05426359176635742 0.9069766998291016
-0.48831236362457275 -0.038759708404541016 0.8759689331054688
-0.48298704624176025 0.038759708404541016 0.8914728164672852
-0.48048415780067444 0.038759708404541016 0.9069766998291016
-0.48709845542907715 0.05426358804106712 0.8914727568626404
-0.4851779341697693 0.06976747512817383 0.9379844665527344
-0.47969353199005127 0.06976747512817383 0.9534883499145508
-0.4731597900390625 0.08527135848999023 0.674418568611145
-0.481006920337677 0.08527135848999023 0.7984496355056763
-0.4760744273662567 0.08527135848999023 0.8139535188674927
-0.4743290841579437 0.10077524185180664 0.5813953876495361
-0.487375408411026 0.10077524185180664 0.5968992710113525
-0.4794829785823822 0.10077524185180664 0.7364341020584106
-0.4845370054244995 0.11627912521362305 0.5038759708404541
-0.4770612418651581 0.11627912521362305 0.6899224519729614
-0.4849437475204468 0.20930230617523193 0.19379842281341553
-0.4823959171772003 0.3178294897079468 -0.1782945990562439
-0.4878714978694916 0.3333333730697632 -0.22480618953704834
-0.48469170928001404 0.364341139793396 -0.4418604373931885
-0.4774378538131714 0.37984490394592285 -0.3643410801887512
-0.48320889472961426 0.39534878730773926 -0.41085273027420044
-0.47604432702064514 0.41085267066955566 -0.4573643207550049
-0.48318710923194885 0.42635655403137207 -0.5193798542022705
-0.48076561093330383 0.5348837375640869 -0.8914729356765747
-0.48787909746170044 0.5503876805305481 -0.9379845261573792
-0.4832195043563843 0.5503876209259033 -0.9224806427955627
-0.4767507314682007 0.5503876209259033 -0.9069767594337463
-0.48620080947875977 0.5658915042877197 -0.9534883499145508
-0.4829970598220825 0.5658915042877197 -0.9379844665527344
-0.4787347912788391 0.5658915042877197 -0.9224806427955627
-0.4857928156852722 0.5813953876495361 -0.9534883499145508
-0.48493871092796326 0.5813953876495361 -0.9379844665527344
-0.4716157913208008 -0.565891444683075 -0.922480583190918
-0.469875693321228 -0.5658915042877197 -0.9069768190383911
-0.472861111164093 -0.5503876805305481 -0.9224806427955627
-0.4690592288970947 -0.5503876209259033 -0.9069767594337463
-0.4651504456996918 -0.5503876209259033 -0.8914728164672852
-0.4702211022377014 -0.5348837375640869 -0.9069766998291016
-0.4666103720664978 -0.5348837375640869 -0.8914728164672852
-0.4684264063835144 -0.5193798542022705 -0.8914729356765747
-0.4639846086502075 -0.4728682041168213 -0.7364341020584106
-0.4677310585975647 -0.42635661363601685 -0.6899224519729614
-0.4696722626686096 -0.42635661363601685 -0.5658915042877197
-0.4641987979412079 -0.41085273027420044 -0.643410861492157
-0.4652671813964844 -0.3488371968269348 -0.24031007289886475
-0.4606366455554962 -0.3333333134651184 -0.3333333134651184
-0.4713415205478668 -0.3333333134651184 -0.20930230617523193
-0.47184666991233826 -0.30232560634613037 -0.1782945990562439
-0.4677187502384186 -0.28682172298431396 -0.14728683233261108
-0.46707117557525635 -0.27131783962249756 -0.11627906560897827
-0.460121750831604 -0.27131783962249756 0.007751941680908203
-0.47084683179855347 -0.20930230617523193 0.06976747512817383
-0.46434295177459717 -0.19379842281341553 0.10077524185180664
-0.4667580723762512 -0.1782945990562439 0.1317828893661499
-0.47051486372947693 -0.1627907156944275 0.27131783962249756
-0.4698338508605957 -0.1627907156944275 0.42635655403137207
-0.4574083089828491 -0.14728683233261108 0.5348837375640869
-0.47072482109069824 -0.13178294897079468 0.612403154373169
-0.4621790051460266 -0.10077518224716187 0.5813953876495361
-0.471561998128891 -0.10077518224716187 0.5968992710113525
-0.47061824798583984 -0.10077518224716187 0.7984495759010315
-0.460086464881897 -0.10077518224716187 0.8139535188674927
-0.4588764011859894 -0.08527129888534546 0.674418568611145
-0.4705407917499542 -0.08527130633592606 0.6899224519729614
-0.46906834840774536 -0.08527129888534546 0.8914728164672852
-0.4622001051902771 -0.08527129888534546 0.9069766998291016
-0.45830202102661133 -0.08527129888534546 0.922480583190918
-0.46549004316329956 -0.06976741552352905 0.8139535188674927
-0.46120092272758484 -0.06976741552352905 0.8294574022293091
-0.466078519821167 -0.06976741552352905 0.8449612855911255
-0.46684885025024414 -0.06976741552352905 0.8914728164672852
-0.4648747444152832 -0.06976741552352905 0.9069766998291016
-0.45792651176452637 -0.038759708404541016 0.8759689331054688
-0.47241365909576416 0.02325582504272461 0.9069766998291016
-0.47049322724342346 0.038759708404541016 0.8139535188674927
-0.4600750505924225 0.038759708404541016 0.8294574022293091
-0.45865195989608765 0.038759708404541016 0.8449612855911255
-0.46483734250068665 0.038759708404541016 0.8604651689529419
-0.4719778001308441 0.038759708404541016 0.8759689331054688
-0.4702985882759094 0.05426359176635742 0.7364341020584106
-0.46634364128112793 0.05426359176635742 0.8759689331054688
-0.46700042486190796 0.06976747512817383 0.8759689331054688
-0.46062541007995605 0.06976747512817383 0.8914728164672852
-0.4607223868370056 0.06976747512817383 0.9069766998291016
-0.4682188630104065 0.06976747512817383 0.922480583190918
-0.46880948543548584 0.06976747512817383 0.9689922332763672
-0.46123403310775757 0.06976747512817383 0.9844961166381836
-0.4609341025352478 0.08527135848999023 0.6589146852493286
-0.47147852182388306 0.08527135848999023 0.8294574618339539
-0.465803861618042 0.08527135848999023 0.8449612855911255
-0.46362191438674927 0.08527135848999023 0.8604651689529419
-0.4625755548477173 0.08527135848999023 0.8759689331054688
-0.4619211256504059 0.08527135848999023 0.8914728164672852
-0.46159881353378296 0.08527135848999023 0.9069766998291016
-0.46073174476623535 0.08527135848999023 0.922480583190918
-0.4594818353652954 0.08527135848999023 0.9379844665527344
-0.46399641036987305 0.10077524185180664 0.5658915042877197
-0.4702082574367523 0.10077524185180664 0.751937985420227
-0.46279218792915344 0.10077524185180664 0.7674418687820435
-0.45868027210235596 0.10077524185180664 0.7829457521438599
-0.4613663852214813 0.16279065608978271 0.24031007289886475
-0.4723473787307739 0.16279065608978271 0.4573643207550049
-0.46944257616996765 0.17829453945159912 0.11627912521362305
-0.46925902366638184 0.20930230617523193 0.038759708404541016
-0.4619283378124237 0.30232560634613037 -0.24031007289886475
-0.4668866693973541 0.3178294897079468 -0.28682172298431396
-0.4713497459888458 0.3488372266292572 -0.27131783962249756
-0.4726959466934204 0.364341139793396 -0.4418604373931885
-0.46910396218299866 0.3643411099910736 -0.317829430103302
-0.4638611376285553 0.39534878730773926 -0.5503876209259033
-0.4626065492630005 0.4418604373931885 -0.7054263353347778
-0.45854470133781433 0.4418604373931885 -0.5658915042877197
-0.4625481367111206 0.4883720874786377 -0.7984496355056763
-0.46405673027038574 0.5038759708404541 -0.8294573426246643
-0.47181740403175354 0.5193798542022705 -0.8604651093482971
-0.4648367762565613 0.5193798542022705 -0.8449612259864807
-0.4575040638446808 0.5193798542022705 -0.8294573426246643
-0.4614095389842987 0.5193798542022705 -0.8139535188674927
-0.47143304347991943 0.5348837375640869 -0.8759689331054688
-0.4683186411857605 0.5348837375640869 -0.8604651093482971
-0.46801602840423584 0.5348837375640869 -0.8449612259864807
-0.47063374519348145 0.5503876209259033 -0.8914728164672852
-0.46934887766838074 0.5503876209259033 -0.8759689927101135
-0.4714817702770233 0.5658915042877197 -0.9069767594337463
-0.45597511529922485 -0.5503876209259033 -0.8759689927101135
-0.45626160502433777 -0.5348837375640869 -0.8759689927101135
-0.45165112614631653 -0.5348837375640869 -0.8604650497436523
-0.44563281536102295 -0.5348837375640869 -0.8449612259864807
-0.45680612325668335 -0.5193798542022705 -0.8759689927101135
-0.45249468088150024 -0.5193798542022705 -0.8604650497436523
-0.4478214383125305 -0.5193798542022705 -0.8449611663818359
-0.45463037490844727 -0.5038759708404541 -0.8604650497436523
-0.45024824142456055 -0.5038759708404541 -0.8449612259864807
-0.44674399495124817 -0.5038759708404541 -0.8294574022293091
-0.4449304938316345 -0.5038759708404541 -0.8139535188674927
-0.4445968568325043 -0.5038759708404541 -0.7984496355056763
-0.4539904296398163 -0.5038759708404541 -0.7829457521438599
-0.4550713896751404 -0.4883720874786377 -0.8294573426246643
-0.45132899284362793 -0.4883720576763153 -0.8139535188674927
-0.4501172602176666 -0.4883720874786377 -0.7984496355056763
-0.4490821659564972 -0.4883720874786377 -0.7829457521438599
-0.44980233907699585 -0.4883720874786377 -0.7674418687820435
-0.4559158682823181 -0.4728682041168213 -0.7674418687820435
-0.4549933671951294 -0.4728682041168213 -0.751937985420227
-0.45431655645370483 -0.4573643207550049 -0.7364341020584106
-0.4443008601665497 -0.4573643207550049 -0.7209302186965942
-0.4493054747581482 -0.4418604373931885 -0.6279069781303406
-0.4474756717681885 -0.39534884691238403 -0.5658915042877197
-0.4455086290836334 -0.39534884691238403 -0.4573643207550049
-0.4490484595298767 -0.39534884691238403 -0.4418604373931885
-0.4541916847229004 -0.39534884691238403 -0.42635661363601685
-0.44846177101135254 -0.3798449635505676 -0.4883720874786377
-0.44585055112838745 -0.3798449635505676 -0.4728682041168213
-0.4474526643753052 -0.3798449635505676 -0.4573643207550049
-0.4494798183441162 -0.3798449635505676 -0.4418604373931885
-0.450961709022522 -0.3798449635505676 -0.42635661363601685
-0.451844722032547 -0.3798449635505676 -0.41085273027420044
-0.45264485478401184 -0.3798449635505676 -0.39534884691238403
-0.4539903700351715 -0.3798449635505676 -0.3798449635505676
-0.4555232524871826 -0.3798449635505676 -0.3643410801887512
-0.45733436942100525 -0.3798449635505676 -0.3488371968269348
-0.4546167254447937 -0.3643411099910736 -0.45736435055732727
-0.4518584907054901 -0.3643410801887512 -0.4418604373931885
-0.4517839550971985 -0.3643410801887512 -0.42635661363601685
-0.45227521657943726 -0.3643410801887512 -0.41085273027420044
-0.45298993587493896 -0.3643410801887512 -0.39534884691238403
-0.45391029119491577 -0.3643410801887512 -0.3798449635505676
-0.45446714758872986 -0.3643410801887512 -0.3643410801887512
-0.4546181261539459 -0.3643410801887512 -0.3488371968269348
-0.4543687701225281 -0.3643410801887512 -0.3333333134651184
-0.45383426547050476 -0.3643410801887512 -0.317829430103302
-0.4534901976585388 -0.3643410801887512 -0.30232560634613037
-0.4549403488636017 -0.3643410801887512 -0.28682172298431396
-0.45472320914268494 -0.3488371968269348 -0.41085273027420044
-0.4537891447544098 -0.3488371968269348 -0.39534884691238403
-0.45413684844970703 -0.3488371968269348 -0.3798449635505676
-0.4545802175998688 -0.3488372266292572 -0.3643410801887512
-0.45480915904045105 -0.3488371968269348 -0.3488371968269348
-0.45464229583740234 -0.3488371968269348 -0.3333333134651184
-0.4539165496826172 -0.3488371968269348 -0.317829430103302
-0.45267385244369507 -0.3488371968269348 -0.30232560634613037
-0.45110756158828735 -0.3488371968269348 -0.28682172298431396
-0.44873929023742676 -0.3488371968269348 -0.27131783962249756
-0.4462657570838928 -0.3488371968269348 -0.25581395626068115
-0.4529711604118347 -0.3488371968269348 -0.24031007289886475
-0.4564591348171234 -0.3333333134651184 -0.317829430103302
-0.4547804594039917 -0.3333333134651184 -0.30232560634613037
-0.4529436528682709 -0.3333333134651184 -0.28682172298431396
-0.45084235072135925 -0.3333333134651184 -0.27131783962249756
-0.44731462001800537 -0.3333333134651184 -0.25581395626068115
-0.4505394399166107 -0.3333333134651184 -0.20930230617523193
-0.45296770334243774 -0.317829430103302 -0.24031007289886475
-0.4480895400047302 -0.317829430103302 -0.22480618953704834
-0.44777774810791016 -0.317829430103302 -0.20930230617523193
-0.4504305124282837 -0.317829430103302 -0.19379842281341553
-0.4545690715312958 -0.317829430103302 -0.1782945990562439
-0.45281463861465454 -0.30232560634613037 -0.1627907156944275
-0.44531986117362976 -0.30232560634613037 -0.14728683233261108
-0.4518597722053528 -0.28682172298431396 -0.14728683233261108
-0.4514899253845215 -0.27131783962249756 -0.11627906560897827
-0.4421406388282776 -0.27131783962249756 -0.007751941680908203
-0.45676112174987793 -0.27131783962249756 0.007751941680908203
-0.4442855715751648 -0.25581395626068115 0.02325582504272461
-0.4464235305786133 -0.25581395626068115 0.038759708404541016
-0.4505119323730469 -0.25581395626068115 0.05426359176635742
-0.44326263666152954 -0.24031007289886475 -0.007751941680908203
-0.44485732913017273 -0.24031007289886475 0.007751941680908203
-0.44597122073173523 -0.24031007289886475 0.02325582504272461
-0.4467045068740845 -0.24031007289886475 0.038759708404541016
-0.44687241315841675 -0.24031007289886475 0.05426359176635742
-0.4474716782569885 -0.24031007289886475 0.06976747512817383
-0.44914913177490234 -0.24031007289886475 0.08527135848999023
-0.4533284306526184 -0.24031007289886475 0.10077524185180664
-0.45615682005882263 -0.22480618953704834 0.02325582504272461
-0.4525218605995178 -0.22480618953704834 0.038759708404541016
-0.45102930068969727 -0.22480618953704834 0.05426359176635742
-0.45056337118148804 -0.22480618953704834 0.06976747512817383
-0.4506228566169739 -0.22480618953704834 0.08527135848999023
-0.45105433464050293 -0.22480618953704834 0.10077524185180664
-0.4516792893409729 -0.22480618953704834 0.11627912521362305
-0.4528123140335083 -0.22480618953704834 0.1317828893661499
-0.4549294412136078 -0.22480618953704834 0.1472867727279663
-0.45513927936553955 -0.20930230617523193 0.08527135848999023
-0.4523565471172333 -0.20930230617523193 0.10077524185180664
-0.45091918110847473 -0.20930230617523193 0.11627912521362305
-0.45014137029647827 -0.20930230617523193 0.1317828893661499
-0.44999590516090393 -0.20930230617523193 0.1472867727279663
-0.450245201587677 -0.20930230617523193 0.16279065608978271
-0.45119237899780273 -0.20930230617523193 0.17829453945159912
-0.45230627059936523 -0.20930230617523193 0.19379842281341553
-0.4541110694408417 -0.20930230617523193 0.20930230617523193
-0.4513242840766907 -0.19379842281341553 0.11627912521362305
-0.44715940952301025 -0.19379842281341553 0.1317828893661499
-0.4449789226055145 -0.19379842281341553 0.1472867727279663
-0.4446065127849579 -0.19379842281341553 0.16279065608978271
-0.4469665288925171 -0.19379842281341553 0.17829453945159912
-0.4489946663379669 -0.19379842281341553 0.19379842281341553
-0.44984009861946106 -0.19379842281341553 0.20930230617523193
-0.44981250166893005 -0.19379842281341553 0.22480618953704834
-0.45010894536972046 -0.19379842281341553 0.24031005799770355
-0.4512643814086914 -0.19379842281341553 0.25581395626068115
-0.4533615708351135 -0.19379843771457672 0.27131783962249756
-0.4536849856376648 -0.1782945990562439 0.1472867727279663
-0.451193630695343 -0.1782945990562439 0.16279065608978271
-0.45106855034828186 -0.1782945990562439 0.17829453945159912
-0.4515126347541809 -0.1782945990562439 0.19379842281341553
-0.45171111822128296 -0.1782945990562439 0.20930230617523193
-0.451662540435791 -0.1782945990562439 0.22480618953704834
-0.451801061630249 -0.1782945990562439 0.24031007289886475
-0.45225146412849426 -0.1782945990562439 0.25581395626068115
-0.45251601934432983 -0.1782945990562439 0.27131783962249756
-0.4527074694633484 -0.1782945990562439 0.28682172298431396
-0.4526345133781433 -0.1782945990562439 0.30232560634613037
-0.45296764373779297 -0.1782945990562439 0.3178294897079468
-0.4535878300666809 -0.1782946139574051 0.3333333730697632
-0.45459961891174316 -0.1782945990562439 0.3488372564315796
-0.45696452260017395 -0.1627907156944275 0.28682172298431396
-0.45560264587402344 -0.1627907156944275 0.30232560634613037
-0.4545620083808899 -0.1627907156944275 0.3178294897079468
-0.453823059797287 -0.1627907156944275 0.3333333730697632
-0.4531242251396179 -0.1627907156944275 0.3488372266292572
-0.45265159010887146 -0.1627907156944275 0.364341139793396
-0.4524693489074707 -0.1627907156944275 0.37984490394592285
-0.45303040742874146 -0.1627907156944275 0.39534875750541687
-0.4540363550186157 -0.1627907156944275 0.41085267066955566
-0.4564932882785797 -0.1627907156944275 0.42635655403137207
-0.45530247688293457 -0.14728683233261108 0.364341139793396
-0.4542219638824463 -0.14728683233261108 0.37984490394592285
-0.4539916515350342 -0.14728683233261108 0.39534878730773926
-0.4536527395248413 -0.14728683233261108 0.41085267066955566
-0.45357847213745117 -0.14728683233261108 0.42635655403137207
-0.45331957936286926 -0.14728683233261108 0.4418604373931885
-0.45354288816452026 -0.14728683233261108 0.4573643207550049
-0.4538376033306122 -0.14728683233261108 0.4728682041168213
-0.4541570544242859 -0.14728683233261108 0.4883720874786377
-0.4548003375530243 -0.14728683233261108 0.5038759708404541
-0.45546892285346985 -0.14728683233261108 0.5193798542022705
-0.4573580026626587 -0.1472868174314499 0.5348837375640869
-0.45693689584732056 -0.13178294897079468 0.42635655403137207
-0.45535242557525635 -0.13178294897079468 0.4418604373931885
-0.45474886894226074 -0.13178294897079468 0.4573643207550049
-0.4543215036392212 -0.13178294897079468 0.4728681743144989
-0.4537586271762848 -0.13178294897079468 0.4883720874786377
-0.45327824354171753 -0.13178294897079468 0.5038759708404541
-0.45241332054138184 -0.13178294897079468 0.5193798542022705
-0.45180195569992065 -0.13178294897079468 0.5348837375640869
-0.45110630989074707 -0.13178294897079468 0.5503876209259033
-0.45046180486679077 -0.13178294897079468 0.5658915042877197
-0.45038241147994995 -0.13178294897079468 0.5813953876495361
-0.4518246054649353 -0.13178294897079468 0.5968992710113525
-0.4549205005168915 -0.13178294897079468 0.612403154373169
-0.4553695619106293 -0.11627907305955887 0.5193798542022705
-0.45377635955810547 -0.11627906560897827 0.5348837375640869
-0.4525660574436188 -0.11627906560897827 0.5503876209259033
-0.45165276527404785 -0.11627906560897827 0.5658915042877197
-0.45100027322769165 -0.11627906560897827 0.5813953876495361
-0.4507039785385132 -0.11627906560897827 0.5968992710113525
-0.45062845945358276 -0.11627906560897827 0.612403154373169
-0.45069584250450134 -0.11627906560897827 0.6279069185256958
-0.45131218433380127 -0.11627907305955887 0.6434108018875122
-0.4524621367454529 -0.11627906560897827 0.6589146852493286
-0.453968346118927 -0.11627906560897827 0.674418568611145
-0.4552837312221527 -0.11627906560897827 0.6899224519729614
-0.4567343592643738 -0.11627906560897827 0.7054263353347778
-0.45618921518325806 -0.10077518969774246 0.5813953876495361
-0.45430102944374084 -0.10077518224716187 0.5968992710113525
-0.4531725347042084 -0.10077518224716187 0.612403154373169
-0.45244717597961426 -0.10077518224716187 0.6279069185256958
-0.4523770809173584 -0.10077518224716187 0.6434108018875122
-0.4525793492794037 -0.10077518969774246 0.6589146852493286
-0.45289355516433716 -0.10077518969774246 0.674418568611145
-0.4530254304409027 -0.10077518224716187 0.6899224519729614
-0.45272156596183777 -0.10077518224716187 0.7054263353347778
-0.4518425166606903 -0.10077518969774246 0.7209302186965942
-0.45037001371383667 -0.10077518224716187 0.7364341020584106
-0.4489583969116211 -0.10077518224716187 0.751937985420227
-0.44762200117111206 -0.10077518224716187 0.7674418687820435
-0.4468125104904175 -0.10077518224716187 0.7829457521438599
-0.44858554005622864 -0.10077518224716187 0.7984496355056763
-0.4545978009700775 -0.10077518224716187 0.8139535188674927
-0.457097589969635 -0.08527129888534546 0.674418568611145
-0.45547810196876526 -0.08527129888534546 0.6899223923683167
-0.4534505009651184 -0.08527129888534546 0.7054263353347778
-0.4513465464115143 -0.08527129888534546 0.7209302186965942
-0.449606329202652 -0.08527129888534546 0.7364341020584106
-0.448525995016098 -0.08527129888534546 0.751937985420227
-0.4481276571750641 -0.08527129888534546 0.7674418687820435
-0.44781196117401123 -0.08527129888534546 0.7829457521438599
-0.44697684049606323 -0.08527129888534546 0.7984496355056763
-0.445389062166214 -0.08527129888534546 0.8139535188674927
-0.44263243675231934 -0.08527129888534546 0.8294574022293091
-0.4430088400840759 -0.08527129888534546 0.9379844665527344
-0.45677804946899414 -0.06976741552352905 0.6899223923683167
-0.45273011922836304 -0.06976741552352905 0.7054263353347778
-0.4499255120754242 -0.06976741552352905 0.7209302186965942
-0.44808027148246765 -0.06976741552352905 0.7364341020584106
-0.44742894172668457 -0.06976741552352905 0.751937985420227
-0.4483712911605835 -0.06976741552352905 0.7674418687820435
-0.4500192701816559 -0.06976741552352905 0.7829457521438599
-0.45213937759399414 -0.06976741552352905 0.7984496355056763
-0.45409196615219116 -0.06976741552352905 0.8139535188674927
-0.45379388332366943 -0.06976741552352905 0.8294574022293091
-0.45095503330230713 -0.06976741552352905 0.8449612855911255
-0.4470177888870239 -0.06976741552352905 0.8604651689529419
-0.44293123483657837 -0.06976741552352905 0.8759689331054688
-0.4563136100769043 -0.05426359176635742 0.7054263353347778
-0.45203840732574463 -0.05426359176635742 0.7209302186965942
-0.449191689491272 -0.05426359176635742 0.7364341020584106
-0.4477614760398865 -0.05426359176635742 0.751937985420227
-0.4492299556732178 -0.05426359176635742 0.7674418687820435
-0.45211726427078247 -0.05426359176635742 0.7829457521438599
-0.45683518052101135 -0.05426359176635742 0.798449695110321
-0.4546668529510498 -0.05426359176635742 0.8604651689529419
-0.45296740531921387 -0.05426359176635742 0.8759689927101135
-0.45322737097740173 -0.05426359176635742 0.8914728164672852
-0.4451785683631897 -0.05426359176635742 0.9069766998291016
-0.4567965269088745 -0.03875970467925072 0.8914728164672852
-0.4535086154937744 -0.038759708404541016 0.9069766998291016
-0.45207950472831726 -0.02325582504272461 0.9069766402244568
-0.45178353786468506 -0.007751941680908203 0.9069766998291016
-0.45528244972229004 0.007751941680908203 0.9069766998291016
-0.4428916275501251 0.007751941680908203 0.9844961166381836
-0.44509726762771606 0.02325582504272461 0.922480583190918
-0.44750359654426575 0.02325582504272461 0.9844961166381836
-0.4553811848163605 0.038759708404541016 0.922480583190918
-0.4553457498550415 0.05426358804106712 0.7519379258155823
-0.45312660932540894 0.05426359176635742 0.7674418687820435
-0.4514671862125397 0.05426359176635742 0.7829457521438599
-0.45007389783859253 0.05426359176635742 0.7984496355056763
-0.44927874207496643 0.05426359176635742 0.8139535188674927
-0.44950199127197266 0.05426359176635742 0.8294574022293091
-0.45079416036605835 0.05426359549164772 0.8449612855911255
-0.45365390181541443 0.05426359176635742 0.8604652285575867
-0.44851136207580566 0.05426359176635742 0.922480583190918
-0.45444953441619873 0.06976747512817383 0.7209302186965942
-0.4511558413505554 0.06976747512817383 0.7364341020584106
-0.4491473436355591 0.06976747512817383 0.751937985420227
-0.4481167495250702 0.06976747512817383 0.7674418687820435
-0.44736677408218384 0.06976747512817383 0.7829457521438599
-0.4467426836490631 0.06976747512817383 0.7984496355056763
-0.4463781714439392 0.06976747512817383 0.8139535188674927
-0.44631046056747437 0.06976747512817383 0.8294574022293091
-0.4464113414287567 0.06976747512817383 0.8449612855911255
-0.44615545868873596 0.06976747512817383 0.8604651689529419
-0.4448496401309967 0.06976747512817383 0.8759689331054688
-0.45554080605506897 0.08527135848999023 0.6589146852493286
-0.4522799849510193 0.08527135848999023 0.674418568611145
-0.4508015215396881 0.08527135848999023 0.6899224519729614
-0.44950658082962036 0.08527135848999023 0.7054263353347778
-0.44808903336524963 0.08527135848999023 0.7209302186965942
-0.44641512632369995 0.08527135848999023 0.7364341020584106
-0.44511401653289795 0.08527135848999023 0.751937985420227
-0.44379591941833496 0.08527135848999023 0.7674418687820435
-0.4542158544063568 0.08527135848999023 0.953488290309906
-0.44406723976135254 0.08527135848999023 0.9689922332763672
-0.4516313076019287 0.10077524185180664 0.5658915042877197
-0.4462893009185791 0.10077524185180664 0.5813953876495361
-0.4440971314907074 0.10077524185180664 0.5968992710113525
-0.4429246187210083 0.10077524185180664 0.612403154373169
-0.44225752353668213 0.10077524185180664 0.6279069185256958
-0.4431447982788086 0.10077524185180664 0.6434108018875122
-0.44424301385879517 0.10077524185180664 0.6589146852493286
-0.4449622333049774 0.10077524185180664 0.674418568611145
-0.4445282816886902 0.10077524185180664 0.6899224519729614
-0.44319844245910645 0.10077524185180664 0.7054263353347778
-0.4494181275367737 0.10077524185180664 0.7984496355056763
-0.45310819149017334 0.11627913266420364 0.5038759708404541
-0.4502524435520172 0.11627912521362305 0.5193798542022705
-0.44852274656295776 0.11627912521362305 0.5348837375640869
-0.44681376218795776 0.11627912521362305 0.5503876209259033
-0.44458693265914917 0.11627912521362305 0.5658915042877197
-0.4423593282699585 0.11627912521362305 0.5813953876495361
-0.45521843433380127 0.1317828893661499 0.4418604373931885
-0.4530112147331238 0.1317828893661499 0.4573643207550049
-0.45152750611305237 0.1317828893661499 0.4728682041168213
-0.4501318633556366 0.1317828893661499 0.4883720874786377
-0.44871026277542114 0.1317828893661499 0.5038759708404541
-0.44690489768981934 0.1317828893661499 0.5193798542022705
-0.4456668496131897 0.1317828893661499 0.5348837375640869
-0.44392237067222595 0.1317828893661499 0.5503876209259033
-0.4422258138656616 0.1317828893661499 0.612403154373169
-0.45566266775131226 0.1472867727279663 0.364341139793396
-0.4531703293323517 0.1472867727279663 0.37984490394592285
-0.45202428102493286 0.1472867727279663 0.39534878730773926
-0.45133230090141296 0.1472867727279663 0.41085267066955566
-0.45118480920791626 0.1472867727279663 0.42635655403137207
-0.4509269595146179 0.1472867727279663 0.4418604373931885
-0.4507795572280884 0.1472867727279663 0.4573643207550049
-0.45056548714637756 0.1472867727279663 0.4728682339191437
-0.4503207504749298 0.1472867727279663 0.4883720874786377
-0.4502815008163452 0.1472867727279663 0.5038759708404541
-0.45096302032470703 0.1472867727279663 0.5193798542022705
-0.4543013572692871 0.1472867727279663 0.5348837375640869
-0.45462310314178467 0.16279065608978271 0.25581395626068115
-0.45266395807266235 0.16279065608978271 0.27131783962249756
-0.45159196853637695 0.16279065608978271 0.28682172298431396
-0.45119065046310425 0.16279065608978271 0.30232560634613037
-0.4511357247829437 0.16279065608978271 0.3178294897079468
-0.45091909170150757 0.16279065608978271 0.3333333730697632
-0.45049887895584106 0.16279065608978271 0.3488372564315796
-0.4500877559185028 0.16279065608978271 0.364341139793396
-0.4498465061187744 0.16279065608978271 0.37984490394592285
-0.44990116357803345 0.16279065608978271 0.39534878730773926
-0.4502069354057312 0.16279065608978271 0.41085267066955566
-0.4512832760810852 0.16279065608978271 0.42635655403137207
-0.4531918168067932 0.16279065608978271 0.4418604373931885
-0.4564190208911896 0.16279065608978271 0.4573642909526825
-0.4539382755756378 0.17829453945159912 0.1317828893661499
-0.4500717520713806 0.17829453945159912 0.1472867727279663
-0.44758033752441406 0.17829453945159912 0.16279065608978271
-0.4465556740760803 0.17829453945159912 0.17829453945159912
-0.4464952349662781 0.17829453945159912 0.19379842281341553
-0.44641536474227905 0.17829453945159912 0.20930230617523193
-0.44635844230651855 0.17829453945159912 0.22480618953704834
-0.44626566767692566 0.17829453945159912 0.24031007289886475
-0.4464036822319031 0.17829453945159912 0.25581395626068115
-0.4464576542377472 0.17829453945159912 0.27131783962249756
-0.4468021094799042 0.17829453945159912 0.28682172298431396
-0.44760385155677795 0.17829453945159912 0.30232560634613037
-0.4493551254272461 0.17829453945159912 0.3178294897079468
-0.4514252841472626 0.17829453945159912 0.3333333730697632
-0.45432621240615845 0.17829453945159912 0.3488372266292572
-0.45661771297454834 0.19379842281341553 0.08527135848999023
-0.44890013337135315 0.19379842281341553 0.10077524185180664
-0.4425017535686493 0.19379842281341553 0.11627912521362305
-0.44399964809417725 0.19379842281341553 0.24031007289886475
-0.44807252287864685 0.19379842281341553 0.25581395626068115
-0.4543149471282959 0.19379843771457672 0.27131783962249756
-0.45218634605407715 0.20930230617523193 0.05426359176635742
-0.44895967841148376 0.20930230617523193 0.06976747512817383
-0.4481080174446106 0.20930230617523193 0.08527135848999023
-0.4475553631782532 0.20930230617523193 0.10077524185180664
-0.44682443141937256 0.20930230617523193 0.11627912521362305
-0.44598740339279175 0.20930230617523193 0.1317828893661499
-0.44547325372695923 0.20930230617523193 0.1472867727279663
-0.44691842794418335 0.20930230617523193 0.16279065608978271
-0.45162707567214966 0.20930230617523193 0.17829453945159912
-0.45077821612358093 0.22480618953704834 -0.007751941680908203
-0.4428882598876953 0.22480618953704834 0.06976747512817383
-0.44574034214019775 0.22480618953704834 0.08527135848999023
-0.44970765709877014 0.22480618953704834 0.10077524185180664
-0.45546188950538635 0.22480618953704834 0.11627912521362305
-0.4527795910835266 0.24031007289886475 -0.06976741552352905
-0.44459816813468933 0.24031007289886475 0.05426359176635742
-0.4492148756980896 0.28682172298431396 -0.19379842281341553
-0.4564604163169861 0.30232560634613037 -0.24031007289886475
-0.44473162293434143 0.30232560634613037 -0.22480618953704834
-0.4555996060371399 0.30232560634613037 -0.13178294897079468
-0.4560898542404175 0.3178294897079468 -0.2868216931819916
-0.4485313892364502 0.3178294897079468 -0.27131783962249756
-0.44227802753448486 0.3178294897079468 -0.25581395626068115
-0.45628613233566284 0.33333340287208557 -0.3333333134651184
-0.45319005846977234 0.3333333730697632 -0.317829430103302
-0.4501488208770752 0.3333333730697632 -0.30232560634613037
-0.44612324237823486 0.3333333730697632 -0.28682172298431396
-0.4547564387321472 0.3488372564315796 -0.3798449635505676
-0.45392128825187683 0.3488372564315796 -0.3643410801887512
-0.4536593556404114 0.348837286233902 -0.3488371968269348
-0.4529809355735779 0.3488372564315796 -0.3333333134651184
-0.451632559299469 0.3488372564315796 -0.317829430103302
-0.4492247700691223 0.3488372564315796 -0.30232560634613037
-0.44384291768074036 0.3488372564315796 -0.28682172298431396
-0.4548935294151306 0.364341139793396 -0.4418604373931885
-0.4518889784812927 0.364341139793396 -0.42635661363601685
-0.4518062472343445 0.364341139793396 -0.41085273027420044
-0.4523918032646179 0.364341139793396 -0.39534884691238403
-0.453124463558197 0.364341139793396 -0.3798449635505676
-0.4534941613674164 0.364341139793396 -0.3643410801887512
-0.45361170172691345 0.364341139793396 -0.3488371968269348
-0.4538191854953766 0.364341139793396 -0.3333333134651184
-0.455471396446228 0.364341139793396 -0.317829430103302
-0.44711002707481384 0.37984490394592285 -0.4883720874786377
-0.4452895522117615 0.37984490394592285 -0.4728682041168213
-0.44710975885391235 0.37984490394592285 -0.4573643207550049
-0.44897815585136414 0.37984490394592285 -0.4418604373931885
-0.4503687620162964 0.37984490394592285 -0.42635661363601685
-0.45133376121520996 0.37984490394592285 -0.41085273027420044
-0.45208245515823364 0.37984490394592285 -0.39534884691238403
-0.4532841444015503 0.37984487414360046 -0.3798449635505676
-0.4552849233150482 0.37984493374824524 -0.3643410801887512
-0.45474720001220703 0.39534878730773926 -0.5503876209259033
-0.44970017671585083 0.39534878730773926 -0.5348837375640869
-0.4481678009033203 0.39534878730773926 -0.5193798542022705
-0.44756433367729187 0.39534878730773926 -0.5038759708404541
-0.447106271982193 0.39534878730773926 -0.4883720874786377
-0.44759470224380493 0.39534878730773926 -0.4728682041168213
-0.44886767864227295 0.39534878730773926 -0.4573643207550049
-0.45004528760910034 0.39534878730773926 -0.4418604373931885
-0.4514610171318054 0.39534878730773926 -0.42635661363601685
-0.4537295997142792 0.39534881711006165 -0.4108527600765228
-0.4455546736717224 0.41085267066955566 -0.5348837375640869
-0.44806429743766785 0.41085267066955566 -0.5193798542022705
-0.449079692363739 0.41085267066955566 -0.5038759708404541
-0.44983160495758057 0.41085267066955566 -0.4883720576763153
-0.45190900564193726 0.41085267066955566 -0.4728682041168213
-0.45513564348220825 0.41085267066955566 -0.4573643207550049
-0.450239896774292 0.42635655403137207 -0.5193798542022705
-0.452950119972229 0.4573643207550049 -0.7364341020584106
-0.45599210262298584 0.4728682041168213 -0.7674418687820435
-0.4456259608268738 0.4728682041168213 -0.751937985420227
-0.45434248447418213 0.4883720874786377 -0.7829457521438599
-0.45151883363723755 0.4883720874786377 -0.7674418687820435
-0.45000022649765015 0.4883720874786377 -0.751937985420227
-0.4542039632797241 0.4883720874786377 -0.7364341020584106
-0.4565030336380005 0.5038759708404541 -0.8139535188674927
-0.4551706314086914 0.5038759708404541 -0.7984496355056763
-0.4564962685108185 0.5038759708404541 -0.7829457521438599
-0.4415849447250366 -0.5193798542022705 -0.8294573426246643
-0.44182559847831726 -0.5193798542022705 -0.8139535188674927
-0.4360157549381256 -0.4418604373931885 -0.6279069185256958
-0.43648654222488403 -0.41085273027420044 -0.643410861492157
-0.4276316463947296 -0.41085273027420044 -0.5193798542022705
-0.43941599130630493 -0.41085273027420044 -0.5038759708404541
-0.4388734698295593 -0.39534884691238403 -0.5658915042877197
-0.428195595741272 -0.39534884691238403 -0.5503876209259033
-0.43291330337524414 -0.39534884691238403 -0.5348837375640869
-0.43578001856803894 -0.39534884691238403 -0.5193798542022705
-0.43636906147003174 -0.39534884691238403 -0.5038759708404541
-0.4395597577095032 -0.39534884691238403 -0.4883720874786377
-0.44164106249809265 -0.39534884691238403 -0.4728682041168213
-0.4417497515678406 -0.3333333134651184 -0.24031005799770355
-0.44143354892730713 -0.3333333134651184 -0.22480618953704834
-0.44171997904777527 -0.30232560634613037 -0.13178294897079468
-0.437642902135849 -0.28682172298431396 -0.13178294897079468
-0.429723858833313 -0.28682172298431396 -0.11627906560897827
-0.4286828339099884 -0.27131783962249756 -0.10077518224716187
-0.4389856457710266 -0.25581395626068115 -0.007751941680908203
-0.44182273745536804 -0.25581395626068115 0.007751941680908203
-0.4276699423789978 -0.24031007289886475 -0.038759708404541016
-0.4368218779563904 -0.24031007289886475 -0.02325582504272461
-0.4415009915828705 -0.08527129888534546 0.8449612855911255
-0.4407951831817627 -0.08527129888534546 0.8604651689529419
-0.43987715244293213 -0.08527129888534546 0.8759689331054688
-0.4390542805194855 -0.08527129888534546 0.8914728164672852
-0.438418984413147 -0.08527129888534546 0.9069766998291016
-0.43898773193359375 -0.08527129888534546 0.922480583190918
-0.4413847327232361 -0.08527129888534546 0.9379844665527344
-0.44146016240119934 -0.06976741552352905 0.8914728164672852
-0.4408617317676544 -0.06976741552352905 0.9069766402244568
-0.4339771866798401 -0.06976741552352905 0.922480583190918
-0.4290964603424072 -0.06976741552352905 0.9844961166381836
-0.4287755489349365 -0.02325582504272461 0.922480583190918
-0.4359639883041382 -0.007751941680908203 0.9224805235862732
-0.4398185610771179 0.00775194214656949 0.922480583190918
-0.43501079082489014 0.007751941680908203 0.9379844665527344
-0.43274059891700745 0.007751941680908203 0.9534883499145508
-0.43601617217063904 0.007751941680908203 0.9689922332763672
-0.43693655729293823 0.02325582504272461 0.9379844665527344
-0.433737576007843 0.02325582504272461 0.9534883499145508
-0.43811744451522827 0.02325582504272461 0.9689922332763672
-0.4290725886821747 0.038759708404541016 0.9844961166381836
-0.44181403517723083 0.06976747512817383 0.8914728164672852
-0.44114384055137634 0.06976747512817383 0.9069766998291016
-0.43810898065567017 0.06976747512817383 0.922480583190918
-0.4290733337402344 0.06976747512817383 0.9844961166381836
-0.4418533444404602 0.08527135848999023 0.7829457521438599
-0.44150277972221375 0.08527135848999023 0.7984496355056763
-0.44121840596199036 0.08527135103940964 0.8139535188674927
-0.44097158312797546 0.08527135848999023 0.8294573426246643
-0.4407127797603607 0.08527135848999023 0.8449612855911255
-0.44026756286621094 0.08527135848999023 0.8604651689529419
-0.4396005868911743 0.08527135848999023 0.8759689331054688
-0.43884170055389404 0.08527135848999023 0.8914727568626404
-0.4374922513961792 0.08527135848999023 0.9069766998291016
-0.43539392948150635 0.08527135848999023 0.922480583190918
-0.4339163303375244 0.08527135848999023 0.9379844665527344
-0.4356025457382202 0.08527135848999023 0.953488290309906
-0.44056862592697144 0.08527135848999023 0.9689921736717224
-0.4417356252670288 0.10077524185180664 0.7209302186965942
-0.44121253490448 0.10077524185180664 0.7364341020584106
-0.4409180283546448 0.10077524930238724 0.751937985420227
-0.44079679250717163 0.10077524185180664 0.7674418687820435
-0.4408937394618988 0.10077524185180664 0.7829457521438599
-0.44129446148872375 0.10077524185180664 0.7984496355056763
-0.4417014420032501 0.11627913266420364 0.5968992710113525
-0.4414500296115875 0.11627913266420364 0.612403154373169
-0.44121628999710083 0.11627912521362305 0.6279069185256958
-0.44135814905166626 0.11627912521362305 0.6434108018875122
-0.44158610701560974 0.11627912521362305 0.6589146852493286
-0.44177618622779846 0.11627912521362305 0.674418568611145
-0.44184234738349915 0.11627912521362305 0.6899223923683167
-0.4417308568954468 0.1317828893661499 0.5658915042877197
-0.441510945558548 0.1317828893661499 0.5813953876495361
-0.441623717546463 0.1317828893661499 0.5968992710113525
-0.4414004385471344 0.19379842281341553 0.1317828893661499
-0.44113728404045105 0.19379842281341553 0.1472867727279663
-0.44100767374038696 0.19379842281341553 0.16279065608978271
-0.44110071659088135 0.19379842281341553 0.17829453945159912
-0.44133150577545166 0.19379842281341553 0.19379842281341553
-0.4415602385997772 0.19379840791225433 0.20930230617523193
-0.4418269097805023 0.19379842281341553 0.22480618953704834
-0.44128280878067017 0.22480617463588715 0.007751941680908203
-0.4408065676689148 0.22480618953704834 0.02325582504272461
-0.4410831928253174 0.22480618953704834 0.038759708404541016
-0.44153040647506714 0.22480618953704834 0.05426359176635742
-0.43918418884277344 0.24031007289886475 -0.05426359176635742
-0.43599846959114075 0.24031008780002594 -0.038759708404541016
-0.43490204215049744 0.24031007289886475 -0.02325582504272461
-0.43594416975975037 0.24031007289886475 -0.007751941680908203
-0.4374280869960785 0.24031007289886475 0.007751941680908203
-0.43905264139175415 0.24031007289886475 0.02325582504272461
-0.4405688941478729 0.24031007289886475 0.038759708404541016
-0.43984442949295044 0.25581395626068115 -0.10077518224716187
-0.43829092383384705 0.25581395626068115 -0.08527129888534546
-0.4360458552837372 0.25581395626068115 -0.06976741552352905
-0.4336918890476227 0.25581395626068115 -0.05426359176635742
-0.4318259358406067 0.25581395626068115 -0.038759708404541016
-0.4334378242492676 0.25581395626068115 -0.02325582504272461
-0.4390605390071869 0.25581395626068115 -0.007751941680908203
-0.44133904576301575 0.27131783962249756 -0.1472868174314499
-0.42862534523010254 0.27131783962249756 -0.10077518224716187
-0.43664467334747314 0.27131783962249756 -0.08527129888534546
-0.43809831142425537 0.27131783962249756 -0.06976741552352905
-0.4408915340900421 0.27131783962249756 -0.05426359176635742
-0.4382336139678955 0.28682172298431396 -0.1782945990562439
-0.4323258399963379 0.28682172298431396 -0.1627907156944275
-0.4363376796245575 0.28682172298431396 -0.10077518224716187
-0.4416629672050476 0.30232560634613037 -0.20930230617523193
-0.4394891560077667 0.30232560634613037 -0.19379842281341553
-0.43560153245925903 0.30232560634613037 -0.1782945990562439
-0.429811030626297 0.30232560634613037 -0.1627907156944275
-0.426943838596344 0.30232560634613037 -0.14728683233261108
-0.4375726580619812 0.30232560634613037 -0.13178294897079468
-0.4408431649208069 0.3178294897079468 -0.24031007289886475
-0.43994140625 0.3178294897079468 -0.22480618953704834
-0.4394831955432892 0.3178294897079468 -0.20930230617523193
-0.43957841396331787 0.3178294897079468 -0.19379842281341553
-0.44110918045043945 0.3178294897079468 -0.1782945990562439
-0.4411384165287018 0.3333333730697632 -0.27131783962249756
-0.43969714641571045 0.3333333730697632 -0.25581395626068115
-0.4390321969985962 0.3333333730697632 -0.24031007289886475
-0.4405457675457001 0.33333340287208557 -0.22480618953704834
-0.4415597915649414 0.348837286233902 -0.27131783962249756
-0.4265682101249695 0.41085267066955566 -0.5813953876495361
-0.436218798160553 0.41085267066955566 -0.5658915042877197
-0.4417978525161743 0.41085267066955566 -0.5503876209259033
-0.4417203962802887 0.42635655403137207 -0.6589146256446838
-0.4349132478237152 0.42635655403137207 -0.5503876209259033
-0.4411739408969879 0.42635655403137207 -0.5348837375640869
-0.4390546679496765 0.4418604373931885 -0.6899224519729614
-0.4418601989746094 0.4418604373931885 -0.5658915042877197
-0.438018798828125 0.4573643207550049 -0.7209302186965942
-0.439821720123291 0.4728682041168213 -0.7364341616630554
-0.43383288383483887 0.4728682041168213 -0.7209302186965942
-0.42722180485725403 0.4728682041168213 -0.6899224519729614
-0.42460575699806213 -0.4573643207550049 -0.6899224519729614
-0.42610201239585876 -0.42635661363601685 -0.6899224519729614
-0.41488030552864075 -0.41085273027420044 -0.6279069781303406
-0.4193304181098938 -0.28682172298431396 -0.10077518224716187
-0.42169177532196045 -0.27131783962249756 -0.10077518224716187
-0.41712820529937744 -0.24031007289886475 -0.02325582504272461
-0.42243579030036926 -0.06976741552352905 0.9379844665527344
-0.4213663935661316 -0.06976741552352905 0.9534883499145508
-0.42444488406181335 -0.06976741552352905 0.9689922332763672
-0.4174205958843231 -0.05426359176635742 0.922480583190918
-0.4215393364429474 -0.038759708404541016 0.922480583190918
-0.4234953820705414 -0.007751941680908203 0.9379844665527344
-0.4191368818283081 -0.007751941680908203 0.9534883499145508
-0.4226020872592926 -0.007751941680908203 0.9689922332763672
-0.4257447123527527 -0.007751941680908203 0.9844961166381836
-0.42439043521881104 0.038759708404541016 0.9379844665527344
-0.41310280561447144 0.038759708404541016 0.9534883499145508
-0.41677993535995483 0.038759708404541016 0.9689922332763672
-0.4181424677371979 0.05426359176635742 0.9379844665527344
-0.41792958974838257 0.05426359176635742 0.9844961166381836
