-0.20930230617523193 -0.3452448844909668 -0.39534884691238403
-0.20930230617523193 -0.3379838168621063 -0.3798449635505676
-0.20930230617523193 -0.334297776222229 -0.3643410801887512
-0.20930230617523193 -0.33013463020324707 -0.4728682041168213
-0.20930230617523193 -0.3224903345108032 -0.4573643207550049
-0.20930230617523193 -0.3262846767902374 -0.3488371968269348
-0.20930230617523193 -0.32099419832229614 -0.3333333134651184
-0.20930230617523193 -0.31790590286254883 -0.317829430103302
-0.20930230617523193 -0.31600067019462585 -0.4418604075908661
-0.20930230617523193 -0.3103739023208618 -0.42635661363601685
-0.20930230617523193 -0.30812951922416687 -0.30232560634613037
-0.20930230617523193 -0.30314958095550537 -0.28682172298431396
-0.20930230617523193 -0.3009764850139618 -0.41085273027420044
-0.20930230617523193 -0.2932487726211548 -0.39534884691238403
-0.20930230617523193 -0.29126453399658203 -0.27131783962249756
-0.20930230617523193 -0.28446561098098755 -0.3798449635505676
-0.20930230617523193 -0.2777244448661804 -0.3643410801887512
-0.20930230617523193 -0.2831900119781494 -0.25581395626068115
-0.20930230617523193 -0.2739620804786682 -0.24031007289886475
-0.20930230617523193 -0.2699347138404846 -0.3488371968269348
-0.20930230617523193 -0.26571977138519287 -0.3333333134651184
-0.20930230617523193 -0.25895512104034424 -0.317829430103302
-0.20930230617523193 -0.2667722702026367 -0.22480618953704834
-0.20930230617523193 -0.2603006362915039 -0.20930230617523193
-0.20930230617523193 -0.25723567605018616 -0.19379842281341553
-0.20930230617523193 -0.25435706973075867 -0.30232560634613037
-0.20930230617523193 -0.2511137127876282 -0.28682172298431396
-0.20930230617523193 -0.24253864586353302 -0.27131783962249756
-0.20930230617523193 -0.24874024093151093 -0.1782945990562439
-0.20930230617523193 -0.2438974678516388 -0.1627907156944275
-0.20930230617523193 -0.22779640555381775 -0.25581395626068115
-0.20930230617523193 -0.23897846043109894 -0.14728683233261108
-0.20930230617523193 -0.23047229647636414 -0.13178294897079468
-0.20930230617523193 -0.2265101820230484 -0.11627906560897827
-0.20930232107639313 -0.2207736074924469 -0.24031007289886475
-0.20930230617523193 -0.2120952308177948 -0.22480618953704834
-0.20930230617523193 -0.22096166014671326 -0.10077518224716187
-0.20930230617523193 -0.21503357589244843 -0.08527129888534546
-0.20930230617523193 -0.2117995023727417 -0.06976741552352905
-0.20930230617523193 -0.20961931347846985 -0.05426359176635742
-0.20930230617523193 -0.20777615904808044 -0.20930230617523193
-0.20930230617523193 -0.20557549595832825 -0.19379842281341553
-0.20930230617523193 -0.2018095999956131 -0.1782945990562439
-0.20930230617523193 -0.19416385889053345 -0.1627907156944275
-0.20930230617523193 -0.20435917377471924 -0.038759708404541016
-0.20930230617523193 -0.2003050148487091 -0.02325582504272461
-0.20930230617523193 -0.19738078117370605 -0.007751941680908203
-0.20930230617523193 -0.19501274824142456 0.007751941680908203
-0.20930230617523193 -0.19150638580322266 -0.14728683233261108
-0.20930230617523193 -0.18743404746055603 -0.13178294897079468
-0.20930232107639313 -0.19209808111190796 0.02325582504272461
-0.20930230617523193 -0.18524210155010223 0.038759708404541016
-0.20930230617523193 -0.1817183494567871 0.05426359176635742
-0.20930230617523193 -0.1792791485786438 0.06976747512817383
-0.20930229127407074 -0.17814064025878906 -0.11627905815839767
-0.20930230617523193 -0.17676618695259094 -0.10077518224716187
-0.20930230617523193 -0.1748625934123993 -0.08527129888534546
-0.20930230617523193 -0.1713075041770935 -0.06976741552352905
-0.20930230617523193 -0.1765374392271042 0.08527135848999023
-0.20930230617523193 -0.16983959078788757 0.10077524185180664
-0.20930230617523193 -0.16584479808807373 0.11627912521362305
-0.20930230617523193 -0.16301271319389343 0.1317828893661499
-0.20930230617523193 -0.16270002722740173 -0.05426359176635742
-0.20930230617523193 -0.16177454590797424 -0.038759708404541016
-0.20930230617523193 -0.1606820821762085 -0.02325582504272461
-0.20930230617523193 -0.15738871693611145 -0.00775194214656949
-0.20930230617523193 -0.15504246950149536 0.1472867727279663
-0.20930230617523193 -0.15043902397155762 0.16279065608978271
-0.20930230617523193 -0.1473570168018341 0.17829453945159912
-0.20930230617523193 -0.14691178500652313 0.007751941680908203
-0.20930230617523193 -0.14539068937301636 0.02325582504272461
-0.20930230617523193 -0.14259429275989532 0.038759708404541016
-0.20930230617523193 -0.13912919163703918 0.19379842281341553
-0.20930230617523193 -0.1340932548046112 0.20930230617523193
-0.20930230617523193 -0.13179920613765717 0.22480618953704834
-0.20930230617523193 -0.13167446851730347 0.05426359176635742
-0.20930230617523193 -0.13017916679382324 0.06976747512817383
-0.20930230617523193 -0.12774813175201416 0.08527135848999023
-0.20930230617523193 -0.12108243256807327 0.10077524185180664
-0.20930230617523193 -0.12396752089262009 0.24031007289886475
-0.20930230617523193 -0.12046299129724503 0.25581395626068115
-0.20930230617523193 -0.11808136105537415 0.27131783962249756
-0.20930230617523193 -0.11641240864992142 0.28682172298431396
-0.20930230617523193 -0.11532352864742279 0.11627912521362305
-0.20930230617523193 -0.11375974118709564 0.1317828893661499
-0.20930230617523193 -0.11087937653064728 0.1472867727279663
-0.20930230617523193 -0.10654091835021973 0.16279065608978271
-0.20930230617523193 -0.10171473026275635 0.17829453945159912
-0.20930229127407074 -0.11095254868268967 0.30232560634613037
-0.20930230617523193 -0.10629670321941376 0.3178294897079468
-0.20930230617523193 -0.10363803803920746 0.3333333730697632
-0.20930230617523193 -0.10160180926322937 0.3488372564315796
-0.20930229127407074 -0.10053503513336182 0.19379842281341553
-0.20930230617523193 -0.09991589933633804 0.20930230617523193
-0.20930232107639313 -0.09821420907974243 0.22480618953704834
-0.20930230617523193 -0.09523732215166092 0.24031007289886475
-0.20930230617523193 -0.09014526009559631 0.25581395626068115
-0.20930230617523193 -0.0972958654165268 0.364341139793396
-0.20930230617523193 -0.09196093678474426 0.37984490394592285
-0.20930230617523193 -0.08773361146450043 0.39534878730773926
-0.20930232107639313 -0.08511859178543091 0.27131783962249756
-0.20930230617523193 -0.08408014476299286 0.28682172298431396
-0.20930230617523193 -0.08028842508792877 0.30232560634613037
-0.20930230617523193 -0.07995730638504028 0.41085267066955566
-0.20930230617523193 -0.06973513960838318 0.3178294897079468
-0.20930230617523193 -0.06864504516124725 0.3333333730697632
-0.20930230617523193 -0.06721673905849457 0.3488372564315796
-0.20930229127407074 -0.06553175300359726 0.3643411099910736
-0.20930230617523193 -0.06410706043243408 0.37984490394592285
-0.20930230617523193 -0.06378474086523056 0.39534878730773926
-0.20930230617523193 -0.06711870431900024 0.41085267066955566
-0.20930230617523193 -0.043921343982219696 0.5038759708404541
-0.20930230617523193 -0.04831836372613907 0.5193798542022705
-0.20930230617523193 -0.05086816847324371 0.5348837375640869
-0.20930229127407074 -0.05162860453128815 0.5503876209259033
-0.20930230617523193 -0.05316060408949852 0.5658915042877197
-0.20930230617523193 -0.05032739043235779 0.5813953876495361
-0.20930230617523193 -0.046399399638175964 0.5968992710113525
-0.20930230617523193 -0.043666355311870575 0.612403154373169
-0.20930230617523193 -0.04189562052488327 0.6279069185256958
-0.20930230617523193 -0.04076474905014038 0.6434108018875122
-0.20930230617523193 -0.040009673684835434 0.6589146852493286
-0.20930230617523193 -0.03944816067814827 0.674418568611145
-0.20930230617523193 -0.03902530297636986 0.6899224519729614
-0.20930230617523193 -0.038892507553100586 0.7054263353347778
-0.20930230617523193 -0.03891488537192345 0.7209302186965942
-0.20930230617523193 -0.03888268768787384 0.7364341020584106
-0.20930230617523193 -0.035452693700790405 0.5038759708404541
-0.20930230617523193 -0.02648744359612465 0.5193798542022705
-0.20930229127407074 -0.03705247864127159 0.751937985420227
-0.20930230617523193 -0.03357039391994476 0.7674418687820435
-0.20930230617523193 -0.030825549736618996 0.7829457521438599
-0.20930230617523193 -0.02848191000521183 0.7984496355056763
-0.20930230617523193 -0.027040258049964905 0.8139535188674927
-0.20930230617523193 -0.025737371295690536 0.8294574022293091
-0.20930230617523193 -0.024645641446113586 0.8449612855911255
-0.20930230617523193 -0.02425248548388481 0.8604651689529419
-0.20930230617523193 -0.02417599968612194 0.8759689331054688
-0.20930230617523193 -0.02418561279773712 0.8914728164672852
-0.20930230617523193 -0.024078883230686188 0.9069766998291016
-0.20930230617523193 -0.023601392284035683 0.922480583190918
-0.20930230617523193 -0.02326246351003647 0.9379844665527344
-0.20930230617523193 -0.02409512735903263 0.9844961166381836
-0.20930230617523193 -0.01929454132914543 0.5348837375640869
-0.20930230617523193 -0.013167040422558784 0.5503876209259033
-0.20930230617523193 -0.019332263618707657 0.9534883499145508
-0.20930230617523193 -0.021278470754623413 0.9689922332763672
-0.20930230617523193 0.007604346610605717 0.5348837375640869
-0.20930230617523193 0.003661162219941616 0.5503876209259033
-0.20930230617523193 0.022614723071455956 0.4418604373931885
-0.20930230617523193 0.02184326760470867 0.4573643207550049
-0.20930230617523193 0.020628521218895912 0.4728682041168213
-0.20930230617523193 0.01788235828280449 0.4883720874786377
-0.20930230617523193 0.01360139437019825 0.5038759708404541
-0.20930230617523193 0.010056199505925179 0.5193798542022705
-0.20930230617523193 0.022267667576670647 0.7054263353347778
-0.20930230617523193 0.01950298808515072 0.7209302186965942
-0.20930230617523193 0.018817616626620293 0.7364341020584106
-0.20930230617523193 0.017034117132425308 0.751937985420227
-0.20930230617523193 0.01623968407511711 0.7674418687820435
-0.20930230617523193 0.015552528202533722 0.7829457521438599
-0.20930230617523193 0.01473638229072094 0.7984496355056763
-0.20930230617523193 0.013752380385994911 0.8139535188674927
-0.20930230617523193 0.0127460528165102 0.8294574022293091
-0.20930230617523193 0.012405192479491234 0.8449612259864807
-0.20930230617523193 0.014712273143231869 0.8604651689529419
-0.20930230617523193 0.0187139343470335 0.8759689331054688
-0.20930230617523193 0.022595766931772232 0.8914728164672852
-0.20930230617523193 0.01965133659541607 0.9534883499145508
-0.20930230617523193 0.018543971702456474 0.9689922332763672
-0.20930230617523193 0.021495681256055832 0.9844961166381836
-0.20930230617523193 0.03817477449774742 0.3333333730697632
-0.20930230617523193 0.037242159247398376 0.3488372564315796
-0.20930230617523193 0.03627580404281616 0.364341139793396
-0.20930230617523193 0.03492576256394386 0.37984490394592285
-0.20930230617523193 0.0335712805390358 0.39534878730773926
-0.20930230617523193 0.03155267983675003 0.41085267066955566
-0.20930230617523193 0.025884585455060005 0.4263565242290497
-0.20930230617523193 0.036537665873765945 0.5968992710113525
-0.20930230617523193 0.033080264925956726 0.612403154373169
-0.20930230617523193 0.03006189875304699 0.6279069185256958
-0.20930230617523193 0.02820710651576519 0.6434108018875122
-0.20930230617523193 0.026297371834516525 0.6589146852493286
-0.20930232107639313 0.024795860052108765 0.674418568611145
-0.20930230617523193 0.023770269006490707 0.6899224519729614
-0.20930230617523193 0.023533249273896217 0.9069766998291016
-0.20930230617523193 0.02361825481057167 0.922480583190918
-0.20930230617523193 0.023554513230919838 0.9379844665527344
-0.20930230617523193 0.0536460243165493 0.28682172298431396
-0.20930230617523193 0.050822775810956955 0.30232560634613037
-0.20930230617523193 0.04461301118135452 0.3178294897079468
-0.20930230617523193 0.05011491850018501 0.4573643207550049
-0.20930230617523193 0.04611145704984665 0.4728682041168213
-0.20930230617523193 0.044059909880161285 0.4883720874786377
-0.20930230617523193 0.04250939190387726 0.5038759708404541
-0.20930230617523193 0.0414876863360405 0.5193798542022705
-0.20930232107639313 0.040681757032871246 0.5348837375640869
-0.20930230617523193 0.040005218237638474 0.5503875613212585
-0.20930230617523193 0.039512112736701965 0.5658915042877197
-0.20930230617523193 0.03898290917277336 0.5813953876495361
-0.20930230617523193 0.06861621141433716 0.22480618953704834
-0.20930230617523193 0.06646281480789185 0.24031007289886475
-0.20930230617523193 0.06399770081043243 0.25581395626068115
-0.20930230617523193 0.06195379048585892 0.27131783962249756
-0.20930230617523193 0.06627917289733887 0.37984490394592285
-0.20930230617523193 0.061206523329019547 0.39534878730773926
-0.20930230617523193 0.057573091238737106 0.41085267066955566
-0.20930230617523193 0.0555635541677475 0.42635655403137207
-0.20930230617523193 0.05453317239880562 0.4418604373931885
-0.20930230617523193 0.08336353302001953 0.16279065608978271
-0.20930230617523193 0.08119688183069229 0.17829453945159912
-0.20930230617523193 0.07843362540006638 0.19379842281341553
-0.20930230617523193 0.07400202751159668 0.20930230617523193
-0.20930230617523193 0.08328181505203247 0.30232560634613037
-0.20930230617523193 0.07843798398971558 0.3178294897079468
-0.20930230617523193 0.07488904893398285 0.3333333730697632
-0.20930229127407074 0.07228685915470123 0.3488372564315796
-0.20930230617523193 0.07011821866035461 0.364341139793396
-0.20930230617523193 0.10059620440006256 0.10077524185180664
-0.20930230617523193 0.09823882579803467 0.11627912521362305
-0.20930230617523193 0.09484317898750305 0.1317828893661499
-0.20930230617523193 0.08611799031496048 0.14728675782680511
-0.20930230617523193 0.09526818245649338 0.25581395626068115
-0.20930230617523193 0.08939202129840851 0.27131783962249756
-0.20930230617523193 0.08653207123279572 0.28682172298431396
-0.20930230617523193 0.11367256194353104 0.06976747512817383
-0.20930230617523193 0.10989852249622345 0.08527135848999023
-0.20930230617523193 0.11092699319124222 0.20930230617523193
-0.20930232107639313 0.10495899617671967 0.22480618953704834
-0.20930229127407074 0.1014595478773117 0.24031007289886475
-0.20930230617523193 0.1313037872314453 0.02325582504272461
-0.20930230617523193 0.12760943174362183 0.038759708404541016
-0.20930230617523193 0.11632372438907623 0.05426359176635742
-0.20930230617523193 0.1281527727842331 0.16279065608978271
-0.20930230617523193 0.12172003090381622 0.17829453945159912
-0.20930230617523193 0.11770635843276978 0.19379842281341553
-0.20930230617523193 0.14271147549152374 0.007751941680908203
-0.20930230617523193 0.1446463167667389 0.11627912521362305
-0.20930230617523193 0.13853329420089722 0.1317828893661499
-0.20930230617523193 0.13391262292861938 0.1472867727279663
-0.20930230617523193 0.16138240694999695 -0.038759708404541016
-0.20930230617523193 0.1585455983877182 -0.02325582504272461
-0.20930230617523193 0.14898629486560822 -0.007751941680908203
-0.20930230617523193 0.15856808423995972 0.06976747512817383
-0.20930230617523193 0.15333816409111023 0.08527135848999023
-0.20930230617523193 0.14961425960063934 0.10077524185180664
-0.20930230617523193 0.1768675446510315 -0.10077518224716187
-0.20930230617523193 0.1734125018119812 -0.08527129888534546
-0.20930230617523193 0.16891729831695557 -0.06976741552352905
-0.20930230617523193 0.16284330189228058 -0.05426359176635742
-0.20930230617523193 0.17321071028709412 0.02325582504272461
-0.20930230617523193 0.1679050326347351 0.038759708404541016
-0.20930230617523193 0.16425390541553497 0.05426359176635742
-0.20930230617523193 0.19357596337795258 -0.1782945990562439
-0.20930230617523193 0.19213926792144775 -0.1627907156944275
-0.20930230617523193 0.18984277546405792 -0.14728683233261108
-0.20930230617523193 0.18629930913448334 -0.13178294897079468
-0.20930230617523193 0.180024191737175 -0.11627906560897827
-0.20930230617523193 0.19113139808177948 -0.02325582504272461
-0.20930230617523193 0.18391284346580505 -0.00775194214656949
-0.20930230617523193 0.17941389977931976 0.007751941680908203
-0.20930230617523193 0.2066613733768463 -0.20930230617523193
-0.20930230617523193 0.20111560821533203 -0.19379842281341553
-0.20930230617523193 0.2061970829963684 -0.06976741552352905
-0.20930230617523193 0.20066165924072266 -0.05426359176635742
-0.20930230617523193 0.19655203819274902 -0.038759708404541016
-0.20930230617523193 0.22369487583637238 -0.24031007289886475
-0.20930229127407074 0.21387939155101776 -0.22480618953704834
-0.20930230617523193 0.21801133453845978 -0.11627906560897827
-0.20930230617523193 0.21359412372112274 -0.10077518224716187
-0.20930230617523193 0.21079471707344055 -0.08527129888534546
-0.20930230617523193 0.23871274292469025 -0.3333333134651184
-0.20930230617523193 0.23659029603004456 -0.317829430103302
-0.20930230617523193 0.23503948748111725 -0.30232560634613037
-0.20930230617523193 0.23446568846702576 -0.28682172298431396
-0.20930230617523193 0.23484966158866882 -0.27131783962249756
-0.20930230617523193 0.23262831568717957 -0.25581395626068115
-0.20930230617523193 0.23777373135089874 -0.1782945990562439
-0.20930230617523193 0.23110844194889069 -0.1627907156944275
-0.20930230617523193 0.22765347361564636 -0.14728683233261108
-0.20930230617523193 0.22490206360816956 -0.13178296387195587
-0.20930230617523193 0.2532942295074463 -0.3643410801887512
-0.20930230617523193 0.24601319432258606 -0.3488371968269348
-0.20930230617523193 0.24638521671295166 -0.20930230617523193
-0.20930230617523193 0.24242830276489258 -0.19379842281341553
-0.20930230617523193 0.27083760499954224 -0.39534884691238403
-0.20930230617523193 0.2624891996383667 -0.3798449635505676
-0.20930230617523193 0.27048537135124207 -0.25581395626068115
-0.20930230617523193 0.2607284486293793 -0.24031007289886475
-0.20930230617523193 0.2563400864601135 -0.22480618953704834
-0.20930230617523193 0.2853587865829468 -0.42635661363601685
-0.20930230617523193 0.28135064244270325 -0.41085273027420044
-0.20930230617523193 0.2850256860256195 -0.28682172298431396
-0.20930230617523193 0.27690061926841736 -0.27131783962249756
-0.20930230617523193 0.3022558391094208 -0.4728682041168213
-0.20930230617523193 0.2983284294605255 -0.4573643207550049
-0.20930230617523193 0.29176294803619385 -0.4418604373931885
-0.20930230617523193 0.2946246266365051 -0.317829430103302
-0.20930230617523193 0.2896044850349426 -0.30232560634613037
-0.20930230617523193 0.31651994585990906 -0.5038759708404541
-0.20930230617523193 0.3120851516723633 -0.4883720874786377
-0.20930230617523193 0.3133431077003479 -0.3643410801887512
-0.20930230617523193 0.3059319853782654 -0.3488371968269348
-0.20930230617523193 0.3029787540435791 -0.3333333134651184
-0.20930230617523193 0.3325062692165375 -0.5658915042877197
-0.20930230617523193 0.3300701379776001 -0.5503876209259033
-0.20930230617523193 0.32719045877456665 -0.5348837375640869
-0.20930230617523193 0.32205119729042053 -0.5193798542022705
-0.20930230617523193 0.3296424150466919 -0.39534884691238403
-0.20930230617523193 0.3211316168308258 -0.3798449635505676
-0.20930230617523193 0.3480938673019409 -0.6124030947685242
-0.20930230617523193 0.3443838357925415 -0.5968992114067078
-0.20930230617523193 0.3386646509170532 -0.5813953876495361
-0.20930230617523193 0.33996379375457764 -0.42635661363601685
-0.20930230617523193 0.3361040949821472 -0.41085273027420044
-0.20930230617523193 0.36398932337760925 -0.6589146852493286
-0.20930230617523193 0.36049559712409973 -0.643410861492157
-0.20930230617523193 0.35534149408340454 -0.6279069781303406
-0.20930230617523193 0.36322441697120667 -0.4883720874786377
-0.20930230617523193 0.3566000461578369 -0.4728682041168213
-0.20930230617523193 0.3523584306240082 -0.4573643207550049
-0.20930229127407074 0.3491707146167755 -0.4418604373931885
-0.20930230617523193 0.37786000967025757 -0.6899224519729614
-0.20930230617523193 0.37256062030792236 -0.674418568611145
-0.20930230617523193 0.3789898753166199 -0.5503876209259033
-0.20930230617523193 0.3713650703430176 -0.5348837375640869
-0.20930230617523193 0.3679549992084503 -0.5193798542022705
-0.20930232107639313 0.36612170934677124 -0.5038759708404541
-0.20930230617523193 0.39181602001190186 -0.7209302186965942
-0.20930230617523193 0.38415223360061646 -0.7054263353347778
-0.20930230617523193 0.39147046208381653 -0.5813953876495361
-0.20930230617523193 0.38468676805496216 -0.5658915042877197
-0.20930230617523193 0.40784886479377747 -0.751937985420227
-0.20930230617523193 0.3988196849822998 -0.7364341020584106
-0.20930230617523193 0.4032789468765259 -0.6124030947685242
-0.20930230617523193 0.39863842725753784 -0.5968992114067078
-0.20930230617523193 0.42461830377578735 -0.7984496355056763
-0.20930230617523193 0.4217365086078644 -0.7829457521438599
-0.20930230617523193 0.4127800464630127 -0.7674418687820435
-0.20930230617523193 0.42168742418289185 -0.674418568611145
-0.20930229127407074 0.41697967052459717 -0.6589146852493286
-0.20930232107639313 0.41436779499053955 -0.643410861492157
-0.20930230617523193 0.4111274182796478 -0.6279069781303406
-0.20930230617523193 0.44096606969833374 -0.8449612259864807
-0.20930230617523193 0.4382414221763611 -0.8294573426246643
-0.20930230617523193 0.4318366050720215 -0.8139534592628479
-0.20930230617523193 0.43536704778671265 -0.7209302186965942
-0.20930230617523193 0.4308590292930603 -0.7054263353347778
-0.20930230617523193 0.42771008610725403 -0.6899224519729614
-0.20930230617523193 0.45483341813087463 -0.8759689927101135
-0.20930230617523193 0.45010972023010254 -0.8604651093482971
-0.20930230617523193 0.45178478956222534 -0.7674418687820435
-0.20930230617523193 0.4463594853878021 -0.751937985420227
-0.20930230617523193 0.4428655803203583 -0.7364341020584106
-0.20930230617523193 0.4709949791431427 -0.9224806427955627
-0.20930230617523193 0.46769845485687256 -0.9069767594337463
-0.20930230617523193 0.46143054962158203 -0.8914728760719299
-0.20930230617523193 0.46944645047187805 -0.8139535188674927
-0.20930230617523193 0.4624987840652466 -0.7984496355056763
-0.20930230617523193 0.4589841961860657 -0.7829457521438599
-0.20930230617523193 0.4864996373653412 -0.9689922332763672
-0.20930230617523193 0.48176437616348267 -0.9534883499145508
-0.20930230617523193 0.47606244683265686 -0.9379844665527344
-0.20930230617523193 0.48379960656166077 -0.8449612259864807
-0.20930230617523193 0.47701311111450195 -0.8294574022293091
-0.20930230617523193 0.493765264749527 -0.9844961166381836
-0.20930230617523193 0.4979168176651001 -0.8759689927101135
-0.20930230617523193 0.49196600914001465 -0.8604651093482971
-0.20930230617523193 0.5142909288406372 -0.9224806427955627
-0.20930230617523193 0.5099900960922241 -0.9069766998291016
-0.20930230617523193 0.505616307258606 -0.8914728760719299
-0.20930230617523193 0.5308870077133179 -0.9844961166381836
-0.20930230617523193 0.5263851881027222 -0.9689922332763672
-0.20930230617523193 0.522717297077179 -0.9534883499145508
-0.20930230617523193 0.5198619365692139 -0.9379845261573792
-0.19379842281341553 -0.4744677245616913 -0.8294573426246643
-0.19379842281341553 -0.4711081087589264 -0.8139535188674927
-0.19379842281341553 -0.461800217628479 -0.7984496355056763
-0.19379842281341553 -0.4595981240272522 -0.7829457521438599
-0.19379842281341553 -0.45356640219688416 -0.8294574022293091
-0.19379842281341553 -0.442541241645813 -0.8139535188674927
-0.19379843771457672 -0.4550325870513916 -0.7674419283866882
-0.19379842281341553 -0.44280099868774414 -0.751937985420227
-0.19379842281341553 -0.4383276402950287 -0.7984496355056763
-0.19379842281341553 -0.4347689151763916 -0.7829457521438599
-0.19379842281341553 -0.4339168071746826 -0.7674418687820435
-0.19379843771457672 -0.4364549219608307 -0.751937985420227
-0.19379842281341553 -0.40114182233810425 -0.643410861492157
-0.19379840791225433 -0.4105450212955475 -0.6279069185256958
-0.19379842281341553 -0.4093645215034485 -0.6124030947685242
-0.19379842281341553 -0.4024741053581238 -0.5968992114067078
-0.19379842281341553 -0.39899539947509766 -0.5813953876495361
-0.19379842281341553 -0.3870847225189209 -0.5658915042877197
-0.19379840791225433 -0.3791801929473877 -0.643410861492157
-0.19379842281341553 -0.37545275688171387 -0.6279069781303406
-0.19379842281341553 -0.37203705310821533 -0.6124030947685242
-0.19379842281341553 -0.3703295588493347 -0.5968992114067078
-0.19379842281341553 -0.36962124705314636 -0.5813953876495361
-0.19379842281341553 -0.37604328989982605 -0.5658915042877197
-0.19379842281341553 -0.24989096820354462 -0.20930229127407074
-0.19379842281341553 -0.25361931324005127 -0.19379842281341553
-0.19379842281341553 -0.24437186121940613 -0.1782945990562439
-0.19379842281341553 -0.2408115714788437 -0.1627907156944275
-0.19379842281341553 -0.22387176752090454 -0.20930230617523193
-0.19379842281341553 -0.22078609466552734 -0.19379842281341553
-0.19379842281341553 -0.2211807370185852 -0.1782946139574051
-0.19379842281341553 -0.22160682082176208 -0.1627907156944275
-0.19379842281341553 -0.19738884270191193 -0.08527129888534546
-0.19379842281341553 -0.19815686345100403 -0.06976741552352905
-0.19379842281341553 -0.19825127720832825 -0.05426359176635742
-0.19379842281341553 -0.19690543413162231 -0.038759708404541016
-0.19379842281341553 -0.19514523446559906 -0.02325582504272461
-0.19379840791225433 -0.19243566691875458 -0.08527129888534546
-0.19379842281341553 -0.18802103400230408 -0.06976741552352905
-0.19379842281341553 -0.18608719110488892 -0.007751941680908203
-0.19379842281341553 -0.17946262657642365 0.007751941680908203
-0.19379842281341553 -0.17808043956756592 -0.05426359176635742
-0.19379843771457672 -0.1761929988861084 -0.038759712129831314
-0.19379842281341553 -0.1752091646194458 -0.02325582504272461
-0.19379842281341553 -0.17577889561653137 -0.007751941680908203
-0.19379842281341553 -0.17206372320652008 0.007751941680908203
-0.19379842281341553 -0.16358411312103271 0.02325582504272461
-0.19379842281341553 -0.1719767153263092 0.038759708404541016
-0.19379842281341553 -0.17218992114067078 0.05426359176635742
-0.19379842281341553 -0.16879579424858093 0.06976747512817383
-0.19379842281341553 -0.16707713901996613 0.08527135848999023
-0.19379842281341553 -0.16530850529670715 0.10077524185180664
-0.19379842281341553 -0.16330258548259735 0.11627912521362305
-0.19379842281341553 -0.16259616613388062 0.02325582504272461
-0.19379842281341553 -0.1560320258140564 0.1317828893661499
-0.19379842281341553 -0.15086747705936432 0.1472867727279663
-0.19379842281341553 -0.14761625230312347 0.16279065608978271
-0.19379843771457672 -0.14668497443199158 0.038759708404541016
-0.19379842281341553 -0.14059779047966003 0.05426359176635742
-0.19379842281341553 -0.13509488105773926 0.17829453945159912
-0.19379842281341553 -0.13163065910339355 0.06976746767759323
-0.19379842281341553 -0.1307421624660492 0.08527135848999023
-0.19379842281341553 -0.1281064748764038 0.10077524185180664
-0.19379842281341553 -0.12039822340011597 0.11627912521362305
-0.19379842281341553 -0.12096870690584183 0.17829453945159912
-0.19379842281341553 -0.11559607088565826 0.1317828893661499
-0.19379843771457672 -0.1145097091794014 0.1472867876291275
-0.19379842281341553 -0.11487092077732086 0.16279065608978271
-0.19379842281341553 -0.023642955347895622 0.612403154373169
-0.19379842281341553 -0.016028810292482376 0.5968992710113525
-0.19379842281341553 -0.011042989790439606 0.9069766998291016
-0.19379842281341553 -0.008946754038333893 0.922480583190918
-0.19379842281341553 -0.0014223044272512197 0.5968992710113525
-0.19379843771457672 0.009524368681013584 0.612403154373169
-0.19379842281341553 0.0105197224766016 0.9069766998291016
-0.19379840791225433 0.008675482124090195 0.922480583190918
-0.19379842281341553 0.038437556475400925 0.3488372564315796
-0.19379842281341553 0.03812944516539574 0.364341139793396
-0.19379842281341553 0.037889886647462845 0.37984490394592285
-0.19379842281341553 0.04673568159341812 0.3333333730697632
-0.19379842281341553 0.058096908032894135 0.3333333730697632
-0.19379842281341553 0.0577252171933651 0.3488372564315796
-0.19379843771457672 0.056081172078847885 0.364341139793396
-0.19379842281341553 0.05442102625966072 0.37984490394592285
-0.19379842281341553 0.11623170226812363 0.08527135848999023
-0.19379842281341553 0.11512140184640884 0.10077524185180664
-0.19379842281341553 0.11132445931434631 0.11627912521362305
-0.19379842281341553 0.10588831454515457 0.1317828893661499
-0.19379842281341553 0.10279745608568192 0.1472867727279663
-0.19379842281341553 0.10589511692523956 0.16279065608978271
-0.19379842281341553 0.12745749950408936 0.05426359176635742
-0.19379842281341553 0.12063376605510712 0.06976747512817383
-0.19379842281341553 0.12138397246599197 0.16279065608978271
-0.19379842281341553 0.13385716080665588 0.038759712129831314
-0.19379842281341553 0.14535969495773315 0.11627912521362305
-0.19379842281341553 0.13812997937202454 0.1317828893661499
-0.19379842281341553 0.13326703011989594 0.1472867727279663
-0.19379842281341553 0.15935176610946655 0.06976747512817383
-0.19379842281341553 0.15391838550567627 0.08527135848999023
-0.19379842281341553 0.15014579892158508 0.10077524185180664
-0.19379842281341553 0.16566598415374756 0.038759708404541016
-0.19379842281341553 0.16410817205905914 0.05426359176635742
-0.19379842281341553 0.19035732746124268 -0.08527129888534546
-0.19379842281341553 0.18692809343338013 -0.06976741552352905
-0.19379842281341553 0.18551412224769592 -0.05426359176635742
-0.19379842281341553 0.19197727739810944 -0.038759708404541016
-0.19379842281341553 0.20796899497509003 -0.11627906560897827
-0.19379842281341553 0.20065933465957642 -0.10077518224716187
-0.19379842281341553 0.2052960991859436 -0.06976741552352905
-0.19379842281341553 0.19932474195957184 -0.05426359176635742
-0.19379842281341553 0.19424879550933838 -0.03875970467925072
-0.19379842281341553 0.20996786653995514 -0.11627906560897827
-0.19379840791225433 0.21075958013534546 -0.10077518224716187
-0.19379842281341553 0.21024639904499054 -0.08527129888534546
-0.1627907156944275 -0.00797006394714117 0.612403154373169
-0.1627907156944275 0.005410115234553814 0.612403154373169
-0.14728683233261108 -0.009712700732052326 0.612403154373169
-0.14728683233261108 0.008976349607110023 0.612403154373169
-0.13178294897079468 -0.010360483080148697 0.612403154373169
-0.13178294897079468 -0.008181557059288025 0.9069766998291016
-0.13178294897079468 -0.006971050053834915 0.9069766998291016
-0.13178294897079468 0.009098445065319538 0.6124030947685242
-0.11627906560897827 -0.45957204699516296 -0.8294573426246643
-0.11627906560897827 -0.45661869645118713 -0.8294573426246643
-0.11627906560897827 -0.396317720413208 -0.5813953876495361
-0.11627906560897827 -0.3933728039264679 -0.5813953876495361
-0.11627906560897827 -0.010189391672611237 0.612403154373169
-0.11627906560897827 -0.008966444060206413 0.9069766998291016
-0.11627906560897827 -0.0022243743296712637 0.9069766998291016
-0.11627906560897827 0.00899125263094902 0.612403154373169
-0.10077518224716187 -0.3969195783138275 -0.5813953876495361
-0.10077518224716187 -0.3919821083545685 -0.5813953876495361
-0.10077518224716187 -0.009260430932044983 0.612403154373169
-0.10077518224716187 -0.009368699975311756 0.9069766998291016
-0.10077518224716187 0.006618930958211422 0.9069766998291016
-0.10077518224716187 0.008521780371665955 0.612403154373169
-0.08527129888534546 -0.3970528244972229 -0.5813953876495361
-0.08527130633592606 -0.39220982789993286 -0.5813953876495361
-0.08527129888534546 -0.21162909269332886 -0.10077518224716187
-0.08527129888534546 -0.19956880807876587 -0.08527129888534546
-0.08527129888534546 -0.18816295266151428 -0.10077518224716187
-0.08527129888534546 -0.1920924335718155 -0.08527129888534546
-0.08527129888534546 -0.008059670217335224 0.612403154373169
-0.08527129888534546 -0.00971135962754488 0.9069766998291016
-0.08527129888534546 0.007362050004303455 0.612403154373169
-0.08527129888534546 0.008157722651958466 0.9069766402244568
-0.08527129888534546 0.20375493168830872 -0.10077518224716187
-0.08527129888534546 0.21111224591732025 -0.10077518224716187
-0.06976741552352905 -0.3958549499511719 -0.5813953876495361
-0.06976741552352905 -0.3946658670902252 -0.5813953876495361
-0.06976741552352905 -0.21209365129470825 -0.10077518224716187
-0.06976741552352905 -0.2030957043170929 -0.08527129888534546
-0.06976741552352905 -0.18900543451309204 -0.08527129888534546
-0.06976741552352905 -0.17773932218551636 -0.10077518224716187
-0.06976741552352905 -0.00987221673130989 0.9069766998291016
-0.06976741552352905 0.008177493698894978 0.9069766998291016
-0.06976741552352905 0.19332554936408997 -0.10077518224716187
-0.06976741552352905 0.21314135193824768 -0.10077518224716187
-0.05426359176635742 -0.21156999468803406 -0.10077518224716187
-0.05426359176635742 -0.19526368379592896 -0.08527129888534546
-0.05426359176635742 -0.18022421002388 -0.10077518224716187
-0.05426358804106712 -0.19283124804496765 -0.08527129888534546
-0.05426359176635742 -0.009803843684494495 0.9069766998291016
-0.05426359176635742 0.006454296410083771 0.9069766998291016
-0.05426359176635742 0.20312470197677612 -0.10077518224716187
-0.05426359176635742 0.21149395406246185 -0.10077518224716187
-0.038759708404541016 -0.21108265221118927 -0.10077518224716187
-0.038759708404541016 -0.18404164910316467 -0.10077518224716187
-0.038759708404541016 -0.00987788662314415 0.9069766998291016
-0.038759708404541016 0.003938616253435612 0.9069766998291016
-0.038759708404541016 0.20830008387565613 -0.10077518224716187
-0.038759708404541016 0.20977173745632172 -0.10077517479658127
-0.02325582504272461 -0.4672302007675171 -0.9069767594337463
-0.02325582504272461 -0.4484972059726715 -0.9069767594337463
-0.02325582504272461 -0.250762015581131 -0.3333333134651184
-0.02325582504272461 -0.23760688304901123 -0.317829430103302
-0.02325582504272461 -0.2100248485803604 -0.10077518224716187
-0.02325582504272461 -0.188894122838974 -0.10077518224716187
-0.02325582504272461 -0.1259855031967163 0.007751941680908203
-0.02325582504272461 -0.010066324844956398 0.9069766998291016
-0.02325582504272461 0.004181379452347755 0.9069766998291016
-0.02325582690536976 0.05494658648967743 0.007751941680908203
-0.02325582504272461 0.21682436764240265 -0.3333333134651184
-0.02325582504272461 0.21550679206848145 -0.317829430103302
-0.007751941680908203 -0.4741668701171875 -0.9069768190383911
-0.007751941680908203 -0.4472607672214508 -0.9069767594337463
-0.007751941680908203 -0.2942153811454773 -0.3333333134651184
-0.007751941680908203 -0.2631368041038513 -0.317829430103302
-0.007751941680908203 -0.1946592479944229 -0.10077518224716187
-0.00775194214656949 -0.1936303973197937 -0.10077518969774246
-0.007751941680908203 -0.14478154480457306 0.007751941680908203
-0.007751941680908203 -0.11298350244760513 0.02325582504272461
-0.00775194214656949 -0.09967415779829025 -0.00775194214656949
-0.007751941680908203 -0.030857961624860764 0.16279065608978271
-0.007751941680908203 -0.018867528066039085 -0.007751941680908203
-0.007751941680908203 -0.010232537984848022 0.9069766998291016
-0.007751941680908203 0.0036812731996178627 0.9069766998291016
-0.007751941680908203 0.01955636776983738 0.16279065608978271
-0.007751941680908203 0.04412242770195007 0.02325582504272461
-0.007751941680908203 0.12252286076545715 0.007751941680908203
-0.007751941680908203 0.2379043996334076 -0.317829430103302
-0.007751941680908203 0.2472112625837326 -0.3333333134651184
0.007751941680908203 -0.4755946397781372 -0.9069767594337463
0.007751941680908203 -0.4491884410381317 -0.9069767594337463
0.007751941680908203 -0.2971353232860565 -0.3333333134651184
0.007751941680908203 -0.2617027163505554 -0.317829430103302
0.007751941680908203 -0.14313247799873352 0.007751941680908203
0.007751941680908203 -0.11033613979816437 0.02325582504272461
0.007751941680908203 -0.09075455367565155 -0.007751941680908203
0.007751941680908203 -0.02584698423743248 -0.007751941680908203
0.007751941680908203 -0.03193510323762894 0.16279065608978271
0.007751941680908203 -0.010200437158346176 0.9069766998291016
0.007751941680908203 0.0037964675575494766 0.9069766998291016
0.007751941680908203 0.021861817687749863 0.16279065608978271
0.007751941680908203 0.04001672938466072 0.02325582504272461
0.007751941680908203 0.11503857374191284 0.007751941680908203
0.007751941680908203 0.236087828874588 -0.317829430103302
0.007751941680908203 0.2484532594680786 -0.3333333134651184
0.02325582504272461 -0.4731712341308594 -0.9069767594337463
0.02325582504272461 -0.4514147639274597 -0.9069766998291016
0.02325582504272461 -0.2567554712295532 -0.3333333134651184
0.02325582504272461 -0.2315511703491211 -0.317829430103302
0.02325582504272461 -0.205826535820961 -0.10077518224716187
0.02325582504272461 -0.19205345213413239 -0.10077517479658127
0.02325582504272461 -0.12349918484687805 0.007751941680908203
0.02325582504272461 -0.01278163492679596 0.16279065608978271
0.02325582504272461 -0.010084617882966995 0.9069766998291016
0.02325582504272461 0.0027210284024477005 0.9069766998291016
0.02325582504272461 0.009063715115189552 0.16279065608978271
0.02325582504272461 0.04533962160348892 0.007751941680908203
0.02325582504272461 0.21863804757595062 -0.3333333134651184
0.02325582504272461 0.21138261258602142 -0.317829430103302
0.038759708404541016 -0.21064722537994385 -0.10077518224716187
0.038759708404541016 -0.1867808699607849 -0.10077518224716187
0.038759708404541016 -0.009894579648971558 0.9069766998291016
0.038759708404541016 0.0016352701932191849 0.9069766998291016
0.05426359176635742 -0.21165192127227783 -0.10077518224716187
0.05426359176635742 -0.18147560954093933 -0.10077518224716187
0.05426359176635742 -0.009979547932744026 0.9069766998291016
0.05426359176635742 0.004374832846224308 0.9069766998291016
0.05426359176635742 0.20170947909355164 -0.10077518224716187
0.05426359176635742 0.2118837535381317 -0.10077518224716187
0.06976747512817383 -0.21243539452552795 -0.10077518224716187
0.06976747512817383 -0.20247642695903778 -0.08527129888534546
0.06976747512817383 -0.19085648655891418 -0.08527130633592606
0.06976747512817383 -0.17776302993297577 -0.10077518224716187
0.06976747512817383 -0.01012146845459938 0.9069766998291016
0.06976748257875443 0.008314011618494987 0.9069767594337463
0.06976747512817383 0.19208765029907227 -0.10077518224716187
0.06976747512817383 0.207763209939003 -0.08527129888534546
0.06976747512817383 0.213356152176857 -0.10077518224716187
0.06976747512817383 0.20942136645317078 -0.08527130633592606
0.08527135848999023 -0.3973332345485687 -0.5813953876495361
0.08527135103940964 -0.39341551065444946 -0.5813953876495361
0.08527135848999023 -0.2122984081506729 -0.10077518224716187
0.08527135848999023 -0.19978083670139313 -0.08527129888534546
0.08527135848999023 -0.18845252692699432 -0.10077518224716187
0.08527135848999023 -0.19312255084514618 -0.08527129888534546
0.08527135848999023 -0.010103996843099594 0.9069766998291016
0.08527135848999023 0.008546081371605396 0.9069766998291016
0.08527135848999023 0.1952887624502182 -0.10077518224716187
0.08527135848999023 0.2121095061302185 -0.10077517479658127
0.10077524185180664 -0.39701202511787415 -0.5813953876495361
0.10077524185180664 -0.3937564194202423 -0.5813953876495361
0.10077524185180664 -0.2109535038471222 -0.10077518224716187
0.10077524185180664 -0.20332041382789612 -0.10077518224716187
0.10077524185180664 -0.00825369544327259 0.612403154373169
0.10077524185180664 -0.009740541689097881 0.9069766998291016
0.10077524185180664 0.007972393184900284 0.6124030947685242
0.10077524930238724 0.00831666961312294 0.9069766998291016
0.11627912521362305 -0.4617183208465576 -0.8294573426246643
0.11627912521362305 -0.4563550353050232 -0.8294573426246643
0.11627912521362305 -0.395907461643219 -0.5813953876495361
0.11627912521362305 -0.3948274254798889 -0.5813953876495361
0.11627912521362305 -0.009777856990695 0.612403154373169
0.11627912521362305 -0.0093911187723279 0.9069766998291016
0.11627912521362305 0.006203141063451767 0.9069766998291016
0.11627912521362305 0.009085954166948795 0.612403154373169
0.1317828893661499 -0.010394240729510784 0.612403154373169
0.1317828893661499 -0.008845808915793896 0.9069766998291016
0.1317828893661499 -0.0043915980495512486 0.9069766998291016
0.1317828893661499 0.009546415880322456 0.612403154373169
0.1472867727279663 -0.010622529312968254 0.612403154373169
0.1472867727279663 -0.008266189135611057 0.9069766998291016
0.1472867727279663 -0.006452210713177919 0.9069766402244568
0.1472867727279663 0.009927155449986458 0.612403154373169
0.16279065608978271 -0.012171044945716858 0.612403154373169
0.16279065608978271 -0.009234136901795864 0.9069766998291016
0.16279065608978271 0.001989126205444336 0.9069766998291016
0.16279065608978271 0.01168481819331646 0.612403154373169
0.17829453945159912 -0.013676261529326439 0.612403154373169
0.17829453945159912 -0.010702116414904594 0.9069766998291016
0.17829453945159912 0.01091437041759491 0.612403154373169
0.17829455435276031 0.009085428901016712 0.9069766998291016
0.19379842281341553 -0.519939124584198 -0.9534883499145508
0.19379842281341553 -0.5163530111312866 -0.9534883499145508
0.19379842281341553 -0.5094062685966492 -0.9224806427955627
0.19379842281341553 -0.5084880590438843 -0.9069767594337463
0.19379842281341553 -0.5055855512619019 -0.8914728760719299
0.19379842281341553 -0.4934576749801636 -0.9224806427955627
0.19379842281341553 -0.4903351366519928 -0.9069767594337463
0.19379842281341553 -0.49323004484176636 -0.8914728164672852
0.19379842281341553 -0.47618359327316284 -0.8294573426246643
0.19379842281341553 -0.4745584726333618 -0.8139535188674927
0.19379842281341553 -0.4675524830818176 -0.8449612259864807
0.19379842281341553 -0.46641719341278076 -0.7984496355056763
0.19379842281341553 -0.46138331294059753 -0.7829457521438599
0.19379842281341553 -0.4587700068950653 -0.7674418687820435
0.19379842281341553 -0.45560821890830994 -0.8449612259864807
0.19379842281341553 -0.44461753964424133 -0.8294573426246643
0.19379842281341553 -0.4449845552444458 -0.751937985420227
0.19379842281341553 -0.43965280055999756 -0.8139535188674927
0.19379842281341553 -0.43496349453926086 -0.7984496355056763
0.19379842281341553 -0.42975082993507385 -0.7829457521438599
0.19379842281341553 -0.4270360469818115 -0.7674418687820435
0.19379842281341553 -0.4261637330055237 -0.751937985420227
0.19379842281341553 -0.3975104093551636 -0.643410861492157
0.19379842281341553 -0.4040965437889099 -0.6279069781303406
0.19379842281341553 -0.4055754840373993 -0.6124030947685242
0.19379842281341553 -0.40201157331466675 -0.5968992114067078
0.19379842281341553 -0.39899444580078125 -0.5813953876495361
0.19379842281341553 -0.38789916038513184 -0.643410861492157
0.19379842281341553 -0.38492679595947266 -0.5658915042877197
0.19379842281341553 -0.37696221470832825 -0.6279070377349854
0.19379842281341553 -0.37421107292175293 -0.6124030947685242
0.19379842281341553 -0.3727845549583435 -0.596899151802063
0.19379842281341553 -0.3717336654663086 -0.5813953876495361
0.19379842281341553 -0.3781625032424927 -0.565891444683075
0.19379842281341553 -0.24339576065540314 -0.19379842281341553
0.19379842281341553 -0.2311103343963623 -0.19379842281341553
0.19379842281341553 -0.19963523745536804 -0.08527129888534546
0.19379842281341553 -0.19964686036109924 -0.06976741552352905
0.19379842281341553 -0.19914257526397705 -0.05426359176635742
0.19379842281341553 -0.1977129727602005 -0.038759708404541016
0.19379842281341553 -0.19567568600177765 -0.02325582504272461
0.19379842281341553 -0.194004088640213 -0.007751941680908203
0.19379842281341553 -0.1897834688425064 -0.08527130633592606
0.19379842281341553 -0.1834525465965271 -0.06976741552352905
0.19379842281341553 -0.18180011212825775 0.007751941680908203
0.19379842281341553 -0.17882004380226135 0.02325582504272461
0.19379842281341553 -0.1767505407333374 -0.05426359176635742
0.19379842281341553 -0.1745046228170395 -0.038759708404541016
0.19379842281341553 -0.17286448180675507 -0.02325582504272461
0.19379842281341553 -0.17220285534858704 -0.007751941680908203
0.19379842281341553 -0.17696744203567505 0.038759708404541016
0.19379840791225433 -0.1748759150505066 0.05426358804106712
0.19379842281341553 -0.16989760100841522 0.06976747512817383
0.19379842281341553 -0.16775113344192505 0.08527135848999023
0.19379842281341553 -0.16582897305488586 0.10077524185180664
0.19379842281341553 -0.1639052927494049 0.11627912521362305
0.19379842281341553 -0.1625693142414093 0.007751941680908203
0.19379842281341553 -0.1579538732767105 0.02325582504272461
0.19379842281341553 -0.15775752067565918 0.1317828893661499
0.19379842281341553 -0.1520504355430603 0.1472867727279663
0.19379842281341553 -0.1483890563249588 0.16279065608978271
0.19379842281341553 -0.14684411883354187 0.038759708404541016
0.19379842281341553 -0.14157168567180634 0.05426359176635742
0.19379842281341553 -0.13466212153434753 0.06976747512817383
0.19379842281341553 -0.1350509077310562 0.17829453945159912
0.19379843771457672 -0.13116654753684998 0.08527135848999023
0.19379842281341553 -0.12908650934696198 0.10077524185180664
0.19379842281341553 -0.12426796555519104 0.11627912521362305
0.19379842281341553 -0.11660968512296677 0.1317828893661499
0.19379842281341553 -0.1254643201828003 0.17829453945159912
0.19379842281341553 -0.11536482721567154 0.1472867727279663
0.19379843771457672 -0.11589620262384415 0.1627906709909439
0.19379842281341553 -0.1008400097489357 0.3178294897079468
0.19379842281341553 -0.10037996619939804 0.3178294897079468
0.19379842281341553 -0.08905120193958282 0.3488372564315796
0.19379842281341553 -0.08591566979885101 0.364341139793396
0.19379842281341553 -0.08242875337600708 0.3488372564315796
0.19379842281341553 -0.08404986560344696 0.364341139793396
0.19379842281341553 -0.027478989213705063 0.5968992710113525
0.19379842281341553 -0.03180261701345444 0.612403154373169
0.19379842281341553 -0.02450658567249775 0.6279069185256958
0.19379842281341553 -0.011740120127797127 0.8914728164672852
0.19379842281341553 -0.015855371952056885 0.9069766998291016
0.19379842281341553 -0.011605579406023026 0.922480583190918
0.19379842281341553 0.006239570677280426 0.6279069185256958
0.19379842281341553 0.017577411606907845 0.5968992710113525
0.19379842281341553 0.009190186858177185 0.8914728164672852
0.19379842281341553 0.014248380437493324 0.9069766998291016
0.19379842281341553 0.012036643922328949 0.922480583190918
0.19379842281341553 0.03859156370162964 0.3488372564315796
0.19379842281341553 0.038269151002168655 0.364341139793396
0.19379842281341553 0.03827134519815445 0.37984490394592285
0.19379842281341553 0.024034086614847183 0.612403154373169
0.19379842281341553 0.053845278918743134 0.3178294897079468
0.19379842281341553 0.04592181369662285 0.3333333730697632
0.19379842281341553 0.055846717208623886 0.3178294897079468
0.19379842281341553 0.06269356608390808 0.3333333730697632
0.19379842281341553 0.060710519552230835 0.3488372564315796
0.19379842281341553 0.05792835354804993 0.364341139793396
0.19379842281341553 0.05516686290502548 0.37984490394592285
0.19379842281341553 0.11499166488647461 0.11627912521362305
0.19379842281341553 0.11147382110357285 0.1317828893661499
0.19379842281341553 0.10941791534423828 0.1472867727279663
0.19379842281341553 0.11425524204969406 0.16279065608978271
0.19379842281341553 0.12866446375846863 0.05426359176635742
0.19379842281341553 0.12396317720413208 0.06976747512817383
0.19379842281341553 0.12033405154943466 0.08527135848999023
0.19379842281341553 0.11811517179012299 0.10077524185180664
0.19379842281341553 0.11740797758102417 0.16279065608978271
0.19379842281341553 0.14677749574184418 0.02325582504272461
0.19379843771457672 0.13400627672672272 0.038759712129831314
0.19379842281341553 0.13864406943321228 0.1317828893661499
0.19379842281341553 0.13338631391525269 0.1472867727279663
0.19379842281341553 0.16191646456718445 0.06976747512817383
0.19379842281341553 0.15502989292144775 0.08527135848999023
0.19379842281341553 0.15077728033065796 0.10077524185180664
