0.37984490394592285 -0.3022680878639221 -0.007751941680908203
0.37984490394592285 -0.29730290174484253 0.05426359176635742
0.37984490394592285 -0.2825804352760315 -0.02325582504272461
0.37984490394592285 -0.28255990147590637 0.06976747512817383
0.37984490394592285 -0.26163387298583984 0.08527135848999023
0.37984490394592285 -0.24033591151237488 -0.038759708404541016
0.37984490394592285 -0.22540147602558136 0.10077524185180664
0.37984490394592285 -0.16282103955745697 0.10077524185180664
0.37984490394592285 -0.14042697846889496 -0.05426359176635742
0.37984490394592285 0.12159116566181183 -0.05426359176635742
0.37984490394592285 0.1271199882030487 0.10077524185180664
0.37984490394592285 0.2122812271118164 -0.038759708404541016
0.37984490394592285 0.2256677746772766 0.10077524185180664
0.37984490394592285 0.2462882399559021 -0.02325582504272461
0.37984490394592285 0.2674441933631897 -0.007751941680908203
0.37984490394592285 0.25965145230293274 0.08527135848999023
0.37984490394592285 0.279674768447876 0.007751941680908203
0.37984490394592285 0.28499269485473633 0.05426359176635742
0.37984490394592285 0.2762252688407898 0.06976747512817383
0.37984490394592285 0.287143349647522 0.02325582504272461
0.37984490394592285 0.288189172744751 0.038759712129831314
0.39534878730773926 -0.25733307003974915 0.007751941680908203
0.39534878730773926 -0.2598675489425659 0.02325582504272461
0.39534878730773926 -0.24068601429462433 -0.007751941680908203
0.39534878730773926 -0.25147339701652527 0.038759708404541016
0.39534878730773926 -0.23667046427726746 0.05426359176635742
0.39534881711006165 -0.20398598909378052 -0.02325582504272461
0.39534878730773926 -0.2078215628862381 0.06976747512817383
0.39534878730773926 -0.14947111904621124 -0.038759708404541016
0.39534878730773926 -0.045015402138233185 -0.05426359176635742
0.39534878730773926 0.017585696652531624 -0.05426359176635742
0.39534878730773926 0.1285991072654724 -0.038759708404541016
0.39534878730773926 0.1855449378490448 -0.02325582504272461
0.39534878730773926 0.20430469512939453 0.06976747512817383
0.39534878730773926 0.2143467664718628 -0.007751941680908203
0.39534878730773926 0.23060081899166107 0.007751941680908203
0.39534878730773926 0.23740290105342865 0.02325582504272461
0.39534878730773926 0.23461836576461792 0.038759708404541016
0.39534881711006165 0.22511674463748932 0.05426359549164772
0.4108526408672333 -0.15969900786876678 0.007751941680908203
0.41085267066955566 -0.15897129476070404 0.02325582504272461
0.41085267066955566 -0.14172451198101044 -0.007751941680908203
0.41085267066955566 -0.13696792721748352 0.038759708404541016
0.41085267066955566 -0.10544532537460327 -0.02325582504272461
0.41085267066955566 -0.07670868933200836 0.05426359176635742
0.41085267066955566 0.043309472501277924 0.05426359176635742
0.41085267066955566 0.07781288027763367 -0.02325582504272461
0.41085267066955566 0.1216709315776825 -0.007751941680908203
0.41085267066955566 0.11888408660888672 0.038759708404541016
0.41085267066955566 0.14258570969104767 0.007751941680908203
0.41085267066955566 0.1447347104549408 0.02325582504272461
-0.41085273027420044 -0.13178294897079468 -0.002892464166507125
-0.41085273027420044 -0.13178294897079468 0.017448626458644867
-0.41085273027420044 -0.11627906560897827 -0.013555970042943954
-0.41085273027420044 -0.11627905815839767 0.029084155336022377
-0.41085273027420044 -0.10077518224716187 -0.02033386379480362
-0.41085273027420044 -0.10077518224716187 0.03539557754993439
-0.41085273027420044 -0.08527129888534546 -0.025872139260172844
-0.4108527600765228 -0.08527129888534546 0.03972962126135826
-0.41085273027420044 -0.06976741552352905 -0.029202280566096306
-0.41085273027420044 -0.06976741552352905 0.04250933974981308
-0.41085273027420044 -0.05426359176635742 -0.03149503469467163
-0.41085273027420044 -0.05426359176635742 0.04523450881242752
-0.41085273027420044 -0.038759708404541016 -0.03386610001325607
-0.41085273027420044 -0.038759708404541016 0.048045963048934937
-0.41085273027420044 -0.02325582504272461 -0.035378724336624146
-0.41085273027420044 -0.02325582504272461 0.04985436797142029
-0.41085270047187805 -0.007751941215246916 -0.03560736030340195
-0.41085273027420044 -0.007751941680908203 0.05043410137295723
-0.41085273027420044 0.007751941680908203 -0.03433772549033165
-0.41085273027420044 0.007751941680908203 0.04973144084215164
-0.41085273027420044 0.02325582504272461 -0.03158024325966835
-0.41085273027420044 0.02325582504272461 0.04746648669242859
-0.41085273027420044 0.038759708404541016 -0.029317546635866165
-0.41085273027420044 0.038759708404541016 0.04436202719807625
-0.41085273027420044 0.05426359176635742 -0.027160556986927986
-0.41085273027420044 0.05426359176635742 0.04149145632982254
-0.41085273027420044 0.06976747512817383 -0.02431502938270569
-0.41085270047187805 0.06976746767759323 0.03920985013246536
-0.41085273027420044 0.08527135848999023 -0.019031841307878494
-0.41085273027420044 0.08527135848999023 0.03536633402109146
-0.41085273027420044 0.10077524185180664 -0.014444325119256973
-0.41085273027420044 0.10077524185180664 0.03209029138088226
-0.41085273027420044 0.11627912521362305 -0.009817386977374554
-0.41085273027420044 0.11627912521362305 0.027432532981038094
-0.41085273027420044 0.1317828893661499 0.0017659931909292936
-0.41085273027420044 0.1317828893661499 0.018166346475481987
-0.39534884691238403 -0.22480618953704834 -0.0016610671300441027
-0.39534884691238403 -0.22480618953704834 0.03673898056149483
-0.39534884691238403 -0.20930230617523193 -0.012437652796506882
-0.39534884691238403 -0.20930230617523193 0.04652173072099686
-0.39534884691238403 -0.19379842281341553 -0.01953790709376335
-0.39534884691238403 -0.19379842281341553 0.05378957837820053
-0.39534884691238403 -0.1782945990562439 -0.02703241817653179
-0.39534884691238403 -0.1782945990562439 0.05791894346475601
-0.39534884691238403 -0.1627907156944275 -0.030931927263736725
-0.39534884691238403 -0.1627907156944275 0.06019105762243271
-0.3953488767147064 -0.14728683233261108 -0.0348655991256237
-0.39534884691238403 -0.14728683233261108 0.06160891801118851
-0.39534884691238403 -0.13178294897079468 -0.04002394527196884
-0.39534884691238403 -0.13178294897079468 0.06288580596446991
-0.39534884691238403 -0.11627906560897827 -0.04336472600698471
-0.39534884691238403 -0.11627906560897827 0.06452780216932297
-0.39534884691238403 -0.10077518224716187 -0.04582054913043976
-0.39534884691238403 -0.10077518224716187 0.06575382500886917
-0.39534884691238403 -0.08527129888534546 -0.047962892800569534
-0.39534884691238403 -0.08527129888534546 0.06683260947465897
-0.39534884691238403 -0.06976741552352905 -0.049850232899188995
-0.39534884691238403 -0.06976741552352905 0.06806353479623795
-0.39534884691238403 -0.05426359176635742 -0.05164680257439613
-0.39534884691238403 -0.05426359176635742 0.06931231170892715
-0.39534884691238403 -0.03875970467925072 -0.05332820490002632
-0.39534884691238403 -0.038759708404541016 0.07066841423511505
-0.39534884691238403 -0.02325582504272461 -0.054087065160274506
-0.39534884691238403 -0.02325582504272461 0.07182010263204575
-0.3953488767147064 -0.007751941680908203 -0.05396682769060135
-0.39534884691238403 -0.007751941680908203 0.07233870029449463
-0.39534884691238403 0.007751941215246916 -0.053239937871694565
-0.39534884691238403 0.007751941680908203 0.07172074168920517
-0.39534884691238403 0.02325582504272461 -0.05145655572414398
-0.39534884691238403 0.02325582318007946 0.0699370801448822
-0.39534881711006165 0.038759708404541016 -0.049833931028842926
-0.39534884691238403 0.038759708404541016 0.06835806369781494
-0.39534884691238403 0.05426359176635742 -0.04837606102228165
-0.39534884691238403 0.05426359176635742 0.0672987774014473
-0.39534884691238403 0.06976747512817383 -0.04669523984193802
-0.39534884691238403 0.06976747512817383 0.06672205775976181
-0.39534884691238403 0.08527135848999023 -0.04428279027342796
-0.39534884691238403 0.08527135848999023 0.06634904444217682
-0.39534884691238403 0.10077524185180664 -0.04210008680820465
-0.39534884691238403 0.10077524185180664 0.06689352542161942
-0.39534884691238403 0.11627912521362305 -0.03965320810675621
-0.39534884691238403 0.11627912521362305 0.06818290799856186
-0.39534884691238403 0.1317828893661499 -0.035975124686956406
-0.39534884691238403 0.1317829042673111 0.07008092850446701
-0.39534884691238403 0.1472867727279663 -0.032302774488925934
-0.39534881711006165 0.1472867727279663 0.07055708765983582
-0.39534884691238403 0.16279065608978271 -0.029192723333835602
-0.39534884691238403 0.16279065608978271 0.06939002126455307
-0.39534884691238403 0.17829453945159912 -0.02507319673895836
-0.39534884691238403 0.17829453945159912 0.06530807912349701
-0.39534884691238403 0.19379842281341553 -0.015398764982819557
-0.39534884691238403 0.19379842281341553 0.0581798255443573
-0.39534884691238403 0.20930230617523193 -0.005561822094023228
-0.39534884691238403 0.20930230617523193 0.046756599098443985
-0.3798449635505676 -0.28682172298431396 0.00048076664097607136
-0.3798449635505676 -0.28682172298431396 0.03872014209628105
-0.3798449635505676 -0.27131783962249756 -0.015347383916378021
-0.3798449635505676 -0.27131783962249756 0.05555596575140953
-0.3798449635505676 -0.25581395626068115 -0.025738103315234184
-0.3798449635505676 -0.25581395626068115 0.06761795282363892
-0.3798449635505676 -0.24031007289886475 -0.030641108751296997
-0.3798449635505676 -0.24031007289886475 0.07563748210668564
-0.3798449635505676 -0.22480617463588715 -0.03590981289744377
-0.3798449635505676 -0.22480618953704834 0.08278998732566833
-0.3798449635505676 -0.20930230617523193 -0.04016508907079697
-0.37984493374824524 -0.20930230617523193 0.08672964572906494
-0.3798449635505676 -0.19379842281341553 -0.0427052266895771
-0.3798449635505676 -0.19379840791225433 0.08848446607589722
-0.3798449635505676 -0.1782945990562439 -0.045398738235235214
-0.3798449635505676 -0.1782945990562439 0.08934555947780609
-0.3798449635505676 -0.1627907156944275 -0.047743961215019226
-0.3798449635505676 -0.1627907156944275 0.08858442306518555
-0.3798449635505676 -0.14728683233261108 -0.04925484210252762
-0.3798449635505676 -0.14728683233261108 0.08653055131435394
-0.3798449635505676 -0.13178294897079468 -0.05142645910382271
-0.3798449635505676 -0.13178294897079468 0.08432386815547943
-0.3798449635505676 -0.11627906560897827 -0.0544879250228405
-0.3798449635505676 -0.11627906560897827 0.08336621522903442
-0.3798449635505676 -0.10077518224716187 -0.05597089231014252
-0.3798449635505676 -0.10077518224716187 0.0827457457780838
-0.3798449635505676 -0.08527129888534546 -0.057687871158123016
-0.3798449635505676 -0.08527129888534546 0.08257342875003815
-0.3798449635505676 -0.06976741552352905 -0.059525832533836365
-0.3798449635505676 -0.06976741552352905 0.08321098238229752
-0.3798449635505676 -0.05426359176635742 -0.06114139407873154
-0.3798449635505676 -0.05426359176635742 0.08390893787145615
-0.3798449635505676 -0.038759708404541016 -0.06247007101774216
-0.3798449635505676 -0.038759708404541016 0.08509469032287598
-0.3798449635505676 -0.02325582504272461 -0.0630853921175003
-0.3798449635505676 -0.02325582504272461 0.08633217215538025
-0.3798449635505676 -0.007751941680908203 -0.06308412551879883
-0.3798449635505676 -0.007751941215246916 0.08700255304574966
-0.3798449635505676 0.007751941680908203 -0.06281587481498718
-0.3798449635505676 0.007751941680908203 0.0866689682006836
-0.3798449635505676 0.02325582504272461 -0.06191737949848175
-0.3798449635505676 0.02325582504272461 0.08526396751403809
-0.3798449635505676 0.038759708404541016 -0.06091827154159546
-0.3798449635505676 0.038759708404541016 0.08355577290058136
-0.3798449635505676 0.05426359176635742 -0.05976299196481705
-0.3798449635505676 0.05426359176635742 0.08251694589853287
-0.3798449635505676 0.06976747512817383 -0.05829508975148201
-0.3798449635505676 0.06976747512817383 0.08220157027244568
-0.3798449635505676 0.08527135848999023 -0.0562203973531723
-0.3798449635505676 0.08527135848999023 0.0826459676027298
-0.3798449635505676 0.10077524185180664 -0.0542149543762207
-0.37984493374824524 0.10077524185180664 0.08548720926046371
-0.3798449635505676 0.11627912521362305 -0.05123301222920418
-0.3798449635505676 0.11627912521362305 0.08959820121526718
-0.3798449635505676 0.1317828893661499 -0.04970252513885498
-0.3798449635505676 0.1317828893661499 0.0924471914768219
-0.3798449635505676 0.1472867727279663 -0.04868711158633232
-0.3798449635505676 0.1472867727279663 0.09499722719192505
-0.3798449635505676 0.16279065608978271 -0.04708607494831085
-0.3798449635505676 0.16279065608978271 0.0968986451625824
-0.3798449635505676 0.17829453945159912 -0.04433182626962662
-0.3798449635505676 0.17829453945159912 0.09731948375701904
-0.3798449635505676 0.19379842281341553 -0.04007033258676529
-0.3798449635505676 0.19379842281341553 0.09522724896669388
-0.3798449635505676 0.20930230617523193 -0.03324093669652939
-0.3798449635505676 0.20930230617523193 0.09156963229179382
-0.3798449635505676 0.22480618953704834 -0.02829396165907383
-0.3798449635505676 0.22480618953704834 0.0871729925274849
-0.3798449635505676 0.24031007289886475 -0.0210542231798172
-0.3798449635505676 0.24031007289886475 0.07997267693281174
-0.3798449635505676 0.25581395626068115 -0.012743029743432999
-0.37984499335289 0.25581395626068115 0.07175005972385406
-0.3798449635505676 0.27131783962249756 -0.0007603457197546959
-0.3798449635505676 0.27131783962249756 0.06059478223323822
-0.3798449635505676 0.28682172298431396 0.022205550223588943
-0.3798449635505676 0.28682172298431396 0.03611898049712181
-0.3643410801887512 -0.3333333134651184 0.006653688848018646
-0.3643410801887512 -0.3333333134651184 0.034771502017974854
-0.3643410801887512 -0.317829430103302 -0.01551828533411026
-0.3643410801887512 -0.317829430103302 0.06444105505943298
-0.3643410801887512 -0.30232560634613037 -0.02891196683049202
-0.3643410801887512 -0.30232560634613037 0.07974584400653839
-0.3643410801887512 -0.28682172298431396 -0.03903912752866745
-0.3643410801887512 -0.28682172298431396 0.0902014821767807
-0.3643410801887512 -0.27131783962249756 -0.044795289635658264
-0.3643410801887512 -0.27131783962249756 0.09822994470596313
-0.3643410801887512 -0.25581395626068115 -0.04835660755634308
-0.3643410801887512 -0.25581395626068115 0.10452196002006531
-0.3643410801887512 -0.24031007289886475 -0.050327688455581665
-0.3643410801887512 -0.24031007289886475 0.1089615523815155
-0.3643411099910736 -0.22480618953704834 -0.05209404602646828
-0.3643410801887512 -0.22480618953704834 0.11208559572696686
-0.3643410801887512 -0.20930230617523193 -0.05353911221027374
-0.3643410801887512 -0.20930230617523193 0.11292214691638947
-0.3643410801887512 -0.19379842281341553 -0.054603416472673416
-0.3643410801887512 -0.19379842281341553 0.11243783682584763
-0.3643410801887512 -0.1782945990562439 -0.05569758266210556
-0.3643410801887512 -0.1782945990562439 0.11105876415967941
-0.3643410801887512 -0.1627907156944275 -0.05730503425002098
-0.3643410801887512 -0.1627907156944275 0.10856404155492783
-0.3643410801887512 -0.14728683233261108 -0.05879984796047211
-0.36434105038642883 -0.14728683233261108 0.10455730557441711
-0.3643410801887512 -0.13178294897079468 -0.06053419038653374
-0.3643410801887512 -0.13178294897079468 0.10021053999662399
-0.3643410801887512 -0.11627906560897827 -0.06232597678899765
-0.3643410801887512 -0.11627906560897827 0.0977785661816597
-0.3643410801887512 -0.10077518224716187 -0.06397170573472977
-0.3643410801887512 -0.10077518224716187 0.09655172377824783
-0.3643410801887512 -0.08527129888534546 -0.06675276905298233
-0.3643410801887512 -0.08527129888534546 0.09625732153654099
-0.3643410801887512 -0.06976741552352905 -0.07061261683702469
-0.3643410801887512 -0.06976741552352905 0.09669359773397446
-0.3643410801887512 -0.05426359176635742 -0.0722879022359848
-0.3643410801887512 -0.05426359176635742 0.09707542508840561
-0.3643410801887512 -0.038759708404541016 -0.07327226549386978
-0.3643410801887512 -0.038759708404541016 0.09781268984079361
-0.3643410801887512 -0.02325582504272461 -0.0736536756157875
-0.3643410801887512 -0.02325582504272461 0.09877897053956985
-0.3643410801887512 -0.007751941680908203 -0.0734536200761795
-0.3643410801887512 -0.007751941680908203 0.09948369115591049
-0.3643410801887512 0.007751941680908203 -0.073077492415905
-0.3643410801887512 0.007751941680908203 0.09921231120824814
-0.3643410801887512 0.02325582504272461 -0.07229286432266235
-0.3643410801887512 0.02325582504272461 0.09798981249332428
-0.3643410801887512 0.038759708404541016 -0.07140088081359863
-0.3643410801887512 0.038759708404541016 0.09666845202445984
-0.3643410801887512 0.05426359176635742 -0.07027680426836014
-0.3643410801887512 0.05426359176635742 0.09587259590625763
-0.3643410801887512 0.06976747512817383 -0.06764107942581177
-0.3643410801887512 0.06976747512817383 0.0956963524222374
-0.3643410801887512 0.08527135848999023 -0.06509358435869217
-0.3643410801887512 0.08527135848999023 0.09631061553955078
-0.3643410801887512 0.10077524185180664 -0.06358592212200165
-0.3643410801887512 0.10077524185180664 0.0982176810503006
-0.3643410801887512 0.11627912521362305 -0.062149107456207275
-0.3643411099910736 0.11627912521362305 0.10371395945549011
-0.3643410801887512 0.1317828893661499 -0.06066397950053215
-0.3643410801887512 0.1317828893661499 0.10812817513942719
-0.3643410801887512 0.1472867727279663 -0.05933818966150284
-0.3643410801887512 0.1472867727279663 0.11172228306531906
-0.3643410801887512 0.16279065608978271 -0.05780480057001114
-0.3643410801887512 0.16279065608978271 0.11540932953357697
-0.3643410801887512 0.17829453945159912 -0.05569715425372124
-0.3643410801887512 0.17829452455043793 0.11747726798057556
-0.3643411099910736 0.19379842281341553 -0.052043367177248
-0.3643410801887512 0.19379842281341553 0.11795327067375183
-0.3643410801887512 0.20930230617523193 -0.04834840074181557
-0.3643410801887512 0.20930230617523193 0.11747319251298904
-0.3643410801887512 0.22480618953704834 -0.04523701220750809
-0.3643410801887512 0.22480618953704834 0.11617269366979599
-0.3643410801887512 0.24031007289886475 -0.04134976491332054
-0.3643410801887512 0.24031007289886475 0.11365950107574463
-0.3643410801887512 0.25581395626068115 -0.03686827793717384
-0.3643410801887512 0.25581395626068115 0.10982324182987213
-0.3643410801887512 0.27131783962249756 -0.03103034943342209
-0.3643410801887512 0.27131783962249756 0.10599441826343536
-0.3643410801887512 0.28682172298431396 -0.024839557707309723
-0.3643410801887512 0.28682172298431396 0.10110578685998917
-0.3643410801887512 0.30232560634613037 -0.013031115755438805
-0.3643410801887512 0.30232560634613037 0.0945059210062027
-0.3643410801887512 0.3178294897079468 0.0040526725351810455
-0.3643410801887512 0.3178294897079468 0.08332556486129761
-0.3488371968269348 -0.3643410801887512 -0.000670858658850193
-0.3488371968269348 -0.3643410801887512 0.06466313451528549
-0.3488371670246124 -0.3488371670246124 -0.019086556509137154
-0.3488371968269348 -0.3488371968269348 0.0860549733042717
-0.3488371968269348 -0.3333333134651184 -0.031150557100772858
-0.3488371968269348 -0.3333333134651184 0.09980854392051697
-0.3488371968269348 -0.317829430103302 -0.04057755321264267
-0.3488371968269348 -0.317829430103302 0.11053603887557983
-0.3488371968269348 -0.30232560634613037 -0.04777711629867554
-0.3488371968269348 -0.302325576543808 0.11702456325292587
-0.3488371968269348 -0.28682172298431396 -0.05397297441959381
-0.3488371968269348 -0.28682172298431396 0.12376752495765686
-0.3488371968269348 -0.27131783962249756 -0.0570443719625473
-0.3488371968269348 -0.27131783962249756 0.1272575557231903
-0.3488371968269348 -0.25581395626068115 -0.05898849293589592
-0.3488371968269348 -0.25581395626068115 0.13049259781837463
-0.3488371968269348 -0.24031007289886475 -0.05955769866704941
-0.3488371968269348 -0.24031005799770355 0.13257268071174622
-0.3488371968269348 -0.22480618953704834 -0.06013393774628639
-0.3488371968269348 -0.22480618953704834 0.13305869698524475
-0.3488371968269348 -0.20930230617523193 -0.060798175632953644
-0.3488371968269348 -0.20930230617523193 0.13209477066993713
-0.3488371968269348 -0.19379842281341553 -0.06142766401171684
-0.3488371968269348 -0.19379842281341553 0.12995633482933044
-0.3488371968269348 -0.1782945990562439 -0.062351636588573456
-0.3488371968269348 -0.1782945990562439 0.12715139985084534
-0.3488371968269348 -0.1627907156944275 -0.0638592541217804
-0.3488371968269348 -0.1627907156944275 0.1236376017332077
-0.3488371968269348 -0.14728683233261108 -0.0663365051150322
-0.3488371968269348 -0.14728683233261108 0.11868814378976822
-0.3488371968269348 -0.13178294897079468 -0.0706147849559784
-0.3488371968269348 -0.13178294897079468 0.11351132392883301
-0.3488371968269348 -0.11627906560897827 -0.07244997471570969
-0.3488371968269348 -0.11627906560897827 0.1114310771226883
-0.3488371968269348 -0.10077518224716187 -0.07370014488697052
-0.3488371968269348 -0.10077518224716187 0.1102779284119606
-0.3488371968269348 -0.08527129888534546 -0.07515458762645721
-0.3488371968269348 -0.08527129888534546 0.10949704051017761
-0.3488371968269348 -0.06976741552352905 -0.07658098638057709
-0.3488371968269348 -0.06976741552352905 0.10935430228710175
-0.3488371968269348 -0.05426359176635742 -0.077779620885849
-0.3488371968269348 -0.05426359176635742 0.10924670100212097
-0.3488371968269348 -0.038759708404541016 -0.07858826965093613
-0.3488371968269348 -0.038759708404541016 0.10965373367071152
-0.3488371968269348 -0.02325582504272461 -0.07883689552545547
-0.3488371968269348 -0.02325582504272461 0.11017820239067078
-0.3488371968269348 -0.00775194214656949 -0.07850175350904465
-0.3488371968269348 -0.007751941680908203 0.1105760782957077
-0.3488371968269348 0.007751941680908203 -0.07793566584587097
-0.3488371968269348 0.007751941680908203 0.11048438400030136
-0.3488371968269348 0.02325582504272461 -0.07710999250411987
-0.3488371968269348 0.02325582504272461 0.10979391634464264
-0.3488371968269348 0.038759708404541016 -0.07614419609308243
-0.3488371968269348 0.038759708404541016 0.10869643092155457
-0.3488371968269348 0.05426359176635742 -0.07520578801631927
-0.3488371968269348 0.05426359176635742 0.10772635042667389
-0.3488371968269348 0.06976747512817383 -0.07385660707950592
-0.3488371968269348 0.06976747512817383 0.10746397823095322
-0.3488371968269348 0.08527135848999023 -0.07229147106409073
-0.3488371968269348 0.08527135848999023 0.1086103767156601
-0.3488371968269348 0.10077524185180664 -0.0709439367055893
-0.3488371968269348 0.10077524185180664 0.1109626442193985
-0.3488371968269348 0.11627912521362305 -0.07000378519296646
-0.3488371968269348 0.11627912521362305 0.11427715420722961
-0.3488371968269348 0.1317828893661499 -0.06894781440496445
-0.3488371968269348 0.1317828893661499 0.12064535915851593
-0.3488371968269348 0.1472867727279663 -0.06707336753606796
-0.3488371968269348 0.1472867727279663 0.12509554624557495
-0.3488371968269348 0.16279065608978271 -0.06442679464817047
-0.3488371968269348 0.16279065608978271 0.12836521863937378
-0.3488371968269348 0.17829453945159912 -0.0625014528632164
-0.3488371968269348 0.17829453945159912 0.13132990896701813
-0.3488371968269348 0.19379842281341553 -0.060133196413517
-0.3488371968269348 0.19379842281341553 0.13266387581825256
-0.3488371968269348 0.20930230617523193 -0.057141806930303574
-0.3488371670246124 0.20930230617523193 0.13308969140052795
-0.3488371968269348 0.22480618953704834 -0.05449679121375084
-0.3488371968269348 0.22480618953704834 0.13299179077148438
-0.3488371968269348 0.24031007289886475 -0.050637222826480865
-0.3488371968269348 0.24031007289886475 0.13271526992321014
-0.3488371968269348 0.25581395626068115 -0.04829779267311096
-0.3488371968269348 0.25581395626068115 0.13208848237991333
-0.3488371968269348 0.27131783962249756 -0.045454397797584534
-0.3488371968269348 0.27131783962249756 0.13159701228141785
-0.3488371968269348 0.28682172298431396 -0.040019311010837555
-0.3488371968269348 0.28682172298431396 0.1309945285320282
-0.3488371968269348 0.30232560634613037 -0.03235355392098427
-0.3488371968269348 0.30232560634613037 0.1317937821149826
-0.3488371968269348 0.3178294599056244 -0.02307029999792576
-0.3488371968269348 0.3178294897079468 0.131464883685112
-0.3488371968269348 0.3333333730697632 -0.008819248527288437
-0.3488371968269348 0.3333333730697632 0.1259089857339859
-0.3488371968269348 0.3488372564315796 0.01545625552535057
-0.3488371968269348 0.3488372564315796 0.10753025859594345
-0.3333333134651184 -0.39534884691238403 -0.0017975268419831991
-0.3333333134651184 -0.39534884691238403 0.07280292361974716
-0.3333333134651184 -0.3798449635505676 -0.01846996136009693
-0.3333333134651184 -0.3798449635505676 0.09284286201000214
-0.3333333134651184 -0.3643410801887512 -0.030298927798867226
-0.3333333134651184 -0.3643410801887512 0.10920079052448273
-0.3333333134651184 -0.3488371968269348 -0.03946645185351372
-0.3333333134651184 -0.3488371968269348 0.12139493227005005
-0.3333333134651184 -0.3333333134651184 -0.04626697301864624
-0.3333333134651184 -0.3333333134651184 0.12897264957427979
-0.3333333134651184 -0.317829430103302 -0.05236867070198059
-0.3333333134651184 -0.317829430103302 0.1364281177520752
-0.3333333134651184 -0.30232560634613037 -0.05773870646953583
-0.3333333134651184 -0.30232560634613037 0.14150580763816833
-0.3333333134651184 -0.28682172298431396 -0.061591070145368576
-0.3333333134651184 -0.28682172298431396 0.1440029889345169
-0.3333333134651184 -0.27131783962249756 -0.06378941237926483
-0.3333333134651184 -0.27131783962249756 0.1463257372379303
-0.3333333134651184 -0.25581395626068115 -0.06530828773975372
-0.333333283662796 -0.25581395626068115 0.14789794385433197
-0.3333333134651184 -0.24031007289886475 -0.06573261320590973
-0.3333333432674408 -0.24031007289886475 0.14836975932121277
-0.3333333134651184 -0.22480617463588715 -0.0662429928779602
-0.3333333134651184 -0.22480620443820953 0.14798127114772797
-0.3333333134651184 -0.20930230617523193 -0.06690729409456253
-0.3333333134651184 -0.20930230617523193 0.1461307853460312
-0.3333333134651184 -0.19379842281341553 -0.06832665950059891
-0.3333333134651184 -0.19379842281341553 0.14303547143936157
-0.3333333134651184 -0.1782945990562439 -0.07101874053478241
-0.3333333134651184 -0.1782945990562439 0.13998349010944366
-0.3333333134651184 -0.1627907156944275 -0.07335088402032852
-0.3333333134651184 -0.1627907156944275 0.13603323698043823
-0.3333333134651184 -0.14728683233261108 -0.07474447786808014
-0.3333333134651184 -0.1472868174314499 0.13190332055091858
-0.3333333134651184 -0.13178294897079468 -0.07554212212562561
-0.3333333134651184 -0.13178294897079468 0.12737628817558289
-0.3333333134651184 -0.11627906560897827 -0.07610442489385605
-0.3333333134651184 -0.11627906560897827 0.12495532631874084
-0.3333333134651184 -0.10077518224716187 -0.07693715393543243
-0.3333333134651184 -0.10077518224716187 0.12347947061061859
-0.3333333134651184 -0.08527129888534546 -0.07829722762107849
-0.3333333134651184 -0.08527129888534546 0.12163642793893814
-0.3333333134651184 -0.06976741552352905 -0.08016480505466461
-0.3333333134651184 -0.06976741552352905 0.12051983177661896
-0.3333333134651184 -0.05426359176635742 -0.08233929425477982
-0.3333333134651184 -0.05426359176635742 0.11992815136909485
-0.3333333432674408 -0.038759708404541016 -0.08427038043737411
-0.3333333134651184 -0.038759708404541016 0.12036532163619995
-0.3333333134651184 -0.02325582504272461 -0.08492539823055267
-0.3333333134651184 -0.02325582504272461 0.121033675968647
-0.3333333134651184 -0.007751941680908203 -0.08402957767248154
-0.3333333134651184 -0.007751941680908203 0.1216282919049263
-0.3333333134651184 0.007751941680908203 -0.08275777846574783
-0.3333333134651184 0.007751941680908203 0.1216944009065628
-0.3333333134651184 0.02325582690536976 -0.08127856254577637
-0.3333333134651184 0.02325582504272461 0.12091468274593353
-0.3333333134651184 0.038759708404541016 -0.07980120927095413
-0.3333333134651184 0.038759708404541016 0.11953795701265335
-0.3333333134651184 0.05426359176635742 -0.0784793570637703
-0.3333333134651184 0.05426359176635742 0.11843263357877731
-0.3333333134651184 0.06976747512817383 -0.07679504156112671
-0.3333333134651184 0.06976747512817383 0.1183529794216156
-0.3333333134651184 0.08527135848999023 -0.07519848644733429
-0.3333333134651184 0.08527135848999023 0.11983844637870789
-0.3333333134651184 0.10077524185180664 -0.07408107072114944
-0.3333333134651184 0.10077524185180664 0.1237296611070633
-0.3333333134651184 0.11627912521362305 -0.07355878502130508
-0.3333333134651184 0.11627912521362305 0.12656402587890625
-0.3333333134651184 0.1317828893661499 -0.07374328374862671
-0.3333333134651184 0.1317828893661499 0.13110020756721497
-0.3333333134651184 0.1472867727279663 -0.07420626282691956
-0.3333333134651184 0.1472867727279663 0.13642622530460358
-0.3333333134651184 0.16279065608978271 -0.07368560135364532
-0.3333333134651184 0.16279065608978271 0.1400384157896042
-0.3333333134651184 0.17829453945159912 -0.07131993770599365
-0.3333333134651184 0.17829453945159912 0.14220741391181946
-0.3333333134651184 0.19379842281341553 -0.06546618789434433
-0.3333333134651184 0.19379842281341553 0.14362870156764984
-0.3333333134651184 0.20930230617523193 -0.06263983249664307
-0.3333333134651184 0.20930230617523193 0.1444254219532013
-0.3333333134651184 0.22480618953704834 -0.06076034903526306
-0.3333333134651184 0.22480618953704834 0.1447620838880539
-0.3333333134651184 0.24031007289886475 -0.058613069355487823
-0.3333333134651184 0.24031007289886475 0.14500093460083008
-0.3333333134651184 0.25581395626068115 -0.05606349930167198
-0.3333333134651184 0.25581395626068115 0.1450139731168747
-0.3333333134651184 0.27131783962249756 -0.05211741477251053
-0.3333333134651184 0.27131783962249756 0.14550085365772247
-0.3333333134651184 0.28682172298431396 -0.04785639047622681
-0.3333333134651184 0.28682172298431396 0.14675596356391907
-0.3333333134651184 0.30232560634613037 -0.04363587871193886
-0.3333333134651184 0.30232560634613037 0.150962233543396
-0.3333333134651184 0.31782951951026917 -0.03606630861759186
-0.3333333134651184 0.3178294897079468 0.15419305860996246
-0.3333333134651184 0.3333333730697632 -0.0266856849193573
-0.3333333134651184 0.3333333730697632 0.15288901329040527
-0.3333333134651184 0.3488372564315796 -0.012426597997546196
-0.3333333134651184 0.3488372564315796 0.14702285826206207
-0.3333333134651184 0.364341139793396 0.005912991240620613
-0.3333333134651184 0.364341139793396 0.1327575445175171
-0.3333333134651184 0.37984490394592285 0.03300612419843674
-0.3333333134651184 0.37984490394592285 0.10020540654659271
-0.317829430103302 -0.42635661363601685 0.0001459149643778801
-0.317829430103302 -0.42635661363601685 0.06717380881309509
-0.317829430103302 -0.41085273027420044 -0.015357239171862602
-0.317829430103302 -0.41085273027420044 0.08913514018058777
-0.317829430103302 -0.39534884691238403 -0.026531275361776352
-0.317829430103302 -0.39534884691238403 0.10635368525981903
-0.317829430103302 -0.3798449635505676 -0.03658793866634369
-0.317829430103302 -0.3798449635505676 0.12022598087787628
-0.317829430103302 -0.3643410801887512 -0.044290512800216675
-0.317829430103302 -0.3643410801887512 0.13002046942710876
-0.317829430103302 -0.3488371968269348 -0.04977782070636749
-0.317829430103302 -0.3488371968269348 0.1398772895336151
-0.317829430103302 -0.3333333134651184 -0.05621109902858734
-0.317829430103302 -0.3333333134651184 0.14425313472747803
-0.317829430103302 -0.317829430103302 -0.060569874942302704
-0.317829430103302 -0.317829430103302 0.1498897820711136
-0.317829430103302 -0.30232560634613037 -0.06362365931272507
-0.317829430103302 -0.30232560634613037 0.15447784960269928
-0.317829430103302 -0.28682172298431396 -0.06820923089981079
-0.317829430103302 -0.28682172298431396 0.15673929452896118
-0.317829430103302 -0.27131783962249756 -0.07142101973295212
-0.317829430103302 -0.27131783962249756 0.15792907774448395
-0.317829430103302 -0.25581395626068115 -0.07249760627746582
-0.317829430103302 -0.25581395626068115 0.15867078304290771
-0.317829430103302 -0.24031007289886475 -0.0727478489279747
-0.317829430103302 -0.24031007289886475 0.158548966050148
-0.317829430103302 -0.22480618953704834 -0.07318468391895294
-0.317829430103302 -0.22480618953704834 0.15741431713104248
-0.317829430103302 -0.20930230617523193 -0.0737839937210083
-0.317829430103302 -0.20930230617523193 0.1554306447505951
-0.317829430103302 -0.19379842281341553 -0.07460926473140717
-0.317829430103302 -0.19379842281341553 0.15314245223999023
-0.317829430103302 -0.1782945990562439 -0.07577219605445862
-0.317829430103302 -0.1782945990562439 0.15049615502357483
-0.317829430103302 -0.1627907156944275 -0.07705448567867279
-0.317829430103302 -0.1627907156944275 0.1476595401763916
-0.317829430103302 -0.14728683233261108 -0.07787232100963593
-0.317829430103302 -0.14728683233261108 0.14265836775302887
-0.317829430103302 -0.13178294897079468 -0.07806099951267242
-0.317829430103302 -0.13178294897079468 0.1390741765499115
-0.317829430103302 -0.11627906560897827 -0.07819634675979614
-0.317829430103302 -0.11627906560897827 0.1356503814458847
-0.317829430103302 -0.10077518224716187 -0.07946251332759857
-0.317829430103302 -0.10077517479658127 0.13274303078651428
-0.317829430103302 -0.08527129888534546 -0.08320087194442749
-0.317829430103302 -0.08527129888534546 0.13116207718849182
-0.317829430103302 -0.06976741552352905 -0.0860695019364357
-0.317829430103302 -0.06976741552352905 0.12991924583911896
-0.317829430103302 -0.05426359176635742 -0.08710546791553497
-0.317829430103302 -0.05426359176635742 0.1290869116783142
-0.317829430103302 -0.038759708404541016 -0.08785130083560944
-0.317829430103302 -0.038759708404541016 0.12912237644195557
-0.317829430103302 -0.02325582504272461 -0.08804156631231308
-0.317829430103302 -0.02325582504272461 0.1295749843120575
-0.317829430103302 -0.007751941680908203 -0.08760152757167816
-0.317829430103302 -0.007751941680908203 0.13052715361118317
-0.317829430103302 0.007751941680908203 -0.08699290454387665
-0.317829430103302 0.007751941680908203 0.13090895116329193
-0.317829430103302 0.02325582504272461 -0.08632167428731918
-0.317829430103302 0.02325582504272461 0.13021716475486755
-0.317829430103302 0.038759708404541016 -0.08563230186700821
-0.317829430103302 0.038759708404541016 0.12907356023788452
-0.317829430103302 0.05426359176635742 -0.08382116258144379
-0.317829430103302 0.05426359176635742 0.1283329874277115
-0.317829430103302 0.06976747512817383 -0.0804906040430069
-0.317829430103302 0.06976747512817383 0.12846945226192474
-0.317829430103302 0.08527135848999023 -0.07809573411941528
-0.317829430103302 0.08527135848999023 0.12982140481472015
-0.317829430103302 0.10077524185180664 -0.07677070796489716
-0.317829430103302 0.10077524185180664 0.13294994831085205
-0.317829430103302 0.11627912521362305 -0.07621244341135025
-0.317829430103302 0.11627912521362305 0.1374375969171524
-0.317829430103302 0.1317828893661499 -0.07645131647586823
-0.317829430103302 0.1317828893661499 0.14152120053768158
-0.317829430103302 0.1472867727279663 -0.07717569172382355
-0.317829430103302 0.1472867727279663 0.14574627578258514
-0.317829430103302 0.16279065608978271 -0.07729935646057129
-0.317829430103302 0.16279064118862152 0.14975740015506744
-0.317829430103302 0.17829453945159912 -0.07591593265533447
-0.317829430103302 0.17829453945159912 0.1524002104997635
-0.317829430103302 0.19379842281341553 -0.07371680438518524
-0.317829430103302 0.19379842281341553 0.1538924276828766
-0.317829430103302 0.20930230617523193 -0.07064501941204071
-0.317829430103302 0.20930230617523193 0.1546778827905655
-0.317829430103302 0.22480618953704834 -0.06570036709308624
-0.317829430103302 0.22480618953704834 0.15507909655570984
-0.317829430103302 0.24031007289886475 -0.0633443146944046
-0.317829430103302 0.24031007289886475 0.15540196001529694
-0.317829430103302 0.25581395626068115 -0.06154213100671768
-0.317829430103302 0.25581395626068115 0.15556390583515167
-0.317829430103302 0.27131783962249756 -0.059084802865982056
-0.317829430103302 0.27131783962249756 0.15610194206237793
-0.317829430103302 0.28682172298431396 -0.05519397556781769
-0.317829430103302 0.28682172298431396 0.15724077820777893
-0.317829430103302 0.30232560634613037 -0.04956146329641342
-0.317829430103302 0.30232560634613037 0.16100139915943146
-0.317829430103302 0.3178294897079468 -0.04646952450275421
-0.3178294599056244 0.3178294897079468 0.16454491019248962
-0.317829430103302 0.3333333730697632 -0.037767134606838226
-0.317829430103302 0.3333333730697632 0.16520416736602783
-0.317829430103302 0.3488372564315796 -0.027210626751184464
-0.317829430103302 0.3488372564315796 0.1638316959142685
-0.317829430103302 0.364341139793396 -0.013833099976181984
-0.317829430103302 0.364341139793396 0.15917836129665375
-0.317829430103302 0.37984490394592285 0.0023143552243709564
-0.317829430103302 0.37984490394592285 0.14768965542316437
-0.317829430103302 0.39534878730773926 0.021080035716295242
-0.317829430103302 0.39534878730773926 0.12274646759033203
-0.30232560634613037 -0.4573643207550049 0.007696810178458691
-0.30232560634613037 -0.4573643207550049 0.04962226003408432
-0.30232560634613037 -0.4418604373931885 -0.012996814213693142
-0.30232560634613037 -0.4418604373931885 0.07717613130807877
-0.30232560634613037 -0.42635661363601685 -0.022974034771323204
-0.30232560634613037 -0.42635661363601685 0.09719200432300568
-0.30232560634613037 -0.41085273027420044 -0.03129272162914276
-0.30232560634613037 -0.41085273027420044 0.11252804100513458
-0.30232560634613037 -0.39534884691238403 -0.03925136476755142
-0.30232560634613037 -0.39534884691238403 0.1256893426179886
-0.30232560634613037 -0.3798449635505676 -0.04646068066358566
-0.30232560634613037 -0.3798449635505676 0.1351216733455658
-0.30232560634613037 -0.3643410801887512 -0.05314794182777405
-0.30232560634613037 -0.3643410801887512 0.14301276206970215
-0.30232560634613037 -0.3488371968269348 -0.058622848242521286
-0.30232560634613037 -0.3488372266292572 0.14905528724193573
-0.30232560634613037 -0.3333333134651184 -0.06235935539007187
-0.30232560634613037 -0.3333333134651184 0.15501047670841217
-0.30232560634613037 -0.317829430103302 -0.06606769561767578
-0.30232560634613037 -0.317829430103302 0.15862169861793518
-0.30232560634613037 -0.30232560634613037 -0.0710870698094368
-0.30232560634613037 -0.30232560634613037 0.16302622854709625
-0.30232560634613037 -0.28682172298431396 -0.07365158945322037
-0.30232560634613037 -0.28682172298431396 0.16511346399784088
-0.30232560634613037 -0.27131783962249756 -0.07517514377832413
-0.30232560634613037 -0.27131783962249756 0.16633594036102295
-0.30232560634613037 -0.25581395626068115 -0.07579517364501953
-0.30232560634613037 -0.25581395626068115 0.16692207753658295
-0.30232560634613037 -0.24031007289886475 -0.07596294581890106
-0.30232560634613037 -0.24031005799770355 0.1668185591697693
-0.30232560634613037 -0.22480618953704834 -0.07644160836935043
-0.30232560634613037 -0.22480618953704834 0.16605602204799652
-0.30232560634613037 -0.20930230617523193 -0.07708291709423065
-0.30232560634613037 -0.20930230617523193 0.16463503241539001
-0.30232560634613037 -0.19379842281341553 -0.07780572026968002
-0.30232560634613037 -0.19379840791225433 0.1630694717168808
-0.30232560634613037 -0.1782945990562439 -0.07886671274900436
-0.30232560634613037 -0.1782945990562439 0.15896397829055786
-0.30232560634613037 -0.1627907156944275 -0.08038946241140366
-0.30232560634613037 -0.1627907156944275 0.15533193945884705
-0.30232560634613037 -0.14728683233261108 -0.08098104596138
-0.30232560634613037 -0.14728683233261108 0.15225452184677124
-0.30232560634613037 -0.13178294897079468 -0.08087698370218277
-0.30232560634613037 -0.13178294897079468 0.14904451370239258
-0.30232560634613037 -0.11627906560897827 -0.08177153766155243
-0.30232560634613037 -0.11627906560897827 0.14566947519779205
-0.30232560634613037 -0.10077518224716187 -0.08533298969268799
-0.30232560634613037 -0.10077518224716187 0.14293460547924042
-0.30232560634613037 -0.08527129888534546 -0.08666794747114182
-0.30232560634613037 -0.08527129888534546 0.14156098663806915
-0.30232560634613037 -0.06976741552352905 -0.08792177587747574
-0.30232560634613037 -0.06976741552352905 0.1409723460674286
-0.30232560634613037 -0.05426359176635742 -0.08900649100542068
-0.30232560634613037 -0.05426359176635742 0.14052200317382812
-0.30232560634613037 -0.038759708404541016 -0.0897941142320633
-0.30232560634613037 -0.038759708404541016 0.14031286537647247
-0.30232560634613037 -0.02325582504272461 -0.08998682349920273
-0.30232560634613037 -0.02325582504272461 0.14042147994041443
-0.30232560634613037 -0.007751941680908203 -0.08941925317049026
-0.30232560634613037 -0.007751941680908203 0.1408509612083435
-0.30232560634613037 0.007751941680908203 -0.0885806679725647
-0.30232560634613037 0.007751941680908203 0.1411755234003067
-0.30232560634613037 0.02325582504272461 -0.08777721226215363
-0.30232560634613037 0.02325582504272461 0.14110761880874634
-0.30232560634613037 0.038759708404541016 -0.08703578263521194
-0.30232560634613037 0.038759708404541016 0.14082229137420654
-0.30232560634613037 0.05426359176635742 -0.08646337687969208
-0.30232560634613037 0.05426359176635742 0.1406460404396057
-0.30232560634613037 0.06976747512817383 -0.08562973141670227
-0.30232560634613037 0.06976747512817383 0.14088667929172516
-0.30232560634613037 0.08527135848999023 -0.0827316865324974
-0.30232560634613037 0.08527135848999023 0.14131881296634674
-0.30232560634613037 0.10077524185180664 -0.08056396245956421
-0.30232560634613037 0.10077524185180664 0.14264528453350067
-0.30232560634613037 0.11627912521362305 -0.07958333194255829
-0.30232560634613037 0.11627912521362305 0.14612650871276855
-0.30232560634613037 0.1317828893661499 -0.07949908822774887
-0.30232560634613037 0.1317828893661499 0.15074996650218964
-0.30232560634613037 0.1472867727279663 -0.08013281971216202
-0.30232560634613037 0.1472867727279663 0.1545799821615219
-0.30232560634613037 0.16279065608978271 -0.08048699796199799
-0.30232560634613037 0.16279065608978271 0.1575167179107666
-0.30232560634613037 0.17829453945159912 -0.07902060449123383
-0.30232560634613037 0.17829453945159912 0.16012273728847504
-0.30232560634613037 0.19379842281341553 -0.07688122987747192
-0.30232560634613037 0.19379842281341553 0.1620875746011734
-0.30232560634613037 0.20930230617523193 -0.07496123015880585
-0.30232560634613037 0.20930232107639313 0.163140207529068
-0.30232560634613037 0.22480618953704834 -0.07278226315975189
-0.30232560634613037 0.22480617463588715 0.16356496512889862
-0.30232560634613037 0.24031007289886475 -0.07024963945150375
-0.30232560634613037 0.24031005799770355 0.16390050947666168
-0.30232560634613037 0.25581395626068115 -0.06578709185123444
-0.30232560634613037 0.25581395626068115 0.16402441263198853
-0.30232560634613037 0.27131783962249756 -0.06306151300668716
-0.30232560634613037 0.27131783962249756 0.16451863944530487
-0.30232560634613037 0.28682172298431396 -0.06046423316001892
-0.30232560634613037 0.28682172298431396 0.16582129895687103
-0.30232560634613037 0.30232560634613037 -0.05761772394180298
-0.30232560634613037 0.30232560634613037 0.17015212774276733
-0.30232560634613037 0.3178294897079468 -0.05328648164868355
-0.30232560634613037 0.3178294897079468 0.17328724265098572
-0.30232560634613037 0.3333333730697632 -0.04745100811123848
-0.30232560634613037 0.3333333730697632 0.17437687516212463
-0.30232560634613037 0.3488372564315796 -0.0382414311170578
-0.30232560634613037 0.3488372564315796 0.17452676594257355
-0.30232560634613037 0.364341139793396 -0.027825959026813507
-0.30232560634613037 0.364341139793396 0.17338711023330688
-0.30232560634613037 0.37984490394592285 -0.014921391382813454
-0.30232560634613037 0.37984490394592285 0.1697368025779724
-0.30232560634613037 0.39534878730773926 -8.540484122931957e-05
-0.30232560634613037 0.39534878730773926 0.15877729654312134
-0.30232560634613037 0.41085267066955566 0.01842089183628559
-0.30232560634613037 0.41085267066955566 0.13452206552028656
-0.30232560634613037 0.42635655403137207 0.05397629737854004
-0.30232560634613037 0.42635655403137207 0.08472370356321335
-0.28682172298431396 -0.4728682041168213 -0.009427480399608612
-0.28682172298431396 -0.4728682041168213 0.0626736730337143
-0.28682172298431396 -0.4573643207550049 -0.021198628470301628
-0.28682172298431396 -0.4573643207550049 0.08449558913707733
-0.28682172298431396 -0.4418604373931885 -0.030078670009970665
-0.28682172298431396 -0.44186046719551086 0.10182884335517883
-0.28682172298431396 -0.42635661363601685 -0.034214600920677185
-0.28682172298431396 -0.42635661363601685 0.11743293702602386
-0.28682172298431396 -0.41085273027420044 -0.0407964363694191
-0.28682172298431396 -0.41085273027420044 0.12798668444156647
-0.28682172298431396 -0.39534884691238403 -0.0466451495885849
-0.28682172298431396 -0.39534884691238403 0.13814067840576172
-0.28682172298431396 -0.3798449635505676 -0.053660668432712555
-0.28682172298431396 -0.3798449635505676 0.14409321546554565
-0.28682172298431396 -0.3643410801887512 -0.059609442949295044
-0.28682172298431396 -0.36434105038642883 0.15183371305465698
-0.28682172298431396 -0.3488371968269348 -0.06332732737064362
-0.28682172298431396 -0.3488371968269348 0.15683722496032715
-0.28682172298431396 -0.3333333134651184 -0.4896047115325928
-0.28682172298431396 -0.3333333134651184 -0.47214239835739136
-0.28682172298431396 -0.3333333134651184 -0.06856269389390945
-0.28682172298431396 -0.3333333134651184 0.1607142984867096
-0.28682172298431396 -0.317829430103302 -0.0724165290594101
-0.28682172298431396 -0.317829430103302 0.1661909520626068
-0.28682172298431396 -0.30232560634613037 -0.07457731664180756
-0.28682172298431396 -0.30232560634613037 0.16940361261367798
-0.28682172298431396 -0.28682172298431396 -0.07640059292316437
-0.28682172298431396 -0.28682172298431396 0.17106826603412628
-0.28682172298431396 -0.27131783962249756 -0.07765407860279083
-0.28682172298431396 -0.27131783962249756 0.17223739624023438
-0.28682172298431396 -0.25581395626068115 -0.07826299220323563
-0.28682172298431396 -0.25581395626068115 0.17283861339092255
-0.28682172298431396 -0.24031007289886475 -0.07860295474529266
-0.28682172298431396 -0.24031007289886475 0.17255812883377075
-0.28682172298431396 -0.22480618953704834 -0.07959232479333878
-0.28682172298431396 -0.22480618953704834 0.17150545120239258
-0.28682172298431396 -0.20930230617523193 -0.08118845522403717
-0.28682172298431396 -0.20930230617523193 0.16993007063865662
-0.28682172298431396 -0.19379842281341553 -0.08311424404382706
-0.28682172298431396 -0.19379842281341553 0.16827869415283203
-0.28682172298431396 -0.1782945990562439 -0.08488023281097412
-0.28682172298431396 -0.1782945990562439 0.1664629876613617
-0.28682172298431396 -0.1627907156944275 -0.08553427457809448
-0.28682175278663635 -0.1627907156944275 0.16434508562088013
-0.28682172298431396 -0.14728683233261108 -0.0854007825255394
-0.28682172298431396 -0.14728683233261108 0.16135168075561523
-0.28682172298431396 -0.13178294897079468 -0.08533864468336105
-0.28682172298431396 -0.13178294897079468 0.15719495713710785
-0.28682172298431396 -0.11627906560897827 -0.48846039175987244
-0.28682172298431396 -0.11627906560897827 -0.47250425815582275
-0.28682172298431396 -0.11627906560897827 -0.08575242012739182
-0.28682172298431396 -0.11627906560897827 0.1546819508075714
-0.28682172298431396 -0.10077518224716187 -0.511860728263855
-0.28682172298431396 -0.10077518224716187 -0.46163779497146606
-0.28682172298431396 -0.10077518224716187 -0.08665681630373001
-0.28682172298431396 -0.10077518224716187 0.15224303305149078
-0.28682172298431396 -0.08527129888534546 -0.524692952632904
-0.28682172298431396 -0.08527129888534546 -0.4730938673019409
-0.28682172298431396 -0.08527129888534546 -0.08811680227518082
