0.364341139793396 -0.5638315677642822 0.7674418091773987
0.364341139793396 -0.5359731316566467 0.08527135848999023
0.364341139793396 -0.5432747602462769 0.5968992710113525
0.364341139793396 -0.5355764031410217 0.612403154373169
0.364341139793396 -0.5353431105613708 0.7364341020584106
0.364341139793396 -0.5459314584732056 0.751937985420227
0.364341139793396 -0.5269688367843628 0.6279069185256958
0.364341139793396 -0.5236827731132507 0.6434108018875122
0.364341139793396 -0.5213934779167175 0.6589146852493286
0.364341139793396 -0.5214925408363342 0.674418568611145
0.364341139793396 -0.5228440761566162 0.6899224519729614
0.364341139793396 -0.5253000259399414 0.7054263353347778
0.364341139793396 -0.5294634103775024 0.7209302186965942
0.364341139793396 -0.5130727887153625 0.08527135848999023
0.364341139793396 -0.48081284761428833 -0.1782945990562439
0.364341139793396 -0.46060609817504883 -0.19379842281341553
0.364341139793396 -0.467365026473999 0.10077524185180664
0.364341139793396 -0.4308052659034729 -0.20930230617523193
0.364341139793396 -0.43728309869766235 0.11627912521362305
0.364341139793396 -0.40290018916130066 0.1317828893661499
0.364341139793396 -0.3750346004962921 -0.22480618953704834
0.364341139793396 -0.36615532636642456 0.1472867727279663
0.364341139793396 -0.34658536314964294 0.16279065608978271
0.3643411695957184 -0.3309422433376312 0.17829453945159912
0.364341139793396 -0.3168109953403473 0.19379842281341553
0.364341139793396 -0.3013996183872223 0.20930230617523193
0.364341139793396 -0.285326212644577 0.22480618953704834
0.364341139793396 -0.2615606188774109 0.24031007289886475
0.364341139793396 -0.20011161267757416 -0.24031007289886475
0.364341139793396 -0.18943852186203003 0.24031007289886475
0.364341139793396 -0.16872616112232208 -0.24031007289886475
0.364341139793396 -0.06486514210700989 -0.22480618953704834
0.364341139793396 -0.06566880643367767 0.22480618953704834
0.364341139793396 -0.029729153960943222 -0.20930230617523193
0.364341139793396 -0.031377725303173065 0.20930230617523193
0.3643411695957184 -0.007188613526523113 -0.19379843771457672
0.364341139793396 -0.005355392582714558 0.19379842281341553
0.364341139793396 0.009786166250705719 -0.1782945990562439
0.364341139793396 0.019772719591856003 0.17829453945159912
0.364341139793396 0.025510314851999283 -0.1627907156944275
0.364341139793396 0.04187852144241333 -0.14728683233261108
0.364341139793396 0.0462174117565155 0.16279065608978271
0.364341139793396 0.06009587645530701 -0.13178294897079468
0.364341139793396 0.08006115257740021 -0.11627906560897827
0.364341139793396 0.07356279343366623 0.1472867727279663
0.364341139793396 0.09856569766998291 0.1317828893661499
0.364341139793396 0.10271233320236206 -0.10077518224716187
0.364341139793396 0.12297891080379486 -0.08527129888534546
0.3643411695957184 0.1191595047712326 0.11627912521362305
0.364341139793396 0.1426696628332138 -0.06976741552352905
0.364341139793396 0.13866329193115234 0.10077524185180664
0.364341139793396 0.15984374284744263 -0.05426359176635742
0.364341139793396 0.15567848086357117 0.08527135848999023
0.364341139793396 0.17383897304534912 -0.038759708404541016
0.364341139793396 0.1691564917564392 0.06976747512817383
0.364341139793396 0.18326851725578308 -0.02325582690536976
0.364341139793396 0.19080407917499542 -0.007751941680908203
0.364341139793396 0.19333228468894958 0.007751941680908203
0.364341139793396 0.19265851378440857 0.02325582504272461
0.364341139793396 0.18850639462471008 0.038759708404541016
0.364341139793396 0.17978419363498688 0.05426359176635742
0.37984490394592285 -0.7842434644699097 0.39534878730773926
0.37984490394592285 -0.7873370051383972 0.41085267066955566
0.37984490394592285 -0.7894651293754578 0.42635655403137207
0.37984490394592285 -0.7901793718338013 0.4418604373931885
0.37984490394592285 -0.7903313636779785 0.4573643207550049
0.37984490394592285 -0.7896990776062012 0.4728682041168213
0.37984490394592285 -0.7884541153907776 0.4883720874786377
0.37984490394592285 -0.7867988348007202 0.5038759708404541
0.37984490394592285 -0.7844934463500977 0.5193798542022705
0.37984490394592285 -0.7694005966186523 0.364341139793396
0.37984490394592285 -0.7793674468994141 0.37984490394592285
0.37984490394592285 -0.7823371291160583 0.5348837375640869
0.37984490394592285 -0.7785724997520447 0.5503876209259033
0.37984490394592285 -0.7739349603652954 0.5658915042877197
0.37984490394592285 -0.7687139511108398 0.5813953876495361
0.37984490394592285 -0.7621643543243408 0.5968992710113525
0.37984490394592285 -0.7539417147636414 0.612403154373169
0.37984490394592285 -0.7465174198150635 0.3488372564315796
0.37984490394592285 -0.7458428144454956 0.6279069185256958
0.37984490394592285 -0.7369781732559204 0.6434108018875122
0.37984490394592285 -0.7301232218742371 0.6589146852493286
0.37984490394592285 -0.7219427824020386 0.674418568611145
0.37984490394592285 -0.7159165740013123 0.6899224519729614
0.37984490394592285 -0.7063313126564026 0.7054263353347778
0.37984490394592285 -0.6987569332122803 0.7209302186965942
0.37984490394592285 -0.6880264282226562 0.7364341020584106
0.37984490394592285 -0.6746827363967896 0.751937985420227
0.37984490394592285 -0.6594414114952087 0.7674418687820435
0.37984490394592285 -0.6366660594940186 0.7829457521438599
0.37984490394592285 -0.5974292159080505 0.007751941680908203
0.37984490394592285 -0.6097999215126038 0.3488372564315796
0.37984493374824524 -0.5962792634963989 0.007751941680908203
0.37984490394592285 -0.5920642018318176 0.364341139793396
0.37984490394592285 -0.5797570943832397 0.37984490394592285
0.37984490394592285 -0.570638120174408 0.39534878730773926
0.37984490394592285 -0.564896285533905 0.41085267066955566
0.37984490394592285 -0.5637620687484741 0.42635655403137207
0.37984490394592285 -0.5631718635559082 0.4418604373931885
0.37984490394592285 -0.5616515874862671 0.4573642909526825
0.37984490394592285 -0.5596744418144226 0.4728682041168213
0.37984490394592285 -0.556776225566864 0.4883720874786377
0.37984490394592285 -0.5537089705467224 0.5038759708404541
0.37984490394592285 -0.5506967902183533 0.5193798542022705
0.37984490394592285 -0.5456486344337463 0.5348837375640869
0.37984490394592285 -0.5387570858001709 0.5503876209259033
0.37984490394592285 -0.5393413305282593 0.7829457521438599
0.37984490394592285 -0.523741602897644 0.5658915042877197
0.37984490394592285 -0.5048583745956421 -0.02325582504272461
0.37984490394592285 -0.5135964155197144 -0.007751941680908203
0.37984493374824524 -0.5161094665527344 0.007751941680908203
0.37984490394592285 -0.5123019218444824 0.02325582504272461
0.37984490394592285 -0.5144915580749512 0.7674418687820435
0.37984490394592285 -0.4955067038536072 -0.038759708404541016
0.37984490394592285 -0.4985444247722626 0.038759708404541016
0.37984490394592285 -0.4976821839809418 0.751937985420227
0.37984490394592285 -0.47625792026519775 -0.06976741552352905
0.37984490394592285 -0.4860197901725769 -0.05426359176635742
0.37984490394592285 -0.48115843534469604 0.05426359176635742
0.37984490394592285 -0.48221510648727417 0.7364341020584106
0.37984490394592285 -0.46127188205718994 -0.10077518224716187
0.37984490394592285 -0.4690050184726715 -0.08527129143476486
0.37984490394592285 -0.4590122699737549 0.06976747512817383
0.37984490394592285 -0.46211177110671997 0.7054263353347778
0.37984490394592285 -0.47176963090896606 0.7209302186965942
0.37984490394592285 -0.4519340395927429 -0.11627907305955887
0.37984490394592285 -0.45583266019821167 0.5813953876495361
0.37984490394592285 -0.4491060972213745 0.5968992710113525
0.37984490394592285 -0.44640326499938965 0.612403154373169
0.37984490394592285 -0.4441731572151184 0.6279069185256958
0.37984490394592285 -0.4456355571746826 0.6434108018875122
0.37984490394592285 -0.4467214345932007 0.6589146852493286
0.37984490394592285 -0.4501730799674988 0.674418568611145
0.37984490394592285 -0.4546210467815399 0.6899224519729614
0.37984490394592285 -0.4398728609085083 -0.13178294897079468
0.37984490394592285 -0.4330521821975708 0.08527135848999023
0.37984490394592285 -0.4254681468009949 -0.14728683233261108
0.37984490394592285 -0.4073871374130249 -0.1627907156944275
0.37984490394592285 -0.3959125876426697 0.10077524185180664
0.37984490394592285 -0.3816671371459961 -0.1782945990562439
0.37984490394592285 -0.3532484769821167 0.11627912521362305
0.37984490394592285 -0.332719624042511 -0.19379842281341553
0.37984490394592285 -0.3296961784362793 0.1317828893661499
0.37984490394592285 -0.3098888099193573 0.1472867727279663
0.37984490394592285 -0.2912815809249878 0.16279065608978271
0.37984490394592285 -0.27408358454704285 0.17829453945159912
0.37984490394592285 -0.2523203194141388 -0.20930230617523193
0.37984490394592285 -0.25063881278038025 0.19379842281341553
0.37984490394592285 -0.0883248969912529 -0.20930230617523193
0.37984490394592285 -0.08252966403961182 0.19379842281341553
0.37984490394592285 -0.047260582447052 -0.19379842281341553
0.37984490394592285 -0.04592600837349892 0.17829453945159912
0.37984490394592285 -0.022767892107367516 -0.1782946139574051
0.37984490394592285 -0.018622957170009613 0.16279065608978271
0.37984490394592285 -0.004747424740344286 -0.1627907156944275
0.37984490394592285 0.012048233300447464 -0.14728683233261108
0.37984490394592285 0.00797615759074688 0.1472867727279663
0.37984490394592285 0.029031097888946533 -0.13178294897079468
0.37984490394592285 0.03633396700024605 0.1317828893661499
0.37984490394592285 0.04727426916360855 -0.11627906560897827
0.37984490394592285 0.06767222285270691 -0.10077518224716187
0.37984490394592285 0.06460568308830261 0.11627912521362305
0.37984490394592285 0.08773934841156006 -0.08527129888534546
0.37984490394592285 0.09070001542568207 0.10077524930238724
0.37984490394592285 0.10779671370983124 -0.06976741552352905
0.37984490394592285 0.11351588368415833 0.08527135848999023
0.37984490394592285 0.12487204372882843 -0.05426359176635742
0.37984490394592285 0.13107186555862427 0.06976747512817383
0.37984490394592285 0.13843917846679688 -0.038759708404541016
0.37984490394592285 0.1454584002494812 0.05426359176635742
0.37984490394592285 0.1483011394739151 -0.02325582504272461
0.37984490394592285 0.15687724947929382 -0.007751941680908203
0.37984490394592285 0.16032887995243073 0.007751941680908203
0.37984490394592285 0.15964451432228088 0.02325582504272461
0.37984490394592285 0.15430113673210144 0.038759708404541016
0.39534878730773926 -0.7831035852432251 0.4418604373931885
0.39534878730773926 -0.7835373282432556 0.4573643207550049
0.39534878730773926 -0.7835940718650818 0.4728682041168213
0.39534878730773926 -0.7832556962966919 0.4883720874786377
0.39534878730773926 -0.7742610573768616 0.39534878730773926
0.39534878730773926 -0.7791896462440491 0.41085267066955566
0.39534875750541687 -0.782081663608551 0.4263565242290497
0.39534878730773926 -0.7827122807502747 0.5038759708404541
0.39534878730773926 -0.7814714312553406 0.5193798542022705
0.39534878730773926 -0.7795935869216919 0.5348837375640869
0.39534878730773926 -0.776654839515686 0.5503876209259033
0.39534878730773926 -0.7733831405639648 0.5658915042877197
0.39534878730773926 -0.7694063782691956 0.5813953876495361
0.39534878730773926 -0.7661268711090088 0.37984490394592285
0.39534878730773926 -0.7655962109565735 0.5968992710113525
0.39534878730773926 -0.7589776515960693 0.612403154373169
0.39534878730773926 -0.7522469758987427 0.6279069185256958
0.39534878730773926 -0.7499561905860901 0.364341139793396
0.39534878730773926 -0.7449742555618286 0.6434108018875122
0.39534878730773926 -0.7368720769882202 0.6589146852493286
0.39534878730773926 -0.7300614714622498 0.674418568611145
0.39534878730773926 -0.7217110991477966 0.6899224519729614
0.39534878730773926 -0.7132778763771057 0.7054263353347778
0.39534878730773926 -0.7049402594566345 0.7209302186965942
0.39534878730773926 -0.6932576894760132 0.7364341020584106
0.39534878730773926 -0.6753863096237183 0.3488372564315796
0.39534878730773926 -0.6826866269111633 0.751937985420227
0.39534881711006165 -0.6704012751579285 0.7674418687820435
0.39534878730773926 -0.6519686579704285 0.7829457521438599
0.39534878730773926 -0.6172628402709961 0.7984496355056763
0.39534878730773926 -0.6052560806274414 0.3488372564315796
0.39534878730773926 -0.5827674865722656 0.364341139793396
0.39534878730773926 -0.5659648180007935 0.37984490394592285
0.39534878730773926 -0.5520287752151489 0.39534878730773926
0.39534878730773926 -0.5529612898826599 0.4418604373931885
0.39534878730773926 -0.5531846880912781 0.4573643207550049
0.39534878730773926 -0.5514313578605652 0.4728682041168213
0.39534878730773926 -0.5441766381263733 0.41085267066955566
0.39534878730773926 -0.5501911640167236 0.42635655403137207
0.39534878730773926 -0.5461640357971191 0.4883720874786377
0.39534878730773926 -0.539595365524292 0.5038759708404541
0.39534878730773926 -0.5211551785469055 0.5193798542022705
0.39534878730773926 -0.5281439423561096 0.7984496355056763
0.39534878730773926 -0.5183510780334473 0.5193798542022705
0.39534878730773926 -0.5013999342918396 0.41085267066955566
0.39534878730773926 -0.4944527745246887 0.42635655403137207
0.39534878730773926 -0.4911629259586334 0.4418604373931885
0.39534878730773926 -0.4905095100402832 0.4573643207550049
0.39534878730773926 -0.4924163222312927 0.4728682041168213
0.39534878730773926 -0.4976062774658203 0.4883720874786377
0.39534878730773926 -0.5028692483901978 0.5038759708404541
0.39534878730773926 -0.491093248128891 0.7829457521438599
0.39534878730773926 -0.46835848689079285 0.7674418687820435
0.39534878730773926 -0.4498351216316223 -0.02325582504272461
0.39534878730773926 -0.45401397347450256 -0.007751941680908203
0.39534878730773926 -0.454304963350296 0.007751941680908203
0.39534878730773926 -0.4498010277748108 0.02325582504272461
0.39534878730773926 -0.4480958580970764 0.41085267066955566
0.39534878730773926 -0.44688159227371216 0.7364341020584106
0.39534878730773926 -0.4561038911342621 0.751937985420227
0.39534878730773926 -0.4348805546760559 -0.05426359176635742
0.39534878730773926 -0.4415111541748047 -0.038759708404541016
0.39534881711006165 -0.4371882677078247 0.038759708404541016
0.39534878730773926 -0.4412509500980377 0.42635655403137207
0.39534878730773926 -0.4357761740684509 0.4418604373931885
0.39534878730773926 -0.4292825162410736 0.4573643207550049
0.39534878730773926 -0.42763280868530273 0.674418568611145
0.39534878730773926 -0.43125447630882263 0.6899224519729614
0.39534878730773926 -0.4352291226387024 0.7054263353347778
0.39534878730773926 -0.44045838713645935 0.7209302186965942
0.39534878730773926 -0.4128197729587555 -0.08527129888534546
0.39534875750541687 -0.4239445626735687 -0.06976741552352905
0.39534878730773926 -0.4152093231678009 0.05426359176635742
0.39534878730773926 -0.4246840178966522 0.4728682339191437
0.39534878730773926 -0.4223911166191101 0.4883720874786377
0.39534878730773926 -0.42227572202682495 0.5038759708404541
0.39534878730773926 -0.4227639138698578 0.5193798542022705
0.39534875750541687 -0.4245339334011078 0.5348837375640869
0.39534875750541687 -0.4259338080883026 0.5503876209259033
0.39534878730773926 -0.425788938999176 0.5658915042877197
0.39534878730773926 -0.42452460527420044 0.5813953876495361
0.39534878730773926 -0.4231438934803009 0.5968992710113525
0.39534878730773926 -0.42290881276130676 0.612403154373169
0.39534878730773926 -0.42269256711006165 0.6279069185256958
0.39534878730773926 -0.423910915851593 0.6434107422828674
0.39534878730773926 -0.4249785244464874 0.6589146852493286
0.39534878730773926 -0.40082889795303345 -0.10077518224716187
0.39534878730773926 -0.3832715153694153 -0.11627906560897827
0.39534875750541687 -0.3775670528411865 0.06976747512817383
0.39534878730773926 -0.357189416885376 -0.13178294897079468
0.39534878730773926 -0.3334980010986328 0.08527135848999023
0.39534878730773926 -0.3206736147403717 -0.14728683233261108
0.39534878730773926 -0.29861313104629517 0.10077524185180664
0.39534878730773926 -0.2693508267402649 -0.1627907156944275
0.39534878730773926 -0.27098649740219116 0.11627912521362305
0.39534878730773926 -0.24032039940357208 0.1317828893661499
0.39534878730773926 -0.20342110097408295 -0.1782945990562439
0.39534878730773926 -0.16624575853347778 0.1472867727279663
0.39534878730773926 -0.11918081343173981 0.1472867727279663
0.39534878730773926 -0.11452445387840271 -0.1782945990562439
0.39534878730773926 -0.06717856228351593 -0.1627907156944275
0.39534878730773926 -0.0578448548913002 0.1317828893661499
0.39534878730773926 -0.041425421833992004 -0.14728683233261108
0.39534878730773926 -0.019840771332383156 -0.13178294897079468
0.39534878730773926 -0.017482474446296692 0.11627911776304245
0.39534878730773926 -0.0007234029471874237 -0.11627906560897827
0.39534878730773926 0.018525345250964165 -0.10077518224716187
0.39534878730773926 0.019757570698857307 0.10077524185180664
0.39534878730773926 0.037761978805065155 -0.08527129888534546
0.39534878730773926 0.05386916548013687 0.08527135848999023
0.39534878730773926 0.05870615690946579 -0.06976741552352905
0.39534878730773926 0.07851297408342361 -0.05426359176635742
0.39534878730773926 0.08153143525123596 0.06976747512817383
0.39534878730773926 0.09392744302749634 -0.038759708404541016
0.39534878730773926 0.1001773402094841 0.05426359176635742
0.39534878730773926 0.1050616204738617 -0.02325582504272461
0.39534878730773926 0.11435937881469727 -0.007751941680908203
0.39534878730773926 0.11212548613548279 0.038759708404541016
0.39534878730773926 0.11853004992008209 0.007751941680908203
0.39534878730773926 0.11765923351049423 0.02325582504272461
0.41085267066955566 -0.7695400714874268 0.41085267066955566
0.41085267066955566 -0.7735952734947205 0.42635655403137207
0.41085267066955566 -0.7757246494293213 0.4418604373931885
0.41085267066955566 -0.7769691944122314 0.4573643207550049
0.41085267066955566 -0.7773959636688232 0.4728682041168213
0.41085267066955566 -0.7771496772766113 0.4883721172809601
0.41085267066955566 -0.7766422629356384 0.5038759708404541
0.41085267066955566 -0.7755881547927856 0.5193798542022705
0.41085267066955566 -0.7742868065834045 0.5348837375640869
0.41085267066955566 -0.7720010876655579 0.5503876209259033
0.41085267066955566 -0.7692451477050781 0.5658915042877197
0.41085267066955566 -0.7535272836685181 0.37984490394592285
0.41085267066955566 -0.7646855115890503 0.39534878730773926
0.41085267066955566 -0.7672069072723389 0.5813953876495361
0.41085267066955566 -0.7629987001419067 0.5968992710113525
0.41085267066955566 -0.7573482990264893 0.612403154373169
0.41085267066955566 -0.7523090243339539 0.6279069185256958
0.41085267066955566 -0.7458665370941162 0.6434108018875122
0.41085267066955566 -0.7383164167404175 0.6589146852493286
0.4108526408672333 -0.733802855014801 0.364341139793396
0.41085267066955566 -0.7324672937393188 0.674418568611145
0.41085267066955566 -0.7235578298568726 0.6899224519729614
0.41085267066955566 -0.7164168953895569 0.7054263353347778
0.41085267066955566 -0.7069591879844666 0.7209302186965942
0.41085267066955566 -0.6961954832077026 0.7364341020584106
0.41085267066955566 -0.6755620241165161 0.3488372564315796
0.41085267066955566 -0.6870997548103333 0.751937985420227
0.41085267066955566 -0.6752766370773315 0.7674418687820435
0.41085267066955566 -0.6598135232925415 0.7829457521438599
0.41085267066955566 -0.6333997249603271 0.7984496355056763
0.41085267066955566 -0.591044008731842 0.3488372564315796
0.41085267066955566 -0.5646276473999023 0.364341139793396
0.41085267066955566 -0.5350567102432251 0.4573643207550049
0.41085267066955566 -0.5340712666511536 0.4573643207550049
0.41085267066955566 -0.48980262875556946 0.7984496355056763
0.41085267066955566 -0.4656703770160675 0.37984490394592285
0.41085267066955566 -0.462730348110199 0.7829457521438599
0.41085267066955566 -0.4482547640800476 0.7674418687820435
0.41085267066955566 -0.44116294384002686 0.39534878730773926
0.41085267066955566 -0.4312365651130676 0.41085267066955566
0.41085267066955566 -0.4274328351020813 0.7209302186965942
0.41085267066955566 -0.4326103925704956 0.7364341020584106
0.41085270047187805 -0.4398549199104309 0.751937985420227
0.41085267066955566 -0.42534226179122925 0.42635655403137207
0.41085267066955566 -0.4209672808647156 0.4418604373931885
0.41085267066955566 -0.41645577549934387 0.4573643207550049
0.41085267066955566 -0.4121949076652527 0.4728682041168213
0.41085267066955566 -0.41132044792175293 0.5658915042877197
0.41085267066955566 -0.41110506653785706 0.5813953876495361
0.41085267066955566 -0.411344975233078 0.612403154373169
0.41085267066955566 -0.41175952553749084 0.6279069185256958
0.41085267066955566 -0.41364502906799316 0.6434108018875122
0.41085267066955566 -0.4148823916912079 0.6589146852493286
0.41085267066955566 -0.4169297516345978 0.674418568611145
0.41085267066955566 -0.4193679392337799 0.6899224519729614
0.41085267066955566 -0.42272964119911194 0.7054263353347778
0.41085267066955566 -0.40943658351898193 0.4883720874786377
0.41085267066955566 -0.4086948335170746 0.5038759708404541
0.41085267066955566 -0.40844374895095825 0.5193798542022705
0.41085267066955566 -0.4093494117259979 0.5348837375640869
0.41085270047187805 -0.41067272424697876 0.5503876805305481
0.41085267066955566 -0.4107440412044525 0.5968992710113525
0.41085267066955566 -0.3805752396583557 -0.02325582504272461
0.41085267066955566 -0.3826160430908203 -0.007751941680908203
0.41085267066955566 -0.3710576295852661 -0.038759708404541016
0.41085267066955566 -0.37326860427856445 0.007751941680908203
0.41085267066955566 -0.3563321828842163 -0.05426359176635742
0.41085267066955566 -0.3334161341190338 -0.06976741552352905
0.41085270047187805 -0.3485536575317383 0.02325582504272461
0.41085267066955566 -0.31471118330955505 0.038759708404541016
0.41085267066955566 -0.3005296289920807 -0.08527129888534546
0.41085267066955566 -0.2777351140975952 0.05426359176635742
0.41085267066955566 -0.25930750370025635 -0.10077518224716187
0.41085267066955566 -0.24837537109851837 0.06976747512817383
0.41085267066955566 -0.21074634790420532 -0.11627906560897827
0.41085267066955566 -0.20707820355892181 0.08527135848999023
0.41085267066955566 -0.10816377401351929 -0.11627906560897827
0.41085267066955566 -0.0646660178899765 -0.10077518224716187
0.41085267066955566 -0.05088185891509056 0.08527135848999023
0.41085267066955566 -0.03722785413265228 -0.08527129143476486
0.41085267066955566 -0.011856632307171822 -0.06976741552352905
0.41085267066955566 -0.0026193768717348576 0.06976747512817383
0.41085267066955566 0.010186996310949326 -0.05426359176635742
0.41085267066955566 0.028095431625843048 -0.038759708404541016
0.41085267066955566 0.028115954250097275 0.05426359176635742
0.41085267066955566 0.042638085782527924 -0.02325582504272461
0.41085267066955566 0.04818975180387497 0.038759708404541016
0.41085270047187805 0.05457976460456848 -0.007751941680908203
0.41085267066955566 0.060518741607666016 0.007751941680908203
0.41085267066955566 0.05849966034293175 0.02325582504272461
0.42635655403137207 -0.7675639390945435 0.4418604373931885
0.42635655403137207 -0.7684603333473206 0.4573643207550049
0.42635655403137207 -0.7689633965492249 0.4728682041168213
0.42635655403137207 -0.768852710723877 0.4883720874786377
0.42635655403137207 -0.7684494256973267 0.5038759708404541
0.42635655403137207 -0.7676823735237122 0.5193798542022705
0.42635655403137207 -0.7537152767181396 0.39534878730773926
0.42635658383369446 -0.7611122131347656 0.41085267066955566
0.42635655403137207 -0.7657143473625183 0.42635655403137207
0.42635655403137207 -0.7668694257736206 0.5348837375640869
0.42635655403137207 -0.7652932405471802 0.5503876209259033
0.42635655403137207 -0.7630418539047241 0.5658915042877197
0.42635655403137207 -0.7603119611740112 0.5813953876495361
0.42635655403137207 -0.756140947341919 0.5968992710113525
0.42635655403137207 -0.7522841095924377 0.612403154373169
0.42635655403137207 -0.7433380484580994 0.37984490394592285
0.42635655403137207 -0.7474238872528076 0.6279069185256958
0.42635655403137207 -0.7407516241073608 0.6434108018875122
0.42635655403137207 -0.7226065993309021 0.364341139793396
0.42635655403137207 -0.7361419200897217 0.6589146852493286
0.42635655403137207 -0.7291765809059143 0.674418568611145
0.42635655403137207 -0.722216010093689 0.6899224519729614
0.42635655403137207 -0.7144186496734619 0.7054263353347778
0.42635655403137207 -0.7063682079315186 0.7209302186965942
0.42635655403137207 -0.6956042647361755 0.7364341020584106
0.42635655403137207 -0.6787759065628052 0.3488372564315796
0.42635655403137207 -0.6871733069419861 0.751937985420227
0.42635655403137207 -0.6761323809623718 0.7674418687820435
0.42635655403137207 -0.6616789698600769 0.7829457521438599
0.42635655403137207 -0.6344030499458313 0.3333333730697632
0.42635655403137207 -0.6415189504623413 0.7984496355056763
0.42635655403137207 -0.6072399616241455 0.3333333730697632
0.42635655403137207 -0.5967147946357727 0.8139535188674927
0.42635655403137207 -0.5635167956352234 0.3488372564315796
0.42635655403137207 -0.5106294751167297 0.8139535188674927
0.42635655403137207 -0.4675934314727783 0.364341139793396
0.42635655403137207 -0.46848759055137634 0.7984496355056763
0.42635655403137207 -0.4495796263217926 0.7829457521438599
0.42635655403137207 -0.4404560923576355 0.37984490394592285
0.42635655403137207 -0.42656052112579346 0.39534878730773926
0.42635655403137207 -0.43104875087738037 0.751937985420227
0.42635655403137207 -0.4383760690689087 0.7674418687820435
0.42635655403137207 -0.4196206331253052 0.41085267066955566
0.42635655403137207 -0.4155174493789673 0.42635655403137207
0.42635655403137207 -0.41162919998168945 0.6899224519729614
0.42635655403137207 -0.41543442010879517 0.7054263353347778
0.42635655403137207 -0.419658899307251 0.7209302186965942
0.42635655403137207 -0.4242454767227173 0.7364341020584106
0.42635655403137207 -0.4104229211807251 0.4418604373931885
0.42635655403137207 -0.4072361886501312 0.4573643207550049
0.42635655403137207 -0.40467631816864014 0.4728682041168213
0.42635655403137207 -0.40261703729629517 0.4883720874786377
0.42635655403137207 -0.40159571170806885 0.5038759708404541
0.42635655403137207 -0.4009532332420349 0.5193798542022705
0.42635655403137207 -0.4013862609863281 0.5348837375640869
0.42635655403137207 -0.40237730741500854 0.5503876209259033
0.42635655403137207 -0.4028017520904541 0.5658915042877197
0.42635655403137207 -0.4030317962169647 0.5813953876495361
0.42635655403137207 -0.4032382071018219 0.5968992710113525
0.42635655403137207 -0.4038703143596649 0.612403154373169
0.42635655403137207 -0.4043195843696594 0.6279069185256958
0.42635655403137207 -0.4056861698627472 0.6434108018875122
0.42635655403137207 -0.4068497121334076 0.6589146852493286
0.4263565242290497 -0.40886279940605164 0.674418568611145
0.42635655403137207 -0.2109542191028595 -0.02325582504272461
0.42635655403137207 -0.21695590019226074 -0.007751941680908203
0.42635655403137207 -0.2111818939447403 0.007751941680908203
0.42635655403137207 -0.19278216361999512 -0.038759708404541016
0.42635658383369446 -0.19277037680149078 0.02325582504272461
0.42635655403137207 -0.1511843353509903 0.038759708404541016
0.42635655403137207 -0.0896017998456955 -0.038759708404541016
0.42635655403137207 -0.0860496461391449 0.038759708404541016
0.42635655403137207 -0.06250806897878647 -0.02325582504272461
0.42635655403137207 -0.04635639488697052 -0.007751941680908203
0.42635655403137207 -0.042182158678770065 0.007751941680908203
0.42635655403137207 -0.05078376084566116 0.02325582504272461
0.4418604373931885 -0.754378616809845 0.42635655403137207
0.4418604373931885 -0.7573479413986206 0.4418604373931885
0.4418604373931885 -0.7592966556549072 0.4573643207550049
0.4418604373931885 -0.7601331472396851 0.4728682041168213
0.4418604373931885 -0.7600589394569397 0.4883720874786377
0.4418604373931885 -0.7595380544662476 0.5038759708404541
0.4418604373931885 -0.758442223072052 0.5193798542022705
0.4418604373931885 -0.7574011087417603 0.5348837375640869
0.4418604373931885 -0.7553285360336304 0.5503876209259033
0.4418604373931885 -0.752845048904419 0.5658915042877197
0.4418604373931885 -0.7421146035194397 0.39534878730773926
0.44186046719551086 -0.7502532005310059 0.41085267066955566
0.4418604373931885 -0.7507466077804565 0.5813953876495361
0.4418604373931885 -0.7479139566421509 0.5968992710113525
0.4418604373931885 -0.7440682649612427 0.612403154373169
0.4418604373931885 -0.7382557392120361 0.6279069185256958
0.4418604075908661 -0.7307949066162109 0.37984490394592285
0.4418604373931885 -0.734729528427124 0.6434108018875122
0.4418604373931885 -0.7295825481414795 0.6589146852493286
0.4418604373931885 -0.7228645086288452 0.674418568611145
0.4418604373931885 -0.7078038454055786 0.364341139793396
0.4418604373931885 -0.7182296514511108 0.6899224519729614
0.4418604373931885 -0.7091141939163208 0.7054263353347778
0.4418604373931885 -0.7033731937408447 0.7209302186965942
0.4418604373931885 -0.6929415464401245 0.7364341020584106
0.4418604373931885 -0.6842766404151917 0.751937985420227
0.4418604373931885 -0.6748668551445007 0.7674418687820435
0.4418604373931885 -0.6741160750389099 0.3488372564315796
0.4418604373931885 -0.6613613963127136 0.7829457521438599
0.4418604373931885 -0.6445208191871643 0.3333333730697632
0.4418604373931885 -0.6437176465988159 0.7984496355056763
0.4418604373931885 -0.6126083135604858 0.8139535188674927
0.4418604373931885 -0.5687921643257141 0.3333333730697632
0.4418604373931885 -0.48592379689216614 0.8139534592628479
0.4418604075908661 -0.4707213342189789 0.3488372564315796
0.4418604373931885 -0.4550708830356598 0.7984496355056763
0.4418604373931885 -0.4408901035785675 0.364341139793396
0.4418604373931885 -0.43092048168182373 0.7674418687820435
0.4418604373931885 -0.4403052031993866 0.7829457521438599
0.4418604373931885 -0.42475900053977966 0.37984493374824524
0.4418604373931885 -0.41605329513549805 0.39534878730773926
0.4418604373931885 -0.4134902358055115 0.7209302186965942
0.4418604373931885 -0.4182696044445038 0.7364341020584106
0.4418604373931885 -0.42416682839393616 0.7519379258155823
0.4418604373931885 -0.4092848598957062 0.41085267066955566
0.4418604373931885 -0.4066750705242157 0.42635655403137207
0.4418604373931885 -0.40393346548080444 0.4418604373931885
0.4418604373931885 -0.4008232355117798 0.4573643207550049
0.4418604373931885 -0.39750680327415466 0.4728682041168213
0.4418604373931885 -0.3954213559627533 0.5968992710113525
0.4418604373931885 -0.3969716429710388 0.612403154373169
0.4418604373931885 -0.3980427384376526 0.6279069185256958
0.4418604373931885 -0.39992231130599976 0.6434108018875122
0.4418604373931885 -0.40121304988861084 0.6589146852493286
0.4418604373931885 -0.4032272696495056 0.674418568611145
0.4418604373931885 -0.4057479798793793 0.6899224519729614
0.4418604373931885 -0.4088226556777954 0.7054263353347778
0.4418604373931885 -0.3945801258087158 0.4883720874786377
0.4418604075908661 -0.39351290464401245 0.5038759708404541
0.4418604373931885 -0.39282459020614624 0.5193798542022705
0.4418604373931885 -0.3930625319480896 0.5348837375640869
0.4418604373931885 -0.39394092559814453 0.5503876209259033
0.4418604373931885 -0.394413560628891 0.5658915042877197
0.4418604373931885 -0.39488983154296875 0.5813953876495361
0.4573643207550049 -0.7402836084365845 0.42635655403137207
0.4573643207550049 -0.7439528703689575 0.4418604373931885
0.4573643207550049 -0.7462112903594971 0.4573643207550049
0.4573643207550049 -0.7473019957542419 0.4728682339191437
0.4573643207550049 -0.7474237680435181 0.4883720874786377
0.4573643207550049 -0.7469538450241089 0.5038759708404541
0.4573643207550049 -0.7458717823028564 0.5193798542022705
0.4573642909526825 -0.745055079460144 0.5348837375640869
0.4573643207550049 -0.7434121966362 0.5503876209259033
0.4573643207550049 -0.7411096096038818 0.5658915042877197
0.4573643207550049 -0.7380907535552979 0.5813953876495361
0.4573643207550049 -0.7257970571517944 0.39534878730773926
0.4573643207550049 -0.7349460124969482 0.41085267066955566
0.4573643207550049 -0.7354807257652283 0.5968992710113525
0.4573643207550049 -0.7329109907150269 0.612403154373169
0.4573643207550049 -0.7291781902313232 0.6279069185256958
0.4573643207550049 -0.7242298126220703 0.6434108018875122
0.4573643207550049 -0.7112831473350525 0.37984490394592285
0.4573643207550049 -0.7205883860588074 0.6589146852493286
0.4573643207550049 -0.7162948846817017 0.674418568611145
0.4573643207550049 -0.7086548805236816 0.6899224519729614
0.4573643207550049 -0.7043296098709106 0.7054263949394226
0.4573643207550049 -0.6948175430297852 0.7209302186965942
0.4573643207550049 -0.6862169504165649 0.364341139793396
0.4573643207550049 -0.6890314221382141 0.7364341020584106
0.4573643207550049 -0.6780943274497986 0.751937985420227
0.4573643207550049 -0.6628042459487915 0.3488372564315796
0.4573643207550049 -0.6697829961776733 0.7674418687820435
0.4573643207550049 -0.6582741141319275 0.7829457521438599
0.4573643207550049 -0.6378062963485718 0.3333333730697632
0.4573643207550049 -0.641067385673523 0.7984496355056763
0.4573643207550049 -0.6144739389419556 0.8139535188674927
0.4573643207550049 -0.4917283058166504 0.3333333730697632
0.4573643207550049 -0.4706878960132599 0.8139535188674927
0.4573643207550049 -0.4477267861366272 0.3488372564315796
0.4573643207550049 -0.4466901421546936 0.7984496355056763
0.4573643207550049 -0.4269396960735321 0.364341139793396
0.4573643207550049 -0.4341644048690796 0.7829457521438599
0.4573643207550049 -0.4156678318977356 0.37984490394592285
0.4573643207550049 -0.4127303659915924 0.7364341020584106
0.4573643207550049 -0.4191782772541046 0.751937985420227
0.4573643207550049 -0.4246446490287781 0.7674418091773987
0.45736435055732727 -0.407692551612854 0.39534878730773926
0.4573643207550049 -0.40360406041145325 0.41085267066955566
0.4573643207550049 -0.4010375142097473 0.42635655403137207
0.4573643207550049 -0.3975531756877899 0.4418604373931885
0.4573643207550049 -0.3981969356536865 0.674418568611145
0.4573643207550049 -0.4009855091571808 0.6899224519729614
0.4573643207550049 -0.404228150844574 0.7054263353347778
0.4573643207550049 -0.4080584943294525 0.7209302186965942
0.4573643207550049 -0.3938332498073578 0.4573643207550049
0.45736435055732727 -0.3913940489292145 0.4728682041168213
0.4573643207550049 -0.38942697644233704 0.4883720576763153
0.4573643207550049 -0.3883804678916931 0.5038759708404541
0.4573643207550049 -0.38768839836120605 0.5193798542022705
0.4573643207550049 -0.3878057897090912 0.5348837375640869
0.4573643207550049 -0.3885419964790344 0.5503876209259033
0.45736435055732727 -0.3889981508255005 0.5658915042877197
0.4573643207550049 -0.38956934213638306 0.5813953876495361
0.4573642909526825 -0.3901984989643097 0.5968992710113525
0.4573643207550049 -0.391245037317276 0.612403154373169
0.4573642909526825 -0.3921116590499878 0.6279069185256958
0.4573642909526825 -0.3937596082687378 0.6434108018875122
0.4573643207550049 -0.39515361189842224 0.6589146852493286
0.4728682041168213 -0.7225227355957031 0.4418604373931885
0.4728682041168213 -0.7265004515647888 0.4573643207550049
0.4728682041168213 -0.728793740272522 0.4728682041168213
0.4728682041168213 -0.7297610640525818 0.4883720874786377
0.4728682041168213 -0.7299386262893677 0.5038759708404541
0.4728682339191437 -0.7292423248291016 0.5193798542022705
0.4728682041168213 -0.7288768291473389 0.5348837375640869
0.4728682041168213 -0.7276206612586975 0.5503876209259033
0.4728682041168213 -0.7258651852607727 0.5658915042877197
0.4728682041168213 -0.723677396774292 0.5813953876495361
0.4728682041168213 -0.72124183177948 0.5968992710113525
0.4728682041168213 -0.7114181518554688 0.41085267066955566
0.4728681743144989 -0.7183730602264404 0.42635655403137207
0.4728682041168213 -0.7194573283195496 0.612403154373169
0.4728682041168213 -0.7169573307037354 0.6279069185256958
0.4728682041168213 -0.7142108678817749 0.6434108018875122
0.4728682041168213 -0.7094022631645203 0.6589146852493286
0.4728682041168213 -0.7055531144142151 0.674418568611145
0.4728682041168213 -0.6986392140388489 0.39534878730773926
0.4728682041168213 -0.7013587951660156 0.6899224519729614
0.4728682041168213 -0.6932336091995239 0.7054263353347778
0.4728682041168213 -0.6810656785964966 0.37984490394592285
0.4728682041168213 -0.688705325126648 0.7209302186965942
0.4728682041168213 -0.6785595417022705 0.7364341020584106
0.4728682041168213 -0.6653566360473633 0.364341139793396
0.4728682041168213 -0.6727862358093262 0.751937985420227
0.4728682041168213 -0.6613956689834595 0.7674418687820435
0.4728682041168213 -0.6486640572547913 0.3488372564315796
0.4728682041168213 -0.6500627994537354 0.7829457521438599
0.4728682041168213 -0.6293195486068726 0.3333333730697632
0.4728682041168213 -0.634506106376648 0.7984496355056763
0.4728682041168213 -0.6116284728050232 0.8139535188674927
0.4728682041168213 -0.4673006534576416 0.3333333730697632
0.4728682041168213 -0.46444523334503174 0.8139535188674927
0.4728682041168213 -0.4375869035720825 0.3488372564315796
0.4728682041168213 -0.4293757677078247 0.7829457521438599
0.4728682041168213 -0.44106757640838623 0.7984496355056763
0.4728682041168213 -0.4204171895980835 0.364341139793396
0.4728682041168213 -0.414838582277298 0.751937985420227
0.4728682041168213 -0.4209364652633667 0.7674418687820435
0.4728682041168213 -0.4091992676258087 0.37984487414360046
0.4728682041168213 -0.40348365902900696 0.39534878730773926
0.4728682041168213 -0.3991206884384155 0.41085267066955566
0.4728682041168213 -0.39544010162353516 0.42635655403137207
0.4728682041168213 -0.3966929018497467 0.6899224519729614
0.4728682041168213 -0.4005211591720581 0.7054263353347778
0.4728682041168213 -0.4046578109264374 0.7209302186965942
0.4728681743144989 -0.4084669351577759 0.7364341020584106
0.4728682041168213 -0.3930690884590149 0.4418604373931885
0.4728682041168213 -0.3904668092727661 0.4573643207550049
0.4728682041168213 -0.3880985379219055 0.4728682041168213
0.4728682041168213 -0.38604605197906494 0.4883720874786377
0.4728682041168213 -0.3846323490142822 0.5038759708404541
0.4728682041168213 -0.38356760144233704 0.5193798542022705
0.4728682041168213 -0.38356441259384155 0.5348837375640869
0.4728682041168213 -0.38440799713134766 0.5503876209259033
0.4728682041168213 -0.38495296239852905 0.5658915042877197
0.4728682041168213 -0.3856905698776245 0.5813953876495361
0.4728682041168213 -0.386457622051239 0.5968992710113525
0.4728682041168213 -0.38760754466056824 0.612403154373169
0.4728682041168213 -0.388560950756073 0.6279069185256958
0.4728682041168213 -0.39025911688804626 0.6434108018875122
0.4728682041168213 -0.3916207551956177 0.6589146852493286
0.4728682041168213 -0.39367035031318665 0.674418568611145
0.4883720874786377 -0.7069531083106995 0.4728682041168213
0.4883720874786377 -0.70995032787323 0.4883720874786377
0.4883720874786377 -0.7115130424499512 0.5038759708404541
0.4883720874786377 -0.7115704417228699 0.5193798542022705
0.4883720874786377 -0.7119945883750916 0.5348837375640869
0.4883720874786377 -0.7113945484161377 0.5503876209259033
0.4883720874786377 -0.7106208801269531 0.5658915042877197
0.4883720874786377 -0.7097827792167664 0.5813953876495361
0.4883720874786377 -0.7085376977920532 0.5968992710113525
0.4883720874786377 -0.7068833708763123 0.612403154373169
0.4883720874786377 -0.6904574036598206 0.42635655403137207
0.4883720874786377 -0.6977353096008301 0.4418604373931885
0.4883720874786377 -0.7024450302124023 0.4573643207550049
0.4883720874786377 -0.7046918272972107 0.627906858921051
0.4883720874786377 -0.7032744884490967 0.6434108018875122
0.4883720874786377 -0.700508713722229 0.6589146852493286
0.4883720874786377 -0.6956313848495483 0.674418568611145
0.4883720874786377 -0.6905049085617065 0.6899224519729614
0.4883720874786377 -0.6832237243652344 0.41085267066955566
0.4883720874786377 -0.6866327524185181 0.7054263353347778
0.4883720874786377 -0.6776348352432251 0.7209302186965942
0.4883720874786377 -0.6647155284881592 0.37984490394592285
0.4883720874786377 -0.6735506653785706 0.39534878730773926
0.4883720576763153 -0.6729003190994263 0.7364341020584106
0.4883720874786377 -0.6623179912567139 0.751937985420227
0.4883720874786377 -0.6527770161628723 0.364341139793396
0.4883720874786377 -0.6556504964828491 0.7674418687820435
0.4883720874786377 -0.6439714431762695 0.7829457521438599
0.4883720874786377 -0.6399643421173096 0.3488372564315796
0.4883720874786377 -0.6287726163864136 0.7984496355056763
0.4883720874786377 -0.6215566396713257 0.3333333730697632
0.4883720874786377 -0.6057103872299194 0.8139535188674927
0.4883720874786377 -0.56724613904953 0.3178294897079468
0.4883720874786377 -0.5550001859664917 0.3178294897079468
0.4883720874786377 -0.4602324366569519 0.3333333730697632
0.4883720874786377 -0.4610084891319275 0.8139535188674927
0.4883720874786377 -0.4345448613166809 0.3488372564315796
0.4883721172809601 -0.43855053186416626 0.7984496355056763
0.4883720874786377 -0.4180160164833069 0.364341139793396
0.4883720874786377 -0.4112207293510437 0.751937985420227
0.4883720874786377 -0.41838687658309937 0.7674418687820435
0.4883720874786377 -0.4261116087436676 0.7829457521438599
0.4883720576763153 -0.40708839893341064 0.37984490394592285
0.4883720874786377 -0.40119022130966187 0.39534878730773926
0.4883720874786377 -0.3955630660057068 0.41085267066955566
0.4883720874786377 -0.39713725447654724 0.7054263353347778
0.4883720874786377 -0.4017781615257263 0.7209302186965942
0.4883720874786377 -0.40593773126602173 0.7364341020584106
0.4883720874786377 -0.39313995838165283 0.42635655403137207
0.4883720874786377 -0.3909000754356384 0.4418604373931885
0.4883720874786377 -0.3883155882358551 0.4573643207550049
0.4883720874786377 -0.38581931591033936 0.4728682041168213
0.4883720874786377 -0.3832383155822754 0.4883720874786377
0.4883720874786377 -0.3809748888015747 0.5038759708404541
0.4883720874786377 -0.38007649779319763 0.5503876209259033
0.4883720874786377 -0.38086244463920593 0.5658915042877197
0.4883720874786377 -0.38200682401657104 0.5813953876495361
0.4883720874786377 -0.38316047191619873 0.5968992710113525
0.4883720874786377 -0.3847140669822693 0.612403154373169
0.4883720874786377 -0.3858354091644287 0.6279069185256958
0.4883720874786377 -0.3875868618488312 0.6434108018875122
0.4883720874786377 -0.38896694779396057 0.6589146852493286
0.4883720874786377 -0.39105403423309326 0.674418568611145
0.4883720874786377 -0.39335542917251587 0.6899224519729614
0.4883721172809601 -0.37942957878112793 0.5193798542022705
0.4883720874786377 -0.3792961835861206 0.5348837375640869
0.5038759708404541 -0.6929115056991577 0.4883720874786377
0.5038759708404541 -0.695698618888855 0.5038759708404541
0.5038759708404541 -0.6966071128845215 0.5193798542022705
0.5038759708404541 -0.6978575587272644 0.5348837375640869
0.5038759708404541 -0.6980756521224976 0.5503876209259033
0.5038759708404541 -0.6982906460762024 0.5658915042877197
0.5038759708404541 -0.6984673142433167 0.5813953876495361
0.5038759708404541 -0.6982302069664001 0.5968992710113525
0.5038759708404541 -0.6976367235183716 0.612403154373169
0.5038759708404541 -0.6955904364585876 0.6279069185256958
0.5038759708404541 -0.6930971145629883 0.6434108018875122
0.5038759708404541 -0.6901299953460693 0.6589146852493286
0.5038759708404541 -0.6760035753250122 0.42635655403137207
0.5038759708404541 -0.6800670027732849 0.4418604373931885
0.5038759708404541 -0.683966875076294 0.4573643207550049
0.5038759708404541 -0.6886431574821472 0.4728682041168213
0.5038759708404541 -0.687447726726532 0.674418568611145
0.5038759708404541 -0.68245530128479 0.6899224519729614
0.5038759708404541 -0.6757196187973022 0.7054263353347778
0.5038759708404541 -0.6661101579666138 0.39534878730773926
0.5038759708404541 -0.6709862351417542 0.41085267066955566
0.5038759708404541 -0.6717114448547363 0.7209302186965942
0.5038759708404541 -0.6619295477867126 0.7364341020584106
0.5038759708404541 -0.6481626033782959 0.364341139793396
0.5038759708404541 -0.6580241322517395 0.37984490394592285
0.5038759708404541 -0.6570870876312256 0.751937985420227
0.5038759708404541 -0.6461008191108704 0.7674418687820435
0.5038759708404541 -0.6351273059844971 0.3488372564315796
0.5038759708404541 -0.637271523475647 0.7829457521438599
0.5038759708404541 -0.618058443069458 0.3333333730697632
0.5038759708404541 -0.6225200295448303 0.7984496355056763
0.5038759708404541 -0.5973488092422485 0.8139535188674927
0.5038759708404541 -0.5817114114761353 0.3178294897079468
0.5038759708404541 -0.5194889307022095 0.3178294897079468
0.5038759708404541 -0.4588112235069275 0.3333333730697632
0.5038759708404541 -0.4618893265724182 0.8139535188674927
0.5038759708404541 -0.43510472774505615 0.3488372564315796
0.5038759708404541 -0.4380298852920532 0.7984496355056763
0.5038759708404541 -0.41866010427474976 0.364341139793396
0.5038759708404541 -0.41711798310279846 0.7674418687820435
0.5038759708404541 -0.42526504397392273 0.7829457521438599
0.5038759708404541 -0.4072798490524292 0.37984490394592285
0.5038759708404541 -0.40097352862358093 0.39534878730773926
0.5038759708404541 -0.399822473526001 0.7209302186965942
0.5038759708404541 -0.4044152498245239 0.7364341020584106
0.5038759708404541 -0.40954411029815674 0.751937985420227
0.5038759708404541 -0.39507558941841125 0.41085270047187805
0.5038759708404541 -0.3925044536590576 0.42635655403137207
0.5038759708404541 -0.3901851177215576 0.44186046719551086
0.5038759708404541 -0.3875389099121094 0.4573643207550049
0.5038759708404541 -0.3849062919616699 0.4728682041168213
0.5038759708404541 -0.3819068968296051 0.4883720874786377
0.5038759708404541 -0.38006845116615295 0.5968992710113525
0.5038759708404541 -0.3822072744369507 0.612403154373169
0.5038759708404541 -0.3836219310760498 0.6279069185256958
0.5038759708404541 -0.3856433033943176 0.6434108018875122
0.5038759708404541 -0.3870847821235657 0.6589146852493286
0.5038759708404541 -0.389256089925766 0.674418568611145
0.5038759708404541 -0.39157915115356445 0.6899224519729614
0.5038759708404541 -0.3946409821510315 0.7054263353347778
0.5038759708404541 -0.3793368339538574 0.5038759708404541
0.5038759708404541 -0.3781096637248993 0.5193798542022705
0.5038759708404541 -0.3778081238269806 0.5348837375640869
0.5038759708404541 -0.3782506287097931 0.5503876209259033
0.5038759708404541 -0.3785579800605774 0.5658915042877197
0.5038759708404541 -0.379181832075119 0.5813953876495361
0.5193798542022705 -0.6762799024581909 0.4728682041168213
0.5193798542022705 -0.6798793077468872 0.4883720874786377
0.5193798542022705 -0.6826503872871399 0.5038759708404541
0.5193798542022705 -0.6839311122894287 0.5193798542022705
0.5193798542022705 -0.6853923201560974 0.5348837375640869
0.5193798542022705 -0.6860786080360413 0.5503876209259033
0.5193798542022705 -0.6867891550064087 0.5658915042877197
0.5193798542022705 -0.6874140501022339 0.5813953876495361
0.5193798542022705 -0.6876290440559387 0.5968992710113525
0.5193798542022705 -0.6875524520874023 0.612403154373169
0.5193798542022705 -0.6864944696426392 0.6279069185256958
0.5193798542022705 -0.6849867105484009 0.6434108018875122
0.5193798542022705 -0.6819483041763306 0.6589146852493286
0.5193798542022705 -0.6767457723617554 0.674418568611145
0.5193798542022705 -0.66069096326828 0.39534878730773926
0.5193798542022705 -0.666083812713623 0.41085267066955566
0.5193798542022705 -0.6687678098678589 0.42635655403137207
0.5193798542022705 -0.6700773239135742 0.4418604373931885
0.5193798542022705 -0.6722228527069092 0.4573643207550049
0.5193798542022705 -0.6732115149497986 0.6899224519729614
0.5193798542022705 -0.6681766510009766 0.7054263353347778
0.5193798542022705 -0.660189688205719 0.7209302186965942
0.5193798542022705 -0.643964409828186 0.364341139793396
0.5193798542022705 -0.6530619263648987 0.37984490394592285
0.5193798542022705 -0.6557559967041016 0.7364341020584106
0.5193798542022705 -0.6459776759147644 0.751937985420227
0.5193798542022705 -0.6313682198524475 0.3488372564315796
0.5193798542022705 -0.6405408382415771 0.7674418091773987
0.5193798542022705 -0.6285934448242188 0.7829457521438599
