-0.20930230617523193 0.8139535188674927 -0.12622779607772827
-0.20930230617523193 0.8139535188674927 0.20892488956451416
-0.20930230617523193 0.8294574022293091 -0.07674824446439743
-0.20930230617523193 0.8294574022293091 0.1282699704170227
-0.19379842281341553 -0.9069767594337463 -0.3192543089389801
-0.19379842281341553 -0.9069768190383911 -0.28047072887420654
-0.19379842281341553 -0.9069767594337463 0.43730369210243225
-0.19379842281341553 -0.9069767594337463 0.4659111499786377
-0.19379842281341553 -0.8914728760719299 -0.3392101526260376
-0.19379842281341553 -0.8914729356765747 -0.26541629433631897
-0.19379842281341553 -0.8914728760719299 0.4026249051094055
-0.19379842281341553 -0.8914728760719299 0.5000630617141724
-0.19379842281341553 -0.8759689927101135 -0.35076552629470825
-0.19379842281341553 -0.8759689927101135 -0.25813254714012146
-0.19379842281341553 -0.8759690523147583 0.3845771849155426
-0.19379842281341553 -0.8759689927101135 0.5158573985099792
-0.19379842281341553 -0.8604650497436523 -0.35900282859802246
-0.19379842281341553 -0.8604651689529419 -0.24936214089393616
-0.19379842281341553 -0.8604651093482971 0.37175363302230835
-0.19379842281341553 -0.8604650497436523 0.5266671776771545
-0.19379842281341553 -0.8449612259864807 -0.36555206775665283
-0.19379842281341553 -0.8449612855911255 -0.2365206629037857
-0.19379842281341553 -0.8449612259864807 0.3620356619358063
-0.19379842281341553 -0.8449612259864807 0.5337260365486145
-0.19379842281341553 -0.8294572830200195 -0.369178831577301
-0.19379842281341553 -0.8294573426246643 -0.2320849597454071
-0.19379842281341553 -0.8294573426246643 0.3579237163066864
-0.19379842281341553 -0.8294573426246643 0.5375602841377258
-0.19379842281341553 -0.8139535188674927 -0.36970943212509155
-0.19379842281341553 -0.8139535188674927 -0.24181430041790009
-0.19379842281341553 -0.8139535188674927 0.3569294810295105
-0.19379842281341553 -0.8139535188674927 0.5385043621063232
-0.19379842281341553 -0.7984496355056763 -0.366746723651886
-0.19379842281341553 -0.7984496355056763 -0.25306153297424316
-0.19379842281341553 -0.7984496355056763 0.3593429923057556
-0.19379842281341553 -0.7984496355056763 0.5368784070014954
-0.19379842281341553 -0.7829457521438599 -0.3595515489578247
-0.19379842281341553 -0.7829457521438599 -0.26001450419425964
-0.19379843771457672 -0.7829457521438599 0.3644167482852936
-0.19379842281341553 -0.7829457521438599 0.5333279371261597
-0.19379842281341553 -0.7674418687820435 -0.3503352403640747
-0.19379842281341553 -0.7674418687820435 -0.26535481214523315
-0.19379842281341553 -0.7674418687820435 0.3733927607536316
-0.19379842281341553 -0.7674418687820435 0.528380811214447
-0.19379842281341553 -0.751937985420227 -0.33842960000038147
-0.19379842281341553 -0.751937985420227 -0.273143470287323
-0.19379842281341553 -0.751937985420227 0.3829687535762787
-0.19379842281341553 -0.751937985420227 0.5221449136734009
-0.19379842281341553 -0.7364341020584106 -0.32169318199157715
-0.19379842281341553 -0.7364341020584106 -0.2934032380580902
-0.19379842281341553 -0.7364341020584106 0.39370375871658325
-0.19379842281341553 -0.7364341020584106 0.5152621269226074
-0.19379842281341553 -0.7209302186965942 0.40724796056747437
-0.19379842281341553 -0.7209302186965942 0.5074561238288879
-0.19379842281341553 -0.7054263353347778 0.42420703172683716
-0.19379842281341553 -0.7054263353347778 0.4964507520198822
-0.19379842281341553 -0.6899224519729614 0.4517253041267395
-0.19379843771457672 -0.6899224519729614 0.4768485724925995
-0.19379842281341553 -0.5038759708404541 0.4849516749382019
-0.19379842281341553 -0.5038759708404541 0.5417765974998474
-0.19379842281341553 -0.4883720874786377 0.4518641233444214
-0.19379842281341553 -0.4883720874786377 0.5663368701934814
-0.19379842281341553 -0.4728682041168213 0.4325184226036072
-0.19379842281341553 -0.4728682041168213 0.5773576498031616
-0.19379840791225433 -0.4573643207550049 -0.15914371609687805
-0.19379842281341553 -0.4573643207550049 -0.07080220431089401
-0.19379842281341553 -0.4573643207550049 0.4151603877544403
-0.19379842281341553 -0.4573643207550049 0.5866525173187256
-0.19379842281341553 -0.4418604373931885 -0.17336134612560272
-0.19379842281341553 -0.4418604373931885 0.008505241014063358
-0.19379842281341553 -0.4418604373931885 0.39944422245025635
-0.19379842281341553 -0.4418604373931885 0.5944110155105591
-0.19379842281341553 -0.42635661363601685 -0.18629558384418488
-0.19379842281341553 -0.42635658383369446 0.07498030364513397
-0.19379842281341553 -0.42635661363601685 0.3853004574775696
-0.19379842281341553 -0.42635661363601685 0.6011093258857727
-0.19379842281341553 -0.41085273027420044 -0.19680404663085938
-0.19379842281341553 -0.41085273027420044 0.11910243332386017
-0.19379842281341553 -0.41085273027420044 0.37211424112319946
-0.19379842281341553 -0.41085273027420044 0.6070383787155151
-0.19379842281341553 -0.39534884691238403 -0.20779556035995483
-0.19379842281341553 -0.39534884691238403 0.15870007872581482
-0.19379842281341553 -0.39534884691238403 0.35766708850860596
-0.19379842281341553 -0.39534884691238403 0.6120710968971252
-0.19379842281341553 -0.3798449635505676 -0.2160411775112152
-0.19379840791225433 -0.3798449635505676 0.19874048233032227
-0.19379842281341553 -0.3798449635505676 0.3411693871021271
-0.19379842281341553 -0.3798449635505676 0.6160932779312134
-0.19379840791225433 -0.3643410801887512 -0.22065292298793793
-0.19379842281341553 -0.3643410801887512 0.23691806197166443
-0.19379842281341553 -0.3643411099910736 0.32103198766708374
-0.19379842281341553 -0.3643410801887512 0.6203757524490356
-0.19379842281341553 -0.3488371968269348 -0.225327268242836
-0.19379842281341553 -0.3488371968269348 0.6246381998062134
-0.19379842281341553 -0.3333333134651184 -0.23241490125656128
-0.19379842281341553 -0.3333333134651184 0.6287256479263306
-0.19379840791225433 -0.317829430103302 -0.2390938252210617
-0.19379842281341553 -0.317829430103302 0.6338666081428528
-0.19379842281341553 -0.30232560634613037 -0.24824699759483337
-0.19379842281341553 -0.30232560634613037 0.639707624912262
-0.19379842281341553 -0.28682172298431396 -0.25706133246421814
-0.19379840791225433 -0.28682172298431396 0.6442482471466064
-0.19379842281341553 -0.27131783962249756 -0.2659967541694641
-0.19379842281341553 -0.27131783962249756 0.6483896374702454
-0.19379842281341553 -0.25581395626068115 -0.2732584476470947
-0.19379842281341553 -0.25581395626068115 0.6524703502655029
-0.19379842281341553 -0.24031007289886475 -0.27858981490135193
-0.19379842281341553 -0.24031007289886475 0.6560686826705933
-0.19379842281341553 -0.22480618953704834 -0.2826398015022278
-0.19379842281341553 -0.22480618953704834 0.658736526966095
-0.19379842281341553 -0.20930230617523193 -0.2842256426811218
-0.19379842281341553 -0.20930230617523193 0.6601895093917847
-0.19379842281341553 -0.19379842281341553 -0.28529876470565796
-0.19379843771457672 -0.19379843771457672 0.6614241600036621
-0.19379842281341553 -0.1782945990562439 -0.28863129019737244
-0.19379842281341553 -0.1782945990562439 0.6622670888900757
-0.19379842281341553 -0.1627907156944275 -0.2969382703304291
-0.19379842281341553 -0.1627907156944275 0.6631358861923218
-0.19379842281341553 -0.14728683233261108 -0.30782705545425415
-0.19379842281341553 -0.14728683233261108 0.6647763252258301
-0.19379842281341553 -0.13178294897079468 -0.3206467032432556
-0.19379842281341553 -0.13178294897079468 0.6670226454734802
-0.19379842281341553 -0.11627906560897827 -0.33389440178871155
-0.19379842281341553 -0.11627906560897827 0.6697331666946411
-0.19379842281341553 -0.10077518224716187 -0.34616386890411377
-0.19379842281341553 -0.10077518224716187 0.6717979311943054
-0.19379842281341553 -0.08527129888534546 -0.3591580390930176
-0.19379842281341553 -0.08527129888534546 0.6731905937194824
-0.19379842281341553 -0.06976741552352905 -0.3735038638114929
-0.19379842281341553 -0.06976741552352905 0.6742185950279236
-0.19379842281341553 -0.05426359176635742 -0.38534781336784363
-0.19379842281341553 -0.05426358804106712 0.6747322082519531
-0.19379842281341553 -0.038759708404541016 -0.3982508182525635
-0.19379842281341553 -0.03875970467925072 0.6749484539031982
-0.19379842281341553 -0.02325582504272461 -0.4190934896469116
-0.19379842281341553 -0.02325582504272461 0.6750342845916748
-0.19379842281341553 -0.007751941680908203 -0.4665365517139435
-0.19379842281341553 -0.007751941680908203 0.6749666929244995
-0.19379842281341553 0.007751941680908203 -0.5069976449012756
-0.19379842281341553 0.007751941215246916 0.6745875477790833
-0.19379842281341553 0.02325582504272461 -0.5348466038703918
-0.19379842281341553 0.02325582504272461 0.19168737530708313
-0.19379842281341553 0.02325582504272461 0.20499032735824585
-0.19379842281341553 0.02325582504272461 0.6745078563690186
-0.19379842281341553 0.038759708404541016 -0.5591732263565063
-0.19379842281341553 0.038759708404541016 0.19316314160823822
-0.19379842281341553 0.038759708404541016 0.19726349413394928
-0.19379842281341553 0.038759708404541016 0.6742584705352783
-0.19379842281341553 0.05426359176635742 -0.5791810154914856
-0.19379842281341553 0.05426359176635742 0.6747792363166809
-0.19379842281341553 0.06976747512817383 -0.5958722233772278
-0.19379842281341553 0.06976747512817383 0.6753819584846497
-0.19379842281341553 0.08527135848999023 -0.6114941239356995
-0.19379842281341553 0.08527135103940964 0.6771002411842346
-0.19379842281341553 0.10077524185180664 -0.6303887367248535
-0.19379842281341553 0.10077524185180664 0.6797794699668884
-0.19379842281341553 0.11627912521362305 -0.70562344789505
-0.19379842281341553 0.11627912521362305 0.6818281412124634
-0.19379842281341553 0.1317828893661499 -0.7281951904296875
-0.19379842281341553 0.1317828893661499 0.6830108761787415
-0.19379842281341553 0.1472867727279663 -0.7409659624099731
-0.19379842281341553 0.1472867727279663 0.6839330196380615
-0.19379842281341553 0.16279065608978271 -0.746894121170044
-0.19379842281341553 0.16279065608978271 0.6842434406280518
-0.19379842281341553 0.17829453945159912 -0.7475630044937134
-0.19379842281341553 0.17829453945159912 0.6833881735801697
-0.19379842281341553 0.19379842281341553 -0.7445797920227051
-0.19379842281341553 0.19379842281341553 0.681968092918396
-0.19379842281341553 0.20930230617523193 -0.7387020587921143
-0.19379842281341553 0.20930230617523193 0.680625319480896
-0.19379843771457672 0.22480618953704834 -0.7322182655334473
-0.19379842281341553 0.22480617463588715 0.6796560287475586
-0.19379842281341553 0.24031007289886475 -0.7275751233100891
-0.19379842281341553 0.24031007289886475 0.6791579723358154
-0.19379842281341553 0.25581395626068115 -0.7216338515281677
-0.19379842281341553 0.25581395626068115 0.6790432929992676
-0.19379842281341553 0.27131783962249756 -0.7171034216880798
-0.19379842281341553 0.27131783962249756 0.6796132326126099
-0.19379842281341553 0.28682172298431396 -0.712847113609314
-0.19379842281341553 0.28682172298431396 0.6802213788032532
-0.19379842281341553 0.30232560634613037 -0.7056407928466797
-0.19379842281341553 0.30232560634613037 0.6804071664810181
-0.19379842281341553 0.3178294897079468 -0.7002718448638916
-0.19379842281341553 0.3178294897079468 0.680268406867981
-0.19379842281341553 0.3333333730697632 -0.6916190385818481
-0.19379842281341553 0.3333333730697632 0.6796335577964783
-0.19379842281341553 0.3488372564315796 -0.6846030950546265
-0.19379842281341553 0.3488372564315796 0.6782200336456299
-0.19379842281341553 0.364341139793396 -0.6745844483375549
-0.19379842281341553 0.364341139793396 0.6760997176170349
-0.19379842281341553 0.37984490394592285 -0.6655192375183105
-0.19379842281341553 0.37984490394592285 0.6739183664321899
-0.19379842281341553 0.39534878730773926 -0.65594482421875
-0.19379842281341553 0.39534878730773926 0.6711870431900024
-0.19379842281341553 0.41085267066955566 -0.643928587436676
-0.19379842281341553 0.41085267066955566 0.668968141078949
-0.19379842281341553 0.42635655403137207 -0.6329026222229004
-0.19379842281341553 0.42635655403137207 0.6666581630706787
-0.19379842281341553 0.4418604373931885 -0.6220653653144836
-0.19379842281341553 0.4418604075908661 0.6647350788116455
-0.19379842281341553 0.4573643207550049 -0.610090970993042
-0.19379843771457672 0.45736435055732727 0.6635034680366516
-0.19379842281341553 0.4728682041168213 -0.5967926383018494
-0.19379842281341553 0.4728682041168213 0.662163496017456
-0.19379842281341553 0.4883720874786377 -0.5831303000450134
-0.19379842281341553 0.4883720874786377 0.6610668897628784
-0.19379842281341553 0.5038759708404541 -0.5700805187225342
-0.19379842281341553 0.5038759708404541 0.6600601077079773
-0.19379842281341553 0.5193798542022705 -0.5555124282836914
-0.19379842281341553 0.5193798542022705 0.6585172414779663
-0.19379842281341553 0.5348837375640869 -0.5388542413711548
-0.19379842281341553 0.5348837375640869 0.6571434140205383
-0.19379842281341553 0.5503876209259033 -0.5206929445266724
-0.19379842281341553 0.5503876209259033 0.6561570167541504
-0.19379842281341553 0.5658915042877197 -0.5025899410247803
-0.19379842281341553 0.5658915042877197 0.6553736925125122
-0.19379842281341553 0.5813953876495361 -0.4852197766304016
-0.19379842281341553 0.5813953876495361 0.6541085243225098
-0.19379842281341553 0.5968992710113525 -0.4684056043624878
-0.19379842281341553 0.5968992710113525 0.6529166102409363
-0.19379842281341553 0.612403154373169 -0.45216643810272217
-0.19379842281341553 0.612403154373169 0.6510648727416992
-0.19379842281341553 0.6279069185256958 -0.4356105327606201
-0.19379842281341553 0.6279069185256958 0.6489166617393494
-0.19379842281341553 0.6434108018875122 -0.41858577728271484
-0.19379840791225433 0.6434108018875122 0.6458745002746582
-0.19379842281341553 0.6589146852493286 -0.39889752864837646
-0.19379842281341553 0.6589146852493286 0.6419597268104553
-0.19379842281341553 0.674418568611145 -0.3793219029903412
-0.19379842281341553 0.674418568611145 0.6386115550994873
-0.19379842281341553 0.6899224519729614 -0.36191627383232117
-0.19379842281341553 0.6899224519729614 0.6345062255859375
-0.19379842281341553 0.7054263353347778 -0.339695006608963
-0.19379842281341553 0.7054262757301331 0.6283108592033386
-0.19379842281341553 0.7209302186965942 -0.3162228465080261
-0.19379842281341553 0.7209302186965942 0.6223468780517578
-0.19379842281341553 0.7364341020584106 -0.2910936772823334
-0.19379842281341553 0.7364341020584106 0.6159892678260803
-0.19379842281341553 0.751937985420227 -0.26550719141960144
-0.19379842281341553 0.751937985420227 0.6066616773605347
-0.19379842281341553 0.7674418687820435 -0.23747441172599792
-0.19379842281341553 0.7674418687820435 0.5955051779747009
-0.19379840791225433 0.7829457521438599 -0.20839598774909973
-0.19379842281341553 0.7829457521438599 0.5836473107337952
-0.19379842281341553 0.7984496355056763 -0.1816035658121109
-0.19379842281341553 0.7984496355056763 0.5652483105659485
-0.19379842281341553 0.8139535784721375 -0.14701972901821136
-0.19379842281341553 0.8139535188674927 0.2646613121032715
-0.19379842281341553 0.8139535188674927 0.3516441583633423
-0.19379842281341553 0.8139535188674927 0.537473201751709
-0.19379842281341553 0.8294574022293091 -0.10578867793083191
-0.19379842281341553 0.8294574022293091 0.16951121389865875
-0.19379842281341553 0.8294574022293091 0.4085126519203186
-0.19379842281341553 0.8294574022293091 0.4728814661502838
-0.19379842281341553 0.8449612855911255 -0.03131191059947014
-0.19379842281341553 0.8449612855911255 0.10293354094028473
-0.1782945990562439 -0.9069767594337463 -0.33719366788864136
-0.1782946139574051 -0.9069767594337463 -0.2710181176662445
-0.1782945990562439 -0.9069766998291016 0.4267275035381317
-0.1782945990562439 -0.9069767594337463 0.48417049646377563
-0.1782945990562439 -0.8914728760719299 -0.3526668846607208
-0.1782945990562439 -0.8914728760719299 -0.25949743390083313
-0.1782945990562439 -0.8914728760719299 0.3995688557624817
-0.1782945990562439 -0.8914728164672852 0.510611355304718
-0.1782945990562439 -0.8759689927101135 -0.3608573377132416
-0.1782945990562439 -0.8759689927101135 -0.2427481859922409
-0.1782945990562439 -0.8759690523147583 -0.23341260850429535
-0.1782945990562439 -0.8759689927101135 -0.19791683554649353
-0.1782945990562439 -0.8759690523147583 0.38154029846191406
-0.1782945990562439 -0.8759690523147583 0.5251305103302002
-0.1782945990562439 -0.8604651093482971 -0.36746281385421753
-0.1782945990562439 -0.8604651093482971 -0.18007326126098633
-0.1782945990562439 -0.8604650497436523 0.369398295879364
-0.1782945990562439 -0.8604651093482971 0.5349832773208618
-0.1782945990562439 -0.8449612259864807 -0.3724704384803772
-0.1782945990562439 -0.8449612259864807 -0.1694672703742981
-0.1782945990562439 -0.8449612855911255 0.36048561334609985
-0.1782945990562439 -0.8449612259864807 0.5427497029304504
-0.1782945990562439 -0.8294574022293091 -0.3752632737159729
-0.1782945990562439 -0.8294573426246643 -0.16036714613437653
-0.1782945990562439 -0.8294573426246643 0.3561900854110718
-0.1782945990562439 -0.8294573426246643 0.5466563701629639
-0.1782945990562439 -0.8139534592628479 -0.37587714195251465
-0.1782945990562439 -0.8139535188674927 -0.15462294220924377
-0.1782945990562439 -0.8139535188674927 0.3553978204727173
-0.1782945990562439 -0.8139535188674927 0.5466772317886353
-0.1782945990562439 -0.7984496355056763 -0.37391161918640137
-0.1782945990562439 -0.7984496355056763 -0.14962443709373474
-0.1782945990562439 -0.7984496355056763 0.35807886719703674
-0.1782945990562439 -0.7984496355056763 0.545033872127533
-0.1782945990562439 -0.7829457521438599 -0.3696741461753845
-0.1782945990562439 -0.7829457521438599 -0.25397276878356934
-0.1782945990562439 -0.7829457521438599 -0.2372814416885376
-0.1782945990562439 -0.7829457521438599 -0.14542947709560394
-0.1782945990562439 -0.7829457521438599 0.36325618624687195
-0.1782945990562439 -0.7829457521438599 0.5413995981216431
-0.1782945990562439 -0.7674418687820435 -0.3650987446308136
-0.1782945990562439 -0.7674418687820435 -0.25958776473999023
-0.1782945990562439 -0.7674418687820435 -0.23355844616889954
-0.1782945990562439 -0.7674418687820435 -0.14374253153800964
-0.1782945990562439 -0.7674418687820435 0.3721134662628174
-0.1782945990562439 -0.7674418687820435 0.5351310968399048
-0.1782945990562439 -0.751937985420227 -0.362171471118927
-0.1782945990562439 -0.751937985420227 -0.2643664479255676
-0.1782945990562439 -0.751937985420227 -0.23314721882343292
-0.1782945990562439 -0.751937985420227 -0.14320214092731476
-0.1782945990562439 -0.751937985420227 0.38050171732902527
-0.1782945990562439 -0.751937985420227 0.531332790851593
-0.1782945990562439 -0.7364341020584106 -0.35975855588912964
-0.1782946139574051 -0.7364341616630554 -0.2686271071434021
-0.1782945990562439 -0.7364341020584106 -0.23426233232021332
-0.1782945990562439 -0.7364341020584106 -0.14331960678100586
-0.1782945990562439 -0.7364341020584106 0.39101481437683105
-0.1782945990562439 -0.7364341020584106 0.5273676514625549
-0.1782945990562439 -0.7209302186965942 -0.3586684763431549
-0.1782945990562439 -0.7209302186965942 -0.2691740393638611
-0.1782945990562439 -0.7209302186965942 -0.23671463131904602
-0.1782946139574051 -0.720930278301239 -0.14354264736175537
-0.1782945990562439 -0.7209302186965942 0.40291163325309753
-0.1782945990562439 -0.7209302186965942 0.5227218270301819
-0.1782945990562439 -0.7054263353347778 -0.3571571111679077
-0.1782945990562439 -0.7054263353347778 -0.26508113741874695
-0.1782945990562439 -0.7054263353347778 -0.24091656506061554
-0.1782946139574051 -0.7054263353347778 -0.14419443905353546
-0.1782945990562439 -0.7054263353347778 0.4159685969352722
-0.1782945990562439 -0.7054263353347778 0.5178378820419312
-0.1782945990562439 -0.6899224519729614 -0.3556305766105652
-0.1782945990562439 -0.6899224519729614 -0.2584410309791565
-0.1782945990562439 -0.6899224519729614 -0.25202736258506775
-0.1782945990562439 -0.6899223923683167 -0.1447616070508957
-0.1782945990562439 -0.6899224519729614 0.4316639304161072
-0.1782945990562439 -0.6899224519729614 0.5128650069236755
-0.1782945990562439 -0.674418568611145 -0.35360753536224365
-0.1782945990562439 -0.674418568611145 -0.14381524920463562
-0.1782945990562439 -0.674418568611145 0.4484960436820984
-0.1782945990562439 -0.674418568611145 0.5046440958976746
-0.1782945990562439 -0.6589146852493286 -0.3533543646335602
-0.1782945990562439 -0.6589146852493286 -0.1428799331188202
-0.1782945990562439 -0.643410861492157 -0.35440272092819214
-0.1782945990562439 -0.643410861492157 -0.14294254779815674
-0.1782945990562439 -0.6279069781303406 -0.3543432354927063
-0.1782945990562439 -0.6279069781303406 -0.14403975009918213
-0.1782945990562439 -0.6124030947685242 -0.35263895988464355
-0.1782945990562439 -0.6124030947685242 -0.1434020847082138
-0.1782945990562439 -0.5968992114067078 -0.3488578498363495
-0.1782945990562439 -0.5968992114067078 -0.14288847148418427
-0.1782945990562439 -0.5813953876495361 -0.33819007873535156
-0.1782945990562439 -0.5813953876495361 -0.3043885827064514
-0.1782945990562439 -0.5813953876495361 -0.2678939998149872
-0.1782945990562439 -0.5813953876495361 -0.14197058975696564
-0.1782945990562439 -0.5658915042877197 -0.2586059272289276
-0.1782945990562439 -0.5658915042877197 -0.13871154189109802
-0.1782945990562439 -0.5503876209259033 -0.25613558292388916
-0.1782945990562439 -0.5503876209259033 -0.13079895079135895
-0.1782945990562439 -0.5348837375640869 -0.2558380663394928
-0.1782945990562439 -0.5348837375640869 -0.12519118189811707
-0.1782945990562439 -0.5348837375640869 0.5112850069999695
-0.1782945990562439 -0.5348837375640869 0.5253931283950806
-0.1782945990562439 -0.5193798542022705 -0.25473737716674805
-0.1782945990562439 -0.5193798542022705 -0.11580681800842285
-0.1782945990562439 -0.5193798542022705 0.4666914939880371
-0.1782945990562439 -0.5193798542022705 0.561468780040741
-0.1782945990562439 -0.5038759708404541 -0.24722233414649963
-0.1782945990562439 -0.5038759708404541 -0.10384304076433182
-0.1782945990562439 -0.5038759708404541 0.4457656145095825
-0.1782945990562439 -0.5038759708404541 0.5782421231269836
-0.1782945990562439 -0.4883720874786377 -0.23730769753456116
-0.1782945990562439 -0.4883720874786377 -0.08179450035095215
-0.1782945990562439 -0.4883720874786377 0.42825984954833984
-0.1782945990562439 -0.4883720874786377 0.5908438563346863
-0.1782945990562439 -0.4728682041168213 -0.23077480494976044
-0.1782945990562439 -0.4728682041168213 0.026725156232714653
-0.1782945990562439 -0.4728681743144989 0.41166388988494873
-0.1782945990562439 -0.4728682339191437 0.5999407172203064
-0.1782945990562439 -0.4573643207550049 -0.22838932275772095
-0.1782945990562439 -0.4573643207550049 0.06757168471813202
-0.1782945841550827 -0.4573643207550049 0.39579421281814575
-0.1782945990562439 -0.4573643207550049 0.6058886647224426
-0.1782945990562439 -0.4418604373931885 -0.23106765747070312
-0.1782945990562439 -0.4418604373931885 0.09806352853775024
-0.1782946139574051 -0.4418604373931885 0.3812812566757202
-0.1782945990562439 -0.4418604373931885 0.6125226616859436
-0.1782945990562439 -0.42635664343833923 -0.23613205552101135
-0.1782945990562439 -0.42635661363601685 0.1345340758562088
-0.1782945990562439 -0.42635661363601685 0.36557501554489136
-0.1782945990562439 -0.42635661363601685 0.6181446313858032
-0.1782945990562439 -0.41085273027420044 -0.24140439927577972
-0.1782945990562439 -0.41085273027420044 0.17613404989242554
-0.1782945990562439 -0.41085273027420044 0.3474770188331604
-0.1782945990562439 -0.41085273027420044 0.6241505742073059
-0.1782945990562439 -0.39534884691238403 -0.24819126725196838
-0.1782945990562439 -0.39534884691238403 0.2308567613363266
-0.1782945990562439 -0.39534884691238403 0.3239089250564575
-0.1782945990562439 -0.39534884691238403 0.6288318634033203
-0.1782945990562439 -0.3798449635505676 -0.25425779819488525
-0.1782945990562439 -0.3798449635505676 0.6328834295272827
-0.1782945990562439 -0.3643410801887512 -0.2577429711818695
-0.1782945990562439 -0.3643410801887512 0.6369488835334778
-0.1782945990562439 -0.3488371968269348 -0.26166510581970215
-0.1782945990562439 -0.3488371968269348 0.640959620475769
-0.1782945990562439 -0.3333333134651184 -0.2671326994895935
-0.1782945990562439 -0.3333333134651184 0.6443562507629395
-0.1782945990562439 -0.317829430103302 -0.27330508828163147
-0.1782945990562439 -0.317829430103302 0.6481137275695801
-0.1782945990562439 -0.30232560634613037 -0.28081488609313965
-0.1782945990562439 -0.30232560634613037 0.6527599096298218
-0.1782945990562439 -0.28682172298431396 -0.28952351212501526
-0.1782945990562439 -0.28682172298431396 0.6570920944213867
-0.1782945990562439 -0.27131783962249756 -0.2972777485847473
-0.1782945990562439 -0.27131783962249756 0.6599215269088745
-0.1782945990562439 -0.25581395626068115 -0.30445048213005066
-0.1782945990562439 -0.25581395626068115 0.6620455980300903
-0.1782945990562439 -0.24031007289886475 -0.30993127822875977
-0.1782945990562439 -0.24031008780002594 0.6646713018417358
-0.1782945990562439 -0.22480618953704834 -0.31410297751426697
-0.1782945990562439 -0.22480618953704834 0.6672694087028503
-0.1782946139574051 -0.20930230617523193 -0.31727150082588196
-0.1782945990562439 -0.20930230617523193 0.6690565347671509
-0.1782945990562439 -0.19379842281341553 -0.3196251094341278
-0.1782945990562439 -0.19379842281341553 0.6701555252075195
-0.1782945990562439 -0.1782945990562439 -0.32306715846061707
-0.1782945990562439 -0.1782945990562439 0.6705476641654968
-0.1782945990562439 -0.1627907156944275 -0.3280628025531769
-0.1782945990562439 -0.1627907156944275 0.6709960103034973
-0.1782945990562439 -0.14728683233261108 -0.33520570397377014
-0.1782945990562439 -0.14728683233261108 0.6719053387641907
-0.1782945990562439 -0.13178294897079468 -0.3431057035923004
-0.1782945990562439 -0.13178294897079468 0.6730939149856567
-0.1782945990562439 -0.11627906560897827 -0.3515535593032837
-0.1782945990562439 -0.11627906560897827 0.6746194958686829
-0.1782945990562439 -0.10077518224716187 -0.35930749773979187
-0.1782946139574051 -0.10077518224716187 0.6760041117668152
-0.1782945990562439 -0.08527129888534546 -0.3686489760875702
-0.1782945990562439 -0.08527129888534546 0.6774299144744873
-0.1782945990562439 -0.06976741552352905 -0.3806275427341461
-0.1782945990562439 -0.06976741552352905 0.6785487532615662
-0.1782945990562439 -0.05426359176635742 -0.3893345594406128
-0.1782945990562439 -0.05426359176635742 0.6794106364250183
-0.1782945990562439 -0.038759708404541016 -0.40031009912490845
-0.1782945990562439 -0.038759708404541016 0.6798566579818726
-0.1782945990562439 -0.02325582504272461 -0.41771063208580017
-0.1782945990562439 -0.02325582504272461 0.6801248788833618
-0.1782945990562439 -0.007751941680908203 -0.4461410343647003
-0.1782945990562439 -0.007751941680908203 0.1876453161239624
-0.1782946139574051 -0.007751941680908203 0.21063196659088135
-0.1782945990562439 -0.007751941680908203 0.6801120042800903
-0.1782945990562439 0.007751941680908203 -0.47613248229026794
-0.1782945990562439 0.00775194214656949 0.16871784627437592
-0.1782945990562439 0.007751941680908203 0.23462873697280884
-0.1782945990562439 0.007751941680908203 0.6795377731323242
-0.1782945990562439 0.02325582504272461 -0.5035331845283508
-0.1782945990562439 0.02325582504272461 0.1643631011247635
-0.1782945841550827 0.02325582318007946 0.2428397238254547
-0.1782945990562439 0.02325582504272461 0.6797968745231628
-0.1782946139574051 0.038759708404541016 -0.5180191397666931
-0.1782945990562439 0.038759708404541016 0.16460773348808289
-0.1782945990562439 0.03875970467925072 0.24301397800445557
-0.1782945990562439 0.038759708404541016 0.6801759004592896
-0.1782945990562439 0.05426359176635742 -0.5349138379096985
-0.1782945990562439 0.05426359176635742 0.16919130086898804
-0.1782945990562439 0.05426359176635742 0.23653259873390198
-0.1782945990562439 0.05426359176635742 0.6822175979614258
-0.1782945990562439 0.06976747512817383 -0.5508990287780762
-0.1782946139574051 0.06976748257875443 0.1797369420528412
-0.1782945990562439 0.06976747512817383 0.2220490723848343
-0.1782945990562439 0.06976747512817383 0.684156060218811
-0.1782945990562439 0.08527135848999023 -0.5591739416122437
-0.1782945990562439 0.08527135848999023 0.6864792704582214
-0.1782945990562439 0.10077524185180664 -0.5670210123062134
-0.1782945990562439 0.10077524185180664 0.6882404685020447
-0.1782945990562439 0.11627912521362305 -0.5702564716339111
-0.1782945990562439 0.11627912521362305 0.6892666220664978
-0.1782945990562439 0.1317828893661499 -0.5697522163391113
-0.1782945990562439 0.1317828893661499 0.6899517774581909
-0.1782945990562439 0.1472867727279663 -0.7109119296073914
-0.1782945990562439 0.1472867727279663 -0.6651370525360107
-0.1782945990562439 0.1472867727279663 -0.5661299228668213
-0.1782945990562439 0.1472867727279663 0.6903378963470459
-0.1782945990562439 0.16279065608978271 -0.722444474697113
-0.1782945990562439 0.16279065608978271 -0.6518137454986572
-0.1782945990562439 0.16279065608978271 -0.5609185695648193
-0.1782945990562439 0.16279065608978271 0.6905310153961182
-0.1782945990562439 0.17829453945159912 -0.7247977256774902
-0.1782945990562439 0.17829453945159912 -0.6462878584861755
-0.1782945990562439 0.17829453945159912 -0.5615613460540771
-0.1782945990562439 0.17829453945159912 0.69032883644104
-0.1782945990562439 0.19379842281341553 -0.7217375636100769
-0.1782945990562439 0.19379842281341553 -0.6418847441673279
-0.1782945990562439 0.19379842281341553 -0.5685936212539673
-0.1782945990562439 0.19379842281341553 0.6899549961090088
-0.1782945990562439 0.20930230617523193 -0.7158023118972778
-0.1782945990562439 0.20930230617523193 -0.6299730539321899
-0.1782945990562439 0.20930230617523193 -0.5842017531394958
-0.1782945990562439 0.20930230617523193 0.68943852186203
-0.1782945990562439 0.22480618953704834 -0.7112812995910645
-0.1782945990562439 0.22480618953704834 0.6892045140266418
-0.1782945990562439 0.24031007289886475 -0.7078967094421387
-0.1782945990562439 0.24031007289886475 0.6892139911651611
-0.1782945990562439 0.25581395626068115 -0.7045722007751465
-0.1782945990562439 0.25581395626068115 0.6894890069961548
-0.1782945990562439 0.27131783962249756 -0.7006492614746094
-0.1782945990562439 0.27131786942481995 0.6901369690895081
-0.1782945990562439 0.28682172298431396 -0.6971932649612427
-0.1782945990562439 0.28682172298431396 0.6906726956367493
-0.1782945990562439 0.30232560634613037 -0.6926702260971069
-0.1782945990562439 0.30232560634613037 0.6911003589630127
-0.1782945990562439 0.3178294897079468 -0.6863716244697571
-0.1782945990562439 0.3178294897079468 0.6912513971328735
-0.1782945990562439 0.3333333730697632 -0.6797782182693481
-0.1782945990562439 0.3333333730697632 0.6910775303840637
-0.1782945990562439 0.3488372564315796 -0.6717769503593445
-0.1782945990562439 0.3488372564315796 0.6904929876327515
-0.1782945990562439 0.364341139793396 -0.6637749671936035
-0.1782945990562439 0.364341139793396 0.6893215775489807
-0.1782945990562439 0.37984487414360046 -0.655017077922821
-0.1782945990562439 0.37984490394592285 0.6876767873764038
-0.1782945990562439 0.39534878730773926 -0.6454931497573853
-0.1782945990562439 0.39534878730773926 0.6855402588844299
-0.1782945990562439 0.41085267066955566 -0.6372547149658203
-0.1782945990562439 0.41085267066955566 0.6835594773292542
-0.1782945990562439 0.42635655403137207 -0.6258268356323242
-0.1782945990562439 0.42635655403137207 0.6814578175544739
-0.1782945990562439 0.4418604373931885 -0.6148107051849365
-0.1782945990562439 0.4418604373931885 0.6795986890792847
-0.1782945990562439 0.4573643207550049 -0.6050899624824524
-0.1782945990562439 0.4573643207550049 0.6782501339912415
-0.1782945990562439 0.4728682041168213 -0.5934774875640869
-0.1782945990562439 0.4728682041168213 0.6767701506614685
-0.1782945990562439 0.4883721172809601 -0.5804604291915894
-0.1782945990562439 0.4883720874786377 0.6757147908210754
-0.1782945990562439 0.5038759708404541 -0.5683470964431763
-0.1782945841550827 0.5038759708404541 0.6748669147491455
-0.1782945990562439 0.5193798542022705 -0.5558376312255859
-0.1782945990562439 0.5193798542022705 0.6734388470649719
-0.1782945990562439 0.5348837375640869 -0.5416166186332703
-0.1782945990562439 0.5348837375640869 0.6723887920379639
-0.1782945990562439 0.5503876209259033 -0.5260578393936157
-0.1782945990562439 0.5503876209259033 0.6719332933425903
-0.1782945990562439 0.5658915042877197 -0.5087946653366089
-0.1782945990562439 0.5658915042877197 0.6716998219490051
-0.1782945990562439 0.5813953876495361 -0.49088650941848755
-0.1782945990562439 0.5813953876495361 0.6710535287857056
-0.1782945990562439 0.5968992710113525 -0.4738101065158844
-0.1782945990562439 0.5968992710113525 0.6707432270050049
-0.1782945990562439 0.612403154373169 -0.4584972560405731
-0.1782945990562439 0.612403154373169 0.6697062849998474
-0.1782945990562439 0.6279069185256958 -0.44222205877304077
-0.1782945990562439 0.6279069185256958 0.6683471202850342
-0.1782945990562439 0.6434108018875122 -0.4267226755619049
-0.1782945990562439 0.6434108018875122 0.6664450168609619
-0.1782945990562439 0.6589146852493286 -0.4104834496974945
-0.1782945990562439 0.6589146852493286 0.6633747816085815
-0.1782945841550827 0.674418568611145 -0.3942945897579193
-0.1782945990562439 0.6744185090065002 0.659796416759491
-0.1782945990562439 0.6899224519729614 -0.3774375021457672
-0.1782945990562439 0.6899224519729614 0.6558687686920166
-0.1782945990562439 0.7054263353347778 -0.35801947116851807
-0.1782945990562439 0.7054263353347778 0.6518647074699402
-0.1782945990562439 0.7209302186965942 -0.3326771557331085
-0.1782945990562439 0.7209302186965942 0.6464872360229492
-0.1782945990562439 0.7364341020584106 -0.31313851475715637
-0.1782945990562439 0.7364341020584106 0.6405040621757507
-0.1782945990562439 0.751937985420227 -0.2852914035320282
-0.1782945990562439 0.751937985420227 0.6348001956939697
-0.1782945990562439 0.7674418687820435 -0.25644758343696594
-0.1782945990562439 0.7674418687820435 0.6256022453308105
-0.1782945990562439 0.7829457521438599 -0.23153099417686462
-0.1782945990562439 0.7829457521438599 0.6175082325935364
-0.1782945990562439 0.7984496355056763 -0.20381560921669006
-0.1782945990562439 0.7984496355056763 0.6063840985298157
-0.1782945990562439 0.8139535188674927 -0.17073950171470642
-0.1782945990562439 0.8139535188674927 0.5926278233528137
-0.1782945990562439 0.8294574022293091 -0.13173604011535645
-0.1782945990562439 0.8294574022293091 0.24628056585788727
-0.1782945990562439 0.8294574022293091 0.33550846576690674
-0.1782945990562439 0.8294574022293091 0.5729944705963135
-0.1782945990562439 0.8449612855911255 -0.07996620237827301
-0.1782945990562439 0.8449612855911255 0.14077506959438324
-0.1782945990562439 0.8449612855911255 0.3831555247306824
-0.1782945990562439 0.8449612855911255 0.5331029891967773
-0.1627907156944275 -0.922480583190918 -0.35890519618988037
-0.1627907156944275 -0.922480583190918 -0.2677117586135864
-0.1627907156944275 -0.9069768190383911 -0.37520936131477356
-0.1627907156944275 -0.9069767594337463 -0.21270552277565002
-0.1627907156944275 -0.9069767594337463 0.41903218626976013
-0.1627907156944275 -0.9069767594337463 0.5031815767288208
-0.1627907156944275 -0.8914728760719299 -0.38417336344718933
-0.1627907156944275 -0.8914729356765747 -0.18663755059242249
-0.1627907156944275 -0.8914728760719299 0.3947696387767792
-0.1627907156944275 -0.8914728760719299 0.5260569453239441
-0.1627907156944275 -0.8759690523147583 -0.38918086886405945
-0.1627907156944275 -0.8759689331054688 -0.17068827152252197
-0.1627907156944275 -0.8759689927101135 0.3784399628639221
-0.1627907156944275 -0.8759689927101135 0.5398458242416382
-0.1627907156944275 -0.8604651093482971 -0.39385929703712463
-0.1627907156944275 -0.8604651093482971 -0.15865319967269897
-0.1627907156944275 -0.8604651093482971 0.36598366498947144
-0.1627907156944275 -0.8604651093482971 0.5501388907432556
-0.1627907156944275 -0.8449612259864807 -0.397464394569397
-0.1627907156944275 -0.8449612259864807 -0.15018092095851898
-0.1627907156944275 -0.8449612259864807 0.3581053614616394
-0.1627907156944275 -0.8449612259864807 0.559258222579956
-0.1627907156944275 -0.8294572830200195 -0.4007302522659302
-0.1627907156944275 -0.8294574022293091 -0.14221468567848206
-0.1627907156944275 -0.8294573426246643 0.35344016551971436
-0.1627907156944275 -0.8294572830200195 0.5640546679496765
-0.1627907156944275 -0.8139535188674927 -0.4044002294540405
-0.1627907156944275 -0.8139535188674927 -0.1368752270936966
-0.1627907156944275 -0.8139535784721375 0.3528004288673401
-0.1627907156944275 -0.8139535188674927 0.5653095841407776
-0.1627907156944275 -0.7984495759010315 -0.40813153982162476
-0.1627907156944275 -0.7984496355056763 -0.13236886262893677
-0.1627907156944275 -0.7984496355056763 0.3557577431201935
-0.1627907156944275 -0.7984496355056763 0.564969539642334
-0.1627907156944275 -0.7829456925392151 -0.4106651842594147
-0.1627907156944275 -0.7829457521438599 -0.1289644092321396
-0.1627907156944275 -0.7829457521438599 0.3610779345035553
-0.1627907156944275 -0.7829457521438599 0.5630422234535217
-0.1627907156944275 -0.7674418687820435 -0.4119577407836914
-0.1627907156944275 -0.7674418687820435 -0.12653952836990356
-0.1627907156944275 -0.7674418687820435 0.3694784939289093
-0.1627907156944275 -0.7674418687820435 0.5605323314666748
-0.1627907156944275 -0.751937985420227 -0.4119895398616791
-0.1627907156944275 -0.751937985420227 -0.124748095870018
-0.1627907156944275 -0.751937985420227 0.37720417976379395
-0.1627907156944275 -0.751937985420227 0.5600286722183228
-0.1627907156944275 -0.7364341020584106 -0.40897059440612793
-0.1627907156944275 -0.7364341020584106 -0.12311875075101852
-0.1627907156944275 -0.7364341020584106 0.38693684339523315
-0.1627907156944275 -0.7364341020584106 0.560379147529602
-0.1627907156944275 -0.7209302186965942 -0.40408462285995483
-0.1627907156944275 -0.7209302186965942 -0.12128645181655884
-0.1627907156944275 -0.7209302186965942 0.3953460156917572
-0.1627907156944275 -0.7209302186965942 0.5617907643318176
-0.1627907156944275 -0.7054263353347778 -0.39894261956214905
-0.1627907156944275 -0.7054263353347778 -0.1197412833571434
-0.1627907156944275 -0.7054263353347778 0.405254065990448
-0.1627907156944275 -0.7054263353347778 0.5635647773742676
-0.1627907156944275 -0.6899224519729614 -0.3951576054096222
-0.1627907156944275 -0.6899224519729614 -0.1184103712439537
-0.1627907156944275 -0.6899224519729614 0.41574734449386597
-0.1627907156944275 -0.6899224519729614 0.5653931498527527
-0.1627907156944275 -0.674418568611145 -0.3935781717300415
-0.1627907156944275 -0.674418568611145 -0.11659373342990875
-0.1627907156944275 -0.674418568611145 0.42461681365966797
-0.1627907156944275 -0.674418568611145 0.567192554473877
-0.1627907007932663 -0.6589146256446838 -0.3942205011844635
-0.1627907156944275 -0.6589146852493286 -0.1157192811369896
-0.1627907156944275 -0.6589146852493286 0.4351038932800293
-0.1627907156944275 -0.6589147448539734 0.5665265917778015
-0.1627907156944275 -0.6434109210968018 -0.3949856758117676
-0.1627907156944275 -0.6434109210968018 -0.11580359190702438
-0.1627907156944275 -0.643410861492157 0.4453968405723572
-0.1627907156944275 -0.643410861492157 0.5646898150444031
-0.1627907156944275 -0.6279069781303406 -0.3946337103843689
-0.1627907156944275 -0.6279069781303406 -0.11679169535636902
-0.1627907156944275 -0.6279070377349854 0.4552645683288574
-0.1627907156944275 -0.6279069781303406 0.5609925985336304
-0.1627907156944275 -0.612403154373169 -0.39323151111602783
-0.1627907156944275 -0.6124030947685242 -0.11659135669469833
-0.1627907156944275 -0.6124030947685242 0.4653419256210327
-0.1627907156944275 -0.6124030947685242 0.5565738677978516
-0.1627907156944275 -0.5968992710113525 -0.390608012676239
-0.1627907156944275 -0.5968992114067078 -0.11662863940000534
-0.1627907156944275 -0.5968992114067078 0.4702242612838745
-0.1627907156944275 -0.5968992114067078 0.5540418028831482
-0.1627907156944275 -0.5813953876495361 -0.38680797815322876
-0.1627907156944275 -0.5813953876495361 -0.11593206971883774
-0.1627907156944275 -0.5813953876495361 0.47245392203330994
-0.1627907156944275 -0.5813953876495361 0.5537226796150208
-0.1627907156944275 -0.5658915042877197 -0.38380900025367737
-0.1627907156944275 -0.5658915042877197 -0.113218292593956
-0.1627907156944275 -0.5658915042877197 0.46977391839027405
-0.1627907156944275 -0.5658915042877197 0.5580918788909912
-0.1627907156944275 -0.5503876209259033 -0.3828793466091156
-0.1627907156944275 -0.5503876209259033 -0.10767647624015808
-0.1627907156944275 -0.5503876209259033 0.45926111936569214
-0.1627907156944275 -0.5503876209259033 0.5698258876800537
-0.1627907156944275 -0.5348836779594421 -0.3798164129257202
-0.1627907156944275 -0.5348837375640869 -0.0997191071510315
-0.1627907156944275 -0.5348837375640869 0.4489826560020447
-0.1627907156944275 -0.5348837375640869 0.5831894874572754
-0.1627907156944275 -0.5193798542022705 -0.3745063543319702
-0.1627907156944275 -0.5193798542022705 -0.08895707130432129
-0.1627907156944275 -0.5193798542022705 0.437044620513916
-0.1627907156944275 -0.5193798542022705 0.5943148136138916
-0.1627907156944275 -0.5038759708404541 -0.3653005063533783
-0.1627907156944275 -0.5038759708404541 -0.06274958699941635
-0.1627907156944275 -0.5038759708404541 0.42407146096229553
-0.1627907156944275 -0.5038759708404541 0.6049669981002808
-0.1627907156944275 -0.4883720874786377 -0.33724692463874817
-0.16279073059558868 -0.4883720874786377 0.056439608335494995
-0.1627907156944275 -0.4883720874786377 0.4101875126361847
-0.1627907156944275 -0.4883720874786377 0.6154885292053223
-0.1627907156944275 -0.4728682041168213 -0.2727090120315552
-0.1627907156944275 -0.4728681743144989 0.08535627275705338
-0.1627907156944275 -0.4728682041168213 0.39548933506011963
-0.1627907156944275 -0.4728682041168213 0.621160626411438
-0.1627907156944275 -0.4573643207550049 -0.2636592984199524
-0.1627907156944275 -0.4573643207550049 0.10892204195261002
-0.1627907156944275 -0.45736435055732727 0.3806697428226471
-0.1627907156944275 -0.4573643207550049 0.62629634141922
-0.1627907156944275 -0.4418604373931885 -0.26365962624549866
-0.1627907156944275 -0.4418604075908661 0.13536140322685242
-0.1627907156944275 -0.4418604373931885 0.3645206093788147
-0.1627907156944275 -0.4418604373931885 0.6314250230789185
-0.1627907156944275 -0.42635661363601685 -0.26615095138549805
-0.1627907156944275 -0.42635661363601685 0.17204415798187256
-0.1627907156944275 -0.42635661363601685 0.34310853481292725
-0.1627907156944275 -0.42635661363601685 0.6357051134109497
-0.1627907156944275 -0.4108527600765228 -0.26902371644973755
-0.1627907156944275 -0.41085273027420044 0.23635010421276093
-0.1627907156944275 -0.41085273027420044 0.3112589120864868
-0.1627907156944275 -0.41085273027420044 0.6405912637710571
-0.1627907156944275 -0.39534884691238403 -0.27208349108695984
-0.16279073059558868 -0.3953488767147064 0.6440979838371277
-0.1627907156944275 -0.3798449635505676 -0.27424684166908264
-0.1627907156944275 -0.3798449635505676 0.646530270576477
-0.1627907156944275 -0.3643410801887512 -0.2758370637893677
-0.1627907156944275 -0.3643410801887512 0.6489993333816528
-0.1627907156944275 -0.3488371968269348 -0.27870941162109375
-0.1627907156944275 -0.3488371968269348 0.6517456769943237
-0.1627907156944275 -0.3333333134651184 -0.2833594083786011
-0.1627907156944275 -0.3333333134651184 0.6554944515228271
-0.1627907156944275 -0.317829430103302 -0.2892400026321411
-0.1627907156944275 -0.317829430103302 0.658991277217865
-0.1627907156944275 -0.30232560634613037 -0.2963166832923889
-0.1627907156944275 -0.30232560634613037 0.6612062454223633
-0.1627907156944275 -0.28682172298431396 -0.3042035698890686
-0.1627907156944275 -0.28682172298431396 0.6644951105117798
-0.1627907156944275 -0.27131783962249756 -0.3116637170314789
-0.1627907156944275 -0.27131783962249756 0.668108344078064
-0.1627907156944275 -0.25581395626068115 -0.3186928331851959
-0.1627907156944275 -0.25581395626068115 0.6705236434936523
-0.1627907156944275 -0.24031007289886475 -0.32439476251602173
-0.1627907156944275 -0.24031007289886475 0.672283947467804
-0.1627907156944275 -0.22480618953704834 -0.3290160298347473
-0.1627907156944275 -0.22480618953704834 0.6735430955886841
-0.1627907156944275 -0.20930230617523193 -0.3330754339694977
-0.1627907156944275 -0.20930230617523193 0.674344003200531
-0.1627907156944275 -0.19379842281341553 -0.33588752150535583
-0.1627907156944275 -0.19379842281341553 0.6746534705162048
-0.1627907156944275 -0.1782945990562439 -0.3392758369445801
-0.1627907156944275 -0.1782945990562439 0.6746485829353333
-0.1627907156944275 -0.1627907156944275 -0.3435584008693695
-0.1627907156944275 -0.1627907156944275 0.674741804599762
-0.1627907156944275 -0.14728683233261108 -0.34955456852912903
-0.1627907156944275 -0.14728683233261108 0.675202488899231
-0.1627907156944275 -0.13178294897079468 -0.35497742891311646
-0.1627907156944275 -0.13178294897079468 0.6761866807937622
-0.1627907156944275 -0.11627906560897827 -0.36078813672065735
-0.1627907156944275 -0.11627906560897827 0.6778914928436279
-0.1627907156944275 -0.10077518224716187 -0.36709243059158325
-0.1627907156944275 -0.10077518224716187 0.6802071332931519
-0.1627907156944275 -0.08527129888534546 -0.3740161061286926
-0.1627907156944275 -0.08527129888534546 0.6823296546936035
-0.1627907156944275 -0.06976741552352905 -0.3831682801246643
-0.1627907156944275 -0.06976741552352905 0.6837142109870911
-0.1627907156944275 -0.05426359176635742 -0.39100492000579834
-0.1627907156944275 -0.05426359176635742 0.684641420841217
-0.1627907156944275 -0.038759708404541016 -0.3984852433204651
-0.1627907156944275 -0.038759708404541016 0.6851569414138794
-0.1627907156944275 -0.02325582504272461 -0.4081594944000244
-0.1627907156944275 -0.02325582504272461 0.18932609260082245
-0.1627907156944275 -0.02325582504272461 0.20263132452964783
-0.1627907156944275 -0.02325582504272461 0.6855683326721191
-0.1627907156944275 -0.007751941680908203 -0.4235948920249939
-0.1627907156944275 -0.007751941215246916 0.16637027263641357
-0.1627907156944275 -0.007751941215246916 0.23155900835990906
-0.1627907156944275 -0.007751941680908203 0.6857393980026245
-0.1627907156944275 0.007751941680908203 -0.4403468370437622
-0.1627907156944275 0.007751941680908203 0.15557631850242615
-0.1627907156944275 0.007751941680908203 0.2483055740594864
-0.1627907156944275 0.007751941680908203 0.6855205297470093
-0.1627907156944275 0.02325582504272461 -0.4589485824108124
-0.1627907156944275 0.02325582318007946 0.15217487514019012
-0.1627907156944275 0.02325582504272461 0.2553415894508362
-0.1627907156944275 0.02325582504272461 0.685949981212616
-0.1627907156944275 0.038759708404541016 -0.4671635925769806
-0.1627907156944275 0.038759708404541016 0.15243732929229736
-0.1627907156944275 0.03875970467925072 0.25705403089523315
-0.1627907156944275 0.038759708404541016 0.6865829825401306
-0.1627907156944275 0.05426359176635742 -0.47527509927749634
-0.1627907156944275 0.05426359176635742 0.15593847632408142
-0.1627907156944275 0.05426359176635742 0.25333672761917114
-0.1627907156944275 0.05426359176635742 0.6880549788475037
-0.1627907156944275 0.06976747512817383 -0.4827234745025635
-0.1627907156944275 0.06976747512817383 0.16327643394470215
-0.1627907156944275 0.06976747512817383 0.24562400579452515
-0.1627907156944275 0.06976747512817383 0.6892074346542358
-0.1627907007932663 0.08527135103940964 -0.488202840089798
-0.1627907156944275 0.08527135848999023 0.1719389110803604
-0.1627907156944275 0.08527135848999023 0.23359383642673492
-0.1627907156944275 0.08527135848999023 0.6906686425209045
-0.1627907156944275 0.10077524185180664 -0.49051544070243835
-0.1627907156944275 0.10077524185180664 0.18846875429153442
-0.1627907156944275 0.10077524185180664 0.21482616662979126
-0.1627907156944275 0.10077524185180664 0.6925971508026123
-0.1627907156944275 0.11627912521362305 -0.49060505628585815
