-0.2723759710788727 -0.20930230617523193 -0.19379842281341553
-0.27972808480262756 -0.20930230617523193 -0.1782945990562439
-0.281537801027298 -0.20930230617523193 0.1472867727279663
-0.27486681938171387 -0.20930230617523193 0.16279065608978271
-0.2724865972995758 -0.19379842281341553 -0.19379842281341553
-0.2796867787837982 -0.19379842281341553 -0.1782945990562439
-0.2778738737106323 -0.19379842281341553 0.17829453945159912
-0.2734737992286682 -0.1782945990562439 -0.19379842281341553
-0.2802485227584839 -0.1782945990562439 -0.1782945990562439
-0.2821328043937683 -0.1782945990562439 0.19379842281341553
-0.27396097779273987 -0.1782945990562439 0.20930230617523193
-0.2748708128929138 -0.1627907156944275 -0.19379842281341553
-0.28109413385391235 -0.1627907156944275 -0.1782945990562439
-0.27878496050834656 -0.1627907156944275 0.22480618953704834
-0.27591487765312195 -0.14728683233261108 -0.19379842281341553
-0.28167250752449036 -0.14728683233261108 -0.1782945990562439
-0.2867777347564697 -0.14728683233261108 -0.1627907156944275
-0.27492403984069824 -0.14728683233261108 0.25581395626068115
-0.2765336036682129 -0.13178294897079468 -0.19379842281341553
-0.28188076615333557 -0.13178294897079468 -0.1782945990562439
-0.28641027212142944 -0.13178294897079468 -0.1627907156944275
-0.2786683142185211 -0.13178294897079468 0.27131783962249756
-0.27230751514434814 -0.11627906560897827 -0.20930230617523193
-0.2771315276622772 -0.11627906560897827 -0.19379842281341553
-0.28196820616722107 -0.11627906560897827 -0.1782945990562439
-0.28626465797424316 -0.11627906560897827 -0.1627907156944275
-0.27695995569229126 -0.11627906560897827 0.28682172298431396
-0.2741033434867859 -0.10077518224716187 -0.20930230617523193
-0.27769792079925537 -0.10077518224716187 -0.19379842281341553
-0.281678706407547 -0.10077518224716187 -0.1782945990562439
-0.2861151099205017 -0.10077518969774246 -0.16279073059558868
-0.28130024671554565 -0.10077518224716187 0.28682172298431396
-0.2721238136291504 -0.08527129888534546 -0.22480618953704834
-0.2757013440132141 -0.08527129888534546 -0.20930230617523193
-0.2779715359210968 -0.08527129888534546 -0.19379842281341553
-0.28043943643569946 -0.08527129888534546 -0.1782945990562439
-0.2849710285663605 -0.08527129888534546 -0.1627907156944275
-0.2812556326389313 -0.08527129888534546 0.28682172298431396
-0.2728596031665802 -0.08527129888534546 0.30232560634613037
-0.2736584544181824 -0.06976741552352905 -0.27131783962249756
-0.27574479579925537 -0.06976741552352905 -0.25581395626068115
-0.27599650621414185 -0.06976741552352905 -0.24031007289886475
-0.27604731917381287 -0.06976741552352905 -0.22480618953704834
-0.27617359161376953 -0.06976741552352905 -0.20930230617523193
-0.2760140597820282 -0.06976741552352905 -0.19379842281341553
-0.27622270584106445 -0.06976741552352905 -0.1782945990562439
-0.280847430229187 -0.06976741552352905 -0.1627907156944275
-0.2858576774597168 -0.06976741552352905 -0.14728683233261108
-0.28506243228912354 -0.06976741552352905 0.27131783962249756
-0.27908754348754883 -0.06976741552352905 0.28682172298431396
-0.2713417112827301 -0.06976741552352905 0.30232560634613037
-0.282032310962677 -0.05426359176635742 -0.317829430103302
-0.2718150019645691 -0.05426359176635742 -0.30232560634613037
-0.27292943000793457 -0.05426359176635742 -0.22480618953704834
-0.2723604738712311 -0.05426359176635742 -0.1627907156944275
-0.2786852717399597 -0.05426359176635742 -0.14728683233261108
-0.28319960832595825 -0.05426359176635742 -0.13178294897079468
-0.28523048758506775 -0.05426359176635742 -0.11627907305955887
-0.2855592668056488 -0.05426359549164772 -0.10077518969774246
-0.2856321930885315 -0.05426359549164772 -0.08527129888534546
-0.2852973937988281 -0.05426359176635742 -0.06976740807294846
-0.2851550281047821 -0.05426359176635742 -0.05426359176635742
-0.2855437994003296 -0.05426359549164772 -0.038759708404541016
-0.2860601842403412 -0.05426359176635742 -0.02325582504272461
-0.28397810459136963 -0.05426359176635742 0.25581395626068115
-0.2800191044807434 -0.05426359176635742 0.27131783962249756
-0.2754366397857666 -0.05426359176635742 0.28682172298431396
-0.2819817364215851 -0.038759708404541016 -0.3333333134651184
-0.27336257696151733 -0.038759708404541016 -0.317829430103302
-0.2781980037689209 -0.038759708404541016 -0.22480618953704834
-0.27615222334861755 -0.038759708404541016 -0.13178294897079468
-0.2794625163078308 -0.038759708404541016 -0.11627906560897827
-0.2807580530643463 -0.038759708404541016 -0.10077518224716187
-0.2812710702419281 -0.038759708404541016 -0.08527129888534546
-0.28124308586120605 -0.038759708404541016 -0.06976741552352905
-0.2813425660133362 -0.038759708404541016 -0.05426358804106712
-0.28191322088241577 -0.038759708404541016 -0.038759708404541016
-0.2825332581996918 -0.038759708404541016 -0.02325582504272461
-0.2836790978908539 -0.038759708404541016 -0.007751941680908203
-0.2854042053222656 -0.038759708404541016 0.007751941680908203
-0.2843806743621826 -0.038759708404541016 0.11627912521362305
-0.28287121653556824 -0.038759708404541016 0.1317828893661499
-0.28218016028404236 -0.038759708404541016 0.1472867727279663
-0.281929612159729 -0.038759708404541016 0.16279065608978271
-0.28208717703819275 -0.038759708404541016 0.17829453945159912
-0.28243058919906616 -0.038759708404541016 0.19379842281341553
-0.28248703479766846 -0.038759708404541016 0.20930230617523193
-0.28220686316490173 -0.038759708404541016 0.22480618953704834
-0.28101518750190735 -0.038759708404541016 0.24031007289886475
-0.27878856658935547 -0.038759708404541016 0.25581395626068115
-0.2756994962692261 -0.038759708404541016 0.27131783962249756
-0.28473761677742004 -0.02325582318007946 -0.3488371670246124
-0.277757853269577 -0.02325582504272461 -0.3333333134651184
-0.276080459356308 -0.02325582504272461 -0.22480618953704834
-0.2842337191104889 -0.02325582504272461 -0.20930230617523193
-0.2739906311035156 -0.02325582504272461 -0.11627906560897827
-0.27603232860565186 -0.02325582504272461 -0.10077518224716187
-0.2769598662853241 -0.02325582504272461 -0.08527129888534546
-0.27721473574638367 -0.02325582504272461 -0.06976741552352905
-0.2774866223335266 -0.02325582504272461 -0.05426359176635742
-0.27811455726623535 -0.02325582504272461 -0.038759708404541016
-0.27875006198883057 -0.02325582504272461 -0.02325582504272461
-0.27983343601226807 -0.02325582504272461 -0.007751941680908203
-0.2813580632209778 -0.02325582504272461 0.007751941680908203
-0.2826182246208191 -0.02325582504272461 0.02325582504272461
-0.28371551632881165 -0.02325582504272461 0.038759708404541016
-0.285042405128479 -0.02325582690536976 0.05426359176635742
-0.28579017519950867 -0.02325582504272461 0.06976747512817383
-0.28488388657569885 -0.02325582504272461 0.08527135848999023
-0.2830331325531006 -0.02325582504272461 0.10077524185180664
-0.2810577154159546 -0.02325582504272461 0.11627912521362305
-0.2796447277069092 -0.02325582504272461 0.1317828893661499
-0.27885621786117554 -0.02325582504272461 0.1472867727279663
-0.2784799635410309 -0.02325582504272461 0.16279065608978271
-0.27845603227615356 -0.02325582504272461 0.17829453945159912
-0.2785370945930481 -0.02325582504272461 0.19379842281341553
-0.27826988697052 -0.02325582504272461 0.20930230617523193
-0.2777549624443054 -0.02325582504272461 0.22480618953704834
-0.27664804458618164 -0.02325582504272461 0.24031007289886475
-0.2744535505771637 -0.02325582504272461 0.25581395626068115
-0.27165141701698303 -0.02325582504272461 0.27131783962249756
-0.2820132374763489 -0.007751941680908203 -0.3488371968269348
-0.27406883239746094 -0.007751941680908203 -0.3333333134651184
-0.2789619266986847 -0.007751941680908203 -0.20930230617523193
-0.27200382947921753 -0.007751941680908203 -0.08527129888534546
-0.27248871326446533 -0.007751941680908203 -0.06976741552352905
-0.2728979289531708 -0.007751941680908203 -0.05426359176635742
-0.2735533118247986 -0.007751941680908203 -0.038759708404541016
-0.27423790097236633 -0.007751941680908203 -0.02325582504272461
-0.27555611729621887 -0.007751941680908203 -0.007751941680908203
-0.2772827744483948 -0.007751941680908203 0.007751941680908203
-0.27863773703575134 -0.007751941680908203 0.02325582504272461
-0.27995890378952026 -0.007751941680908203 0.038759708404541016
-0.2813834846019745 -0.007751941215246916 0.05426359176635742
-0.28215843439102173 -0.007751941680908203 0.06976747512817383
-0.2816476821899414 -0.007751941680908203 0.08527135848999023
-0.2801879048347473 -0.007751941680908203 0.10077524185180664
-0.278516948223114 -0.007751941680908203 0.11627912521362305
-0.27723103761672974 -0.007751941680908203 0.1317828893661499
-0.2763616442680359 -0.007751941680908203 0.1472867727279663
-0.2758246660232544 -0.007751941680908203 0.16279065608978271
-0.27558913826942444 -0.007751941680908203 0.17829453945159912
-0.2754349410533905 -0.007751941680908203 0.19379842281341553
-0.27492740750312805 -0.007751941680908203 0.20930230617523193
-0.27416619658470154 -0.007751941680908203 0.22480618953704834
-0.27294883131980896 -0.007751941680908203 0.24031007289886475
-0.28549784421920776 0.007751941680908203 -0.3643410801887512
-0.27970126271247864 0.007751941680908203 -0.3488371968269348
-0.2825404107570648 0.007751941680908203 -0.19379842281341553
-0.27137163281440735 0.007751941680908203 -0.007751941680908203
-0.2728637158870697 0.007751941680908203 0.007751941680908203
-0.2750754952430725 0.007751941680908203 0.02325582504272461
-0.27726781368255615 0.007751941680908203 0.038759708404541016
-0.2788050174713135 0.007751941680908203 0.05426359176635742
-0.27956515550613403 0.007751941680908203 0.06976747512817383
-0.2792106866836548 0.007751941680908203 0.08527135848999023
-0.27813073992729187 0.007751941680908203 0.10077524185180664
-0.27668169140815735 0.007751941680908203 0.11627912521362305
-0.2754164934158325 0.007751941680908203 0.1317828893661499
-0.2743995487689972 0.007751941680908203 0.1472867727279663
-0.2736608684062958 0.007751941680908203 0.16279065608978271
-0.2732236981391907 0.007751941680908203 0.17829453945159912
-0.2729116678237915 0.007751941680908203 0.19379842281341553
-0.27235153317451477 0.007751941680908203 0.20930230617523193
-0.27166154980659485 0.007751941680908203 0.22480618953704834
-0.28280290961265564 0.02325582504272461 -0.36434105038642883
-0.27709007263183594 0.02325582504272461 -0.3488371968269348
-0.27200889587402344 0.02325582504272461 0.02325582504272461
-0.27493172883987427 0.02325582504272461 0.038759708404541016
-0.2769027650356293 0.02325582504272461 0.05426359176635742
-0.2775416076183319 0.02325582504272461 0.06976747512817383
-0.27716755867004395 0.02325582504272461 0.08527135848999023
-0.27612996101379395 0.02325582504272461 0.10077524185180664
-0.27480101585388184 0.02325582504272461 0.11627912521362305
-0.2736984193325043 0.02325582504272461 0.1317828893661499
-0.27272146940231323 0.02325582504272461 0.1472867727279663
-0.2719511389732361 0.02325582504272461 0.16279065608978271
-0.27147772908210754 0.02325582504272461 0.17829453945159912
-0.2855599820613861 0.038759708404541016 -0.3798449635505676
-0.2807760238647461 0.038759708404541016 -0.3643410801887512
-0.27503156661987305 0.038759708404541016 -0.3488371968269348
-0.2724321484565735 0.038759708404541016 0.038759708404541016
-0.27473586797714233 0.038759708404541016 0.05426359176635742
-0.2752811908721924 0.038759708404541016 0.06976747512817383
-0.2748682200908661 0.038759708404541016 0.08527135848999023
-0.273905485868454 0.038759708404541016 0.10077524185180664
-0.27283021807670593 0.038759708404541016 0.11627912521362305
-0.2719339430332184 0.038759708404541016 0.1317828893661499
-0.28408896923065186 0.05426359176635742 -0.3798449635505676
-0.27912265062332153 0.05426359176635742 -0.3643410801887512
-0.2727868854999542 0.05426359176635742 -0.3488371968269348
-0.27240321040153503 0.05426359176635742 0.05426359176635742
-0.2731136977672577 0.05426359176635742 0.06976747512817383
-0.2728082239627838 0.05426359176635742 0.08527135848999023
-0.27204427123069763 0.05426359176635742 0.10077524185180664
-0.2837755084037781 0.06976747512817383 -0.3798449635505676
-0.27871209383010864 0.06976747512817383 -0.3643410801887512
-0.2718709409236908 0.06976747512817383 -0.3488371968269348
-0.27143460512161255 0.06976747512817383 0.06976747512817383
-0.285004198551178 0.08527135848999023 -0.3798449635505676
-0.28036314249038696 0.08527135848999023 -0.3643410801887512
-0.27462610602378845 0.08527135848999023 -0.3488371968269348
-0.28548336029052734 0.10077524185180664 -0.3643410801887512
-0.282074511051178 0.10077524185180664 -0.3488371968269348
-0.2785256803035736 0.10077524185180664 -0.3333333134651184
-0.27456963062286377 0.10077524185180664 -0.317829430103302
-0.2603447139263153 -0.6589146852493286 -0.11627906560897827
-0.2692336440086365 -0.6589146852493286 -0.10077518224716187
-0.26995596289634705 -0.6589146852493286 -0.00775194214656949
-0.2686721384525299 -0.643410861492157 -0.14728683233261108
-0.25711995363235474 -0.6124030947685242 0.10077524185180664
-0.26054149866104126 -0.5658915042877197 -0.22480618953704834
-0.2667248845100403 -0.5658915042877197 0.1472867727279663
-0.26207292079925537 -0.5503876209259033 0.16279065608978271
-0.25768089294433594 -0.5348837375640869 0.17829453945159912
-0.26575106382369995 -0.5193798542022705 -0.25581395626068115
-0.26362356543540955 -0.5193798542022705 0.17829453945159912
-0.26000815629959106 -0.5038759708404541 -0.317829430103302
-0.265645831823349 -0.5038759708404541 -0.30232560634613037
-0.26822173595428467 -0.5038759708404541 -0.28682172298431396
-0.2673438787460327 -0.5038759708404541 0.17829455435276031
-0.26098549365997314 -0.4883720874786377 -0.3333333134651184
-0.266578733921051 -0.4883720874786377 -0.317829430103302
-0.2695341110229492 -0.4883720874786377 0.17829453945159912
-0.25704410672187805 -0.4728682041168213 -0.3488371968269348
-0.2638564705848694 -0.4728682041168213 -0.3333333134651184
-0.2689768671989441 -0.4728682339191437 -0.317829430103302
-0.2679476737976074 -0.4728682041168213 0.17829453945159912
-0.2589128911495209 -0.4573643207550049 -0.3488371968269348
-0.2637366056442261 -0.4573643207550049 -0.3333333134651184
-0.2683948874473572 -0.4573643207550049 -0.317829430103302
-0.2646646797657013 -0.45736435055732727 0.17829453945159912
-0.25878918170928955 -0.4418604373931885 -0.3488371968269348
-0.2626674473285675 -0.4418604373931885 -0.3333333134651184
-0.26628077030181885 -0.4418604373931885 -0.317829430103302
-0.2691832184791565 -0.4418604373931885 -0.30232560634613037
-0.25967854261398315 -0.4418604373931885 0.17829453945159912
-0.25812259316444397 -0.42635661363601685 -0.3488371968269348
-0.26147663593292236 -0.42635661363601685 -0.3333333134651184
-0.2642454504966736 -0.42635661363601685 -0.317829430103302
-0.266417920589447 -0.42635658383369446 -0.30232560634613037
-0.2697637379169464 -0.42635661363601685 -0.28682172298431396
-0.256919801235199 -0.41085273027420044 -0.3488371968269348
-0.2598429322242737 -0.41085273027420044 -0.3333333134651184
-0.2618260383605957 -0.41085273027420044 -0.317829430103302
-0.2634565234184265 -0.41085273027420044 -0.30232560634613037
-0.2663162350654602 -0.41085273027420044 -0.28682172298431396
-0.2697400748729706 -0.41085273027420044 -0.27131783962249756
-0.2617126405239105 -0.41085273027420044 0.16279065608978271
-0.25820308923721313 -0.39534884691238403 -0.3333333134651184
-0.2595813572406769 -0.39534884691238403 -0.317829430103302
-0.2604357600212097 -0.39534884691238403 -0.30232560634613037
-0.2624349594116211 -0.39534884691238403 -0.28682172298431396
-0.2645583748817444 -0.39534884691238403 -0.27131783962249756
-0.26766711473464966 -0.39534884691238403 -0.25581395626068115
-0.25673240423202515 -0.3798449635505676 -0.317829430103302
-0.25691959261894226 -0.3798449635505676 -0.30232560634613037
-0.2579858601093292 -0.3798449635505676 -0.28682172298431396
-0.25871148705482483 -0.3798449635505676 -0.27131783962249756
-0.25972384214401245 -0.3798449635505676 -0.25581395626068115
-0.2610762417316437 -0.3798449635505676 -0.24031007289886475
-0.263791024684906 -0.3798449635505676 -0.22480618953704834
-0.2712342441082001 -0.3798449635505676 -0.20930230617523193
-0.26368945837020874 -0.3798449635505676 0.1472867727279663
-0.25787264108657837 -0.3643410801887512 -0.20930230617523193
-0.26452624797821045 -0.3643410801887512 -0.19379842281341553
-0.25633910298347473 -0.3643410801887512 0.1472867727279663
-0.2585931718349457 -0.3488371968269348 -0.19379842281341553
-0.2684103548526764 -0.3488371968269348 -0.1782945990562439
-0.2589609622955322 -0.3333333134651184 -0.19379842281341553
-0.2656364440917969 -0.3333333134651184 -0.1782945990562439
-0.26398932933807373 -0.3333333134651184 0.1317828893661499
-0.25760558247566223 -0.317829430103302 -0.20930230617523193
-0.2617712616920471 -0.317829430103302 -0.19379842281341553
-0.26826587319374084 -0.317829430103302 -0.1782945990562439
-0.25640201568603516 -0.317829430103302 0.1317828893661499
-0.2600439190864563 -0.30232560634613037 -0.20930230617523193
-0.26396840810775757 -0.30232560634613037 -0.19379842281341553
-0.271038681268692 -0.30232560634613037 0.11627912521362305
-0.2567448616027832 -0.28682172298431396 -0.22480618953704834
-0.26165586709976196 -0.28682172298431396 -0.20930230617523193
-0.26640933752059937 -0.28682172298431396 -0.19379842281341553
-0.2668801546096802 -0.28682172298431396 0.11627912521362305
-0.2573551833629608 -0.27131783962249756 -0.22480618953704834
-0.2625148892402649 -0.27131783962249756 -0.20930230617523193
-0.2683866024017334 -0.27131783962249756 -0.19379842281341553
-0.2706476151943207 -0.27131783962249756 0.11627912521362305
-0.2577939033508301 -0.25581395626068115 -0.22480618953704834
-0.2633913457393646 -0.25581395626068115 -0.20930230617523193
-0.2706638276576996 -0.25581395626068115 -0.19379842281341553
-0.2605660557746887 -0.25581395626068115 0.1317828893661499
-0.2573624849319458 -0.24031007289886475 -0.22480618953704834
-0.26367121934890747 -0.24031007289886475 -0.20930230617523193
-0.25878724455833435 -0.24031007289886475 0.1472867727279663
-0.25647926330566406 -0.22480618953704834 -0.22480618953704834
-0.263663113117218 -0.22480618953704834 -0.20930230617523193
-0.26139527559280396 -0.22480618953704834 0.16279065608978271
-0.26327744126319885 -0.20930230617523193 -0.20930230617523193
-0.26391130685806274 -0.20930230617523193 0.17829453945159912
-0.2628327012062073 -0.19379842281341553 -0.20930230617523193
-0.26945847272872925 -0.19379843771457672 0.19379843771457672
-0.26312971115112305 -0.1782945990562439 -0.20930230617523193
-0.2589116096496582 -0.1782945990562439 0.22480618953704834
-0.2642419636249542 -0.1627907156944275 -0.20930230617523193
-0.2659684419631958 -0.1627907156944275 0.24031007289886475
-0.26590341329574585 -0.14728683233261108 -0.20930230617523193
-0.25634145736694336 -0.14728683233261108 0.27131783962249756
-0.26890820264816284 -0.13178294897079468 -0.20930232107639313
-0.26096147298812866 -0.13178294897079468 0.28682172298431396
-0.25925326347351074 -0.11627906560897827 0.30232560634613037
-0.26027512550354004 -0.10077518224716187 -0.22480618953704834
-0.26927486062049866 -0.10077517479658127 0.30232560634613037
-0.25699135661125183 -0.08527129888534546 0.3178294897079468
-0.2710261344909668 -0.06976742297410965 -0.27131783962249756
-0.2696608304977417 -0.06976741552352905 -0.25581395626068115
-0.26757845282554626 -0.06976741552352905 -0.24031007289886475
-0.26457077264785767 -0.06976741552352905 -0.22480618953704834
-0.2595456838607788 -0.06976741552352905 -0.20930230617523193
-0.2583221197128296 -0.06976741552352905 0.3178294897079468
-0.26874303817749023 -0.05426359176635742 -0.28682172298431396
-0.2676980793476105 -0.05426359176635742 -0.27131783962249756
-0.268327534198761 -0.05426359176635742 -0.25581395626068115
-0.26933181285858154 -0.05426359549164772 -0.24031007289886475
-0.2662299573421478 -0.05426359176635742 0.30232560634613037
-0.2578716278076172 -0.05426359176635742 0.3178294897079468
-0.26818519830703735 -0.038759708404541016 -0.30232560634613037
-0.2660554349422455 -0.038759708404541016 -0.28682172298431396
-0.26586106419563293 -0.038759708404541016 -0.27131783962249756
-0.26779553294181824 -0.038759708404541016 -0.25581395626068115
-0.2709736227989197 -0.038759708404541016 -0.24031007289886475
-0.26738184690475464 -0.038759708404541016 -0.14728683233261108
-0.27100279927253723 -0.038759708404541016 0.28682175278663635
-0.2633392810821533 -0.038759708404541016 0.30232560634613037
-0.25742384791374207 -0.038759708404541016 0.3178294897079468
-0.2696675658226013 -0.02325582318007946 -0.317829430103302
-0.26589658856391907 -0.02325582504272461 -0.30232560634613037
-0.26392972469329834 -0.02325582504272461 -0.28682172298431396
-0.2645557224750519 -0.02325582504272461 -0.27131783962249756
-0.26709723472595215 -0.02325582504272461 -0.25581395626068115
-0.26996660232543945 -0.02325582504272461 -0.24031007289886475
-0.26636382937431335 -0.02325582504272461 -0.13178294897079468
-0.2658596336841583 -0.02325582504272461 0.28682172298431396
-0.2613937556743622 -0.02325582504272461 0.30232560634613037
-0.25661367177963257 -0.02325582504272461 0.3178294897079468
-0.26801154017448425 -0.00775194214656949 -0.317829430103302
-0.2639997899532318 -0.00775194214656949 -0.30232560634613037
-0.26198357343673706 -0.007751941680908203 -0.28682172298431396
-0.2630886137485504 -0.007751941680908203 -0.27131783962249756
-0.26585322618484497 -0.007751941680908203 -0.25581395626068115
-0.2679453492164612 -0.007751941680908203 -0.24031007289886475
-0.2706001102924347 -0.007751941680908203 -0.22480618953704834
-0.2648138999938965 -0.007751941215246916 -0.11627906560897827
-0.2701606750488281 -0.007751941680908203 -0.10077518969774246
-0.27118536829948425 -0.007751941680908203 0.25581395626068115
-0.26667386293411255 -0.007751941680908203 0.27131783962249756
-0.26260143518447876 -0.007751941680908203 0.28682172298431396
-0.25907450914382935 -0.007751941680908203 0.30232560634613037
-0.2712014317512512 0.00775194214656949 -0.3333333134651184
-0.2673279941082001 0.007751941680908203 -0.317829430103302
-0.26368486881256104 0.007751941680908203 -0.30232560634613037
-0.26182252168655396 0.007751941680908203 -0.28682172298431396
-0.26252976059913635 0.007751941680908203 -0.27131783962249756
-0.26421332359313965 0.007751941680908203 -0.25581395626068115
-0.26500779390335083 0.007751941680908203 -0.24031007289886475
-0.26638558506965637 0.007751941680908203 -0.22480618953704834
-0.26978573203086853 0.007751941680908203 -0.20930232107639313
-0.2572590708732605 0.007751941680908203 -0.11627906560897827
-0.26241546869277954 0.007751941680908203 -0.10077518224716187
-0.2650957703590393 0.007751941680908203 -0.08527129888534546
-0.2664288878440857 0.007751941680908203 -0.06976741552352905
-0.26741504669189453 0.007751941680908203 -0.05426359176635742
-0.2685782015323639 0.007751941680908203 -0.038759708404541016
-0.2695804834365845 0.007751941680908203 -0.02325582504272461
-0.2695850431919098 0.007751941680908203 0.24031007289886475
-0.2663622796535492 0.007751941680908203 0.25581395626068115
-0.26289573311805725 0.007751941680908203 0.27131783962249756
-0.259726345539093 0.007751941680908203 0.28682172298431396
-0.2567616403102875 0.007751941680908203 0.30232560634613037
-0.27014994621276855 0.02325582504272461 -0.3333333134651184
-0.2668341398239136 0.02325582504272461 -0.317829430103302
-0.2637777030467987 0.02325582504272461 -0.30232560634613037
-0.26203253865242004 0.02325582504272461 -0.28682172298431396
-0.2615625262260437 0.02325582504272461 -0.27131783962249756
-0.26089805364608765 0.02325582504272461 -0.25581395626068115
-0.25967833399772644 0.02325582504272461 -0.24031007289886475
-0.26061955094337463 0.02325582504272461 -0.22480618953704834
-0.26395565271377563 0.02325582504272461 -0.20930230617523193
-0.26937514543533325 0.02325582504272461 -0.19379842281341553
-0.256719172000885 0.02325582504272461 -0.10077518224716187
-0.2599612772464752 0.02325582504272461 -0.08527129888534546
-0.2616640329360962 0.02325582504272461 -0.06976741552352905
-0.26285046339035034 0.02325582504272461 -0.05426359176635742
-0.2639542818069458 0.02325582504272461 -0.038759708404541016
-0.2647319436073303 0.02325582504272461 -0.02325582504272461
-0.26599085330963135 0.02325582504272461 -0.007751941680908203
-0.2684410512447357 0.02325582504272461 0.007751941680908203
-0.27077174186706543 0.02325582504272461 0.19379842281341553
-0.26930680871009827 0.02325582504272461 0.20930230617523193
-0.2679236829280853 0.02325582504272461 0.22480618953704834
-0.2655448317527771 0.02325582504272461 0.24031007289886475
-0.262652724981308 0.02325582504272461 0.25581395626068115
-0.2597770690917969 0.02325582504272461 0.27131783962249756
-0.2571522295475006 0.02325582504272461 0.28682172298431396
-0.2696441113948822 0.038759708404541016 -0.3333333134651184
-0.26678335666656494 0.038759708404541016 -0.317829430103302
-0.26418325304985046 0.038759708404541016 -0.30232560634613037
-0.26219066977500916 0.038759708404541016 -0.28682172298431396
-0.25963568687438965 0.038759708404541016 -0.27131783962249756
-0.2568604350090027 0.038759708404541016 -0.20930230617523193
-0.2637236416339874 0.038759708404541016 -0.19379842281341553
-0.25704288482666016 0.038759708404541016 -0.06976741552352905
-0.25836092233657837 0.038759708404541016 -0.05426359176635742
-0.25973257422447205 0.038759708404541016 -0.038759708404541016
-0.2608896493911743 0.038759708404541016 -0.02325582504272461
-0.2625506818294525 0.038759708404541016 -0.007751941680908203
-0.2644430100917816 0.038759708404541016 0.00775194214656949
-0.2676304876804352 0.038759708404541016 0.02325582504272461
-0.27077898383140564 0.038759708404541016 0.1472867727279663
-0.2688753306865692 0.03875970467925072 0.16279065608978271
-0.267932653427124 0.038759708404541016 0.17829453945159912
-0.2673267722129822 0.038759708404541016 0.19379842281341553
-0.265951007604599 0.038759708404541016 0.20930230617523193
-0.2642899453639984 0.038759708404541016 0.22480618953704834
-0.26233971118927 0.038759708404541016 0.24031007289886475
-0.25989505648612976 0.038759708404541016 0.25581395626068115
-0.25746554136276245 0.038759708404541016 0.27131783962249756
-0.2690297067165375 0.05426359176635742 -0.3333333134651184
-0.26628315448760986 0.05426359176635742 -0.317829430103302
-0.2635909914970398 0.05426359176635742 -0.30232560634613037
-0.2605818808078766 0.05426359176635742 -0.28682172298431396
-0.2603110373020172 0.05426359176635742 -0.19379842281341553
-0.2566280663013458 0.05426359176635742 -0.038759708404541016
-0.2576720714569092 0.05426359176635742 -0.02325582504272461
-0.259320467710495 0.05426359176635742 -0.007751941680908203
-0.2617713510990143 0.05426359176635742 0.007751941680908203
-0.2641783356666565 0.05426359176635742 0.02325582504272461
-0.26847386360168457 0.05426359176635742 0.038759708404541016
-0.2710501551628113 0.05426359176635742 0.11627912521362305
-0.2688451409339905 0.05426359176635742 0.1317828893661499
-0.26743724942207336 0.05426359176635742 0.1472867727279663
-0.26622599363327026 0.05426359176635742 0.16279065608978271
-0.2650837302207947 0.05426359176635742 0.17829453945159912
-0.2640219032764435 0.05426359176635742 0.19379842281341553
-0.26274415850639343 0.05426359176635742 0.20930230617523193
-0.2615504264831543 0.05426359176635742 0.22480618953704834
-0.2600249648094177 0.05426359176635742 0.24031007289886475
-0.25796911120414734 0.05426359176635742 0.25581395626068115
-0.2559765577316284 0.05426359176635742 0.27131783962249756
-0.2687624990940094 0.06976747512817383 -0.3333333134651184
-0.26593178510665894 0.06976747512817383 -0.317829430103302
-0.2630454897880554 0.06976747512817383 -0.30232560634613037
-0.25901007652282715 0.06976747512817383 -0.28682172298431396
-0.262996643781662 0.06976747512817383 -0.19379842281341553
-0.2560359835624695 0.06976747512817383 -0.02325582504272461
-0.2575344443321228 0.06976747512817383 -0.007751941680908203
-0.25991448760032654 0.06976747512817383 0.007751941680908203
-0.2623389959335327 0.06976747512817383 0.02325582504272461
-0.26509785652160645 0.06976747512817383 0.038759708404541016
-0.2691779136657715 0.06976747512817383 0.05426359176635742
-0.2713034749031067 0.06976747512817383 0.08527135848999023
-0.26932740211486816 0.06976747512817383 0.10077524185180664
-0.26776283979415894 0.06976747512817383 0.11627912521362305
-0.26654380559921265 0.06976747512817383 0.1317828893661499
-0.26514768600463867 0.06976747512817383 0.1472867727279663
-0.26364099979400635 0.06976747512817383 0.16279065608978271
-0.26259845495224 0.06976747512817383 0.17829453945159912
-0.26172924041748047 0.06976747512817383 0.19379842281341553
-0.26059257984161377 0.06976747512817383 0.20930230617523193
-0.25959497690200806 0.06976747512817383 0.22480618953704834
-0.2583731710910797 0.06976747512817383 0.24031007289886475
-0.2566320300102234 0.06976747512817383 0.25581395626068115
-0.26981404423713684 0.08527135848999023 -0.3333333134651184
-0.2670169472694397 0.08527135848999023 -0.317829430103302
-0.2643338143825531 0.08527135848999023 -0.30232560634613037
-0.2612108588218689 0.08527135848999023 -0.28682172298431396
-0.26135173439979553 0.08527135848999023 -0.20930230617523193
-0.2564753592014313 0.08527135848999023 -0.007751941680908203
-0.2587699890136719 0.08527135848999023 0.007751941680908203
-0.2611852288246155 0.08527135848999023 0.02325582504272461
-0.26306086778640747 0.08527135848999023 0.038759708404541016
-0.2660474181175232 0.08527135848999023 0.05426359176635742
-0.2678017318248749 0.08527135848999023 0.06976747512817383
-0.26763275265693665 0.08527135848999023 0.08527135848999023
-0.2665374279022217 0.08527135848999023 0.10077524185180664
-0.26509982347488403 0.08527135848999023 0.11627912521362305
-0.26382943987846375 0.08527135848999023 0.1317828893661499
-0.26270583271980286 0.08527135848999023 0.1472867727279663
-0.26154080033302307 0.08527135848999023 0.16279065608978271
-0.2605315148830414 0.08527135848999023 0.17829453945159912
-0.2596094012260437 0.08527135848999023 0.19379842281341553
-0.2586117088794708 0.08527135848999023 0.20930230617523193
-0.2578066289424896 0.08527135848999023 0.22480618953704834
-0.2567424178123474 0.08527135848999023 0.24031007289886475
-0.27120035886764526 0.10077524185180664 -0.30232560634613037
-0.2702793478965759 0.10077524185180664 -0.28682172298431396
-0.26915377378463745 0.10077524185180664 -0.27131783962249756
-0.26784536242485046 0.10077524185180664 -0.25581395626068115
-0.2683378756046295 0.10077524185180664 -0.24031007289886475
-0.255944162607193 0.10077524185180664 -0.007751941680908203
-0.25826624035835266 0.10077524185180664 0.007751941680908203
-0.26051759719848633 0.10077524185180664 0.02325582504272461
-0.26204365491867065 0.10077524185180664 0.038759708404541016
-0.26388096809387207 0.10077524185180664 0.05426359176635742
-0.265153706073761 0.10077524185180664 0.06976747512817383
-0.26488742232322693 0.10077524185180664 0.08527135848999023
-0.26371121406555176 0.10077524185180664 0.10077524185180664
-0.26264363527297974 0.10077524185180664 0.11627912521362305
-0.26181504130363464 0.10077524185180664 0.1317828893661499
-0.2607593536376953 0.10077524185180664 0.1472867727279663
-0.2595154643058777 0.10077524185180664 0.16279065608978271
-0.2585354745388031 0.10077524185180664 0.17829453945159912
-0.25777092576026917 0.10077524185180664 0.19379842281341553
-0.2569599747657776 0.10077524185180664 0.20930230617523193
-0.2561989724636078 0.10077524185180664 0.22480618953704834
-0.2578824758529663 0.11627912521362305 0.007751941680908203
-0.2600143551826477 0.11627912521362305 0.02325582504272461
-0.26126426458358765 0.11627912521362305 0.038759708404541016
-0.26235079765319824 0.11627912521362305 0.05426359176635742
-0.2629224359989166 0.11627912521362305 0.06976747512817383
-0.262565940618515 0.11627912521362305 0.08527135848999023
-0.26174789667129517 0.11627912521362305 0.10077524185180664
-0.2608887553215027 0.11627912521362305 0.11627912521362305
-0.2599541246891022 0.11627912521362305 0.1317828893661499
-0.25890910625457764 0.11627912521362305 0.1472867727279663
-0.25788286328315735 0.11627912521362305 0.16279065608978271
-0.25709277391433716 0.11627912521362305 0.17829453945159912
-0.2564067840576172 0.11627912521362305 0.19379842281341553
-0.2570916712284088 0.1317828893661499 0.007751941680908203
-0.2592252194881439 0.1317828893661499 0.02325582504272461
-0.2602332532405853 0.1317828893661499 0.038759708404541016
-0.2608732581138611 0.1317828893661499 0.05426359176635742
-0.2610893249511719 0.1317828893661499 0.06976747512817383
-0.26076018810272217 0.1317828893661499 0.08527135848999023
-0.25997135043144226 0.1317828893661499 0.10077524185180664
-0.2590976655483246 0.1317828893661499 0.11627912521362305
-0.2582874596118927 0.1317828893661499 0.1317828893661499
-0.2573496997356415 0.1317828893661499 0.1472867727279663
-0.25644350051879883 0.1317828893661499 0.16279065608978271
-0.25750523805618286 0.1472867727279663 0.02325582504272461
-0.25862282514572144 0.1472867727279663 0.038759708404541016
-0.2590544521808624 0.1472867727279663 0.05426359176635742
-0.25909242033958435 0.1472867727279663 0.06976747512817383
-0.2587692439556122 0.1472867727279663 0.08527135848999023
-0.2580663561820984 0.1472867727279663 0.10077524185180664
-0.2571324408054352 0.1472867727279663 0.11627912521362305
-0.2562715411186218 0.1472867727279663 0.1317828893661499
-0.2562822699546814 0.16279065608978271 0.05426359176635742
-0.2563916742801666 0.16279065608978271 0.06976747512817383
-0.2559736669063568 0.16279065608978271 0.08527135848999023
-0.2447848916053772 -0.674418568611145 -0.05426359176635742
-0.24546852707862854 -0.674418568611145 -0.038759708404541016
-0.241240456700325 -0.674418568611145 -0.02325582504272461
-0.2486436367034912 -0.6589146852493286 -0.13178294897079468
-0.2557445466518402 -0.6589146852493286 0.007751941680908203
-0.24742236733436584 -0.643410861492157 -0.1627907156944275
-0.25455376505851746 -0.6434109210968018 0.038759708404541016
-0.2522350251674652 -0.6279069781303406 -0.1782945990562439
-0.2477177083492279 -0.6279069781303406 0.06976747512817383
-0.24934372305870056 -0.6124030947685242 -0.19379842281341553
-0.24160510301589966 -0.5968992114067078 0.1317828893661499
-0.2423877865076065 -0.5813953876495361 0.1472867727279663
-0.24539609253406525 -0.5658915042877197 0.16279065608978271
-0.24262575805187225 -0.5503876209259033 -0.24031007289886475
-0.24772709608078003 -0.5503876209259033 0.17829453945159912
-0.24396434426307678 -0.5348837375640869 0.19379842281341553
-0.2409321367740631 -0.5193798542022705 -0.317829430103302
-0.24708446860313416 -0.5193798542022705 -0.30232560634613037
-0.24766024947166443 -0.5193798542022705 -0.28682172298431396
-0.25046342611312866 -0.5193798542022705 -0.27131783962249756
-0.2484196573495865 -0.5193798542022705 0.19379842281341553
-0.25072112679481506 -0.5038759708404541 -0.3333333134651184
-0.25145286321640015 -0.5038759708404541 0.19379842281341553
-0.24045510590076447 -0.4883720874786377 -0.3643410801887512
-0.25138404965400696 -0.4883720874786377 -0.3488371968269348
-0.25276872515678406 -0.4883721172809601 0.19379842281341553
-0.2483532726764679 -0.4728682041168213 -0.3643410801887512
-0.2505783438682556 -0.4728682041168213 0.19379842281341553
-0.2422972023487091 -0.4573643207550049 -0.3798449635505676
-0.250428706407547 -0.4573643207550049 -0.3643410801887512
-0.24674434959888458 -0.4573643207550049 0.19379842281341553
-0.2443985939025879 -0.4418604373931885 -0.3798449635505676
-0.25120434165000916 -0.4418604373931885 -0.3643411099910736
-0.24100378155708313 -0.4418604373931885 0.19379842281341553
-0.24555638432502747 -0.42635661363601685 -0.3798449635505676
-0.251395583152771 -0.42635661363601685 -0.3643410801887512
-0.25184816122055054 -0.42635658383369446 0.17829453945159912
-0.24570417404174805 -0.41085273027420044 -0.3798449635505676
-0.25075212121009827 -0.41085273027420044 -0.3643410801887512
-0.24117518961429596 -0.41085273027420044 0.17829453945159912
-0.24563470482826233 -0.39534884691238403 -0.3798449635505676
-0.25017231702804565 -0.39534884691238403 -0.3643410801887512
-0.2558034658432007 -0.39534884691238403 -0.3488371968269348
-0.25140899419784546 -0.39534884691238403 0.16279065608978271
-0.24511687457561493 -0.3798449635505676 -0.3798449635505676
-0.24888473749160767 -0.3798449635505676 -0.3643410801887512
-0.25269442796707153 -0.37984493374824524 -0.3488371968269348
-0.25552552938461304 -0.37984499335289 -0.3333333134651184
-0.24097058176994324 -0.3798449635505676 0.16279065608978271
-0.24277380108833313 -0.3643410801887512 -0.3798449635505676
-0.24619269371032715 -0.3643410801887512 -0.3643410801887512
-0.24858209490776062 -0.3643410801887512 -0.3488371968269348
-0.24954596161842346 -0.3643410801887512 -0.3333333134651184
-0.25009071826934814 -0.3643410801887512 -0.317829430103302
-0.24965442717075348 -0.3643410801887512 -0.30232560634613037
-0.24960067868232727 -0.3643410801887512 -0.28682172298431396
-0.2487858533859253 -0.3643410801887512 -0.27131783962249756
-0.24875089526176453 -0.3643410801887512 -0.25581395626068115
-0.24984386563301086 -0.3643410801887512 -0.24031007289886475
-0.25316181778907776 -0.3643410801887512 -0.22480618953704834
-0.24181368947029114 -0.3488371968269348 -0.3643410801887512
-0.24376416206359863 -0.3488371968269348 -0.3488371968269348
-0.2439754456281662 -0.3488371968269348 -0.3333333134651184
-0.24337920546531677 -0.3488371968269348 -0.317829430103302
-0.24115903675556183 -0.3488371968269348 -0.30232560634613037
-0.24147891998291016 -0.3488371968269348 -0.25581395626068115
-0.2442971169948578 -0.3488371968269348 -0.24031007289886475
-0.2476506531238556 -0.3488371968269348 -0.22480618953704834
-0.25240814685821533 -0.3488371968269348 -0.20930232107639313
-0.24702540040016174 -0.3488371968269348 0.1472867727279663
-0.24445371329784393 -0.3333333134651184 -0.24031007289886475
-0.2485068142414093 -0.3333333134651184 -0.22480618953704834
-0.2541445195674896 -0.3333333134651184 -0.20930230617523193
-0.24043221771717072 -0.3333333134651184 0.1472867727279663
-0.24158142507076263 -0.317829430103302 -0.25581395626068115
-0.2468513548374176 -0.317829430103302 -0.24031007289886475
-0.2513125240802765 -0.317829430103302 -0.22480618953704834
-0.24371668696403503 -0.30232560634613037 -0.25581395626068115
-0.2485341727733612 -0.30232560634613037 -0.24031007289886475
-0.2548026144504547 -0.30232560634613037 -0.22480618953704834
-0.24832506477832794 -0.30232560634613037 0.1317828893661499
-0.24505922198295593 -0.28682172298431396 -0.25581395626068115
-0.24981629848480225 -0.28682172298431396 -0.24031007289886475
-0.2478516399860382 -0.28682172298431396 0.1317828893661499
-0.24482208490371704 -0.27131783962249756 -0.25581395626068115
-0.25008565187454224 -0.27131783962249756 -0.24031007289886475
-0.25282612442970276 -0.27131783962249756 0.1317828893661499
-0.24349164962768555 -0.25581395626068115 -0.25581395626068115
-0.2497841715812683 -0.25581395626068115 -0.24031007289886475
-0.2473347932100296 -0.25581395626068115 0.1472867727279663
-0.24037142097949982 -0.24031007289886475 -0.25581395626068115
-0.24851351976394653 -0.24031007289886475 -0.24031007289886475
-0.24758502840995789 -0.24031007289886475 0.16279065608978271
-0.24652644991874695 -0.22480618953704834 -0.24031007289886475
-0.24912217259407043 -0.22480618953704834 0.17829453945159912
-0.242518350481987 -0.20930230617523193 -0.24031007289886475
-0.2542068362236023 -0.20930229127407074 -0.22480618953704834
-0.25059282779693604 -0.20930230617523193 0.19379842281341553
-0.25070714950561523 -0.19379842281341553 -0.22480618953704834
-0.25283974409103394 -0.19379842281341553 0.20930230617523193
-0.2483699768781662 -0.1782945990562439 -0.22480618953704834
-0.24307873845100403 -0.1782945990562439 0.24031007289886475
-0.24728825688362122 -0.1627907156944275 -0.22480618953704834
-0.2477603554725647 -0.1627907156944275 0.25581395626068115
-0.24698953330516815 -0.14728683233261108 -0.22480618953704834
-0.24824422597885132 -0.13178294897079468 -0.22480618953704834
-0.25534960627555847 -0.11627907305955887 -0.22480620443820953
-0.24942755699157715 -0.10077518224716187 0.3178294897079468
-0.25011521577835083 -0.08527129888534546 -0.22480617463588715
-0.24195599555969238 -0.08527129888534546 0.3333333730697632
-0.24540174007415771 -0.06976741552352905 0.3333333730697632
-0.24748608469963074 -0.05426359176635742 0.3333333730697632
-0.24077239632606506 -0.05426359176635742 0.3488372564315796
-0.24882927536964417 -0.038759708404541016 0.3333333730697632
-0.24318258464336395 -0.038759708404541016 0.3488372564315796
-0.2436705082654953 -0.02325582504272461 -0.14728683233261108
-0.24912327527999878 -0.02325582504272461 0.3333333730697632
-0.24415338039398193 -0.02325582504272461 0.3488372564315796
-0.2535092830657959 -0.007751941680908203 -0.13178294897079468
-0.25447332859039307 -0.007751941680908203 0.3178294897079468
-0.24822264909744263 -0.007751941680908203 0.3333333730697632
-0.24377703666687012 -0.007751941680908203 0.3488372564315796
-0.24272644519805908 0.007751941680908203 -0.13178294897079468
-0.25106683373451233 0.007751941680908203 0.3178294897079468
-0.2466335892677307 0.007751941680908203 0.3333333730697632
-0.24233540892601013 0.007751941680908203 0.3488372564315796
-0.2480572909116745 0.02325582504272461 -0.11627906560897827
-0.252996027469635 0.02325582504272461 0.30232560634613037
-0.24799442291259766 0.02325582504272461 0.3178294897079468
-0.24437150359153748 0.02325582504272461 0.3333333730697632
-0.24033038318157196 0.02325582504272461 0.3488372564315796
-0.2555071711540222 0.038759708404541016 -0.25581395626068115
-0.25421062111854553 0.038759708404541016 -0.24031008780002594
-0.2542213499546051 0.03875970467925072 -0.22480617463588715
-0.24899277091026306 0.038759708404541016 -0.10077518224716187
-0.2550369203090668 0.038759708404541016 -0.08527129888534546
-0.25426408648490906 0.038759708404541016 0.28682172298431396
-0.2489824891090393 0.038759708404541016 0.30232560634613037
-0.24538514018058777 0.038759708404541016 0.3178294897079468
-0.24168752133846283 0.038759708404541016 0.3333333730697632
-0.25543859601020813 0.05426359176635742 -0.27131783962249756
-0.2535403370857239 0.05426359176635742 -0.25581395626068115
-0.252276748418808 0.05426359176635742 -0.24031007289886475
-0.25217193365097046 0.05426359176635742 -0.22480618953704834
-0.2538197934627533 0.05426359176635742 -0.20930230617523193
-0.24226467311382294 0.05426359176635742 -0.10077518224716187
-0.24834688007831573 0.05426359176635742 -0.08527129888534546
-0.2519935369491577 0.05426359176635742 -0.06976741552352905
-0.254986435174942 0.05426359176635742 -0.05426359176635742
-0.25011834502220154 0.05426359176635742 0.28682172298431396
-0.24630141258239746 0.05426359176635742 0.30232560634613037
-0.24273358285427094 0.05426359176635742 0.3178294897079468
-0.2545614242553711 0.06976747512817383 -0.27131783962249756
-0.2528252601623535 0.06976747512817383 -0.25581395626068115
-0.2518719732761383 0.06976747512817383 -0.24031005799770355
-0.2521345019340515 0.06976747512817383 -0.22480618953704834
-0.25412341952323914 0.06976747512817383 -0.20930230617523193
-0.2430640608072281 0.06976747512817383 -0.08527129888534546
-0.24747821688652039 0.06976747512817383 -0.06976741552352905
-0.250339537858963 0.06976747512817383 -0.05426359176635742
-0.25351059436798096 0.06976747512817383 -0.038759708404541016
-0.2524482309818268 0.06976747512817383 0.27131783962249756
-0.2475583553314209 0.06976747512817383 0.28682172298431396
-0.24388828873634338 0.06976747512817383 0.30232560634613037
-0.24035318195819855 0.06976747512817383 0.3178294897079468
-0.25577685236930847 0.08527135848999023 -0.27131783962249756
-0.25424590706825256 0.08527135848999023 -0.25581395626068115
-0.25372034311294556 0.08527135848999023 -0.24031007289886475
-0.254549503326416 0.08527135848999023 -0.22480618953704834
-0.24311092495918274 0.08527135848999023 -0.06976741552352905
-0.24691586196422577 0.08527135848999023 -0.05426359176635742
-0.24979010224342346 0.08527135848999023 -0.038759708404541016
-0.25301504135131836 0.08527135848999023 -0.02325582504272461
-0.2543371617794037 0.08527135848999023 0.25581395626068115
-0.249149352312088 0.08527135848999023 0.27131783962249756
-0.24516661465168 0.08527135848999023 0.28682172298431396
-0.2413838654756546 0.08527135848999023 0.30232560634613037
-0.24373647570610046 0.10077524185180664 -0.05426359176635742
-0.24740272760391235 0.10077524185180664 -0.038759708404541016
-0.25040146708488464 0.10077524185180664 -0.02325582504272461
-0.2542337477207184 0.10077524185180664 0.24031007289886475
-0.24994692206382751 0.10077524185180664 0.25581395626068115
-0.24634695053100586 0.10077524185180664 0.27131783962249756
-0.24228599667549133 0.10077524185180664 0.28682172298431396
-0.24101269245147705 0.11627912521362305 -0.05426359176635742
-0.2448897361755371 0.11627912521362305 -0.038759708404541016
-0.24849483370780945 0.11627912521362305 -0.02325582504272461
-0.25432050228118896 0.11627912521362305 -0.007751941680908203
-0.2552626132965088 0.11627913266420364 0.20930230617523193
-0.2529687285423279 0.11627912521362305 0.22480618953704834
-0.24952907860279083 0.11627912521362305 0.24031007289886475
-0.24649998545646667 0.11627912521362305 0.25581395626068115
-0.24273023009300232 0.11627912521362305 0.27131783962249756
-0.24201717972755432 0.1317828893661499 -0.038759708404541016
-0.24631989002227783 0.1317828893661499 -0.02325582504272461
-0.2513439655303955 0.1317828893661499 -0.007751941680908203
-0.25569167733192444 0.1317828893661499 0.17829453945159912
-0.2536947727203369 0.1317828893661499 0.19379842281341553
-0.2506634294986725 0.1317828893661499 0.20930232107639313
-0.24793124198913574 0.1317828893661499 0.22480618953704834
-0.24552589654922485 0.1317828893661499 0.24031007289886475
-0.2419959306716919 0.1317828893661499 0.25581395626068115
-0.24315020442008972 0.1472867727279663 -0.02325582504272461
-0.24818216264247894 0.1472867727279663 -0.007751941680908203
-0.2544719874858856 0.1472867727279663 0.007751941680908203
-0.25472819805145264 0.1472867727279663 0.1472867727279663
-0.25194695591926575 0.1472867727279663 0.16279065608978271
-0.24934132397174835 0.1472867727279663 0.17829453945159912
-0.2473822385072708 0.1472867727279663 0.19379842281341553
-0.24529212713241577 0.1472867727279663 0.20930230617523193
-0.24274873733520508 0.1472867727279663 0.22480618953704834
-0.24352246522903442 0.16279065608978271 -0.007751941680908203
-0.24826931953430176 0.16279065608978271 0.007751941680908203
-0.25253257155418396 0.16279065608978271 0.02325582504272461
-0.25547900795936584 0.16279065608978271 0.038759708404541016
-0.25365394353866577 0.16279065608978271 0.10077524930238724
-0.25024187564849854 0.16279065608978271 0.11627912521362305
-0.2475946694612503 0.16279065608978271 0.1317828893661499
-0.24545961618423462 0.16279065608978271 0.1472867727279663
-0.24365147948265076 0.16279065608978271 0.16279065608978271
-0.2419729083776474 0.16279065608978271 0.17829453945159912
-0.2413213551044464 0.17829453945159912 0.007751941680908203
-0.24451977014541626 0.17829453945159912 0.02325582504272461
-0.24599802494049072 0.17829453945159912 0.038759708404541016
-0.2464609444141388 0.17829453945159912 0.05426359176635742
-0.24618715047836304 0.17829453945159912 0.06976747512817383
-0.24483796954154968 0.17829453945159912 0.08527135848999023
-0.24257239699363708 0.17829453945159912 0.10077524185180664
-0.22722108662128448 -0.674418568611145 -0.10077518224716187
-0.23338846862316132 -0.674418568611145 -0.08527129888534546
-0.23894113302230835 -0.674418568611145 -0.06976741552352905
-0.23518098890781403 -0.674418568611145 -0.007751941680908203
-0.2328745424747467 -0.6589146852493286 -0.14728683233261108
-0.2368977665901184 -0.6589146852493286 0.02325582504272461
