-0.1782945990562439 0.16279065608978271 0.10280042886734009
-0.1627907156944275 0.038759708404541016 0.10029208660125732
-0.16279073059558868 0.038759708404541016 0.10170569270849228
-0.1627907156944275 0.05426359176635742 0.09876556694507599
-0.1627907156944275 0.05426359176635742 0.10292574763298035
-0.1627907156944275 0.06976747512817383 0.09900913387537003
-0.1627907156944275 0.06976746767759323 0.10189596563577652
-0.1627907156944275 0.08527135848999023 0.09615941345691681
-0.1627907156944275 0.08527135848999023 0.10198140889406204
-0.1627907156944275 0.10077524185180664 0.08375023305416107
-0.1627907156944275 0.10077524185180664 0.10452780872583389
-0.1627907156944275 0.11627912521362305 0.08010377734899521
-0.1627907156944275 0.11627912521362305 0.10622842609882355
-0.1627907156944275 0.1317828893661499 0.07817970961332321
-0.1627907156944275 0.1317828893661499 0.10559593141078949
-0.1627907156944275 0.1472867727279663 0.07971375435590744
-0.1627907007932663 0.1472867727279663 0.10341957956552505
-0.1627907156944275 0.16279065608978271 0.08286762982606888
-0.1627907156944275 0.16279065608978271 0.10190719366073608
-0.14728683233261108 0.10077524185180664 0.07339830696582794
-0.14728683233261108 0.10077524185180664 0.10334852337837219
-0.14728683233261108 0.11627912521362305 0.06890600919723511
-0.14728683233261108 0.11627912521362305 0.10388454794883728
-0.14728683233261108 0.1317828893661499 0.06884719431400299
-0.14728683233261108 0.1317828893661499 0.10317718237638474
-0.14728683233261108 0.1472867727279663 0.06939249485731125
-0.14728683233261108 0.1472867727279663 0.10224832594394684
-0.14728683233261108 0.16279065608978271 0.07834266126155853
-0.14728683233261108 0.16279065608978271 0.10017702728509903
-0.13178294897079468 0.08527135848999023 0.06804628670215607
-0.13178294897079468 0.08527135848999023 0.10344845801591873
-0.13178294897079468 0.10077524185180664 0.06341060250997543
-0.13178294897079468 0.10077524185180664 0.10646336525678635
-0.13178294897079468 0.11627913266420364 0.05733710154891014
-0.13178294897079468 0.11627912521362305 0.10597372055053711
-0.13178294897079468 0.1317828893661499 0.06090585142374039
-0.13178294897079468 0.1317828893661499 0.1035095751285553
-0.13178294897079468 0.1472867727279663 0.06672925502061844
-0.13178294897079468 0.1472867727279663 0.10210433602333069
-0.13178294897079468 0.16279065608978271 0.06872119009494781
-0.13178294897079468 0.16279065608978271 0.093385249376297
-0.11627906560897827 -0.02325582504272461 0.09874947369098663
-0.11627906560897827 -0.02325582504272461 0.11688748002052307
-0.11627906560897827 -0.007751941680908203 0.08307963609695435
-0.11627906560897827 -0.007751941680908203 0.11743341386318207
-0.11627906560897827 0.007751941680908203 0.08156558871269226
-0.11627906560897827 0.007751941680908203 0.11555546522140503
-0.11627906560897827 0.02325582504272461 0.08345088362693787
-0.11627906560897827 0.02325582504272461 0.1075127124786377
-0.11627906560897827 0.038759708404541016 0.08371754735708237
-0.11627906560897827 0.038759708404541016 0.10559242963790894
-0.11627906560897827 0.05426359176635742 0.08135057240724564
-0.11627906560897827 0.05426359176635742 0.1054934412240982
-0.11627906560897827 0.06976747512817383 0.06654088199138641
-0.11627906560897827 0.06976747512817383 0.10891163349151611
-0.11627906560897827 0.08527135848999023 0.05307650938630104
-0.11627906560897827 0.08527135848999023 0.11501879245042801
-0.11627906560897827 0.10077524185180664 0.05064736679196358
-0.11627906560897827 0.10077523440122604 0.11682755500078201
-0.11627906560897827 0.11627912521362305 0.04851376637816429
-0.11627906560897827 0.11627912521362305 0.1161726713180542
-0.11627906560897827 0.1317828893661499 0.05118240416049957
-0.11627906560897827 0.1317828893661499 0.10941948741674423
-0.11627906560897827 0.1472867727279663 0.05306878685951233
-0.11627906560897827 0.1472867727279663 0.10346734523773193
-0.11627906560897827 0.16279065608978271 0.06530492007732391
-0.11627906560897827 0.16279065608978271 0.09908588230609894
-0.11627906560897827 0.17829453945159912 0.06896287947893143
-0.11627906560897827 0.17829453945159912 0.08699294179677963
-0.10077518224716187 -0.038759708404541016 0.10192614048719406
-0.10077518224716187 -0.038759708404541016 0.13066241145133972
-0.10077518224716187 -0.02325582504272461 0.08383650332689285
-0.10077518224716187 -0.02325582504272461 0.13007421791553497
-0.10077518224716187 -0.007751941680908203 0.07159137725830078
-0.10077518224716187 -0.007751941680908203 0.12650904059410095
-0.10077518224716187 0.007751941680908203 0.0688132494688034
-0.10077518224716187 0.007751941680908203 0.12144304811954498
-0.10077518224716187 0.02325582504272461 0.070094034075737
-0.10077518224716187 0.02325582504272461 0.11835619807243347
-0.10077518224716187 0.038759708404541016 0.0729563981294632
-0.10077518224716187 0.038759712129831314 0.11804318428039551
-0.10077518224716187 0.05426359176635742 0.06871867924928665
-0.10077518224716187 0.05426359176635742 0.11845728754997253
-0.10077518224716187 0.06976746767759323 0.05503183603286743
-0.10077518969774246 0.06976747512817383 0.11969248205423355
-0.10077518224716187 0.08527135848999023 0.04576514661312103
-0.10077518224716187 0.08527135848999023 0.1218298077583313
-0.10077518224716187 0.10077524185180664 0.03569965064525604
-0.10077518224716187 0.10077524185180664 0.12264354526996613
-0.10077518224716187 0.11627912521362305 0.033113084733486176
-0.10077518224716187 0.11627912521362305 0.12085592746734619
-0.10077518224716187 0.1317828893661499 0.037288911640644073
-0.10077518224716187 0.1317828893661499 0.11730030924081802
-0.10077518224716187 0.1472867727279663 0.05125465616583824
-0.10077518224716187 0.1472867727279663 0.10967571288347244
-0.10077518224716187 0.16279065608978271 0.056228168308734894
-0.10077518224716187 0.16279065608978271 0.1029425710439682
-0.10077518224716187 0.17829453945159912 0.0687689557671547
-0.10077518224716187 0.17829453945159912 0.0911329984664917
-0.10077518224716187 0.19379842281341553 0.08328686654567719
-0.10077518224716187 0.19379842281341553 0.08563782274723053
-0.08527129888534546 -0.05426359176635742 0.10955159366130829
-0.08527129888534546 -0.05426359176635742 0.14355555176734924
-0.08527129888534546 -0.038759708404541016 0.09105490148067474
-0.08527129888534546 -0.038759708404541016 0.14444027841091156
-0.08527129888534546 -0.02325582504272461 0.07754060626029968
-0.08527129888534546 -0.02325582504272461 0.1408618539571762
-0.08527129888534546 -0.007751941680908203 0.06782197952270508
-0.08527129888534546 -0.007751941680908203 0.13662400841712952
-0.08527129888534546 0.007751941680908203 0.06490582227706909
-0.08527130633592606 0.007751941680908203 0.13264237344264984
-0.08527129888534546 0.02325582504272461 0.06702356040477753
-0.08527129888534546 0.02325582504272461 0.12837275862693787
-0.08527129888534546 0.038759708404541016 0.06800150126218796
-0.08527129888534546 0.038759708404541016 0.1274738609790802
-0.08527129888534546 0.05426359176635742 0.06588096171617508
-0.08527129888534546 0.05426359176635742 0.12767645716667175
-0.08527129888534546 0.06976747512817383 0.050792716443538666
-0.08527129888534546 0.06976747512817383 0.1281031221151352
-0.08527129888534546 0.08527135848999023 0.03101148083806038
-0.08527129888534546 0.08527135848999023 0.1285601258277893
-0.08527129888534546 0.10077524185180664 -0.14107729494571686
-0.08527129888534546 0.10077524185180664 -0.10878833383321762
-0.08527129888534546 0.10077524185180664 0.0022053848952054977
-0.08527129888534546 0.10077524185180664 0.12813812494277954
-0.08527129888534546 0.11627912521362305 -0.13984152674674988
-0.08527129888534546 0.11627912521362305 -0.059893444180488586
-0.08527129888534546 0.11627912521362305 -0.01495809480547905
-0.08527129888534546 0.11627912521362305 0.1263265162706375
-0.08527129888534546 0.1317828893661499 -0.11808162927627563
-0.08527129888534546 0.1317828893661499 -0.06972990930080414
-0.08527129888534546 0.1317828893661499 0.013745764270424843
-0.08527129888534546 0.1317828893661499 0.1229732483625412
-0.08527129888534546 0.1472867727279663 0.04663892090320587
-0.08527129888534546 0.1472867876291275 0.1174587681889534
-0.08527129888534546 0.16279065608978271 0.06101146340370178
-0.08527129888534546 0.16279065608978271 0.10971292853355408
-0.08527129888534546 0.17829453945159912 0.07080846279859543
-0.08527129888534546 0.17829452455043793 0.10366261005401611
-0.08527129888534546 0.19379842281341553 0.0803665816783905
-0.08527129888534546 0.19379842281341553 0.09461624175310135
-0.08527129888534546 0.20930230617523193 0.08386136591434479
-0.08527129888534546 0.20930230617523193 0.086768239736557
-0.08527129888534546 0.30232560634613037 0.07973717153072357
-0.08527130633592606 0.30232560634613037 0.08611665666103363
-0.08527129888534546 0.3178294897079468 0.06868100166320801
-0.08527129888534546 0.3178294897079468 0.08537542074918747
-0.08527129888534546 0.3333333730697632 0.06788631528615952
-0.08527129888534546 0.3333333730697632 0.07521622627973557
-0.08527129888534546 0.3488372564315796 0.063799649477005
-0.08527129888534546 0.3488372564315796 0.07166485488414764
-0.06976741552352905 -0.06976741552352905 0.12083315849304199
-0.06976741552352905 -0.06976741552352905 0.14928224682807922
-0.06976741552352905 -0.05426358804106712 0.10279258340597153
-0.06976741552352905 -0.05426359176635742 0.15677247941493988
-0.06976741552352905 -0.038759708404541016 0.08737318217754364
-0.06976741552352905 -0.038759708404541016 0.1571962535381317
-0.06976741552352905 -0.02325582504272461 0.07681512832641602
-0.06976741552352905 -0.02325582504272461 0.15288525819778442
-0.06976741552352905 -0.007751941680908203 0.06827172636985779
-0.06976741552352905 -0.007751941680908203 0.1471884548664093
-0.06976741552352905 0.007751941680908203 0.06634789705276489
-0.06976741552352905 0.007751941680908203 0.13875716924667358
-0.06976741552352905 0.02325582504272461 0.06759756058454514
-0.06976741552352905 0.02325582504272461 0.13379357755184174
-0.06976741552352905 0.038759708404541016 0.06838078051805496
-0.06976741552352905 0.038759708404541016 0.13347521424293518
-0.06976741552352905 0.05426359176635742 0.06656511127948761
-0.06976741552352905 0.05426359176635742 0.13381889462471008
-0.06976741552352905 0.06976747512817383 0.052010808140039444
-0.06976741552352905 0.06976747512817383 0.13395120203495026
-0.06976741552352905 0.08527135848999023 -0.211569145321846
-0.06976741552352905 0.08527135848999023 -0.2086666226387024
-0.06976741552352905 0.08527135848999023 0.026454580947756767
-0.06976741552352905 0.08527135848999023 0.13362504541873932
-0.06976741552352905 0.10077524185180664 -0.21449390053749084
-0.06976741552352905 0.10077524185180664 -0.20542366802692413
-0.06976741552352905 0.10077524185180664 -0.159948468208313
-0.06976741552352905 0.10077524185180664 -0.10028026252985
-0.06976741552352905 0.10077523440122604 -0.017419736832380295
-0.06976741552352905 0.10077524185180664 0.13263587653636932
-0.06976741552352905 0.11627912521362305 -0.2142273187637329
-0.06976741552352905 0.11627912521362305 -0.2013232558965683
-0.06976741552352905 0.11627912521362305 -0.17291216552257538
-0.06976741552352905 0.11627912521362305 0.12978830933570862
-0.06976741552352905 0.1317828893661499 -0.21302048861980438
-0.06976741552352905 0.1317828893661499 -0.2037154734134674
-0.06976741552352905 0.1317828893661499 -0.15611545741558075
-0.06976741552352905 0.1317828893661499 0.12630152702331543
-0.06976741552352905 0.1472867727279663 0.036009516566991806
-0.06976741552352905 0.1472867727279663 0.12113070487976074
-0.06976741552352905 0.16279065608978271 0.05311799421906471
-0.06976741552352905 0.1627906709909439 0.11723482608795166
-0.06976741552352905 0.17829453945159912 0.06899046897888184
-0.06976741552352905 0.17829453945159912 0.11090382933616638
-0.06976741552352905 0.19379842281341553 0.08031394332647324
-0.06976741552352905 0.19379842281341553 0.10385923087596893
-0.06976741552352905 0.20930230617523193 0.08286202698945999
-0.06976741552352905 0.20930230617523193 0.09660501033067703
-0.06976741552352905 0.22480618953704834 0.08495302498340607
-0.06976741552352905 0.22480618953704834 0.08623754978179932
-0.06976741552352905 0.27131783962249756 0.08436623215675354
-0.06976741552352905 0.27131783962249756 0.08688326179981232
-0.06976741552352905 0.28682172298431396 0.07611256837844849
-0.06976741552352905 0.28682172298431396 0.0892753079533577
-0.06976741552352905 0.30232560634613037 0.06871215999126434
-0.06976741552352905 0.30232560634613037 0.08779051899909973
-0.06976741552352905 0.3178294897079468 0.0677945613861084
-0.06976741552352905 0.3178294897079468 0.08545490354299545
-0.06976741552352905 0.3333333730697632 0.06678742915391922
-0.06976741552352905 0.3333333730697632 0.07707426697015762
-0.06976741552352905 0.3488372564315796 0.0636821761727333
-0.06976741552352905 0.3488372564315796 0.07293886691331863
-0.05426359176635742 -0.06976741552352905 0.11599399894475937
-0.05426359176635742 -0.06976741552352905 0.1629159301519394
-0.05426359176635742 -0.05426359176635742 0.10344541817903519
-0.05426359176635742 -0.05426359176635742 0.1682741791009903
-0.05426358804106712 -0.038759708404541016 0.09159737825393677
-0.05426359176635742 -0.038759708404541016 0.1683838814496994
-0.05426359176635742 -0.02325582504272461 0.0823131650686264
-0.05426359176635742 -0.02325582504272461 0.16552479565143585
-0.05426359176635742 -0.007751941680908203 0.07602532207965851
-0.05426359176635742 -0.007751941680908203 0.15835784375667572
-0.05426359176635742 0.007751941680908203 0.07284297794103622
-0.05426359176635742 0.007751941680908203 0.14916418492794037
-0.05426359176635742 0.02325582504272461 0.07593389600515366
-0.05426359176635742 0.02325582504272461 0.1392926573753357
-0.05426359176635742 0.038759708404541016 0.07646411657333374
-0.05426359176635742 0.038759708404541016 0.13653334975242615
-0.05426359176635742 0.05426359176635742 0.07183295488357544
-0.05426359176635742 0.05426359176635742 0.13610097765922546
-0.05426359176635742 0.06976747512817383 0.0631108283996582
-0.05426359176635742 0.06976747512817383 0.1356259137392044
-0.05426359176635742 0.08527135848999023 0.04700576514005661
-0.05426359176635742 0.08527135848999023 0.13441507518291473
-0.05426359176635742 0.10077524185180664 -0.21005384624004364
-0.05426359176635742 0.10077524185180664 -0.20893457531929016
-0.05426359176635742 0.10077524185180664 -0.14196127653121948
-0.05426359176635742 0.10077524185180664 -0.12259198725223541
-0.05426359176635742 0.10077524185180664 0.02039715088903904
-0.05426359176635742 0.10077524185180664 0.1326947957277298
-0.05426359176635742 0.11627912521362305 -0.2132900357246399
-0.05426359176635742 0.11627912521362305 -0.20556345582008362
-0.05426358804106712 0.11627912521362305 -0.15929637849330902
-0.05426358804106712 0.11627912521362305 -0.0681755393743515
-0.05426359176635742 0.11627912521362305 -0.020069371908903122
-0.05426359176635742 0.11627912521362305 0.13003608584403992
-0.05426359176635742 0.1317828893661499 -0.21242846548557281
-0.05426359176635742 0.1317828893661499 -0.20607919991016388
-0.05426359176635742 0.1317828893661499 -0.1497511863708496
-0.05426359176635742 0.1317828893661499 -0.05937822163105011
-0.05426359176635742 0.1317828893661499 0.004700503312051296
-0.05426359176635742 0.1317828893661499 0.12662574648857117
-0.05426359176635742 0.1472867727279663 0.037304893136024475
-0.05426359176635742 0.1472867727279663 0.12237638980150223
-0.05426359176635742 0.16279065608978271 0.052158549427986145
-0.05426359176635742 0.16279065608978271 0.11874723434448242
-0.05426359176635742 0.17829453945159912 0.0694650188088417
-0.05426359176635742 0.17829453945159912 0.11607812345027924
-0.05426359176635742 0.19379842281341553 0.0839628353714943
-0.05426359176635742 0.19379842281341553 0.10620909929275513
-0.05426359176635742 0.20930230617523193 0.0851706713438034
-0.05426359176635742 0.20930230617523193 0.1018141359090805
-0.05426359176635742 0.27131783962249756 0.08336762338876724
-0.05426359176635742 0.27131783962249756 0.09084717184305191
-0.05426359176635742 0.28682172298431396 0.0759320855140686
-0.05426359176635742 0.28682172298431396 0.09291957318782806
-0.05426359176635742 0.30232560634613037 0.06918717920780182
-0.05426359176635742 0.30232560634613037 0.08888807892799377
-0.05426359176635742 0.3178294897079468 0.06886181980371475
-0.05426359549164772 0.31782951951026917 0.0857224389910698
-0.05426359176635742 0.3333333730697632 0.06888522207736969
-0.05426359176635742 0.3333333730697632 0.07607702910900116
-0.05426359176635742 0.3488372564315796 0.06900284439325333
-0.05426359176635742 0.3488372564315796 0.07156330347061157
-0.038759708404541016 -0.08527129888534546 0.12712013721466064
-0.038759708404541016 -0.08527129888534546 0.1681526005268097
-0.038759708404541016 -0.06976741552352905 0.11381906270980835
-0.038759708404541016 -0.06976741552352905 0.1775318682193756
-0.038759708404541016 -0.05426359176635742 0.10422204434871674
-0.038759708404541016 -0.05426359176635742 0.17992094159126282
-0.038759708404541016 -0.038759708404541016 0.0952591747045517
-0.03875970467925072 -0.03875970467925072 0.1795160472393036
-0.038759708404541016 -0.02325582504272461 0.08730145543813705
-0.038759708404541016 -0.02325582504272461 0.1772436946630478
-0.038759708404541016 -0.007751941680908203 0.08359251916408539
-0.038759708404541016 -0.007751941680908203 0.17098361253738403
-0.038759708404541016 0.007751941680908203 0.08317052572965622
-0.038759708404541016 0.007751941680908203 0.16455690562725067
-0.038759708404541016 0.02325582504272461 0.08386135846376419
-0.038759708404541016 0.02325582504272461 0.15440833568572998
-0.038759708404541016 0.038759708404541016 0.0838494747877121
-0.038759708404541016 0.038759708404541016 0.14806289970874786
-0.038759708404541016 0.05426359176635742 0.08237454295158386
-0.038759708404541016 0.05426359176635742 0.14206275343894958
-0.038759708404541016 0.06976747512817383 0.07580822706222534
-0.038759708404541016 0.06976747512817383 0.13926123082637787
-0.038759708404541016 0.08527135848999023 0.06516916304826736
-0.038759708404541016 0.08527135848999023 0.13731256127357483
-0.038759708404541016 0.10077524185180664 0.05232146009802818
-0.038759708404541016 0.10077524185180664 0.1343732476234436
-0.038759708404541016 0.11627912521362305 0.04459048807621002
-0.038759708404541016 0.11627912521362305 0.1315879225730896
-0.038759708404541016 0.1317828893661499 0.047508902847766876
-0.038759708404541016 0.1317828893661499 0.12692564725875854
-0.038759708404541016 0.1472867727279663 0.05691482126712799
-0.038759708404541016 0.1472867727279663 0.12269286811351776
-0.038759708404541016 0.16279065608978271 0.07824693620204926
-0.038759708404541016 0.1627906709909439 0.11881799250841141
-0.038759708404541016 0.17829453945159912 0.09158801287412643
-0.038759708404541016 0.17829455435276031 0.11631165444850922
-0.038759708404541016 0.19379842281341553 0.09949397295713425
-0.038759708404541016 0.19379842281341553 0.10346809774637222
-0.038759708404541016 0.27131783962249756 0.08477628976106644
-0.038759708404541016 0.27131783962249756 0.08924892544746399
-0.038759708404541016 0.28682172298431396 0.083488829433918
-0.038759708404541016 0.28682172298431396 0.09231150150299072
-0.038759708404541016 0.30232560634613037 0.08288285881280899
-0.038759708404541016 0.30232560634613037 0.08815908432006836
-0.038759708404541016 0.3178294897079468 0.08481494337320328
-0.03875970467925072 0.3178294897079468 0.08553636074066162
-0.02325582504272461 -0.14728683233261108 0.1615312695503235
-0.02325582504272461 -0.14728683233261108 0.16632215678691864
-0.02325582504272461 -0.13178294897079468 0.14616259932518005
-0.02325582504272461 -0.13178294897079468 0.1808798909187317
-0.02325582504272461 -0.11627906560897827 0.13783279061317444
-0.02325582504272461 -0.11627906560897827 0.18552979826927185
-0.02325582504272461 -0.10077518224716187 0.12907594442367554
-0.02325582504272461 -0.10077518224716187 0.1889752894639969
-0.02325582504272461 -0.08527129888534546 0.12152658402919769
-0.02325582504272461 -0.08527129888534546 0.19065073132514954
-0.02325582504272461 -0.06976741552352905 0.1127067506313324
-0.02325582504272461 -0.06976741552352905 0.19104620814323425
-0.02325582504272461 -0.05426359176635742 0.10537782311439514
-0.02325582504272461 -0.05426359176635742 0.19071641564369202
-0.02325582504272461 -0.038759708404541016 0.09769003093242645
-0.02325582504272461 -0.038759708404541016 0.18904143571853638
-0.02325582504272461 -0.02325582504272461 0.09329712390899658
-0.02325582504272461 -0.02325582504272461 0.18622782826423645
-0.02325582504272461 -0.007751941680908203 0.08855678141117096
-0.02325582504272461 -0.007751941680908203 0.1825476586818695
-0.02325582504272461 0.007751941680908203 0.0876341238617897
-0.02325582504272461 0.007751941680908203 0.17681218683719635
-0.02325582504272461 0.02325582504272461 0.08959721773862839
-0.02325582504272461 0.02325582504272461 0.1687747985124588
-0.02325582504272461 0.038759708404541016 0.0900273323059082
-0.02325582504272461 0.038759708404541016 0.1619727462530136
-0.02325582504272461 0.05426359176635742 0.08743006736040115
-0.02325582504272461 0.05426359176635742 0.15420740842819214
-0.02325582504272461 0.06976747512817383 0.08373209089040756
-0.02325582504272461 0.06976747512817383 0.14818760752677917
-0.02325582504272461 0.08527135848999023 0.07910437881946564
-0.02325582504272461 0.08527135848999023 0.1425611674785614
-0.02325582504272461 0.10077524185180664 0.07264222949743271
-0.02325582504272461 0.10077524185180664 0.13877606391906738
-0.02325582504272461 0.11627912521362305 0.0731368288397789
-0.02325582504272461 0.11627912521362305 0.1353420913219452
-0.02325582504272461 0.1317828893661499 0.08326910436153412
-0.02325582504272461 0.1317829042673111 0.13228586316108704
-0.02325582504272461 0.1472867727279663 0.09456078708171844
-0.02325582504272461 0.1472867727279663 0.12633022665977478
-0.02325582504272461 0.16279065608978271 0.10047702491283417
-0.02325582504272461 0.16279065608978271 0.12143748998641968
-0.02325582504272461 0.17829453945159912 0.10706281661987305
-0.02325582504272461 0.17829453945159912 0.11926448345184326
-0.02325582504272461 0.19379842281341553 0.10722357779741287
-0.02325582504272461 0.19379842281341553 0.11811474710702896
-0.02325582504272461 0.20930230617523193 0.1013166755437851
-0.02325582504272461 0.20930230617523193 0.11678890138864517
-0.02325582504272461 0.22480618953704834 0.09540876746177673
-0.02325582504272461 0.22480618953704834 0.11053256690502167
-0.02325582504272461 0.24031007289886475 0.0846773162484169
-0.02325582504272461 0.24031007289886475 0.10718408226966858
-0.02325582504272461 0.25581395626068115 0.08422267436981201
-0.02325582504272461 0.25581395626068115 0.10326145589351654
-0.007751941680908203 -0.27131783962249756 0.17226943373680115
-0.007751941680908203 -0.27131783962249756 0.20284423232078552
-0.007751941680908203 -0.25581395626068115 0.1673072874546051
-0.007751941680908203 -0.25581395626068115 0.2115611433982849
-0.007751941680908203 -0.24031007289886475 0.1687382012605667
-0.007751941680908203 -0.24031007289886475 0.21678362786769867
-0.007751941680908203 -0.22480618953704834 0.16544625163078308
-0.007751941680908203 -0.22480618953704834 0.218530535697937
-0.007751941680908203 -0.20930230617523193 0.1605982780456543
-0.007751941680908203 -0.20930230617523193 0.21767595410346985
-0.007751941680908203 -0.19379842281341553 0.1557823121547699
-0.007751941680908203 -0.19379842281341553 0.21481254696846008
-0.007751941680908203 -0.1782945990562439 0.14999759197235107
-0.007751941680908203 -0.1782945990562439 0.21137133240699768
-0.007751941680908203 -0.1627907156944275 0.14529316127300262
-0.007751941680908203 -0.1627907156944275 0.2072439342737198
-0.007751941680908203 -0.14728683233261108 0.14157652854919434
-0.007751941680908203 -0.14728683233261108 0.20367790758609772
-0.007751941680908203 -0.13178294897079468 0.13616028428077698
-0.007751941680908203 -0.13178294897079468 0.20214426517486572
-0.007751941680908203 -0.11627906560897827 0.129942387342453
-0.007751941680908203 -0.11627906560897827 0.20128488540649414
-0.007751941680908203 -0.10077518224716187 0.12564881145954132
-0.007751941680908203 -0.10077518224716187 0.20087830722332
-0.007751941680908203 -0.08527129888534546 0.11899955570697784
-0.007751941680908203 -0.08527129888534546 0.20033201575279236
-0.007751941680908203 -0.06976741552352905 0.11283782869577408
-0.007751941680908203 -0.06976741552352905 0.1994900405406952
-0.007751941680908203 -0.05426359176635742 0.10714474320411682
-0.007751941680908203 -0.05426359176635742 0.19840970635414124
-0.007751941680908203 -0.038759708404541016 0.09893002361059189
-0.007751941680908203 -0.038759708404541016 0.19646918773651123
-0.007751941680908203 -0.02325582504272461 0.0952349379658699
-0.007751941680908203 -0.02325582504272461 0.19296912848949432
-0.00775194214656949 -0.00775194214656949 0.09151862561702728
-0.007751941680908203 -0.007751941680908203 0.1869213581085205
-0.007751941680908203 0.007751941680908203 0.09052827954292297
-0.00775194214656949 0.00775194214656949 0.1817915141582489
-0.007751941680908203 0.02325582504272461 0.09212199598550797
-0.007751941680908203 0.02325582504272461 0.1741693764925003
-0.007751941680908203 0.038759708404541016 0.09326296299695969
-0.007751941680908203 0.038759708404541016 0.16781477630138397
-0.007751941680908203 0.05426359176635742 0.09213767945766449
-0.007751941680908203 0.05426359176635742 0.16196729242801666
-0.007751941680908203 0.06976747512817383 0.08661995083093643
-0.007751941680908203 0.06976747512817383 0.15549835562705994
-0.007751941680908203 0.08527135848999023 0.08268541842699051
-0.007751941215246916 0.08527135848999023 0.15048207342624664
-0.007751941680908203 0.10077524185180664 0.07995852082967758
-0.007751941680908203 0.10077524185180664 0.14599455893039703
-0.007751941680908203 0.11627912521362305 0.08169187605381012
-0.007751941680908203 0.11627912521362305 0.14126606285572052
-0.007751941680908203 0.1317828893661499 0.08703766763210297
-0.007751941680908203 0.1317828893661499 0.1379866898059845
-0.007751941680908203 0.1472867727279663 0.09716257452964783
-0.007751941680908203 0.1472867727279663 0.13529375195503235
-0.007751941680908203 0.16279065608978271 0.10115570574998856
-0.007751941215246916 0.16279065608978271 0.13336920738220215
-0.007751941680908203 0.17829453945159912 0.10326456278562546
-0.00775194214656949 0.17829453945159912 0.13219329714775085
-0.007751941680908203 0.19379842281341553 0.10043635219335556
-0.007751941680908203 0.19379842281341553 0.12810035049915314
-0.007751941680908203 0.20930230617523193 0.09519907832145691
-0.00775194214656949 0.20930230617523193 0.12305507063865662
-0.007751941680908203 0.22480618953704834 0.08356890827417374
-0.007751941680908203 0.22480618953704834 0.11984345316886902
-0.007751941680908203 0.24031007289886475 0.07951951771974564
-0.007751941680908203 0.24031007289886475 0.11748257279396057
-0.007751941680908203 0.25581395626068115 0.08026828616857529
-0.007751941680908203 0.25581395626068115 0.11048801243305206
-0.007751941680908203 0.27131783962249756 0.08433343470096588
-0.007751941680908203 0.27131783962249756 0.10338982194662094
0.007751941680908203 -0.28682172298431396 0.17932115495204926
0.007751941680908203 -0.28682172298431396 0.20274138450622559
0.007751941680908203 -0.27131783962249756 0.17063367366790771
0.007751941680908203 -0.27131783962249756 0.20942501723766327
0.007751941680908203 -0.25581395626068115 0.16527988016605377
0.007751941680908203 -0.25581395626068115 0.21403826773166656
0.007751941680908203 -0.24031007289886475 0.16720658540725708
0.007751941680908203 -0.24031007289886475 0.21829435229301453
0.00775194214656949 -0.22480618953704834 0.16499264538288116
0.007751941680908203 -0.22480618953704834 0.21962131559848785
0.007751941680908203 -0.20930230617523193 0.16071197390556335
0.007751941680908203 -0.20930230617523193 0.2184734046459198
0.007751941680908203 -0.19379842281341553 0.1563180685043335
0.007751941680908203 -0.19379842281341553 0.2154552936553955
0.007751941680908203 -0.1782945990562439 0.15114960074424744
0.00775194214656949 -0.1782945990562439 0.21179471909999847
0.007751941680908203 -0.1627907156944275 0.1460185945034027
0.007751941680908203 -0.1627907156944275 0.2076917588710785
0.007751941680908203 -0.14728683233261108 0.14246021211147308
0.007751941680908203 -0.14728683233261108 0.20375525951385498
0.007751941680908203 -0.13178294897079468 0.13765302300453186
0.007751941680908203 -0.13178294897079468 0.20207031071186066
0.007751941680908203 -0.11627906560897827 0.13085371255874634
0.007751941680908203 -0.11627906560897827 0.20113274455070496
0.007751941680908203 -0.10077518224716187 0.1267644613981247
0.007751941680908203 -0.10077518224716187 0.20072153210639954
0.007751941680908203 -0.08527129888534546 0.1207895427942276
0.007751941680908203 -0.08527129888534546 0.2001766562461853
0.007751941680908203 -0.06976741552352905 0.11356279253959656
0.007751941680908203 -0.06976741552352905 0.19932398200035095
0.007751941680908203 -0.05426359176635742 0.10838542133569717
0.007751941680908203 -0.05426359176635742 0.19822657108306885
0.007751941680908203 -0.038759708404541016 0.09966833889484406
0.007751941680908203 -0.03875970467925072 0.19626209139823914
0.007751941680908203 -0.02325582504272461 0.09616585820913315
0.007751941680908203 -0.02325582504272461 0.1925978660583496
0.007751941680908203 -0.007751941680908203 0.09293226152658463
0.007751941680908203 -0.007751941680908203 0.18664851784706116
0.007751941680908203 0.007751941680908203 0.09205800294876099
0.007751941680908203 0.007751941680908203 0.181474506855011
0.007751941680908203 0.02325582504272461 0.0934228003025055
0.007751941680908203 0.02325582504272461 0.17364880442619324
0.007751941680908203 0.038759708404541016 0.09456305205821991
0.007751941680908203 0.038759708404541016 0.16730301082134247
0.007751941680908203 0.05426359176635742 0.09366336464881897
0.007751941680908203 0.05426359176635742 0.1613185703754425
0.007751941680908203 0.06976747512817383 0.08848588913679123
0.007751941215246916 0.06976747512817383 0.15494146943092346
0.007751941680908203 0.08527135848999023 0.08361832052469254
0.007751941680908203 0.08527135848999023 0.14996196329593658
0.007751941680908203 0.10077524185180664 0.08121459931135178
0.007751941680908203 0.10077524185180664 0.14535833895206451
0.007751941680908203 0.11627912521362305 0.08234557509422302
0.007751941680908203 0.11627912521362305 0.14069442451000214
0.007751941680908203 0.1317828893661499 0.08727418631315231
0.007751941680908203 0.1317828893661499 0.13747520744800568
0.007751941680908203 0.1472867727279663 0.09703853726387024
0.00775194214656949 0.1472867727279663 0.13487902283668518
0.007751941680908203 0.16279065608978271 0.10100065916776657
0.007751941680908203 0.16279065608978271 0.13311773538589478
0.007751941680908203 0.17829453945159912 0.10332139581441879
0.007751941680908203 0.17829453945159912 0.1320813149213791
0.007751941680908203 0.19379842281341553 0.10057586431503296
0.007751941680908203 0.19379842281341553 0.1278681755065918
0.007751941680908203 0.20930230617523193 0.09571091830730438
0.007751941680908203 0.20930230617523193 0.12300120294094086
0.007751941680908203 0.22480618953704834 0.08392685651779175
0.007751941680908203 0.22480618953704834 0.11982844769954681
0.007751941680908203 0.24031007289886475 0.07972031086683273
0.007751941680908203 0.24031007289886475 0.11742980033159256
0.007751941680908203 0.25581395626068115 0.08032980561256409
0.007751941680908203 0.25581395626068115 0.11016057431697845
0.007751941680908203 0.27131783962249756 0.08438370376825333
0.007751941680908203 0.27131783962249756 0.10321495682001114
0.02325582504272461 -0.19379842281341553 0.17731384932994843
0.02325582504272461 -0.19379842281341553 0.19531595706939697
0.02325582504272461 -0.1782945990562439 0.17140348255634308
0.02325582504272461 -0.1782945990562439 0.1942012757062912
0.02325582504272461 -0.1627907156944275 0.16242532432079315
0.02325582504272461 -0.1627907156944275 0.1889500766992569
0.02325582504272461 -0.14728683233261108 0.15848033130168915
0.02325582504272461 -0.14728683233261108 0.18542280793190002
0.02325582504272461 -0.13178294897079468 0.14759691059589386
0.02325582504272461 -0.13178294897079468 0.18473146855831146
0.02325582504272461 -0.11627906560897827 0.1413491815328598
0.02325582504272461 -0.11627906560897827 0.18589171767234802
0.02325582504272461 -0.10077518224716187 0.13092851638793945
0.02325582504272461 -0.10077518224716187 0.18787923455238342
0.02325582504272461 -0.08527129888534546 0.12461750209331512
0.02325582504272461 -0.08527129888534546 0.18920210003852844
0.02325582504272461 -0.06976741552352905 0.11427193880081177
0.02325582504272461 -0.06976741552352905 0.1896015703678131
0.02325582504272461 -0.05426359176635742 0.1083010733127594
0.02325582504272461 -0.05426359176635742 0.18937250971794128
0.02325582504272461 -0.038759708404541016 0.09945584833621979
0.02325582504272461 -0.038759708404541016 0.18777795135974884
0.02325582504272461 -0.02325582504272461 0.09579398483037949
0.02325582504272461 -0.02325582504272461 0.1851627081632614
0.02325582504272461 -0.007751941680908203 0.09240811318159103
0.02325582504272461 -0.007751941680908203 0.1815005987882614
0.02325582504272461 0.007751941215246916 0.0918312817811966
0.02325582504272461 0.007751941680908203 0.1749366819858551
0.02325582504272461 0.02325582504272461 0.0934932678937912
0.02325582504272461 0.02325582504272461 0.16729119420051575
0.02325582504272461 0.038759708404541016 0.09377919137477875
0.02325582504272461 0.038759708404541016 0.16002987325191498
0.02325582504272461 0.05426359176635742 0.09130267798900604
0.02325582504272461 0.05426359176635742 0.1529531329870224
0.02325582504272461 0.06976747512817383 0.08510009199380875
0.02325582504272461 0.06976747512817383 0.14734193682670593
0.02325582504272461 0.08527135848999023 0.08208493888378143
0.02325582504272461 0.08527135848999023 0.1420077383518219
0.02325582504272461 0.10077524185180664 0.0779607892036438
0.02325582504272461 0.10077524185180664 0.13855630159378052
0.02325582504272461 0.11627912521362305 0.07780055701732635
0.02325582504272461 0.11627912521362305 0.13505396246910095
0.02325582504272461 0.1317828893661499 0.08403407037258148
0.02325582504272461 0.1317829042673111 0.13211053609848022
0.02325582504272461 0.1472867727279663 0.09397052228450775
0.02325582504272461 0.1472867727279663 0.12612156569957733
0.02325582504272461 0.16279065608978271 0.09990166127681732
0.02325582504272461 0.16279065608978271 0.12138260900974274
0.02325582504272461 0.17829453945159912 0.1060594916343689
0.02325582504272461 0.17829453945159912 0.11913665384054184
0.02325582504272461 0.19379842281341553 0.107355996966362
0.02325582504272461 0.19379842281341553 0.1180233433842659
0.02325582504272461 0.20930230617523193 0.1059173047542572
0.02325582504272461 0.20930230617523193 0.1167900413274765
0.02325582504272461 0.22480618953704834 0.09726817160844803
0.02325582504272461 0.22480618953704834 0.10919176042079926
0.02325582504272461 0.24031007289886475 0.08741265535354614
0.02325582504272461 0.24031007289886475 0.10603462159633636
0.02325582504272461 0.25581395626068115 0.08520854264497757
0.02325582504272461 0.25581395626068115 0.1022769883275032
0.038759708404541016 -0.08527129888534546 0.12997904419898987
0.038759708404541016 -0.08527129888534546 0.16709297895431519
0.038759708404541016 -0.06976741552352905 0.11558817327022552
0.038759708404541016 -0.06976741552352905 0.1754397600889206
0.038759708404541016 -0.05426359176635742 0.10774552822113037
0.038759708404541016 -0.05426359176635742 0.17875376343727112
0.038759708404541016 -0.038759708404541016 0.09801742434501648
0.038759708404541016 -0.038759708404541016 0.1783045381307602
0.038759708404541016 -0.02325582504272461 0.09248428791761398
0.038759708404541016 -0.02325582504272461 0.17463478446006775
0.038759708404541016 -0.007751941680908203 0.08628488332033157
0.038759708404541016 -0.007751941680908203 0.1686307191848755
0.038759708404541016 0.007751941680908203 0.08512202650308609
0.038759708404541016 0.007751941680908203 0.16253156960010529
0.038759708404541016 0.02325582504272461 0.08739250898361206
0.038759708404541016 0.02325582504272461 0.15237128734588623
0.038759708404541016 0.038759708404541016 0.08689101785421371
0.038759708404541016 0.038759708404541016 0.1468796730041504
0.038759708404541016 0.05426359176635742 0.08459358662366867
0.038759708404541016 0.05426359176635742 0.14147871732711792
0.038759708404541016 0.06976747512817383 0.08131426572799683
0.038759708404541016 0.06976747512817383 0.13923397660255432
0.038759708404541016 0.08527135848999023 0.07223108410835266
0.038759708404541016 0.08527135848999023 0.1372208148241043
0.038759708404541016 0.10077524185180664 0.0640115961432457
0.038759712129831314 0.10077524930238724 0.13410136103630066
0.038759708404541016 0.11627912521362305 0.053454525768756866
0.038759708404541016 0.11627912521362305 0.13095112144947052
0.038759708404541016 0.1317828893661499 0.05397029221057892
0.038759708404541016 0.1317828893661499 0.12613153457641602
0.038759708404541016 0.1472867727279663 0.0694003701210022
0.038759708404541016 0.1472867727279663 0.12203924357891083
0.038759708404541016 0.16279065608978271 0.0840463861823082
0.038759708404541016 0.16279065608978271 0.11828464269638062
0.038759708404541016 0.17829453945159912 0.09452380239963531
0.038759708404541016 0.17829453945159912 0.11539236456155777
0.038759708404541016 0.19379842281341553 0.10017088055610657
0.038759708404541016 0.19379842281341553 0.10238038748502731
0.038759708404541016 0.27131783962249756 0.08492977172136307
0.038759708404541016 0.27131783962249756 0.08761274069547653
0.038759708404541016 0.28682172298431396 0.08323226869106293
0.038759708404541016 0.28682172298431396 0.09109093248844147
0.038759708404541016 0.30232560634613037 0.08200069516897202
0.038759708404541016 0.30232560634613037 0.08765105903148651
0.05426359549164772 -0.06976741552352905 0.12051517516374588
0.05426359176635742 -0.06976741552352905 0.16250033676624298
0.05426359176635742 -0.05426359176635742 0.10635826736688614
0.05426359176635742 -0.05426359176635742 0.16716086864471436
0.05426359176635742 -0.038759708404541016 0.09449425339698792
0.05426359176635742 -0.038759708404541016 0.16679537296295166
0.05426359176635742 -0.02325582504272461 0.08468431979417801
0.05426359176635742 -0.02325582504272461 0.16377390921115875
0.05426359176635742 -0.007751941680908203 0.0808020606637001
0.05426359176635742 -0.007751941680908203 0.15443527698516846
0.05426359176635742 0.007751941680908203 0.07935634255409241
0.05426359176635742 0.007751941680908203 0.1463879495859146
0.05426359176635742 0.02325582504272461 0.08112240582704544
0.05426359176635742 0.02325582504272461 0.13808606564998627
0.05426359176635742 0.038759708404541016 0.08083486557006836
0.05426359176635742 0.038759708404541016 0.1367640346288681
0.05426359176635742 0.05426359176635742 0.07692252099514008
0.05426359176635742 0.05426359176635742 0.1365760713815689
0.05426359176635742 0.06976747512817383 0.06886164098978043
0.05426359176635742 0.06976747512817383 0.1358068883419037
0.05426359176635742 0.08527135848999023 0.05397554486989975
0.05426359176635742 0.08527135848999023 0.13416245579719543
0.05426359176635742 0.10077524185180664 0.03641751408576965
0.05426359176635742 0.10077524185180664 0.1321190595626831
0.05426359176635742 0.11627912521362305 -0.20980922877788544
0.05426359176635742 0.11627911776304245 -0.20886929333209991
0.05426359176635742 0.11627912521362305 -0.1507841795682907
0.05426359176635742 0.11627912521362305 -0.07692432403564453
0.05426359176635742 0.11627912521362305 0.0027848698664456606
0.05426359176635742 0.11627912521362305 0.12865349650382996
0.05426359176635742 0.1317828893661499 -0.20949150621891022
0.05426359176635742 0.1317828893661499 -0.2091265320777893
0.05426359176635742 0.1317828893661499 -0.14248228073120117
0.05426359176635742 0.1317828893661499 -0.06646087765693665
0.05426359176635742 0.1317828893661499 0.022619957104325294
0.05426359176635742 0.1317828893661499 0.12568393349647522
0.05426359176635742 0.1472867727279663 0.04564249515533447
0.05426359176635742 0.1472867727279663 0.12113532423973083
0.05426359176635742 0.16279065608978271 0.06148787960410118
0.05426359176635742 0.16279065608978271 0.11763755232095718
0.05426359176635742 0.17829453945159912 0.07855178415775299
0.05426359176635742 0.17829453945159912 0.11372566223144531
0.05426359176635742 0.19379842281341553 0.08462479710578918
0.05426359176635742 0.19379842281341553 0.10579904913902283
0.05426359176635742 0.20930232107639313 0.08768017590045929
0.05426359549164772 0.20930230617523193 0.10197468847036362
0.05426359176635742 0.27131783962249756 0.08270568400621414
0.05426359176635742 0.27131783962249756 0.09076334536075592
0.05426359176635742 0.28682172298431396 0.07048593461513519
0.05426359176635742 0.28682172298431396 0.09191742539405823
0.05426359176635742 0.30232560634613037 0.06856867671012878
0.05426359176635742 0.30232560634613037 0.08814844489097595
0.05426359176635742 0.3178294897079468 0.06852196902036667
0.05426359176635742 0.3178294897079468 0.0841355174779892
0.05426359176635742 0.3333333730697632 0.06882541626691818
0.05426359176635742 0.3333333730697632 0.07423576712608337
0.05426359176635742 0.3488372564315796 0.0694967731833458
0.05426359176635742 0.3488372564315796 0.07031971961259842
0.06976747512817383 -0.06976741552352905 0.12535728514194489
0.06976747512817383 -0.06976741552352905 0.149105966091156
0.06976747512817383 -0.05426359176635742 0.10619746148586273
0.06976747512817383 -0.05426359176635742 0.1560792624950409
0.06976747512817383 -0.038759708404541016 0.09073036164045334
0.06976747512817383 -0.038759708404541016 0.15567097067832947
0.06976747512817383 -0.02325582504272461 0.08007101714611053
0.06976747512817383 -0.02325582504272461 0.15128764510154724
0.06976746767759323 -0.007751941215246916 0.07002527266740799
0.06976747512817383 -0.007751941680908203 0.1442805826663971
0.06976747512817383 0.007751941680908203 0.06853272765874863
0.06976747512817383 0.007751941680908203 0.136576846241951
0.06976747512817383 0.02325582504272461 -0.21099811792373657
0.06976747512817383 0.02325582504272461 -0.20904640853405
0.06976747512817383 0.02325582504272461 0.06936835497617722
0.06976747512817383 0.02325582504272461 0.1333029568195343
0.06976747512817383 0.038759708404541016 -0.21032923460006714
0.06976747512817383 0.038759708404541016 -0.20920337736606598
0.06976747512817383 0.038759708404541016 0.07119691371917725
0.06976747512817383 0.038759708404541016 0.13343723118305206
0.06976747512817383 0.05426359176635742 0.0691678524017334
0.06976747512817383 0.05426359176635742 0.13371776044368744
0.06976747512817383 0.06976747512817383 0.06099352240562439
0.06976747512817383 0.06976747512817383 0.13337713479995728
0.06976747512817383 0.08527135848999023 -0.20979557931423187
0.06976747512817383 0.08527135848999023 -0.2091461420059204
0.06976747512817383 0.08527135848999023 0.0389389842748642
0.06976747512817383 0.08527135848999023 0.13251963257789612
0.06976747512817383 0.10077524185180664 -0.21347881853580475
0.06976747512817383 0.10077523440122604 -0.20639446377754211
0.06976747512817383 0.10077524185180664 -0.15241241455078125
0.06976747512817383 0.10077524185180664 -0.10398796945810318
0.06976747512817383 0.10077524185180664 -0.01120080053806305
0.06976747512817383 0.10077524185180664 0.1306471824645996
0.06976747512817383 0.11627912521362305 -0.21354427933692932
0.06976747512817383 0.11627912521362305 -0.20305709540843964
0.06976747512817383 0.11627912521362305 -0.16786272823810577
0.06976747512817383 0.11627912521362305 0.12765109539031982
0.06976747512817383 0.1317828893661499 -0.21199631690979004
0.06976747512817383 0.1317828893661499 -0.20538601279258728
0.06976747512817383 0.1317828893661499 -0.1495417058467865
0.06976747512817383 0.1317828893661499 -0.0411718524992466
0.06976747512817383 0.1317828893661499 -0.009139705449342728
0.06976747512817383 0.1317828893661499 0.12471388280391693
0.06976747512817383 0.1472867727279663 0.04313618689775467
0.06976747512817383 0.1472867727279663 0.11940401792526245
0.06976747512817383 0.16279065608978271 0.0632900521159172
0.06976747512817383 0.16279065608978271 0.11576968431472778
0.06976747512817383 0.17829453945159912 0.07289767265319824
0.06976747512817383 0.17829453945159912 0.10920539498329163
0.06976747512817383 0.19379842281341553 0.08085431903600693
0.06976747512817383 0.19379842281341553 0.10373580455780029
0.06976747512817383 0.20930230617523193 0.08270692080259323
0.06976747512817383 0.20930230617523193 0.09816735237836838
0.06976747512817383 0.22480618953704834 0.08498581498861313
0.06976747512817383 0.22480618953704834 0.08617551624774933
0.06976747512817383 0.27131783962249756 0.08395025879144669
0.06976747512817383 0.27131783962249756 0.0871078222990036
0.06976747512817383 0.28682172298431396 0.06997460126876831
0.06976747512817383 0.28682172298431396 0.08871928602457047
0.06976747512817383 0.30232560634613037 0.06825075298547745
0.06976747512817383 0.30232563614845276 0.08701016008853912
0.06976747512817383 0.3178294897079468 0.06758838891983032
0.06976747512817383 0.3178294897079468 0.0822523906826973
0.06976747512817383 0.3333333730697632 0.06681295484304428
0.06976747512817383 0.3333333730697632 0.0751238465309143
0.06976747512817383 0.3488372564315796 0.0646628588438034
0.06976747512817383 0.3488372564315796 0.07177411764860153
0.08527135848999023 -0.05426359176635742 0.11321017891168594
0.08527135848999023 -0.05426359176635742 0.1410650908946991
0.08527135848999023 -0.038759708404541016 0.09434784948825836
0.08527135848999023 -0.038759708404541016 0.1420176923274994
0.08527135848999023 -0.02325582504272461 0.08015767484903336
0.08527135848999023 -0.02325582504272461 0.1384524255990982
0.08527135848999023 -0.007751941680908203 0.0691719651222229
0.08527135848999023 -0.007751941680908203 0.13488882780075073
0.08527135848999023 0.007751941680908203 0.067617267370224
0.08527135848999023 0.007751941680908203 0.13218654692173004
0.08527135848999023 0.02325582504272461 0.0688658133149147
0.08527135848999023 0.02325582504272461 0.1277645081281662
0.08527136594057083 0.038759708404541016 0.07064445316791534
0.08527135848999023 0.038759708404541016 0.12746232748031616
0.08527135848999023 0.05426359176635742 0.06885850429534912
0.08527135848999023 0.05426359176635742 0.12777318060398102
0.08527135848999023 0.06976747512817383 0.05907363444566727
0.08527135848999023 0.06976747512817383 0.1276104748249054
0.08527135848999023 0.08527135848999023 0.03809187933802605
0.08527135848999023 0.08527135848999023 0.1273435354232788
0.08527135848999023 0.10077524185180664 -0.1474972516298294
0.08527135848999023 0.10077524185180664 -0.11062958836555481
0.08527135848999023 0.10077524185180664 0.003647911362349987
0.08527135848999023 0.10077524185180664 0.12654781341552734
0.08527135848999023 0.11627912521362305 -0.14919406175613403
0.08527135848999023 0.11627912521362305 -0.057671040296554565
0.08527135848999023 0.11627912521362305 -0.017503295093774796
0.08527135848999023 0.11627912521362305 0.12487263977527618
0.08527135848999023 0.1317828893661499 -0.12433341145515442
0.08527135848999023 0.1317828893661499 -0.07226155698299408
0.08527135848999023 0.1317828893661499 0.020799586549401283
0.08527135848999023 0.1317828893661499 0.12104643881320953
0.08527135848999023 0.1472867727279663 0.050758492201566696
0.08527135848999023 0.1472867727279663 0.11640684306621552
0.08527135848999023 0.16279065608978271 0.06564213335514069
0.08527135848999023 0.16279065608978271 0.10801856219768524
