-0.4573643207550049 -0.1782945990562439 0.09943193942308426
-0.4573643207550049 -0.1782945990562439 0.12279631197452545
-0.4573643207550049 -0.1627907156944275 0.09894857555627823
-0.4573643207550049 -0.1627907156944275 0.12028530240058899
-0.4573643207550049 -0.14728683233261108 0.09815473854541779
-0.4573642909526825 -0.14728683233261108 0.11885257065296173
-0.4573643207550049 -0.13178294897079468 0.09640483558177948
-0.4573643207550049 -0.13178294897079468 0.11790238320827484
-0.4573643207550049 -0.11627906560897827 0.09375712275505066
-0.4573643207550049 -0.11627906560897827 0.11710178852081299
-0.4573643207550049 -0.10077518224716187 0.09075558185577393
-0.4573643207550049 -0.10077518224716187 0.11640016734600067
-0.4573643207550049 -0.08527129888534546 0.08807981014251709
-0.4573643207550049 -0.08527129888534546 0.1130499392747879
-0.4573643207550049 -0.06976741552352905 0.08753687888383865
-0.4573643207550049 -0.06976741552352905 0.10984554886817932
-0.4573643207550049 -0.05426359176635742 0.08613784611225128
-0.4573643207550049 -0.05426359176635742 0.10783945024013519
-0.4573643207550049 -0.038759708404541016 0.08460226655006409
-0.4573643207550049 -0.038759708404541016 0.10625049471855164
-0.4573643207550049 -0.02325582504272461 0.083879753947258
-0.4573643207550049 -0.02325582504272461 0.10475578904151917
-0.4573643207550049 -0.007751941680908203 0.0832628607749939
-0.4573643207550049 -0.007751941680908203 0.10364095866680145
-0.4573643207550049 0.007751941680908203 0.08370448648929596
-0.4573643207550049 0.007751941680908203 0.10303133726119995
-0.45736435055732727 0.02325582504272461 0.08913019299507141
-0.4573643207550049 0.02325582504272461 0.1023702472448349
-0.4573643207550049 0.038759708404541016 0.09731395542621613
-0.4573643207550049 0.038759708404541016 0.10172029584646225
-0.4418604373931885 -0.30232560634613037 0.1308560073375702
-0.4418604373931885 -0.30232560634613037 0.13375504314899445
-0.4418604373931885 -0.28682172298431396 0.1284504383802414
-0.4418604373931885 -0.28682172298431396 0.1354338824748993
-0.44186046719551086 -0.27131783962249756 0.121480293571949
-0.44186046719551086 -0.27131783962249756 0.13520458340644836
-0.4418604373931885 -0.25581395626068115 0.11514774709939957
-0.4418604373931885 -0.25581395626068115 0.13433215022087097
-0.4418604373931885 -0.24031007289886475 0.11375882476568222
-0.4418604075908661 -0.24031007289886475 0.13349509239196777
-0.4418604373931885 -0.22480618953704834 0.11095356941223145
-0.4418604075908661 -0.22480617463588715 0.13277457654476166
-0.4418604373931885 -0.20930230617523193 0.10480086505413055
-0.4418604373931885 -0.20930229127407074 0.13191446661949158
-0.4418604373931885 -0.19379842281341553 0.10017813742160797
-0.4418604373931885 -0.19379842281341553 0.126389741897583
-0.4418604373931885 -0.1782945990562439 0.09958794713020325
-0.4418604373931885 -0.1782945990562439 0.1224612221121788
-0.4418604373931885 -0.1627907156944275 0.09910917282104492
-0.4418604373931885 -0.1627907156944275 0.11995607614517212
-0.4418604373931885 -0.14728683233261108 0.09837418794631958
-0.4418604373931885 -0.14728683233261108 0.11860444396734238
-0.4418604373931885 -0.13178294897079468 0.09689634293317795
-0.4418604075908661 -0.13178294897079468 0.11770009249448776
-0.4418604373931885 -0.11627906560897827 0.09448768198490143
-0.4418604373931885 -0.11627906560897827 0.11689812690019608
-0.4418604373931885 -0.10077518224716187 0.09129665046930313
-0.4418604373931885 -0.10077518224716187 0.11561925709247589
-0.4418604373931885 -0.08527129888534546 0.08775696903467178
-0.4418604373931885 -0.08527129888534546 0.11181817948818207
-0.4418604075908661 -0.06976741552352905 0.08651826530694962
-0.4418604373931885 -0.06976741552352905 0.1088305413722992
-0.4418604373931885 -0.05426358804106712 0.08593392372131348
-0.4418604373931885 -0.05426359176635742 0.10699443519115448
-0.4418604373931885 -0.038759708404541016 0.08458234369754791
-0.4418604373931885 -0.038759708404541016 0.10561926662921906
-0.4418604373931885 -0.02325582504272461 0.0835566446185112
-0.4418604373931885 -0.02325582504272461 0.1042926236987114
-0.4418604373931885 -0.007751941680908203 0.08287077397108078
-0.44186046719551086 -0.007751941680908203 0.10320086777210236
-0.4418604373931885 0.007751941680908203 0.0836300477385521
-0.4418604373931885 0.007751941680908203 0.10249197483062744
-0.4418604373931885 0.02325582504272461 0.08996294438838959
-0.44186046719551086 0.02325582690536976 0.10188695043325424
-0.4418604373931885 0.038759708404541016 0.09811796247959137
-0.4418604373931885 0.038759708404541016 0.10136249661445618
-0.42635661363601685 -0.28682172298431396 0.1304459273815155
-0.42635661363601685 -0.28682172298431396 0.13308556377887726
-0.42635661363601685 -0.27131783962249756 0.12542204558849335
-0.42635661363601685 -0.27131783962249756 0.1341199278831482
-0.42635661363601685 -0.25581395626068115 0.1154625415802002
-0.42635661363601685 -0.25581395626068115 0.13392913341522217
-0.42635661363601685 -0.24031007289886475 0.11398472636938095
-0.42635661363601685 -0.24031007289886475 0.13336625695228577
-0.42635661363601685 -0.22480618953704834 0.11144452542066574
-0.42635658383369446 -0.22480617463588715 0.1327357441186905
-0.42635661363601685 -0.20930230617523193 0.10632462799549103
-0.42635664343833923 -0.20930230617523193 0.13186314702033997
-0.42635661363601685 -0.19379842281341553 0.10043281316757202
-0.42635661363601685 -0.19379842281341553 0.12588855624198914
-0.42635661363601685 -0.1782945990562439 0.09980405122041702
-0.42635661363601685 -0.1782945990562439 0.1219818964600563
-0.42635661363601685 -0.1627907156944275 0.09927497059106827
-0.42635661363601685 -0.1627907156944275 0.11961138248443604
-0.42635661363601685 -0.14728683233261108 0.09854352474212646
-0.42635658383369446 -0.14728683233261108 0.11838550865650177
-0.42635661363601685 -0.13178294897079468 0.09730642288923264
-0.42635661363601685 -0.13178294897079468 0.1175149604678154
-0.42635661363601685 -0.11627906560897827 0.09523549675941467
-0.42635661363601685 -0.11627906560897827 0.11669151484966278
-0.42635661363601685 -0.10077518224716187 0.09233293682336807
-0.42635661363601685 -0.10077518224716187 0.11421991884708405
-0.42635661363601685 -0.08527129888534546 0.08913296461105347
-0.42635661363601685 -0.08527129888534546 0.11088879406452179
-0.42635661363601685 -0.06976741552352905 0.08772028237581253
-0.42635661363601685 -0.06976741552352905 0.10830613970756531
-0.42635661363601685 -0.05426359176635742 0.08697861433029175
-0.42635661363601685 -0.05426359176635742 0.10668879747390747
-0.42635661363601685 -0.038759708404541016 0.08447272330522537
-0.42635661363601685 -0.038759708404541016 0.10543763637542725
-0.42635661363601685 -0.02325582504272461 0.0830104649066925
-0.42635661363601685 -0.02325582504272461 0.10406368225812912
-0.42635661363601685 -0.007751941680908203 0.08257223665714264
-0.42635661363601685 -0.007751941680908203 0.10281141102313995
-0.42635661363601685 0.007751941680908203 0.08409889042377472
-0.42635661363601685 0.007751941680908203 0.10192874073982239
-0.42635661363601685 0.02325582504272461 0.09423728287220001
-0.42635661363601685 0.02325582504272461 0.10149072110652924
-0.41085273027420044 -0.27131783962249756 0.1290760338306427
-0.41085270047187805 -0.27131783962249756 0.13290026783943176
-0.41085273027420044 -0.25581395626068115 0.1157602071762085
-0.41085273027420044 -0.25581395626068115 0.13350127637386322
-0.41085273027420044 -0.24031007289886475 0.11410379409790039
-0.41085273027420044 -0.24031008780002594 0.13320323824882507
-0.41085273027420044 -0.22480618953704834 0.11179163306951523
-0.41085273027420044 -0.22480618953704834 0.13264508545398712
-0.41085273027420044 -0.20930230617523193 0.1074795350432396
-0.41085273027420044 -0.20930230617523193 0.13117727637290955
-0.41085273027420044 -0.19379842281341553 0.10067834705114365
-0.41085273027420044 -0.19379842281341553 0.12474623322486877
-0.41085273027420044 -0.1782945990562439 0.0999770313501358
-0.41085273027420044 -0.1782945990562439 0.1210194081068039
-0.41085273027420044 -0.1627907156944275 0.09935316443443298
-0.41085273027420044 -0.1627907156944275 0.11898639798164368
-0.41085273027420044 -0.14728683233261108 0.09853096306324005
-0.41085273027420044 -0.14728683233261108 0.11792920529842377
-0.41085273027420044 -0.13178294897079468 0.09735538065433502
-0.41085270047187805 -0.13178294897079468 0.11710359156131744
-0.41085273027420044 -0.11627906560897827 0.09553621709346771
-0.41085273027420044 -0.11627906560897827 0.11626458913087845
-0.41085273027420044 -0.10077518224716187 0.09294930100440979
-0.41085273027420044 -0.10077518224716187 0.11226419359445572
-0.41085273027420044 -0.08527129888534546 0.09011860191822052
-0.41085273027420044 -0.08527129888534546 0.1097417026758194
-0.41085273027420044 -0.06976741552352905 0.08814485371112823
-0.41085273027420044 -0.06976741552352905 0.10775864124298096
-0.41085270047187805 -0.05426359176635742 0.08625423908233643
-0.41085273027420044 -0.05426359176635742 0.1063026636838913
-0.41085273027420044 -0.038759708404541016 0.08380857110023499
-0.41085273027420044 -0.038759708404541016 0.10500349849462509
-0.41085273027420044 -0.02325582504272461 0.08204431086778641
-0.41085273027420044 -0.02325582504272461 0.103584885597229
-0.41085273027420044 -0.007751941680908203 0.08209400624036789
-0.41085273027420044 -0.007751941680908203 0.10223555564880371
-0.41085273027420044 0.007751941680908203 0.08421482145786285
-0.4108527600765228 0.007751941680908203 0.1014668196439743
-0.41085273027420044 0.02325582504272461 0.099542997777462
-0.41085273027420044 0.02325582504272461 0.10089083015918732
-0.39534884691238403 -0.25581395626068115 0.11658428609371185
-0.39534884691238403 -0.25581395626068115 0.1331314742565155
-0.39534884691238403 -0.24031007289886475 0.1143694743514061
-0.39534884691238403 -0.24031008780002594 0.13309478759765625
-0.39534884691238403 -0.22480618953704834 0.11237303912639618
-0.3953488767147064 -0.22480618953704834 0.13257014751434326
-0.39534884691238403 -0.20930230617523193 0.10880094766616821
-0.39534884691238403 -0.20930230617523193 0.12975099682807922
-0.39534884691238403 -0.19379842281341553 0.1025218814611435
-0.39534884691238403 -0.19379842281341553 0.12346743047237396
-0.39534884691238403 -0.1782945990562439 0.10017496347427368
-0.39534884691238403 -0.1782945990562439 0.12009906023740768
-0.39534884691238403 -0.1627907156944275 0.09941643476486206
-0.39534884691238403 -0.1627907156944275 0.11844614893198013
-0.39534884691238403 -0.14728683233261108 0.09844589233398438
-0.39534884691238403 -0.14728683233261108 0.11751142889261246
-0.39534884691238403 -0.13178294897079468 0.09714734554290771
-0.39534884691238403 -0.13178296387195587 0.11670360714197159
-0.39534884691238403 -0.11627906560897827 0.09535705298185349
-0.39534884691238403 -0.11627906560897827 0.11364151537418365
-0.39534884691238403 -0.10077518224716187 0.09298238903284073
-0.39534884691238403 -0.10077518224716187 0.1104767918586731
-0.39534884691238403 -0.08527129888534546 0.0903954803943634
-0.39534884691238403 -0.08527129888534546 0.10842029005289078
-0.39534884691238403 -0.06976741552352905 0.08793530613183975
-0.39534884691238403 -0.06976741552352905 0.10668745636940002
-0.39534884691238403 -0.05426359176635742 0.08514118194580078
-0.39534884691238403 -0.05426359176635742 0.10527448356151581
-0.39534884691238403 -0.038759708404541016 0.0833197757601738
-0.39534884691238403 -0.038759708404541016 0.10400804877281189
-0.39534884691238403 -0.02325582504272461 0.08169014751911163
-0.39534881711006165 -0.02325582504272461 0.10274852067232132
-0.39534884691238403 -0.007751941680908203 0.08206444978713989
-0.39534884691238403 -0.007751941680908203 0.10156358778476715
-0.39534884691238403 0.007751941680908203 0.08420856297016144
-0.39534884691238403 0.007751941680908203 0.10112226009368896
-0.3798449635505676 -0.25581395626068115 0.12127107381820679
-0.37984493374824524 -0.25581395626068115 0.13266126811504364
-0.3798449635505676 -0.24031007289886475 0.11441729962825775
-0.3798449635505676 -0.24031007289886475 0.13293471932411194
-0.3798449635505676 -0.22480618953704834 0.11246248334646225
-0.3798449635505676 -0.22480618953704834 0.13232086598873138
-0.3798449635505676 -0.20930230617523193 0.10892397910356522
-0.3798449635505676 -0.20930230617523193 0.1273457556962967
-0.3798449635505676 -0.19379842281341553 0.10252685844898224
-0.3798449635505676 -0.19379842281341553 0.12185901403427124
-0.3798449635505676 -0.1782945990562439 0.10013806819915771
-0.3798449635505676 -0.1782945990562439 0.11914369463920593
-0.3798449635505676 -0.1627907156944275 0.0993267074227333
-0.3798449635505676 -0.1627907156944275 0.11786789447069168
-0.3798449635505676 -0.14728683233261108 0.09825526922941208
-0.3798449635505676 -0.14728683233261108 0.11700417846441269
-0.3798449635505676 -0.13178294897079468 0.09682334214448929
-0.3798449635505676 -0.13178294897079468 0.11525830626487732
-0.3798449635505676 -0.11627906560897827 0.09487510472536087
-0.3798449635505676 -0.11627906560897827 0.1105208545923233
-0.3798449635505676 -0.10077518224716187 0.09233690798282623
-0.3798449635505676 -0.10077518224716187 0.10813257098197937
-0.3798449635505676 -0.08527129888534546 0.08931151032447815
-0.3798449635505676 -0.08527129888534546 0.10640492290258408
-0.3798449635505676 -0.06976741552352905 0.0861247107386589
-0.3798449635505676 -0.06976741552352905 0.10484017431735992
-0.3798449635505676 -0.05426359176635742 0.08469340205192566
-0.3798449635505676 -0.05426359176635742 0.10363501310348511
-0.3798449635505676 -0.038759708404541016 0.08278815448284149
-0.3798449635505676 -0.038759708404541016 0.10258372873067856
-0.3798449635505676 -0.02325582504272461 0.08099538087844849
-0.3798449635505676 -0.02325582504272461 0.10151193290948868
-0.3798449635505676 -0.007751941680908203 0.08135847002267838
-0.3798449635505676 -0.007751941680908203 0.09995635598897934
-0.3798449635505676 0.007751941680908203 0.0836891457438469
-0.3798449635505676 0.007751941680908203 0.09688230603933334
-0.3643410801887512 -0.24031007289886475 0.11431682109832764
-0.36434105038642883 -0.24031007289886475 0.13249848783016205
-0.3643410801887512 -0.22480618953704834 0.11219681799411774
-0.3643410801887512 -0.22480618953704834 0.13138775527477264
-0.3643410801887512 -0.20930230617523193 0.10781463235616684
-0.3643410801887512 -0.20930230617523193 0.12417519092559814
-0.3643410801887512 -0.19379842281341553 0.10059233754873276
-0.3643410801887512 -0.19379842281341553 0.12024445086717606
-0.3643410801887512 -0.1782945990562439 0.09978874027729034
-0.3643410801887512 -0.1782945841550827 0.11837320029735565
-0.3643410801887512 -0.1627907156944275 0.09906372427940369
-0.3643410801887512 -0.1627907156944275 0.11732787638902664
-0.3643410801887512 -0.14728683233261108 0.09799745678901672
-0.3643410801887512 -0.14728683233261108 0.11640937626361847
-0.3643410801887512 -0.13178294897079468 0.09648951888084412
-0.3643410801887512 -0.13178294897079468 0.11044301092624664
-0.3643410801887512 -0.11627906560897827 0.09423861652612686
-0.3643410801887512 -0.11627906560897827 0.10725165903568268
-0.3643410801887512 -0.10077518224716187 0.0910448282957077
-0.3643410801887512 -0.10077518224716187 0.10550431907176971
-0.3643410801887512 -0.08527129888534546 0.08626248687505722
-0.3643410801887512 -0.08527129888534546 0.10410355031490326
-0.3643410801887512 -0.06976741552352905 0.0847824215888977
-0.36434105038642883 -0.06976741552352905 0.10292747616767883
-0.3643410801887512 -0.05426359176635742 0.08443742990493774
-0.3643410801887512 -0.05426359176635742 0.10198390483856201
-0.3643410801887512 -0.038759708404541016 0.08282219618558884
-0.3643411099910736 -0.038759708404541016 0.10107458382844925
-0.3643410801887512 -0.02325582504272461 0.08073060214519501
-0.3643410801887512 -0.02325582504272461 0.0967043861746788
-0.3643410801887512 -0.007751941680908203 0.08052580058574677
-0.3643410801887512 -0.007751941680908203 0.09349720180034637
-0.3643410801887512 0.007751941680908203 0.08338653296232224
-0.3643410801887512 0.007751941680908203 0.08857247233390808
-0.3488371968269348 -0.24031007289886475 0.11444975435733795
-0.3488371968269348 -0.24031007289886475 0.1299518346786499
-0.3488371968269348 -0.22480618953704834 0.11200420558452606
-0.3488371968269348 -0.22480618953704834 0.12585477530956268
-0.3488371968269348 -0.20930230617523193 0.10549215972423553
-0.3488371968269348 -0.20930230617523193 0.12172530591487885
-0.3488371968269348 -0.19379842281341553 0.0999564379453659
-0.3488371968269348 -0.19379842281341553 0.11921153962612152
-0.3488371968269348 -0.1782945990562439 0.09918282181024551
-0.3488372266292572 -0.1782946139574051 0.1178201213479042
-0.3488371968269348 -0.1627907156944275 0.09853208810091019
-0.3488371968269348 -0.1627907156944275 0.11679206788539886
-0.3488371968269348 -0.14728683233261108 0.09752735495567322
-0.3488371968269348 -0.14728683233261108 0.11074596643447876
-0.3488371968269348 -0.13178294897079468 0.09559337794780731
-0.3488371968269348 -0.13178294897079468 0.10680964589118958
-0.3488371968269348 -0.11627906560897827 0.09236019849777222
-0.3488371968269348 -0.11627906560897827 0.10492312163114548
-0.3488371968269348 -0.10077518224716187 0.08652101457118988
-0.3488371968269348 -0.10077518224716187 0.10368552803993225
-0.3488371968269348 -0.08527129888534546 0.08433232456445694
-0.3488372266292572 -0.08527129888534546 0.10265693068504333
-0.3488371968269348 -0.06976741552352905 0.08382309228181839
-0.3488371968269348 -0.06976741552352905 0.10167017579078674
-0.3488371968269348 -0.05426359176635742 0.08373153954744339
-0.3488371968269348 -0.05426359176635742 0.10081259906291962
-0.3488371968269348 -0.038759708404541016 0.08267264068126678
-0.3488371968269348 -0.038759708404541016 0.09350590407848358
-0.3488371968269348 -0.02325582504272461 0.08061522245407104
-0.3488371968269348 -0.02325582504272461 0.09071040153503418
-0.3488371968269348 -0.007751941680908203 0.07919894903898239
-0.3488371968269348 -0.007751941680908203 0.08848454058170319
-0.3488371968269348 0.007751941680908203 0.08401335030794144
-0.3488372266292572 0.007751941680908203 0.08583851903676987
-0.3333333134651184 -0.24031007289886475 0.11510390043258667
-0.3333333134651184 -0.24031007289886475 0.12104595452547073
-0.3333333134651184 -0.22480618953704834 0.11169903725385666
-0.3333333134651184 -0.22480618953704834 0.12225061655044556
-0.3333333134651184 -0.20930230617523193 0.10060421377420425
-0.3333333134651184 -0.20930230617523193 0.12008684873580933
-0.3333333134651184 -0.19379842281341553 0.0990847572684288
-0.3333333432674408 -0.19379842281341553 0.11841811239719391
-0.3333333134651184 -0.1782945990562439 0.09808945655822754
-0.3333333134651184 -0.1782945990562439 0.1171644777059555
-0.3333333134651184 -0.1627907156944275 0.09726399183273315
-0.3333333134651184 -0.1627907156944275 0.11298911273479462
-0.3333333134651184 -0.14728683233261108 0.09607622772455215
-0.3333333134651184 -0.14728683233261108 0.10662975907325745
-0.3333333134651184 -0.13178294897079468 0.09303557127714157
-0.3333333134651184 -0.13178294897079468 0.10449729859828949
-0.3333333134651184 -0.11627906560897827 0.08619734644889832
-0.3333333134651184 -0.11627906560897827 0.10333752632141113
-0.3333333134651184 -0.10077518224716187 0.08385024219751358
-0.333333283662796 -0.10077518224716187 0.10239668935537338
-0.3333333134651184 -0.08527129888534546 0.08263970911502838
-0.3333333134651184 -0.08527129888534546 0.10146893560886383
-0.3333333134651184 -0.06976741552352905 0.08212938904762268
-0.3333333134651184 -0.06976741552352905 0.09811381995677948
-0.3333333134651184 -0.05426359176635742 0.08211144059896469
-0.3333333134651184 -0.05426359176635742 0.09277643263339996
-0.3333333134651184 -0.038759708404541016 0.08133596181869507
-0.3333333134651184 -0.038759708404541016 0.08938105404376984
-0.3333333134651184 -0.02325582504272461 0.07885929197072983
-0.3333333134651184 -0.02325582690536976 0.08755289018154144
-0.3333333134651184 -0.007751941680908203 0.07230950891971588
-0.333333283662796 -0.007751941215246916 0.08644495904445648
-0.317829430103302 -0.22480618953704834 0.11192716658115387
-0.317829430103302 -0.22480618953704834 0.11972595006227493
-0.317829430103302 -0.20930230617523193 0.09981224685907364
-0.317829430103302 -0.20930230617523193 0.11893773823976517
-0.317829430103302 -0.19379842281341553 0.09810607880353928
-0.317829430103302 -0.19379842281341553 0.11759717762470245
-0.317829430103302 -0.1782945990562439 0.09632658213376999
-0.317829430103302 -0.1782945990562439 0.11538327485322952
-0.317829430103302 -0.1627907156944275 0.09486399590969086
-0.317829430103302 -0.1627907156944275 0.10791925340890884
-0.317829430103302 -0.14728683233261108 0.09299856424331665
-0.317829430103302 -0.14728683233261108 0.10432939976453781
-0.317829430103302 -0.13178294897079468 0.08688130229711533
-0.317829430103302 -0.13178294897079468 0.10303366184234619
-0.317829430103302 -0.11627906560897827 0.08368612825870514
-0.317829430103302 -0.11627906560897827 0.1021178588271141
-0.317829430103302 -0.10077518224716187 0.08170221745967865
-0.317829430103302 -0.10077518224716187 0.10113909095525742
-0.317829430103302 -0.08527129888534546 0.08010166138410568
-0.317829430103302 -0.08527129888534546 0.09633874148130417
-0.317829430103302 -0.06976741552352905 0.0790775939822197
-0.317829430103302 -0.06976741552352905 0.09212791919708252
-0.317829430103302 -0.05426359176635742 0.07814303040504456
-0.317829430103302 -0.05426359176635742 0.08932705223560333
-0.317829430103302 -0.038759708404541016 0.07514035701751709
-0.317829430103302 -0.038759708404541016 0.08725487440824509
-0.317829430103302 -0.02325582504272461 0.06894068419933319
-0.317829430103302 -0.02325582504272461 0.0860012024641037
-0.317829430103302 -0.007751941680908203 0.06798439472913742
-0.317829430103302 -0.007751941680908203 0.08098208904266357
-0.30232560634613037 -0.22480618953704834 0.11552802473306656
-0.30232560634613037 -0.22480620443820953 0.11675232648849487
-0.30232560634613037 -0.20930230617523193 0.09930483251810074
-0.30232560634613037 -0.20930230617523193 0.11811546236276627
-0.30232560634613037 -0.19379842281341553 0.09682808071374893
-0.30232560634613037 -0.19379843771457672 0.11669807881116867
-0.30232560634613037 -0.1782945990562439 0.09396837651729584
-0.30232560634613037 -0.1782945990562439 0.10954445600509644
-0.30232560634613037 -0.1627907156944275 0.09100323915481567
-0.30232560634613037 -0.1627907156944275 0.10516024380922318
-0.30232560634613037 -0.14728683233261108 0.08656368404626846
-0.302325576543808 -0.14728683233261108 0.10293515771627426
-0.30232560634613037 -0.13178294897079468 0.08399710059165955
-0.30232560634613037 -0.13178294897079468 0.101874440908432
-0.30232560634613037 -0.11627906560897827 0.08194965124130249
-0.30232560634613037 -0.11627906560897827 0.10086245089769363
-0.30232560634613037 -0.10077518224716187 0.07927067577838898
-0.30232560634613037 -0.10077518224716187 0.094838947057724
-0.30232560634613037 -0.08527129888534546 0.07652096450328827
-0.30232560634613037 -0.08527129888534546 0.09129373729228973
-0.30232560634613037 -0.06976741552352905 0.07303687185049057
-0.30232560634613037 -0.06976741552352905 0.08864901959896088
-0.30232560634613037 -0.05426359176635742 0.06882870942354202
-0.30232560634613037 -0.05426359176635742 0.08692479133605957
-0.30232560634613037 -0.038759708404541016 0.06702201068401337
-0.30232560634613037 -0.038759708404541016 0.08550456166267395
-0.30232560634613037 -0.02325582504272461 0.06567389518022537
-0.30232560634613037 -0.02325582504272461 0.07698347419500351
-0.30232560634613037 -0.007751941680908203 0.065459705889225
-0.30232560634613037 -0.007751941680908203 0.07293085008859634
-0.28682172298431396 -0.20930230617523193 0.09890512377023697
-0.28682175278663635 -0.20930230617523193 0.11726835370063782
-0.28682172298431396 -0.19379842281341553 0.09481927007436752
-0.28682172298431396 -0.19379842281341553 0.11216025799512863
-0.28682172298431396 -0.1782945990562439 0.08914098143577576
-0.28682172298431396 -0.1782945990562439 0.10641350597143173
-0.28682172298431396 -0.1627907156944275 0.08452413976192474
-0.28682172298431396 -0.1627907156944275 0.10338360071182251
-0.28682172298431396 -0.14728683233261108 0.08353286981582642
-0.28682172298431396 -0.14728683233261108 0.10165848582983017
-0.28682172298431396 -0.13178294897079468 0.08203954994678497
-0.28682172298431396 -0.13178294897079468 0.09837599098682404
-0.28682172298431396 -0.11627906560897827 0.07975821942090988
-0.28682172298431396 -0.11627906560897827 0.09271931648254395
-0.28682172298431396 -0.10077518224716187 0.0760505273938179
-0.28682172298431396 -0.10077518224716187 0.08999861776828766
-0.28682172298431396 -0.08527129888534546 0.06954938918352127
-0.28682172298431396 -0.08527129888534546 0.08794605731964111
-0.28682172298431396 -0.06976741552352905 0.06757119297981262
-0.28682172298431396 -0.06976741552352905 0.08643122762441635
-0.28682172298431396 -0.05426359176635742 0.06452696770429611
-0.28682172298431396 -0.05426359176635742 0.08518639206886292
-0.28682172298431396 -0.038759708404541016 0.060015372931957245
-0.28682172298431396 -0.038759708404541016 0.07758641242980957
-0.28682172298431396 -0.02325582504272461 0.05433633178472519
-0.28682172298431396 -0.02325582504272461 0.0728771761059761
-0.28682172298431396 -0.007751941680908203 0.054073844105005264
-0.28682172298431396 -0.007751941215246916 0.07051663100719452
-0.27131783962249756 -0.20930230617523193 0.09917591512203217
-0.27131783962249756 -0.20930230617523193 0.11113016307353973
-0.27131783962249756 -0.19379842281341553 0.09257085621356964
-0.27131783962249756 -0.19379842281341553 0.10782596468925476
-0.27131783962249756 -0.1782945990562439 0.08442042768001556
-0.27131783962249756 -0.1782945990562439 0.104201540350914
-0.27131783962249756 -0.1627907156944275 0.08253835141658783
-0.27131783962249756 -0.1627907156944275 0.10198929905891418
-0.27131783962249756 -0.14728683233261108 0.0813002660870552
-0.27131783962249756 -0.14728683233261108 0.09684453904628754
-0.27131783962249756 -0.13178294897079468 0.07976190745830536
-0.27131783962249756 -0.13178294897079468 0.09176250547170639
-0.27131783962249756 -0.11627906560897827 0.07721211016178131
-0.27131783962249756 -0.11627906560897827 0.0888909250497818
-0.27131783962249756 -0.10077518224716187 0.07081298530101776
-0.27131783962249756 -0.10077517479658127 0.08733436465263367
-0.27131783962249756 -0.08527129888534546 0.06758268922567368
-0.27131783962249756 -0.08527129143476486 0.08616025000810623
-0.27131783962249756 -0.06976741552352905 0.06475181132555008
-0.27131783962249756 -0.06976741552352905 0.08279233425855637
-0.27131783962249756 -0.05426359176635742 0.05901043117046356
-0.27131783962249756 -0.05426359176635742 0.07700850814580917
-0.27131783962249756 -0.038759708404541016 0.05273330956697464
-0.27131783962249756 -0.038759708404541016 0.07316480576992035
-0.27131783962249756 -0.02325582504272461 0.05090241879224777
-0.27131783962249756 -0.02325582504272461 0.07025838643312454
-0.27131783962249756 -0.007751941680908203 0.052278004586696625
-0.27131783962249756 -0.007751941215246916 0.06002441421151161
-0.25581395626068115 -0.20930230617523193 0.10025098919868469
-0.25581395626068115 -0.20930230617523193 0.10203244537115097
-0.25581395626068115 -0.19379842281341553 0.08979599922895432
-0.25581395626068115 -0.19379842281341553 0.10534115135669708
-0.25581395626068115 -0.1782945990562439 0.08304984122514725
-0.25581395626068115 -0.1782945990562439 0.10284175723791122
-0.25581395626068115 -0.1627907156944275 0.0807453915476799
-0.25581395626068115 -0.1627907156944275 0.10032542794942856
-0.25581395626068115 -0.14728683233261108 0.07915478944778442
-0.25581395626068115 -0.14728683233261108 0.09272295236587524
-0.25581395626068115 -0.13178294897079468 0.07719264179468155
-0.25581395626068115 -0.13178294897079468 0.0893024206161499
-0.25581395626068115 -0.11627906560897827 0.07284396141767502
-0.25581395626068115 -0.11627906560897827 0.08728291094303131
-0.25581395626068115 -0.10077518224716187 0.06803213059902191
-0.25581395626068115 -0.10077518224716187 0.08615618944168091
-0.25581395626068115 -0.08527129888534546 0.0654047280550003
-0.25581395626068115 -0.08527129888534546 0.08155909180641174
-0.25581395626068115 -0.06976741552352905 0.06170106679201126
-0.25581395626068115 -0.06976741552352905 0.0752183049917221
-0.25581395626068115 -0.05426359176635742 0.05371367558836937
-0.25581395626068115 -0.05426359176635742 0.07257969677448273
-0.25581395626068115 -0.038759708404541016 0.050694823265075684
-0.25581395626068115 -0.038759708404541016 0.07042203098535538
-0.25581395626068115 -0.02325582504272461 0.046572305262088776
-0.25581395626068115 -0.02325582504272461 0.062766894698143
-0.25581395626068115 -0.007751941680908203 0.05171988531947136
-0.25581395626068115 -0.007751941680908203 0.05519111454486847
-0.24031007289886475 -0.19379842281341553 0.08546319603919983
-0.24031007289886475 -0.19379842281341553 0.10390493273735046
-0.24031007289886475 -0.1782945990562439 0.08200503140687943
-0.24031005799770355 -0.1782945990562439 0.10183323174715042
-0.24031007289886475 -0.1627907156944275 0.0792962908744812
-0.24031007289886475 -0.1627907156944275 0.09573149681091309
-0.24031005799770355 -0.14728683233261108 0.07677727192640305
-0.24031007289886475 -0.14728683233261108 0.09064096212387085
-0.24031007289886475 -0.13178294897079468 0.07290253788232803
-0.24031007289886475 -0.13178294897079468 0.0879179984331131
-0.24031007289886475 -0.11627906560897827 0.06839777529239655
-0.24031007289886475 -0.11627906560897827 0.08632523566484451
-0.24031007289886475 -0.10077518224716187 0.06580033153295517
-0.24031007289886475 -0.10077518224716187 0.08444231748580933
-0.24031007289886475 -0.08527129888534546 0.06282147765159607
-0.24031007289886475 -0.08527129888534546 0.0756458193063736
-0.24031007289886475 -0.06976741552352905 0.05642819404602051
-0.24031005799770355 -0.06976741552352905 0.07247782498598099
-0.24031007289886475 -0.05426359176635742 0.05190381780266762
-0.24031005799770355 -0.05426359176635742 0.07082847505807877
-0.24031007289886475 -0.038759708404541016 0.0474114790558815
-0.24031007289886475 -0.038759708404541016 0.06463482975959778
-0.24031007289886475 -0.02325582504272461 0.03762750327587128
-0.24031007289886475 -0.02325582504272461 0.057554956525564194
-0.22480618953704834 -0.19379842281341553 0.08457543700933456
-0.22480618953704834 -0.19379842281341553 0.10297456383705139
-0.22480618953704834 -0.1782945990562439 0.08125723153352737
-0.22480620443820953 -0.1782945990562439 0.10095717012882233
-0.22480618953704834 -0.1627907156944275 0.07787269353866577
-0.22480618953704834 -0.1627907156944275 0.09295007586479187
-0.22480618953704834 -0.14728683233261108 0.07345478236675262
-0.22480618953704834 -0.14728683233261108 0.08916998654603958
-0.22480618953704834 -0.13178294897079468 0.06866133958101273
-0.22480618953704834 -0.13178294897079468 0.08694706857204437
-0.22480618953704834 -0.11627906560897827 0.06613913178443909
-0.22480618953704834 -0.11627906560897827 0.08552362769842148
-0.22480618953704834 -0.10077518224716187 0.06318402290344238
-0.22480618953704834 -0.10077518224716187 0.07831063866615295
-0.22480618953704834 -0.08527129888534546 0.05933815613389015
-0.22480618953704834 -0.08527129888534546 0.07342495024204254
-0.22480618953704834 -0.06976741552352905 0.05295662209391594
-0.22480618953704834 -0.06976741552352905 0.0713462382555008
-0.22480618953704834 -0.05426359176635742 0.04993324726819992
-0.22480618953704834 -0.05426359176635742 0.06800398230552673
-0.22480618953704834 -0.038759708404541016 0.03864619880914688
-0.22480618953704834 -0.038759708404541016 0.058766093105077744
-0.22480618953704834 -0.02325582504272461 0.03510385379195213
-0.22480617463588715 -0.02325582504272461 0.05457751825451851
-0.20930230617523193 -0.19379842281341553 0.08408315479755402
-0.20930230617523193 -0.19379842281341553 0.10237409174442291
-0.20930230617523193 -0.1782945990562439 0.08038096129894257
-0.20930230617523193 -0.1782945990562439 0.09821121394634247
-0.20930230617523193 -0.1627907156944275 0.07564858347177505
-0.20930230617523193 -0.1627907156944275 0.09128931164741516
-0.20930230617523193 -0.14728683233261108 0.06913860142230988
-0.20930230617523193 -0.14728683233261108 0.0881945863366127
-0.20930230617523193 -0.13178294897079468 0.06640863418579102
-0.20930229127407074 -0.13178294897079468 0.08625724166631699
-0.20930230617523193 -0.11627906560897827 0.06309635937213898
-0.20930230617523193 -0.11627906560897827 0.08205794543027878
-0.20930230617523193 -0.10077518224716187 0.05880015343427658
-0.20930230617523193 -0.10077518224716187 0.07567419111728668
-0.20930230617523193 -0.08527129888534546 0.05342554301023483
-0.20930230617523193 -0.08527129888534546 0.07223942875862122
-0.20930230617523193 -0.06976741552352905 0.050322599709033966
-0.20930230617523193 -0.06976740807294846 0.07042408734560013
-0.20930230617523193 -0.05426359176635742 0.04580406844615936
-0.20930230617523193 -0.05426359176635742 0.060583069920539856
-0.20930230617523193 -0.038759708404541016 0.03597205877304077
-0.20930230617523193 -0.038759708404541016 0.05587438493967056
-0.20930230617523193 -0.02325582504272461 0.02903744950890541
-0.20930230617523193 -0.02325582504272461 0.04677325487136841
-0.19379842281341553 -0.19379842281341553 0.08363194763660431
-0.19379842281341553 -0.19379842281341553 0.10184498876333237
-0.19379842281341553 -0.1782945990562439 0.07869069278240204
-0.19379842281341553 -0.1782945990562439 0.09523608535528183
-0.19379842281341553 -0.1627907007932663 0.07032448053359985
-0.19379842281341553 -0.1627907156944275 0.08984365314245224
-0.19379842281341553 -0.14728683233261108 0.0666949525475502
-0.19379842281341553 -0.14728683233261108 0.08724427223205566
-0.19379842281341553 -0.13178294897079468 0.06275828927755356
-0.19379842281341553 -0.13178294897079468 0.08543994277715683
-0.19379842281341553 -0.11627906560897827 0.056678202003240585
-0.19379842281341553 -0.11627906560897827 0.07832273840904236
-0.19379842281341553 -0.10077518224716187 0.05218552425503731
-0.19379840791225433 -0.10077518224716187 0.07363931089639664
-0.19379842281341553 -0.08527129888534546 0.04881945252418518
-0.19379842281341553 -0.08527129888534546 0.07118146866559982
-0.19379842281341553 -0.06976741552352905 0.043510034680366516
-0.19379842281341553 -0.06976741552352905 0.06475389748811722
-0.19379842281341553 -0.05426359176635742 0.03672831878066063
-0.19379842281341553 -0.05426359176635742 0.05714148283004761
-0.19379842281341553 -0.038759708404541016 0.029419314116239548
-0.19379842281341553 -0.038759708404541016 0.050485990941524506
-0.19379842281341553 -0.02325582504272461 0.021784653887152672
-0.19379842281341553 -0.02325582504272461 0.041042134165763855
-0.1782945990562439 -0.19379842281341553 0.08296331763267517
-0.1782945990562439 -0.19379842281341553 0.1012880951166153
-0.1782945990562439 -0.1782945990562439 0.07609832286834717
-0.1782945990562439 -0.1782945990562439 0.09213918447494507
-0.1782945990562439 -0.1627907156944275 0.06798957288265228
-0.1782945990562439 -0.1627907156944275 0.08828867971897125
-0.1782945990562439 -0.14728683233261108 0.06378777325153351
-0.1782945990562439 -0.14728683233261108 0.08611097931861877
-0.1782945990562439 -0.13178294897079468 0.05699386075139046
-0.1782945990562439 -0.13178294897079468 0.08010205626487732
-0.1782945990562439 -0.11627906560897827 0.05134394019842148
-0.1782945990562439 -0.11627907305955887 0.07513320446014404
-0.1782945990562439 -0.10077518224716187 0.046519383788108826
-0.1782945990562439 -0.10077518224716187 0.07181995362043381
-0.1782945990562439 -0.08527129888534546 0.03844036906957626
-0.1782945990562439 -0.08527129888534546 0.0698784813284874
-0.1782945990562439 -0.06976741552352905 0.03518817946314812
-0.1782945990562439 -0.06976741552352905 0.059101082384586334
-0.1782945990562439 -0.05426359176635742 0.029651649296283722
-0.1782945990562439 -0.05426359176635742 0.05443408340215683
-0.1782945990562439 -0.038759708404541016 0.02138317935168743
-0.1782945990562439 -0.038759708404541016 0.04233156889677048
-0.1782945990562439 -0.02325582504272461 0.019490018486976624
-0.1782945990562439 -0.02325582504272461 0.033263739198446274
-0.1627907156944275 -0.19379842281341553 0.0820605531334877
-0.1627907156944275 -0.19379842281341553 0.09675465524196625
-0.16279073059558868 -0.1782945990562439 0.07095397263765335
-0.1627907156944275 -0.1782945990562439 0.08955011516809464
-0.1627907156944275 -0.1627907156944275 0.06563830375671387
-0.1627907156944275 -0.1627907156944275 0.08681982010602951
-0.1627907156944275 -0.14728683233261108 0.05940058454871178
-0.1627907156944275 -0.14728683233261108 0.08247802406549454
-0.1627907156944275 -0.13178294897079468 0.0518631711602211
-0.1627907156944275 -0.13178294897079468 0.07624013721942902
-0.1627907156944275 -0.11627906560897827 0.045551642775535583
-0.1627907156944275 -0.11627906560897827 0.07267066836357117
-0.1627907156944275 -0.10077518224716187 0.03696364536881447
-0.1627907156944275 -0.10077518224716187 0.07037191092967987
-0.1627907156944275 -0.08527129888534546 0.03099190816283226
-0.1627907156944275 -0.08527129888534546 0.06278300285339355
-0.1627907156944275 -0.06976741552352905 0.022661874070763588
-0.1627907156944275 -0.06976741552352905 0.056192796677351
-0.1627907156944275 -0.05426359176635742 0.02034941129386425
-0.1627907156944275 -0.05426359176635742 0.045758895576000214
-0.1627907156944275 -0.038759708404541016 0.016016876325011253
-0.1627907156944275 -0.038759708404541016 0.038203779608011246
-0.1627907156944275 -0.02325582504272461 0.0067865923047065735
-0.1627907156944275 -0.02325582504272461 0.02564225345849991
-0.14728683233261108 -0.19379842281341553 0.08119197189807892
-0.14728683233261108 -0.19379842281341553 0.09023571014404297
-0.14728683233261108 -0.1782945990562439 0.0685180127620697
-0.14728683233261108 -0.1782945841550827 0.08765783905982971
-0.14728683233261108 -0.1627907156944275 0.06289621442556381
-0.14728683233261108 -0.16279073059558868 0.08544975519180298
-0.14728683233261108 -0.14728683233261108 0.053623419255018234
-0.14728683233261108 -0.14728683233261108 0.0772152990102768
-0.14728683233261108 -0.13178294897079468 0.04794115945696831
-0.14728683233261108 -0.13178294897079468 0.0733712762594223
-0.14728683233261108 -0.11627906560897827 0.037661824375391006
-0.14728683233261108 -0.11627906560897827 0.070797860622406
-0.14728683233261108 -0.10077518224716187 0.029392210766673088
-0.14728683233261108 -0.10077518224716187 0.06563389301300049
-0.14728683233261108 -0.08527129888534546 0.02087167650461197
-0.14728683233261108 -0.08527129888534546 0.05891908332705498
-0.14728683233261108 -0.06976741552352905 0.01655876636505127
-0.14728683233261108 -0.06976741552352905 0.0533982589840889
-0.14728683233261108 -0.05426359176635742 0.008267947472631931
-0.14728683233261108 -0.05426359176635742 0.04184754192829132
-0.14728683233261108 -0.038759708404541016 0.006071447394788265
-0.14728683233261108 -0.038759708404541016 0.0298323892056942
-0.14728683233261108 -0.02325582504272461 0.005452239885926247
-0.14728683233261108 -0.02325582504272461 0.019415291026234627
-0.13178294897079468 -0.19379842281341553 0.07914844155311584
-0.13178294897079468 -0.19379842281341553 0.08775171637535095
-0.13178294897079468 -0.1782945990562439 0.06687653064727783
-0.13178294897079468 -0.1782945990562439 0.0863989070057869
-0.13178294897079468 -0.1627907156944275 0.058879610151052475
-0.13178294897079468 -0.1627907156944275 0.07924974709749222
-0.13178294897079468 -0.14728683233261108 0.051180168986320496
-0.13178294897079468 -0.14728683233261108 0.07427167892456055
-0.13178294897079468 -0.13178294897079468 0.04258183389902115
-0.13178294897079468 -0.13178294897079468 0.07149551808834076
-0.13178294897079468 -0.11627906560897827 0.0333557091653347
-0.13178294897079468 -0.11627906560897827 0.06801081448793411
-0.13178294897079468 -0.10077518224716187 0.021175598725676537
-0.13178294897079468 -0.10077518224716187 0.061749763786792755
-0.13178294897079468 -0.08527129888534546 0.012261888943612576
-0.13178294897079468 -0.08527129888534546 0.05694904550909996
-0.13178294897079468 -0.06976741552352905 0.006333497352898121
-0.13178294897079468 -0.06976741552352905 0.0494593009352684
-0.13178294897079468 -0.05426359176635742 0.004346107132732868
-0.13178294897079468 -0.05426359549164772 0.04006043076515198
-0.13178294897079468 -0.038759708404541016 0.0018362021073698997
-0.13178294897079468 -0.038759708404541016 0.02695191279053688
-0.13178294897079468 -0.02325582504272461 -0.007138283457607031
-0.13178294897079468 -0.02325582504272461 0.014800267294049263
-0.11627906560897827 -0.19379842281341553 0.0734194815158844
-0.11627906560897827 -0.19379842281341553 0.08689326792955399
-0.11627906560897827 -0.1782945990562439 0.0647464171051979
-0.11627906560897827 -0.1782945990562439 0.08557344228029251
-0.11627906560897827 -0.1627907156944275 0.05373015254735947
-0.11627906560897827 -0.1627907156944275 0.0765777975320816
-0.11627906560897827 -0.14728683233261108 0.04811665043234825
-0.11627906560897827 -0.14728683233261108 0.07288165390491486
-0.11627906560897827 -0.13178294897079468 0.0375056155025959
-0.11627906560897827 -0.13178294897079468 0.07050565630197525
-0.11627906560897827 -0.11627906560897827 0.027089130133390427
-0.11627906560897827 -0.11627906560897827 0.06443324685096741
-0.11627906560897827 -0.10077518224716187 0.015477677807211876
-0.11627906560897827 -0.10077518224716187 0.05959773063659668
-0.11627906560897827 -0.08527129888534546 0.0054748523980379105
-0.11627906560897827 -0.08527129888534546 0.05559549853205681
-0.11627906560897827 -0.06976741552352905 0.0005796197801828384
-0.11627906560897827 -0.06976741552352905 0.047308050096035004
-0.11627906560897827 -0.05426359176635742 -0.006013191305100918
-0.11627906560897827 -0.05426359176635742 0.038868583738803864
-0.11627906560897827 -0.038759708404541016 -0.009012334048748016
-0.11627906560897827 -0.038759708404541016 0.025502707809209824
-0.11627906560897827 -0.02325582504272461 -0.009872721508145332
-0.11627906560897827 -0.02325582504272461 0.012240530923008919
-0.11627906560897827 -0.007751941680908203 -0.008632473647594452
-0.11627906560897827 -0.007751941680908203 -0.003866582177579403
-0.10077518224716187 -0.19379842281341553 0.06843094527721405
-0.10077518224716187 -0.19379842281341553 0.0864381417632103
-0.10077518224716187 -0.1782945990562439 0.05974666401743889
-0.10077518224716187 -0.1782945990562439 0.0838514193892479
-0.10077518224716187 -0.1627907156944275 0.05075090751051903
-0.10077518224716187 -0.1627907156944275 0.07588907331228256
-0.10077518224716187 -0.14728683233261108 0.04132377728819847
-0.10077517479658127 -0.14728683233261108 0.07248019427061081
-0.10077518224716187 -0.13178294897079468 0.03322041407227516
-0.10077518224716187 -0.13178293406963348 0.07012437283992767
-0.10077518224716187 -0.11627906560897827 0.020914912223815918
-0.10077518224716187 -0.11627906560897827 0.06305275857448578
-0.10077518224716187 -0.10077518224716187 0.006776423193514347
-0.10077518969774246 -0.10077518969774246 0.05842176079750061
-0.10077518224716187 -0.08527129888534546 -0.0030848956666886806
-0.10077517479658127 -0.08527129888534546 0.05443286895751953
-0.10077518224716187 -0.06976741552352905 -0.009404601529240608
-0.10077518224716187 -0.06976741552352905 0.04497064650058746
-0.10077518224716187 -0.05426359176635742 -0.011707279831171036
-0.10077518224716187 -0.05426359176635742 0.03464612737298012
-0.10077518224716187 -0.038759708404541016 -0.014426486566662788
-0.10077518224716187 -0.038759708404541016 0.023610560223460197
-0.10077517479658127 -0.02325582504272461 -0.017571542412042618
-0.10077518224716187 -0.02325582504272461 0.009495530277490616
-0.10077518224716187 -0.007751941680908203 -0.016596414148807526
-0.10077518224716187 -0.007751941680908203 -0.005849000066518784
-0.10077518224716187 0.11627912521362305 -0.0705210268497467
-0.10077518224716187 0.11627912521362305 -0.06783692538738251
-0.10077518224716187 0.1317828893661499 -0.07145380228757858
-0.10077518224716187 0.1317828893661499 -0.06812088936567307
-0.08527129888534546 -0.19379842281341553 0.06454748660326004
-0.08527129888534546 -0.19379842281341553 0.08610689640045166
-0.08527129888534546 -0.1782945990562439 0.05243207514286041
-0.08527129888534546 -0.1782945990562439 0.08301034569740295
-0.08527129888534546 -0.1627907156944275 0.043950408697128296
-0.08527129888534546 -0.1627907156944275 0.0762418806552887
-0.08527129888534546 -0.14728683233261108 0.03529399260878563
-0.08527129888534546 -0.14728683233261108 0.07259304821491241
-0.08527129888534546 -0.13178294897079468 0.02481192536652088
-0.08527129888534546 -0.13178294897079468 0.06996818631887436
-0.08527129888534546 -0.11627906560897827 0.015911448746919632
-0.08527129888534546 -0.11627906560897827 0.06232641637325287
-0.08527129888534546 -0.10077518224716187 0.001914676045998931
-0.08527129888534546 -0.10077518224716187 0.05741294100880623
-0.08527129888534546 -0.08527129888534546 -0.010922150686383247
-0.08527129888534546 -0.08527129888534546 0.05177108198404312
-0.08527129888534546 -0.06976741552352905 -0.0204918272793293
-0.08527129888534546 -0.06976741552352905 0.04207165166735649
-0.08527129888534546 -0.05426359176635742 -0.1475202590227127
-0.08527129888534546 -0.05426359176635742 -0.13094393908977509
-0.08527129888534546 -0.05426359176635742 -0.026675021275877953
-0.08527129888534546 -0.05426359176635742 0.03013836406171322
-0.08527129888534546 -0.038759708404541016 -0.13735468685626984
-0.08527129888534546 -0.038759708404541016 -0.1290074735879898
-0.08527129888534546 -0.038759708404541016 -0.030655603855848312
-0.08527129888534546 -0.038759708404541016 0.016587726771831512
-0.08527129888534546 -0.02325582504272461 -0.039485324174165726
-0.08527129888534546 -0.02325582504272461 0.004083998501300812
-0.08527129888534546 -0.007751941680908203 -0.045209936797618866
-0.08527129888534546 -0.007751941680908203 -0.007146339863538742
-0.08527129888534546 0.007751941680908203 -0.047785233706235886
-0.08527129888534546 0.007751941680908203 -0.016968972980976105
-0.08527129888534546 0.02325582318007946 -0.04991380125284195
-0.08527129888534546 0.02325582504272461 -0.022808048874139786
-0.08527129888534546 0.038759708404541016 -0.0544879175722599
-0.08527129888534546 0.038759708404541016 -0.043314747512340546
-0.08527129888534546 0.05426359176635742 -0.05534835532307625
-0.08527129888534546 0.05426359176635742 -0.05277315899729729
-0.08527129888534546 0.06976747512817383 -0.05770545080304146
-0.08527129888534546 0.06976747512817383 -0.05327034369111061
-0.08527129888534546 0.08527135848999023 -0.07025601714849472
-0.08527129888534546 0.08527135848999023 -0.05409078672528267
-0.08527129888534546 0.10077524185180664 -0.07195689529180527
-0.08527129888534546 0.10077524185180664 -0.06304840743541718
-0.08527129888534546 0.11627912521362305 -0.07548719644546509
-0.08527129888534546 0.11627912521362305 -0.0660967156291008
-0.08527129888534546 0.1317828893661499 -0.08248080313205719
-0.08527129888534546 0.1317828893661499 -0.06726875901222229
-0.08527129888534546 0.1472867727279663 -0.08522824198007584
-0.08527129888534546 0.1472867727279663 -0.06798567622900009
-0.08527129888534546 0.16279065608978271 -0.07403634488582611
-0.08527130633592606 0.16279065608978271 -0.06871949136257172
-0.06976741552352905 -0.19379842281341553 0.05404239892959595
-0.06976741552352905 -0.19379842281341553 0.0860627293586731
-0.06976741552352905 -0.1782945990562439 0.04565506428480148
-0.06976741552352905 -0.1782945990562439 0.08397838473320007
-0.06976741552352905 -0.1627907156944275 0.035760894417762756
