-0.08543288707733154 0.05426359176635742 -0.11627906560897827
-0.08558661490678787 0.06976747512817383 -0.11627906560897827
-0.0866747498512268 0.28682172298431396 0.06976747512817383
-0.08824695646762848 0.30232560634613037 0.06976747512817383
-0.08850735425949097 0.3178294897079468 0.06976747512817383
-0.08774154633283615 0.3333333730697632 0.06976747512817383
-0.08671706914901733 0.3488372564315796 0.06976747512817383
-0.08667997270822525 0.41085267066955566 0.05426359176635742
-0.08598363399505615 0.42635655403137207 0.05426359176635742
-0.07062502205371857 -0.20930230617523193 0.06976747512817383
-0.07565963268280029 -0.20930230617523193 0.08527135848999023
-0.07226579636335373 -0.20930230617523193 0.10077524185180664
-0.07786279916763306 -0.19379842281341553 0.06976747512817383
-0.08420278131961823 -0.19379840791225433 0.08527135848999023
-0.07660427689552307 -0.19379842281341553 0.10077524185180664
-0.07000309973955154 -0.1782945990562439 0.05426359176635742
-0.08024375140666962 -0.1782945990562439 0.06976747512817383
-0.07611815631389618 -0.1782945990562439 0.10077524185180664
-0.07273401319980621 -0.1627907156944275 0.05426359176635742
-0.07285530865192413 -0.1627907156944275 0.10077524185180664
-0.0704166367650032 -0.14728683233261108 0.038759708404541016
-0.08309203386306763 -0.13178294897079468 0.038759708404541016
-0.0758378803730011 -0.11627906560897827 0.02325582504272461
-0.07153546810150146 -0.10077518224716187 0.007751941680908203
-0.06983587145805359 -0.08527129888534546 -0.007751941680908203
-0.08420397341251373 -0.08527129888534546 0.007751941680908203
-0.06981369107961655 -0.06976741552352905 -0.02325582504272461
-0.08402399718761444 -0.06976742297410965 -0.00775194214656949
-0.07419855892658234 -0.05426359176635742 -0.10077518224716187
-0.08126477897167206 -0.05426359176635742 -0.08527129888534546
-0.0835319310426712 -0.05426359176635742 -0.06976741552352905
-0.07821178436279297 -0.05426359176635742 -0.05426359176635742
-0.07558373361825943 -0.05426359176635742 -0.038759708404541016
-0.08370533585548401 -0.05426359176635742 -0.02325582504272461
-0.07330718636512756 -0.038759708404541016 -0.11627906560897827
-0.07020353525876999 -0.038759708404541016 -0.10077518224716187
-0.07024344056844711 -0.038759708404541016 -0.038759708404541016
-0.07339736819267273 -0.02325582504272461 -0.11627906560897827
-0.07987602055072784 -0.02325582504272461 -0.02325582504272461
-0.0797061175107956 0.007751941680908203 0.05426359176635742
-0.08088277280330658 0.02325582504272461 -0.02325582504272461
-0.0802190974354744 0.02325582690536976 0.038759708404541016
-0.06993013620376587 0.038759708404541016 -0.11627906560897827
-0.07155361026525497 0.038759708404541016 -0.038759708404541016
-0.07053697109222412 0.038759708404541016 0.038759708404541016
-0.0720609724521637 0.05426359176635742 -0.06976741552352905
-0.08116938918828964 0.05426359176635742 -0.05426359176635742
-0.08455231040716171 0.05426359176635742 -0.038759708404541016
-0.08328278362751007 0.05426359176635742 -0.02325582690536976
-0.08114445954561234 0.05426359176635742 -0.007751941680908203
-0.07799319177865982 0.05426359176635742 0.007751941680908203
-0.07241639494895935 0.05426359176635742 0.02325582504272461
-0.07044573128223419 0.06976747512817383 -0.10077518224716187
-0.07910877466201782 0.06976747512817383 -0.06976741552352905
-0.08311228454113007 0.06976747512817383 -0.05426359176635742
-0.08078394085168839 0.06976747512817383 -0.038759708404541016
-0.07660243660211563 0.06976747512817383 -0.02325582504272461
-0.0727342963218689 0.06976747512817383 -0.007751941680908203
-0.0789826512336731 0.08527135848999023 -0.11627906560897827
-0.0714268758893013 0.08527135848999023 -0.06976741552352905
-0.07487423717975616 0.08527135848999023 -0.05426359176635742
-0.07290738821029663 0.08527135848999023 -0.038759708404541016
-0.07243373245000839 0.10077524185180664 -0.11627906560897827
-0.07081619650125504 0.11627912521362305 -0.11627906560897827
-0.07206583768129349 0.1317828893661499 -0.11627906560897827
-0.07364846020936966 0.1472867727279663 -0.11627906560897827
-0.0720786601305008 0.16279065608978271 -0.11627906560897827
-0.07256447523832321 0.27131783962249756 0.06976747512817383
-0.0726037546992302 0.30232560634613037 0.05426359176635742
-0.07122092694044113 0.3178294897079468 0.05426359176635742
-0.0700300857424736 0.3333333730697632 0.05426359176635742
-0.08351434767246246 0.364341139793396 0.06976747512817383
-0.0736507773399353 0.37984490394592285 0.06976747512817383
-0.07221350073814392 0.39534878730773926 0.06976747512817383
-0.07025134563446045 0.41085267066955566 0.06976747512817383
-0.07780882716178894 0.4418604373931885 0.05426359176635742
-0.07301015406847 0.4573643207550049 0.05426359176635742
-0.05448727682232857 -0.25581395626068115 0.10077524185180664
-0.05459589883685112 -0.25581395626068115 0.11627912521362305
-0.05512336269021034 -0.24031007289886475 0.08527135848999023
-0.05742689594626427 -0.24031007289886475 0.10077524185180664
-0.05627947300672531 -0.24031007289886475 0.11627912521362305
-0.05679845064878464 -0.22480618953704834 0.06976747512817383
-0.06598908454179764 -0.22480618953704834 0.08527135848999023
-0.06545525044202805 -0.22480618953704834 0.10077524185180664
-0.05907541513442993 -0.22480618953704834 0.11627912521362305
-0.06253643333911896 -0.20930230617523193 0.11627912521362305
-0.06253506988286972 -0.19379842281341553 0.05426359176635742
-0.06317497789859772 -0.19379842281341553 0.11627912521362305
-0.058512426912784576 -0.1782945990562439 0.11627912521362305
-0.057492613792419434 -0.1627907156944275 0.038759708404541016
-0.06737575680017471 -0.14728683233261108 0.10077524185180664
-0.06304474174976349 -0.13178294897079468 0.02325582504272461
-0.061287976801395416 -0.13178294897079468 0.10077524185180664
-0.05567706376314163 -0.11627906560897827 0.10077524185180664
-0.06673672050237656 -0.08527129143476486 -0.007751941680908203
-0.06967254728078842 -0.06976741552352905 -0.02325582504272461
-0.0655159056186676 -0.05426359176635742 -0.05426359176635742
-0.06678657233715057 -0.05426359176635742 -0.038759708404541016
-0.05494290217757225 -0.05426359176635742 -0.02325582504272461
-0.06781062483787537 -0.038759708404541016 -0.10077518224716187
-0.06960239261388779 -0.038759712129831314 -0.038759712129831314
-0.05629758909344673 -0.038759708404541016 -0.02325582504272461
-0.060568928718566895 -0.038759708404541016 0.08527135848999023
-0.06637971848249435 -0.02325582504272461 -0.02325582504272461
-0.06749656051397324 -0.007751941215246916 0.06976747512817383
-0.06650259345769882 0.02325582504272461 -0.02325582504272461
-0.06167806684970856 0.02325582504272461 0.05426359176635742
-0.06920971721410751 0.038759708404541016 -0.038759708404541016
-0.06017838418483734 0.038759708404541016 -0.02325582504272461
-0.06835527718067169 0.05426359176635742 -0.06976741552352905
-0.06411869078874588 0.05426359176635742 -0.05426359176635742
-0.060727640986442566 0.05426359176635742 -0.038759708404541016
-0.05660172179341316 0.05426359176635742 0.02325582504272461
-0.06556924432516098 0.06976747512817383 -0.10077518224716187
-0.06299763917922974 0.06976747512817383 -0.06976741552352905
-0.060662176460027695 0.06976747512817383 -0.05426359176635742
-0.058828555047512054 0.06976747512817383 -0.038759708404541016
-0.05528612807393074 0.06976747512817383 -0.02325582504272461
-0.05664455145597458 0.06976747512817383 -0.007751941680908203
-0.0686519667506218 0.08527135848999023 -0.06976741552352905
-0.0665307566523552 0.08527135848999023 -0.05426359176635742
-0.0666375458240509 0.08527135848999023 -0.038759708404541016
-0.06038188189268112 0.1472867727279663 0.05426359176635742
-0.06568439304828644 0.16279065608978271 0.05426359176635742
-0.059868939220905304 0.17829453945159912 0.05426359176635742
-0.05783042311668396 0.25581395626068115 0.06976747512817383
-0.06417364627122879 0.3333333730697632 0.05426359549164772
-0.06142229586839676 0.41085267066955566 0.05426359176635742
-0.05960295349359512 0.42635655403137207 0.06976747512817383
-0.06839019805192947 0.4728681743144989 0.05426359176635742
-0.03999648988246918 -0.3798449635505676 0.1317828893661499
-0.04003807529807091 -0.3643410801887512 0.1317828893661499
-0.04045867919921875 -0.317829430103302 0.11627912521362305
-0.044590286910533905 -0.30232560634613037 0.11627912521362305
-0.039012666791677475 -0.30232560634613037 0.1317828893661499
-0.044065482914447784 -0.28682172298431396 0.10077524185180664
-0.04782415181398392 -0.28682172298431396 0.11627912521362305
-0.040484167635440826 -0.28682172298431396 0.1317828893661499
-0.04896201193332672 -0.27131783962249756 0.10077524185180664
-0.05110366269946098 -0.27131783962249756 0.11627912521362305
-0.04308324307203293 -0.27131783962249756 0.1317828893661499
-0.04483753442764282 -0.25581395626068115 0.08527135848999023
-0.045232877135276794 -0.25581395626068115 0.1317828893661499
-0.04656720533967018 -0.24031007289886475 0.1317828893661499
-0.046886615455150604 -0.22480618953704834 0.1317828893661499
-0.04662002623081207 -0.20930230617523193 0.05426359176635742
-0.045168641954660416 -0.20930230617523193 0.1317828893661499
-0.0411880724132061 -0.19379842281341553 0.1317828893661499
-0.04357583075761795 -0.1782945990562439 0.038759708404541016
-0.04961976781487465 -0.1627907156944275 0.11627913266420364
-0.04027242213487625 -0.14728683233261108 0.02325582504272461
-0.048039957880973816 -0.10077518224716187 0.10077524185180664
-0.04196827486157417 -0.06976741552352905 -0.007751941680908203
-0.050241366028785706 -0.05426359176635742 -0.10077518224716187
-0.05172371491789818 -0.05426359176635742 -0.08527129888534546
-0.05417771637439728 -0.05426359176635742 -0.06976741552352905
-0.05203964188694954 -0.038759708404541016 -0.11627906560897827
-0.053048234432935715 -0.02325582690536976 -0.11627906560897827
-0.04374227672815323 -0.02325582504272461 -0.007751941680908203
-0.049293119460344315 -0.007751941680908203 -0.007751941680908203
-0.05023524537682533 0.007751941680908203 -0.007751941680908203
-0.04654795303940773 0.007751941680908203 0.06976747512817383
-0.04850281402468681 0.02325582504272461 -0.007751941680908203
-0.053891994059085846 0.038759708404541016 -0.11627907305955887
-0.05078856647014618 0.038759708404541016 -0.007751941680908203
-0.04104173928499222 0.038759708404541016 0.007751941680908203
-0.05041232332587242 0.038759708404541016 0.05426359176635742
-0.04538080096244812 0.05426359176635742 -0.11627906560897827
-0.05412708595395088 0.05426359176635742 -0.02325582690536976
-0.053009480237960815 0.05426359176635742 -0.007751941680908203
-0.052986275404691696 0.05426358804106712 0.007751941215246916
-0.040450580418109894 0.06976747512817383 -0.11627906560897827
-0.04552820324897766 0.08527135848999023 -0.11627906560897827
-0.050664424896240234 0.10077524185180664 -0.11627906560897827
-0.050898339599370956 0.11627912521362305 -0.11627906560897827
-0.04631827771663666 0.1317828893661499 -0.11627906560897827
-0.04146139323711395 0.1472867727279663 -0.11627906560897827
-0.04583566635847092 0.1472867727279663 0.05426359176635742
-0.045226387679576874 0.16279065608978271 -0.11627906560897827
-0.046526432037353516 0.17829453945159912 0.05426359176635742
-0.049570146948099136 0.25581395626068115 0.06976747512817383
-0.04357459396123886 0.27131783962249756 0.06976747512817383
-0.05339745804667473 0.30232560634613037 0.05426359176635742
-0.053602661937475204 0.3178294897079468 0.05426359549164772
-0.04058511182665825 0.41085267066955566 0.06976747512817383
-0.05325227975845337 0.42635655403137207 0.05426359176635742
-0.0402335487306118 0.42635655403137207 0.06976747512817383
-0.05126059427857399 0.4418604075908661 0.05426359176635742
-0.05089524760842323 0.4573643207550049 0.05426359176635742
-0.051141105592250824 0.4728682041168213 0.05426359176635742
-0.030950792133808136 -0.39534884691238403 0.1317828893661499
-0.029938453808426857 -0.39534884691238403 0.1472867727279663
-0.03433072566986084 -0.3798449635505676 0.1472867727279663
-0.024896178394556046 -0.3643410801887512 0.11627912521362305
-0.026136262342333794 -0.3643410801887512 0.1472867727279663
-0.02890819124877453 -0.3488371968269348 0.11627912521362305
-0.03516848385334015 -0.3488371968269348 0.1317828893661499
-0.034142520278692245 -0.3333333134651184 0.11627913266420364
-0.033133551478385925 -0.3333333134651184 0.1317828893661499
-0.023375127464532852 -0.317829430103302 0.10077524185180664
-0.035940021276474 -0.3178294599056244 0.1317828893661499
-0.03618915379047394 -0.30232560634613037 0.10077524185180664
-0.03574846312403679 -0.27131783962249756 0.08527135848999023
-0.03679739683866501 -0.24031007289886475 0.06976747512817383
-0.030133264139294624 -0.1782945990562439 0.1317828893661499
-0.037986576557159424 -0.14728683233261108 0.11627912521362305
-0.03444357588887215 -0.08527129888534546 0.10077524930238724
-0.03673626482486725 -0.05426359176635742 -0.007751941680908203
-0.03787120804190636 -0.038759708404541016 -0.00775194214656949
-0.029876913875341415 -0.02325582504272461 0.08527135848999023
-0.030496729537844658 0.02325582504272461 0.007751941680908203
-0.03429729864001274 0.038759708404541016 0.02325582504272461
-0.028724947944283485 0.05426359176635742 0.05426359176635742
-0.038721200078725815 0.16279065608978271 0.05426359176635742
-0.038536909967660904 0.28682175278663635 0.06976747512817383
-0.03810626640915871 0.30232560634613037 0.06976747512817383
-0.038028597831726074 0.3178294897079468 0.06976747512817383
-0.038141120225191116 0.3333333730697632 0.06976747512817383
-0.038171734660863876 0.348837286233902 0.06976747512817383
-0.03800816461443901 0.364341139793396 0.06976746767759323
-0.03792821615934372 0.37984490394592285 0.06976747512817383
-0.03865238279104233 0.39534878730773926 0.06976747512817383
-0.010980172082781792 -0.42635661363601685 0.1472867727279663
-0.0148092582821846 -0.41085273027420044 0.1317828893661499
-0.018017521128058434 -0.41085273027420044 0.1472867727279663
-0.009788461960852146 -0.39534884691238403 0.11627912521362305
-0.0204776581376791 -0.3798449635505676 0.11627912521362305
-0.020807622000575066 -0.28682172298431396 0.08527135848999023
-0.014778079465031624 -0.14728683233261108 0.02325582504272461
-0.02288975939154625 -0.13178294897079468 0.11627912521362305
-0.008504706434905529 -0.10077518224716187 0.007751941680908203
-0.017149241641163826 -0.007751941680908203 0.007751941680908203
-0.022705404087901115 0.007751941680908203 0.007751941680908203
-0.015190145000815392 0.05426359176635742 0.05426359176635742
-0.006261912174522877 -0.02325582318007946 0.007751941680908203
0.0007883571088314056 0.05426359176635742 0.05426359176635742
0.011803343892097473 -0.42635661363601685 0.1472867727279663
0.014574430882930756 -0.41085273027420044 0.1317828893661499
0.018449408933520317 -0.41085273027420044 0.1472867727279663
0.009369448758661747 -0.39534884691238403 0.11627912521362305
0.017340801656246185 -0.3798449635505676 0.11627912521362305
0.020091956481337547 -0.3643410801887512 0.11627912521362305
0.01804286427795887 -0.317829430103302 0.10077524185180664
0.01451832428574562 -0.28682172298431396 0.08527135848999023
0.02211453579366207 -0.13178294897079468 0.11627912521362305
0.01741786301136017 -0.02325582504272461 0.007751941680908203
0.014263708144426346 0.05426359549164772 0.038759708404541016
0.029116809368133545 -0.39534884691238403 0.1317828893661499
0.029470782727003098 -0.39534884691238403 0.1472867727279663
0.038306135684251785 -0.3798449635505676 0.1317828893661499
0.03215210139751434 -0.3798449635505676 0.1472867727279663
0.03686540946364403 -0.3643410801887512 0.1317828893661499
0.024089345708489418 -0.3643410801887512 0.1472867727279663
0.026053834706544876 -0.3488371968269348 0.11627912521362305
0.03156370669603348 -0.3488371968269348 0.1317828893661499
0.03100096806883812 -0.3333333134651184 0.11627912521362305
0.030424878001213074 -0.3333333134651184 0.1317828893661499
0.037856459617614746 -0.317829430103302 0.11627912521362305
0.03216707333922386 -0.317829430103302 0.1317828893661499
0.032071154564619064 -0.30232560634613037 0.10077524185180664
0.03447777032852173 -0.30232560634613037 0.1317828893661499
0.03796564042568207 -0.28682172298431396 0.1317828893661499
0.030529987066984177 -0.27131783962249756 0.08527135848999023
0.026927119120955467 -0.24031007289886475 0.06976747512817383
0.031242255121469498 -0.20930230617523193 0.05426359176635742
0.028502028435468674 -0.1782945990562439 0.038759708404541016
0.029048528522253036 -0.1782945990562439 0.1317828893661499
0.03664158284664154 -0.14728683233261108 0.11627912521362305
0.03267570957541466 -0.10077518224716187 0.007751941680908203
0.025236235931515694 -0.08527130633592606 0.10077524185180664
0.023423491045832634 -0.02325582690536976 0.08527135848999023
0.02837560884654522 -0.007751941680908203 0.007751941680908203
0.03309827297925949 0.007751941680908203 0.007751941680908203
0.037770599126815796 0.02325582504272461 0.007751941680908203
0.02754920721054077 0.05426358804106712 0.038759708404541016
0.030041076242923737 0.05426359176635742 0.05426359176635742
0.03769512474536896 0.1472867727279663 0.05426359176635742
0.036926329135894775 0.16279065608978271 0.05426359176635742
0.03746272623538971 0.17829453945159912 0.05426359176635742
0.03811251372098923 0.28682172298431396 0.06976747512817383
0.03777550160884857 0.30232560634613037 0.06976747512817383
0.03777971863746643 0.3178294897079468 0.06976747512817383
0.03798949718475342 0.3333333730697632 0.06976747512817383
0.03807362541556358 0.3488372564315796 0.06976747512817383
0.03784216567873955 0.364341139793396 0.06976747512817383
0.037521444261074066 0.37984490394592285 0.06976747512817383
0.03742378205060959 0.39534878730773926 0.06976747512817383
0.03721153736114502 0.41085267066955566 0.06976747512817383
0.03738567233085632 0.42635655403137207 0.06976747512817383
0.04106120765209198 -0.30232560634613037 0.11627911776304245
0.03988179564476013 -0.28682172298431396 0.10077524185180664
0.043770432472229004 -0.28682172298431396 0.11627912521362305
0.044450581073760986 -0.27131783962249756 0.10077524930238724
0.04641755670309067 -0.27131783962249756 0.11627912521362305
0.04046465456485748 -0.27131783962249756 0.1317828893661499
0.03981739282608032 -0.25581395626068115 0.08527136594057083
0.04793882369995117 -0.25581395626068115 0.10077524185180664
0.04930582642555237 -0.25581395626068115 0.11627912521362305
0.04321053624153137 -0.25581395626068115 0.1317828893661499
0.04638826102018356 -0.24031007289886475 0.08527135848999023
0.053229983896017075 -0.24031007289886475 0.10077524185180664
0.05355856940150261 -0.24031007289886475 0.11627912521362305
0.0450790673494339 -0.24031007289886475 0.1317828893661499
0.04586035758256912 -0.22480618953704834 0.06976747512817383
0.0456303209066391 -0.22480618953704834 0.1317828893661499
0.043996892869472504 -0.20930230617523193 0.1317828893661499
0.04012630507349968 -0.19379842281341553 0.1317828893661499
0.04773518443107605 -0.1627907156944275 0.038759708404541016
0.04609893262386322 -0.1627907156944275 0.11627912521362305
0.04752550274133682 -0.11627906560897827 0.10077524185180664
0.03970587998628616 -0.10077518224716187 0.10077524185180664
0.05380500108003616 -0.06976741552352905 -0.007751941680908203
0.05265120416879654 -0.05426359176635742 -0.10077518224716187
0.05325835570693016 -0.05426359176635742 -0.08527129888534546
0.04833253473043442 -0.05426359176635742 -0.007751941680908203
0.05396093428134918 -0.038759708404541016 -0.11627906560897827
0.04896198958158493 -0.038759708404541016 -0.007751941680908203
0.04730095714330673 -0.038759708404541016 0.08527135848999023
0.05232817679643631 -0.02325582504272461 -0.007751941680908203
0.041427578777074814 0.007751941680908203 0.06976747512817383
0.05366886779665947 0.02325582504272461 -0.007751941680908203
0.05397011712193489 0.038759708404541016 -0.007751941680908203
0.050947945564985275 0.038759708404541016 0.007751941680908203
0.04608876258134842 0.038759708404541016 0.038759708404541016
0.0421309694647789 0.038759708404541016 0.05426359176635742
0.05157867819070816 0.05426359176635742 -0.11627906560897827
0.048553746193647385 0.06976747512817383 -0.11627906560897827
0.050275519490242004 0.08527135848999023 -0.11627906560897827
0.052255213260650635 0.10077524185180664 -0.11627906560897827
0.051977548748254776 0.11627912521362305 -0.11627906560897827
0.04733928292989731 0.1317828893661499 -0.11627906560897827
0.042442891746759415 0.1472867727279663 -0.11627906560897827
0.045662425458431244 0.16279065608978271 -0.11627906560897827
0.043054018169641495 0.27131783962249756 0.06976747512817383
0.05087630823254585 0.42635655403137207 0.05426359176635742
0.04684602469205856 0.4418604373931885 0.05426359176635742
0.046606823801994324 0.4573643207550049 0.05426359176635742
0.04879016801714897 0.4728682041168213 0.05426359176635742
0.05709117650985718 -0.22480618953704834 0.08527135848999023
0.057535070925951004 -0.22480618953704834 0.10077524185180664
0.05570155754685402 -0.22480618953704834 0.11627912521362305
0.06198170408606529 -0.20930230617523193 0.06976747512817383
0.06609296798706055 -0.20930230617523193 0.10077524185180664
0.057835742831230164 -0.20930230617523193 0.11627912521362305
0.055260684341192245 -0.19379842281341553 0.05426359176635742
0.05853690952062607 -0.19379842281341553 0.11627912521362305
0.06084350124001503 -0.1782945990562439 0.05426359176635742
0.05529183894395828 -0.1782945990562439 0.11627912521362305
0.06766600906848907 -0.1627907156944275 0.05426359176635742
0.06766688823699951 -0.1627907156944275 0.10077524185180664
0.06356627494096756 -0.14728683233261108 0.038759708404541016
0.06020946428179741 -0.14728683233261108 0.10077524185180664
0.056212496012449265 -0.13178294897079468 0.02325582504272461
0.05547269806265831 -0.13178294897079468 0.10077524185180664
0.06086568534374237 -0.10077518224716187 0.007751941680908203
0.06236269325017929 -0.05426359176635742 -0.06976741552352905
0.06904000043869019 -0.05426359176635742 -0.05426359176635742
0.06659335643053055 -0.05426359176635742 -0.02325582504272461
0.06724825501441956 -0.038759708404541016 -0.02325582504272461
0.0568184033036232 -0.007751941680908203 -0.007751941680908203
0.05964598059654236 -0.007751941680908203 0.06976747512817383
0.05769885331392288 0.007751941680908203 -0.007751941680908203
0.05583526939153671 0.02325582504272461 0.05426359176635742
0.0679873526096344 0.038759708404541016 -0.02325582504272461
0.055634595453739166 0.038759708404541016 0.02325582504272461
0.06854989379644394 0.05426359176635742 -0.05426359176635742
0.06623116135597229 0.05426359176635742 -0.038759708404541016
0.06254588067531586 0.05426359176635742 -0.02325582504272461
0.059910908341407776 0.05426359176635742 -0.007751941680908203
0.06527289003133774 0.05426359176635742 0.007751941680908203
0.06822330504655838 0.06976747512817383 -0.06976741552352905
0.06485988944768906 0.06976747512817383 -0.05426359176635742
0.06314939260482788 0.06976747512817383 -0.038759708404541016
0.06441070884466171 0.06976747512817383 -0.02325582504272461
0.06948192417621613 0.08527135848999023 -0.05426359176635742
0.058136530220508575 0.1472867727279663 0.05426359176635742
0.06115522235631943 0.16279065608978271 0.05426359176635742
0.05734862759709358 0.17829453945159912 0.05426359176635742
0.06687100231647491 0.37984490394592285 0.06976747512817383
0.06886780261993408 0.39534878730773926 0.05426359176635742
0.06543958187103271 0.39534878730773926 0.06976747512817383
0.05994153767824173 0.41085267066955566 0.05426359176635742
0.061632029712200165 0.41085267066955566 0.06976747512817383
0.05608300492167473 0.42635655403137207 0.06976747512817383
0.06306612491607666 0.4728682041168213 0.05426359176635742
0.0699634999036789 -0.20930229127407074 0.08527135848999023
0.0723082646727562 -0.19379840791225433 0.06976747512817383
0.07643269002437592 -0.19379842281341553 0.08527135848999023
0.07140779495239258 -0.19379842281341553 0.10077524185180664
0.07431942969560623 -0.1782945990562439 0.06976747512817383
0.07784433662891388 -0.1782945990562439 0.08527135848999023
0.07139100879430771 -0.1782945990562439 0.10077524185180664
0.0766051709651947 -0.1627907156944275 0.06976747512817383
0.07858783006668091 -0.1627907156944275 0.08527135848999023
0.08025749027729034 -0.14728683233261108 0.05426359176635742
0.07799994945526123 -0.13178294897079468 0.038759708404541016
0.07218566536903381 -0.11627906560897827 0.02325582504272461
0.08303694427013397 -0.10077518224716187 0.02325582504272461
0.07600569725036621 -0.08527129888534546 0.007751941680908203
0.07586991786956787 -0.06976741552352905 -0.007751941680908203
0.07235852628946304 -0.05426359176635742 -0.10077518224716187
0.08194763213396072 -0.05426359176635742 -0.08527129888534546
0.0740242674946785 -0.05426359549164772 -0.05426359549164772
0.07592224329710007 -0.05426359176635742 -0.02325582504272461
0.07169660925865173 -0.038759708404541016 -0.11627906560897827
0.07944157719612122 -0.038759708404541016 -0.02325582504272461
0.07356588542461395 0.007751941215246916 0.05426359176635742
0.07448744773864746 0.02325582504272461 0.038759708404541016
0.07775759696960449 0.038759708404541016 -0.02325582504272461
0.07798971235752106 0.038759708404541016 0.02325582504272461
0.07556569576263428 0.05426359176635742 -0.05426359176635742
0.08105824887752533 0.05426359176635742 -0.038759708404541016
0.07995902001857758 0.05426359176635742 -0.02325582504272461
0.07719995081424713 0.05426359176635742 -0.007751941680908203
0.07242399454116821 0.05426359549164772 0.007751941680908203
0.0743703842163086 0.06976747512817383 -0.06976741552352905
0.08218513429164886 0.06976747512817383 -0.05426359176635742
0.07954595983028412 0.06976747512817383 -0.038759708404541016
0.07375746965408325 0.06976747512817383 -0.02325582504272461
0.07849626243114471 0.08527135848999023 -0.11627906560897827
0.07041919231414795 0.08527135848999023 -0.05426359176635742
0.07119771093130112 0.10077524185180664 -0.11627906560897827
0.07006866484880447 0.11627912521362305 -0.11627906560897827
0.07098353654146194 0.1317828893661499 -0.11627906560897827
0.07181056588888168 0.1472867727279663 -0.11627906560897827
0.07087080925703049 0.16279065608978271 -0.11627906560897827
0.07136882096529007 0.27131783962249756 0.06976747512817383
0.07103727757930756 0.3643411099910736 0.06976747512817383
0.07781432569026947 0.4418604373931885 0.05426359176635742
0.0719098150730133 0.4573643207550049 0.05426359176635742
0.0903962180018425 -0.11627906560897827 0.038759708404541016
0.08877233415842056 -0.08527129888534546 0.02325582504272461
0.08675280213356018 -0.06976741552352905 0.007751941215246916
0.09732761979103088 -0.06976741552352905 0.02325582504272461
0.08547206968069077 -0.05426359176635742 -0.06976741552352905
0.08710358291864395 -0.05426359176635742 -0.007751941680908203
0.09359608590602875 -0.05426359176635742 0.007751941680908203
0.0906742513179779 -0.038759708404541016 -0.007751941680908203
0.0930195227265358 -0.02325582504272461 -0.007751941680908203
0.09131675958633423 -0.007751941215246916 -0.007751941215246916
0.0913083404302597 0.007751941680908203 -0.007751941680908203
0.09483040869235992 0.007751941680908203 0.038759708404541016
0.09044422209262848 0.02325582504272461 -0.007751941680908203
0.09613697230815887 0.02325582504272461 0.007751941680908203
0.08968272060155869 0.02325582690536976 0.02325582690536976
0.08636323362588882 0.038759708404541016 -0.007751941680908203
0.08640879392623901 0.038759708404541016 0.007751941680908203
0.08556632697582245 0.05426358804106712 -0.11627905815839767
0.08625651895999908 0.06976747512817383 -0.11627906560897827
0.08677129447460175 0.28682172298431396 0.06976748257875443
0.08867456763982773 0.30232560634613037 0.06976747512817383
0.08876233547925949 0.3178294897079468 0.06976747512817383
0.08771110326051712 0.3333333730697632 0.06976747512817383
0.08591267466545105 0.3488372266292572 0.06976747512817383
0.08700992166996002 0.39534878730773926 0.05426358804106712
0.08840308338403702 0.41085267066955566 0.05426359176635742
0.08680275082588196 0.42635655403137207 0.05426359176635742
0.10567393898963928 -0.14728683233261108 0.06976747512817383
0.10104705393314362 -0.13178294897079468 0.05426359176635742
0.10235455632209778 -0.10077518969774246 0.038759712129831314
0.11157071590423584 -0.08527129888534546 0.038759708404541016
0.10401415824890137 -0.05426359176635742 0.02325582504272461
0.10177215933799744 -0.038759708404541016 0.007751941215246916
0.1095074862241745 -0.038759708404541016 0.02325582504272461
0.1030794307589531 -0.02325582504272461 0.00775194214656949
0.11432252079248428 -0.02325582504272461 0.02325582504272461
0.10270988941192627 -0.007751941680908203 0.007751941680908203
0.10792160034179688 -0.007751941680908203 0.02325582504272461
0.10163410007953644 0.007751941680908203 0.007751941680908203
0.10161126405000687 0.007751941680908203 0.02325582504272461
0.12022270262241364 -0.11627906560897827 0.05426359176635742
0.12077941000461578 -0.06976741552352905 0.038759708404541016
0.1276339590549469 -0.05426359176635742 0.038759708404541016
0.1202285885810852 -0.00775194214656949 0.038759708404541016
0.13297805190086365 -0.14728683233261108 0.10077524185180664
0.14690813422203064 -0.13178294897079468 0.06976747512817383
0.1368699073791504 -0.10077518224716187 0.05426359176635742
0.1319575160741806 -0.038759708404541016 0.038759708404541016
0.1325550079345703 -0.02325582504272461 0.038759708404541016
0.14797553420066833 -0.1627907007932663 0.10077524185180664
0.149390310049057 -0.13178294897079468 0.10077524185180664
0.15144690871238708 -0.08527129888534546 0.05426359549164772
0.1742592602968216 -0.11627906560897827 0.06976747512817383
0.1658421754837036 -0.06976741552352905 0.05426359549164772
0.17945247888565063 -0.05426359176635742 0.05426359176635742
0.18755440413951874 -0.038759708404541016 0.05426359176635742
0.18344220519065857 -0.007751941680908203 0.05426359176635742
0.19598522782325745 -0.14728683233261108 0.08527135848999023
0.20316940546035767 -0.10077518224716187 0.06976747512817383
0.19463275372982025 -0.02325582504272461 0.05426359176635742
0.2225533425807953 -0.11627906560897827 0.10077524185180664
0.23913927376270294 -0.14728683233261108 0.08527135848999023
0.24345344305038452 -0.08527129888534546 0.06976747512817383
0.24111329019069672 -0.038759708404541016 0.08527135848999023
0.24699881672859192 -0.007751941680908203 0.06976747512817383
0.27077317237854004 -0.02325582504272461 0.08527135848999023
0.27196165919303894 -0.10077518224716187 0.10077524185180664
0.27180248498916626 -0.08527129888534546 0.06976747512817383
0.2940584421157837 -0.10077518224716187 0.06976747512817383
0.294829785823822 -0.08527129888534546 0.10077524185180664
0.2941736578941345 -0.007751941680908203 0.08527135848999023
0.29039061069488525 0.007751941215246916 0.06976747512817383
0.31499746441841125 -0.06976741552352905 0.10077524185180664
0.3222367763519287 -0.1782945990562439 0.10077524185180664
0.3191225826740265 0.007751941680908203 0.08527135848999023
0.3485516607761383 -0.05426359176635742 0.10077524185180664
0.35910698771476746 0.02325582504272461 0.08527135848999023
0.369851291179657 -0.1627907156944275 0.08527135848999023
0.3778337836265564 0.02325582504272461 0.06976747512817383
0.3873177766799927 -0.05426359176635742 0.10077524185180664
0.403612345457077 -0.10077518224716187 0.06976747512817383
0.40579357743263245 0.02325582504272461 0.06976747512817383
0.42404019832611084 -0.19379842281341553 0.10077524185180664
0.4246661961078644 -0.1782945990562439 0.11627912521362305
0.4163554012775421 -0.06976741552352905 0.10077524185180664
0.4323470890522003 -0.1782945990562439 0.11627912521362305
0.4361318349838257 -0.10077518224716187 0.06976747512817383
0.43901386857032776 0.02325582504272461 0.06976747512817383
0.4562090039253235 -0.19379842281341553 0.11627912521362305
0.4448826313018799 -0.1782946139574051 0.08527135848999023
0.45636704564094543 -0.08527129888534546 0.10077524185180664
0.47487741708755493 -0.11627906560897827 0.06976747512817383
0.494797945022583 -0.19379842281341553 0.11627911776304245
0.4897880554199219 -0.10077518224716187 0.10077524185180664
0.4958539307117462 0.02325582504272461 0.08527135848999023
0.5122727751731873 -0.20930230617523193 0.10077524185180664
0.504926323890686 -0.11627906560897827 0.06976746767759323
0.5119203925132751 -0.11627906560897827 0.10077524185180664
0.5231951475143433 0.007751941680908203 0.08527135848999023
0.5420273542404175 -0.13178294897079468 0.10077524185180664
0.5480301380157471 -0.007751941680908203 0.08527135848999023
0.5636553764343262 0.02325582504272461 0.06976747512817383
0.5778299570083618 -0.14728683233261108 0.10077524185180664
0.5672903060913086 -0.02325582504272461 0.08527135848999023
0.5820879936218262 -0.19379842281341553 0.08527135848999023
0.5875657796859741 -0.038759708404541016 0.08527135848999023
0.596843421459198 -0.007751941680908203 0.05426359176635742
0.5956140756607056 0.007751941680908203 0.05426359176635742
0.5981635451316833 -0.22480618953704834 0.10077524185180664
0.6066762804985046 -0.1627907156944275 0.10077524185180664
0.6045194864273071 -0.05426359176635742 0.08527135848999023
0.6218997836112976 -0.11627906560897827 0.06976747512817383
0.621795654296875 -0.06976741552352905 0.08527135848999023
0.6138838529586792 -0.02325582504272461 0.05426359176635742
0.6311370134353638 -0.20930232107639313 0.08527135848999023
0.6393836140632629 -0.1782945990562439 0.10077524185180664
0.6294922828674316 -0.03875970467925072 0.05426359176635742
0.6334069967269897 0.007751941680908203 0.06976747512817383
0.6448711156845093 -0.13178294897079468 0.06976747512817383
0.6445308923721313 -0.08527129888534546 0.08527135848999023
0.6541966199874878 -0.05426359176635742 0.05426359176635742
0.6702768802642822 -0.24031007289886475 0.10077524185180664
0.6737684011459351 -0.19379842281341553 0.10077524185180664
0.6681798696517944 -0.14728683233261108 0.06976747512817383
0.6699547171592712 -0.10077518224716187 0.08527135848999023
0.6773322224617004 -0.22480618953704834 0.08527135848999023
0.6802023649215698 -0.06976741552352905 0.05426359176635742
0.676130473613739 -0.007751941680908203 0.06976747512817383
0.6877414584159851 0.007751941680908203 0.05426359176635742
0.7014418840408325 -0.20930230617523193 0.10077524185180664
0.7003986835479736 -0.1627907156944275 0.06976747512817383
0.6910650730133057 -0.11627906560897827 0.08527135848999023
0.6995447278022766 -0.08527129888534546 0.05426359176635742
0.7046319246292114 -0.02325582504272461 0.06976747512817383
0.7047213912010193 -0.007751941680908203 0.038759708404541016
0.7190943360328674 -0.24031007289886475 0.08527135848999023
0.7097810506820679 -0.13178294897079468 0.08527135848999023
0.7280052900314331 -0.25581395626068115 0.10077524185180664
0.7285705804824829 -0.22480618953704834 0.10077524185180664
0.7357495427131653 -0.1782945990562439 0.06976747512817383
0.734062135219574 -0.14728683233261108 0.08527135848999023
0.7242183685302734 -0.038759708404541016 0.06976747512817383
0.7436966896057129 -0.05426359176635742 0.06976747512817383
0.7403824925422668 -0.02325582504272461 0.038759708404541016
0.753054141998291 -0.24031007289886475 0.10077524185180664
0.758102536201477 -0.19379842281341553 0.06976747512817383
0.7538843154907227 -0.1627907156944275 0.08527135848999023
0.7580783367156982 -0.10077518224716187 0.05426359176635742
0.7627177238464355 -0.06976741552352905 0.06976747512817383
0.7693345546722412 -0.25581395626068115 0.08527135848999023
0.7748095393180847 -0.25581395626068115 0.10077524185180664
0.7814155220985413 -0.20930230617523193 0.06976747512817383
0.7717844247817993 -0.1782945990562439 0.08527135848999023
0.7770493030548096 -0.08527129888534546 0.06976747512817383
0.7714042663574219 -0.038759708404541016 0.038759708404541016
0.7679943442344666 -0.007751941680908203 0.05426359176635742
0.7917211055755615 -0.19379842281341553 0.08527135848999023
0.7843204140663147 -0.11627906560897827 0.05426358804106712
0.7899256944656372 -0.10077518224716187 0.06976747512817383
0.7961158752441406 -0.05426359176635742 0.038759708404541016
0.7955441474914551 -0.02325582504272461 0.05426359176635742
0.8041925430297852 -0.27131783962249756 0.08527135848999023
0.8020814657211304 -0.22480618953704834 0.06976747512817383
0.8042604923248291 -0.13178294897079468 0.05426359176635742
0.8033968210220337 -0.11627906560897827 0.06976747512817383
0.8207898139953613 -0.24031007289886475 0.06976747512817383
0.8145172595977783 -0.20930230617523193 0.08527135848999023
0.8185185194015503 -0.14728683233261108 0.05426359176635742
0.8292874693870544 -0.14728683233261108 0.06976747512817383
0.8165391087532043 -0.13178294897079468 0.06976747512817383
0.8175733089447021 -0.06976741552352905 0.038759708404541016
0.8205214738845825 -0.038759708404541016 0.05426359176635742
0.8142768144607544 -0.007751941680908203 0.038759708404541016
0.8398581743240356 -0.28682172298431396 0.08527135848999023
0.8420143723487854 -0.25581395626068115 0.06976747512817383
0.8325814008712769 -0.22480617463588715 0.08527135848999023
0.8432036638259888 -0.1782945990562439 0.05426359176635742
0.8306960463523865 -0.1627907156944275 0.05426359176635742
0.8394119739532471 -0.1627907156944275 0.06976747512817383
0.8433029055595398 -0.10077518224716187 0.038759708404541016
0.8326610326766968 -0.08527129888534546 0.038759708404541016
0.8405759930610657 -0.05426359176635742 0.05426359176635742
0.8598064184188843 -0.25581395626068115 0.08527135848999023
0.8483806848526001 -0.24031007289886475 0.08527135848999023
0.8563915491104126 -0.19379842281341553 0.05426359176635742
0.8522651195526123 -0.1782945990562439 0.06976747512817383
0.8579519391059875 -0.11627906560897827 0.038759708404541016
0.8571770787239075 -0.06976741552352905 0.05426359176635742
0.8584436178207397 -0.038759708404541016 0.02325582504272461
0.854595422744751 -0.02325582504272461 0.02325582504272461
0.8574451208114624 -0.02325582504272461 0.038759708404541016
0.8625591993331909 -0.28682172298431396 0.08527135848999023
0.862872838973999 -0.27131783962249756 0.08527135848999023
0.8736767172813416 -0.20930230617523193 0.05426359176635742
0.8659495711326599 -0.19379842281341553 0.06976747512817383
0.8717141151428223 -0.13178294897079468 0.038759708404541016
0.867282509803772 -0.08527129888534546 0.05426359176635742
0.871117353439331 -0.02325582504272461 0.02325582504272461
0.8771951198577881 -0.25581395626068115 0.06976747512817383
0.8793169260025024 -0.24031007289886475 0.06976747512817383
0.8830994963645935 -0.22480618953704834 0.06976747512817383
0.8817999362945557 -0.20930230617523193 0.06976747512817383
0.8870744705200195 -0.14728683233261108 0.038759708404541016
0.8891302943229675 -0.13178294897079468 0.05426359176635742
0.8823713064193726 -0.11627906560897827 0.05426359176635742
0.8767694234848022 -0.10077518224716187 0.05426358804106712
0.8803563117980957 -0.038759708404541016 0.038759708404541016
0.8995499610900879 -0.20930230617523193 0.05426359176635742
0.8956767320632935 -0.1627907156944275 0.05426359176635742
0.8931188583374023 -0.14728683233261108 0.05426359176635742
0.8994171023368835 -0.08527129888534546 0.038759708404541016
0.897810697555542 -0.06976741552352905 0.038759708404541016
0.8962650895118713 -0.05426359176635742 0.038759708404541016
0.9135753512382507 -0.19379842281341553 0.05426359176635742
0.9102524518966675 -0.1782945990562439 0.05426359176635742
0.9122992753982544 -0.14728683233261108 0.038759708404541016
0.9218791723251343 -0.11627906560897827 0.038759708404541016
0.9121363759040833 -0.10077518224716187 0.038759708404541016
0.9116050004959106 -0.038759708404541016 0.02325582504272461
0.9225566387176514 -0.13178294897079468 0.038759708404541016
-0.9069766998291016 -0.20224601030349731 0.05426359176635742
-0.9069767594337463 -0.17639440298080444 0.05426359176635742
-0.9069768190383911 -0.14920833706855774 0.038759708404541016
-0.9069766998291016 -0.09579053521156311 0.038759708404541016
-0.8914728164672852 -0.2129174768924713 0.05426359176635742
-0.8914729356765747 -0.1515577882528305 0.038759708404541016
-0.8914728164672852 -0.1409040093421936 0.05426358804106712
-0.8914728760719299 -0.07112137228250504 0.038759708404541016
-0.8914728760719299 -0.04320276156067848 0.02325582504272461
-0.8914729356765747 -0.03484507277607918 0.02325582504272461
-0.8759689927101135 -0.2524503469467163 0.06976747512817383
-0.8759690523147583 -0.2131602168083191 0.05426359176635742
-0.8759690523147583 -0.19793185591697693 0.06976747512817383
-0.8759689927101135 -0.13919830322265625 0.038759708404541016
-0.8759690523147583 -0.10956649482250214 0.05426359176635742
-0.8759690523147583 -0.04913267120718956 0.02325582504272461
-0.8759689331054688 -0.026485305279493332 0.02325582504272461
-0.8759689927101135 -0.03756747022271156 0.038759708404541016
-0.8604651093482971 -0.2783282995223999 0.06976747512817383
-0.8604651689529419 -0.20245108008384705 0.05426359176635742
-0.8604651093482971 -0.18245907127857208 0.06976747512817383
-0.8604651093482971 -0.1277265101671219 0.038759708404541016
-0.8604651093482971 -0.08323540538549423 0.05426359176635742
-0.8604651093482971 -0.044033028185367584 0.02325582504272461
-0.8604651093482971 -0.02192705124616623 0.02325582318007946
-0.8604651689529419 -0.022887086495757103 0.038759708404541016
-0.8449612259864807 -0.2882292866706848 0.08527135848999023
-0.8449612259864807 -0.26780936121940613 0.06976747512817383
-0.8449612855911255 -0.23603032529354095 0.08527135848999023
-0.8449612259864807 -0.18917523324489594 0.05426359176635742
-0.8449612259864807 -0.16585178673267365 0.06976747512817383
-0.8449612259864807 -0.11648449301719666 0.038759708404541016
-0.8449612259864807 -0.06924747675657272 0.05426359176635742
-0.8449612259864807 -0.026369884610176086 0.02325582504272461
-0.8449612259864807 -0.02245352976024151 0.02325582690536976
-0.8449612259864807 -0.019400890916585922 0.038759708404541016
-0.8294574022293091 -0.2830042243003845 0.08527135848999023
-0.8294573426246643 -0.2562745213508606 0.06976747512817383
-0.8294573426246643 -0.21913456916809082 0.08527135848999023
-0.8294573426246643 -0.169866681098938 0.05426359176635742
-0.8294572830200195 -0.1467112898826599 0.06976747512817383
-0.8294573426246643 -0.09991387277841568 0.038759712129831314
-0.8294573426246643 -0.05659276992082596 0.05426359176635742
-0.8294573426246643 -0.016184426844120026 0.038759708404541016
-0.8139535188674927 -0.274760365486145 0.08527135848999023
-0.8139535188674927 -0.2410038262605667 0.06976747512817383
-0.8139535188674927 -0.2048586905002594 0.08527135848999023
-0.8139535188674927 -0.15002715587615967 0.05426359176635742
-0.8139535188674927 -0.12860801815986633 0.06976747512817383
-0.8139535188674927 -0.072246253490448 0.038759708404541016
-0.8139535188674927 -0.039582546800374985 0.05426359176635742
-0.8139535188674927 -0.010225249454379082 0.038759708404541016
-0.7984496355056763 -0.26950860023498535 0.08527135848999023
-0.7984495759010315 -0.22008447349071503 0.06976747512817383
-0.7984496355056763 -0.1926218867301941 0.08527135848999023
-0.7984496355056763 -0.13341011106967926 0.05426359176635742
-0.798449695110321 -0.11208795011043549 0.06976747512817383
-0.7984496355056763 -0.055232033133506775 0.038759708404541016
-0.7984496355056763 -0.027015727013349533 0.05426359176635742
-0.7984496355056763 -0.007467389106750488 0.038759708404541016
-0.7829457521438599 -0.27182504534721375 0.10077524185180664
-0.7829457521438599 -0.2593696117401123 0.08527135848999023
-0.7829457521438599 -0.2654206454753876 0.10077524185180664
-0.7829457521438599 -0.20561359822750092 0.06976747512817383
-0.7829457521438599 -0.18176411092281342 0.08527135848999023
-0.7829457521438599 -0.11803701519966125 0.05426359176635742
-0.7829457521438599 -0.09547258913516998 0.06976747512817383
-0.7829457521438599 -0.040377743542194366 0.038759708404541016
-0.7829456925392151 -0.017986828461289406 0.05426358804106712
-0.7829457521438599 -0.006139165721833706 0.03875970467925072
-0.7674418687820435 -0.26796385645866394 0.10077524185180664
-0.7674418687820435 -0.25464773178100586 0.08527135848999023
-0.7674418687820435 -0.24716655910015106 0.10077524185180664
-0.7674418687820435 -0.19033464789390564 0.06976747512817383
-0.7674418687820435 -0.17046424746513367 0.08527135848999023
-0.7674418687820435 -0.10306528955698013 0.05426359176635742
-0.7674418687820435 -0.08017401397228241 0.06976747512817383
-0.7674418687820435 -0.02786174789071083 0.038759708404541016
-0.7674418687820435 -0.006158198695629835 0.038759708404541016
-0.7674419283866882 -0.0068747131153941154 0.05426359176635742
-0.751937985420227 -0.2631450295448303 0.10077524185180664
-0.751937985420227 -0.24432380497455597 0.08527135848999023
-0.751937985420227 -0.23674729466438293 0.10077524185180664
-0.751937985420227 -0.1763295829296112 0.06976747512817383
-0.7519380450248718 -0.15837737917900085 0.08527135848999023
-0.751937985420227 -0.09295106679201126 0.05426359176635742
-0.7519380450248718 -0.0676313266158104 0.06976747512817383
-0.751937985420227 -0.018003739416599274 0.038759708404541016
-0.751937985420227 -0.006530727259814739 0.038759708404541016
-0.751937985420227 -0.005177728831768036 0.05426359176635742
-0.7364341020584106 -0.2594660520553589 0.10077524185180664
-0.7364341020584106 -0.24093087017536163 0.08527135848999023
-0.7364341020584106 -0.22684544324874878 0.10077524185180664
-0.7364341020584106 -0.1647905707359314 0.06976747512817383
-0.7364341020584106 -0.14607888460159302 0.08527135848999023
-0.7364341020584106 -0.08779016882181168 0.05426359176635742
-0.7364341020584106 -0.055956680327653885 0.06976747512817383
-0.7364341020584106 -0.012298792600631714 0.038759708404541016
-0.7364341020584106 -0.006824421230703592 0.03875970467925072
-0.7364341020584106 -0.001958476612344384 0.05426359176635742
-0.7209302186965942 -0.2572936713695526 0.10077524185180664
-0.7209302186965942 -0.23281732201576233 0.08527135848999023
-0.7209302186965942 -0.21832044422626495 0.10077524185180664
-0.7209301590919495 -0.16066505014896393 0.06976747512817383
-0.7209302186965942 -0.13632552325725555 0.08527135848999023
-0.7209302186965942 -0.08638077229261398 0.05426359176635742
-0.7209302186965942 -0.04452231526374817 0.06976747512817383
-0.7209302186965942 -0.00929264910519123 0.038759708404541016
-0.7209302186965942 -0.007390694692730904 0.038759708404541016
-0.7209302186965942 0.001946012256667018 0.05426359176635742
-0.7054263353347778 -0.25343918800354004 0.10077524185180664
-0.7054263353347778 -0.22733333706855774 0.08527135848999023
-0.7054262757301331 -0.20885899662971497 0.10077524185180664
-0.7054263353347778 -0.16013310849666595 0.06976747512817383
-0.7054263353347778 -0.12454669177532196 0.08527135848999023
-0.7054263353347778 -0.08299325406551361 0.05426359176635742
-0.7054263353347778 -0.031204242259263992 0.06976747512817383
-0.7054263353347778 0.0077873035334050655 0.05426359549164772
-0.6899224519729614 -0.24465815722942352 0.10077524185180664
-0.6899224519729614 -0.2233801931142807 0.08527135848999023
-0.6899224519729614 -0.19991719722747803 0.10077524185180664
-0.6899224519729614 -0.15632133185863495 0.06976747512817383
-0.6899224519729614 -0.11051317304372787 0.08527135848999023
-0.6899224519729614 -0.07622125744819641 0.05426359176635742
-0.6899224519729614 -0.018669603392481804 0.06976747512817383
-0.6899224519729614 0.008615214377641678 0.05426359176635742
-0.674418568611145 -0.24087479710578918 0.10077524185180664
-0.674418568611145 -0.21608684957027435 0.08527135848999023
-0.674418568611145 -0.18908797204494476 0.10077524185180664
-0.674418568611145 -0.15191538631916046 0.06976747512817383
-0.674418568611145 -0.09789250046014786 0.08527135848999023
-0.674418568611145 -0.07137032598257065 0.05426359176635742
-0.674418568611145 -0.008961979299783707 0.06976747512817383
-0.674418568611145 0.009125197306275368 0.05426359176635742
