0.3488372564315796 0.14772847294807434 0.08527136594057083
0.364341139793396 -0.12010793387889862 0.11627912521362305
0.364341139793396 -0.10126577317714691 0.10077524185180664
0.364341139793396 -0.049419522285461426 0.11627912521362305
0.364341139793396 -0.03320048376917839 0.08527135848999023
0.364341139793396 0.06317822635173798 0.10077524185180664
0.364341139793396 0.14802910387516022 0.08527135848999023
0.37984490394592285 -0.1284426599740982 0.11627912521362305
0.37984490394592285 -0.1001998707652092 0.10077524185180664
0.37984490394592285 -0.04340490698814392 0.11627912521362305
0.37984490394592285 -0.031084485352039337 0.08527135848999023
0.37984490394592285 0.07220959663391113 0.10077524185180664
0.37984490394592285 0.14881734549999237 0.08527135848999023
0.39534878730773926 -0.13582780957221985 0.11627912521362305
0.39534878730773926 -0.10185479372739792 0.10077524185180664
0.39534878730773926 -0.039561670273542404 0.11627912521362305
0.39534878730773926 -0.02875559777021408 0.08527135848999023
0.39534878730773926 0.07671450078487396 0.10077524185180664
0.39534881711006165 0.14941063523292542 0.08527135848999023
0.41085267066955566 -0.1477249562740326 0.11627912521362305
0.41085267066955566 -0.10455043613910675 0.10077524185180664
0.41085267066955566 -0.03947232663631439 0.11627912521362305
0.41085267066955566 -0.02603820338845253 0.08527135848999023
0.41085267066955566 0.07771359384059906 0.10077524185180664
0.41085267066955566 0.1501842886209488 0.08527135848999023
0.42635655403137207 -0.15473291277885437 0.11627912521362305
0.42635655403137207 -0.1557133048772812 0.1317828893661499
0.42635655403137207 -0.13164937496185303 0.1317828893661499
0.42635655403137207 -0.10997337847948074 0.10077524185180664
0.42635655403137207 -0.041388820856809616 0.11627912521362305
0.42635655403137207 -0.025237135589122772 0.08527135848999023
0.42635655403137207 0.07692503929138184 0.10077524185180664
0.42635655403137207 0.15157732367515564 0.08527135848999023
0.4418604373931885 -0.16335496306419373 0.11627912521362305
0.4418604373931885 -0.16545766592025757 0.1317828893661499
0.4418604373931885 -0.11756173521280289 0.10077524185180664
0.4418604373931885 -0.13149408996105194 0.1317828893661499
0.4418604373931885 -0.04413342475891113 0.11627912521362305
0.4418604373931885 -0.02655474841594696 0.08527135848999023
0.4418604373931885 0.07463739067316055 0.10077524185180664
0.4418604373931885 0.153229221701622 0.08527135848999023
0.4573643207550049 -0.16630931198596954 0.11627912521362305
0.4573643207550049 -0.16919124126434326 0.1317828893661499
0.4573643207550049 -0.13204078376293182 0.1317828893661499
0.4573643207550049 -0.12033059448003769 0.10077524185180664
0.4573643207550049 -0.04688490182161331 0.11627912521362305
0.4573643207550049 -0.030222909525036812 0.08527135848999023
0.4573643207550049 0.07026275992393494 0.10077524185180664
0.4573643207550049 0.15385955572128296 0.08527135848999023
0.4728682041168213 -0.1696629822254181 0.11627912521362305
0.4728682041168213 -0.1730448305606842 0.1317828893661499
0.4728682041168213 -0.1211429238319397 0.10077524185180664
0.4728682041168213 -0.13175559043884277 0.1317828893661499
0.4728682041168213 -0.04891191050410271 0.11627912521362305
0.4728682041168213 -0.0340578593313694 0.08527135848999023
0.4728682041168213 0.0649242252111435 0.10077524185180664
0.4728681743144989 0.15302060544490814 0.08527135848999023
0.4883720874786377 -0.1787845939397812 0.1317828893661499
0.4883721172809601 -0.17583930492401123 0.11627913266420364
0.4883720874786377 -0.13265924155712128 0.1317828893661499
0.4883720874786377 -0.12227427959442139 0.10077524185180664
0.4883720874786377 -0.051408253610134125 0.11627912521362305
0.4883720874786377 -0.037867553532123566 0.08527135848999023
0.4883720874786377 0.05849766731262207 0.10077524185180664
0.4883720874786377 0.15157857537269592 0.08527135848999023
0.5038759708404541 -0.17926296591758728 0.11627912521362305
0.5038759708404541 -0.1797027885913849 0.1317828893661499
0.5038759708404541 -0.13443374633789062 0.1317828893661499
0.5038759708404541 -0.1215774416923523 0.10077524185180664
0.5038759708404541 -0.053745683282613754 0.11627911776304245
0.5038759708404541 -0.0364757739007473 0.08527135848999023
0.5038759708404541 0.05277120694518089 0.10077524185180664
0.5038759708404541 0.15004414319992065 0.08527135848999023
0.5193798542022705 -0.1810019463300705 0.11627912521362305
0.5193798542022705 -0.18057666718959808 0.1317828893661499
0.5193798542022705 -0.13650745153427124 0.1317828893661499
0.5193798542022705 -0.12020634114742279 0.10077524185180664
0.5193798542022705 -0.05829206109046936 0.11627912521362305
0.5193798542022705 -0.03244811296463013 0.08527135848999023
0.5193798542022705 0.04534832388162613 0.10077524185180664
0.5193798542022705 0.14843426644802094 0.08527135848999023
0.5348837375640869 -0.1827370971441269 0.11627912521362305
0.5348837375640869 -0.18167200684547424 0.1317828893661499
0.5348837375640869 -0.13721829652786255 0.1317828893661499
0.5348837375640869 -0.11853314936161041 0.10077524185180664
0.5348837375640869 -0.06183736026287079 0.11627912521362305
0.5348837375640869 -0.028369709849357605 0.08527135848999023
0.5348837375640869 0.03974050283432007 0.10077524185180664
0.5348837375640869 0.14749577641487122 0.08527135848999023
0.5503876209259033 -0.18412302434444427 0.11627912521362305
0.5503876209259033 -0.18264195322990417 0.1317828893661499
0.5503876209259033 -0.13740605115890503 0.1317828893661499
0.5503876209259033 -0.11681479215621948 0.10077524185180664
0.5503876209259033 -0.06460420787334442 0.11627912521362305
0.5503876209259033 -0.02515946328639984 0.08527135848999023
0.5503876209259033 0.03326868638396263 0.10077524185180664
0.5503876209259033 0.14578287303447723 0.08527135848999023
0.5658915042877197 -0.18588963150978088 0.11627912521362305
0.5658915042877197 -0.1837717592716217 0.1317828893661499
0.5658915042877197 -0.1380119025707245 0.1317828893661499
0.5658915042877197 -0.11941273510456085 0.10077524185180664
0.5658915042877197 -0.06718920916318893 0.11627913266420364
0.5658915042877197 -0.027552204206585884 0.08527135848999023
0.5658915042877197 0.026975736021995544 0.10077524185180664
0.5658915042877197 0.14315280318260193 0.08527135848999023
0.5813953876495361 -0.1868414431810379 0.11627912521362305
0.5813953876495361 -0.18427680432796478 0.1317828893661499
0.5813953876495361 -0.13969548046588898 0.1317828893661499
0.5813953876495361 -0.12446951866149902 0.10077524185180664
0.5813953876495361 -0.06950590759515762 0.11627912521362305
0.5813953876495361 -0.031064767390489578 0.08527135848999023
0.5813953876495361 0.0222716573625803 0.10077524185180664
0.5813953876495361 0.13832366466522217 0.08527135848999023
0.5968992710113525 -0.1873946636915207 0.11627912521362305
0.5968992710113525 -0.18399697542190552 0.1317828893661499
0.5968992710113525 -0.13222862780094147 0.10077524185180664
0.5968992710113525 -0.14246666431427002 0.1317828893661499
0.5968992710113525 -0.07272912561893463 0.11627912521362305
0.5968992710113525 -0.03488954156637192 0.08527135848999023
0.5968992710113525 0.018645113334059715 0.10077524185180664
0.5968992710113525 0.13502445816993713 0.08527135848999023
0.612403154373169 -0.18833792209625244 0.11627912521362305
0.612403154373169 -0.1829976737499237 0.1317828893661499
0.612403154373169 -0.14794978499412537 0.10077524185180664
0.6124032139778137 -0.1468430757522583 0.1317828893661499
0.612403154373169 -0.07644990086555481 0.11627912521362305
0.612403154373169 -0.041796356439590454 0.08527135848999023
0.612403154373169 0.015068518929183483 0.10077524185180664
0.612403154373169 0.13260962069034576 0.08527135848999023
0.6279069185256958 -0.18913951516151428 0.11627913266420364
0.6279069185256958 -0.1807776391506195 0.1317828893661499
0.6279069185256958 -0.16634979844093323 0.10077524185180664
0.6279069185256958 -0.15737557411193848 0.1317828893661499
0.6279069185256958 -0.07919317483901978 0.11627912521362305
0.6279069185256958 -0.04923166334629059 0.08527135848999023
0.6279069185256958 0.012012090533971786 0.10077524185180664
0.6279069185256958 0.12957040965557098 0.08527135848999023
0.6434108018875122 -0.18090693652629852 0.10077524185180664
0.6434108018875122 -0.1892586499452591 0.11627912521362305
0.6434108018875122 -0.08055046200752258 0.11627912521362305
0.6434108018875122 -0.05651473253965378 0.08527135848999023
0.6434108018875122 0.009867975488305092 0.10077524185180664
0.6434108018875122 0.12571530044078827 0.08527135848999023
0.6589146852493286 -0.18630269169807434 0.10077524185180664
0.6589146852493286 -0.18799804151058197 0.11627912521362305
0.6589146852493286 -0.08154551684856415 0.11627912521362305
0.6589146852493286 -0.06065927445888519 0.08527135848999023
0.6589147448539734 0.00811205618083477 0.10077524185180664
0.6589146852493286 0.12404713779687881 0.08527135848999023
0.674418568611145 -0.1906598061323166 0.10077524185180664
0.674418568611145 -0.18515023589134216 0.11627912521362305
0.674418568611145 -0.08285591006278992 0.11627912521362305
0.674418568611145 -0.06415021419525146 0.08527135848999023
0.674418568611145 0.005059693939983845 0.10077524185180664
0.674418568611145 0.12219895422458649 0.08527135848999023
0.6899224519729614 -0.19407892227172852 0.08527135848999023
0.6899224519729614 -0.1894397735595703 0.08527135848999023
0.6899224519729614 -0.19051142036914825 0.10077524185180664
0.6899224519729614 -0.1821696162223816 0.11627912521362305
0.6899224519729614 -0.08447615057229996 0.11627912521362305
0.6899224519729614 -0.06621883809566498 0.08527135848999023
0.6899224519729614 0.007734209299087524 0.06976747512817383
0.6899224519729614 0.0002955235540866852 0.10077524185180664
0.6899224519729614 0.007782328873872757 0.06976747512817383
0.6899224519729614 0.09170214831829071 0.06976747512817383
0.6899224519729614 0.1084686666727066 0.06976747512817383
0.6899224519729614 0.12035387754440308 0.08527135848999023
0.7054263353347778 -0.18299192190170288 0.08527135848999023
0.7054263353347778 -0.1847015619277954 0.10077524185180664
0.7054263353347778 -0.1772574782371521 0.08527135848999023
0.7054263353347778 -0.17642952501773834 0.11627912521362305
0.7054263353347778 -0.08727951347827911 0.11627912521362305
0.7054263353347778 -0.06458831578493118 0.08527135848999023
0.7054263353347778 0.0002020017709583044 0.06976747512817383
0.7054263353347778 -0.005529253743588924 0.10077524185180664
0.7054263353347778 0.02674441784620285 0.06976747512817383
0.7054263353347778 0.07838865369558334 0.06976747512817383
0.7054263353347778 0.11646797508001328 0.06976747512817383
0.7054263353347778 0.11832199990749359 0.08527135848999023
0.7209302186965942 -0.16768938302993774 0.10077524185180664
0.7209302186965942 -0.16417768597602844 0.11627912521362305
0.7209302186965942 -0.09158508479595184 0.11627912521362305
0.7209302186965942 -0.06409803777933121 0.08527135848999023
0.7209302186965942 -0.011411049403250217 0.10077524185180664
0.7209302186965942 -0.0013288210611790419 0.06976747512817383
0.7209302186965942 0.029162932187318802 0.06976747512817383
0.7209302186965942 0.07571040093898773 0.06976747512817383
0.7209302186965942 0.11680671572685242 0.06976747512817383
0.720930278301239 0.11673258244991302 0.08527135848999023
0.7364341020584106 -0.15026992559432983 0.11627912521362305
0.7364341020584106 -0.1434038281440735 0.10077524185180664
0.7364341020584106 -0.09696121513843536 0.11627912521362305
0.7364341020584106 -0.06355547159910202 0.08527135848999023
0.7364341020584106 -0.016895880922675133 0.10077524185180664
0.7364341020584106 0.0010332539677619934 0.06976747512817383
0.7364341020584106 0.02454814687371254 0.06976747512817383
0.7364341020584106 0.07780833542346954 0.06976747512817383
0.7364341020584106 0.10748705267906189 0.08527135848999023
0.7364341020584106 0.11672469228506088 0.06976747512817383
0.751937985420227 -0.1321859210729599 0.10077524185180664
0.751937985420227 -0.1356557011604309 0.11627912521362305
0.751937985420227 -0.10220750421285629 0.11627912521362305
0.751937985420227 -0.0625934824347496 0.08527135848999023
0.751937985420227 -0.022775569930672646 0.10077524185180664
0.751937985420227 0.0011605564504861832 0.06976747512817383
0.751937985420227 0.02536126784980297 0.06976747512817383
0.751937985420227 0.07608313858509064 0.06976747512817383
0.751937985420227 0.1026853621006012 0.08527135848999023
0.751937985420227 0.11661166697740555 0.06976747512817383
0.7674418687820435 -0.11997351050376892 0.10077524185180664
0.7674418687820435 -0.12483580410480499 0.11627912521362305
0.7674418687820435 -0.10510404407978058 0.11627912521362305
0.7674418687820435 -0.0606941357254982 0.08527135848999023
0.7674418687820435 -0.027725178748369217 0.10077524185180664
0.7674418687820435 0.0021298385690897703 0.06976747512817383
0.7674418687820435 0.027686845511198044 0.06976747512817383
0.7674418687820435 0.07294599711894989 0.06976747512817383
0.7674418687820435 0.09923240542411804 0.08527135848999023
0.7674418091773987 0.11687621474266052 0.06976747512817383
0.7829457521438599 -0.1174909844994545 0.10077524185180664
0.7829457521438599 -0.11735125631093979 0.11627912521362305
0.7829457521438599 -0.11029645055532455 0.11627913266420364
0.7829457521438599 -0.05802199989557266 0.08527135848999023
0.7829457521438599 -0.03140310198068619 0.10077524185180664
0.7829457521438599 0.004965451546013355 0.06976747512817383
0.7829457521438599 0.02668679878115654 0.06976747512817383
0.7829457521438599 0.06751720607280731 0.06976747512817383
0.7829457521438599 0.09071178734302521 0.08527135848999023
0.7829457521438599 0.11743155866861343 0.06976747512817383
0.7984496355056763 -0.11649490147829056 0.10077524185180664
0.7984496355056763 -0.058780260384082794 0.08527135848999023
0.7984496355056763 -0.034117840230464935 0.10077524185180664
0.7984496355056763 0.004951508715748787 0.06976747512817383
0.7984496355056763 0.031264759600162506 0.06976747512817383
0.7984496355056763 0.05653495341539383 0.06976747512817383
0.7984496355056763 0.08616185933351517 0.08527136594057083
0.7984496355056763 0.11842717230319977 0.06976747512817383
0.8139535188674927 -0.11747583746910095 0.10077524185180664
0.8139535188674927 -0.06172262877225876 0.08527135848999023
0.8139535188674927 -0.037884969264268875 0.10077524930238724
0.8139535188674927 0.0002190356608480215 0.06976747512817383
0.8139535188674927 0.07703710347414017 0.08527135848999023
0.8139535188674927 0.12098373472690582 0.06976747512817383
0.8294574022293091 -0.10642699897289276 0.10077524185180664
0.8294574022293091 -0.06514453887939453 0.08527135848999023
0.8294574022293091 -0.04590003564953804 0.10077524185180664
0.8294574022293091 -0.007767417933791876 0.06976747512817383
0.8294574022293091 0.06831635534763336 0.08527135848999023
0.8294574022293091 0.12476798892021179 0.06976747512817383
0.8449612855911255 -0.08547614514827728 0.10077524185180664
0.8449612855911255 -0.061928536742925644 0.08527135848999023
0.8449612855911255 -0.053265802562236786 0.10077524185180664
0.8449612855911255 -0.0111802127212286 0.06976747512817383
0.8449612855911255 0.05571986362338066 0.08527135848999023
0.8449612855911255 0.12836642563343048 0.06976747512817383
0.8604651689529419 -0.05681360140442848 0.08527135848999023
0.8604651689529419 -0.01323007419705391 0.06976747512817383
0.8604651689529419 0.04068832844495773 0.08527135848999023
0.8604651689529419 0.12721529603004456 0.06976747512817383
0.875968873500824 -0.050623659044504166 0.08527135848999023
0.8759689331054688 -0.021266339346766472 0.06976747512817383
0.8759689331054688 0.023702973499894142 0.08527136594057083
0.8759689331054688 0.121614009141922 0.06976747512817383
0.8914728164672852 -0.043969668447971344 0.08527135848999023
0.8914728164672852 -0.02642754092812538 0.06976747512817383
0.8914728164672852 0.00792437419295311 0.08527135103940964
0.8914728164672852 0.11351907253265381 0.06976747512817383
0.9069766998291016 -0.04135594516992569 0.08527135848999023
0.9069766998291016 -0.031111564487218857 0.06976747512817383
0.9069766998291016 -0.016413098201155663 0.08527135848999023
0.9069766998291016 0.0671449676156044 0.06976747512817383
0.9069766998291016 0.08465112000703812 0.05426359176635742
0.9069766998291016 0.07473254948854446 0.06976747512817383
0.9069766998291016 0.09031489491462708 0.06976747512817383
0.9069766402244568 0.11723986268043518 0.05426359176635742
0.922480583190918 -0.038926996290683746 0.06976747512817383
0.922480583190918 0.018182890489697456 0.06976747512817383
0.922480583190918 0.037218235433101654 0.06976747512817383
0.9224805235862732 0.03934087976813316 0.06976747512817383
0.922480583190918 0.08370926231145859 0.05426359176635742
0.922480583190918 0.12280933558940887 0.05426359176635742
0.9379844665527344 0.08799516409635544 0.05426359176635742
0.9379844665527344 0.12234627455472946 0.05426359176635742
-0.9379844665527344 0.08527135848999023 0.05414393171668053
-0.9379844665527344 0.08527135848999023 0.05455195903778076
-0.9379844665527344 0.10077524185180664 0.053064994513988495
-0.9379844665527344 0.10077524185180664 0.05694818124175072
-0.9379844665527344 0.11627912521362305 0.05397810414433479
-0.9379845261573792 0.11627912521362305 0.05486878380179405
-0.9224806427955627 -0.038759708404541016 0.0830598846077919
-0.9224806427955627 -0.038759708404541016 0.08552026003599167
-0.9224806427955627 -0.02325582504272461 0.0696040615439415
-0.9224806427955627 -0.02325582504272461 0.08611512184143066
-0.9224806427955627 -0.007751941680908203 0.06881681829690933
-0.922480583190918 -0.007751941680908203 0.08549454063177109
-0.9224806427955627 0.038759708404541016 0.06919148564338684
-0.922480583190918 0.038759708404541016 0.0704239159822464
-0.9224806427955627 0.08527135848999023 0.054071616381406784
-0.9224807024002075 0.08527135848999023 0.05586275830864906
-0.9224806427955627 0.10077524185180664 0.052951838821172714
-0.9224806427955627 0.10077524185180664 0.061702027916908264
-0.9224806427955627 0.11627912521362305 0.05411690101027489
-0.9224807024002075 0.11627912521362305 0.05510924756526947
-0.9069768190383911 -0.038759708404541016 0.07927776128053665
-0.9069767594337463 -0.038759708404541016 0.08737187832593918
-0.9069767594337463 -0.02325582504272461 0.06878135353326797
-0.9069767594337463 -0.02325582504272461 0.08745041489601135
-0.9069767594337463 -0.007751941680908203 0.06782053411006927
-0.9069767594337463 -0.007751941680908203 0.08685057610273361
-0.9069766998291016 0.007751941680908203 0.06791645288467407
-0.9069767594337463 0.00775194214656949 0.08603145182132721
-0.9069767594337463 0.02325582504272461 0.06824801117181778
-0.9069766998291016 0.02325582504272461 0.07648572325706482
-0.9069767594337463 0.038759708404541016 0.06803951412439346
-0.9069768190383911 0.038759708404541016 0.07264289259910583
-0.9069767594337463 0.05426359176635742 0.06838581711053848
-0.9069767594337463 0.05426359176635742 0.07113278657197952
-0.9069767594337463 0.06976747512817383 0.06884144246578217
-0.9069767594337463 0.06976747512817383 0.0703081488609314
-0.9069767594337463 0.08527135848999023 0.058027006685733795
-0.9069767594337463 0.08527135103940964 0.07051268219947815
-0.9069767594337463 0.10077524185180664 0.05337037146091461
-0.9069766998291016 0.10077524185180664 0.07055643200874329
-0.9069767594337463 0.11627912521362305 0.06390319019556046
-0.9069767594337463 0.11627912521362305 0.0702565610408783
-0.8914728760719299 -0.038759708404541016 0.08064638078212738
-0.8914728164672852 -0.038759708404541016 0.0885842964053154
-0.8914728760719299 -0.02325582504272461 0.0690898671746254
-0.8914728760719299 -0.02325582504272461 0.08761614561080933
-0.8914728760719299 -0.007751941680908203 0.0678626224398613
-0.8914728760719299 -0.00775194214656949 0.08681003749370575
-0.8914728164672852 0.007751941680908203 0.06764523684978485
-0.8914728760719299 0.007751941680908203 0.0865689367055893
-0.8914728760719299 0.02325582504272461 0.06771587580442429
-0.8914728760719299 0.02325582504272461 0.08550066500902176
-0.8914728760719299 0.038759708404541016 0.06789414584636688
-0.8914728164672852 0.038759708404541016 0.07541236281394958
-0.8914728760719299 0.05426359176635742 0.06794194877147675
-0.8914728760719299 0.05426359176635742 0.07265377044677734
-0.8914728760719299 0.06976747512817383 0.06741268187761307
-0.8914728164672852 0.06976747512817383 0.07175715267658234
-0.8914728760719299 0.08527135848999023 0.0625118762254715
-0.8914728760719299 0.08527135848999023 0.07137268781661987
-0.8914729356765747 0.10077524930238724 0.05690237879753113
-0.8914729356765747 0.10077524185180664 0.07126536220312119
-0.8914728760719299 0.11627912521362305 0.0637364313006401
-0.8914728760719299 0.11627911776304245 0.07122446596622467
-0.8914728760719299 0.1317828893661499 0.06903450936079025
-0.8914728760719299 0.1317828893661499 0.0700162798166275
-0.8759689927101135 -0.038759708404541016 0.08134599030017853
-0.8759689927101135 -0.038759708404541016 0.09044669568538666
-0.8759690523147583 -0.02325582504272461 0.07102914154529572
-0.8759689927101135 -0.02325582504272461 0.08813057839870453
-0.8759689331054688 -0.007751941680908203 0.06822966784238815
-0.8759689927101135 -0.007751941680908203 0.08709541708230972
-0.8759689927101135 0.007751941680908203 0.06777659058570862
-0.8759689927101135 0.00775194214656949 0.08665650337934494
-0.8759689927101135 0.02325582504272461 0.06770393252372742
-0.8759689927101135 0.02325582504272461 0.08620485663414001
-0.8759689331054688 0.038759708404541016 0.06779276579618454
-0.8759689927101135 0.038759708404541016 0.08406472951173782
-0.8759689331054688 0.05426359176635742 0.06762966513633728
-0.8759690523147583 0.05426359176635742 0.07691715657711029
-0.8759690523147583 0.06976747512817383 0.06688646227121353
-0.8759689927101135 0.06976747512817383 0.07396483421325684
-0.8759689331054688 0.08527135848999023 0.06385643780231476
-0.8759689331054688 0.08527135103940964 0.07250002771615982
-0.8759689927101135 0.10077524185180664 0.06225227564573288
-0.8759690523147583 0.10077524185180664 0.07171840965747833
-0.8759689927101135 0.11627912521362305 0.0650937557220459
-0.8759689927101135 0.11627912521362305 0.07135025411844254
-0.8759689927101135 0.1317828893661499 0.06767409294843674
-0.8759689331054688 0.1317828893661499 0.07073087990283966
-0.8604651093482971 -0.05426359176635742 0.0840911939740181
-0.8604651093482971 -0.05426359176635742 0.10081814974546432
-0.8604650497436523 -0.038759708404541016 0.08077278733253479
-0.8604651093482971 -0.038759708404541016 0.09251710027456284
-0.8604651093482971 -0.02325582504272461 0.06971056014299393
-0.8604650497436523 -0.02325582504272461 0.08899079263210297
-0.8604651093482971 -0.007751941680908203 0.06812635064125061
-0.8604651093482971 -0.007751941680908203 0.08758410066366196
-0.8604651093482971 0.007751941680908203 0.0674956664443016
-0.8604651093482971 0.007751941680908203 0.0868891105055809
-0.8604651093482971 0.02325582504272461 0.06751053780317307
-0.8604650497436523 0.02325582318007946 0.08641250431537628
-0.8604651093482971 0.038759708404541016 0.0676664263010025
-0.8604651093482971 0.038759708404541016 0.08601698279380798
-0.8604651093482971 0.05426359176635742 0.06740777939558029
-0.8604651093482971 0.05426359176635742 0.08532655984163284
-0.8604651093482971 0.06976747512817383 0.06619521975517273
-0.8604651093482971 0.06976747512817383 0.0787607878446579
-0.8604651093482971 0.08527135848999023 0.06334859877824783
-0.8604651093482971 0.08527135848999023 0.07541627436876297
-0.8604651093482971 0.10077524185180664 0.06311099231243134
-0.8604651093482971 0.10077524185180664 0.07303454726934433
-0.8604651093482971 0.11627912521362305 0.06595351547002792
-0.8604651689529419 0.11627912521362305 0.07179810851812363
-0.8604651093482971 0.1317828893661499 0.06801309436559677
-0.8604651093482971 0.1317828893661499 0.07086411118507385
-0.8449611663818359 -0.06976741552352905 0.09756404161453247
-0.8449612855911255 -0.06976741552352905 0.10198728740215302
-0.8449611663818359 -0.05426359176635742 0.08354455977678299
-0.8449612259864807 -0.05426359549164772 0.10183002054691315
-0.8449612855911255 -0.038759708404541016 0.08103498071432114
-0.8449612855911255 -0.038759708404541016 0.09450364112854004
-0.8449612855911255 -0.02325582690536976 0.07246992737054825
-0.8449612855911255 -0.02325582504272461 0.09016608446836472
-0.8449612855911255 -0.007751941680908203 0.06841234117746353
-0.8449611663818359 -0.007751941680908203 0.08826528489589691
-0.8449612855911255 0.007751941680908203 0.0675710067152977
-0.8449612259864807 0.007751941680908203 0.08725103735923767
-0.8449612855911255 0.02325582504272461 0.06761898845434189
-0.8449612259864807 0.02325582690536976 0.08668122440576553
-0.8449612259864807 0.038759708404541016 0.06778062134981155
-0.8449612259864807 0.038759708404541016 0.08632535487413406
-0.8449612259864807 0.05426359176635742 0.06761254370212555
-0.8449612259864807 0.05426359176635742 0.08601401001214981
-0.8449612259864807 0.06976747512817383 0.06671993434429169
-0.8449612259864807 0.06976747512817383 0.08540943264961243
-0.8449612259864807 0.08527135848999023 0.06518678367137909
-0.8449612259864807 0.08527135848999023 0.07942365854978561
-0.8449612259864807 0.10077524185180664 0.06545871496200562
-0.8449611663818359 0.10077524185180664 0.07468733191490173
-0.8449612259864807 0.11627912521362305 0.06718747317790985
-0.8449612259864807 0.11627912521362305 0.07249599695205688
-0.8449612259864807 0.1317828893661499 0.06879384815692902
-0.8449611663818359 0.1317828893661499 0.07065364718437195
-0.8294573426246643 -0.10077518224716187 0.099215567111969
-0.8294572830200195 -0.10077518224716187 0.10446756333112717
-0.8294573426246643 -0.08527129888534546 0.09726230800151825
-0.8294573426246643 -0.08527129888534546 0.104685939848423
-0.8294573426246643 -0.06976741552352905 0.08945748209953308
-0.8294573426246643 -0.06976741552352905 0.10282757133245468
-0.8294573426246643 -0.05426359176635742 0.0836438238620758
-0.8294572830200195 -0.05426358804106712 0.10197918862104416
-0.8294573426246643 -0.038759708404541016 0.08092706650495529
-0.8294573426246643 -0.038759708404541016 0.098683662712574
-0.8294573426246643 -0.02325582318007946 0.07365583628416061
-0.8294573426246643 -0.02325582504272461 0.09189975261688232
-0.8294573426246643 -0.007751941680908203 0.06871174275875092
-0.8294572830200195 -0.007751941680908203 0.0892433226108551
-0.8294574022293091 0.007751941680908203 0.06792052090167999
-0.8294573426246643 0.007751941680908203 0.08778754621744156
-0.8294573426246643 0.02325582504272461 0.068107970058918
-0.8294573426246643 0.02325582504272461 0.0870702788233757
-0.8294573426246643 0.038759708404541016 0.06827501952648163
-0.8294574022293091 0.038759708404541016 0.08666324615478516
-0.8294573426246643 0.05426359176635742 0.06814531981945038
-0.8294573426246643 0.05426358804106712 0.08637059479951859
-0.8294574022293091 0.06976747512817383 0.06761165708303452
-0.8294572830200195 0.06976747512817383 0.08603984862565994
-0.8294573426246643 0.08527135848999023 0.06695244461297989
-0.8294573426246643 0.08527135848999023 0.08539842814207077
-0.8294574022293091 0.10077524185180664 0.0671171024441719
-0.8294573426246643 0.10077524185180664 0.07788799703121185
-0.8294573426246643 0.11627912521362305 0.06784137338399887
-0.8294573426246643 0.11627912521362305 0.07353124767541885
-0.8139535188674927 -0.11627906560897827 0.09948684275150299
-0.8139535188674927 -0.11627906560897827 0.10839348286390305
-0.8139535188674927 -0.10077518224716187 0.09801081568002701
-0.8139535188674927 -0.10077518224716187 0.10937292873859406
-0.8139535188674927 -0.08527129888534546 0.0964231789112091
-0.8139535188674927 -0.08527129888534546 0.1056191623210907
-0.8139535188674927 -0.06976741552352905 0.08775807172060013
-0.8139535188674927 -0.06976741552352905 0.10316433012485504
-0.8139535188674927 -0.05426359176635742 0.08376757055521011
-0.8139535188674927 -0.05426359176635742 0.1021004319190979
-0.8139535188674927 -0.038759708404541016 0.08113440871238708
-0.8139535188674927 -0.038759708404541016 0.1011209636926651
-0.8139534592628479 -0.02325582504272461 0.07537668198347092
-0.8139535188674927 -0.02325582504272461 0.0941108912229538
-0.8139535188674927 -0.007751941680908203 0.06910187751054764
-0.8139535188674927 -0.007751941680908203 0.0903770923614502
-0.8139535188674927 0.007751941680908203 0.06850119680166245
-0.8139535188674927 0.007751941680908203 0.0885535329580307
-0.8139535188674927 0.02325582504272461 0.06877236813306808
-0.8139535188674927 0.02325582318007946 0.08755868673324585
-0.8139535188674927 0.038759708404541016 0.06899414211511612
-0.8139535188674927 0.038759708404541016 0.0870072990655899
-0.8139535188674927 0.05426359176635742 0.06890736520290375
-0.8139535188674927 0.05426359176635742 0.08667608350515366
-0.8139535188674927 0.06976747512817383 0.06846700608730316
-0.8139535188674927 0.06976747512817383 0.08632117509841919
-0.8139535188674927 0.08527135848999023 0.06792929023504257
-0.8139535188674927 0.08527135848999023 0.08598099648952484
-0.8139535188674927 0.10077524185180664 0.06786520779132843
-0.8139535188674927 0.10077524185180664 0.08486516028642654
-0.8139535188674927 0.11627912521362305 0.06830139458179474
-0.8139535188674927 0.11627911776304245 0.0754183679819107
-0.7984496355056763 -0.11627906560897827 0.09965310245752335
-0.7984496355056763 -0.11627906560897827 0.11669618636369705
-0.7984496355056763 -0.10077518224716187 0.09813486784696579
-0.7984496355056763 -0.10077518224716187 0.11175987869501114
-0.7984496355056763 -0.08527129888534546 0.09512749314308167
-0.798449695110321 -0.08527129888534546 0.10606661438941956
-0.7984496355056763 -0.06976741552352905 0.08560730516910553
-0.7984496355056763 -0.06976741552352905 0.10332547873258591
-0.7984496355056763 -0.05426359176635742 0.08377142250537872
-0.7984496355056763 -0.05426359176635742 0.10220233350992203
-0.7984496355056763 -0.038759708404541016 0.08129791915416718
-0.7984496355056763 -0.038759708404541016 0.1013169214129448
-0.7984496355056763 -0.02325582504272461 0.07654008269309998
-0.7984496355056763 -0.02325582504272461 0.09578490257263184
-0.7984496355056763 -0.007751941680908203 0.06946515291929245
-0.7984496355056763 -0.007751941680908203 0.09126972407102585
-0.7984496355056763 0.007751941680908203 0.06902142614126205
-0.7984496355056763 0.007751941680908203 0.08917874097824097
-0.7984496355056763 0.02325582504272461 0.0693243071436882
-0.7984496355056763 0.02325582504272461 0.08795779943466187
-0.7984496355056763 0.038759708404541016 0.06961485743522644
-0.7984496355056763 0.038759708404541016 0.08726959675550461
-0.7984496355056763 0.05426359176635742 0.06963087618350983
-0.7984496355056763 0.05426359176635742 0.08689684420824051
-0.7984496355056763 0.06976747512817383 0.0692443698644638
-0.7984496355056763 0.06976747512817383 0.0865069106221199
-0.7984496355056763 0.08527135848999023 0.06857980042695999
-0.7984496355056763 0.08527135848999023 0.0862225592136383
-0.7984496355056763 0.10077524185180664 0.06828981637954712
-0.7984496355056763 0.10077523440122604 0.085849329829216
-0.7984496355056763 0.11627912521362305 0.06878963857889175
-0.7984496355056763 0.11627912521362305 0.07713581621646881
-0.7829457521438599 -0.11627906560897827 0.09950445592403412
-0.7829457521438599 -0.11627906560897827 0.11734572798013687
-0.7829457521438599 -0.10077518224716187 0.09716372191905975
-0.7829457521438599 -0.10077518224716187 0.11293100565671921
-0.7829457521438599 -0.08527129888534546 0.09252278506755829
-0.7829457521438599 -0.08527129888534546 0.10647532343864441
-0.7829457521438599 -0.06976741552352905 0.08501219004392624
-0.7829457521438599 -0.06976741552352905 0.10364881157875061
-0.7829457521438599 -0.05426359176635742 0.08382431417703629
-0.7829457521438599 -0.05426359176635742 0.10242066532373428
-0.7829457521438599 -0.038759708404541016 0.08150829374790192
-0.7829456925392151 -0.038759708404541016 0.10154091566801071
-0.7829457521438599 -0.02325582504272461 0.07726361602544785
-0.7829457521438599 -0.02325582504272461 0.09797576069831848
-0.7829457521438599 -0.007751941680908203 0.06994200497865677
-0.7829457521438599 -0.007751941680908203 0.09277316927909851
-0.7829457521438599 0.007751941680908203 0.06939920037984848
-0.7829457521438599 0.007751941680908203 0.09022080153226852
-0.7829457521438599 0.02325582504272461 0.06969285011291504
-0.7829457521438599 0.02325582504272461 0.08862331509590149
-0.7829457521438599 0.038759708404541016 0.07223734259605408
-0.7829457521438599 0.03875970467925072 0.08764658868312836
-0.7829456925392151 0.05426359176635742 0.0734194815158844
-0.7829457521438599 0.05426359176635742 0.0871596559882164
-0.7829457521438599 0.06976747512817383 0.07163222879171371
-0.7829457521438599 0.06976747512817383 0.08672016859054565
-0.7829457521438599 0.08527135848999023 0.06919239461421967
-0.7829457521438599 0.08527135103940964 0.08638213574886322
-0.7829457521438599 0.10077524185180664 0.06871344894170761
-0.7829457521438599 0.10077524185180664 0.08620703965425491
-0.7829457521438599 0.11627912521362305 0.06938723474740982
-0.7829457521438599 0.11627912521362305 0.08082767575979233
-0.7674418687820435 -0.11627906560897827 0.09825508296489716
-0.7674418687820435 -0.11627906560897827 0.11758866906166077
-0.7674418687820435 -0.10077518224716187 0.09540559351444244
-0.7674418687820435 -0.10077518224716187 0.11419129371643066
-0.7674418687820435 -0.08527129888534546 0.08963795006275177
-0.7674418687820435 -0.08527129888534546 0.10743749141693115
-0.7674418687820435 -0.06976741552352905 0.08485500514507294
-0.7674418687820435 -0.06976741552352905 0.1042357087135315
-0.7674418687820435 -0.05426359176635742 0.08393678814172745
-0.7674419283866882 -0.05426359176635742 0.10271203517913818
-0.7674418687820435 -0.038759708404541016 0.08200220763683319
-0.7674418687820435 -0.038759708404541016 0.10180477797985077
-0.7674418687820435 -0.02325582504272461 0.07844392955303192
-0.7674418687820435 -0.02325582690536976 0.10079730302095413
-0.7674418687820435 -0.007751941680908203 0.07305751740932465
-0.7674418687820435 -0.007751941680908203 0.09464956820011139
-0.7674418687820435 0.007751941680908203 0.07038430869579315
-0.7674418687820435 0.007751941215246916 0.09145088493824005
-0.7674418687820435 0.02325582504272461 0.07256472855806351
-0.7674418687820435 0.02325582504272461 0.08942496031522751
-0.7674418687820435 0.038759708404541016 0.07503114640712738
-0.7674418687820435 0.038759708404541016 0.08812733739614487
-0.7674418687820435 0.05426359176635742 0.07619057595729828
-0.7674418687820435 0.05426359176635742 0.08747496455907822
-0.7674418687820435 0.06976747512817383 0.07597079873085022
-0.7674418687820435 0.06976747512817383 0.0869671180844307
-0.7674418687820435 0.08527135848999023 0.0714750736951828
-0.7674418687820435 0.08527135848999023 0.08656267821788788
-0.7674418687820435 0.10077524185180664 0.06925910711288452
-0.7674418687820435 0.10077524185180664 0.08639487624168396
-0.7674418687820435 0.11627912521362305 0.07330877333879471
-0.7674418687820435 0.11627912521362305 0.08567971736192703
-0.751937985420227 -0.13178294897079468 0.09925737977027893
-0.751937985420227 -0.13178294897079468 0.11793176084756851
-0.751937985420227 -0.11627906560897827 0.09692712128162384
-0.7519379258155823 -0.11627905815839767 0.11748343706130981
-0.751937985420227 -0.10077518224716187 0.09367898106575012
-0.751937985420227 -0.10077518224716187 0.11634121835231781
-0.751937985420227 -0.08527129888534546 0.08738568425178528
-0.751937985420227 -0.08527129888534546 0.10899175703525543
-0.751937985420227 -0.06976741552352905 0.08485686779022217
-0.751937985420227 -0.06976741552352905 0.10503298044204712
-0.751937985420227 -0.05426359176635742 0.08409583568572998
-0.7519379258155823 -0.05426358804106712 0.10309223085641861
-0.751937985420227 -0.038759708404541016 0.08241286873817444
-0.751937985420227 -0.038759708404541016 0.10207978636026382
-0.751937985420227 -0.02325582504272461 0.07929637283086777
-0.751937985420227 -0.02325582504272461 0.10111406445503235
-0.751937985420227 -0.007751941680908203 0.07496771961450577
-0.751937985420227 -0.007751941680908203 0.09651212394237518
-0.751937985420227 0.007751941680908203 0.07315636426210403
-0.751937985420227 0.007751941680908203 0.09268738329410553
-0.751937985420227 0.02325582504272461 0.0750351995229721
-0.751937985420227 0.02325582504272461 0.09027140587568283
-0.751937985420227 0.038759708404541016 0.07683881372213364
-0.751937985420227 0.038759708404541016 0.08867135643959045
-0.751937985420227 0.05426359176635742 0.07760055363178253
-0.751937985420227 0.05426359176635742 0.08782333135604858
-0.751937985420227 0.06976747512817383 0.07766914367675781
-0.751937985420227 0.06976747512817383 0.08720783144235611
-0.751937985420227 0.08527135848999023 0.07572890818119049
-0.751937985420227 0.08527135848999023 0.08674797415733337
-0.751937985420227 0.10077524185180664 0.07037243247032166
-0.751937985420227 0.10077524185180664 0.08647076785564423
-0.751937985420227 0.11627911776304245 0.07588736712932587
-0.751937985420227 0.11627911776304245 0.08597485721111298
-0.7364341020584106 -0.1472868174314499 0.10220879316329956
-0.7364341020584106 -0.14728683233261108 0.11795897781848907
-0.7364341020584106 -0.13178294897079468 0.09635201841592789
-0.7364341020584106 -0.13178294897079468 0.11807144433259964
-0.7364341020584106 -0.11627906560897827 0.09431129693984985
-0.7364341020584106 -0.11627906560897827 0.11756182461977005
-0.7364341020584106 -0.10077518224716187 0.09214313328266144
-0.7364341616630554 -0.10077518224716187 0.11674182116985321
-0.7364341020584106 -0.08527129888534546 0.0865224227309227
-0.7364341020584106 -0.08527129888534546 0.11151503026485443
-0.7364341020584106 -0.06976741552352905 0.08491022139787674
-0.7364341020584106 -0.06976741552352905 0.10618329048156738
-0.7364341020584106 -0.05426359176635742 0.08420442044734955
-0.7364341020584106 -0.05426359176635742 0.10372121632099152
-0.7364341020584106 -0.038759708404541016 0.08256237208843231
-0.7364341020584106 -0.038759708404541016 0.10251373052597046
-0.7364341020584106 -0.02325582504272461 0.07947325706481934
-0.7364341020584106 -0.02325582504272461 0.10147212445735931
-0.7364341020584106 -0.007751941680908203 0.07549639046192169
-0.7364341020584106 -0.007751941680908203 0.0989774689078331
-0.7364341020584106 0.007751941680908203 0.07392160594463348
-0.7364341020584106 0.007751941680908203 0.09453711658716202
-0.7364341020584106 0.02325582504272461 0.07574203610420227
-0.7364341020584106 0.02325582504272461 0.09158150851726532
-0.7364341020584106 0.038759708404541016 0.07709705829620361
-0.7364341020584106 0.038759708404541016 0.08952870965003967
-0.7364341020584106 0.05426359176635742 0.07759712636470795
-0.7364341020584106 0.05426359176635742 0.08838097751140594
-0.7364341020584106 0.06976747512817383 0.07763671875
-0.7364341020584106 0.06976747512817383 0.08758130669593811
-0.7364341020584106 0.08527135848999023 0.07631613314151764
-0.7364340424537659 0.08527135103940964 0.08700604736804962
-0.7364341020584106 0.10077524185180664 0.0735308974981308
-0.7364341020584106 0.10077524185180664 0.0865626409649849
-0.7364341020584106 0.11627912521362305 0.07401368767023087
-0.7364341020584106 0.11627912521362305 0.08638344705104828
-0.7209302186965942 -0.1627907156944275 0.11242426931858063
-0.7209302186965942 -0.1627907156944275 0.11696732044219971
-0.7209302186965942 -0.14728683233261108 0.09788152575492859
-0.7209302186965942 -0.14728683233261108 0.11890000104904175
-0.7209302186965942 -0.13178294897079468 0.09362827241420746
-0.7209302186965942 -0.13178294897079468 0.11842081695795059
-0.7209302186965942 -0.11627906560897827 0.09210643917322159
-0.7209302186965942 -0.11627906560897827 0.11794544011354446
-0.7209302186965942 -0.10077518224716187 0.09099358320236206
-0.7209302186965942 -0.10077518224716187 0.11719769239425659
-0.7209302186965942 -0.08527129888534546 0.08633995801210403
-0.7209302186965942 -0.08527129888534546 0.11459330469369888
-0.7209302186965942 -0.06976741552352905 0.08493413031101227
-0.7209302186965942 -0.06976741552352905 0.10766606032848358
-0.7209302186965942 -0.05426359176635742 0.08411650359630585
-0.7209302186965942 -0.05426359176635742 0.1045515388250351
-0.7209302186965942 -0.038759708404541016 0.082083560526371
-0.7209302186965942 -0.038759708404541016 0.10293227434158325
-0.7209302186965942 -0.02325582504272461 0.07881162315607071
-0.7209301590919495 -0.02325582504272461 0.10174351930618286
-0.7209302186965942 -0.007751941680908203 0.07495051622390747
-0.7209302186965942 -0.007751941680908203 0.10080776363611221
-0.7209302186965942 0.007751941680908203 0.0727626383304596
-0.7209302186965942 0.007751941680908203 0.09614608436822891
-0.7209302186965942 0.02325582504272461 0.07482855021953583
-0.7209302186965942 0.02325582504272461 0.09295205771923065
-0.7209302186965942 0.038759708404541016 0.0760439932346344
-0.7209302186965942 0.038759708404541016 0.09050080180168152
-0.7209302186965942 0.05426359176635742 0.0764479786157608
-0.7209302186965942 0.05426359176635742 0.08911483734846115
-0.7209302186965942 0.06976747512817383 0.0764489471912384
-0.7209302186965942 0.06976747512817383 0.08808702230453491
-0.7209302186965942 0.08527135848999023 0.07530016452074051
-0.720930278301239 0.08527135848999023 0.08731888979673386
-0.7209302186965942 0.10077524185180664 0.07331547141075134
-0.7209302186965942 0.10077524185180664 0.08672022074460983
-0.7209302186965942 0.11627912521362305 0.07241905480623245
-0.7209302186965942 0.11627912521362305 0.08650851249694824
-0.7054263353347778 -0.1782945990562439 0.09071162343025208
-0.7054263353347778 -0.1782945990562439 0.11614565551280975
-0.7054263353347778 -0.1627907156944275 0.09574008733034134
-0.7054263353347778 -0.1627907156944275 0.12001262605190277
-0.7054263353347778 -0.14728683233261108 0.09646596014499664
-0.7054263353347778 -0.14728683233261108 0.11958830058574677
-0.7054263353347778 -0.13178294897079468 0.09332016855478287
-0.7054263949394226 -0.13178294897079468 0.11894234269857407
-0.7054263353347778 -0.11627906560897827 0.09253134578466415
-0.7054263353347778 -0.11627906560897827 0.1183142215013504
-0.7054263353347778 -0.10077518224716187 0.09088820964097977
-0.7054263353347778 -0.10077518969774246 0.11752808094024658
-0.7054263353347778 -0.08527129888534546 0.08674630522727966
-0.7054263353347778 -0.08527129143476486 0.11638431251049042
-0.7054263353347778 -0.06976741552352905 0.08492610603570938
-0.7054263353347778 -0.06976741552352905 0.10891655087471008
-0.7054263353347778 -0.05426359176635742 0.08379162102937698
-0.7054263353347778 -0.05426359176635742 0.10530164837837219
-0.7054263353347778 -0.038759708404541016 0.08110344409942627
-0.7054263353347778 -0.038759708404541016 0.103258416056633
-0.7054263353347778 -0.02325582504272461 0.0780177041888237
-0.7054263353347778 -0.02325582504272461 0.10193793475627899
-0.7054263353347778 -0.007751941680908203 0.07444006204605103
-0.7054263353347778 -0.007751941680908203 0.10102123022079468
-0.7054263353347778 0.007751941680908203 0.07091106474399567
-0.7054263353347778 0.007751941680908203 0.0972415879368782
-0.7054263353347778 0.02325582504272461 0.07312685996294022
-0.7054263353347778 0.02325582504272461 0.09394767880439758
-0.7054263353347778 0.038759708404541016 0.0746338963508606
-0.7054263353347778 0.038759708404541016 0.09127981960773468
-0.7054263353347778 0.05426359176635742 0.0753415897488594
-0.7054263353347778 0.05426359176635742 0.08981017023324966
-0.7054263353347778 0.06976747512817383 0.07551981508731842
-0.7054263353347778 0.06976747512817383 0.08861860632896423
-0.7054263353347778 0.08527135848999023 0.07418030500411987
-0.7054263353347778 0.08527135103940964 0.08762368559837341
-0.7054263353347778 0.10077524185180664 0.07184690237045288
-0.7054263353347778 0.10077524185180664 0.0868799090385437
-0.7054263353347778 0.11627913266420364 0.06994232535362244
-0.7054263949394226 0.11627912521362305 0.08653930574655533
-0.6899224519729614 -0.1782945990562439 0.0876273438334465
-0.6899224519729614 -0.1782945990562439 0.12071853876113892
-0.6899224519729614 -0.1627907156944275 0.09545472264289856
-0.6899224519729614 -0.1627907156944275 0.12133723497390747
-0.6899224519729614 -0.14728683233261108 0.09594184160232544
-0.6899224519729614 -0.14728683233261108 0.12096069753170013
-0.6899224519729614 -0.13178294897079468 0.09359768033027649
-0.6899224519729614 -0.13178294897079468 0.11976855248212814
-0.6899224519729614 -0.11627906560897827 0.09270773828029633
-0.6899224519729614 -0.11627906560897827 0.11869888007640839
-0.6899224519729614 -0.10077518224716187 0.09108713269233704
-0.6899224519729614 -0.10077518224716187 0.11779345571994781
-0.6899224519729614 -0.08527129888534546 0.08714453876018524
-0.6899224519729614 -0.08527129888534546 0.11660758405923843
-0.6899224519729614 -0.06976741552352905 0.08479592949151993
-0.6899224519729614 -0.06976741552352905 0.10996776819229126
-0.6899224519729614 -0.05426359176635742 0.0833677425980568
-0.6899224519729614 -0.05426359176635742 0.10600842535495758
-0.6899224519729614 -0.038759708404541016 0.0802525132894516
-0.6899224519729614 -0.038759712129831314 0.1036810576915741
-0.6899224519729614 -0.02325582504272461 0.07712225615978241
-0.6899224519729614 -0.02325582504272461 0.10221979767084122
-0.6899224519729614 -0.007751941680908203 0.07397747039794922
-0.6899223923683167 -0.007751941680908203 0.1012885719537735
-0.6899224519729614 0.007751941680908203 0.07125583291053772
-0.6899224519729614 0.007751941680908203 0.09865668416023254
-0.6899224519729614 0.02325582504272461 0.07330305874347687
-0.6899224519729614 0.02325582504272461 0.09496879577636719
-0.6899224519729614 0.038759708404541016 0.07493403553962708
-0.6899224519729614 0.038759708404541016 0.09207148849964142
-0.6899224519729614 0.05426359176635742 0.07598529011011124
-0.6899224519729614 0.05426359176635742 0.09040571749210358
-0.6899224519729614 0.06976747512817383 0.07632053643465042
-0.6899224519729614 0.06976747512817383 0.08907081186771393
-0.6899224519729614 0.08527135848999023 0.07497866451740265
-0.6899224519729614 0.08527135848999023 0.08792637288570404
-0.6899224519729614 0.10077524185180664 0.07232920825481415
-0.6899224519729614 0.10077524185180664 0.0870712623000145
-0.6899224519729614 0.11627912521362305 0.0697266012430191
-0.6899224519729614 0.11627912521362305 0.0865739956498146
-0.674418568611145 -0.1782945990562439 0.09367963671684265
-0.674418568611145 -0.1782945990562439 0.12391415238380432
-0.674418568611145 -0.1627907156944275 0.09682532399892807
-0.674418568611145 -0.1627907156944275 0.12438283860683441
-0.674418568611145 -0.14728683233261108 0.09621337056159973
-0.674418568611145 -0.14728683233261108 0.12330746650695801
-0.674418568611145 -0.13178294897079468 0.09406272321939468
-0.674418568611145 -0.13178294897079468 0.12112671136856079
-0.674418568611145 -0.11627906560897827 0.09281964600086212
-0.6744186282157898 -0.11627907305955887 0.11933180689811707
-0.674418568611145 -0.10077518224716187 0.09115689992904663
-0.674418568611145 -0.10077518224716187 0.1181434690952301
-0.674418568611145 -0.08527129888534546 0.08729089796543121
-0.674418568611145 -0.08527129888534546 0.11692953109741211
-0.674418568611145 -0.06976741552352905 0.08476037532091141
-0.674418568611145 -0.06976741552352905 0.1113143190741539
-0.674418568611145 -0.05426359176635742 0.08331256359815598
-0.674418568611145 -0.05426359176635742 0.10671372711658478
-0.674418568611145 -0.038759708404541016 0.08045316487550735
-0.674418568611145 -0.038759708404541016 0.10418164730072021
-0.674418568611145 -0.02325582504272461 0.07751354575157166
-0.674418568611145 -0.02325582504272461 0.10258321464061737
-0.674418568611145 -0.007751941680908203 0.07452431321144104
-0.674418568611145 -0.007751941680908203 0.10157335549592972
-0.674418568611145 0.00775194214656949 0.07251715660095215
