-0.198074 -0.731763 -0.023599
-0.197613 -0.731677 -0.010963
-0.197945 -0.731337 -0.040327
-0.198312 -0.733401 -0.057531
-0.198250 -0.730331 -0.071792
-0.197831 -0.732987 -0.086924
-0.197412 -0.739123 -0.099974
-0.197522 -0.737628 -0.137771
-0.197405 -0.738514 -0.125510
-0.197449 -0.738279 -0.148288
-0.198678 -0.714060 0.120550
-0.200999 -0.714026 0.107693
-0.198995 -0.714473 0.088823
-0.197365 -0.714636 0.070586
-0.200354 -0.714488 0.056485
-0.201164 -0.714741 0.042164
-0.198174 -0.714819 0.030550
-0.197464 -0.719116 -0.013376
-0.197527 -0.719923 -0.023896
-0.197422 -0.723137 -0.033724
-0.197388 -0.723501 -0.076303
-0.197378 -0.723500 -0.080317
-0.198578 -0.699342 0.107753
-0.197827 -0.702173 0.119070
-0.198213 -0.700693 0.094681
-0.197006 -0.705759 0.064222
-0.198663 -0.699522 0.056436
-0.199120 -0.698366 0.042794
-0.197820 -0.703797 0.032021
-0.197684 -0.688601 0.048387
-0.197653 -0.688565 0.051922
-0.203416 -0.061378 0.121711
-0.207994 -0.066265 0.115634
-0.203402 -0.039013 0.141765
-0.204743 -0.052279 0.133713
-0.207963 -0.027398 0.144935
-0.197095 -0.032862 0.147671
-0.203404 -0.022738 0.149091
-0.204685 -0.007727 0.151506
-0.197452 0.008670 0.293795
-0.196648 -0.001423 0.291799
-0.196638 -0.001487 0.293466
-0.197455 0.008889 0.289576
-0.204657 0.007801 0.151272
-0.198489 0.024697 0.294198
-0.198202 0.026088 0.285403
-0.204675 0.023748 0.151925
-0.198640 0.040294 0.285295
-0.198992 0.040752 0.294237
-0.196704 0.032337 0.278514
-0.196729 0.034928 0.278618
-0.204742 0.040113 0.153080
-0.198268 0.050208 0.289599
-0.198251 0.050228 0.293959
-0.204742 0.056214 0.152447
-0.204709 0.072254 0.151262
-0.204738 0.088699 0.152048
-0.204794 0.105332 0.153613
-0.204801 0.121721 0.154133
-0.204796 0.138002 0.154813
-0.204875 0.154602 0.156787
-0.204964 0.171226 0.157571
-0.212694 0.162323 0.100199
-0.206551 0.155890 0.098591
-0.206444 0.169479 0.102845
-0.201804 0.163189 0.099957
-0.205006 0.187496 0.154006
-0.205052 0.197416 0.149530
-0.205138 0.202052 0.140195
-0.205213 0.202441 0.123881
-0.205248 0.197654 0.114428
-0.196748 -0.934025 -0.310960
-0.200065 -0.931667 -0.298541
-0.205352 -0.938000 -0.304494
-0.195253 -0.926175 -0.303738
-0.194089 -0.910802 -0.251455
-0.199095 -0.917151 -0.245592
-0.204752 -0.920754 -0.252361
-0.196377 -0.918855 -0.256649
-0.193260 -0.894443 -0.202852
-0.196520 -0.902399 -0.208297
-0.196987 -0.884759 -0.147313
-0.192568 -0.877351 -0.140190
-0.195880 -0.869725 -0.098026
-0.189831 -0.864860 -0.091446
-0.195195 -0.882828 -0.362776
-0.192322 -0.877739 -0.355318
-0.196084 -0.854320 0.098190
-0.193605 -0.843987 0.104012
-0.188324 -0.846813 0.037651
-0.181036 -0.851484 0.029772
-0.181024 -0.851485 0.031094
-0.186902 -0.842604 0.024332
-0.188711 -0.851812 -0.042773
-0.194488 -0.853355 -0.048173
-0.182903 -0.852828 -0.037528
-0.182862 -0.852679 -0.029918
-0.188520 -0.848940 -0.024758
-0.195910 -0.838658 0.113384
-0.193643 -0.828783 0.114280
-0.192456 -0.826793 0.020219
-0.184124 -0.840486 0.006408
-0.191089 -0.827154 0.007698
-0.189226 -0.842288 -0.009796
-0.195529 -0.827840 -0.002170
-0.195261 -0.838870 -0.328993
-0.190587 -0.846884 -0.336954
-0.189239 -0.831357 -0.322206
-0.184474 -0.837070 -0.330509
-0.196978 -0.854681 -0.346436
-0.191472 -0.812456 0.115408
-0.195139 -0.814202 0.018822
-0.195854 -0.810514 0.009280
-0.196813 -0.811431 -0.004686
-0.194131 -0.825163 -0.308134
-0.187847 -0.815468 -0.302422
-0.183443 -0.820139 -0.314346
-0.188027 -0.795222 0.116491
-0.196903 -0.803872 0.004215
-0.196096 -0.798172 -0.005820
-0.196754 -0.806100 -0.015219
-0.195968 -0.797125 -0.017868
-0.192165 -0.811926 -0.288687
-0.195239 -0.808854 -0.276621
-0.191736 -0.798683 -0.271880
-0.183906 -0.798851 -0.286842
-0.181653 -0.805009 -0.296267
-0.188771 -0.779635 0.122108
-0.195918 -0.783751 -0.018281
-0.195850 -0.783686 -0.011151
-0.194835 -0.793834 -0.259089
-0.191944 -0.782779 -0.254701
-0.183829 -0.782507 -0.270816
-0.181649 -0.788692 -0.280113
-0.188377 -0.764055 0.127140
-0.195342 -0.778347 -0.243216
-0.192505 -0.766089 -0.238750
-0.184485 -0.765801 -0.254896
-0.182003 -0.771761 -0.263947
-0.192633 -0.747371 0.127342
-0.182674 -0.758910 0.130070
-0.184474 -0.747146 0.130821
-0.196996 -0.757003 -0.214237
-0.195663 -0.760602 -0.223630
-0.190753 -0.748311 -0.223757
-0.194725 -0.748829 -0.208353
-0.184741 -0.748893 -0.238968
-0.182487 -0.754643 -0.248126
-0.194033 -0.731004 0.127574
-0.185874 -0.730897 0.132011
-0.196401 -0.741039 0.019744
-0.196369 -0.742063 0.010273
-0.195275 -0.731346 0.010252
-0.195985 -0.731260 0.021333
-0.196797 -0.741460 -0.000239
-0.196361 -0.731557 -0.002547
-0.197078 -0.740754 -0.110907
-0.197068 -0.740752 -0.114522
-0.195941 -0.732558 -0.120680
-0.195887 -0.732932 -0.105236
-0.196679 -0.741529 -0.160631
-0.196036 -0.743382 -0.173499
-0.195511 -0.732330 -0.155470
-0.193377 -0.731676 -0.173792
-0.195303 -0.744917 -0.190620
-0.191755 -0.731755 -0.190792
-0.189070 -0.731852 -0.207334
-0.184286 -0.732298 -0.222722
-0.182405 -0.737978 -0.232590
-0.194828 -0.714123 0.128010
-0.186657 -0.714068 0.133879
-0.195028 -0.714989 0.010243
-0.195908 -0.714875 0.022280
-0.196376 -0.714261 -0.007370
-0.196954 -0.725569 -0.045343
-0.197063 -0.725185 -0.056955
-0.195090 -0.715528 -0.056469
-0.195659 -0.716820 -0.039876
-0.197377 -0.723780 -0.065577
-0.196194 -0.717040 -0.071268
-0.196391 -0.728232 -0.091323
-0.195244 -0.717030 -0.087025
-0.192915 -0.715502 -0.106027
-0.193268 -0.715405 -0.123239
-0.196030 -0.729407 -0.138440
-0.194161 -0.715285 -0.140113
-0.193119 -0.715271 -0.157305
-0.190866 -0.715370 -0.174389
-0.188465 -0.715495 -0.190974
-0.184131 -0.715884 -0.206517
-0.182213 -0.721500 -0.216149
-0.194581 -0.697028 0.124361
-0.186282 -0.697412 0.135411
-0.196115 -0.709105 0.082118
-0.196150 -0.709210 0.075038
-0.194609 -0.699111 0.070648
-0.195183 -0.696101 0.088886
-0.193636 -0.698586 0.010222
-0.195108 -0.698361 0.026633
-0.195025 -0.698864 -0.006867
-0.196539 -0.711747 -0.024085
-0.194587 -0.699020 -0.023791
-0.192361 -0.699085 -0.039945
-0.191916 -0.699091 -0.055821
-0.192692 -0.699039 -0.071859
-0.191827 -0.699025 -0.089024
-0.190302 -0.699065 -0.107293
-0.190639 -0.698980 -0.124905
-0.191467 -0.698900 -0.141447
-0.190238 -0.698952 -0.158031
-0.187384 -0.699082 -0.174518
-0.183787 -0.699328 -0.189723
-0.182452 -0.704867 -0.200093
-0.185250 -0.681208 0.136216
-0.191286 -0.681132 0.124473
-0.196336 -0.691187 0.107797
-0.193293 -0.681082 0.107779
-0.191718 -0.681036 0.089620
-0.190617 -0.681227 0.072292
-0.195817 -0.694992 0.060720
-0.194292 -0.682492 0.056894
-0.196463 -0.692911 0.037678
-0.194936 -0.682783 0.043011
-0.191423 -0.682053 0.026661
-0.190637 -0.682171 0.010189
-0.192888 -0.682476 -0.006735
-0.192406 -0.682605 -0.023255
-0.189870 -0.682605 -0.039258
-0.189224 -0.682530 -0.055524
-0.189756 -0.682389 -0.071935
-0.189082 -0.682352 -0.089424
-0.187928 -0.682434 -0.107669
-0.187769 -0.682440 -0.124985
-0.187500 -0.682485 -0.141623
-0.185733 -0.682596 -0.158047
-0.182813 -0.683431 -0.172843
-0.181795 -0.689321 -0.183095
-0.184492 -0.664887 0.137221
-0.189302 -0.664677 0.124594
-0.190830 -0.664563 0.107702
-0.189417 -0.664568 0.089608
-0.188484 -0.664851 0.072530
-0.191474 -0.665465 0.057738
-0.192333 -0.665783 0.042900
-0.189381 -0.665690 0.026638
-0.188639 -0.665800 0.010178
-0.190812 -0.666096 -0.006513
-0.190366 -0.666213 -0.022978
-0.188154 -0.666208 -0.039262
-0.187523 -0.666100 -0.055829
-0.187770 -0.665919 -0.072731
-0.187026 -0.665894 -0.090448
-0.185894 -0.666000 -0.108155
-0.185170 -0.666083 -0.125160
-0.183876 -0.666178 -0.141636
-0.181964 -0.667431 -0.156072
-0.181334 -0.673565 -0.166124
-0.184026 -0.648357 0.138600
-0.188863 -0.647943 0.124740
-0.190748 -0.647790 0.107547
-0.188790 -0.647960 0.089525
-0.187525 -0.648360 0.072743
-0.190616 -0.648929 0.057919
-0.191633 -0.649271 0.042929
-0.188855 -0.649303 0.026617
-0.187658 -0.649443 0.010189
-0.188979 -0.649691 -0.006301
-0.188566 -0.649828 -0.023007
-0.186912 -0.649885 -0.040216
-0.186269 -0.649832 -0.057461
-0.186193 -0.649678 -0.074507
-0.185203 -0.649672 -0.091700
-0.183527 -0.649781 -0.108702
-0.182144 -0.649018 -0.125127
-0.181542 -0.654908 -0.141474
-0.180945 -0.657851 -0.149320
-0.187494 -0.631345 0.124675
-0.183448 -0.631683 0.139535
-0.188822 -0.631303 0.107259
-0.186773 -0.631520 0.089434
-0.185867 -0.631934 0.073015
-0.188927 -0.632489 0.058191
-0.190026 -0.632818 0.042931
-0.187746 -0.632809 0.026608
-0.186576 -0.632942 0.010194
-0.187295 -0.633218 -0.006255
-0.186813 -0.633377 -0.023034
-0.185423 -0.633450 -0.040684
-0.184592 -0.633437 -0.058568
-0.184105 -0.633330 -0.075635
-0.182532 -0.632401 -0.093058
-0.181585 -0.638017 -0.108878
-0.181026 -0.641087 -0.119404
-0.185148 -0.614900 0.124507
-0.182708 -0.614891 0.139204
-0.185273 -0.615095 0.106896
-0.182907 -0.613603 0.087670
-0.182766 -0.613867 0.074811
-0.186480 -0.616165 0.058424
-0.187710 -0.616415 0.042920
-0.186051 -0.616202 0.026615
-0.185168 -0.616276 0.010188
-0.185371 -0.616662 -0.006301
-0.184792 -0.616841 -0.022961
-0.183558 -0.616882 -0.040222
-0.182135 -0.615740 -0.058896
-0.181779 -0.619924 -0.075765
-0.181276 -0.622895 -0.088229
-0.183462 -0.598629 0.124573
-0.181984 -0.598567 0.137488
-0.183291 -0.598831 0.107036
-0.181766 -0.598960 0.090262
-0.181856 -0.599294 0.073032
-0.185018 -0.599810 0.058538
-0.186157 -0.600024 0.042895
-0.184212 -0.599816 0.026603
-0.183237 -0.599860 0.010165
-0.183215 -0.600188 -0.006417
-0.182169 -0.599777 -0.023020
-0.181725 -0.604971 -0.040497
-0.181170 -0.607496 -0.053238
-0.182067 -0.582538 0.124740
-0.181228 -0.582604 0.135079
-0.182068 -0.582594 0.107397
-0.181072 -0.582331 0.088913
-0.181408 -0.582592 0.075090
-0.184331 -0.583473 0.058567
-0.184931 -0.583692 0.042814
-0.182176 -0.584074 0.026199
-0.181367 -0.588099 0.010107
-0.181368 -0.588791 -0.006587
-0.181054 -0.590792 -0.017249
-0.180887 -0.573437 0.124710
-0.180736 -0.573782 0.133654
-0.180831 -0.573748 0.107383
-0.180630 -0.573795 0.090279
-0.181014 -0.568025 0.073686
-0.182878 -0.567203 0.058530
-0.182998 -0.567444 0.042531
-0.181330 -0.567442 0.031860
-0.181130 -0.551389 0.057247
-0.180680 -0.556707 0.068239
-0.181154 -0.552554 0.043537
-0.180756 -0.558903 0.034106
-0.180700 -0.542126 0.050740
-0.180706 -0.542168 0.049544
-0.183310 -0.040545 0.283950
-0.180628 -0.048782 0.276416
-0.180606 -0.048834 0.278141
-0.182746 -0.040265 0.273718
-0.188423 -0.043701 0.143640
-0.188443 -0.052274 0.135312
-0.184716 -0.023959 0.294017
-0.182031 -0.035211 0.293666
-0.189413 -0.023783 0.285083
-0.184288 -0.024267 0.269697
-0.188424 -0.024470 0.156022
-0.188398 -0.035552 0.150114
-0.193455 -0.006866 0.285854
-0.189063 -0.007135 0.294494
-0.186749 -0.007164 0.270824
-0.181335 -0.007403 0.256731
-0.180786 -0.019239 0.259615
-0.188395 -0.008369 0.158199
-0.188135 0.008692 0.296188
-0.194529 0.009233 0.281640
-0.188171 0.009485 0.270980
-0.181861 0.009176 0.257240
-0.188301 0.007406 0.156221
-0.188220 0.024735 0.297181
-0.191087 0.026515 0.272637
-0.195443 0.021796 0.279813
-0.182314 0.025337 0.258881
-0.188312 0.023528 0.155881
-0.188384 0.040712 0.296944
-0.181827 0.036947 0.260982
-0.188973 0.041037 0.271871
-0.188404 0.039908 0.156272
-0.188491 0.052546 0.295151
-0.196040 0.045123 0.280023
-0.185229 0.050631 0.274671
-0.189803 0.053020 0.285362
-0.188399 0.056106 0.155130
-0.188342 0.072250 0.153653
-0.188379 0.088681 0.154166
-0.188451 0.105243 0.155656
-0.188440 0.121624 0.156288
-0.188408 0.137921 0.157086
-0.186982 0.155993 0.160779
-0.187071 0.169541 0.161971
-0.180581 0.162474 0.163624
-0.180584 0.163003 0.163644
-0.188060 0.188025 0.154441
-0.189337 0.169461 0.104532
-0.195100 0.163195 0.099933
-0.193176 0.197726 0.150245
-0.190954 0.199888 0.140375
-0.191615 0.199823 0.123807
-0.194124 0.197591 0.114364
-0.177501 -0.861683 -0.186119
-0.180757 -0.868084 -0.178964
-0.184704 -0.875677 -0.185525
-0.179912 -0.869355 -0.190359
-0.179886 -0.851472 0.031091
-0.177117 -0.841570 0.037428
-0.173601 -0.846016 -0.024596
-0.179913 -0.852514 -0.029968
-0.179309 -0.853748 -0.060611
-0.183578 -0.852098 -0.050413
-0.188994 -0.855161 -0.056196
-0.174095 -0.845628 -0.055449
-0.176656 -0.827745 0.054833
-0.180594 -0.834038 0.060019
-0.185316 -0.841589 0.055257
-0.179886 -0.835015 0.048877
-0.179989 -0.811340 0.098828
-0.183217 -0.811734 0.106981
-0.185505 -0.826863 0.103600
-0.180247 -0.820107 0.097403
-0.180280 -0.836937 -0.330418
-0.178682 -0.830488 -0.321052
-0.179045 -0.794339 0.104979
-0.182037 -0.799608 0.109904
-0.179726 -0.820000 -0.314194
-0.177889 -0.813790 -0.303190
-0.178328 -0.778923 0.117929
-0.180165 -0.788680 0.114546
-0.180432 -0.804986 -0.296223
-0.178163 -0.798665 -0.286747
-0.175769 -0.763312 0.123089
-0.180149 -0.788674 -0.280068
-0.176309 -0.782298 -0.270684
-0.178182 -0.746921 0.130743
-0.179538 -0.758753 0.130043
-0.178863 -0.771725 -0.263850
-0.172740 -0.765214 -0.254729
-0.175794 -0.730554 0.131773
-0.171906 -0.748306 -0.239685
-0.177307 -0.754630 -0.248086
-0.171491 -0.713705 0.133245
-0.171432 -0.731320 -0.223397
-0.177234 -0.737943 -0.232613
-0.172411 -0.696937 0.136732
-0.176356 -0.721427 -0.216171
-0.171614 -0.715670 -0.209666
-0.172421 -0.680812 0.139646
-0.172804 -0.696377 -0.192039
-0.172747 -0.704661 -0.200134
-0.172443 -0.664594 0.142886
-0.172819 -0.680306 -0.175291
-0.172800 -0.688646 -0.183499
-0.172755 -0.649761 0.145910
-0.172763 -0.672262 -0.166792
-0.172739 -0.664024 -0.158856
-0.178396 -0.631811 0.147365
-0.170174 -0.631511 0.150168
-0.167488 -0.645125 0.148268
-0.180308 -0.642963 -0.130159
-0.173783 -0.646487 -0.141694
-0.173890 -0.633291 -0.125563
-0.169407 -0.636354 -0.135994
-0.172694 -0.654754 -0.150323
-0.179447 -0.614949 0.147275
-0.171223 -0.614734 0.151842
-0.178758 -0.629845 -0.108977
-0.180455 -0.626300 -0.099027
-0.178001 -0.617313 -0.093366
-0.172788 -0.617035 -0.108438
-0.167310 -0.617111 -0.119522
-0.178825 -0.598584 0.145664
-0.170620 -0.598442 0.152688
-0.180513 -0.607063 0.080871
-0.180514 -0.607064 0.080836
-0.180364 -0.599040 0.080507
-0.180361 -0.599019 0.081709
-0.179661 -0.611655 -0.075868
-0.180553 -0.609438 -0.065496
-0.175502 -0.600482 -0.076007
-0.178349 -0.601428 -0.059478
-0.171234 -0.600547 -0.092019
-0.166561 -0.602013 -0.105622
-0.165172 -0.608231 -0.114928
-0.177769 -0.582622 0.143275
-0.169583 -0.582493 0.153106
-0.180299 -0.587533 0.080700
-0.180294 -0.587481 0.082267
-0.180217 -0.593973 -0.029128
-0.179125 -0.596821 -0.041467
-0.178397 -0.584797 -0.024051
-0.174925 -0.584087 -0.042420
-0.172425 -0.584176 -0.059604
-0.170075 -0.584225 -0.075887
-0.166402 -0.585688 -0.090011
-0.164930 -0.591932 -0.098456
-0.177000 -0.567409 0.140033
-0.168965 -0.566076 0.153838
-0.179502 -0.579977 0.010095
-0.179903 -0.578922 0.020437
-0.176969 -0.567403 0.009799
-0.178930 -0.567417 0.023699
-0.179322 -0.580587 -0.006848
-0.176230 -0.567448 -0.007842
-0.174166 -0.567544 -0.025735
-0.171118 -0.567694 -0.042935
-0.168204 -0.567832 -0.059286
-0.165894 -0.568849 -0.073365
-0.165259 -0.574837 -0.083660
-0.173974 -0.549640 0.141405
-0.168537 -0.549473 0.154882
-0.177751 -0.565291 0.124269
-0.173074 -0.550098 0.123572
-0.177468 -0.565722 0.106664
-0.172189 -0.550398 0.105601
-0.178794 -0.565647 0.090222
-0.175878 -0.550309 0.090195
-0.179960 -0.563159 0.078672
-0.179562 -0.550848 0.074326
-0.177936 -0.552498 0.027690
-0.174654 -0.551115 0.009170
-0.173466 -0.551135 -0.009087
-0.171159 -0.551211 -0.026577
-0.167265 -0.550222 -0.043676
-0.165539 -0.556126 -0.058421
-0.164661 -0.559373 -0.066094
-0.172441 -0.533572 0.141400
-0.167910 -0.533413 0.156081
-0.171128 -0.534055 0.123289
-0.170399 -0.534343 0.105269
-0.175061 -0.534210 0.090402
-0.178933 -0.534239 0.075498
-0.180310 -0.546039 0.062138
-0.180047 -0.535708 0.057552
-0.179799 -0.547992 0.039078
-0.175051 -0.534793 0.026018
-0.179100 -0.535894 0.043487
-0.172543 -0.534827 0.008584
-0.171288 -0.534856 -0.009683
-0.167497 -0.533621 -0.027788
-0.165648 -0.538309 -0.038623
-0.167116 -0.517450 0.157177
-0.171107 -0.517585 0.141387
-0.170539 -0.517971 0.123256
-0.170479 -0.518189 0.105263
-0.175058 -0.518094 0.090568
-0.178273 -0.518054 0.075707
-0.178770 -0.518216 0.059108
-0.177148 -0.518380 0.042370
-0.172960 -0.518470 0.025822
-0.170224 -0.518528 0.008283
-0.168682 -0.518557 -0.009782
-0.166023 -0.518625 -0.022656
-0.169100 -0.501063 0.141368
-0.166146 -0.500962 0.156028
-0.168523 -0.501499 0.123168
-0.168718 -0.501760 0.105121
-0.173279 -0.501666 0.090505
-0.176240 -0.501699 0.075691
-0.176589 -0.501966 0.059147
-0.174782 -0.502137 0.042397
-0.170428 -0.502182 0.025694
-0.166695 -0.500623 0.006792
-0.165803 -0.505554 -0.009407
-0.164935 -0.509302 -0.018986
-0.165328 -0.484331 0.153489
-0.167033 -0.484425 0.141338
-0.165752 -0.483444 0.121133
-0.166083 -0.483722 0.106587
-0.171110 -0.485173 0.090437
-0.174010 -0.485277 0.075670
-0.174288 -0.485650 0.059142
-0.172292 -0.485825 0.042410
-0.167182 -0.484832 0.024348
-0.165132 -0.489651 0.011622
-0.164910 -0.468010 0.152289
-0.165933 -0.468137 0.141315
-0.165077 -0.470032 0.121126
-0.170002 -0.468862 0.090544
-0.165616 -0.470300 0.106604
-0.172539 -0.468899 0.075742
-0.172790 -0.469160 0.059234
-0.170693 -0.469337 0.042532
-0.166460 -0.469400 0.027828
-0.164948 -0.451237 0.141549
-0.164613 -0.456130 0.151232
-0.164774 -0.452168 0.122259
-0.165397 -0.452432 0.106209
-0.169017 -0.452560 0.090610
-0.171096 -0.452532 0.075800
-0.171374 -0.452681 0.059329
-0.169428 -0.452858 0.042684
-0.165821 -0.452951 0.029920
-0.164450 -0.441922 0.128293
-0.164477 -0.441744 0.136083
-0.164852 -0.436160 0.101433
-0.167359 -0.436118 0.090518
-0.169168 -0.436128 0.075804
-0.169446 -0.436321 0.059372
-0.167922 -0.436491 0.042803
-0.165267 -0.436558 0.031501
-0.164308 -0.424908 0.098222
-0.165533 -0.419547 0.091381
-0.167339 -0.419728 0.075814
-0.167620 -0.419951 0.059395
-0.166079 -0.418876 0.041409
-0.164823 -0.423529 0.033091
-0.165144 -0.403317 0.088454
-0.165994 -0.403364 0.075837
-0.166230 -0.403502 0.059411
-0.165518 -0.403612 0.045373
-0.164843 -0.389232 0.075835
-0.164680 -0.390938 0.086256
-0.164923 -0.386531 0.059486
-0.164888 -0.387151 0.048748
-0.164510 -0.377272 0.050452
-0.164490 -0.377231 0.053963
-0.179407 -0.048832 0.278100
-0.172030 -0.039951 0.283570
-0.172105 -0.047056 0.144868
-0.172128 -0.051670 0.136418
-0.171800 -0.024021 0.294438
-0.171800 -0.035722 0.293725
-0.170742 -0.037975 0.156149
-0.176468 -0.024915 0.162169
-0.164414 -0.033492 0.165499
-0.168784 -0.025787 0.171462
-0.171823 -0.007453 0.295685
-0.170145 -0.008696 0.188281
-0.166399 -0.020770 0.188560
-0.164949 -0.017943 0.198693
-0.167886 -0.008788 0.204414
-0.172550 -0.008678 0.171872
-0.177895 -0.008716 0.162630
-0.171806 0.008811 0.297752
-0.167873 0.007553 0.216326
-0.165990 -0.003370 0.215108
-0.173732 0.007409 0.204416
-0.169392 0.007766 0.186462
-0.166733 0.004070 0.171428
-0.171757 0.007474 0.160870
-0.171890 0.024898 0.299008
-0.173071 0.023691 0.204320
-0.167536 0.023839 0.215604
-0.169364 0.023626 0.188216
-0.170790 0.024128 0.160588
-0.172083 0.040793 0.298265
-0.165505 0.036003 0.213920
-0.167708 0.040849 0.205327
-0.167458 0.040070 0.189365
-0.173630 0.039844 0.160711
-0.164627 0.030047 0.168317
-0.165456 0.039963 0.169217
-0.172205 0.053137 0.295666
-0.171187 0.041782 0.266914
-0.176010 0.037037 0.260755
-0.165556 0.052569 0.192670
-0.165540 0.052618 0.200576
-0.171158 0.056401 0.160243
-0.165176 0.051324 0.165943
-0.172205 0.054985 0.285943
-0.172184 0.050498 0.274383
-0.171947 0.072343 0.157878
-0.171994 0.088750 0.158079
-0.172091 0.105243 0.159318
-0.172059 0.121634 0.159440
-0.171994 0.137969 0.159099
-0.172068 0.153588 0.161318
-0.172148 0.161831 0.163797
-0.172163 0.163448 0.163857
-0.172689 0.153509 0.106824
-0.189276 0.152849 0.099152
-0.184084 0.157299 0.101204
-0.180505 0.146411 0.099766
-0.172195 0.171622 0.161560
-0.172227 0.183570 0.153858
-0.172269 0.187855 0.139874
-0.182707 0.193270 0.140156
-0.183385 0.191044 0.123360
-0.173265 0.183011 0.123414
-0.179426 0.179924 0.113818
-0.188743 0.186084 0.112183
-0.164078 0.228179 0.211301
-0.164076 0.227448 0.211273
-0.164105 0.227479 0.214913
-0.164107 0.228211 0.214939
-0.159601 -0.827547 0.022936
-0.164702 -0.833616 0.028486
-0.172346 -0.842993 0.023597
-0.162472 -0.837306 0.017689
-0.161082 -0.822686 0.033810
-0.165332 -0.816121 0.044609
-0.168342 -0.827588 0.038970
-0.157787 -0.810591 0.038870
-0.161041 -0.805294 0.049847
-0.165677 -0.797100 0.060725
-0.168020 -0.810613 0.055370
-0.158857 -0.792577 0.055211
-0.162380 -0.812070 -0.022604
-0.164564 -0.804099 -0.022565
-0.164275 -0.803621 -0.014170
-0.160612 -0.809544 -0.007823
-0.163108 -0.814598 -0.039039
-0.165125 -0.806398 -0.039098
-0.165083 -0.806650 -0.049642
-0.163275 -0.811929 -0.055248
-0.163299 -0.793621 -0.056484
-0.165125 -0.798219 -0.050314
-0.163666 -0.795779 -0.172984
-0.164551 -0.802071 -0.168436
-0.165271 -0.809434 -0.173904
-0.164398 -0.802624 -0.179363
-0.163739 -0.786159 0.063824
-0.167030 -0.777853 0.074451
-0.169713 -0.792813 0.070402
-0.162711 -0.777655 0.066183
-0.162759 -0.780685 -0.039368
-0.164362 -0.786999 -0.032061
-0.165023 -0.793785 -0.038541
-0.164301 -0.787455 -0.044241
-0.161413 -0.760093 0.072145
-0.164784 -0.764859 0.077833
-0.162871 -0.746746 0.089114
-0.163963 -0.753132 0.095150
-0.165433 -0.760389 0.089169
-0.163737 -0.754048 0.083813
-0.163854 -0.769165 -0.250010
-0.166297 -0.758352 -0.245811
-0.162929 -0.763630 -0.240702
-0.162852 -0.729352 0.117929
-0.167483 -0.729899 0.125208
-0.169386 -0.744734 0.120789
-0.163932 -0.737941 0.115055
-0.162556 -0.746937 -0.224333
-0.166186 -0.741536 -0.229781
-0.163662 -0.752526 -0.235417
-0.165377 -0.719104 0.128834
-0.161083 -0.712963 0.123873
-0.162245 -0.730035 -0.208501
-0.165339 -0.724368 -0.214313
-0.163606 -0.735195 -0.218963
-0.163582 -0.707746 0.131657
-0.162498 -0.696406 0.133248
-0.160797 -0.680178 0.135595
-0.162684 -0.699880 -0.189773
-0.163954 -0.706106 -0.199053
-0.158913 -0.663807 0.138249
-0.163881 -0.689342 -0.182819
-0.162451 -0.683059 -0.173348
-0.156157 -0.647573 0.140183
-0.163703 -0.672211 -0.166544
-0.161696 -0.666129 -0.157232
-0.163248 -0.644888 0.148225
-0.160749 -0.631034 0.150112
-0.159803 -0.648381 -0.141802
-0.162884 -0.653608 -0.150530
-0.155443 -0.613939 0.151697
-0.158333 -0.631315 -0.125865
-0.161461 -0.636069 -0.135987
-0.156001 -0.597754 0.154090
-0.156030 -0.581694 0.155649
-0.161549 -0.601710 -0.105641
-0.164080 -0.608209 -0.114929
-0.155983 -0.565354 0.158329
-0.157005 -0.584420 -0.089730
-0.163938 -0.591909 -0.098458
-0.156443 -0.549260 0.161429
-0.156646 -0.567997 -0.074445
-0.160737 -0.574706 -0.083654
-0.162462 -0.533288 0.163322
-0.151339 -0.543784 0.163303
-0.154230 -0.532708 0.164929
-0.157394 -0.553776 -0.058919
-0.156262 -0.543851 -0.049171
-0.163522 -0.559351 -0.066102
-0.163898 -0.517422 0.165045
-0.155638 -0.516780 0.167106
-0.164146 -0.527316 -0.033319
-0.157553 -0.533628 -0.041494
-0.161139 -0.518561 -0.029932
-0.152957 -0.518474 -0.035888
-0.163629 -0.500981 0.164118
-0.155362 -0.500444 0.168539
-0.155874 -0.503229 -0.024935
-0.149547 -0.507945 -0.033107
-0.162854 -0.484338 0.161646
-0.154566 -0.483947 0.169814
-0.162945 -0.497315 -0.009066
-0.164445 -0.494036 0.000024
-0.163483 -0.484808 0.007005
-0.159207 -0.485757 -0.008517
-0.152087 -0.485712 -0.021274
-0.162830 -0.467969 0.160473
-0.154529 -0.467525 0.171403
-0.164048 -0.477198 0.113143
-0.164047 -0.477208 0.112990
-0.164050 -0.476619 0.112990
-0.164051 -0.476599 0.113143
-0.164180 -0.478630 0.017853
-0.163503 -0.469371 0.019410
-0.160704 -0.469384 0.008848
-0.155394 -0.469348 -0.008227
-0.150091 -0.469331 -0.018954
-0.162625 -0.451033 0.157137
-0.153302 -0.452267 0.173803
-0.162781 -0.452944 0.021468
-0.158644 -0.452964 0.008964
-0.151789 -0.452245 -0.009319
-0.148936 -0.457201 -0.017508
-0.148863 -0.434678 0.180127
-0.148567 -0.447343 0.179623
-0.153648 -0.434889 0.172798
-0.159568 -0.435082 0.157775
-0.164054 -0.445267 0.147281
-0.162949 -0.435779 0.141363
-0.164007 -0.446849 0.112276
-0.164013 -0.446739 0.115084
-0.163446 -0.436127 0.109387
-0.163313 -0.436252 0.122027
-0.157370 -0.436556 0.009176
-0.162512 -0.436540 0.023035
-0.151129 -0.436571 -0.005228
-0.152473 -0.418483 0.173052
-0.148808 -0.418411 0.180770
-0.157231 -0.418506 0.157769
-0.160667 -0.418721 0.140926
-0.161678 -0.419261 0.122648
-0.162923 -0.419464 0.104036
-0.155601 -0.420133 0.009330
-0.162260 -0.418858 0.026917
-0.150121 -0.420157 -0.002490
-0.152730 -0.401919 0.173490
-0.149073 -0.401690 0.181955
-0.156759 -0.402068 0.157780
-0.159621 -0.402284 0.140999
-0.160746 -0.402807 0.122716
-0.161952 -0.403217 0.104787
-0.163952 -0.414000 0.096331
-0.163676 -0.403335 0.095027
-0.164373 -0.412549 0.034855
-0.159667 -0.403687 0.026145
-0.163769 -0.403659 0.037009
-0.152997 -0.403703 0.009394
-0.148951 -0.403750 -0.000356
-0.152263 -0.385452 0.173741
-0.149028 -0.385210 0.182749
-0.155890 -0.385623 0.157779
-0.158686 -0.385841 0.140936
-0.159779 -0.386352 0.122651
-0.160870 -0.386763 0.104784
-0.163242 -0.386000 0.090607
-0.157779 -0.387252 0.026153
-0.162815 -0.387201 0.040419
-0.150684 -0.387753 0.008226
-0.148245 -0.393540 0.000898
-0.148456 -0.369213 0.182572
-0.150467 -0.369170 0.173714
-0.154105 -0.369120 0.157741
-0.157648 -0.369318 0.140525
-0.158584 -0.369853 0.122270
-0.159336 -0.370277 0.104785
-0.161632 -0.370362 0.090451
-0.164042 -0.380978 0.075844
-0.162950 -0.370452 0.075812
-0.164128 -0.380603 0.064978
-0.163554 -0.371278 0.059485
-0.162287 -0.371420 0.044098
-0.156875 -0.370867 0.026143
-0.151062 -0.370917 0.010912
-0.148064 -0.352761 0.182367
-0.149427 -0.352660 0.173783
-0.153022 -0.352592 0.157730
-0.156660 -0.352796 0.140388
-0.157454 -0.353353 0.122142
-0.158148 -0.353805 0.104753
-0.160279 -0.353873 0.090434
-0.161462 -0.353969 0.075809
-0.161912 -0.354214 0.059387
-0.160116 -0.354384 0.042842
-0.155353 -0.354438 0.026149
-0.150483 -0.354491 0.012562
-0.149405 -0.335902 0.173971
-0.147952 -0.335734 0.182462
-0.152793 -0.336126 0.157768
-0.155688 -0.336362 0.140679
-0.156441 -0.336876 0.122403
-0.157417 -0.337351 0.104714
-0.159314 -0.337478 0.090474
-0.160176 -0.337558 0.075835
-0.160399 -0.337705 0.059395
-0.158191 -0.337852 0.042833
-0.153039 -0.337957 0.026173
-0.149268 -0.338040 0.015206
-0.147862 -0.325627 0.182322
-0.148582 -0.320040 0.174275
-0.151797 -0.319616 0.157766
-0.154736 -0.319850 0.140669
-0.155609 -0.320393 0.122397
-0.156601 -0.320889 0.104762
-0.158338 -0.321031 0.090495
-0.159063 -0.321117 0.075825
-0.159142 -0.321267 0.059388
-0.156782 -0.321424 0.042827
-0.151494 -0.321544 0.026205
-0.148442 -0.321626 0.017058
-0.149877 -0.303592 0.158483
-0.148003 -0.309512 0.169056
-0.153857 -0.303233 0.140335
-0.154942 -0.303874 0.122115
-0.155678 -0.304408 0.104846
-0.157337 -0.304500 0.090467
-0.158114 -0.304611 0.075779
-0.158075 -0.304885 0.059366
-0.155786 -0.305089 0.042834
-0.150286 -0.305463 0.024925
-0.148194 -0.311164 0.017630
-0.148056 -0.292426 0.195127
-0.148066 -0.298531 0.193130
-0.148057 -0.298571 0.195136
-0.148067 -0.292352 0.193077
-0.149797 -0.286470 0.155555
-0.153016 -0.286666 0.140386
-0.154238 -0.287342 0.122172
-0.155085 -0.287922 0.104861
-0.156597 -0.288023 0.090487
-0.157198 -0.288142 0.075777
-0.156855 -0.288419 0.059357
-0.154501 -0.288631 0.042832
-0.150192 -0.288726 0.028476
-0.149436 -0.269967 0.155317
-0.152113 -0.270175 0.140722
-0.153455 -0.270830 0.122472
-0.154604 -0.271440 0.104853
-0.155936 -0.271614 0.090542
-0.156269 -0.271724 0.075812
-0.155545 -0.271896 0.059356
-0.152960 -0.272083 0.042811
-0.149441 -0.272218 0.030905
-0.151242 -0.253754 0.140665
-0.148950 -0.253548 0.153644
-0.152562 -0.254392 0.122425
-0.153491 -0.254968 0.104879
-0.154763 -0.255124 0.090523
-0.155080 -0.255246 0.075785
-0.154114 -0.255457 0.059334
-0.151485 -0.255670 0.042797
-0.148755 -0.255797 0.032641
-0.150365 -0.237374 0.140390
-0.148426 -0.237173 0.151435
-0.151556 -0.237991 0.122188
-0.152092 -0.238502 0.104895
-0.153422 -0.238582 0.090450
-0.153847 -0.238722 0.075725
-0.152761 -0.239068 0.059305
-0.149795 -0.238267 0.041354
-0.148302 -0.243049 0.033707
-0.147983 -0.220774 0.150119
-0.149446 -0.220959 0.140483
-0.150703 -0.221523 0.122280
-0.151371 -0.221997 0.104901
-0.152705 -0.222083 0.090478
-0.153075 -0.222235 0.075737
-0.151859 -0.222576 0.059298
-0.149493 -0.222822 0.044785
-0.148500 -0.205751 0.141188
-0.147779 -0.211916 0.149623
-0.149819 -0.205022 0.122503
-0.150785 -0.205477 0.104928
-0.152170 -0.205620 0.090551
-0.152459 -0.205783 0.075773
-0.151107 -0.206059 0.059292
-0.149042 -0.206258 0.047275
-0.148141 -0.191984 0.135578
-0.148446 -0.189562 0.122472
-0.149044 -0.187460 0.106412
-0.151105 -0.189110 0.090499
-0.151546 -0.189301 0.075712
-0.150158 -0.189665 0.059268
-0.148542 -0.189879 0.049105
-0.148221 -0.171818 0.195409
-0.147966 -0.181515 0.193551
-0.147963 -0.181520 0.195190
-0.148221 -0.171789 0.191883
-0.150124 -0.172572 0.090426
-0.148344 -0.172513 0.103200
-0.150691 -0.172797 0.075639
-0.149293 -0.173281 0.059249
-0.148113 -0.173535 0.050350
-0.148071 -0.159895 0.192260
-0.148072 -0.159948 0.195325
-0.148231 -0.155990 0.102067
-0.149780 -0.156079 0.090518
-0.150221 -0.156330 0.075673
-0.148647 -0.157735 0.058350
-0.147917 -0.164080 0.050840
-0.148151 -0.139496 0.101301
-0.149637 -0.139632 0.090621
-0.150057 -0.139909 0.075703
-0.148693 -0.140263 0.061802
-0.149037 -0.121997 0.091797
-0.147867 -0.126563 0.099302
-0.150130 -0.123505 0.075593
-0.148644 -0.123859 0.063364
-0.148111 -0.105745 0.187661
-0.147595 -0.114810 0.180447
-0.147600 -0.114797 0.182181
-0.147788 -0.105447 0.178675
-0.149392 -0.107932 0.091784
-0.150671 -0.107179 0.075525
-0.148751 -0.107526 0.064324
-0.150044 -0.088765 0.188937
-0.148142 -0.100412 0.196675
-0.149088 -0.088564 0.198836
-0.148606 -0.089350 0.173217
-0.148731 -0.089889 0.104877
-0.147871 -0.103162 0.099175
-0.151559 -0.090614 0.090745
-0.151751 -0.090946 0.075607
-0.149061 -0.091241 0.064297
-0.148774 -0.072109 0.198986
-0.150345 -0.072366 0.189226
-0.149998 -0.072877 0.173030
-0.149556 -0.073268 0.156709
-0.148154 -0.085304 0.157005
-0.150163 -0.073536 0.139876
-0.147894 -0.084141 0.140102
-0.147981 -0.084165 0.122350
-0.151100 -0.073873 0.122284
-0.152558 -0.074191 0.105618
-0.154196 -0.074419 0.090943
-0.152519 -0.074709 0.075670
-0.148998 -0.074928 0.065131
-0.147686 -0.063540 0.197441
-0.148422 -0.060355 0.188876
-0.148848 -0.055485 0.172482
-0.152733 -0.057162 0.156022
-0.158627 -0.056904 0.140402
-0.158890 -0.060885 0.122199
-0.159557 -0.061310 0.105780
-0.158567 -0.057813 0.091730
-0.150884 -0.058851 0.075714
-0.148450 -0.064795 0.066521
-0.155317 -0.040653 0.171602
-0.159499 -0.044764 0.155790
-0.162938 -0.048485 0.146533
-0.159415 -0.042094 0.088282
-0.151325 -0.042015 0.079557
-0.161917 -0.023949 0.293769
-0.162863 -0.033979 0.293536
-0.162720 -0.031749 0.176409
-0.156640 -0.028080 0.188359
-0.151697 -0.037008 0.182602
-0.160986 -0.025933 0.086681
-0.152901 -0.025869 0.078657
-0.160377 -0.007309 0.294328
-0.155754 -0.013417 0.210070
-0.155746 -0.019729 0.201741
-0.153454 -0.009570 0.078062
-0.161552 -0.009627 0.086137
-0.158627 0.009066 0.295303
-0.155678 -0.005307 0.215456
-0.155568 0.008016 0.218417
-0.160914 0.006832 0.086465
-0.152798 0.006882 0.078031
-0.157848 0.025265 0.295931
-0.155552 0.024315 0.217489
-0.161043 0.012243 0.171177
-0.162250 0.013478 0.179868
-0.161564 0.024296 0.172734
-0.162586 0.023645 0.179918
-0.161578 0.013125 0.162113
-0.161585 0.019261 0.162121
-0.160493 0.023185 0.086718
-0.152377 0.023238 0.078168
-0.158753 0.041198 0.295502
-0.155776 0.041489 0.214158
-0.162056 0.040141 0.177482
-0.162063 0.040141 0.181071
-0.152175 0.039532 0.078317
-0.160284 0.039468 0.086930
-0.161172 0.051249 0.294657
-0.161379 0.047015 0.211309
-0.159391 0.057702 0.205473
-0.150605 0.057275 0.213285
-0.158992 0.056743 0.171222
-0.159497 0.057541 0.187487
-0.151052 0.057158 0.075122
-0.159877 0.055902 0.087522
-0.161409 0.050909 0.285801
-0.163367 0.049188 0.276886
-0.148960 0.073342 0.213617
-0.155049 0.073137 0.204804
-0.154918 0.072955 0.187973
-0.154009 0.072753 0.170808
-0.162304 0.062076 0.162349
-0.160780 0.072498 0.161648
-0.159205 0.072420 0.088658
-0.151162 0.072413 0.075735
-0.147981 0.072316 0.067348
-0.148010 0.063406 0.067317
-0.150156 0.089470 0.215760
-0.155818 0.089328 0.205005
-0.155341 0.089254 0.188110
-0.155236 0.089106 0.170942
-0.161171 0.088893 0.161777
-0.158093 0.088794 0.090226
-0.149572 0.087199 0.075651
-0.147903 0.080603 0.067466
-0.151911 0.105786 0.218682
-0.157867 0.105544 0.205076
-0.157027 0.105576 0.188261
-0.158124 0.105536 0.171305
-0.162759 0.105355 0.162591
-0.155957 0.105665 0.091462
-0.148817 0.102319 0.081080
-0.150257 0.123238 0.221854
-0.155151 0.122084 0.204807
-0.154250 0.122087 0.188028
-0.156939 0.121941 0.171201
-0.162638 0.121738 0.162458
-0.172211 0.104082 0.098343
-0.166596 0.109007 0.100228
-0.163045 0.109040 0.100142
-0.161233 0.121640 0.101565
-0.153155 0.121771 0.092765
-0.148134 0.138536 0.228809
-0.147527 0.129361 0.228505
-0.149851 0.138646 0.220731
-0.151339 0.138809 0.204670
-0.150690 0.138685 0.187836
-0.154627 0.138335 0.170970
-0.161783 0.138081 0.161757
-0.158721 0.138311 0.103610
-0.150616 0.138513 0.095443
-0.149946 0.155451 0.221327
-0.148742 0.155372 0.229669
-0.150369 0.155555 0.205188
-0.150806 0.155292 0.188251
-0.157666 0.155804 0.169930
-0.162292 0.150816 0.162128
-0.148789 0.149427 0.097736
-0.155945 0.155012 0.106313
-0.149662 0.172056 0.221887
-0.148441 0.172087 0.230434
-0.150567 0.171988 0.205454
-0.150773 0.171737 0.188482
-0.155796 0.170015 0.170217
-0.164744 0.160640 0.114297
-0.163240 0.160652 0.114273
-0.152303 0.167796 0.109856
-0.156989 0.172265 0.116506
-0.148807 0.188200 0.222651
-0.147835 0.183247 0.230522
-0.150575 0.187846 0.204656
-0.148968 0.186550 0.188008
-0.148437 0.180590 0.171545
-0.159501 0.174409 0.161622
-0.154721 0.183778 0.156034
-0.153323 0.203649 0.203971
-0.150996 0.202618 0.222538
-0.150232 0.203706 0.191514
-0.155803 0.188668 0.139481
-0.155823 0.183498 0.125527
-0.160098 0.221243 0.221296
-0.149222 0.207313 0.234517
-0.153071 0.219011 0.239561
-0.160499 0.221120 0.204863
-0.153237 0.219820 0.190799
-0.149415 0.236311 0.248744
-0.149900 0.223805 0.248752
-0.155107 0.236285 0.239291
-0.160835 0.234687 0.221638
-0.160892 0.234597 0.205141
-0.153382 0.236094 0.191196
-0.149527 0.248357 0.239462
-0.147659 0.244525 0.247441
-0.151792 0.253950 0.224174
-0.153301 0.252410 0.204728
-0.149965 0.252432 0.193566
-0.149654 0.268827 0.205089
-0.149090 0.268833 0.222399
-0.148226 0.268837 0.195284
-0.150280 0.285345 0.205579
-0.149286 0.283978 0.224665
-0.148588 0.285357 0.195368
-0.148139 0.296076 0.232444
-0.148147 0.288620 0.232443
-0.148963 0.301650 0.223073
-0.149847 0.301825 0.205668
-0.148520 0.301834 0.195504
-0.148079 0.313243 0.217191
-0.148222 0.314569 0.205392
-0.147954 0.312849 0.195915
-0.142002 -0.778924 0.039892
-0.147440 -0.785235 0.045913
-0.149713 -0.793741 0.039702
-0.145701 -0.788102 0.035197
-0.144270 -0.774260 0.048593
-0.152512 -0.761136 0.057895
-0.152924 -0.778959 0.054446
-0.142156 -0.761072 0.049810
-0.141915 -0.744799 0.050739
-0.151436 -0.744895 0.058861
-0.142049 -0.728486 0.052302
-0.150041 -0.728561 0.060372
-0.144312 -0.746078 0.026336
-0.150635 -0.746355 0.011200
-0.149379 -0.741582 0.021357
-0.146976 -0.752224 0.017268
-0.148498 -0.717091 0.062238
-0.142250 -0.711807 0.056317
-0.146329 -0.695539 0.067296
-0.149501 -0.695601 0.075471
-0.151404 -0.711831 0.070943
-0.146958 -0.706008 0.064872
-0.148121 -0.682246 0.078273
-0.146204 -0.677733 0.072526
-0.147863 -0.690268 -0.015390
-0.148770 -0.680257 -0.005324
-0.148585 -0.696017 -0.008535
-0.147810 -0.680364 -0.014229
-0.147570 -0.671344 0.080989
-0.147739 -0.670558 0.092833
-0.148492 -0.677798 0.087682
-0.146165 -0.664135 0.087718
-0.148536 -0.667807 -0.002579
-0.147443 -0.662992 -0.007650
-0.147095 -0.656460 0.118011
-0.149023 -0.650263 0.129171
-0.150742 -0.662548 0.123773
-0.145997 -0.645339 0.123997
-0.147762 -0.656712 0.003347
-0.148368 -0.652917 0.014434
-0.149581 -0.662835 0.009400
-0.146810 -0.647352 0.009414
-0.147368 -0.648576 -0.058870
-0.148679 -0.654730 -0.053238
-0.150591 -0.662559 -0.057359
-0.148029 -0.655607 -0.064250
-0.146191 -0.629971 0.135863
-0.152523 -0.630386 0.143638
-0.147590 -0.639207 0.133407
-0.143850 -0.613402 0.141647
-0.149631 -0.618982 0.147169
-0.145675 -0.597189 0.150907
-0.146740 -0.607901 0.150046
-0.146470 -0.615469 -0.093168
-0.153520 -0.616570 -0.107513
-0.149416 -0.610782 -0.098891
-0.147764 -0.621587 -0.101502
-0.144212 -0.580922 0.152114
-0.139347 -0.563522 0.153466
-0.145822 -0.582097 -0.076876
-0.149731 -0.576626 -0.082217
-0.147157 -0.587111 -0.085246
-0.140170 -0.548452 0.158872
-0.145259 -0.566197 -0.059924
-0.152585 -0.560932 -0.064738
-0.146760 -0.571594 -0.071556
-0.143224 -0.532036 0.164774
-0.146045 -0.543474 0.163229
-0.139206 -0.548877 -0.042629
-0.146484 -0.553859 -0.054242
-0.138558 -0.516287 0.166933
-0.139488 -0.499452 0.170170
-0.139472 -0.483097 0.172970
-0.140455 -0.501830 -0.029132
-0.146302 -0.507822 -0.033087
-0.139473 -0.466661 0.176224
-0.139493 -0.456330 0.178480
-0.139453 -0.448285 0.179661
-0.139441 -0.434205 0.181009
-0.141077 -0.452063 -0.019376
-0.147391 -0.446175 -0.015591
-0.137374 -0.436331 -0.018257
-0.145509 -0.436456 -0.013526
-0.139437 -0.417962 0.182484
-0.135204 -0.419932 -0.017342
-0.143322 -0.420027 -0.010713
-0.139403 -0.401266 0.184500
-0.142335 -0.403626 -0.008611
-0.134222 -0.403568 -0.017027
-0.139380 -0.384801 0.186297
-0.133420 -0.387206 -0.016547
-0.142585 -0.387719 -0.005608
-0.139396 -0.368905 0.187526
-0.147688 -0.382517 0.001899
-0.147170 -0.370878 0.002690
-0.139758 -0.370864 -0.006879
-0.132494 -0.370841 -0.015706
-0.137995 -0.351447 0.189830
-0.136802 -0.355053 -0.008076
-0.146053 -0.354451 0.004351
-0.131917 -0.360885 -0.015156
-0.141127 -0.335492 0.188992
-0.132779 -0.335181 0.195193
-0.131498 -0.344855 0.194978
-0.136433 -0.338033 -0.005325
-0.144572 -0.337996 0.006952
-0.144718 -0.319792 0.187358
-0.135889 -0.318901 0.195775
-0.143516 -0.321585 0.008775
-0.135394 -0.321639 -0.003950
-0.140448 -0.303520 0.196264
-0.146407 -0.303594 0.188530
-0.147425 -0.315018 0.179666
-0.146385 -0.303722 0.174161
-0.143678 -0.305487 0.011137
-0.134658 -0.305264 -0.002566
-0.140678 -0.286525 0.196477
-0.144870 -0.286602 0.173907
-0.146164 -0.286606 0.188489
-0.146694 -0.298483 0.164507
-0.146358 -0.286499 0.163820
-0.147811 -0.300152 0.018452
-0.140907 -0.288792 0.009704
-0.146977 -0.288744 0.020114
-0.133832 -0.288849 -0.001411
-0.137820 -0.269545 0.196821
-0.144375 -0.269703 0.188423
-0.144657 -0.269847 0.174023
-0.146462 -0.269968 0.163541
-0.145720 -0.272268 0.022584
-0.138855 -0.272352 0.009735
-0.132989 -0.272421 -0.000360
-0.143894 -0.253423 0.188393
-0.137751 -0.253276 0.197240
-0.143270 -0.253497 0.173959
-0.145496 -0.253564 0.161883
-0.136147 -0.254547 0.008189
-0.144903 -0.255851 0.024347
-0.132295 -0.259061 0.000641
-0.144200 -0.237545 0.188204
-0.138603 -0.237455 0.197809
-0.141286 -0.237354 0.173789
-0.144043 -0.237231 0.159707
-0.136187 -0.239608 0.010679
-0.144951 -0.238353 0.027418
-0.138345 -0.220741 0.198085
-0.143629 -0.220844 0.188205
-0.140437 -0.220816 0.173818
-0.143516 -0.220804 0.158366
-0.147869 -0.232104 0.034826
-0.142705 -0.223042 0.026289
-0.147262 -0.222925 0.036463
-0.135296 -0.223176 0.012248
-0.143297 -0.203879 0.188349
-0.137820 -0.203726 0.198227
-0.140633 -0.204125 0.173933
-0.144005 -0.205571 0.156165
-0.140684 -0.206579 0.026303
-0.146192 -0.206388 0.038977
-0.134305 -0.206729 0.013818
-0.145471 -0.187145 0.188751
-0.140389 -0.187066 0.197843
-0.141543 -0.187821 0.173822
-0.142078 -0.187869 0.157710
-0.147105 -0.200994 0.147341
-0.146363 -0.187040 0.141020
-0.145196 -0.190001 0.040836
-0.138853 -0.190204 0.026310
-0.133433 -0.190333 0.015288
-0.139322 -0.171747 0.198773
-0.146667 -0.171722 0.185022
-0.142653 -0.171572 0.173653
-0.141289 -0.171408 0.157638
-0.144360 -0.171512 0.140406
-0.147363 -0.181289 0.122306
-0.146183 -0.172016 0.122282
-0.147496 -0.180897 0.112752
-0.147108 -0.172394 0.111164
-0.144333 -0.173642 0.042094
-0.137256 -0.173834 0.026323
-0.132668 -0.173937 0.016554
-0.140741 -0.154483 0.197708
-0.142831 -0.154999 0.173683
-0.146722 -0.154503 0.187872
-0.140740 -0.154891 0.157650
-0.143111 -0.154991 0.140538
-0.145218 -0.155469 0.122423
-0.146863 -0.155853 0.109957
-0.135108 -0.156236 0.024842
-0.144416 -0.158039 0.044296
-0.132092 -0.160962 0.017489
-0.145846 -0.138241 0.188197
-0.138407 -0.138099 0.198273
-0.142927 -0.138365 0.173704
-0.140704 -0.138364 0.157654
-0.142667 -0.138469 0.140675
-0.144732 -0.138931 0.122564
-0.146664 -0.139332 0.109117
-0.147677 -0.152985 0.052153
-0.147429 -0.140497 0.053442
-0.142742 -0.140717 0.042716
-0.135112 -0.140979 0.027523
-0.146393 -0.120811 0.187485
-0.138238 -0.121563 0.198514
-0.144826 -0.120949 0.174655
-0.141814 -0.121863 0.157430
-0.142683 -0.121926 0.140424
-0.143506 -0.122423 0.122425
-0.146062 -0.121747 0.104751
-0.141691 -0.124384 0.042710
-0.146871 -0.124121 0.055050
-0.134573 -0.124593 0.029063
-0.146888 -0.111470 0.191846
-0.140558 -0.105577 0.199376
-0.145718 -0.105542 0.170842
-0.144136 -0.105503 0.157122
-0.144205 -0.105568 0.140143
-0.143858 -0.106068 0.122285
-0.145970 -0.107747 0.104700
-0.147501 -0.115679 0.097183
-0.147498 -0.114061 0.097188
-0.140664 -0.108069 0.042709
-0.146270 -0.107792 0.056033
-0.134122 -0.108234 0.030202
-0.139238 -0.088501 0.204830
-0.146778 -0.095029 0.167847
-0.146580 -0.093312 0.157010
-0.146595 -0.092067 0.140089
-0.146283 -0.092193 0.122311
-0.146611 -0.094829 0.109679
-0.140014 -0.091706 0.042719
-0.145977 -0.091457 0.055972
-0.133774 -0.091861 0.031098
-0.139199 -0.072035 0.205337
-0.145111 -0.075105 0.056809
-0.138290 -0.075340 0.042735
-0.132902 -0.075470 0.032560
-0.139350 -0.057132 0.200590
-0.143688 -0.059151 0.060295
-0.134938 -0.059496 0.042084
-0.131981 -0.065356 0.033900
-0.145117 -0.052267 0.188391
-0.135792 -0.039524 0.200607
-0.144323 -0.041175 0.188000
-0.146786 -0.049060 0.177741
-0.146782 -0.047774 0.177702
-0.146579 -0.053791 0.070242
-0.140966 -0.042375 0.059246
-0.145975 -0.042126 0.071314
-0.134697 -0.042586 0.045381
-0.145391 -0.029877 0.193476
-0.139674 -0.024016 0.204380
-0.146309 -0.025889 0.070373
-0.141364 -0.026035 0.059262
-0.134794 -0.026191 0.045491
-0.139293 -0.014158 0.211879
-0.146641 -0.009579 0.069781
-0.141920 -0.009694 0.059260
-0.135030 -0.009830 0.044889
-0.139096 0.008640 0.217524
-0.139218 -0.006091 0.214533
-0.142267 0.006673 0.059245
-0.146741 0.006825 0.069771
-0.135257 0.006512 0.043653
-0.139079 0.024973 0.217642
-0.146799 0.023190 0.069896
-0.142411 0.023057 0.059245
-0.134599 0.024083 0.041151
-0.139154 0.041604 0.216243
-0.146863 0.039526 0.070027
-0.142490 0.039456 0.059258
-0.135515 0.039353 0.042704
-0.131711 0.039289 0.034129
-0.131578 0.030303 0.034355
-0.139159 0.057717 0.216572
-0.144334 0.057050 0.060790
-0.147257 0.052494 0.069182
-0.136503 0.055740 0.042701
-0.132307 0.055683 0.032977
-0.139128 0.073466 0.218950
-0.137655 0.072097 0.042704
-0.144458 0.072215 0.059073
-0.132927 0.072050 0.031591
-0.138749 0.088941 0.223892
-0.137474 0.088526 0.042703
-0.144722 0.087081 0.060911
-0.132916 0.088470 0.031433
-0.144114 0.106061 0.226317
-0.135897 0.106300 0.229189
-0.133035 0.094143 0.228555
-0.147403 0.091524 0.070051
-0.142645 0.105064 0.059320
-0.147025 0.106740 0.075673
-0.136524 0.104982 0.042699
-0.132533 0.104916 0.032210
-0.146378 0.118698 0.227825
-0.140216 0.123518 0.229449
-0.147912 0.113242 0.083963
-0.145428 0.121742 0.075790
-0.147371 0.121864 0.085109
-0.141475 0.121527 0.059320
-0.135759 0.121393 0.042687
-0.132055 0.121334 0.033236
-0.139151 0.138753 0.230312
-0.146295 0.138574 0.087818
-0.143290 0.138376 0.075800
-0.139927 0.138006 0.059317
-0.134287 0.137327 0.041539
-0.131720 0.131508 0.033959
-0.139185 0.155632 0.231498
-0.145084 0.154858 0.092255
-0.140665 0.154729 0.075821
-0.137685 0.154437 0.059340
-0.133816 0.154245 0.045460
-0.139241 0.172342 0.233115
-0.147111 0.160182 0.100273
-0.145918 0.172424 0.105544
-0.141395 0.171124 0.091675
-0.137816 0.171039 0.075830
-0.135070 0.170848 0.059359
-0.132540 0.170707 0.048403
-0.139419 0.189100 0.236636
-0.147407 0.178822 0.113987
-0.144153 0.188430 0.120747
-0.140578 0.187516 0.106437
-0.137951 0.187634 0.091748
-0.135444 0.187575 0.075828
-0.132630 0.187253 0.059271
-0.131795 0.181637 0.050258
-0.143927 0.202704 0.238969
-0.131927 0.194867 0.246155
-0.134680 0.205359 0.252182
-0.146850 0.193565 0.229043
-0.146840 0.196553 0.229082
-0.144817 0.191016 0.182333
-0.139327 0.189045 0.171230
-0.134229 0.203841 0.176236
-0.142442 0.203772 0.183354
-0.139228 0.191466 0.154656
-0.143755 0.194319 0.139197
-0.135558 0.198852 0.139014
-0.133708 0.196957 0.148854
-0.135297 0.200457 0.122184
-0.134135 0.201757 0.106505
-0.133535 0.205196 0.092367
-0.132848 0.203661 0.076417
-0.131868 0.197723 0.064718
-0.133711 0.220199 0.261404
-0.131512 0.211726 0.260886
-0.142544 0.219062 0.253487
-0.146704 0.212885 0.244954
-0.133307 0.220008 0.177595
-0.141487 0.219942 0.182698
-0.131779 0.213709 0.082283
-0.131762 0.213667 0.087510
-0.143714 0.236327 0.255675
-0.135518 0.236436 0.262083
-0.132397 0.236263 0.178583
-0.140570 0.236205 0.183113
-0.142343 0.251004 0.252931
-0.134611 0.252643 0.262253
-0.131314 0.244688 0.179439
-0.137804 0.251047 0.184854
-0.133179 0.269002 0.261954
-0.137799 0.268914 0.254366
-0.145772 0.256468 0.239580
-0.143939 0.268847 0.239703
-0.147541 0.260375 0.231170
-0.147546 0.268815 0.231102
-0.136438 0.285458 0.254456
-0.131964 0.285531 0.261469
-0.144656 0.284006 0.238617
-0.147644 0.277517 0.231374
-0.134356 0.300991 0.255115
-0.131368 0.294892 0.261198
-0.143719 0.301669 0.238630
-0.133690 0.318391 0.251533
-0.139739 0.318224 0.239733
-0.146937 0.306928 0.228683
-0.145611 0.318482 0.222833
-0.132342 0.334832 0.249402
-0.137468 0.334683 0.239701
-0.143539 0.334622 0.222702
-0.146928 0.322757 0.205120
-0.145408 0.334651 0.204861
-0.140760 0.318303 0.191138
-0.138172 0.334657 0.190248
-0.135031 0.350565 0.240297
-0.131593 0.344682 0.248241
-0.141529 0.351189 0.222545
-0.142315 0.351162 0.204573
-0.136512 0.351127 0.191027
-0.133714 0.361843 0.235215
-0.135461 0.363674 0.222236
-0.135670 0.363849 0.204213
-0.133982 0.361974 0.193043
-0.115171 -0.860807 0.014699
-0.114874 -0.870186 0.013688
-0.114868 -0.870183 0.014540
-0.115176 -0.860845 0.013503
-0.115400 -0.844124 0.015246
-0.115412 -0.844181 0.013655
-0.115532 -0.826197 0.021650
-0.115278 -0.827173 0.014423
-0.115386 -0.815444 0.031129
-0.115366 -0.819997 0.031129
-0.115418 -0.816329 0.023086
-0.115007 -0.818792 0.015284
-0.131049 -0.605402 0.097935
-0.131697 -0.602198 0.110055
-0.133726 -0.611895 0.104912
-0.130324 -0.596812 0.105134
-0.131106 -0.606447 0.067104
-0.131817 -0.603926 0.077324
-0.133544 -0.612541 0.072332
-0.129673 -0.597839 0.072642
-0.130869 -0.591275 0.117433
-0.132121 -0.580610 0.130070
-0.133386 -0.596845 0.123588
-0.130027 -0.580587 0.121435
-0.131261 -0.572393 0.133148
-0.127314 -0.565843 0.125890
-0.131257 -0.574571 0.006608
-0.131547 -0.572554 0.017734
-0.133251 -0.580448 0.011364
-0.129037 -0.566081 0.011071
-0.129345 -0.547854 0.151703
-0.130821 -0.557159 0.150072
-0.127056 -0.531524 0.154516
-0.135074 -0.531701 0.161636
-0.125260 -0.515770 0.158406
-0.132474 -0.521743 0.163954
-0.126228 -0.533639 -0.027793
-0.139024 -0.534744 -0.039078
-0.132807 -0.529555 -0.033316
-0.131343 -0.539951 -0.034554
-0.129978 -0.510816 0.165976
-0.127862 -0.498942 0.167332
-0.125177 -0.482500 0.168991
-0.121804 -0.466786 0.170430
-0.123751 -0.450041 0.175505
-0.129582 -0.445054 0.179419
-0.127566 -0.433611 0.180164
-0.122726 -0.416192 0.181024
-0.122940 -0.400640 0.183859
-0.122864 -0.384236 0.186554
-0.122858 -0.368317 0.188841
-0.124074 -0.350985 0.192251
-0.123899 -0.333582 0.195145
-0.130375 -0.344809 0.194976
-0.130970 -0.349861 -0.014415
-0.124748 -0.354878 -0.017465
-0.122011 -0.337874 -0.018352
-0.130116 -0.337947 -0.013497
-0.122630 -0.318671 0.196126
-0.120916 -0.321525 -0.018274
-0.129024 -0.321558 -0.012138
-0.122708 -0.302904 0.197422
-0.127790 -0.305206 -0.010767
-0.119678 -0.305197 -0.017634
-0.122696 -0.286414 0.198221
-0.126916 -0.288803 -0.009610
-0.118801 -0.288811 -0.017237
-0.122613 -0.269390 0.198823
