-0.122682 -0.368152 0.800180
-0.122826 -0.350866 0.805289
-0.122755 -0.359908 0.804063
-0.122922 -0.334453 0.806993
-0.122894 -0.318059 0.808392
-0.122776 -0.301657 0.809839
-0.122701 -0.285246 0.811598
-0.122676 -0.268850 0.813831
-0.122688 -0.252429 0.816448
-0.122726 -0.241439 0.818213
-0.122796 -0.219590 0.820390
-0.122753 -0.233215 0.819317
-0.123461 -0.244439 -0.917955
-0.123489 -0.236247 -0.916931
-0.122809 -0.203215 0.821464
-0.122729 -0.186823 0.823651
-0.122605 -0.170419 0.826968
-0.121013 -0.152532 0.831674
-0.125148 -0.137717 0.833403
-0.114616 -0.146090 0.834908
-0.117035 -0.137747 0.835522
-0.126916 -0.121301 0.833881
-0.118753 -0.121316 0.835982
-0.123146 -0.136548 -0.900512
-0.123139 -0.144777 -0.903059
-0.127543 -0.104944 0.834091
-0.119350 -0.104951 0.836203
-0.129381 -0.094463 0.834452
-0.123407 -0.088972 0.836983
-0.123265 -0.102191 -0.884143
-0.140548 -0.107277 -0.888587
-0.135712 -0.101029 -0.885016
-0.123187 -0.110418 -0.888264
-0.122645 -0.072659 0.838583
-0.122690 -0.056355 0.838040
-0.123336 -0.080938 -0.870615
-0.123355 -0.072718 -0.864642
-0.123745 -0.041103 0.837235
-0.123325 -0.062282 -0.856503
-0.123306 -0.054065 -0.849896
-0.129875 -0.036347 0.834572
-0.129311 -0.023935 0.834375
-0.121178 -0.023956 0.838439
-0.129717 -0.007727 0.834695
-0.121540 -0.007767 0.839849
-0.130799 -0.034570 -0.836111
-0.124473 -0.027975 -0.830711
-0.130450 0.001909 0.835270
-0.124101 0.007693 0.841016
-0.123174 -0.007976 -0.812955
-0.123133 -0.016174 -0.821440
-0.122804 0.024317 0.844203
-0.123209 0.000204 -0.804503
-0.123230 0.008442 -0.796622
-0.122824 0.040283 0.845142
-0.123291 0.019596 -0.788288
-0.123345 0.027843 -0.784282
-0.122826 0.056309 0.844114
-0.122807 0.072404 0.841855
-0.123242 0.058447 -0.767510
-0.123294 0.050302 -0.772673
-0.122763 0.088674 0.839988
-0.121621 0.103682 0.837188
-0.126294 0.108254 0.833543
-0.121690 0.120237 0.831407
-0.115483 0.114067 0.836230
-0.122946 0.137983 0.824355
-0.128468 0.143629 0.819764
-0.123035 0.153847 0.816409
-0.117581 0.148273 0.821909
-0.123003 0.167278 0.808629
-0.122977 0.175493 0.803768
-0.123861 0.188160 0.794217
-0.129934 0.194564 0.788317
-0.123851 0.202655 0.784598
-0.119056 0.196831 0.788512
-0.122939 0.219575 0.776632
-0.122031 0.234516 0.771149
-0.126835 0.239007 0.766912
-0.122027 0.251559 0.764198
-0.115955 0.245473 0.769697
-0.123180 0.269169 0.756340
-0.128774 0.274828 0.751969
-0.123245 0.285251 0.750122
-0.117919 0.279838 0.753806
-0.123563 0.268747 -0.769327
-0.129161 0.263143 -0.770926
-0.123008 0.301568 0.743469
-0.122970 0.312856 0.738116
-0.122970 0.321057 0.733245
-0.123804 0.335253 0.725297
-0.129773 0.341288 0.719448
-0.123875 0.352184 0.717500
-0.119030 0.347630 0.722377
-0.123063 0.363796 0.709021
-0.123129 0.371992 0.701767
-0.123202 0.383632 0.696126
-0.124119 0.400194 0.690464
-0.130085 0.405750 0.687499
-0.124203 0.417491 0.686227
-0.119355 0.412725 0.689109
-0.123419 0.432814 0.681007
-0.121835 0.448709 0.674497
-0.123507 0.433414 -0.751620
-0.123511 0.425260 -0.753708
-0.126180 0.453816 0.670087
-0.122747 0.465036 0.663401
-0.115301 0.457487 0.671651
-0.130056 0.472546 0.653528
-0.125072 0.484113 0.648060
-0.119407 0.478285 0.657541
-0.130688 0.489969 0.637755
-0.124522 0.500058 0.636315
-0.120133 0.495644 0.642677
-0.123205 0.514855 0.630371
-0.122553 0.530728 0.623944
-0.122353 0.514024 -0.735197
-0.126995 0.507934 -0.737450
-0.127387 0.535836 0.620143
-0.122580 0.546693 0.617246
-0.116763 0.540586 0.622208
-0.122454 0.564374 0.608520
-0.127295 0.570054 0.603082
-0.122664 0.579871 0.596739
-0.116461 0.572937 0.605637
-0.128777 0.586779 0.587183
-0.124357 0.597677 0.581380
-0.118045 0.590868 0.590468
-0.124795 0.579020 -0.717559
-0.131102 0.572526 -0.720435
-0.130550 0.604485 0.571989
-0.124535 0.614003 0.569743
-0.119985 0.608997 0.575621
-0.123114 0.629780 0.561415
-0.123504 0.620750 -0.703433
-0.123460 0.612564 -0.706927
-0.128407 0.635288 0.556139
-0.124400 0.646686 0.550050
-0.117454 0.639475 0.557695
-0.131260 0.653861 0.541965
-0.124869 0.663246 0.536903
-0.120348 0.658274 0.543854
-0.123458 0.673441 0.526778
-0.123555 0.657250 -0.688453
-0.123548 0.665466 -0.685589
-0.124889 0.682665 0.514980
-0.131160 0.686997 0.506564
-0.125665 0.696300 0.499568
-0.120484 0.689405 0.509511
-0.130922 0.703194 0.490030
-0.124662 0.711680 0.485475
-0.120061 0.706197 0.492596
-0.123460 0.689952 -0.673112
-0.123465 0.698161 -0.668310
-0.123407 0.722366 0.476358
-0.129849 0.719398 -0.656011
-0.124091 0.713072 -0.659867
-0.124074 0.727389 -0.652020
-0.119135 0.721380 -0.656048
-0.123393 0.730562 0.468696
-0.123388 0.738509 0.460490
-0.123566 0.747350 0.449069
-0.129095 0.751778 0.440871
-0.123087 0.760667 0.434298
-0.118284 0.753944 0.443324
-0.123468 0.741003 -0.643220
-0.123501 0.749210 -0.636710
-0.127951 0.767348 0.425435
-0.121978 0.776585 0.417524
-0.116973 0.769911 0.427156
-0.127169 0.767821 -0.622187
-0.122478 0.761820 -0.627171
-0.116388 0.769499 -0.622272
-0.122466 0.775951 -0.617128
-0.126874 0.783208 0.407488
-0.122255 0.790256 0.401077
-0.116057 0.785825 0.409916
-0.123429 0.799409 0.388396
-0.123432 0.804842 0.380188
-0.123522 0.796251 -0.600821
-0.123492 0.788061 -0.608192
-0.123677 0.813591 0.366712
-0.129262 0.817490 0.357998
-0.123710 0.823538 0.352039
-0.118428 0.819470 0.360896
-0.123567 0.805255 -0.592252
-0.123589 0.813460 -0.583877
-0.123482 0.832202 0.339526
-0.123472 0.838121 0.331476
-0.123601 0.830098 -0.568191
-0.123610 0.821883 -0.575619
-0.124876 0.847189 0.319087
-0.131245 0.851009 0.311940
-0.124247 0.859304 0.304264
-0.120381 0.852844 0.313635
-0.123565 0.847373 -0.552710
-0.123574 0.839192 -0.560040
-0.128131 0.865731 0.293441
-0.123014 0.871387 0.286806
-0.117218 0.868440 0.296322
-0.123543 0.854866 -0.544903
-0.123535 0.863060 -0.534522
-0.123465 0.879895 0.271229
-0.123411 0.884975 0.262680
-0.123497 0.882263 -0.505380
-0.123515 0.875432 -0.516624
-0.123547 0.868977 -0.526590
-0.123415 0.889496 0.252559
-0.123573 0.896985 0.235786
-0.129066 0.899595 0.226404
-0.123559 0.903980 0.220627
-0.118244 0.901365 0.230166
-0.126723 0.899875 -0.473558
-0.122183 0.895870 -0.481517
-0.122235 0.904256 -0.467142
-0.115934 0.900499 -0.474465
-0.123467 0.886967 -0.497055
-0.122621 0.912621 0.202734
-0.127500 0.915768 0.193825
-0.122719 0.919518 0.188905
-0.116713 0.917125 0.196763
-0.123557 0.913350 -0.451148
-0.123578 0.926513 0.173234
-0.123521 0.931568 0.160404
-0.123449 0.934388 0.151140
-0.123089 0.929893 -0.417092
-0.128271 0.932525 -0.408655
-0.123134 0.936394 -0.402537
-0.117505 0.933678 -0.410863
-0.123444 0.922273 -0.433641
-0.123545 0.917702 -0.442998
-0.123410 0.938300 0.138070
-0.123424 0.944033 0.121574
-0.123454 0.948325 0.109360
-0.123463 0.950609 0.101263
-0.123367 0.947520 -0.371177
-0.123450 0.942935 -0.385805
-0.123422 0.953519 0.089256
-0.123447 0.957548 0.073889
-0.122822 0.962676 0.057837
-0.127797 0.964680 0.045769
-0.122814 0.967241 0.041109
-0.116903 0.966630 0.051896
-0.126585 0.964905 -0.305883
-0.122181 0.963097 -0.316898
-0.115802 0.966140 -0.310761
-0.122062 0.967093 -0.301556
-0.123524 0.957790 -0.334726
-0.123361 0.952823 -0.352521
-0.123294 0.950049 -0.363235
-0.123448 0.969929 0.025556
-0.123425 0.972792 0.008401
-0.123529 0.975184 -0.008197
-0.123562 0.976807 -0.024306
-0.123505 0.977439 -0.039979
-0.123563 0.978739 -0.055781
-0.123208 0.980557 -0.071113
-0.126276 0.980974 -0.088416
-0.117456 0.982518 -0.076024
-0.118150 0.982525 -0.088473
-0.126865 0.981697 -0.105538
-0.118801 0.982508 -0.105348
-0.128352 0.981904 -0.123074
-0.120281 0.982534 -0.122404
-0.127867 0.981489 -0.139846
-0.119762 0.982537 -0.138901
-0.123208 0.980978 -0.156359
-0.117609 0.982498 -0.151295
-0.123517 0.979647 -0.170850
-0.123628 0.979069 -0.186865
-0.123684 0.978357 -0.203218
-0.123583 0.976389 -0.219844
-0.123492 0.974669 -0.237079
-0.123474 0.974691 -0.254649
-0.123465 0.973662 -0.271382
-0.123432 0.970346 -0.287128
-0.106612 -0.966572 0.052248
-0.106665 -0.964795 0.060184
-0.113817 -0.965931 -0.260794
-0.102975 -0.966584 -0.265007
-0.107709 -0.967228 -0.254178
-0.107667 -0.965169 -0.270455
-0.114483 -0.949526 0.163892
-0.108084 -0.951144 0.156668
-0.103450 -0.950226 0.167007
-0.108055 -0.948388 0.172529
-0.105205 -0.933866 0.236073
-0.109634 -0.932220 0.239968
-0.098783 -0.933245 0.246286
-0.105199 -0.930398 0.251841
-0.112757 -0.916364 0.310352
-0.106983 -0.919700 0.303898
-0.107034 -0.914253 0.318600
-0.101736 -0.917504 0.312623
-0.106683 -0.901049 0.378723
-0.106677 -0.898959 0.386663
-0.105795 -0.885467 0.449474
-0.110641 -0.882820 0.454555
-0.105765 -0.881254 0.465628
-0.099656 -0.884272 0.459280
-0.107766 -0.870730 0.500528
-0.113901 -0.867353 0.506353
-0.107742 -0.865635 0.515264
-0.102967 -0.868512 0.509866
-0.106728 -0.854348 0.546573
-0.106745 -0.849786 0.554667
-0.106836 -0.832461 0.584689
-0.106838 -0.836367 0.576389
-0.106748 -0.820426 0.610091
-0.106752 -0.814725 0.617924
-0.106759 -0.806507 0.627750
-0.106736 -0.799583 0.635590
-0.106774 -0.786886 0.657725
-0.106733 -0.782310 0.666322
-0.106757 -0.774091 0.678827
-0.106794 -0.767807 0.686562
-0.106803 -0.759584 0.694087
-0.106802 -0.749698 0.702068
-0.106804 -0.728164 0.710452
-0.106787 -0.741463 0.705528
-0.106708 -0.710454 0.717718
-0.112127 -0.702492 0.720160
-0.106667 -0.696351 0.722088
-0.101126 -0.704100 0.720869
-0.106720 -0.678974 0.725449
-0.106689 -0.662579 0.729504
-0.108385 -0.645247 0.735908
-0.114994 -0.637952 0.738055
-0.108333 -0.631414 0.738640
-0.103969 -0.639156 0.738957
-0.106612 -0.613397 0.738624
-0.106648 -0.597009 0.740053
-0.106712 -0.580639 0.742929
-0.106661 -0.564196 0.745373
-0.106541 -0.547720 0.748264
-0.106473 -0.534382 0.751700
-0.106410 -0.514947 0.756572
-0.106450 -0.526176 0.754111
-0.106367 -0.498539 0.759215
-0.106403 -0.482108 0.761477
-0.106532 -0.465776 0.764695
-0.106601 -0.454873 0.767933
-0.106596 -0.446618 0.772865
-0.107278 -0.432064 0.782000
-0.113189 -0.424154 0.785590
-0.102224 -0.425954 0.786408
-0.107108 -0.417819 0.787981
-0.106263 -0.400158 0.792258
-0.106291 -0.383757 0.795895
-0.106328 -0.369275 0.800161
-0.106353 -0.361019 0.803070
-0.106443 -0.350853 0.804978
-0.106571 -0.334443 0.807393
-0.106570 -0.318050 0.808940
-0.106456 -0.301638 0.810332
-0.106405 -0.285230 0.812520
-0.106415 -0.268856 0.815313
-0.107550 -0.252541 0.817742
-0.113779 -0.243506 0.818458
-0.107546 -0.237214 0.819649
-0.102832 -0.247148 0.818771
-0.106459 -0.219596 0.821742
-0.107132 -0.243422 -0.917924
-0.107138 -0.235197 -0.917060
-0.106459 -0.203221 0.823613
-0.106360 -0.186822 0.826133
-0.106234 -0.170403 0.829538
-0.106157 -0.156811 0.833147
-0.106161 -0.148647 0.835660
-0.106126 -0.137730 0.837673
-0.106096 -0.121315 0.838567
-0.106808 -0.137624 -0.899935
-0.106813 -0.145858 -0.902726
-0.106138 -0.104949 0.839005
-0.106246 -0.088780 0.841054
-0.106853 -0.103201 -0.883465
-0.106762 -0.111425 -0.887590
-0.106338 -0.072621 0.842276
-0.106397 -0.056310 0.841734
-0.107027 -0.072987 -0.864133
-0.107009 -0.081210 -0.870158
-0.106382 -0.040064 0.842742
-0.106967 -0.054935 -0.848705
-0.106989 -0.063167 -0.856042
-0.106279 -0.023863 0.845510
-0.106928 -0.043869 -0.840524
-0.124548 -0.041620 -0.840549
-0.119948 -0.035283 -0.835624
-0.106904 -0.035627 -0.835374
-0.106240 -0.007746 0.848131
-0.106292 0.008198 0.850143
-0.106821 -0.007677 -0.813394
-0.106821 -0.015891 -0.821690
-0.105517 0.023890 0.851743
-0.106821 0.000715 -0.804899
-0.106797 0.008971 -0.796744
-0.108561 0.040382 0.851682
-0.099479 0.029041 0.854180
-0.100294 0.040408 0.854336
-0.106851 0.020944 -0.788455
-0.106956 0.029182 -0.785226
-0.105734 0.056152 0.851136
-0.099723 0.050740 0.854348
-0.106445 0.072478 0.847484
-0.106902 0.059658 -0.767264
-0.106987 0.051466 -0.773397
-0.106415 0.088745 0.845240
-0.106428 0.105027 0.841924
-0.106472 0.117730 0.837948
-0.106482 0.125924 0.835135
-0.106541 0.137697 0.830154
-0.105089 0.153850 0.822589
-0.109603 0.159180 0.818280
-0.106101 0.170125 0.812320
-0.098635 0.162301 0.819649
-0.113587 0.177943 0.805122
-0.107456 0.186197 0.799928
-0.102573 0.180331 0.806376
-0.106508 0.200370 0.789560
-0.106494 0.208584 0.785191
-0.106539 0.219569 0.781362
-0.106597 0.235996 0.775383
-0.106588 0.247512 0.770580
-0.106550 0.255772 0.766887
-0.106580 0.268867 0.760868
-0.106891 0.257838 -0.769563
-0.123530 0.253425 -0.772286
-0.118175 0.259498 -0.770249
-0.106901 0.249625 -0.772205
-0.106660 0.283100 0.754961
-0.106693 0.291286 0.752041
-0.106659 0.301574 0.747405
-0.106368 0.318459 0.739923
-0.111670 0.324237 0.735576
-0.106401 0.333616 0.732984
-0.100720 0.327618 0.737875
-0.107940 0.352178 0.724641
-0.114290 0.358574 0.720581
-0.107101 0.367486 0.712296
-0.103321 0.360069 0.722145
-0.110865 0.374881 0.703378
-0.105988 0.382112 0.700183
-0.099888 0.375595 0.703880
-0.106931 0.400032 0.693948
-0.107217 0.417485 0.689748
-0.112884 0.423653 0.687417
-0.107259 0.431694 0.684424
-0.101849 0.425440 0.687851
-0.107042 0.449225 0.676503
-0.108585 0.431375 -0.751032
-0.114993 0.424870 -0.753306
-0.107008 0.459944 0.672160
-0.106966 0.468140 0.668490
-0.107205 0.483069 0.659497
-0.112908 0.489222 0.653710
-0.108353 0.498972 0.646501
-0.101874 0.491374 0.655376
-0.114781 0.506557 0.637953
-0.108359 0.514292 0.635218
-0.103792 0.508435 0.639348
-0.107085 0.506405 -0.736699
-0.122273 0.500144 -0.739615
-0.116154 0.506621 -0.736763
-0.107097 0.498228 -0.739730
-0.107006 0.531255 0.627851
-0.107080 0.542664 0.623211
-0.107086 0.550863 0.619596
-0.107082 0.564057 0.612965
-0.107102 0.575035 0.607225
-0.107161 0.570066 -0.719447
-0.124816 0.564939 -0.722387
-0.120240 0.570939 -0.719744
-0.107210 0.561875 -0.722556
-0.107105 0.583234 0.601288
-0.107097 0.593927 0.592857
-0.107107 0.602118 0.586844
-0.106520 0.614006 0.577728
-0.111636 0.619942 0.571628
-0.106532 0.628442 0.567323
-0.100615 0.622119 0.572989
-0.110428 0.621207 -0.703842
-0.105834 0.614809 -0.706740
-0.105811 0.628164 -0.701051
-0.099485 0.621627 -0.704256
-0.107120 0.641901 0.558684
-0.107143 0.650090 0.553393
-0.107167 0.661242 0.545333
-0.107179 0.669436 0.538955
-0.107191 0.676649 0.530496
-0.107195 0.659167 -0.689302
-0.107242 0.667377 -0.686448
-0.107175 0.684843 0.520426
-0.107151 0.691660 0.512236
-0.107111 0.699861 0.503086
-0.107118 0.708850 0.495242
-0.107107 0.700316 -0.669292
-0.107127 0.692101 -0.673905
-0.107133 0.717040 0.488584
-0.107136 0.726038 0.480497
-0.107152 0.734233 0.472903
-0.107154 0.741125 0.464389
-0.107209 0.731416 -0.651994
-0.107186 0.723203 -0.656573
-0.107136 0.749331 0.453178
-0.107134 0.755582 0.445075
-0.107248 0.751518 -0.637242
-0.107224 0.743304 -0.643772
-0.107139 0.763775 0.435732
-0.107160 0.771238 0.427792
-0.107179 0.779432 0.418731
-0.107202 0.786657 0.410456
-0.107235 0.779106 -0.617329
-0.107208 0.770914 -0.622992
-0.106367 0.795870 0.399082
-0.111289 0.801258 0.391222
-0.106369 0.806026 0.385118
-0.100318 0.802149 0.392408
-0.107232 0.789915 -0.609141
-0.107246 0.798115 -0.602107
-0.107167 0.815080 0.371312
-0.107170 0.820711 0.363502
-0.107241 0.815081 -0.586062
-0.107250 0.806872 -0.593999
-0.106218 0.829481 0.350487
-0.111040 0.833748 0.341811
-0.106226 0.838924 0.335986
-0.100117 0.835023 0.344194
-0.107234 0.823967 -0.577911
-0.107234 0.832170 -0.570545
-0.107163 0.847960 0.323097
-0.107185 0.854529 0.315036
-0.107255 0.849600 -0.554841
-0.107235 0.841432 -0.562230
-0.107173 0.862719 0.304914
-0.107177 0.869486 0.296769
-0.107241 0.864641 -0.536023
-0.107235 0.856447 -0.546645
-0.107178 0.875808 0.285905
-0.107165 0.882113 0.273891
-0.107160 0.886312 0.265606
-0.111684 0.883353 -0.506026
-0.106642 0.879383 -0.513985
-0.106589 0.887634 -0.499763
-0.100753 0.884385 -0.507356
-0.107246 0.870518 -0.527776
-0.107165 0.892639 0.252919
-0.107174 0.898532 0.241315
-0.107170 0.902448 0.233387
-0.107151 0.896465 -0.484203
-0.107159 0.907917 0.220676
-0.107150 0.914071 0.206693
-0.107150 0.917970 0.198505
-0.107150 0.914631 -0.454467
-0.107143 0.907345 -0.466524
-0.107143 0.901339 -0.476061
-0.107167 0.923188 0.187958
-0.107878 0.930673 0.171181
-0.113826 0.932969 0.163256
-0.107857 0.935421 0.156244
-0.102851 0.933759 0.164802
-0.107044 0.931077 -0.421462
-0.107059 0.925258 -0.434302
-0.107134 0.919202 -0.446379
-0.107128 0.940740 0.138263
-0.108555 0.947141 0.121917
-0.114951 0.949534 0.113616
-0.108579 0.952289 0.108053
-0.104066 0.950463 0.117197
-0.106307 0.947069 -0.383388
-0.111139 0.948713 -0.373126
-0.106217 0.951271 -0.368278
-0.100226 0.949935 -0.377026
-0.107145 0.940414 -0.400849
-0.107084 0.934727 -0.412989
-0.107120 0.956645 0.090059
-0.107095 0.960650 0.073539
-0.107129 0.964528 0.061793
-0.107159 0.967806 0.053859
-0.111088 0.965113 -0.322000
-0.106221 0.962476 -0.334591
-0.100129 0.966309 -0.328820
-0.106231 0.967423 -0.317959
-0.107072 0.955904 -0.352872
-0.107163 0.970789 0.041650
-0.107121 0.973148 0.025633
-0.107163 0.976237 0.009520
-0.107507 0.980422 -0.006969
-0.110716 0.981321 -0.023311
-0.102257 0.982482 -0.012204
-0.102548 0.982497 -0.022972
-0.108900 0.980807 -0.039560
-0.100671 0.982483 -0.039578
-0.111049 0.981349 -0.055832
-0.102788 0.982525 -0.056118
-0.114363 0.982190 -0.065168
-0.108198 0.982627 -0.071451
-0.114926 0.982328 -0.161609
-0.113663 0.982046 -0.170566
-0.108552 0.982671 -0.155412
-0.105411 0.982621 -0.170638
-0.113631 0.982022 -0.186913
-0.105372 0.982586 -0.187201
-0.111328 0.981616 -0.203420
-0.103068 0.982518 -0.203758
-0.105898 0.979678 -0.218629
-0.099547 0.982445 -0.212377
-0.107194 0.976866 -0.236588
-0.107200 0.978043 -0.253328
-0.107184 0.977971 -0.269916
-0.107130 0.974825 -0.286392
-0.107120 0.971066 -0.302833
-0.107189 0.982731 -0.088738
-0.107117 0.982710 -0.105212
-0.107149 0.982777 -0.121665
-0.107213 0.982809 -0.138010
-0.094550 -0.964834 0.072787
-0.086155 -0.967291 0.072455
-0.083496 -0.966577 0.083838
-0.089595 -0.963853 0.090411
-0.090882 -0.967998 0.056496
-0.097037 -0.965666 0.062506
-0.094885 -0.965109 -0.286245
-0.086585 -0.967192 -0.286365
-0.091214 -0.967837 -0.269583
-0.097374 -0.965806 -0.275646
-0.083551 -0.966543 -0.298617
-0.089450 -0.964148 -0.304024
-0.090571 -0.951254 0.171460
-0.096415 -0.949139 0.177373
-0.090513 -0.947875 0.188283
-0.085291 -0.950212 0.183431
-0.089348 -0.946925 -0.382473
-0.083282 -0.949757 -0.376110
-0.089297 -0.951083 -0.368701
-0.094292 -0.948987 -0.373818
-0.094819 -0.931941 0.256273
-0.089700 -0.934377 0.252582
-0.089531 -0.930612 0.268919
-0.083653 -0.933758 0.263460
-0.090281 -0.930636 -0.434931
-0.084994 -0.933974 -0.429231
-0.090339 -0.935784 -0.418634
-0.096081 -0.932691 -0.425014
-0.089590 -0.918877 0.317959
-0.094859 -0.915533 0.323237
-0.083769 -0.917547 0.329375
-0.089696 -0.914153 0.335641
-0.095426 -0.899810 0.390166
-0.090021 -0.902194 0.385040
-0.084279 -0.900841 0.394168
-0.089911 -0.898451 0.399919
-0.094752 -0.882889 0.471630
-0.089653 -0.885812 0.466475
-0.089737 -0.880909 0.484279
-0.083859 -0.884419 0.478788
-0.093430 -0.882906 -0.538711
-0.082284 -0.884093 -0.541624
-0.088790 -0.886514 -0.532710
-0.088682 -0.878832 -0.548021
-0.089727 -0.869967 0.515424
-0.094972 -0.866590 0.520710
-0.089671 -0.864087 0.530790
-0.083833 -0.868132 0.524660
-0.096602 -0.850765 0.555747
-0.090698 -0.855327 0.549407
-0.090670 -0.847321 0.563768
-0.085502 -0.852009 0.557753
-0.096773 -0.850980 -0.589773
-0.085683 -0.851685 -0.591842
-0.090751 -0.855843 -0.583950
-0.090777 -0.847156 -0.597575
-0.089887 -0.838051 0.581994
-0.095261 -0.833776 0.587930
-0.090003 -0.830506 0.598186
-0.084173 -0.835319 0.591691
-0.094108 -0.834139 -0.620952
-0.083065 -0.834905 -0.622257
-0.089190 -0.837492 -0.615334
-0.089287 -0.830182 -0.628575
-0.090400 -0.821961 0.613929
-0.090321 -0.816531 0.621619
-0.090097 -0.800943 0.637239
-0.090222 -0.808297 0.630020
-0.090170 -0.787961 0.659518
-0.090180 -0.783469 0.667978
-0.090175 -0.775238 0.679202
-0.090151 -0.768542 0.687052
-0.090172 -0.760316 0.694420
-0.090195 -0.750479 0.702511
-0.090225 -0.742250 0.705981
-0.090231 -0.728164 0.711736
-0.090174 -0.713329 0.718327
-0.090147 -0.695379 0.724457
-0.090137 -0.705108 0.721742
-0.090205 -0.678981 0.728191
-0.090170 -0.662593 0.732351
-0.090073 -0.648790 0.737205
-0.090013 -0.629850 0.740375
-0.090016 -0.640563 0.739880
-0.090056 -0.613499 0.740462
-0.090013 -0.597097 0.741521
-0.089928 -0.580662 0.744003
-0.089953 -0.564198 0.746451
-0.090003 -0.547724 0.748984
-0.088718 -0.530947 0.751973
-0.088629 -0.516189 0.754871
-0.093491 -0.525218 0.753746
-0.089768 -0.498597 0.758222
-0.089807 -0.482167 0.761186
-0.089779 -0.465790 0.765022
-0.089730 -0.455627 0.768272
-0.089761 -0.436274 0.782251
-0.089766 -0.447364 0.773782
-0.089784 -0.428018 0.787468
-0.089784 -0.416552 0.790449
-0.089706 -0.400243 0.793123
-0.089706 -0.383856 0.796668
-0.089765 -0.372050 0.800761
-0.089854 -0.363797 0.803516
-0.089887 -0.350918 0.806106
-0.089839 -0.334467 0.808237
-0.089847 -0.318059 0.809867
-0.089915 -0.301641 0.812056
-0.089930 -0.285237 0.814385
-0.089905 -0.268875 0.816580
-0.089882 -0.258642 0.818100
-0.089947 -0.250379 0.819267
-0.090004 -0.236025 0.821359
-0.089942 -0.219616 0.823518
-0.090724 -0.245670 -0.917962
-0.090740 -0.237488 -0.917195
-0.089834 -0.203227 0.825974
-0.089795 -0.186824 0.829419
-0.090045 -0.170937 0.833085
-0.095700 -0.160266 0.834250
-0.089983 -0.154512 0.837348
-0.084727 -0.165841 0.835652
-0.089664 -0.137747 0.841087
-0.089660 -0.121404 0.842200
-0.090345 -0.147641 -0.902612
-0.090348 -0.139417 -0.899456
-0.089672 -0.105075 0.842870
-0.089664 -0.088770 0.844903
-0.090357 -0.111706 -0.887616
-0.090385 -0.103464 -0.883268
-0.089737 -0.072478 0.846384
-0.089926 -0.056219 0.846383
-0.090397 -0.074256 -0.863719
-0.090332 -0.082450 -0.869846
-0.089244 -0.039454 0.849621
-0.090469 -0.063606 -0.855504
-0.090562 -0.055398 -0.848965
-0.094212 -0.023794 0.851617
-0.085898 -0.023875 0.855320
-0.083192 -0.033714 0.854691
-0.090525 -0.035590 -0.835291
-0.090557 -0.043821 -0.840621
-0.096128 -0.007739 0.852935
-0.087835 -0.007880 0.855587
-0.095698 0.008018 0.853519
-0.087467 0.007804 0.855195
-0.090361 -0.007953 -0.812714
-0.090341 -0.016164 -0.821836
-0.096281 0.018170 0.853833
-0.090451 0.023718 0.855153
-0.090407 0.007827 -0.796318
-0.090381 -0.000398 -0.804301
-0.089882 0.040506 0.855524
-0.090429 0.026848 -0.783723
-0.090439 0.018566 -0.787870
-0.089754 0.056237 0.854963
-0.095209 0.061225 0.853624
-0.092081 0.072433 0.852486
-0.083827 0.072374 0.855036
-0.089019 0.055580 -0.766811
-0.093710 0.049862 -0.772174
-0.090762 0.088696 0.851222
-0.082512 0.088626 0.855062
-0.088753 0.103942 0.849320
-0.082424 0.097758 0.855039
-0.091373 0.122801 0.840894
-0.097811 0.129248 0.836779
-0.091455 0.137550 0.834375
-0.086867 0.131984 0.838099
-0.090117 0.154035 0.825838
-0.090099 0.163682 0.820093
-0.090052 0.171897 0.815063
-0.090026 0.183524 0.807500
-0.090015 0.191724 0.801351
-0.091546 0.204716 0.792138
-0.098094 0.211244 0.785893
-0.091565 0.220227 0.784218
-0.087092 0.215177 0.787695
-0.090054 0.236013 0.777832
-0.090029 0.249439 0.771508
-0.089984 0.257712 0.767878
-0.090004 0.268913 0.762857
-0.095385 0.247212 -0.771290
-0.090108 0.252666 -0.768733
-0.091363 0.286738 0.755593
-0.097822 0.293206 0.752719
-0.091405 0.300664 0.750380
-0.086690 0.294571 0.753224
-0.090130 0.317997 0.743927
-0.090185 0.330117 0.739826
-0.090185 0.338306 0.736135
-0.090189 0.350798 0.729617
-0.090236 0.360937 0.723655
-0.090734 0.370215 0.710959
-0.096564 0.375596 0.703872
-0.090767 0.382097 0.700444
-0.090359 0.400030 0.694432
-0.090376 0.416414 0.690690
-0.090411 0.426023 0.687900
-0.091026 0.416107 -0.752229
-0.108558 0.416033 -0.753656
-0.103987 0.421140 -0.752846
-0.096923 0.410224 -0.753524
-0.090489 0.434238 0.684423
-0.090552 0.449235 0.678320
-0.090500 0.463457 0.673154
-0.090386 0.471641 0.669863
-0.090304 0.482049 0.663147
-0.090266 0.492261 0.656060
-0.090299 0.500448 0.648290
-0.090306 0.509284 0.640101
-0.090521 0.497374 -0.739585
-0.090575 0.505526 -0.736891
-0.090334 0.517470 0.635463
-0.090341 0.531258 0.629523
-0.090370 0.544743 0.624163
-0.090447 0.552940 0.621113
-0.090581 0.564068 0.616594
-0.090731 0.578530 0.610355
-0.090576 0.561751 -0.722394
-0.090654 0.569917 -0.719846
-0.090742 0.586714 0.605726
-0.089158 0.598130 0.594961
-0.093725 0.604414 0.588464
-0.089067 0.611697 0.583140
-0.082518 0.605140 0.588925
-0.090451 0.623144 0.573806
-0.090510 0.631332 0.568253
-0.090569 0.644148 0.560108
-0.090663 0.630311 -0.701460
-0.090617 0.622135 -0.704655
-0.090547 0.652339 0.554430
-0.090534 0.661887 0.546271
-0.090481 0.670089 0.538987
-0.090512 0.678076 0.530737
-0.090467 0.667284 -0.687025
-0.090536 0.659038 -0.690373
-0.090532 0.686274 0.522187
-0.090570 0.693632 0.514117
-0.090611 0.701833 0.505405
-0.090681 0.710739 0.498254
-0.090502 0.693265 -0.675147
-0.090538 0.701464 -0.671104
-0.090730 0.718930 0.491768
-0.090679 0.727662 0.483540
-0.090657 0.735855 0.475712
-0.090578 0.742784 0.466469
-0.090581 0.732816 -0.652541
-0.090569 0.724606 -0.657442
-0.090520 0.750993 0.455318
-0.090515 0.757362 0.447081
-0.097675 0.752504 -0.637776
-0.091530 0.746061 -0.643281
-0.091601 0.759876 -0.633441
-0.086657 0.753630 -0.638502
-0.090534 0.765554 0.437015
-0.090596 0.772593 0.428880
-0.090589 0.780781 0.418985
-0.090600 0.787445 0.410811
-0.090716 0.773300 -0.624356
-0.090679 0.781498 -0.619055
-0.090570 0.795636 0.401117
-0.090576 0.802671 0.392879
-0.089271 0.794424 -0.610679
-0.093945 0.800258 -0.604549
-0.089271 0.807648 -0.599233
-0.082741 0.802213 -0.607494
-0.090632 0.808828 0.384350
-0.090715 0.816308 0.374015
-0.090786 0.821908 0.366701
-0.090655 0.817113 -0.589117
-0.090803 0.830109 0.354801
-0.090732 0.835825 0.345996
-0.094739 0.833705 -0.572764
-0.089804 0.827596 -0.579840
-0.091066 0.843123 -0.565866
-0.083666 0.835166 -0.574891
-0.090636 0.842096 0.335390
-0.090541 0.849256 0.324001
-0.090578 0.855822 0.315799
-0.098518 0.851072 -0.556543
-0.087319 0.852373 -0.559187
-0.090664 0.859363 -0.549120
-0.090583 0.864020 0.305314
-0.090635 0.870310 0.297100
-0.094001 0.866342 -0.538548
-0.082820 0.867781 -0.541435
-0.089339 0.871244 -0.532636
-0.090807 0.879246 0.284278
-0.096455 0.883384 0.276083
-0.090797 0.887830 0.269987
-0.085374 0.884582 0.278035
-0.090717 0.880262 -0.516902
-0.090003 0.896893 0.252659
-0.095099 0.899664 0.244488
-0.090088 0.903134 0.239326
-0.084103 0.900658 0.247772
-0.090683 0.891508 -0.498667
-0.090624 0.898346 -0.487214
-0.090730 0.885401 -0.508677
-0.090683 0.910626 0.221601
-0.090571 0.915622 0.209951
-0.090548 0.919398 0.201383
-0.090586 0.915956 -0.458250
-0.090578 0.910399 -0.467529
-0.090606 0.903080 -0.479524
-0.090559 0.925546 0.187237
-0.090601 0.931147 0.173946
-0.090636 0.934420 0.165760
-0.089983 0.929286 -0.434269
-0.095182 0.932360 -0.424703
-0.084044 0.933712 -0.428356
-0.089987 0.935945 -0.418561
-0.090565 0.920751 -0.450145
-0.090582 0.938662 0.154440
-0.089110 0.945542 0.137137
-0.093700 0.948097 0.127697
-0.089238 0.951139 0.123329
-0.082627 0.949682 0.131399
-0.090630 0.942816 -0.400379
-0.090718 0.947978 -0.387293
-0.090753 0.955738 0.108100
-0.090606 0.960586 0.090391
-0.091551 0.964652 0.074163
-0.097821 0.965719 0.063794
-0.091576 0.969385 0.057315
-0.086657 0.967373 0.069315
-0.093460 0.964304 -0.340359
-0.088958 0.962171 -0.351968
-0.082366 0.966082 -0.346044
-0.089009 0.966975 -0.336053
-0.090599 0.955877 -0.368556
-0.090682 0.951204 -0.379210
-0.090570 0.973946 0.040166
-0.090542 0.977046 0.024760
-0.089511 0.980482 0.008645
-0.094426 0.981710 -0.001124
-0.089707 0.982534 -0.006454
-0.083326 0.982451 0.002983
-0.091491 0.980619 -0.236341
-0.094345 0.981226 -0.223238
-0.089561 0.982531 -0.219045
-0.083173 0.982485 -0.236314
-0.089189 0.981170 -0.251221
-0.082586 0.982455 -0.244823
-0.090739 0.980595 -0.269005
-0.090567 0.979031 -0.286289
-0.090501 0.975847 -0.303827
-0.090575 0.971045 -0.320739
-0.090761 0.982743 -0.022784
-0.090547 0.982988 -0.040077
-0.090490 0.983040 -0.057323
-0.090568 0.982928 -0.073718
-0.090556 0.983028 -0.089671
-0.090524 0.983219 -0.105331
-0.090654 0.983270 -0.121281
-0.090770 0.983243 -0.137565
-0.090649 0.983438 -0.154109
-0.090518 0.983425 -0.171173
-0.090585 0.983031 -0.188324
-0.090689 0.982715 -0.204739
-0.073846 -0.965332 0.095712
-0.073690 -0.966809 0.086191
-0.073586 -0.950513 0.185672
-0.073560 -0.949367 0.193804
-0.073618 -0.934000 0.264695
-0.073572 -0.931997 0.272629
-0.073674 -0.918243 0.332603
-0.073785 -0.916003 0.341971
-0.073574 -0.899720 0.405594
-0.073593 -0.901485 0.397500
-0.075096 -0.897111 -0.513929
-0.070536 -0.900867 -0.507799
-0.075047 -0.903636 -0.500210
-0.081401 -0.900344 -0.506541
-0.074010 -0.885068 0.480761
-0.074016 -0.882453 0.488991
-0.073631 -0.868705 0.526131
-0.073665 -0.865236 0.534314
-0.073685 -0.852938 0.559145
-0.073657 -0.848130 0.567313
-0.073992 -0.831566 0.602175
-0.073864 -0.835907 0.593069
-0.073309 -0.822442 0.617745
-0.078201 -0.817818 0.623818
-0.067328 -0.818532 0.624408
-0.073967 -0.810196 0.631367
-0.080586 -0.801794 0.638150
-0.074561 -0.798143 0.645567
-0.069800 -0.802587 0.639399
-0.078740 -0.801581 -0.673394
-0.067958 -0.802219 -0.673548
-0.073522 -0.807143 -0.665814
-0.073478 -0.796452 -0.680292
-0.073754 -0.784515 0.669935
-0.073711 -0.789088 0.661489
-0.079568 -0.768926 0.687356
-0.074015 -0.775006 0.681210
-0.068783 -0.769405 0.687876
-0.073958 -0.762454 0.693429
-0.073703 -0.751033 0.702810
-0.073751 -0.742803 0.706457
-0.073760 -0.728166 0.712778
-0.073687 -0.714596 0.718993
-0.073646 -0.695378 0.725908
-0.073623 -0.706371 0.722508
-0.073763 -0.678988 0.729964
-0.073749 -0.662604 0.734351
-0.073644 -0.650730 0.738426
-0.073556 -0.629864 0.741389
-0.073560 -0.642502 0.740463
-0.073609 -0.613539 0.741692
-0.073500 -0.597128 0.742756
-0.073320 -0.580660 0.745259
-0.073369 -0.564188 0.747686
-0.073512 -0.547724 0.749916
-0.074224 -0.530649 0.752279
-0.082294 -0.522449 0.752833
-0.080024 -0.522456 0.752843
-0.069271 -0.524734 0.753477
-0.074084 -0.516197 0.754433
-0.072843 -0.518505 -0.887929
-0.066744 -0.525175 -0.885532
-0.072949 -0.531608 -0.881275
-0.077504 -0.524912 -0.885859
-0.073329 -0.498622 0.757993
-0.073326 -0.482201 0.761648
-0.072805 -0.464610 0.766542
-0.077898 -0.456464 0.768634
-0.067088 -0.458351 0.769707
-0.072723 -0.450319 0.774188
-0.073159 -0.438320 0.783581
-0.073263 -0.430084 0.788306
-0.073308 -0.416561 0.791734
-0.073247 -0.400264 0.793634
-0.073255 -0.383881 0.797356
-0.073314 -0.374246 0.801341
-0.073411 -0.350954 0.806929
-0.073417 -0.366013 0.803962
-0.073269 -0.334474 0.808741
-0.073269 -0.318051 0.810423
-0.073409 -0.301635 0.813028
-0.073464 -0.285237 0.815420
-0.072896 -0.267303 0.817457
-0.077965 -0.260514 0.818319
-0.067126 -0.260822 0.818367
-0.072939 -0.254002 0.819371
-0.073565 -0.236039 0.822277
-0.073448 -0.219627 0.824847
-0.075864 -0.240972 -0.916867
-0.082322 -0.247462 -0.918011
-0.073293 -0.203225 0.827781
-0.073281 -0.186818 0.831809
-0.073286 -0.177092 0.834439
-0.073305 -0.154057 0.840197
-0.073318 -0.168849 0.836355
-0.073276 -0.137748 0.843734
-0.073276 -0.121469 0.844875
-0.073984 -0.140725 -0.898922
-0.073967 -0.148911 -0.902283
-0.073252 -0.105189 0.845691
-0.073166 -0.088785 0.848297
-0.073958 -0.104683 -0.882723
-0.073983 -0.112937 -0.887268
-0.073205 -0.072388 0.850485
-0.073434 -0.056146 0.850968
-0.073787 -0.083298 -0.869600
-0.073871 -0.075113 -0.863507
-0.073536 -0.044335 0.852616
-0.073983 -0.063876 -0.855213
-0.074112 -0.055670 -0.849092
-0.073415 -0.023831 0.857361
-0.073513 -0.036270 0.855255
-0.074151 -0.043799 -0.840635
-0.074138 -0.035570 -0.835215
-0.073398 -0.007884 0.857768
-0.073520 0.007805 0.856382
-0.073996 -0.016286 -0.821835
-0.074006 -0.008067 -0.812095
-0.073495 0.024011 0.856535
-0.074026 0.007105 -0.795793
-0.074009 -0.001109 -0.803784
-0.073352 0.040663 0.857005
-0.073943 0.024981 -0.782712
-0.074025 0.016679 -0.787288
-0.073412 0.056726 0.856424
-0.072939 0.040963 -0.774247
-0.089044 0.040934 -0.775905
-0.082510 0.047514 -0.770642
-0.077751 0.047515 -0.770660
-0.072948 0.054400 -0.766854
-0.066854 0.047945 -0.770923
-0.073606 0.072467 0.855961
-0.073621 0.088697 0.855879
-0.073557 0.099310 0.855446
-0.073548 0.107481 0.851978
-0.073626 0.121356 0.845381
-0.073684 0.134600 0.839200
-0.073677 0.142796 0.835229
-0.073641 0.154044 0.828461
-0.073590 0.166342 0.821076
-0.073543 0.174548 0.816687
-0.074276 0.188035 0.808443
-0.080274 0.194339 0.802976
-0.074308 0.202734 0.799366
-0.069327 0.196975 0.804148
-0.073953 0.220224 0.789908
-0.079707 0.226147 0.784849
-0.073981 0.235818 0.781941
-0.068790 0.230204 0.786896
-0.073993 0.253141 0.773314
-0.081229 0.228726 -0.770426
-0.090103 0.234969 -0.772062
-0.084368 0.239621 -0.769630
-0.075082 0.235035 -0.768657
-0.079777 0.259094 0.768509
-0.073983 0.268937 0.766151
-0.068828 0.263490 0.770430
-0.073529 0.285243 0.759444
-0.073573 0.298076 0.754539
-0.073604 0.306282 0.751617
-0.073657 0.318011 0.747309
-0.073451 0.335040 0.741700
-0.078730 0.340916 0.738452
-0.073516 0.350071 0.735081
-0.067855 0.344082 0.740024
-0.073823 0.363074 0.726016
-0.075187 0.371912 0.713156
-0.085509 0.375116 0.703448
-0.081476 0.375115 0.703436
-0.075196 0.383720 0.701217
-0.070618 0.378316 0.707384
-0.073872 0.400021 0.696343
-0.073833 0.416411 0.692577
-0.074131 0.394846 -0.753974
-0.091042 0.400598 -0.754257
-0.085765 0.406404 -0.753144
-0.074059 0.403108 -0.752910
-0.073867 0.428729 0.688817
-0.073975 0.436934 0.685617
-0.074071 0.449230 0.680960
-0.075041 0.466839 0.674534
-0.081053 0.473097 0.670558
-0.074927 0.482135 0.667001
-0.070228 0.476727 0.672269
-0.073855 0.494471 0.658051
-0.073888 0.502652 0.650435
-0.073854 0.512020 0.642226
-0.074099 0.496153 -0.739331
-0.074166 0.504296 -0.736614
-0.073849 0.520197 0.636805
-0.073796 0.531257 0.632040
-0.074051 0.548361 0.625235
-0.079685 0.554290 0.621922
-0.074305 0.563573 0.619932
-0.068856 0.557739 0.623082
-0.075745 0.582032 0.612398
-0.074051 0.561777 -0.722251
-0.074184 0.569932 -0.720062
-0.082190 0.588523 0.608403
-0.075652 0.596518 0.602033
-0.071249 0.590798 0.609076
-0.074026 0.607242 0.590946
-0.074011 0.615437 0.584238
-0.073981 0.625568 0.575952
-0.074038 0.633749 0.569815
-0.074123 0.647202 0.560957
-0.074205 0.622750 -0.704911
-0.074266 0.630926 -0.701797
-0.079553 0.653398 0.555123
-0.074609 0.662707 0.548147
-0.068659 0.655345 0.556739
-0.080499 0.670066 0.538810
-0.075547 0.679641 0.531811
-0.069660 0.672454 0.541186
-0.073907 0.668284 -0.687445
-0.074026 0.660017 -0.690875
-0.081395 0.686821 0.522838
-0.075610 0.695798 0.515543
-0.070561 0.688600 0.524813
-0.080670 0.702977 0.506685
-0.075830 0.712295 0.500858
-0.069763 0.704912 0.508228
-0.073856 0.696403 -0.675195
-0.079174 0.702499 -0.672194
-0.073888 0.710696 -0.667963
-0.068353 0.704466 -0.672095
-0.081877 0.719645 0.493282
-0.076603 0.729249 0.486093
-0.070943 0.722205 0.494864
-0.082194 0.736249 0.476787
-0.075874 0.745381 0.467927
-0.071351 0.738655 0.478960
-0.072752 0.728523 -0.657777
-0.077238 0.734190 -0.653325
-0.066480 0.736544 -0.654640
-0.072854 0.743058 -0.648395
-0.080352 0.752081 0.456720
-0.073233 0.760644 0.448966
-0.069548 0.754023 0.459389
-0.076932 0.767254 0.438837
-0.072578 0.773491 0.433230
-0.066094 0.769241 0.441220
-0.074360 0.763492 -0.634123
-0.074361 0.755276 -0.639507
-0.074101 0.782707 0.421111
-0.074095 0.789273 0.412926
-0.073510 0.777856 -0.625435
-0.078357 0.783617 -0.620509
-0.073406 0.792567 -0.616150
-0.067543 0.786242 -0.622188
-0.074074 0.797457 0.403266
-0.074077 0.804438 0.395066
-0.074289 0.813179 0.383811
-0.079891 0.817346 0.375856
-0.074479 0.823557 0.370515
-0.068990 0.819421 0.378304
-0.082113 0.818328 -0.591002
-0.075647 0.812965 -0.598318
-0.075691 0.826212 -0.585717
-0.071273 0.820475 -0.592318
-0.074104 0.803484 -0.608234
-0.074441 0.832244 0.358796
-0.074333 0.837909 0.349837
-0.074397 0.846477 0.334990
-0.079826 0.850128 0.324863
-0.074305 0.857129 0.318909
-0.069044 0.852608 0.328620
-0.074197 0.836977 -0.576248
-0.074134 0.845175 -0.569252
-0.074104 0.865762 0.307313
-0.074167 0.871798 0.299098
-0.074108 0.853972 -0.561175
-0.074104 0.862155 -0.551030
-0.074178 0.880000 0.288053
-0.074175 0.885588 0.279873
-0.074187 0.874270 -0.532089
-0.074247 0.881695 -0.519170
-0.074131 0.868429 -0.542421
-0.074158 0.891805 0.269072
-0.074218 0.898433 0.256810
-0.074330 0.901756 0.249862
-0.073438 0.895792 -0.497348
-0.078290 0.899709 -0.489451
-0.067427 0.900728 -0.491142
-0.073358 0.904195 -0.483908
-0.074274 0.886975 -0.510942
-0.074358 0.906752 0.239198
-0.075230 0.914056 0.221887
-0.081187 0.916519 0.211956
-0.075081 0.920896 0.205261
-0.070390 0.917980 0.215667
-0.075491 0.913779 -0.467646
-0.081865 0.916712 -0.460221
-0.071007 0.918233 -0.462059
-0.075477 0.922110 -0.453477
-0.074062 0.928341 0.187029
-0.074118 0.932301 0.176617
-0.074148 0.935484 0.168421
-0.074008 0.930571 -0.438218
-0.074116 0.941262 0.154276
-0.074126 0.947186 0.139698
-0.074195 0.949998 0.132243
-0.074284 0.948689 -0.389954
-0.074171 0.944649 -0.400310
-0.073989 0.938457 -0.417969
-0.073962 0.934316 -0.429911
-0.074281 0.952834 0.123914
-0.074317 0.957780 0.108403
-0.073599 0.963680 0.088820
-0.078550 0.965950 0.080428
-0.073512 0.967790 0.074125
-0.067742 0.966085 0.081609
-0.074094 0.964177 -0.354472
-0.074153 0.958929 -0.368308
-0.074258 0.952585 -0.381821
-0.074076 0.972441 0.055975
-0.074129 0.976195 0.039831
-0.074079 0.979582 0.024403
-0.074106 0.981882 0.012772
-0.074262 0.982516 0.005267
-0.080383 0.982096 -0.255711
-0.077733 0.981897 -0.268864
-0.069585 0.982488 -0.268894
-0.074676 0.982522 -0.251135
-0.073232 0.981269 -0.284793
-0.067311 0.982450 -0.277840
-0.074013 0.978151 -0.304000
-0.074114 0.973763 -0.321186
-0.074152 0.969075 -0.337589
-0.074151 0.966471 -0.346708
-0.074385 0.982745 -0.006302
-0.074301 0.983038 -0.022758
-0.074020 0.983558 -0.040420
-0.073922 0.983625 -0.058110
-0.074008 0.983257 -0.074517
-0.074050 0.983382 -0.090004
-0.074067 0.983706 -0.105223
-0.074236 0.983718 -0.121187
-0.074361 0.983606 -0.137524
-0.074191 0.983927 -0.154108
-0.074007 0.983979 -0.171373
-0.074085 0.983379 -0.188780
-0.074213 0.982929 -0.205176
-0.074192 0.982758 -0.220663
-0.074201 0.982623 -0.236267
-0.057363 -0.965318 0.091662
-0.062529 -0.966521 0.085573
-0.057362 -0.950320 0.184018
-0.057404 -0.948973 0.192219
-0.057406 -0.931977 0.271495
-0.057457 -0.933638 0.263478
-0.057532 -0.916528 0.342952
-0.057510 -0.918040 0.334019
-0.064690 -0.900317 0.408190
-0.058595 -0.901867 0.402012
-0.053931 -0.900836 0.411792
-0.058505 -0.899325 0.417014
-0.057563 -0.883232 0.490158
-0.057573 -0.885810 0.481991
-0.057467 -0.868742 0.527483
-0.057452 -0.866214 0.535766
-0.061417 -0.866982 -0.573278
-0.050568 -0.867770 -0.573494
-0.056522 -0.871363 -0.566745
-0.056528 -0.862531 -0.580473
-0.057550 -0.848077 0.568289
-0.057524 -0.853745 0.560157
-0.057660 -0.832412 0.602458
-0.057652 -0.836186 0.593686
-0.057624 -0.818863 0.624100
-0.057572 -0.810933 0.631651
-0.057537 -0.802715 0.640050
-0.057537 -0.798474 0.648310
-0.062848 -0.785130 0.671210
-0.057485 -0.789535 0.664841
-0.057454 -0.779363 0.678486
-0.052010 -0.785926 0.672416
-0.057536 -0.760970 0.695825
-0.057541 -0.769923 0.688474
-0.057544 -0.751545 0.703132
-0.057573 -0.728166 0.713192
-0.057548 -0.743321 0.706812
-0.057599 -0.715342 0.718752
-0.057604 -0.707118 0.722272
-0.057582 -0.695375 0.725737
-0.057541 -0.678975 0.729423
-0.057575 -0.662585 0.734434
-0.057642 -0.652981 0.738401
-0.057589 -0.629819 0.741493
-0.057653 -0.644756 0.740311
-0.057432 -0.613451 0.741435
-0.057302 -0.597044 0.743463
-0.057210 -0.580616 0.747078
-0.057177 -0.564162 0.749580
-0.056196 -0.547009 0.752150
-0.060955 -0.535636 0.753170
-0.056210 -0.530629 0.754660
-0.050072 -0.541049 0.754251
-0.057314 -0.514970 0.756871
-0.057225 -0.498580 0.759941
-0.057101 -0.482152 0.763739
-0.057018 -0.469161 0.767500
-0.057004 -0.460947 0.771226
-0.057002 -0.449349 0.778389
-0.056984 -0.439401 0.784995
-0.056958 -0.416508 0.791948
-0.056945 -0.431153 0.788542
-0.057041 -0.400173 0.794190
-0.057106 -0.383794 0.798092
-0.057129 -0.374611 0.801545
-0.057117 -0.350914 0.806656
-0.057136 -0.366380 0.803783
-0.057079 -0.334456 0.808740
-0.057054 -0.318037 0.810418
-0.057055 -0.301620 0.812436
-0.057115 -0.285222 0.814867
-0.058433 -0.267313 0.817318
-0.064686 -0.260822 0.818367
-0.058457 -0.253524 0.819212
-0.057171 -0.236019 0.821840
-0.058016 -0.253194 -0.916791
-0.075809 -0.255636 -0.918399
-0.071430 -0.250213 -0.917533
-0.058037 -0.261332 -0.917920
-0.057081 -0.219615 0.824784
-0.056995 -0.203226 0.828072
-0.056921 -0.186816 0.832142
-0.056871 -0.178038 0.834652
-0.056992 -0.154034 0.840879
-0.056908 -0.169806 0.836597
-0.057053 -0.137723 0.844591
-0.057006 -0.121438 0.845132
-0.057777 -0.140581 -0.898374
-0.057753 -0.148759 -0.901937
-0.056949 -0.105172 0.845713
-0.057625 -0.087966 0.850001
-0.057626 -0.115406 -0.886322
-0.057618 -0.107174 -0.881677
-0.062948 -0.072378 0.852368
-0.054828 -0.072416 0.853200
-0.052695 -0.081926 0.852725
-0.061812 -0.056089 0.852792
-0.053617 -0.056083 0.853289
-0.057580 -0.083396 -0.869157
-0.057608 -0.075192 -0.863078
-0.062079 -0.046689 0.853261
-0.056806 -0.040692 0.854793
-0.057632 -0.055957 -0.848519
-0.057618 -0.064193 -0.854861
-0.057219 -0.023609 0.858067
-0.057695 -0.044269 -0.840192
-0.057774 -0.036036 -0.834901
-0.057225 -0.007608 0.858214
-0.057170 0.008138 0.855978
-0.057874 -0.016314 -0.821348
-0.057800 -0.008089 -0.812294
-0.057110 0.024336 0.856409
-0.057724 -0.000528 -0.803943
-0.057630 0.007706 -0.795655
-0.057044 0.040959 0.858569
-0.057557 0.017165 -0.787334
-0.057542 0.025454 -0.783323
-0.057075 0.057001 0.858260
-0.057193 0.072674 0.856740
-0.057456 0.050161 -0.772296
-0.057471 0.058314 -0.767945
-0.057277 0.088868 0.856521
-0.057316 0.100594 0.855768
-0.057329 0.108740 0.852605
-0.057332 0.121458 0.846734
-0.057281 0.136592 0.839684
-0.057243 0.144795 0.835747
-0.057235 0.154096 0.830175
-0.056514 0.170979 0.821608
-0.061495 0.176801 0.817951
-0.056464 0.185856 0.814630
-0.050586 0.179750 0.819133
-0.055614 0.202758 0.805363
-0.060111 0.207928 0.800725
-0.055670 0.218067 0.797356
-0.049157 0.211577 0.802238
-0.056190 0.235812 0.788670
-0.061001 0.241167 0.784032
-0.056157 0.251208 0.780799
-0.050073 0.244839 0.786030
-0.057190 0.268914 0.772688
-0.062777 0.274367 0.767934
-0.057292 0.285347 0.765591
-0.051864 0.279977 0.770537
-0.058583 0.303001 0.757596
-0.064958 0.309414 0.752689
-0.058668 0.317794 0.750216
-0.054072 0.312158 0.754679
-0.057431 0.334414 0.744417
-0.057592 0.347790 0.740941
-0.057696 0.355992 0.737928
-0.057797 0.367910 0.728202
-0.063253 0.373834 0.719243
-0.057551 0.383279 0.712279
-0.052507 0.377289 0.722438
-0.062615 0.389241 0.702479
-0.057414 0.401161 0.701501
-0.051832 0.396464 0.705678
-0.057649 0.416411 0.697562
-0.059282 0.398800 -0.752183
-0.065697 0.392360 -0.753474
-0.058536 0.433849 0.691189
-0.064564 0.440005 0.686896
-0.058581 0.449824 0.685129
-0.053698 0.444751 0.688589
-0.057754 0.465630 0.679717
-0.056846 0.482140 0.673760
-0.061553 0.487664 0.669245
-0.057020 0.498021 0.662509
-0.050850 0.490757 0.671723
-0.063208 0.505249 0.653194
-0.059074 0.515636 0.647001
-0.052430 0.508238 0.655780
-0.057959 0.503253 -0.735418
-0.057993 0.495084 -0.738831
-0.065652 0.523016 0.637968
-0.059243 0.532346 0.636299
-0.054944 0.527606 0.640834
-0.057677 0.547650 0.630399
-0.057742 0.561245 0.624619
-0.057804 0.569453 0.621088
-0.057887 0.580469 0.616030
-0.057825 0.569691 -0.719590
-0.057823 0.561497 -0.722064
-0.057969 0.593810 0.609431
-0.057982 0.601996 0.603553
-0.057940 0.611108 0.594696
-0.057925 0.619308 0.587300
-0.056600 0.630376 0.577836
-0.061106 0.636277 0.571341
-0.056600 0.644585 0.567039
-0.050349 0.638095 0.572767
-0.057935 0.630957 -0.701101
-0.057957 0.622778 -0.704638
-0.057857 0.657763 0.558333
-0.057832 0.665952 0.552248
-0.057805 0.675231 0.544060
-0.058761 0.663811 -0.690655
-0.064671 0.670109 -0.687590
-0.054028 0.672525 -0.688361
-0.058735 0.678416 -0.684606
-0.057806 0.683431 0.535648
-0.057810 0.690336 0.527408
-0.057816 0.698543 0.517912
-0.057840 0.706887 0.509820
-0.057899 0.715072 0.503483
-0.056342 0.727863 0.495016
-0.057899 0.714900 -0.668478
-0.057847 0.706704 -0.672211
-0.060701 0.733130 0.489290
-0.056363 0.740246 0.483309
-0.049850 0.736337 0.491115
-0.057917 0.749412 0.470580
-0.057871 0.755638 0.461809
-0.058014 0.746086 -0.649555
-0.057996 0.737872 -0.655560
-0.057847 0.763830 0.450900
-0.057840 0.770531 0.442699
-0.058034 0.758310 -0.641382
-0.058029 0.766519 -0.636476
-0.058651 0.779568 0.432884
-0.064556 0.784669 0.423862
-0.058219 0.794052 0.417129
-0.053782 0.787962 0.427484
-0.062651 0.800117 0.406365
-0.057527 0.806505 0.400816
-0.051880 0.802946 0.410431
-0.057992 0.796118 -0.617465
-0.058004 0.787910 -0.623536
-0.057898 0.815087 0.388090
-0.057949 0.821203 0.380287
-0.057921 0.813757 -0.601414
-0.057939 0.805541 -0.609525
-0.058906 0.830129 0.368941
-0.065016 0.834180 0.361409
-0.058925 0.840812 0.354149
-0.054042 0.836743 0.363261
-0.057936 0.822897 -0.593338
-0.057948 0.831090 -0.586308
-0.057984 0.849032 0.340794
-0.057919 0.854148 0.332001
-0.057949 0.840531 -0.578120
-0.057932 0.848699 -0.571089
-0.058749 0.863176 0.317571
-0.064711 0.867218 0.309439
-0.057351 0.875417 0.301662
-0.053916 0.868640 0.311695
-0.057944 0.864023 -0.552270
-0.057935 0.855841 -0.562963
-0.060814 0.882191 0.290895
-0.056394 0.886332 0.285528
-0.049940 0.884073 0.293864
-0.057960 0.876590 -0.531922
-0.057975 0.882883 -0.521431
-0.057953 0.869541 -0.543940
-0.057902 0.894263 0.269302
-0.057915 0.899606 0.259789
-0.057959 0.903986 0.252287
-0.057973 0.888539 -0.513199
-0.057918 0.896747 -0.500692
-0.057614 0.912307 0.237582
-0.062802 0.915468 0.227671
-0.057566 0.919453 0.221244
-0.051904 0.917546 0.231251
-0.057833 0.907718 -0.482863
-0.057842 0.914798 -0.471774
-0.057857 0.901551 -0.492651
-0.057872 0.925508 0.203986
-0.059412 0.931393 0.187383
-0.065858 0.933179 0.178801
-0.059403 0.936702 0.172360
-0.055030 0.934308 0.182093
-0.057818 0.932112 -0.439653
-0.057848 0.927073 -0.450649
-0.057870 0.919984 -0.463711
-0.057852 0.942800 0.154455
-0.057870 0.947445 0.140174
-0.057901 0.950196 0.132443
-0.058316 0.946591 -0.399301
-0.064083 0.949320 -0.391170
-0.058372 0.952472 -0.385078
-0.053214 0.950194 -0.392952
-0.057752 0.939382 -0.417645
-0.057761 0.934747 -0.431561
-0.057948 0.953948 0.123386
-0.057965 0.959126 0.107793
-0.059284 0.963619 0.089213
-0.065563 0.966084 0.081745
-0.057848 0.958471 -0.368117
-0.057833 0.963540 -0.354135
-0.059252 0.967588 0.073972
-0.057909 0.973274 0.057484
-0.057927 0.977863 0.041216
-0.057856 0.979973 0.025146
-0.057830 0.981684 0.014370
-0.057941 0.982581 0.006676
-0.057845 0.980639 -0.286749
-0.057842 0.977867 -0.302925
-0.057938 0.975797 -0.319817
-0.057950 0.971138 -0.336278
-0.057909 0.966819 -0.346077
-0.058065 0.982951 -0.006382
-0.058010 0.983216 -0.022808
-0.057795 0.983590 -0.039978
-0.057709 0.983721 -0.057169
-0.057746 0.983518 -0.073557
-0.057807 0.983714 -0.089197
-0.057878 0.984102 -0.104860
-0.057979 0.984005 -0.121147
-0.058041 0.983674 -0.137558
-0.057940 0.983758 -0.154059
-0.057850 0.983727 -0.170820
-0.057899 0.983343 -0.187761
-0.057965 0.983062 -0.204234
-0.057956 0.982973 -0.220148
-0.057958 0.982825 -0.236195
-0.057986 0.982751 -0.252633
-0.057962 0.982634 -0.269147
-0.057929 0.982457 -0.278210
-0.046463 -0.965666 0.078853
-0.051833 -0.965663 0.078815
-0.057281 -0.966990 0.073198
-0.041055 -0.966716 0.073905
-0.035330 -0.966334 0.085434
-0.040951 -0.965405 0.090893
-0.044384 -0.965701 -0.307150
-0.033374 -0.966069 -0.310294
-0.039765 -0.966607 -0.301911
-0.039759 -0.964547 -0.316887
-0.045917 -0.948896 0.192281
-0.040688 -0.950688 0.187533
-0.040671 -0.947797 0.203749
-0.034905 -0.949965 0.198214
-0.039731 -0.934071 0.268411
-0.044335 -0.932281 0.272922
-0.039666 -0.930869 0.285248
-0.033296 -0.933293 0.278825
-0.048350 -0.916649 0.342821
-0.042150 -0.918489 0.336318
-0.037238 -0.917435 0.346403
-0.042043 -0.915851 0.352216
-0.040248 -0.913433 -0.481779
-0.034337 -0.916974 -0.475193
-0.040255 -0.919237 -0.467358
-0.045363 -0.916392 -0.473676
-0.041115 -0.901491 0.415472
-0.041108 -0.899852 0.423829
-0.047083 -0.883771 0.490458
-0.041349 -0.886103 0.483965
-0.036000 -0.884299 0.491704
-0.041338 -0.881196 0.497966
-0.041194 -0.869587 0.530559
