-0.265556 -0.541245 0.642476
-0.270960 -0.536678 -0.157588
-0.265731 -0.541136 -0.153405
-0.270987 -0.543197 -0.140103
-0.276813 -0.538305 -0.144846
-0.271004 -0.527874 0.666307
-0.276717 -0.521496 0.671831
-0.265657 -0.525209 0.679554
-0.270982 -0.519954 0.683980
-0.274969 -0.521169 -0.190850
-0.263969 -0.523822 -0.196194
-0.269930 -0.525451 -0.186218
-0.270015 -0.517789 -0.202275
-0.278174 -0.506351 0.703163
-0.271873 -0.512440 0.698216
-0.272775 -0.499484 0.713267
-0.267061 -0.509013 0.706507
-0.269247 -0.501235 -0.238313
-0.262936 -0.506986 -0.232007
-0.269441 -0.509272 -0.220575
-0.274075 -0.504361 -0.226710
-0.278540 -0.490231 0.720163
-0.267416 -0.492642 0.722910
-0.271927 -0.486444 0.728426
-0.276559 -0.489219 -0.259836
-0.265549 -0.491789 -0.266738
-0.270817 -0.493712 -0.255203
-0.270902 -0.486932 -0.271671
-0.268975 -0.476654 0.744185
-0.273587 -0.471034 0.749754
-0.269415 -0.464991 0.761459
-0.262459 -0.473966 0.753128
-0.271520 -0.471452 -0.304311
-0.266434 -0.475944 -0.300908
-0.271414 -0.478995 -0.288687
-0.277496 -0.473156 -0.294381
-0.276330 -0.455351 0.769756
-0.270061 -0.448580 0.780119
-0.265226 -0.458996 0.772843
-0.279031 -0.457707 -0.326100
-0.267926 -0.460465 -0.331712
-0.272424 -0.463903 -0.319662
-0.272337 -0.455553 -0.336365
-0.274823 -0.437567 0.786838
-0.263827 -0.441825 0.790155
-0.269830 -0.432379 0.793932
-0.277400 -0.440239 -0.361104
-0.266351 -0.443059 -0.366895
-0.271371 -0.446818 -0.354020
-0.271392 -0.437709 -0.371368
-0.270629 -0.421537 0.802701
-0.276902 -0.423343 -0.389820
-0.265151 -0.426674 -0.401901
-0.271106 -0.429879 -0.385178
-0.273444 -0.420899 -0.401683
-0.269073 -0.418176 -0.417901
-0.262539 -0.424917 -0.411840
-0.269892 -0.412737 0.813235
-0.274840 -0.406058 0.817581
-0.269788 -0.400350 0.825542
-0.263900 -0.408983 0.822095
-0.273492 -0.404863 -0.449287
-0.265189 -0.410422 -0.449251
-0.270822 -0.411813 -0.432861
-0.276501 -0.406801 -0.436488
-0.263116 -0.409180 -0.458341
-0.269506 -0.402265 -0.465550
-0.270438 -0.389196 0.833435
-0.270631 -0.388440 -0.501994
-0.264914 -0.393731 -0.498001
-0.270558 -0.395183 -0.483629
-0.275991 -0.390107 -0.488246
-0.269738 -0.366142 0.846953
-0.270448 -0.380948 0.838494
-0.277941 -0.375255 -0.522436
-0.267022 -0.378964 -0.533879
-0.271829 -0.381676 -0.516989
-0.275314 -0.373022 -0.533311
-0.270092 -0.370204 -0.549670
-0.264067 -0.377022 -0.545557
-0.274802 -0.357023 0.850689
-0.269754 -0.351227 0.856313
-0.263770 -0.359975 0.852238
-0.271089 -0.356389 -0.582158
-0.265701 -0.362357 -0.577756
-0.271025 -0.363920 -0.563176
-0.276682 -0.357875 -0.567538
-0.270436 -0.338373 0.865123
-0.275310 -0.340829 -0.618894
-0.264301 -0.344471 -0.627199
-0.270118 -0.345763 -0.614772
-0.270227 -0.338849 -0.631581
-0.270576 -0.317646 0.879799
-0.270472 -0.330156 0.871208
-0.274457 -0.323107 -0.665193
-0.266151 -0.329011 -0.665467
-0.271717 -0.331891 -0.647715
-0.277821 -0.325986 -0.653822
-0.270026 -0.318019 -0.680428
-0.262984 -0.327220 -0.675401
-0.276159 -0.307785 0.883930
-0.265140 -0.311963 0.885543
-0.270612 -0.302009 0.888775
-0.272426 -0.304097 -0.698095
-0.266096 -0.313329 -0.693145
-0.277023 -0.308605 -0.685565
-0.270468 -0.284642 0.897254
-0.276316 -0.291809 -0.712429
-0.268115 -0.299581 -0.712342
-0.278682 -0.293768 -0.703206
-0.271405 -0.286634 -0.731208
-0.264756 -0.295988 -0.724365
-0.275902 -0.274758 0.900130
-0.270374 -0.269068 0.904590
-0.264868 -0.278835 0.901947
-0.278089 -0.277140 -0.738083
-0.267092 -0.281875 -0.743670
-0.271854 -0.274068 -0.747828
-0.269554 -0.251483 0.913789
-0.265522 -0.252187 -0.777422
-0.263246 -0.262431 -0.770678
-0.269560 -0.265223 -0.760259
-0.274559 -0.253617 -0.764802
-0.274480 -0.240091 0.917114
-0.263486 -0.245415 0.920028
-0.269504 -0.235162 0.920775
-0.277801 -0.243971 -0.768382
-0.274269 -0.238226 -0.779211
-0.262499 -0.245929 -0.787476
-0.265139 -0.236204 -0.793757
-0.270285 -0.219631 0.924738
-0.277772 -0.228236 -0.785360
-0.274850 -0.222278 -0.796980
-0.266614 -0.220585 -0.809834
-0.262523 -0.229813 -0.803594
-0.268819 -0.201867 0.930125
-0.275809 -0.208713 -0.811606
-0.278664 -0.212896 -0.803878
-0.263930 -0.214305 -0.821013
-0.269251 -0.202678 -0.825870
-0.273430 -0.186919 0.932014
-0.262257 -0.195444 0.933536
-0.265056 -0.186932 0.934285
-0.274122 -0.187980 -0.830384
-0.263467 -0.198054 -0.837810
-0.265775 -0.188143 -0.840961
-0.276808 -0.176333 0.932871
-0.270835 -0.170761 0.935455
-0.276781 -0.175826 -0.834245
-0.270561 -0.171468 -0.845142
-0.270134 -0.154186 0.937974
-0.269283 -0.153392 -0.859809
-0.264328 -0.167061 -0.855565
-0.275403 -0.158273 -0.848782
-0.270076 -0.137845 0.940610
-0.265387 -0.139105 -0.872631
-0.263098 -0.148275 -0.870763
-0.273764 -0.139193 -0.863541
-0.268587 -0.120204 0.945427
-0.269689 -0.121727 -0.876028
-0.276648 -0.127211 -0.866468
-0.272872 -0.105499 0.947514
-0.264684 -0.105556 0.950233
-0.262144 -0.113921 0.949638
-0.264686 -0.107355 -0.886908
-0.262880 -0.116444 -0.884931
-0.272866 -0.107171 -0.879130
-0.276329 -0.094493 0.948887
-0.270492 -0.089037 0.951301
-0.275670 -0.090729 -0.882272
-0.267369 -0.090769 -0.890611
-0.269975 -0.072764 0.953196
-0.277672 -0.074221 -0.884254
-0.269308 -0.074250 -0.892681
-0.270053 -0.056621 0.953959
-0.272066 -0.059217 -0.891678
-0.278594 -0.065395 -0.884824
-0.270066 -0.040346 0.954459
-0.269980 -0.023835 0.954447
-0.271342 -0.025016 -0.894821
-0.262790 -0.039035 -0.902006
-0.269224 -0.043328 -0.895629
-0.262961 -0.025004 -0.903042
-0.269999 -0.007684 0.953863
-0.271464 -0.008746 -0.894914
-0.263079 -0.008688 -0.903164
-0.270116 0.008152 0.953508
-0.263373 0.007130 -0.902322
-0.271608 0.007249 -0.894682
-0.270118 0.024373 0.953105
-0.270948 0.024970 -0.893144
-0.263172 0.018209 -0.901758
-0.270032 0.040866 0.952384
-0.278842 0.031620 -0.884547
-0.277753 0.039962 -0.883838
-0.269408 0.040005 -0.891365
-0.270550 0.056891 0.951024
-0.275184 0.056114 -0.881617
-0.266867 0.056143 -0.889306
-0.276388 0.062058 0.948824
-0.273774 0.073007 0.947783
-0.265579 0.073049 0.950422
-0.264523 0.068617 -0.886679
-0.271710 0.074439 -0.877697
-0.269307 0.089407 0.947122
-0.263267 0.084143 0.949925
-0.278849 0.080278 -0.868761
-0.276381 0.088619 -0.867222
-0.268177 0.088567 -0.875029
-0.270187 0.105465 0.944460
-0.264163 0.105014 -0.872702
-0.273780 0.106600 -0.862307
-0.270265 0.121594 0.941149
-0.278913 0.113128 -0.854506
-0.267358 0.120133 -0.862474
-0.276702 0.121387 -0.851516
-0.262549 0.113883 -0.871341
-0.270386 0.137762 0.937894
-0.273396 0.138436 -0.844366
-0.264460 0.137690 -0.855906
-0.270335 0.154116 0.935823
-0.278075 0.144377 -0.834397
-0.266297 0.152534 -0.844101
-0.275473 0.154105 -0.831225
-0.262606 0.146044 -0.853839
-0.270125 0.169153 0.934432
-0.270143 0.169686 -0.826590
-0.264121 0.164844 -0.837695
-0.275612 0.173673 0.932224
-0.270379 0.187843 0.931195
-0.264585 0.183079 0.933979
-0.276148 0.174520 -0.816401
-0.271090 0.187175 -0.812072
-0.265151 0.182040 -0.822321
-0.270718 0.203172 0.927848
-0.276958 0.192312 -0.801769
-0.271799 0.204441 -0.796827
-0.266099 0.199316 -0.807569
-0.270672 0.219563 0.924005
-0.277563 0.209536 -0.785340
-0.266567 0.216145 -0.792406
-0.272099 0.221167 -0.780524
-0.270855 0.235727 0.920170
-0.277744 0.226199 -0.768157
-0.271853 0.237089 -0.763206
-0.266617 0.232040 -0.775209
-0.276629 0.241017 0.916706
-0.271049 0.253682 0.915764
-0.265564 0.249056 0.919496
-0.277078 0.242129 -0.752168
-0.271094 0.252686 -0.746869
-0.266035 0.247591 -0.758139
-0.270807 0.268807 0.910376
-0.276128 0.257775 -0.734120
-0.269645 0.267588 -0.728149
-0.265123 0.262830 -0.741732
-0.271020 0.285238 0.903979
-0.278118 0.275780 -0.702103
-0.274629 0.272563 -0.712526
-0.271692 0.286021 -0.696848
-0.266366 0.280277 -0.712646
-0.263160 0.277422 -0.722312
-0.276772 0.290735 0.899740
-0.271023 0.301936 0.897397
-0.265667 0.296710 0.901783
-0.276270 0.291083 -0.686346
-0.270727 0.298014 -0.681740
-0.265248 0.294932 -0.691796
-0.271928 0.319170 0.889722
-0.270795 0.305927 -0.666703
-0.276420 0.308120 -0.651922
-0.270980 0.313942 -0.646543
-0.265364 0.311740 -0.661454
-0.278242 0.325417 0.884437
-0.271959 0.334963 0.880616
-0.267211 0.329866 0.886627
-0.275644 0.323685 -0.618275
-0.270541 0.321103 -0.631526
-0.264743 0.327555 -0.626741
-0.270447 0.329160 -0.613983
-0.270805 0.346949 0.871800
-0.278242 0.341810 -0.570549
-0.274811 0.339713 -0.580587
-0.272033 0.347623 -0.565354
-0.266578 0.344874 -0.580545
-0.269684 0.336347 -0.596888
-0.263401 0.342937 -0.589595
-0.270771 0.355162 0.865694
-0.271043 0.367974 0.857212
-0.270657 0.354877 -0.550202
-0.276062 0.357378 -0.538751
-0.264910 0.359921 -0.545492
-0.270723 0.361432 -0.533292
-0.276761 0.373932 0.850840
-0.271093 0.383315 0.847026
-0.265686 0.377649 0.853053
-0.275628 0.373938 -0.484831
-0.279175 0.375335 -0.475626
-0.267290 0.377415 -0.485101
-0.272687 0.380940 -0.468521
-0.269834 0.371640 -0.500377
-0.263443 0.375814 -0.495247
-0.271068 0.366247 -0.516567
-0.270845 0.395518 0.838578
-0.276454 0.389972 -0.433795
-0.278576 0.391426 -0.425313
-0.268171 0.394890 -0.433961
-0.272170 0.397143 -0.419628
-0.270976 0.388182 -0.450459
-0.265286 0.393070 -0.445752
-0.270804 0.403713 0.831438
-0.270831 0.412195 0.824197
-0.275245 0.406121 -0.389425
-0.270207 0.404018 -0.401487
-0.264264 0.408894 -0.395245
-0.270224 0.410951 -0.384909
-0.270886 0.420410 0.816260
-0.270980 0.427370 0.808694
-0.270820 0.417493 -0.370506
-0.270799 0.422782 -0.358485
-0.272698 0.436636 0.798120
-0.279279 0.440965 0.789357
-0.272752 0.449591 0.784950
-0.268310 0.444369 0.793028
-0.274256 0.439039 -0.323101
-0.269638 0.435266 -0.333160
-0.269692 0.443561 -0.317860
-0.263218 0.441132 -0.326387
-0.270911 0.427121 -0.348707
-0.271129 0.460114 0.775296
-0.270357 0.452311 -0.302242
-0.275401 0.455687 -0.291921
-0.264301 0.458065 -0.297604
-0.270338 0.459976 -0.287150
-0.270709 0.468740 0.762167
-0.275996 0.472713 0.752642
-0.270667 0.477744 0.745970
-0.264856 0.474574 0.754786
-0.271081 0.472271 -0.259941
-0.271070 0.466799 -0.270874
-0.270952 0.486368 0.731907
-0.270922 0.493057 0.723527
-0.270848 0.482954 -0.239326
-0.270907 0.488690 -0.227361
-0.270944 0.476295 -0.252499
-0.270836 0.501236 0.715066
-0.270809 0.509516 0.706859
-0.271209 0.505119 -0.192570
-0.271182 0.499150 -0.203188
-0.271057 0.492486 -0.217501
-0.270015 0.517843 0.696293
-0.275046 0.521481 0.687002
-0.270260 0.525375 0.682140
-0.264031 0.523407 0.691493
-0.277672 0.522466 -0.146317
-0.273941 0.520818 -0.155931
-0.265671 0.523912 -0.156502
-0.271699 0.526912 -0.140870
-0.269397 0.517346 -0.170440
-0.262725 0.523081 -0.165060
-0.271141 0.509512 -0.184684
-0.270699 0.534369 0.665135
-0.275865 0.538413 0.655846
-0.270525 0.543575 0.648763
-0.264803 0.540051 0.658897
-0.270878 0.534757 -0.124379
-0.270812 0.538989 -0.115348
-0.270012 0.552244 0.629396
-0.275054 0.554492 0.619125
-0.270165 0.557777 0.614492
-0.263938 0.556298 0.623277
-0.271186 0.554522 -0.076908
-0.271084 0.549586 -0.089482
-0.270904 0.542729 -0.106460
-0.271413 0.566970 0.598880
-0.277083 0.571605 0.590269
-0.271481 0.575871 0.584670
-0.266164 0.572875 0.593229
-0.270705 0.569276 -0.040448
-0.276012 0.571654 -0.030776
-0.264938 0.572570 -0.034786
-0.270769 0.574093 -0.025219
-0.271103 0.562427 -0.056748
-0.271178 0.557498 -0.068747
-0.270689 0.584528 0.566982
-0.275823 0.587287 0.556595
-0.270636 0.591427 0.551303
-0.264831 0.589323 0.561247
-0.270475 0.585845 0.008160
-0.275684 0.587950 0.019078
-0.264600 0.589046 0.013863
-0.270519 0.590447 0.025245
-0.271079 0.579528 -0.008379
-0.271065 0.596906 0.534420
-0.270128 0.602107 0.515388
-0.275994 0.604204 0.499914
-0.263958 0.605356 0.508174
-0.267671 0.606331 0.499197
-0.279117 0.604985 0.491858
-0.272607 0.608095 0.484922
-0.269893 0.600823 0.060592
-0.274603 0.603773 0.070790
-0.269896 0.606351 0.075519
-0.263582 0.605228 0.066894
-0.271079 0.594485 0.042905
-0.271037 0.612929 0.466905
-0.271083 0.616861 0.451604
-0.270741 0.619449 0.437759
-0.275973 0.620134 0.423874
-0.270757 0.623416 0.419147
-0.264908 0.622336 0.433219
-0.270016 0.618430 0.124730
-0.274695 0.620325 0.137077
-0.269919 0.622511 0.141162
-0.263615 0.621699 0.129618
-0.271268 0.613634 0.108153
-0.271164 0.609856 0.091249
-0.271089 0.626874 0.402360
-0.270989 0.630354 0.384548
-0.271170 0.632144 0.368947
-0.270456 0.634727 0.352613
-0.275953 0.636505 0.337133
-0.264386 0.638278 0.346311
-0.267673 0.639356 0.336556
-0.277113 0.636901 0.321321
-0.268860 0.639739 0.321056
-0.274417 0.635745 0.305401
-0.266179 0.638956 0.305409
-0.274080 0.635639 0.288957
-0.265837 0.638843 0.288938
-0.275406 0.636349 0.272077
-0.267148 0.639082 0.271567
-0.274904 0.636156 0.255360
-0.266670 0.638958 0.254599
-0.273003 0.635244 0.239105
-0.264828 0.638481 0.238651
-0.269974 0.635563 0.221520
-0.263637 0.638107 0.226006
-0.271306 0.634372 0.206494
-0.271271 0.631851 0.190463
-0.271206 0.628588 0.174183
-0.271129 0.625359 0.157141
-0.252681 -0.633340 0.335302
-0.246401 -0.638007 0.327628
-0.246404 -0.638008 0.329683
-0.252726 -0.634151 0.321656
-0.258364 -0.619840 0.402053
-0.250323 -0.623249 0.402120
-0.247710 -0.622118 0.414059
-0.253573 -0.618408 0.419811
-0.260760 -0.620953 0.389360
-0.254829 -0.624252 0.384028
-0.260501 -0.620770 0.135480
-0.250876 -0.623784 0.123934
-0.254704 -0.624198 0.140919
-0.258852 -0.619909 0.123200
-0.248571 -0.622667 0.108217
-0.256604 -0.618669 0.107987
-0.252973 -0.617586 0.091586
-0.246842 -0.621869 0.098022
-0.257760 -0.602707 0.470265
-0.253131 -0.606346 0.466312
-0.247151 -0.605554 0.478228
-0.253091 -0.601012 0.482980
-0.256750 -0.602355 0.025264
-0.248711 -0.606112 0.025786
-0.254596 -0.607335 0.044165
-0.260187 -0.603939 0.039520
-0.246279 -0.605180 0.016533
-0.252580 -0.600287 0.009261
-0.258948 -0.587771 0.533813
-0.250910 -0.590470 0.534124
-0.247462 -0.589000 0.544173
-0.253413 -0.585092 0.550379
-0.261865 -0.588550 0.523880
-0.255537 -0.592622 0.517382
-0.259192 -0.587358 -0.025142
-0.251084 -0.590765 -0.024756
-0.255520 -0.593213 -0.010111
-0.261964 -0.588614 -0.016364
-0.253561 -0.585193 -0.040770
-0.247768 -0.589340 -0.034629
-0.254474 -0.573649 0.578860
-0.254477 -0.568599 0.586986
-0.254974 -0.569517 -0.089821
-0.250070 -0.573466 -0.084137
-0.255065 -0.575198 -0.072287
-0.260894 -0.571687 -0.077969
-0.254373 -0.559892 0.601344
-0.259574 -0.555114 0.607049
-0.254187 -0.553694 0.616094
-0.248954 -0.556603 0.611755
-0.261808 -0.555746 -0.116342
-0.251398 -0.558664 -0.124067
-0.255586 -0.561720 -0.108979
-0.259347 -0.554219 -0.124581
-0.248058 -0.556838 -0.134264
-0.253736 -0.551623 -0.140046
-0.260813 -0.538416 0.655740
-0.254898 -0.544439 0.648634
-0.250076 -0.541559 0.662170
-0.255007 -0.536414 0.667143
-0.261781 -0.539281 -0.164846
-0.251153 -0.541466 -0.169056
-0.255582 -0.544208 -0.157909
-0.255613 -0.537605 -0.173440
-0.261845 -0.522875 0.690403
-0.255651 -0.527980 0.684098
-0.255561 -0.520013 0.697957
-0.251134 -0.524406 0.693142
-0.253254 -0.516971 -0.219384
-0.247245 -0.523491 -0.212143
-0.253370 -0.525486 -0.202289
-0.258007 -0.520813 -0.207147
-0.254029 -0.503953 0.718195
-0.254141 -0.511191 0.710508
-0.257991 -0.504515 -0.242561
-0.247410 -0.507244 -0.247369
-0.253285 -0.508859 -0.237264
-0.253376 -0.501989 -0.253746
-0.253228 -0.495007 0.728704
-0.258023 -0.488354 0.733845
-0.253231 -0.484467 0.743860
-0.247366 -0.490919 0.737960
-0.260614 -0.489492 -0.278147
-0.249849 -0.491958 -0.283228
-0.254927 -0.494443 -0.271672
-0.254781 -0.487161 -0.288922
-0.254116 -0.476248 0.756362
-0.254176 -0.470188 0.765018
-0.262252 -0.473801 -0.309885
-0.251479 -0.475901 -0.314946
-0.255755 -0.479011 -0.304836
-0.255892 -0.472120 -0.319334
-0.254363 -0.452139 0.784447
-0.254295 -0.461960 0.775003
-0.255734 -0.454916 -0.353378
-0.251451 -0.459739 -0.347661
-0.255878 -0.463658 -0.336235
-0.262157 -0.457411 -0.343087
-0.255643 -0.432629 0.801183
-0.254403 -0.443924 0.792000
-0.261205 -0.440475 -0.377172
-0.250608 -0.443541 -0.381478
-0.255184 -0.446618 -0.370475
-0.255357 -0.438684 -0.386315
-0.261812 -0.424371 0.805592
-0.251095 -0.426992 0.808830
-0.255610 -0.420611 0.814004
-0.253869 -0.420860 -0.434237
-0.248125 -0.425679 -0.429470
-0.253770 -0.427224 -0.417835
-0.258756 -0.422823 -0.422670
-0.254359 -0.411587 0.824462
-0.255725 -0.400015 0.832373
-0.253486 -0.404060 -0.483416
-0.247576 -0.409131 -0.476367
-0.253606 -0.410513 -0.464886
-0.258261 -0.406495 -0.470606
-0.261944 -0.391661 0.835325
-0.255617 -0.385153 0.841946
-0.251297 -0.394564 0.838334
-0.261977 -0.392271 -0.507798
-0.250894 -0.394676 -0.516025
-0.255733 -0.397071 -0.501492
-0.258914 -0.390327 -0.516702
-0.253473 -0.387207 -0.533107
-0.247577 -0.393161 -0.526120
-0.254121 -0.371648 0.850276
-0.260364 -0.374697 -0.555104
-0.249663 -0.377772 -0.562163
-0.254704 -0.379902 -0.550565
-0.254837 -0.373382 -0.565964
-0.254538 -0.350388 0.863311
-0.254123 -0.363413 0.854913
-0.259209 -0.357808 -0.598069
-0.251196 -0.362011 -0.597308
-0.256139 -0.365944 -0.582167
-0.262603 -0.359687 -0.588687
-0.247391 -0.360062 -0.607118
-0.253368 -0.354564 -0.614141
-0.260211 -0.341119 0.866854
-0.253757 -0.334082 0.875901
-0.249437 -0.344660 0.870195
-0.255028 -0.341006 -0.648349
-0.250051 -0.344662 -0.643054
-0.255031 -0.347093 -0.631242
-0.260841 -0.342948 -0.636547
-0.258150 -0.322900 0.881869
-0.253274 -0.317646 0.886841
-0.247319 -0.327079 0.884914
-0.258501 -0.324160 -0.684810
-0.247889 -0.327670 -0.690672
-0.253587 -0.329177 -0.680704
-0.255153 -0.319195 -0.697022
-0.254122 -0.301588 0.894079
-0.262504 -0.310606 -0.703367
-0.250858 -0.313601 -0.712506
-0.258954 -0.307846 -0.712382
-0.253829 -0.301897 -0.728897
-0.247090 -0.311081 -0.722097
-0.254118 -0.290552 0.899756
-0.255877 -0.287146 -0.747420
-0.249801 -0.296821 -0.740921
-0.260536 -0.292690 -0.736187
-0.254113 -0.268783 0.910126
-0.254112 -0.282330 0.903296
-0.261985 -0.277601 -0.753432
-0.251254 -0.281520 -0.758636
-0.255762 -0.274591 -0.763114
-0.254104 -0.256500 0.917071
-0.258578 -0.256540 -0.782886
-0.247878 -0.263310 -0.789953
-0.253714 -0.265972 -0.777792
-0.253045 -0.251969 -0.794053
-0.254073 -0.248285 0.920366
-0.254009 -0.236008 0.923618
-0.258230 -0.240517 -0.798208
-0.247460 -0.247130 -0.804947
-0.252700 -0.235335 -0.809452
-0.253985 -0.219633 0.928415
-0.257926 -0.225424 -0.813932
-0.247158 -0.229931 -0.820205
-0.252828 -0.219465 -0.826153
-0.253961 -0.207326 0.932251
-0.252502 -0.202895 -0.843503
-0.247851 -0.213854 -0.837031
-0.258420 -0.208965 -0.832300
-0.253897 -0.186908 0.937435
-0.253936 -0.199113 0.934776
-0.249443 -0.188391 -0.856914
-0.246627 -0.196949 -0.854359
-0.257392 -0.188335 -0.849709
-0.253832 -0.170560 0.940360
-0.260864 -0.178064 -0.852449
-0.254645 -0.172594 -0.861720
-0.252186 -0.152650 0.944779
-0.252771 -0.153290 -0.876149
-0.248378 -0.167036 -0.871200
-0.259083 -0.159335 -0.866139
-0.255736 -0.137799 0.946233
-0.245782 -0.146169 0.949653
-0.247696 -0.137786 0.950344
-0.256960 -0.138938 -0.880350
-0.246525 -0.147268 -0.885234
-0.248950 -0.138823 -0.887209
-0.259060 -0.124545 0.947994
-0.253736 -0.120111 0.951194
-0.260325 -0.126688 -0.882837
-0.254718 -0.121978 -0.889780
-0.253810 -0.105359 0.953186
-0.253735 -0.088966 0.955328
-0.251037 -0.090549 -0.905182
-0.248278 -0.102960 -0.903246
-0.253934 -0.107942 -0.896441
-0.259006 -0.090680 -0.899129
-0.253693 -0.072649 0.957048
-0.253116 -0.074311 -0.906643
-0.261013 -0.074270 -0.901252
-0.253746 -0.056559 0.957903
-0.261935 -0.058207 -0.901280
-0.253875 -0.058099 -0.906867
-0.253740 -0.040326 0.958593
-0.262437 -0.050238 -0.901189
-0.255889 -0.043445 -0.906310
-0.253662 -0.023810 0.959428
-0.253691 -0.007694 0.959339
-0.253813 0.008066 0.958178
-0.253828 0.024261 0.957199
-0.253752 0.040796 0.956512
-0.255527 0.023708 -0.906861
-0.261644 0.029327 -0.900589
-0.260759 0.040020 -0.899872
-0.252810 0.039934 -0.906527
-0.253769 0.056997 0.955149
-0.250508 0.056123 -0.904799
-0.258485 0.056187 -0.897842
-0.253839 0.072980 0.953476
-0.255001 0.073368 -0.893844
-0.247877 0.067296 -0.903139
-0.254976 0.089444 0.951924
-0.262223 0.079425 -0.884381
-0.252275 0.088553 -0.890449
-0.260359 0.088543 -0.882694
-0.261094 0.095191 0.949128
-0.259388 0.105710 0.948170
-0.251344 0.105550 0.951808
-0.256755 0.105036 -0.879860
-0.248776 0.105018 -0.887254
-0.256283 0.121818 0.946561
-0.248190 0.121791 0.950611
-0.253224 0.119275 -0.876721
-0.246650 0.113791 -0.885380
-0.252530 0.137045 0.944977
-0.246135 0.131140 0.949754
-0.259900 0.124760 -0.867650
-0.256721 0.137701 -0.863900
-0.248626 0.137697 -0.871702
-0.253944 0.154197 0.940430
-0.252921 0.151573 -0.860420
-0.246502 0.146220 -0.869761
-0.253950 0.170527 0.937886
-0.259240 0.156963 -0.850121
-0.254407 0.170574 -0.844891
-0.248581 0.165370 -0.856526
-0.255203 0.187846 0.935304
-0.260245 0.175793 -0.833231
-0.255232 0.187614 -0.828409
-0.249648 0.182234 -0.839757
-0.261429 0.193953 0.933047
-0.255388 0.204653 0.932100
-0.250652 0.200174 0.934244
-0.260943 0.192955 -0.817692
-0.250158 0.199570 -0.823750
-0.255958 0.204914 -0.813571
-0.254279 0.219570 0.928612
-0.261748 0.210251 -0.803407
-0.258926 0.220797 -0.797745
-0.250356 0.219576 -0.808900
-0.254253 0.235975 0.924742
-0.262015 0.227105 -0.787988
-0.250007 0.234852 -0.795401
-0.258619 0.236887 -0.780566
-0.247163 0.228632 -0.806093
-0.255446 0.253670 0.920894
-0.261555 0.243003 -0.768501
-0.255637 0.253332 -0.763117
-0.250009 0.247419 -0.779079
-0.246837 0.244567 -0.788481
-0.261636 0.260004 0.919090
-0.255501 0.268761 0.916715
-0.250804 0.263262 0.919229
-0.260475 0.258543 -0.751645
-0.249696 0.263552 -0.757608
-0.254248 0.268659 -0.746360
-0.254345 0.285180 0.910758
-0.258765 0.273757 -0.734043
-0.252671 0.283408 -0.727927
-0.248064 0.278457 -0.740778
-0.254659 0.301943 0.904191
-0.257286 0.288471 -0.712778
-0.260836 0.291887 -0.701381
-0.249225 0.295077 -0.712929
-0.255104 0.298743 -0.696497
-0.246558 0.293372 -0.722106
-0.260292 0.307650 0.899633
-0.254733 0.318055 0.897324
-0.249547 0.312615 0.901778
-0.261331 0.309172 -0.673142
-0.255437 0.306861 -0.682775
-0.250749 0.312146 -0.678293
-0.255469 0.315399 -0.666279
-0.254801 0.334958 0.888913
-0.255215 0.323354 -0.648354
-0.261059 0.325404 -0.636736
-0.250218 0.327643 -0.643124
-0.255252 0.330454 -0.631271
-0.260463 0.340782 0.882524
-0.255452 0.351676 0.876794
-0.249595 0.345387 0.885706
-0.253868 0.338235 -0.614666
-0.258746 0.340607 -0.602006
-0.253953 0.345374 -0.596214
-0.248026 0.343494 -0.608376
-0.261287 0.357979 0.867010
-0.255335 0.368008 0.864689
-0.250509 0.363067 0.871328
-0.257838 0.355941 -0.565343
-0.260875 0.357681 -0.555639
-0.255118 0.363258 -0.550725
-0.249763 0.360822 -0.565486
-0.253479 0.353034 -0.579430
-0.247221 0.359291 -0.573198
-0.253293 0.383308 0.855929
-0.257978 0.372462 -0.516521
-0.261152 0.374342 -0.504833
-0.255323 0.379133 -0.499729
-0.249942 0.377213 -0.515878
-0.253347 0.370111 -0.532613
-0.247218 0.375712 -0.525219
-0.257898 0.388574 0.849869
-0.253821 0.399399 0.844306
-0.247144 0.392181 0.853157
-0.258570 0.389206 -0.466508
-0.262526 0.391518 -0.456651
-0.256163 0.396554 -0.450460
-0.250462 0.393512 -0.465989
-0.253111 0.385807 -0.482386
-0.246760 0.391914 -0.474727
-0.260454 0.406583 0.834371
-0.255422 0.416956 0.829670
-0.249760 0.410774 0.838863
-0.261272 0.407246 -0.407428
-0.258671 0.405517 -0.419080
-0.255472 0.413312 -0.401260
-0.250636 0.411319 -0.418704
-0.253912 0.403533 -0.434254
-0.247992 0.409315 -0.429518
-0.261091 0.423127 0.820026
-0.255041 0.433367 0.813802
-0.250394 0.427688 0.824536
-0.261569 0.423900 -0.361133
-0.259490 0.422200 -0.370258
-0.251514 0.427994 -0.369233
-0.254353 0.432924 -0.352019
-0.254370 0.419845 -0.385736
-0.248803 0.425899 -0.380474
-0.259763 0.438996 0.803960
-0.253960 0.448775 0.797050
-0.248960 0.442228 0.807541
-0.257885 0.438012 -0.337646
-0.247089 0.441268 -0.343412
-0.253433 0.442620 -0.332989
-0.258978 0.455270 0.787077
-0.253731 0.464798 0.779797
-0.248124 0.458188 0.790173
-0.257928 0.454936 -0.306819
-0.253449 0.450823 -0.316919
-0.253316 0.459891 -0.302822
-0.247148 0.457683 -0.310849
-0.259304 0.471362 0.766603
-0.254181 0.478218 0.761099
-0.248499 0.475230 0.772281
-0.258897 0.471641 -0.270992
-0.262547 0.473694 -0.262260
-0.256117 0.479559 -0.255871
-0.250830 0.475718 -0.270482
-0.253298 0.467910 -0.286602
-0.247088 0.474128 -0.279583
-0.254977 0.486299 0.746428
-0.260616 0.488671 0.734378
-0.254749 0.498446 0.728859
-0.249814 0.492978 0.742127
-0.255786 0.487834 -0.239897
-0.261941 0.489859 -0.229927
-0.251272 0.492441 -0.234735
-0.255868 0.495581 -0.222189
-0.259644 0.503899 0.718011
-0.253465 0.514388 0.712306
-0.248941 0.508247 0.723658
-0.262841 0.506591 -0.194852
-0.256347 0.504067 -0.204034
-0.251984 0.508500 -0.199107
-0.256335 0.512392 -0.188673
-0.258039 0.520534 0.701003
-0.253602 0.525892 0.697536
-0.247343 0.523348 0.707023
-0.254671 0.520643 -0.175126
-0.254329 0.533956 0.682770
-0.259373 0.536761 0.670041
-0.254295 0.543754 0.665125
-0.248655 0.540747 0.677399
-0.262327 0.539424 -0.116560
-0.260087 0.537901 -0.124509
-0.255141 0.548195 -0.108325
-0.252101 0.543157 -0.124011
-0.254358 0.534863 -0.140050
-0.248774 0.540638 -0.134407
-0.254651 0.528579 -0.156137
-0.254631 0.524609 -0.167652
-0.255128 0.551842 0.649627
-0.260661 0.554246 0.633709
-0.255074 0.560690 0.629416
-0.250064 0.559235 0.644219
-0.259453 0.553663 -0.089364
-0.262482 0.555631 -0.079488
-0.251375 0.558128 -0.089029
-0.256160 0.561060 -0.073232
-0.247901 0.556547 -0.099878
-0.253551 0.566631 0.615073
-0.258242 0.569094 0.604150
-0.253706 0.574978 0.599582
-0.247478 0.572636 0.610085
-0.260199 0.570604 -0.045637
-0.254804 0.568512 -0.057357
-0.254763 0.575158 -0.040170
-0.249450 0.573697 -0.052210
-0.254454 0.583398 0.583805
-0.259563 0.586683 0.572151
-0.254417 0.591660 0.567148
-0.248708 0.589760 0.578080
-0.260236 0.587314 0.003293
-0.254810 0.585162 -0.009252
-0.254723 0.592183 0.008569
-0.249512 0.590263 -0.003964
-0.254687 0.579636 -0.025022
-0.254806 0.597873 0.551536
-0.255146 0.602819 0.535758
-0.260698 0.603857 0.520092
-0.255043 0.608174 0.515149
-0.250042 0.606862 0.531077
-0.256676 0.601166 0.042908
-0.259776 0.603185 0.056028
-0.248612 0.605909 0.042887
-0.254553 0.607757 0.060545
-0.253171 0.599065 0.026900
-0.246869 0.605184 0.034100
-0.254646 0.611489 0.499456
-0.254763 0.614839 0.483757
-0.254778 0.618924 0.468762
-0.260707 0.620512 0.451967
-0.252658 0.624315 0.452422
-0.249431 0.622691 0.464679
-0.262758 0.621368 0.444049
-0.256382 0.625594 0.437830
-0.260949 0.620490 0.120132
-0.258336 0.618906 0.108083
-0.250210 0.623174 0.108180
-0.255219 0.624459 0.124674
-0.253903 0.617432 0.090681
-0.247918 0.622115 0.096266
-0.254738 0.612641 0.074862
-0.254910 0.629952 0.420274
-0.253952 0.634098 0.402719
-0.257836 0.635378 0.384250
-0.247995 0.638584 0.396777
-0.249838 0.639132 0.384698
-0.259034 0.636439 0.368576
-0.250980 0.639320 0.369115
-0.260367 0.636891 0.357344
-0.254957 0.640134 0.352654
-0.261833 0.637356 0.206248
-0.262974 0.637846 0.214963
-0.256466 0.639974 0.221386
-0.253636 0.640235 0.206322
-0.258445 0.636295 0.190413
-0.250277 0.639102 0.190366
-0.253722 0.635026 0.174827
-0.247570 0.638143 0.180734
-0.254773 0.631493 0.157122
-0.254728 0.628280 0.139810
-0.254921 0.643940 0.336939
-0.254887 0.644854 0.321171
-0.254853 0.643084 0.305392
-0.254820 0.642956 0.288926
-0.254815 0.643747 0.271598
-0.254808 0.643040 0.254749
-0.254870 0.641330 0.238861
-0.243142 -0.636647 0.340747
-0.237829 -0.639308 0.336337
-0.237838 -0.635316 0.354875
-0.232311 -0.638670 0.350223
-0.244401 -0.636986 0.305366
-0.236256 -0.640428 0.305295
-0.239160 -0.639841 0.322048
-0.245380 -0.637576 0.317265
-0.244200 -0.636883 0.288827
-0.236055 -0.640345 0.288744
-0.244534 -0.637151 0.271431
-0.236417 -0.640221 0.271640
-0.235561 -0.639998 0.255265
-0.243653 -0.636734 0.254806
-0.242198 -0.635954 0.239206
-0.234110 -0.639622 0.239534
-0.241494 -0.635530 0.222658
-0.233381 -0.639422 0.222918
-0.233198 -0.639271 0.206097
-0.241347 -0.635498 0.206057
-0.232782 -0.639044 0.190044
-0.240953 -0.635410 0.190155
-0.239651 -0.635048 0.174124
-0.231498 -0.638528 0.174107
-0.236590 -0.634266 0.158632
-0.230266 -0.638075 0.164943
-0.238336 -0.624083 0.419719
-0.243887 -0.620560 0.425002
-0.233057 -0.622827 0.432474
-0.238332 -0.619184 0.437336
-0.241345 -0.619552 0.074483
-0.233224 -0.622837 0.074210
-0.238466 -0.624271 0.091701
-0.244164 -0.620745 0.086165
-0.230854 -0.621905 0.064916
-0.236982 -0.617819 0.059557
-0.243951 -0.604104 0.489029
-0.238377 -0.607479 0.484623
-0.233130 -0.606242 0.497874
-0.238301 -0.602981 0.501680
-0.236830 -0.601318 -0.007262
-0.230753 -0.605402 -0.000728
-0.236901 -0.606286 0.010362
-0.241608 -0.603387 0.005405
-0.238080 -0.587260 0.555860
-0.238069 -0.590457 0.547714
-0.237992 -0.585877 -0.055798
-0.232494 -0.589589 -0.050322
-0.237925 -0.591097 -0.039478
-0.243348 -0.587586 -0.044701
-0.237366 -0.575280 0.584301
-0.242285 -0.570554 0.590079
-0.237404 -0.566424 0.599442
-0.231396 -0.572793 0.593132
-0.244474 -0.571658 -0.095699
-0.233655 -0.573332 -0.100762
-0.238699 -0.575389 -0.089426
-0.238678 -0.569840 -0.106551
-0.238191 -0.552424 0.647344
-0.235500 -0.557994 0.631344
-0.232853 -0.556917 0.640746
-0.243543 -0.554759 0.630970
-0.239290 -0.558673 0.616932
-0.245305 -0.555424 0.621840
-0.238105 -0.552281 -0.155248
-0.232718 -0.556992 -0.149245
-0.238116 -0.558840 -0.138811
-0.243548 -0.554698 -0.144543
-0.245164 -0.538820 0.673270
-0.239164 -0.544505 0.666927
-0.234408 -0.541687 0.677854
-0.239189 -0.535615 0.683065
-0.245716 -0.539260 -0.178757
-0.234866 -0.541413 -0.183836
-0.239394 -0.544309 -0.172770
-0.239468 -0.537567 -0.188338
-0.237317 -0.526399 0.698789
-0.242018 -0.521324 0.703794
-0.231249 -0.523488 0.707803
-0.238118 -0.514905 0.714629
-0.244985 -0.506132 0.720942
-0.238873 -0.502285 0.730222
-0.234205 -0.508469 0.725654
-0.237650 -0.502457 -0.269272
-0.231914 -0.507501 -0.262714
-0.237663 -0.509220 -0.252385
-0.242722 -0.505094 -0.257429
-0.236918 -0.493082 0.744832
-0.241697 -0.487882 0.748965
-0.230880 -0.490808 0.754387
-0.237547 -0.481680 0.761294
-0.238012 -0.486936 -0.303958
-0.232556 -0.491224 -0.299003
-0.238037 -0.494138 -0.288265
-0.243389 -0.489345 -0.294721
-0.244264 -0.472859 0.768552
-0.238522 -0.466685 0.776838
-0.233368 -0.475516 0.771105
-0.239400 -0.471208 -0.335176
-0.234735 -0.475794 -0.330238
-0.239334 -0.478805 -0.319921
-0.245593 -0.473648 -0.325559
-0.238087 -0.455618 0.786805
-0.244899 -0.456904 -0.359187
-0.234143 -0.459136 -0.363402
-0.239004 -0.462522 -0.352372
-0.239011 -0.454866 -0.368620
-0.238131 -0.447387 0.794464
-0.238148 -0.438235 0.802998
-0.245871 -0.440931 -0.391600
-0.234258 -0.443282 -0.400808
-0.239575 -0.446919 -0.385230
-0.242377 -0.439143 -0.401108
-0.236905 -0.435638 -0.417201
-0.230715 -0.441512 -0.410308
-0.237904 -0.429599 0.813878
-0.243158 -0.422886 0.819527
-0.237008 -0.415770 0.829249
-0.232285 -0.425737 0.822745
-0.238307 -0.421571 -0.449557
-0.232841 -0.425931 -0.444397
-0.238193 -0.427930 -0.434236
-0.243717 -0.423712 -0.438782
-0.241715 -0.405497 0.835367
-0.230880 -0.408648 0.838423
-0.237009 -0.400018 0.841273
-0.243814 -0.407291 -0.487444
-0.233009 -0.410015 -0.495081
-0.238388 -0.411457 -0.481967
-0.238412 -0.405714 -0.500040
-0.239273 -0.383719 0.850365
-0.243482 -0.390719 -0.538542
-0.232603 -0.393793 -0.546866
-0.238186 -0.395506 -0.532568
-0.238074 -0.388803 -0.551687
-0.245419 -0.374880 0.852696
-0.234607 -0.378328 0.856150
-0.239132 -0.368522 0.859764
-0.242539 -0.373779 -0.580768
-0.234365 -0.378126 -0.581385
-0.239507 -0.381424 -0.567015
-0.245878 -0.375820 -0.571863
-0.230941 -0.376472 -0.590766
-0.237142 -0.370565 -0.596517
-0.237851 -0.356362 0.867859
-0.237915 -0.355120 -0.629804
-0.232263 -0.360807 -0.624024
-0.237930 -0.363069 -0.612798
-0.243105 -0.357957 -0.617855
-0.237829 -0.348134 0.873756
-0.237796 -0.338220 0.881182
-0.239350 -0.341497 -0.666368
-0.234688 -0.345366 -0.661190
-0.239386 -0.347482 -0.648112
-0.245548 -0.343030 -0.654887
-0.237796 -0.330015 0.886483
-0.237775 -0.317998 0.891839
-0.238366 -0.322295 -0.713747
-0.232994 -0.328143 -0.708869
-0.238353 -0.330055 -0.696386
-0.243853 -0.324877 -0.700938
-0.239218 -0.302000 0.898686
-0.242912 -0.307824 -0.733104
-0.232093 -0.312243 -0.739622
-0.237819 -0.314698 -0.728479
-0.237852 -0.302134 -0.745594
-0.245660 -0.293207 0.901048
-0.234715 -0.296822 0.901867
-0.239276 -0.286714 0.905100
-0.243668 -0.292321 -0.751531
-0.232752 -0.296311 -0.756829
-0.239232 -0.286797 -0.763236
-0.238512 -0.268336 0.914766
-0.242335 -0.274576 -0.778984
-0.234147 -0.280986 -0.778986
-0.245735 -0.277386 -0.769479
-0.230780 -0.278627 -0.788360
-0.237121 -0.269119 -0.794707
-0.244325 -0.259381 0.918435
-0.233465 -0.262572 0.918842
-0.238435 -0.253293 0.920910
-0.243417 -0.258103 -0.800700
-0.232616 -0.264074 -0.807230
-0.237723 -0.252951 -0.811330
-0.237738 -0.236008 0.926336
-0.236999 -0.235419 -0.826436
-0.232004 -0.247679 -0.821683
-0.242838 -0.240941 -0.815406
-0.239161 -0.220281 0.931689
-0.236567 -0.219163 -0.842941
-0.231152 -0.230005 -0.837320
-0.242070 -0.224525 -0.831276
-0.245606 -0.211010 0.933451
-0.239281 -0.204619 0.937140
-0.234701 -0.215272 0.934846
-0.237242 -0.203271 -0.857392
-0.231131 -0.213917 -0.853990
-0.241916 -0.207652 -0.849022
-0.237785 -0.186853 0.942254
-0.237085 -0.170493 0.946427
-0.238211 -0.171898 -0.877409
-0.233938 -0.184938 -0.872884
-0.238932 -0.189699 -0.865557
-0.244662 -0.178049 -0.867714
-0.242142 -0.157072 0.947993
-0.237024 -0.152582 0.950917
-0.231292 -0.165055 0.950166
-0.242595 -0.158194 -0.881986
-0.231747 -0.165750 -0.887114
-0.237537 -0.153566 -0.889193
-0.237499 -0.137719 0.953357
-0.237463 -0.121381 0.955606
-0.243431 -0.122611 -0.899401
-0.232210 -0.134429 -0.903523
-0.237811 -0.139406 -0.896467
-0.235287 -0.122500 -0.905649
-0.237483 -0.105059 0.957418
-0.239347 -0.107398 -0.907786
-0.245655 -0.113569 -0.901409
-0.237585 -0.088714 0.959375
-0.237630 -0.072437 0.961070
-0.241390 -0.074228 -0.914786
-0.231835 -0.086529 -0.919469
-0.237531 -0.091311 -0.914038
-0.233347 -0.074114 -0.920481
-0.237557 -0.056278 0.962150
-0.242098 -0.057917 -0.915068
-0.233999 -0.057814 -0.920633
-0.236899 -0.040685 0.963856
-0.234472 -0.041587 -0.920971
-0.242585 -0.041631 -0.915494
-0.241675 -0.023828 0.964472
-0.233589 -0.023716 0.967140
-0.231104 -0.035588 0.966387
-0.235158 -0.025441 -0.922034
-0.243224 -0.025401 -0.916561
-0.241773 -0.007805 0.964573
-0.233698 -0.007716 0.967187
-0.236089 -0.009134 -0.922600
-0.244159 -0.009086 -0.917048
-0.237051 0.007989 0.963348
-0.231285 0.002621 0.966446
-0.236945 0.007308 -0.922418
-0.245066 0.007328 -0.916703
-0.237650 0.024268 0.961629
-0.236438 0.023657 -0.922088
-0.244563 0.023677 -0.915900
-0.237689 0.040589 0.962178
-0.243023 0.039929 -0.914776
-0.234939 0.039902 -0.921657
-0.237672 0.056810 0.960594
-0.240400 0.056119 -0.913100
-0.232287 0.056129 -0.920018
-0.237631 0.072958 0.957766
-0.230302 0.064788 -0.918519
-0.237567 0.071466 -0.909735
-0.237629 0.089150 0.956876
-0.244877 0.078171 -0.901180
-0.234564 0.088642 -0.905700
-0.242717 0.088617 -0.899052
-0.237646 0.105378 0.956506
-0.237774 0.106062 -0.896564
-0.232113 0.101265 -0.903504
-0.237609 0.121743 0.953909
-0.236859 0.137218 0.950714
-0.238045 0.120100 -0.889884
-0.243438 0.124666 -0.882707
-0.232573 0.134019 -0.888035
-0.238061 0.138769 -0.880669
-0.241822 0.142015 0.948213
-0.239197 0.154286 0.946452
-0.231041 0.154351 0.949924
-0.236506 0.169449 0.944398
-0.230141 0.163302 0.949763
-0.237851 0.152626 -0.874089
-0.243049 0.157105 -0.867070
-0.238422 0.170651 -0.862318
-0.232318 0.164969 -0.872287
-0.237940 0.186886 0.939273
-0.244549 0.176339 -0.851823
-0.239111 0.188071 -0.846013
-0.233760 0.182921 -0.856877
-0.239513 0.204685 0.935852
-0.244533 0.193222 -0.834722
-0.233651 0.199257 -0.840961
-0.239641 0.204892 -0.830081
-0.246023 0.211083 0.933157
-0.242585 0.219589 0.931988
-0.234407 0.219613 0.934467
-0.245658 0.210512 -0.819734
-0.234404 0.219621 -0.824985
-0.242554 0.219603 -0.816823
-0.236969 0.234861 0.929515
-0.230723 0.228625 0.933525
-0.236679 0.234186 -0.811187
-0.231211 0.228791 -0.822021
-0.238192 0.252390 0.923961
-0.242159 0.239584 -0.799788
-0.231322 0.245269 -0.805587
-0.236306 0.250403 -0.793564
-0.238158 0.268757 0.919842
-0.241460 0.255644 -0.779064
-0.244959 0.259086 -0.768565
-0.233305 0.263693 -0.778983
-0.238904 0.269473 -0.763184
-0.230427 0.260894 -0.787298
-0.243556 0.274172 0.917460
-0.238144 0.285414 0.915864
-0.232672 0.280106 0.918447
-0.243722 0.274482 -0.751146
-0.237778 0.284595 -0.746360
-0.232869 0.279770 -0.757738
-0.238168 0.301583 0.910126
-0.242663 0.289410 -0.733568
-0.237737 0.295875 -0.728994
-0.231860 0.294300 -0.741507
-0.237529 0.318052 0.903263
-0.239633 0.307518 -0.697783
-0.245918 0.309441 -0.688169
-0.239648 0.315731 -0.682204
-0.235047 0.312205 -0.693605
-0.238414 0.301418 -0.713062
-0.242576 0.323541 0.899447
-0.237500 0.333508 0.896368
-0.231641 0.327442 0.901120
-0.245654 0.325777 -0.654566
-0.239459 0.323889 -0.665652
-0.239546 0.331116 -0.648064
-0.234783 0.328396 -0.660488
-0.237657 0.350834 0.887830
-0.244546 0.341438 -0.619003
-0.238860 0.338944 -0.630814
-0.233717 0.344497 -0.625555
-0.238895 0.346761 -0.613571
-0.242842 0.356320 0.881979
-0.238317 0.367372 0.876702
-0.231913 0.360732 0.885209
-0.243026 0.356964 -0.584312
-0.237968 0.354246 -0.597138
-0.237930 0.361132 -0.579997
-0.232188 0.359736 -0.591684
-0.244716 0.373996 0.867796
-0.238902 0.383576 0.864448
-0.233817 0.378065 0.871952
-0.243200 0.374000 -0.537701
-0.237978 0.371961 -0.550688
-0.232313 0.376286 -0.545049
-0.238076 0.377796 -0.532035
-0.238373 0.366055 -0.566050
-0.238341 0.395029 0.856233
-0.242789 0.390066 -0.485854
-0.237852 0.388132 -0.498662
-0.237821 0.393877 -0.481011
-0.231974 0.392558 -0.492763
-0.238528 0.382652 -0.515365
-0.238395 0.403225 0.850498
-0.237660 0.416302 0.842025
-0.244602 0.407241 -0.439104
-0.238908 0.405144 -0.450054
-0.233751 0.409789 -0.445198
-0.238827 0.412164 -0.434342
-0.238481 0.398920 -0.465972
-0.242619 0.421692 0.835046
-0.237536 0.432156 0.829209
-0.231786 0.425643 0.838780
-0.242802 0.422284 -0.401069
-0.245574 0.423929 -0.390841
-0.239485 0.428430 -0.384829
-0.234687 0.426372 -0.400869
-0.237601 0.419615 -0.417849
-0.231733 0.425207 -0.411617
-0.243329 0.438628 0.818270
-0.238167 0.445006 0.813166
-0.232406 0.442447 0.823128
-0.238405 0.439216 -0.355767
-0.238427 0.434468 -0.368031
-0.238551 0.453126 0.800727
-0.238506 0.460534 0.792336
-0.238403 0.447821 -0.334768
-0.238364 0.454216 -0.321890
-0.238408 0.442855 -0.347151
-0.238452 0.468722 0.783850
-0.238387 0.478207 0.774634
-0.238320 0.472139 -0.292475
-0.238314 0.465999 -0.303734
-0.238351 0.459463 -0.314082
-0.239671 0.487005 0.762729
-0.245974 0.489960 0.753111
-0.238633 0.498548 0.746662
-0.235091 0.493192 0.757985
-0.245821 0.489886 -0.245188
-0.239651 0.487618 -0.254116
-0.239613 0.494691 -0.238457
-0.235018 0.491758 -0.249032
-0.238463 0.481036 -0.269773
-0.238394 0.475845 -0.283464
-0.242187 0.503897 0.734944
-0.237441 0.510606 0.730517
-0.231317 0.507332 0.740759
-0.244338 0.505889 -0.210204
-0.238708 0.503164 -0.219692
-0.238735 0.510270 -0.204404
-0.233452 0.507461 -0.213685
-0.238451 0.519269 0.718039
-0.238480 0.525197 0.710215
-0.245364 0.522586 -0.178417
-0.239348 0.519348 -0.187137
-0.234488 0.524395 -0.181670
-0.239304 0.527473 -0.172457
-0.238553 0.533769 0.698446
-0.244062 0.538057 0.688300
-0.238650 0.543915 0.682782
-0.233173 0.540718 0.692778
-0.238439 0.535715 -0.154927
-0.243890 0.538147 -0.144638
-0.238443 0.542726 -0.138857
-0.233056 0.540544 -0.148868
-0.240028 0.552884 0.667255
-0.246348 0.555668 0.657374
-0.238564 0.564259 0.647836
-0.235518 0.558329 0.662194
-0.241738 0.554133 -0.111403
-0.237152 0.550884 -0.121501
-0.237172 0.557721 -0.105521
-0.230953 0.556045 -0.114740
-0.241285 0.569796 0.631048
-0.230795 0.572444 0.638647
-0.233211 0.573533 0.631422
-0.244568 0.571053 0.620210
-0.238992 0.575165 0.615910
-0.239166 0.569289 -0.072464
-0.245070 0.571545 -0.062360
-0.234167 0.573664 -0.067275
-0.239122 0.576110 -0.056547
-0.238447 0.563066 -0.088950
-0.237627 0.582936 0.599509
-0.242381 0.586734 0.588955
-0.237583 0.591568 0.583588
-0.231488 0.589120 0.593267
-0.240853 0.586176 -0.024474
-0.244294 0.587725 -0.014977
-0.232684 0.589683 -0.024020
-0.238650 0.592821 -0.008693
-0.236800 0.583685 -0.038321
-0.230305 0.588721 -0.031693
-0.238555 0.598446 0.567580
-0.240044 0.603649 0.552987
-0.246466 0.604966 0.543047
-0.240003 0.609155 0.536086
-0.235573 0.606774 0.548543
-0.243206 0.603494 0.022585
-0.237997 0.600936 0.009232
-0.232342 0.605702 0.015376
-0.238071 0.606659 0.027476
-0.238471 0.614955 0.517230
-0.237528 0.618747 0.501079
-0.242970 0.619992 0.484996
-0.234860 0.623273 0.485535
-0.231502 0.621909 0.496508
-0.246092 0.621194 0.475837
-0.239848 0.625487 0.469968
-0.245805 0.621087 0.084724
-0.242358 0.619574 0.074747
-0.234199 0.622950 0.074516
-0.239664 0.624641 0.090817
-0.237224 0.616139 0.060137
-0.230927 0.621684 0.065992
-0.238504 0.609703 0.042745
-0.238630 0.630670 0.452723
-0.237633 0.634634 0.436674
-0.242441 0.635950 0.420206
-0.231520 0.638338 0.431325
-0.234279 0.639264 0.420088
-0.245368 0.637349 0.409533
-0.239347 0.640508 0.403006
-0.242444 0.636514 0.157550
-0.244840 0.637233 0.169774
-0.239054 0.639972 0.174770
-0.234273 0.639055 0.157599
-0.237877 0.635428 0.141110
-0.231987 0.638301 0.146838
-0.238580 0.631489 0.124644
-0.238603 0.628115 0.108329
-0.238516 0.642972 0.385543
-0.238588 0.643636 0.370029
-0.238624 0.645721 0.354184
-0.238576 0.649407 0.337795
-0.238538 0.650513 0.321512
-0.238533 0.649025 0.305289
-0.238500 0.648799 0.288799
-0.238485 0.649587 0.272012
-0.238483 0.648361 0.255564
-0.238494 0.645959 0.239451
-0.238493 0.645231 0.222956
-0.238477 0.645066 0.206420
-0.238492 0.642954 0.190273
-0.220810 -0.634462 0.401879
-0.217087 -0.639300 0.385804
-0.214771 -0.638612 0.396163
-0.225441 -0.635783 0.385426
-0.219357 -0.639877 0.370830
-0.227710 -0.637006 0.370501
-0.222665 -0.640687 0.355359
-0.228998 -0.637536 0.361341
-0.223729 -0.635905 0.141131
-0.215407 -0.638428 0.141061
-0.221134 -0.639205 0.158556
-0.226498 -0.636826 0.153846
-0.213793 -0.638045 0.124924
-0.222108 -0.635385 0.124890
-0.219938 -0.634758 0.110128
-0.213302 -0.637952 0.116732
-0.228724 -0.621137 0.442970
-0.222465 -0.625124 0.436097
-0.217317 -0.623064 0.447955
-0.222402 -0.620076 0.453307
-0.225379 -0.620370 0.054375
-0.214240 -0.621788 0.048579
-0.220448 -0.622878 0.058559
-0.220479 -0.618804 0.042818
-0.222506 -0.607764 0.502864
-0.228638 -0.604767 0.508549
-0.217446 -0.605983 0.512469
-0.222388 -0.603023 0.517484
-0.224690 -0.603908 -0.011406
-0.213707 -0.605228 -0.014902
-0.220104 -0.606506 -0.006090
-0.220090 -0.601582 -0.021802
-0.226055 -0.586712 0.566653
-0.217522 -0.590086 0.565329
-0.213773 -0.589156 0.573658
-0.220322 -0.582846 0.581476
-0.229497 -0.588557 0.559054
-0.222917 -0.592262 0.551988
-0.221603 -0.586057 -0.072644
-0.216033 -0.589543 -0.067566
-0.221535 -0.591009 -0.056393
-0.227157 -0.587765 -0.061400
-0.225474 -0.569115 0.604142
-0.220548 -0.574886 0.599239
-0.220635 -0.567397 0.616513
-0.214242 -0.572959 0.610762
-0.228174 -0.571586 -0.112053
-0.217038 -0.573466 -0.118007
-0.222197 -0.575428 -0.106612
-0.222246 -0.569771 -0.122540
-0.219995 -0.558282 0.646569
-0.224504 -0.554538 0.652668
-0.220024 -0.551712 0.662872
-0.213323 -0.555911 0.655196
-0.220633 -0.551764 -0.171198
-0.214437 -0.556245 -0.165353
-0.220675 -0.558195 -0.155022
-0.225667 -0.554582 -0.160545
-0.221064 -0.543008 0.681763
-0.226229 -0.537841 0.688121
-0.214983 -0.540025 0.689777
-0.221085 -0.534145 0.696783
-0.228913 -0.539064 -0.194636
-0.217773 -0.541150 -0.200134
-0.222610 -0.543709 -0.189243
-0.222704 -0.536895 -0.204819
-0.221842 -0.525847 0.709845
-0.221792 -0.519236 0.718628
-0.223060 -0.521311 -0.238084
-0.218331 -0.525369 -0.234383
-0.223010 -0.528702 -0.222102
-0.229467 -0.522837 -0.227881
-0.220052 -0.510151 0.731864
-0.224376 -0.504742 0.737124
-0.213378 -0.506697 0.740238
-0.219894 -0.500758 0.745925
-0.220618 -0.501575 -0.285912
-0.214513 -0.507106 -0.278366
-0.220775 -0.509012 -0.268503
-0.225628 -0.505118 -0.273975
-0.221443 -0.492528 0.757460
-0.221370 -0.486265 0.764812
-0.226572 -0.489154 -0.309416
-0.215406 -0.491001 -0.314846
-0.221167 -0.493114 -0.304709
-0.221243 -0.486429 -0.319820
-0.221384 -0.478035 0.772789
-0.223021 -0.465044 0.782492
-0.222075 -0.470275 -0.352433
-0.216722 -0.475262 -0.348040
-0.222031 -0.478107 -0.336727
-0.227907 -0.472952 -0.341544
-0.229762 -0.457390 0.787417
-0.218455 -0.459196 0.787972
-0.223258 -0.449817 0.795880
-0.228504 -0.456839 -0.373933
-0.217434 -0.459214 -0.379093
-0.222466 -0.462019 -0.368539
-0.222511 -0.454789 -0.384215
-0.228085 -0.440394 0.804231
-0.216764 -0.442269 0.804883
-0.222085 -0.436830 0.811646
-0.220544 -0.435992 -0.434248
-0.214167 -0.441585 -0.429233
-0.220530 -0.443038 -0.417461
-0.225389 -0.438931 -0.422270
-0.221673 -0.418938 0.832465
-0.221637 -0.428042 0.823757
-0.224899 -0.422094 -0.466443
-0.216591 -0.426301 -0.467160
-0.222013 -0.428438 -0.450289
-0.227712 -0.423775 -0.455252
-0.214406 -0.425281 -0.478122
-0.220735 -0.420305 -0.482792
-0.220581 -0.398624 0.848490
-0.221704 -0.410719 0.839618
-0.229508 -0.408295 -0.505691
-0.218275 -0.411006 -0.514910
-0.223118 -0.413554 -0.499749
-0.226601 -0.406696 -0.515018
-0.214988 -0.409450 -0.525646
-0.220980 -0.403963 -0.532496
-0.225322 -0.389273 0.853146
-0.214290 -0.392221 0.855305
-0.220524 -0.383707 0.858554
-0.222687 -0.390126 -0.568432
-0.217758 -0.394286 -0.564104
-0.222641 -0.396634 -0.551860
-0.228866 -0.391908 -0.557836
-0.223055 -0.367309 0.867897
-0.228256 -0.374640 -0.601728
-0.216575 -0.377827 -0.614519
-0.222298 -0.379683 -0.598010
-0.224918 -0.371796 -0.613765
-0.221022 -0.367263 -0.628598
-0.214010 -0.376347 -0.622402
-0.229454 -0.358887 0.870545
-0.218503 -0.361927 0.872600
-0.222341 -0.351074 0.878128
-0.225124 -0.355799 -0.646617
-0.216826 -0.362540 -0.646338
-0.228041 -0.358070 -0.634868
-0.214396 -0.360392 -0.657104
-0.222058 -0.351764 -0.665382
-0.226237 -0.341351 0.883822
-0.220952 -0.335283 0.888121
-0.215215 -0.343289 0.885263
-0.229829 -0.343597 -0.673073
-0.219200 -0.347509 -0.681957
-0.227580 -0.341756 -0.681574
-0.215930 -0.344946 -0.693913
-0.221633 -0.339278 -0.698152
-0.220154 -0.316551 0.896952
-0.225852 -0.323496 -0.730324
-0.217467 -0.329316 -0.731137
-0.222938 -0.332401 -0.714438
-0.229256 -0.326207 -0.720364
-0.214099 -0.327306 -0.740573
-0.220437 -0.317844 -0.745064
-0.224873 -0.307786 0.899961
-0.220144 -0.302004 0.902736
-0.213866 -0.310126 0.900749
-0.226665 -0.307380 -0.750377
-0.215652 -0.312596 -0.756097
-0.221577 -0.302290 -0.761828
-0.219811 -0.283620 0.911510
-0.221890 -0.289703 -0.779601
-0.216510 -0.297363 -0.773922
-0.227460 -0.292172 -0.767791
-0.224434 -0.273530 0.915743
-0.219848 -0.268326 0.919012
-0.213201 -0.277119 0.917085
-0.221540 -0.269701 -0.811812
-0.215022 -0.279293 -0.806398
-0.221054 -0.281868 -0.794959
-0.226220 -0.274919 -0.799710
-0.221312 -0.252398 0.923958
-0.228022 -0.258807 -0.817433
-0.216862 -0.264393 -0.823192
-0.221526 -0.253159 -0.827847
-0.219846 -0.234498 0.930114
-0.220058 -0.235557 -0.843020
-0.215111 -0.247740 -0.837314
-0.226137 -0.241087 -0.832471
-0.224473 -0.226217 0.932574
-0.219894 -0.220303 0.935427
-0.213369 -0.228056 0.933309
-0.225116 -0.224727 -0.848643
-0.214017 -0.230196 -0.853376
-0.219520 -0.219299 -0.859476
-0.221320 -0.203237 0.941099
-0.217612 -0.204738 -0.874305
-0.213810 -0.213581 -0.870913
-0.226064 -0.204741 -0.866344
-0.220667 -0.185945 0.946708
-0.223221 -0.190476 -0.879193
-0.229815 -0.196101 -0.869709
-0.225726 -0.175971 0.948722
-0.220593 -0.170504 0.950830
-0.214765 -0.179931 0.949869
-0.220908 -0.170572 -0.892732
-0.216792 -0.185081 -0.887716
-0.227801 -0.176846 -0.883482
-0.221088 -0.154093 0.953785
-0.217148 -0.155401 -0.904778
-0.214085 -0.164424 -0.901750
-0.225399 -0.155091 -0.898255
-0.221018 -0.137749 0.956555
-0.221273 -0.138746 -0.910610
-0.228839 -0.145256 -0.901122
-0.220982 -0.121453 0.958908
-0.215758 -0.123101 -0.921087
-0.213718 -0.132281 -0.920272
-0.224076 -0.122700 -0.914281
-0.220998 -0.105128 0.961034
-0.227601 -0.106342 -0.916354
-0.219319 -0.106745 -0.922591
-0.220400 -0.088416 0.963758
