-0.340446 -0.783852 -0.342166
-0.342487 -0.768039 0.292294
-0.336584 -0.764799 0.302081
-0.331392 -0.771005 0.296989
-0.339337 -0.749810 0.323020
-0.334693 -0.755771 0.317671
-0.334758 -0.744429 0.331232
-0.328233 -0.752993 0.326418
-0.337117 -0.744698 -0.402481
-0.330555 -0.753683 -0.395065
-0.336271 -0.757640 -0.386577
-0.341622 -0.751104 -0.392463
-0.336159 -0.733530 0.340626
-0.337560 -0.731345 -0.418646
-0.332652 -0.738266 -0.413058
-0.343676 -0.735658 -0.409530
-0.336125 -0.725332 0.348484
-0.336069 -0.716654 0.356800
-0.336040 -0.699135 0.371538
-0.336039 -0.708448 0.363656
-0.337196 -0.679378 0.387920
-0.336099 -0.690909 0.378902
-0.343458 -0.669843 0.392092
-0.336243 -0.662612 0.400298
-0.332402 -0.674145 0.394632
-0.340073 -0.650487 0.405546
-0.335090 -0.645510 0.411678
-0.328984 -0.655384 0.409242
-0.336570 -0.630047 0.420629
-0.342573 -0.619675 0.424018
-0.331458 -0.624645 0.426704
-0.336717 -0.613916 0.429778
-0.335313 -0.613535 -0.528195
-0.328841 -0.622002 -0.525521
-0.335239 -0.628456 -0.518928
-0.339889 -0.618905 -0.523356
-0.336970 -0.597851 0.438074
-0.342983 -0.587560 0.440255
-0.331888 -0.592899 0.443001
-0.336845 -0.581619 0.446159
-0.336520 -0.565495 0.454497
-0.342502 -0.553393 0.456932
-0.336678 -0.547965 0.462083
-0.331318 -0.560652 0.459327
-0.335444 -0.531346 0.469333
-0.337059 -0.532620 -0.577493
-0.331888 -0.541818 -0.574289
-0.337107 -0.547599 -0.569454
-0.342884 -0.538629 -0.572964
-0.340442 -0.518609 0.471455
-0.335319 -0.513910 0.476249
-0.329309 -0.525589 0.474921
-0.336128 -0.498839 0.482590
-0.336357 -0.498896 -0.593106
-0.330547 -0.508832 -0.592102
-0.336320 -0.514716 -0.586638
-0.341704 -0.504130 -0.589440
-0.337002 -0.484024 0.488652
-0.343017 -0.471809 0.489731
-0.336921 -0.466217 0.494597
-0.331993 -0.479625 0.493105
-0.335215 -0.449234 0.501304
-0.336932 -0.450292 -0.610777
-0.331707 -0.461921 -0.608980
-0.337066 -0.466967 -0.604000
-0.342815 -0.455735 -0.606276
-0.341051 -0.433399 0.505156
-0.332719 -0.433417 0.509287
-0.329093 -0.443489 0.507202
-0.344148 -0.424245 0.507682
-0.337662 -0.418120 0.510891
-0.336114 -0.400973 0.512211
-0.332006 -0.401486 -0.624618
-0.330200 -0.414450 -0.623042
-0.336091 -0.418995 -0.619377
-0.340410 -0.401343 -0.620735
-0.336077 -0.384773 0.515018
-0.343069 -0.385136 -0.622238
-0.334624 -0.385280 -0.625808
-0.336244 -0.369424 0.521322
-0.344784 -0.377045 -0.622767
-0.338111 -0.370867 -0.625757
-0.340936 -0.352182 0.522506
-0.332554 -0.352103 0.526871
-0.330757 -0.364685 0.526477
-0.340698 -0.335986 0.520584
-0.332274 -0.335763 0.525607
-0.341650 -0.323577 0.521010
-0.336115 -0.318516 0.526369
-0.336344 -0.303140 0.531526
-0.336369 -0.286777 0.532913
-0.336295 -0.270360 0.531423
-0.344781 -0.281136 -0.622975
-0.338188 -0.287325 -0.625891
-0.342934 -0.271555 -0.622325
-0.334519 -0.271662 -0.626408
-0.336345 -0.254052 0.533678
-0.332812 -0.255493 -0.625504
-0.341162 -0.255392 -0.620811
-0.335202 -0.238097 0.538132
-0.340440 -0.239337 -0.619131
-0.332172 -0.239408 -0.624321
-0.337546 -0.221445 0.537329
-0.328805 -0.232722 0.543466
-0.329146 -0.221105 0.543399
-0.330457 -0.227733 -0.623691
-0.336278 -0.222478 -0.618971
-0.337319 -0.204839 0.536776
-0.328854 -0.204354 0.542748
-0.335044 -0.187270 0.537893
-0.328416 -0.191332 0.542539
-0.336503 -0.172549 0.536019
-0.344623 -0.183777 -0.606608
-0.338096 -0.189599 -0.611291
-0.342982 -0.173890 -0.604952
-0.334710 -0.173942 -0.610662
-0.336447 -0.156187 0.534961
-0.337025 -0.156261 -0.604071
-0.331693 -0.161024 -0.609348
-0.336393 -0.139850 0.533990
-0.336475 -0.123699 0.533042
-0.336552 -0.107543 0.531739
-0.338147 -0.123894 -0.596054
-0.344629 -0.117851 -0.590123
-0.334576 -0.108453 -0.594799
-0.342830 -0.108404 -0.588611
-0.338024 -0.090263 0.527957
-0.336884 -0.091080 -0.586909
-0.331499 -0.096087 -0.592967
-0.344617 -0.084345 0.523109
-0.343453 -0.075339 0.522557
-0.335042 -0.075072 0.526951
-0.341423 -0.058827 0.522794
-0.333048 -0.058635 0.527489
-0.339344 -0.042458 0.521580
-0.330977 -0.042316 0.526673
-0.337540 -0.059469 -0.578653
-0.343568 -0.054136 -0.572223
-0.332534 -0.042885 -0.576730
-0.340773 -0.042827 -0.569457
-0.335537 -0.025999 0.518697
-0.329310 -0.031204 0.524394
-0.335462 -0.027726 -0.565752
-0.329813 -0.032887 -0.575331
-0.336572 -0.009882 0.514422
-0.340873 -0.022553 -0.551027
-0.343349 -0.019594 -0.540452
-0.336731 -0.008451 -0.550971
-0.343361 -0.014330 -0.540351
-0.330129 -0.013494 -0.561257
-0.337445 0.005493 0.513187
-0.343530 0.010190 0.507946
-0.340999 0.023007 0.504881
-0.332642 0.023072 0.511855
-0.336906 0.005119 -0.547187
-0.342511 0.009775 -0.539086
-0.336926 0.023749 -0.536783
-0.331497 0.018866 -0.544829
-0.336929 0.040822 0.499811
-0.329921 0.035882 0.507945
-0.343976 0.045786 0.489999
-0.342395 0.055760 0.488731
-0.334028 0.055736 0.497288
-0.344189 0.046500 -0.508152
-0.341173 0.042735 -0.518328
-0.344204 0.050486 -0.508031
-0.336935 0.055866 -0.517663
-0.335834 0.037628 -0.529779
-0.329702 0.050303 -0.527487
-0.339937 0.072119 0.487047
-0.331618 0.072138 0.495655
-0.336470 0.088203 0.484955
-0.329632 0.083341 0.494662
-0.336349 0.070626 -0.512926
-0.341550 0.075224 -0.504823
-0.336262 0.087796 -0.500013
-0.330594 0.082519 -0.510399
-0.343318 0.093057 0.475009
-0.340651 0.104830 0.472163
-0.332278 0.104890 0.481718
-0.341960 0.092988 -0.489311
-0.330950 0.099124 -0.495645
-0.337098 0.104821 -0.484765
-0.336618 0.121939 0.468175
-0.329705 0.116757 0.478932
-0.343285 0.110479 -0.474550
-0.337369 0.122786 -0.472661
-0.332250 0.118352 -0.479756
-0.343446 0.127132 0.457070
-0.340994 0.138818 0.451917
-0.332006 0.137643 0.463696
-0.329191 0.147759 0.460168
-0.333409 0.153523 0.451026
-0.344490 0.145062 0.443257
-0.342513 0.155074 0.436876
-0.336371 0.136926 -0.464659
-0.341587 0.141988 -0.456205
-0.336040 0.153262 -0.450839
-0.330614 0.147560 -0.461144
-0.334291 0.172004 0.436415
-0.330809 0.167604 0.444979
-0.344348 0.161267 0.427577
-0.342237 0.170350 0.424833
-0.341457 0.158942 -0.439329
-0.335489 0.168959 -0.434045
-0.330444 0.163782 -0.445573
-0.339907 0.187191 0.418830
-0.330944 0.186784 0.432944
-0.340540 0.174099 -0.423412
-0.336240 0.185520 -0.418392
-0.329531 0.179673 -0.428673
-0.333104 0.203157 0.419401
-0.329322 0.197674 0.429765
-0.344055 0.192933 0.409501
-0.341830 0.203153 0.406118
-0.342969 0.191350 -0.408369
-0.337212 0.203359 -0.402112
-0.331969 0.197582 -0.413101
-0.336810 0.220232 0.401061
-0.330553 0.215972 0.413098
-0.342436 0.209109 -0.391254
-0.331468 0.213138 -0.395680
-0.336257 0.219006 -0.384934
-0.343060 0.224482 0.388370
-0.337103 0.236465 0.385052
-0.331966 0.233241 0.396810
-0.341043 0.224856 -0.373125
-0.336015 0.231758 -0.368750
-0.330038 0.228647 -0.378982
-0.342784 0.240645 0.369778
-0.334760 0.253763 0.371102
-0.331128 0.249205 0.382231
-0.344694 0.243955 0.362424
-0.342524 0.252373 0.358952
-0.336711 0.240295 -0.357823
-0.336897 0.269728 0.353097
-0.330806 0.265576 0.366399
-0.343303 0.256823 -0.326671
-0.337351 0.254816 -0.338740
-0.332309 0.263927 -0.334053
-0.336655 0.268655 -0.320677
-0.336687 0.248004 -0.349526
-0.342986 0.273867 0.340621
-0.339499 0.285413 0.334664
-0.331047 0.285177 0.347052
-0.341011 0.273326 -0.307966
-0.335977 0.280167 -0.303507
-0.329976 0.277995 -0.315240
-0.331209 0.297551 0.334431
-0.328298 0.293469 0.342722
-0.343232 0.291037 0.323941
-0.337574 0.302898 0.319980
-0.342877 0.291757 -0.276287
-0.337111 0.288410 -0.288210
-0.331876 0.296339 -0.282871
-0.336722 0.301097 -0.270535
-0.342983 0.306928 0.308032
-0.338814 0.317180 0.303157
-0.330968 0.318002 0.315019
-0.341555 0.305867 -0.257509
-0.330640 0.312284 -0.264196
-0.335099 0.316733 -0.251881
-0.330376 0.329163 0.303366
-0.328176 0.326224 0.311363
-0.342172 0.322093 0.291058
-0.336290 0.334149 0.286066
-0.342774 0.323916 -0.227047
-0.339325 0.320703 -0.238436
-0.336950 0.331075 -0.222274
-0.331074 0.327960 -0.238623
-0.328585 0.326337 -0.246738
-0.342130 0.339047 0.269266
-0.333272 0.350747 0.268178
-0.330394 0.345227 0.280985
-0.344578 0.342268 0.260585
-0.341034 0.351402 0.254018
-0.336504 0.338102 -0.207638
-0.342033 0.340143 -0.193381
-0.336529 0.346737 -0.188754
-0.330965 0.344795 -0.203128
-0.331974 0.363451 0.252560
-0.329193 0.360028 0.262078
-0.343286 0.357264 0.241446
-0.336528 0.367517 0.237168
-0.343515 0.357727 -0.144076
-0.341017 0.355832 -0.155874
-0.332750 0.362568 -0.155995
-0.335994 0.366581 -0.137246
-0.335955 0.353491 -0.173281
-0.330004 0.360200 -0.168240
-0.339941 0.370219 0.220095
-0.329779 0.377614 0.233189
-0.331629 0.379917 0.220307
-0.342173 0.372694 0.203986
-0.332704 0.384267 0.202164
-0.343791 0.374415 0.193080
-0.338443 0.382359 0.187798
-0.341901 0.372603 -0.091377
-0.343554 0.373982 -0.077769
-0.333640 0.380670 -0.091534
-0.337431 0.381378 -0.073368
-0.339546 0.371215 -0.107513
-0.331274 0.378021 -0.107783
-0.337474 0.369328 -0.123135
-0.329252 0.376144 -0.122981
-0.328498 0.375486 -0.130372
-0.328145 0.391903 0.195498
-0.329276 0.393028 0.187687
-0.339188 0.385274 0.172186
-0.330932 0.394649 0.172209
-0.339832 0.386346 0.155260
-0.331553 0.395187 0.155184
-0.340305 0.387058 0.138642
-0.332002 0.395555 0.138285
-0.341226 0.387789 0.123445
-0.332960 0.396596 0.123346
-0.342040 0.388530 0.107746
-0.333782 0.397490 0.107808
-0.342624 0.389440 0.090453
-0.334330 0.397630 0.090057
-0.342990 0.390138 0.073035
-0.334680 0.397246 0.072500
-0.342478 0.389880 0.056157
-0.334208 0.396332 0.056013
-0.341825 0.389283 0.039837
-0.333560 0.395691 0.039782
-0.340823 0.388347 0.023891
-0.332512 0.394842 0.023491
-0.340328 0.387632 0.008181
-0.332034 0.394628 0.007877
-0.340800 0.387529 -0.007420
-0.332562 0.395640 -0.007226
-0.340158 0.386861 -0.023662
-0.331887 0.395061 -0.023687
-0.338348 0.385618 -0.040836
-0.330039 0.393197 -0.041561
-0.335151 0.385791 -0.059914
-0.328710 0.392115 -0.056043
-0.321266 -0.865413 0.088086
-0.327582 -0.867602 0.080506
-0.327782 -0.867576 -0.014540
-0.318059 -0.868321 -0.023558
-0.321394 -0.868947 -0.008483
-0.326136 -0.867153 -0.023498
-0.315639 -0.868496 -0.040729
-0.323705 -0.866200 -0.041257
-0.313359 -0.868061 -0.057945
-0.321422 -0.865703 -0.058527
-0.318181 -0.865556 -0.073665
-0.311847 -0.867623 -0.066913
-0.319777 -0.850712 0.130498
-0.319805 -0.854509 0.122941
-0.325017 -0.850442 -0.179060
-0.314233 -0.851730 -0.183545
-0.319759 -0.852817 -0.173026
-0.319679 -0.849105 -0.189726
-0.322390 -0.833669 0.176770
-0.318034 -0.836372 0.171508
-0.318053 -0.830761 0.185866
-0.311649 -0.834819 0.179639
-0.327662 -0.818379 0.211495
-0.321234 -0.822377 0.205239
-0.321199 -0.815981 0.220397
-0.316909 -0.819695 0.214893
-0.319696 -0.803829 0.249252
-0.319742 -0.799445 0.257283
-0.319648 -0.780536 0.287055
-0.319696 -0.786507 0.278830
-0.319630 -0.772335 0.299874
-0.319675 -0.767544 0.307833
-0.320046 -0.763624 -0.384905
-0.314623 -0.769684 -0.378562
-0.320104 -0.772990 -0.370775
-0.325410 -0.768409 -0.377118
-0.319800 -0.754241 0.327795
-0.320977 -0.743724 0.337470
-0.327157 -0.736104 0.342925
-0.321439 -0.728618 0.352154
-0.316372 -0.737661 0.344734
-0.326505 -0.719507 0.359927
-0.319979 -0.711890 0.367732
-0.315724 -0.721114 0.361023
-0.324214 -0.702173 0.374175
-0.319224 -0.696178 0.381233
-0.313513 -0.704273 0.376257
-0.318880 -0.696106 -0.464874
-0.312602 -0.703695 -0.460311
-0.318867 -0.708277 -0.452808
-0.323359 -0.702046 -0.458817
-0.319775 -0.685343 0.390486
-0.319750 -0.665621 0.405062
-0.319805 -0.677139 0.396718
-0.319155 -0.645202 0.418990
-0.319691 -0.657435 0.410723
-0.324185 -0.635557 0.423416
-0.319202 -0.629993 0.428275
-0.313470 -0.638981 0.425485
-0.320155 -0.612902 0.437643
-0.325816 -0.603758 0.441144
-0.315018 -0.607056 0.442902
-0.320130 -0.597844 0.445462
-0.320568 -0.580897 0.453911
-0.326458 -0.571644 0.456914
-0.320616 -0.565456 0.461501
-0.315839 -0.575493 0.458644
-0.320716 -0.565839 -0.562544
-0.315628 -0.573326 -0.558998
-0.320697 -0.579656 -0.554251
-0.326294 -0.572221 -0.558752
-0.319033 -0.547064 0.470402
-0.323860 -0.536534 0.473367
-0.318938 -0.531264 0.476645
-0.313111 -0.540972 0.475232
-0.319662 -0.515204 0.482263
-0.321348 -0.499874 0.488866
-0.327895 -0.490551 0.491247
-0.317076 -0.495151 0.492968
-0.321462 -0.484025 0.495907
-0.318997 -0.465387 0.502966
-0.323707 -0.454413 0.504852
-0.318940 -0.449308 0.508305
-0.313090 -0.459515 0.507145
-0.319844 -0.433438 0.513002
-0.319907 -0.417122 0.516682
-0.319786 -0.400974 0.517700
-0.320532 -0.385039 0.520768
-0.326435 -0.375447 0.522894
-0.315756 -0.379776 0.524376
-0.320591 -0.369378 0.527287
-0.319796 -0.352021 0.531144
-0.319688 -0.335567 0.530158
-0.319719 -0.319134 0.532561
-0.319866 -0.302790 0.538443
-0.319885 -0.286353 0.540251
-0.319818 -0.269758 0.538764
-0.320647 -0.254252 0.540461
-0.326661 -0.243377 0.542379
-0.315773 -0.249345 0.543062
-0.320765 -0.237807 0.544015
-0.319963 -0.221044 0.544963
-0.319842 -0.204280 0.544668
-0.320098 -0.222467 -0.624760
-0.325216 -0.216643 -0.622726
-0.314502 -0.211749 -0.624493
-0.320033 -0.206331 -0.620902
-0.321449 -0.186914 0.543686
-0.327953 -0.180830 0.542843
-0.326040 -0.172232 0.542195
-0.317909 -0.172220 0.543248
-0.325405 -0.155773 0.541383
-0.317315 -0.155716 0.543064
-0.325643 -0.139326 0.540647
-0.317593 -0.139219 0.543115
-0.320719 -0.156320 -0.610537
-0.326236 -0.149981 -0.607840
-0.320716 -0.140396 -0.606378
-0.315571 -0.145460 -0.608873
-0.322465 -0.123329 0.539733
-0.314366 -0.123273 0.542560
-0.318548 -0.108510 0.539418
-0.312063 -0.114803 0.542026
-0.320069 -0.090918 0.537052
-0.320064 -0.074671 0.534822
-0.320397 -0.093971 -0.593965
-0.320352 -0.085593 -0.589954
-0.320128 -0.058533 0.533234
-0.320176 -0.042336 0.530756
-0.320914 -0.025909 0.526278
-0.326716 -0.020343 0.522516
-0.324590 -0.009823 0.521626
-0.316552 -0.009821 0.525114
-0.320402 -0.031763 -0.575971
-0.320250 -0.023482 -0.566866
-0.319760 0.007784 0.522911
-0.314096 0.002953 0.525398
-0.318751 -0.008850 -0.554315
-0.325431 -0.013494 -0.561234
-0.313461 -0.001775 -0.558724
-0.313462 -0.002113 -0.558744
-0.319466 0.004743 -0.554788
-0.320196 0.023015 0.518826
-0.321576 0.040488 0.511219
-0.320381 0.020698 -0.545810
-0.320408 0.029008 -0.540598
-0.327781 0.046826 0.506441
-0.325384 0.055681 0.505172
-0.317355 0.055638 0.509729
-0.319811 0.072923 0.504526
-0.314112 0.067951 0.509433
-0.325775 0.050312 -0.527492
-0.320434 0.055713 -0.523366
-0.320697 0.088662 0.498528
-0.326395 0.094246 0.492467
-0.320715 0.105361 0.489924
-0.315611 0.100207 0.495912
-0.320406 0.084651 -0.511859
-0.320413 0.092964 -0.505315
-0.321116 0.121806 0.482313
-0.320398 0.109100 -0.490066
-0.320377 0.100821 -0.497327
-0.327099 0.127651 0.475960
-0.323491 0.137616 0.472218
-0.315379 0.137607 0.478534
-0.321959 0.122758 -0.481478
-0.328454 0.129300 -0.476426
-0.321986 0.137493 -0.472333
-0.317656 0.131922 -0.477800
-0.319377 0.152329 0.465989
-0.312347 0.145984 0.475824
-0.326384 0.158644 0.455854
-0.324089 0.171982 0.450012
-0.314974 0.170357 0.459855
-0.320385 0.157981 -0.455339
-0.320393 0.149714 -0.463119
-0.312462 0.178954 0.457910
-0.316704 0.185383 0.450157
-0.328299 0.178538 0.441742
-0.325720 0.186773 0.440274
-0.320363 0.175039 -0.439899
-0.320336 0.166781 -0.447364
-0.320171 0.203277 0.435320
-0.314056 0.197965 0.445648
-0.323832 0.190604 -0.424412
-0.319207 0.185796 -0.430671
-0.318624 0.201922 -0.417249
-0.313081 0.195321 -0.426667
-0.326277 0.208578 0.425190
-0.321496 0.221041 0.418490
-0.315461 0.215179 0.429516
-0.324160 0.208521 -0.406980
-0.319417 0.215490 -0.401461
-0.313394 0.211926 -0.410444
-0.327495 0.226909 0.407869
-0.324798 0.237602 0.401537
-0.315860 0.235962 0.412077
-0.320353 0.224325 -0.389357
-0.312478 0.244681 0.409339
-0.316407 0.248360 0.401132
-0.328244 0.244170 0.391935
-0.322628 0.254695 0.387985
-0.328268 0.244001 -0.362119
-0.321852 0.240303 -0.370415
-0.322589 0.253312 -0.354186
-0.317478 0.246378 -0.364975
-0.320322 0.231259 -0.381439
-0.327787 0.260127 0.377343
-0.324843 0.270135 0.370461
-0.316194 0.268785 0.381510
-0.327716 0.260220 -0.344964
-0.316937 0.261905 -0.346501
-0.321491 0.266518 -0.338422
-0.312608 0.277704 0.376868
-0.315825 0.283972 0.366955
-0.327841 0.276493 0.360491
-0.324437 0.285160 0.355664
-0.320250 0.275213 -0.326400
-0.318330 0.299360 0.348931
-0.312757 0.294311 0.360298
-0.323625 0.291426 -0.294710
-0.319042 0.287916 -0.303734
-0.312831 0.293740 -0.297278
-0.318582 0.300508 -0.287355
-0.320244 0.279793 -0.318472
-0.324981 0.305749 0.334501
-0.313098 0.311318 0.344348
-0.316629 0.317289 0.335037
-0.328245 0.309792 0.326225
-0.325074 0.318009 0.323123
-0.324354 0.307265 -0.276137
-0.319506 0.313964 -0.270186
-0.313521 0.310526 -0.280110
-0.318669 0.332535 0.317765
-0.313254 0.327919 0.330361
-0.320312 0.322671 -0.256758
-0.324180 0.337349 0.302979
-0.313315 0.344615 0.312401
-0.315509 0.350369 0.301249
-0.326980 0.341035 0.292962
-0.323162 0.350739 0.286319
-0.321240 0.339553 -0.223115
-0.327268 0.342174 -0.214123
-0.321155 0.347389 -0.207787
-0.316537 0.344406 -0.217998
-0.320257 0.332359 -0.238260
-0.320279 0.327636 -0.249041
-0.312367 0.359711 0.294876
-0.314696 0.363141 0.285633
-0.326051 0.356176 0.273065
-0.320017 0.367383 0.269478
-0.326157 0.357724 -0.179562
-0.320464 0.355377 -0.190659
-0.320532 0.363053 -0.173604
-0.315335 0.360739 -0.185227
-0.325249 0.371650 0.252864
-0.316403 0.383711 0.252904
-0.313952 0.378311 0.266295
-0.327653 0.374852 0.243723
-0.323250 0.383287 0.238207
-0.319558 0.370680 -0.155573
-0.324560 0.373497 -0.141476
-0.319590 0.377530 -0.137193
-0.313700 0.376171 -0.149588
-0.314260 0.394346 0.237494
-0.312444 0.392472 0.247262
-0.324946 0.388106 0.220467
-0.316820 0.397180 0.220443
-0.326634 0.390142 0.206526
-0.319398 0.399537 0.201824
-0.326827 0.391042 -0.075257
-0.328218 0.391808 -0.067095
-0.318713 0.395201 -0.075120
-0.321745 0.396058 -0.060316
-0.323399 0.388870 -0.091296
-0.315309 0.393365 -0.090821
-0.319081 0.386645 -0.106330
-0.312908 0.392240 -0.100046
-0.320259 0.381414 -0.122617
-0.321196 0.401229 0.187788
-0.312152 0.408591 0.197172
-0.313075 0.409561 0.187929
-0.322457 0.402839 0.172297
-0.314322 0.410756 0.172401
-0.322893 0.403377 0.155393
-0.314801 0.411178 0.155815
-0.323206 0.403748 0.138476
-0.315145 0.411501 0.139168
-0.324233 0.404785 0.123434
-0.316115 0.412283 0.123635
-0.325164 0.405677 0.107789
-0.316996 0.412900 0.107551
-0.325369 0.405816 0.089770
-0.317228 0.413220 0.089844
-0.324892 0.405450 0.072151
-0.316803 0.413140 0.072463
-0.323836 0.404545 0.055938
-0.315756 0.412350 0.056115
-0.323042 0.403892 0.039806
-0.314932 0.411379 0.040030
-0.322209 0.403025 0.023624
-0.314132 0.410376 0.024129
-0.321697 0.402830 0.007952
-0.313616 0.409698 0.008288
-0.321604 0.403837 -0.007411
-0.313471 0.409322 -0.007697
-0.319043 0.404017 -0.024555
-0.312838 0.408762 -0.019380
-0.320185 0.399930 -0.041595
-0.303066 -0.866103 0.073955
-0.316856 -0.866996 0.078261
-0.321225 -0.868486 0.072437
-0.308083 -0.868095 0.067833
-0.302477 -0.866240 -0.104053
-0.296224 -0.867660 -0.097641
-0.296185 -0.867658 -0.093598
-0.302358 -0.866717 -0.089490
-0.303602 -0.850846 0.131615
-0.303552 -0.853858 0.122972
-0.303431 -0.832058 0.190126
-0.303383 -0.835326 0.181677
-0.310731 -0.834622 -0.245092
-0.299909 -0.835253 -0.246501
-0.304754 -0.837359 -0.238471
-0.304702 -0.831922 -0.253132
-0.303428 -0.820571 0.218120
-0.303393 -0.816788 0.225893
-0.303528 -0.804677 0.252583
-0.303598 -0.801019 0.261229
-0.303533 -0.787437 0.281219
-0.303472 -0.781708 0.288762
-0.303705 -0.772833 0.303473
-0.309275 -0.768823 0.309660
-0.298469 -0.769523 0.311191
-0.303794 -0.764339 0.317637
-0.303669 -0.755242 0.329868
-0.303616 -0.747105 0.337902
-0.303530 -0.731103 0.354371
-0.303573 -0.738862 0.346446
-0.303555 -0.713471 0.370349
-0.303520 -0.722890 0.362193
-0.303593 -0.705282 0.377351
-0.303620 -0.695476 0.385588
-0.303648 -0.687022 0.392719
-0.306706 -0.668440 0.407274
-0.302232 -0.677316 0.401584
-0.302159 -0.662865 0.412385
-0.295838 -0.671050 0.409358
-0.303489 -0.649486 0.420946
-0.303504 -0.641251 0.426700
-0.303564 -0.629879 0.433217
-0.303621 -0.618553 0.439962
-0.303653 -0.597255 0.449853
-0.303644 -0.610358 0.444416
-0.303668 -0.584007 0.455188
-0.303673 -0.575875 0.458961
-0.303629 -0.564550 0.465934
-0.303602 -0.552834 0.473074
-0.303627 -0.531653 0.480787
-0.303619 -0.544645 0.476212
-0.304449 -0.515268 0.487535
-0.310357 -0.506025 0.490011
-0.299622 -0.509846 0.491563
-0.304476 -0.499904 0.494278
-0.303717 -0.482544 0.501213
-0.302716 -0.465554 0.505637
-0.303652 -0.467616 -0.608690
-0.297968 -0.474768 -0.606382
-0.303668 -0.481244 -0.602742
-0.308840 -0.473944 -0.606106
-0.302720 -0.451368 0.508793
-0.307427 -0.459580 0.507172
-0.303750 -0.433625 0.514469
-0.303794 -0.417325 0.518552
-0.303793 -0.401228 0.518362
-0.303762 -0.388613 0.520271
-0.303746 -0.380300 0.525015
-0.303685 -0.368473 0.530681
-0.303620 -0.351997 0.535003
-0.303595 -0.335497 0.533520
-0.303543 -0.318470 0.537124
-0.309630 -0.302648 0.541576
-0.298062 -0.312490 0.542333
-0.301441 -0.302608 0.543016
-0.311423 -0.286212 0.542476
-0.303253 -0.286210 0.543092
-0.305033 -0.268858 0.541252
-0.300516 -0.273891 0.542447
-0.303677 -0.259620 0.540967
-0.303714 -0.251673 0.543347
-0.303771 -0.237489 0.545078
-0.303780 -0.221004 0.546002
-0.303764 -0.204236 0.546716
-0.303795 -0.188172 0.545655
-0.303770 -0.206837 -0.615952
-0.309986 -0.211647 -0.624492
-0.303843 -0.172233 0.544329
-0.303871 -0.155697 0.544715
-0.303882 -0.139188 0.545247
-0.303880 -0.123280 0.544053
-0.310953 -0.145379 -0.608799
-0.305801 -0.140182 -0.601333
-0.305137 -0.108529 0.542817
-0.311419 -0.103888 0.541782
-0.310729 -0.090742 0.541371
-0.302607 -0.090705 0.543235
-0.308942 -0.074441 0.540423
-0.300817 -0.074365 0.542885
-0.302924 -0.090701 -0.584143
-0.308655 -0.095981 -0.593077
-0.303733 -0.057056 0.539210
-0.298183 -0.061365 0.541802
-0.303939 -0.042375 0.536211
-0.304010 -0.025992 0.532156
-0.304041 -0.009700 0.529580
-0.303110 -0.021731 -0.535933
-0.314619 -0.019833 -0.551248
-0.312955 -0.018607 -0.542327
-0.303204 -0.029093 -0.550439
-0.307257 -0.030257 -0.567068
-0.309850 -0.032513 -0.575855
-0.305370 0.007699 0.528601
-0.311703 0.013935 0.526269
-0.309834 0.022926 0.523875
-0.301682 0.022912 0.527108
-0.305206 0.005325 -0.549372
-0.312197 -0.001774 -0.558706
-0.304101 0.039719 0.519984
-0.298666 0.034591 0.524576
-0.303542 0.026689 -0.534937
-0.304089 0.018147 -0.544580
-0.304078 0.055610 0.516565
-0.304238 0.039158 -0.518376
-0.320433 0.039439 -0.532106
-0.315026 0.045246 -0.523341
-0.308495 0.034186 -0.530180
-0.305160 0.072853 0.513900
-0.311337 0.078907 0.509125
-0.308701 0.088444 0.506335
-0.300540 0.088416 0.511077
-0.303536 0.104930 0.500316
-0.297513 0.098687 0.507983
-0.304720 0.091307 -0.501401
-0.304119 0.083663 -0.512036
-0.309572 0.111130 0.492451
-0.307561 0.121233 0.490510
-0.299370 0.121238 0.495991
-0.310479 0.099711 -0.496173
-0.306854 0.105063 -0.485287
-0.303552 0.137924 0.486979
-0.297753 0.132678 0.494172
-0.303372 0.152453 0.478554
-0.307758 0.131937 -0.477559
-0.303071 0.137471 -0.472612
-0.308356 0.156904 0.472072
-0.303394 0.170027 0.468276
-0.297499 0.164337 0.475774
-0.302670 0.159355 -0.452154
-0.304121 0.150483 -0.464383
-0.303319 0.185360 0.461603
-0.307045 0.166722 -0.446827
-0.304571 0.171487 -0.436740
-0.308253 0.189893 0.455916
-0.303949 0.203095 0.451704
-0.297375 0.197293 0.461371
-0.310495 0.208864 0.440947
-0.305304 0.221337 0.435180
-0.299679 0.216558 0.445967
-0.304105 0.196179 -0.427369
-0.304128 0.204385 -0.419307
-0.310926 0.226117 0.423612
-0.308320 0.235959 0.420195
-0.300193 0.235964 0.429946
-0.309678 0.226864 -0.392349
-0.304221 0.221587 -0.400830
-0.298860 0.229144 -0.394978
-0.304200 0.232624 -0.386431
-0.304116 0.212514 -0.411205
-0.302853 0.251030 0.416113
-0.297393 0.246448 0.426578
-0.302911 0.236628 -0.368765
-0.308845 0.256545 0.402362
-0.297447 0.262245 0.412745
-0.300684 0.264855 0.402757
-0.311515 0.260160 0.394556
-0.305223 0.269557 0.390617
-0.309199 0.246374 -0.364343
-0.303907 0.252074 -0.355704
-0.303104 0.283967 0.379926
-0.303701 0.276838 -0.320400
-0.305259 0.272259 -0.336195
-0.300633 0.278947 -0.323550
-0.300646 0.278914 -0.330879
-0.304058 0.263074 -0.348352
-0.307976 0.288635 0.371362
-0.302824 0.300203 0.366532
-0.297137 0.295160 0.376490
-0.306724 0.279747 -0.317606
-0.306143 0.285216 -0.302987
-0.308498 0.305248 0.355064
-0.303474 0.317352 0.351063
-0.297648 0.312462 0.361930
-0.311914 0.293738 -0.297226
-0.309230 0.300171 -0.286893
-0.309303 0.322236 0.340683
-0.302564 0.334159 0.334748
-0.298449 0.329466 0.347562
-0.307804 0.324464 -0.260505
-0.303524 0.317495 -0.269295
-0.296917 0.326426 -0.263613
-0.303026 0.328529 -0.254716
-0.310129 0.310526 -0.280165
-0.306693 0.338832 0.324388
-0.302255 0.349093 0.317914
-0.295813 0.342601 0.328299
-0.304017 0.334725 -0.237160
-0.303992 0.340181 -0.225283
-0.308669 0.355559 0.305732
-0.303248 0.366540 0.301852
-0.297813 0.362451 0.311529
-0.304120 0.353729 -0.190020
-0.303865 0.349941 -0.206108
-0.303924 0.344594 -0.217769
-0.309114 0.371339 0.285850
-0.297809 0.378999 0.297997
-0.300561 0.384128 0.286398
-0.311454 0.374744 0.276925
-0.308131 0.383714 0.271713
-0.307939 0.363175 -0.173026
-0.303598 0.367876 -0.159290
-0.309744 0.360740 -0.184961
-0.299402 0.396519 0.271562
-0.296787 0.393262 0.282067
-0.310403 0.389231 0.258611
-0.303725 0.400018 0.254280
-0.307114 0.388871 -0.122219
-0.310501 0.390672 -0.110273
-0.298951 0.393346 -0.122164
-0.304623 0.395204 -0.105050
-0.302537 0.385653 -0.137984
-0.296170 0.391995 -0.131534
-0.303908 0.377986 -0.152562
-0.307091 0.402543 0.237082
-0.297035 0.409929 0.249430
-0.298893 0.412290 0.236754
-0.309389 0.405379 0.220277
-0.301206 0.414664 0.220261
-0.310972 0.407182 0.208094
-0.303514 0.416310 0.203557
-0.311445 0.407841 -0.030929
-0.307671 0.406758 -0.041164
-0.299494 0.410547 -0.040925
-0.305122 0.413048 -0.025243
-0.305155 0.405092 -0.057931
-0.296998 0.409053 -0.057446
-0.303083 0.404054 -0.075348
-0.297191 0.409258 -0.070091
-0.303877 0.399592 -0.090244
-0.305284 0.417761 0.188262
-0.297113 0.426025 0.188629
-0.296054 0.425099 0.199251
-0.306426 0.418948 0.172576
-0.298258 0.426942 0.172722
-0.306228 0.419371 0.156326
-0.298075 0.426717 0.156752
-0.306287 0.419698 0.139874
-0.298140 0.426750 0.140447
-0.307483 0.420480 0.123775
-0.299306 0.427654 0.123756
-0.308183 0.421094 0.107323
-0.299997 0.428057 0.107014
-0.307492 0.421409 0.090086
-0.299318 0.427257 0.090353
-0.307115 0.421347 0.073010
-0.298959 0.426830 0.073669
-0.307112 0.420561 0.056519
-0.298954 0.426981 0.056970
-0.306138 0.419578 0.040441
-0.297978 0.426313 0.040840
-0.302969 0.418149 0.025469
-0.296886 0.425439 0.031477
-0.303941 0.415567 0.008595
-0.303861 0.416481 -0.008209
-0.292306 -0.866178 0.074375
-0.283971 -0.869414 0.073632
-0.280773 -0.868292 0.084279
-0.286627 -0.864678 0.090132
-0.288401 -0.870515 0.058632
-0.297240 -0.867278 0.064822
-0.302981 -0.869153 0.057878
-0.294808 -0.867279 0.064976
-0.295308 -0.867535 -0.083962
-0.288795 -0.869538 -0.088884
-0.295292 -0.867535 -0.081973
-0.288753 -0.870269 -0.074873
-0.291070 -0.865859 -0.122318
-0.282764 -0.868526 -0.123034
-0.288206 -0.869149 -0.104205
-0.294353 -0.867104 -0.108562
-0.279669 -0.867794 -0.134000
-0.286018 -0.864302 -0.139578
-0.285629 -0.847039 0.155007
-0.282714 -0.852666 0.139529
-0.279154 -0.851300 0.148002
-0.291059 -0.849349 0.140584
-0.294810 -0.850867 0.131917
-0.288365 -0.855314 0.124301
-0.295147 -0.850999 -0.197068
-0.283637 -0.852710 -0.204881
-0.288733 -0.854397 -0.189880
-0.291893 -0.849549 -0.205542
-0.280088 -0.851562 -0.214007
-0.286344 -0.847056 -0.220122
-0.286486 -0.836928 0.188257
-0.291695 -0.833248 0.193885
-0.280596 -0.835378 0.197799
-0.286485 -0.830382 0.204148
-0.287808 -0.822136 0.221508
-0.293922 -0.817833 0.227415
-0.287791 -0.815186 0.236801
-0.282752 -0.819510 0.231143
-0.288185 -0.815090 -0.303556
-0.283171 -0.819487 -0.298446
-0.288161 -0.821836 -0.288004
-0.294204 -0.817690 -0.293160
-0.294927 -0.801650 0.263243
-0.288416 -0.806810 0.255456
-0.288451 -0.798223 0.271163
-0.283773 -0.803875 0.265231
-0.288412 -0.798242 -0.336263
-0.283522 -0.802931 -0.330355
-0.288396 -0.806233 -0.321611
-0.294542 -0.801631 -0.328524
-0.290030 -0.783488 0.291125
-0.285538 -0.788635 0.286345
-0.285511 -0.779410 0.300944
-0.278918 -0.785659 0.294861
-0.287415 -0.780090 -0.368007
-0.281840 -0.786321 -0.362008
-0.287408 -0.789057 -0.352731
-0.292890 -0.784274 -0.357743
-0.287131 -0.771250 0.314676
-0.287179 -0.765990 0.323125
-0.287147 -0.749842 0.340253
-0.287189 -0.757812 0.332263
-0.286354 -0.743800 -0.417822
-0.279986 -0.753006 -0.410963
-0.286264 -0.757074 -0.402739
-0.290996 -0.750451 -0.407956
-0.287120 -0.741597 0.349465
-0.287091 -0.734310 0.357641
-0.288644 -0.728144 -0.435425
-0.281732 -0.737114 -0.427627
-0.292745 -0.734966 -0.424611
-0.287135 -0.716421 0.372991
-0.287113 -0.726089 0.364923
-0.289044 -0.714996 -0.451033
-0.284546 -0.721307 -0.445036
-0.295585 -0.719901 -0.443433
-0.288857 -0.696418 0.389506
-0.287168 -0.708232 0.380159
-0.295560 -0.687351 0.393532
-0.288830 -0.682545 0.401467
-0.284392 -0.691548 0.395789
-0.287806 -0.679022 -0.483859
-0.283875 -0.688437 -0.477302
-0.288644 -0.694520 -0.470921
-0.294886 -0.686776 -0.475549
-0.287124 -0.673130 0.411189
-0.286977 -0.661846 0.419313
-0.286803 -0.663297 -0.497544
-0.280767 -0.671236 -0.492535
-0.291740 -0.669169 -0.490520
-0.292405 -0.652349 0.423177
-0.286966 -0.646608 0.429345
-0.281336 -0.655821 0.426330
-0.288519 -0.630630 0.438521
-0.295016 -0.621215 0.441599
-0.287101 -0.613356 0.449549
-0.283887 -0.625659 0.443540
-0.290277 -0.597276 0.454555
-0.279212 -0.605457 0.458607
-0.281931 -0.597149 0.460120
-0.293843 -0.585077 0.456064
-0.286788 -0.579191 0.464803
-0.291964 -0.564488 0.470593
-0.283565 -0.564318 0.476345
-0.279706 -0.573250 0.474541
-0.289044 -0.565924 -0.562907
-0.284417 -0.574789 -0.559624
-0.289048 -0.580510 -0.554359
-0.295528 -0.572312 -0.557694
-0.295327 -0.556012 0.474305
-0.288768 -0.549530 0.479711
-0.287543 -0.532088 0.487244
-0.293303 -0.520801 0.489147
-0.287524 -0.515249 0.494113
-0.282154 -0.526866 0.492182
-0.286383 -0.498304 0.502164
-0.291586 -0.482606 0.505398
-0.280275 -0.492467 0.508727
-0.283289 -0.482561 0.510179
-0.294702 -0.466387 0.506619
-0.286345 -0.466277 0.511825
-0.295500 -0.457839 0.506652
-0.296692 -0.457822 0.506646
-0.287326 -0.450006 0.514758
-0.289361 -0.433649 0.519180
-0.281000 -0.433506 0.525324
-0.279166 -0.442157 0.523371
-0.292047 -0.417415 0.521521
-0.283692 -0.417253 0.527489
-0.293457 -0.422460 -0.621417
-0.282446 -0.429755 -0.623140
-0.287798 -0.434582 -0.620273
-0.287827 -0.417381 -0.624313
-0.292859 -0.401315 0.520145
-0.284426 -0.400922 0.528237
-0.293699 -0.389432 0.520323
-0.286302 -0.382652 0.531946
-0.289501 -0.368296 0.536828
-0.281141 -0.368023 0.543045
-0.278953 -0.375962 0.542069
-0.292444 -0.351878 0.539403
-0.284140 -0.351738 0.544245
-0.280954 -0.352841 -0.639088
-0.279477 -0.361481 -0.638516
-0.285987 -0.367617 -0.634848
-0.289175 -0.352757 -0.635882
-0.292527 -0.335228 0.538230
-0.284180 -0.334969 0.544166
-0.291852 -0.336022 -0.636987
-0.283586 -0.336129 -0.640164
-0.293011 -0.323443 0.538492
-0.287306 -0.318129 0.544564
-0.284673 -0.319859 -0.640611
-0.292942 -0.319716 -0.637181
-0.287156 -0.302605 0.547326
-0.283458 -0.303974 -0.640291
-0.291706 -0.303819 -0.636093
-0.287160 -0.286169 0.547969
-0.282163 -0.287585 -0.640319
-0.291457 -0.285852 -0.631806
-0.288530 -0.268758 0.546261
-0.295737 -0.279147 -0.624175
-0.302345 -0.285983 -0.628077
-0.295837 -0.279148 -0.624173
-0.294494 -0.269372 -0.618113
-0.288074 -0.270808 -0.632295
-0.281197 -0.270894 -0.640641
-0.295069 -0.262865 0.541163
-0.295082 -0.260433 0.541149
-0.288579 -0.254319 0.547058
-0.297489 -0.269414 -0.618075
-0.296083 -0.262858 -0.608163
-0.295558 -0.262852 -0.608164
-0.295561 -0.262001 -0.608150
-0.294512 -0.255990 -0.617932
-0.285207 -0.254332 -0.633391
-0.280039 -0.259222 -0.640398
-0.287317 -0.237342 0.549948
-0.295797 -0.244067 -0.623721
-0.289207 -0.238889 -0.628826
-0.287344 -0.220859 0.551296
-0.287341 -0.204113 0.552763
-0.294305 -0.219497 -0.619630
-0.304406 -0.224223 -0.624509
-0.299167 -0.219555 -0.619555
-0.288310 -0.224138 -0.628084
-0.284516 -0.206106 -0.628456
-0.292742 -0.206904 -0.615360
-0.287374 -0.188062 0.551475
-0.294814 -0.201972 -0.606270
-0.297482 -0.201987 -0.606270
-0.294827 -0.194529 -0.606132
-0.291866 -0.189573 -0.615042
-0.283453 -0.189987 -0.626545
-0.287416 -0.172104 0.549852
-0.290049 -0.173760 -0.616494
-0.281830 -0.173867 -0.624638
-0.287421 -0.155518 0.550738
-0.280213 -0.163049 -0.623832
-0.286508 -0.158413 -0.615267
-0.287414 -0.138970 0.551711
-0.295831 -0.149156 -0.591697
-0.299257 -0.152866 -0.600041
-0.296239 -0.149156 -0.591700
-0.293499 -0.152844 -0.600096
-0.295144 -0.140530 -0.590167
-0.290033 -0.140720 -0.600226
-0.305017 -0.158601 -0.609521
-0.282622 -0.140916 -0.612469
-0.287429 -0.123079 0.550157
-0.295036 -0.128389 -0.589810
-0.291810 -0.123743 -0.598518
-0.283263 -0.124690 -0.610297
-0.287448 -0.107089 0.548729
-0.291055 -0.109484 -0.598302
-0.282710 -0.108412 -0.609084
-0.287457 -0.090504 0.549061
-0.294533 -0.104768 -0.588650
-0.303639 -0.109522 -0.594408
-0.297802 -0.104777 -0.588639
-0.283212 -0.092609 -0.598868
-0.291943 -0.091298 -0.583561
-0.280576 -0.098701 -0.608286
-0.287459 -0.074188 0.548609
-0.293697 -0.086663 -0.551163
-0.298871 -0.086683 -0.551133
-0.297887 -0.085328 -0.540724
-0.294444 -0.085325 -0.540703
-0.293895 -0.074105 -0.550589
-0.294451 -0.078559 -0.540695
-0.298306 -0.086679 -0.567493
-0.294212 -0.086653 -0.567529
-0.293159 -0.075282 -0.567464
-0.288356 -0.075316 -0.583786
-0.281451 -0.075458 -0.593562
-0.289071 -0.056958 0.545344
-0.295559 -0.066583 -0.555531
-0.294928 -0.064993 -0.567339
-0.291002 -0.059383 -0.582595
-0.282275 -0.059231 -0.593118
-0.295662 -0.050793 0.540712
-0.294543 -0.042309 0.539907
-0.286225 -0.042212 0.544789
-0.287579 -0.042918 -0.582848
-0.281637 -0.047822 -0.592132
-0.292346 -0.025760 0.537823
-0.283936 -0.025598 0.543853
-0.293462 -0.038158 -0.567117
-0.299129 -0.038157 -0.567039
-0.297150 -0.035848 -0.555383
-0.295049 -0.035860 -0.555368
-0.289258 -0.027671 -0.550535
-0.284079 -0.025451 -0.566089
-0.304336 -0.043297 -0.577702
-0.282543 -0.030400 -0.578657
-0.290629 -0.009443 0.536669
-0.282201 -0.009267 0.542977
-0.295021 -0.018884 -0.496881
-0.297175 -0.018912 -0.496888
-0.297164 -0.018891 -0.488425
-0.295019 -0.018889 -0.488421
-0.297174 -0.016528 -0.496837
-0.295013 -0.016507 -0.496863
-0.295022 -0.016487 -0.488415
-0.291772 -0.022266 -0.534761
-0.296948 -0.018511 -0.524793
-0.295180 -0.018514 -0.524764
-0.295188 -0.016479 -0.524761
-0.291581 -0.010669 -0.534801
-0.284309 -0.009952 -0.551021
-0.280910 -0.009992 -0.562867
-0.286880 0.007988 0.537612
-0.280840 0.003519 0.542344
-0.294250 0.001594 -0.539830
-0.290946 0.006754 -0.549535
-0.282788 0.006315 -0.563211
-0.287568 0.022997 0.534429
-0.286772 0.022142 -0.549560
-0.281981 0.017780 -0.560152
-0.288715 0.039831 0.528954
-0.294748 0.029934 -0.524318
-0.297666 0.029941 -0.524329
-0.291774 0.026766 -0.534391
-0.282699 0.038727 -0.533095
-0.290282 0.038877 -0.518794
-0.280616 0.032864 -0.545197
-0.295058 0.045532 0.522246
-0.294192 0.055605 0.522298
-0.285818 0.055707 0.527961
-0.295785 0.047865 -0.297306
-0.295881 0.047865 -0.297306
-0.295881 0.047866 -0.297074
-0.295785 0.047867 -0.297075
-0.295785 0.047998 -0.297302
-0.295881 0.047997 -0.297303
-0.295785 0.048000 -0.297071
-0.295381 0.046807 -0.476096
-0.298830 0.044364 -0.485323
-0.296786 0.046807 -0.476100
-0.293760 0.044365 -0.485342
-0.295383 0.048498 -0.476068
-0.293768 0.050777 -0.485203
-0.292176 0.042425 -0.502064
-0.301184 0.042413 -0.502026
-0.292184 0.053324 -0.501868
-0.289143 0.056603 -0.517297
-0.281212 0.055581 -0.528963
-0.291919 0.072027 0.522362
-0.283570 0.072082 0.527594
-0.290781 0.071966 -0.519604
-0.282544 0.071916 -0.529070
-0.286926 0.089700 0.519907
-0.280894 0.085122 0.526171
-0.281175 0.081955 -0.526591
-0.286477 0.087099 -0.516656
-0.288330 0.104408 0.512614
-0.295913 0.096569 -0.476197
-0.298820 0.094620 -0.484556
-0.296119 0.096570 -0.476198
-0.294066 0.094606 -0.484584
-0.288709 0.104848 -0.484924
-0.294006 0.104901 -0.473966
-0.291005 0.091344 -0.501332
-0.282633 0.104591 -0.501491
-0.280791 0.098940 -0.511763
-0.294361 0.109643 0.504592
-0.291973 0.121190 0.503345
-0.283627 0.121189 0.511665
-0.287585 0.121203 -0.484608
-0.293715 0.121244 -0.473307
-0.281591 0.121156 -0.496309
-0.288050 0.138546 0.501256
-0.281130 0.133494 0.510852
-0.286005 0.137946 -0.484817
-0.294399 0.137573 -0.473579
-0.281420 0.132694 -0.494348
-0.294952 0.143589 0.490746
-0.292603 0.153965 0.487344
-0.284258 0.153977 0.497166
-0.283380 0.150214 -0.480030
-0.288348 0.154897 -0.468971
-0.287884 0.170784 0.482995
-0.281360 0.166288 0.493514
-0.295507 0.161655 -0.435699
-0.296765 0.161650 -0.435679
-0.296772 0.161599 -0.426262
-0.295428 0.161596 -0.426246
-0.294337 0.170426 -0.423915
-0.292944 0.170412 -0.435567
-0.293935 0.160115 -0.452060
-0.286672 0.171957 -0.453546
-0.282324 0.167513 -0.464150
-0.294388 0.175272 0.472366
-0.291674 0.186757 0.470383
-0.283335 0.186773 0.479801
-0.294353 0.182212 -0.423470
-0.292151 0.187305 -0.434064
-0.284183 0.186753 -0.448656
-0.287601 0.203223 0.467992
-0.280692 0.198207 0.477380
-0.282035 0.196678 -0.444610
-0.287465 0.201948 -0.433298
-0.294489 0.208211 0.457980
-0.292874 0.221042 0.450691
-0.283872 0.219573 0.463814
-0.292896 0.207171 -0.421810
-0.286711 0.218358 -0.416800
-0.281936 0.213385 -0.428144
-0.285591 0.236882 0.450450
-0.281305 0.232024 0.460042
-0.295819 0.227495 0.440915
-0.293968 0.235955 0.438105
-0.295585 0.227484 -0.359860
-0.296602 0.227479 -0.361993
-0.296599 0.227485 -0.359876
-0.295588 0.227483 -0.361968
-0.294157 0.236136 -0.368066
-0.294519 0.236039 -0.357991
-0.291500 0.223302 -0.405671
-0.286176 0.234427 -0.400407
-0.280512 0.228758 -0.411754
-0.290737 0.252099 0.432797
-0.282270 0.252385 0.445973
-0.294277 0.252421 -0.356875
-0.289897 0.252406 -0.368449
-0.292052 0.239197 -0.385680
-0.283411 0.251199 -0.384176
-0.280856 0.244941 -0.394723
-0.280189 0.262071 0.443282
-0.282587 0.268042 0.433622
-0.294356 0.257372 0.422658
-0.290599 0.268134 0.418436
-0.288954 0.269317 -0.353463
-0.283628 0.264356 -0.368409
-0.280226 0.261096 -0.377583
-0.281815 0.283944 0.418042
-0.279836 0.277642 0.428715
-0.293648 0.273031 0.402582
-0.287760 0.285177 0.401903
-0.295193 0.275517 0.393401
-0.293269 0.285167 0.388962
-0.295312 0.276166 -0.303392
-0.296658 0.276163 -0.303406
-0.296890 0.275912 -0.293541
-0.295133 0.275914 -0.293510
-0.289730 0.285226 -0.303953
-0.291980 0.285617 -0.288391
-0.295844 0.276966 -0.312001
-0.291384 0.284741 -0.318979
-0.293654 0.273519 -0.340696
-0.282705 0.280742 -0.348725
-0.287296 0.285322 -0.335829
-0.281700 0.300616 0.400608
-0.279726 0.294482 0.411379
-0.290397 0.301017 0.382712
-0.294842 0.291635 -0.226935
-0.297557 0.291196 -0.238009
-0.297137 0.291634 -0.226948
-0.294556 0.291196 -0.238034
-0.294557 0.298940 -0.237902
-0.294841 0.296795 -0.226880
-0.296833 0.292261 -0.248747
-0.295128 0.292276 -0.248774
-0.295123 0.297424 -0.248653
-0.296830 0.297405 -0.248618
-0.294030 0.291343 -0.276826
-0.301289 0.285590 -0.288402
-0.298642 0.291337 -0.276710
-0.287687 0.301636 -0.287936
-0.293174 0.301658 -0.274646
-0.284178 0.301624 -0.304143
-0.282000 0.300583 -0.319384
-0.280959 0.294433 -0.330425
-0.282833 0.317548 0.383633
-0.280134 0.311766 0.394005
-0.294198 0.306099 0.372854
-0.291251 0.317951 0.367576
-0.292423 0.318026 -0.272978
-0.284477 0.319356 -0.288822
-0.281514 0.314091 -0.303758
-0.280167 0.310548 -0.313022
-0.280439 0.328278 0.378169
-0.282736 0.334005 0.367829
-0.294142 0.323378 0.357338
-0.291104 0.334711 0.352773
-0.282058 0.328186 -0.284311
-0.287538 0.330364 -0.270134
-0.280015 0.343424 0.363199
-0.282635 0.349668 0.351986
-0.294379 0.340376 0.339252
-0.290477 0.349155 0.334258
-0.294369 0.340762 -0.225150
-0.292343 0.338524 -0.237116
-0.283149 0.350484 -0.236560
-0.289274 0.349690 -0.220834
-0.287296 0.336844 -0.255784
-0.281616 0.344764 -0.251304
-0.281852 0.366578 0.334418
-0.280058 0.360666 0.345109
-0.293035 0.353545 0.322950
-0.290745 0.367641 0.317570
-0.292611 0.352193 -0.172530
-0.299769 0.352200 -0.172600
-0.297936 0.354940 -0.160478
-0.293917 0.354945 -0.160517
-0.290169 0.367238 -0.172477
-0.293792 0.367246 -0.160386
-0.292607 0.353548 -0.189237
-0.287115 0.367235 -0.188804
-0.291440 0.353822 -0.205609
-0.282833 0.366759 -0.203869
-0.280508 0.360519 -0.221675
-0.279369 0.359070 -0.230328
-0.282974 0.382922 0.317863
-0.280001 0.376975 0.328240
-0.294842 0.373374 0.308997
-0.291604 0.384125 0.303113
-0.290527 0.383598 -0.157148
-0.283974 0.383745 -0.170952
-0.282052 0.378014 -0.188344
-0.279977 0.375950 -0.197228
-0.282957 0.396705 0.303042
-0.280053 0.393054 0.312246
-0.294329 0.389923 0.291591
-0.288045 0.400646 0.288617
-0.293251 0.389039 -0.143212
-0.281581 0.393501 -0.156706
-0.287633 0.395745 -0.138691
-0.279385 0.391886 -0.164897
-0.293032 0.404706 0.271243
-0.284164 0.416975 0.269988
-0.281703 0.411868 0.284239
-0.295015 0.407553 0.261426
-0.290692 0.415807 0.254354
-0.295077 0.407691 -0.080943
-0.293299 0.406236 -0.089852
-0.285060 0.412887 -0.089727
-0.288743 0.414482 -0.074524
-0.290124 0.403926 -0.105664
-0.281843 0.410299 -0.106422
-0.286234 0.402102 -0.122367
-0.279864 0.408702 -0.116802
-0.281624 0.427887 0.252859
-0.280043 0.425936 0.263621
-0.292076 0.420503 0.236580
-0.283788 0.430231 0.236612
-0.293943 0.422866 0.220301
-0.284328 0.433862 0.218882
-0.295006 0.424018 0.209735
-0.289031 0.431472 0.204351
-0.294074 0.421894 0.020883
-0.294230 0.422280 0.008586
-0.285930 0.431297 0.007687
-0.286712 0.432854 0.026144
-0.294617 0.423578 -0.008755
-0.286320 0.430329 -0.009241
-0.293005 0.422064 -0.025498
-0.284722 0.428995 -0.025842
-0.290751 0.418744 -0.041376
-0.282486 0.427476 -0.041929
-0.286624 0.418714 -0.059033
-0.280584 0.425997 -0.055023
-0.278963 0.441091 0.212430
-0.279491 0.441704 0.204085
-0.288643 0.434233 0.188648
-0.280375 0.442635 0.188579
-0.289172 0.435147 0.172834
-0.280926 0.443123 0.172941
-0.289384 0.434917 0.156495
-0.281106 0.443187 0.156073
-0.289684 0.434953 0.139906
-0.281371 0.443404 0.138960
-0.290304 0.435860 0.123140
-0.282014 0.444266 0.122323
-0.290629 0.436265 0.106424
-0.282349 0.444711 0.105807
-0.290351 0.435460 0.090007
-0.282060 0.444128 0.089307
-0.289776 0.435036 0.073677
-0.281492 0.443358 0.073193
-0.289052 0.435189 0.057472
-0.280810 0.442688 0.057793
-0.288185 0.434518 0.041274
-0.279946 0.441804 0.041671
-0.279352 0.441192 0.032055
-0.270629 -0.869281 0.089066
-0.276212 -0.866974 0.094783
-0.265125 -0.868199 0.099642
-0.270540 -0.865546 0.105220
-0.270696 -0.866026 -0.157748
-0.265101 -0.868099 -0.153076
-0.270582 -0.868648 -0.140251
-0.276122 -0.866895 -0.145225
-0.270548 -0.852133 0.151505
-0.270514 -0.849934 0.160543
-0.270372 -0.832703 0.207741
-0.270429 -0.836425 0.199822
-0.272348 -0.832904 -0.272588
-0.267855 -0.835904 -0.267520
-0.272353 -0.838568 -0.257335
-0.278907 -0.834795 -0.263977
-0.269297 -0.820483 0.236326
-0.274240 -0.817096 0.241953
-0.269393 -0.813883 0.251335
-0.263164 -0.818628 0.244868
-0.269496 -0.812977 -0.318352
-0.263087 -0.818440 -0.312178
-0.269533 -0.820234 -0.304197
-0.274101 -0.817104 -0.309603
-0.270457 -0.800619 0.275840
-0.270456 -0.805524 0.267481
-0.270422 -0.786938 0.297285
-0.270446 -0.782019 0.304832
-0.277910 -0.768901 0.325977
-0.271606 -0.773436 0.319673
-0.266796 -0.770108 0.327324
-0.272184 -0.761486 0.334869
-0.275547 -0.768152 -0.393323
-0.264523 -0.769490 -0.395012
-0.270403 -0.772669 -0.387263
-0.270409 -0.762769 -0.401372
-0.277563 -0.752257 0.342437
-0.272561 -0.745097 0.352302
-0.266482 -0.754081 0.344233
-0.278630 -0.736311 0.360177
-0.272187 -0.728729 0.368429
-0.267588 -0.737945 0.362077
-0.276792 -0.719126 0.374973
-0.270990 -0.711905 0.383818
-0.265754 -0.721161 0.376822
-0.276272 -0.702449 0.390803
-0.270660 -0.696339 0.397724
-0.265189 -0.704715 0.392833
-0.270570 -0.685097 0.407022
-0.270627 -0.676907 0.414554
-0.270643 -0.666624 0.423184
-0.270586 -0.658418 0.428450
-0.270843 -0.645461 0.436322
-0.270461 -0.647632 -0.513994
-0.264600 -0.654699 -0.509168
-0.270518 -0.661148 -0.502937
-0.275597 -0.653926 -0.508470
-0.276602 -0.636567 0.440207
-0.270869 -0.630590 0.445553
-0.265509 -0.639484 0.442163
-0.270629 -0.616194 0.454362
-0.270684 -0.607994 0.459657
-0.270611 -0.597065 0.465181
-0.270637 -0.598676 -0.545397
-0.264843 -0.605627 -0.541453
-0.270641 -0.612089 -0.537068
-0.275806 -0.604998 -0.540944
-0.270472 -0.584791 0.471761
-0.270517 -0.564293 0.481417
-0.270424 -0.576549 0.476015
-0.271032 -0.548218 0.488555
-0.276787 -0.537861 0.490580
-0.265805 -0.542966 0.492906
-0.270995 -0.532045 0.494418
-0.269491 -0.513982 0.501794
-0.274402 -0.503355 0.505347
-0.269650 -0.498293 0.509157
-0.263254 -0.507738 0.507005
-0.270840 -0.482540 0.514292
-0.269607 -0.465113 0.519571
-0.274310 -0.453096 0.521443
-0.269511 -0.448472 0.524322
-0.263241 -0.458945 0.523385
-0.270745 -0.433493 0.528760
-0.270820 -0.417132 0.533580
-0.269723 -0.400159 0.537614
-0.274572 -0.386873 0.539190
-0.269636 -0.382404 0.542888
-0.263448 -0.394244 0.541827
-0.270723 -0.367990 0.546268
-0.270115 -0.367659 -0.639212
-0.263873 -0.377630 -0.638950
-0.269986 -0.383755 -0.636517
-0.274966 -0.371986 -0.637832
-0.270780 -0.351686 0.548838
-0.270643 -0.334936 0.549257
-0.270578 -0.318572 0.551167
-0.270147 -0.303642 0.554781
-0.273818 -0.286181 0.554996
-0.265526 -0.286245 0.558836
-0.264353 -0.299122 0.558475
-0.274156 -0.269315 0.554874
-0.265811 -0.269316 0.558731
-0.274916 -0.253073 0.555503
-0.266570 -0.253077 0.559269
-0.275584 -0.237170 0.556414
-0.267262 -0.237185 0.559932
-0.278614 -0.248883 -0.639200
-0.272164 -0.254456 -0.641361
-0.269063 -0.239069 -0.640645
-0.277318 -0.239041 -0.637841
-0.277183 -0.220699 0.557368
-0.268857 -0.220700 0.560306
-0.267224 -0.222686 -0.640658
-0.275506 -0.222646 -0.637048
-0.278697 -0.203971 0.558264
-0.270360 -0.203978 0.560609
-0.272996 -0.206148 -0.636554
-0.264710 -0.206215 -0.640841
-0.277220 -0.187900 0.557520
-0.268894 -0.187895 0.560510
-0.262941 -0.197760 -0.640679
-0.269578 -0.191468 -0.634705
-0.275636 -0.171917 0.556642
-0.267313 -0.171885 0.560190
-0.276670 -0.155309 0.557215
-0.268319 -0.155258 0.560189
-0.277782 -0.138720 0.557873
-0.269414 -0.138661 0.560292
-0.277933 -0.151972 -0.622626
-0.271896 -0.157515 -0.626358
-0.266848 -0.143910 -0.625797
-0.271905 -0.139444 -0.621314
-0.276185 -0.122805 0.556979
-0.267852 -0.122722 0.560165
-0.274581 -0.106823 0.556054
-0.266257 -0.106714 0.560029
-0.274784 -0.090255 0.556129
-0.266419 -0.090157 0.560053
-0.274051 -0.073938 0.555926
-0.265685 -0.073849 0.559765
-0.271132 -0.086751 -0.604861
-0.271189 -0.095136 -0.610284
-0.270133 -0.057718 0.555434
-0.264004 -0.062572 0.559214
-0.270929 -0.042075 0.553007
-0.270816 -0.025495 0.551464
-0.271604 -0.042541 -0.594823
-0.277365 -0.036794 -0.589191
-0.271803 -0.025619 -0.583549
-0.266367 -0.031932 -0.592863
-0.270819 -0.009202 0.549419
-0.277314 -0.019336 -0.570871
-0.277208 -0.009936 -0.571000
-0.268914 -0.009984 -0.578088
-0.272461 0.008104 0.546043
-0.267721 0.006313 -0.576246
-0.275912 0.006371 -0.571238
-0.278996 0.014281 0.541597
-0.277891 0.023107 0.540768
-0.269600 0.023161 0.545395
-0.264704 0.016403 -0.574723
-0.270900 0.022610 -0.565884
-0.275221 0.039548 0.538702
-0.266860 0.039656 0.543938
-0.277101 0.028782 -0.555868
-0.266124 0.034001 -0.561167
-0.270618 0.038971 -0.550536
-0.272527 0.055866 0.536985
-0.264174 0.055966 0.542753
-0.275150 0.043906 -0.537619
-0.274973 0.055608 -0.537132
-0.266728 0.055554 -0.545616
-0.269583 0.071156 0.536602
-0.263061 0.065060 0.542402
-0.266097 0.071935 -0.543731
-0.274312 0.071972 -0.537216
-0.272508 0.089742 0.529176
-0.268953 0.086720 -0.531966
-0.263343 0.080494 -0.542087
-0.279023 0.095997 0.523182
-0.276688 0.104780 0.521461
-0.268355 0.104842 0.526137
-0.274565 0.092971 -0.522495
-0.270036 0.103503 -0.517330
-0.263585 0.097115 -0.526608
-0.270750 0.122187 0.520334
-0.264991 0.117394 0.524810
-0.276506 0.109919 -0.507043
-0.265637 0.121142 -0.511192
-0.273852 0.121203 -0.504609
-0.272218 0.138427 0.515010
