-0.007769 0.206142 -0.105106
-0.013308 0.206004 -0.121583
-0.016281 0.196969 -0.129978
-0.016108 0.205951 -0.130255
-0.007168 0.222667 -0.105365
-0.001975 0.222773 -0.090471
-0.012739 0.222614 -0.121623
-0.015756 0.222599 -0.131225
-0.006773 0.239169 -0.105432
-0.001801 0.239245 -0.091980
-0.012131 0.239166 -0.121632
-0.015365 0.239163 -0.132666
-0.010299 0.254154 0.091516
-0.006259 0.255611 -0.105088
-0.011180 0.255587 -0.121456
-0.014911 0.255550 -0.134037
-0.013108 0.270692 0.108379
-0.008113 0.270940 0.091822
-0.001280 0.271026 -0.087613
0.000119 0.264862 -0.079896
-0.005773 0.271958 -0.105264
-0.010449 0.271915 -0.121753
-0.014507 0.271887 -0.135188
-0.005081 0.288209 -0.106351
-0.001145 0.288404 -0.092583
-0.009929 0.288164 -0.122763
-0.014205 0.288206 -0.135922
-0.003991 0.304509 -0.106431
-0.000638 0.304739 -0.094725
-0.009093 0.304386 -0.122810
-0.013942 0.304394 -0.135972
-0.002015 0.321306 -0.104057
-0.000264 0.316257 -0.095456
-0.007869 0.320620 -0.121778
-0.013712 0.320407 -0.135405
-0.006449 0.336940 -0.121373
-0.001426 0.337166 -0.107802
-0.013172 0.336710 -0.135648
-0.004853 0.353368 -0.121609
-0.000717 0.353355 -0.111483
-0.013058 0.354431 -0.138678
-0.002571 0.368689 -0.120976
-0.000154 0.362311 -0.113598
-0.010811 0.369837 -0.137566
-0.016251 0.360636 -0.145845
-0.015899 0.369726 -0.146339
-0.012214 0.374488 0.156096
-0.004049 0.380587 0.156656
-0.009151 0.386188 -0.137616
-0.002007 0.386338 -0.124814
-0.015335 0.386028 -0.147154
-0.008072 0.402569 -0.137709
-0.001219 0.402674 -0.126971
-0.015046 0.402423 -0.147420
-0.007410 0.418897 -0.137841
-0.000599 0.418931 -0.128709
-0.014996 0.418777 -0.147291
-0.005488 0.434963 -0.136348
-0.000189 0.429679 -0.129551
-0.014899 0.434757 -0.147391
-0.014566 0.450693 -0.147705
-0.006374 0.451033 -0.138479
-0.013906 0.467187 -0.147984
-0.005731 0.467474 -0.139582
-0.013756 0.483747 -0.147751
-0.005607 0.483938 -0.140309
-0.015083 0.499772 -0.146798
-0.006917 0.499953 -0.139765
-0.008353 0.532415 -0.137344
-0.010965 0.564782 -0.133075
-0.002806 0.564917 -0.127669
-0.013666 0.581008 -0.130916
-0.005501 0.581132 -0.125988
-0.008348 0.613944 -0.120444
-0.013988 0.646489 -0.114056
-0.005786 0.646641 -0.109992
-0.008578 0.711989 -0.090186
-0.008435 0.728390 -0.086042
-0.008515 0.859425 -0.023073
0.008352 -0.822380 0.123084
0.008337 -0.824952 0.107336
0.008248 -0.822088 0.091459
0.008198 -0.819089 0.080920
0.008190 -0.816382 0.072784
0.008216 -0.811058 0.059089
0.008094 -0.804986 0.042901
0.002579 -0.803152 0.031846
0.008075 -0.797392 0.026433
0.013455 -0.800439 0.037457
0.007431 -0.789185 0.010999
0.001545 -0.786765 -0.000090
0.008172 -0.777519 -0.006509
0.012379 -0.782664 0.006078
0.003990 -0.772357 -0.018910
0.009819 -0.762870 -0.024640
0.014822 -0.768079 -0.013080
0.004798 -0.757612 -0.035940
0.010472 -0.747141 -0.041547
0.015654 -0.752569 -0.030435
0.005252 -0.741681 -0.051668
0.009816 -0.730594 -0.056828
0.016166 -0.736523 -0.047248
0.003476 -0.724608 -0.066823
0.008040 -0.712408 -0.071781
0.014319 -0.718094 -0.062137
0.001777 -0.706668 -0.081623
0.007489 -0.694824 -0.083515
0.012559 -0.699312 -0.076848
0.007481 -0.679640 -0.091055
0.001727 -0.674160 -0.097738
0.004990 -0.663477 -0.099622
0.013118 -0.663374 -0.094596
0.009294 -0.648196 -0.102074
0.015575 -0.654015 -0.096381
0.007488 -0.631699 -0.108640
0.001767 -0.626628 -0.114485
0.004064 -0.614636 -0.115835
0.012223 -0.614620 -0.109587
0.005625 -0.598333 -0.117785
0.013779 -0.598376 -0.110798
0.006089 -0.582097 -0.120008
0.014199 -0.582250 -0.112086
0.008955 -0.565161 -0.120055
0.015007 -0.570561 -0.113153
0.006801 -0.550567 -0.123889
0.000556 -0.546128 -0.130115
0.000960 -0.532370 -0.130416
0.009136 -0.532467 -0.122513
0.000841 -0.515878 -0.130298
0.007997 -0.499769 -0.121326
0.015582 -0.499973 -0.112460
0.000412 -0.499548 -0.129958
0.014745 -0.483652 -0.110803
0.005179 -0.467297 -0.121451
0.013355 -0.467503 -0.109624
0.003903 -0.451065 -0.121447
0.012087 -0.451237 -0.108430
0.003386 -0.434602 -0.119493
0.009590 -0.418084 -0.105282
0.015163 -0.417891 -0.095036
0.002451 -0.418110 -0.117342
0.006128 -0.401739 -0.105931
0.013271 -0.401456 -0.092610
0.000889 -0.401783 -0.115906
0.009083 -0.368508 -0.088738
0.014180 -0.368428 -0.076971
0.003056 -0.368593 -0.103623
0.005666 -0.352072 -0.088521
0.001550 -0.352133 -0.100247
0.008699 -0.335494 -0.071894
0.008482 -0.320212 0.042829
0.010225 -0.319411 -0.055690
0.004746 -0.319160 -0.071888
0.001185 -0.319184 -0.082416
0.008446 -0.303830 0.026509
0.012008 -0.303675 0.010111
0.010705 -0.303127 -0.039108
0.006353 -0.303011 -0.055526
0.004307 -0.287391 0.026376
0.007944 -0.287169 0.010099
0.009710 -0.286985 -0.006448
0.009260 -0.286918 -0.022868
0.006624 -0.287008 -0.039323
0.005292 -0.270856 0.009800
0.008040 -0.270600 -0.006259
0.007274 -0.270673 -0.022736
0.003836 -0.271075 -0.040239
0.001202 -0.271035 -0.054536
0.004611 -0.254193 -0.006270
0.004224 -0.254228 -0.022732
0.000695 0.129343 -0.019301
0.001464 0.139624 -0.024135
0.002388 0.156907 -0.006634
0.002970 0.157217 -0.023255
0.000701 0.144328 -0.036602
0.001234 0.155998 -0.041988
0.002596 0.172488 0.008134
0.003913 0.173264 -0.006916
0.003992 0.173614 -0.023492
0.002595 0.173636 -0.041222
0.000535 0.160628 -0.052433
0.000872 0.174725 -0.057286
0.000860 0.176323 0.042868
0.003299 0.189176 0.042840
0.004529 0.189044 0.025702
0.005220 0.189271 0.009061
0.006280 0.189834 -0.006682
0.005815 0.190095 -0.023195
0.003628 0.190098 -0.040319
0.001402 0.190107 -0.056390
0.000219 0.180915 -0.064454
0.000225 0.190115 -0.064462
0.006218 0.205595 0.042547
0.007197 0.205799 0.026309
0.007761 0.206083 0.010005
0.008648 0.206424 -0.006370
0.007883 0.206566 -0.022886
0.005292 0.206518 -0.039723
0.002577 0.206479 -0.056076
0.000596 0.207963 -0.070541
0.008418 0.221906 0.041422
0.009830 0.222250 0.025544
0.010250 0.222604 0.009754
0.010285 0.222925 -0.006297
0.009654 0.222968 -0.022911
0.008205 0.222775 -0.040551
0.005608 0.222751 -0.056950
0.002758 0.222852 -0.072134
0.000154 0.214361 -0.080247
0.000867 0.222835 -0.082084
0.005115 0.237778 0.056749
0.010288 0.238384 0.040852
0.011908 0.238713 0.025337
0.012508 0.239079 0.009735
0.012483 0.239408 -0.006286
0.011967 0.239430 -0.022936
0.010853 0.239215 -0.040913
0.007893 0.239187 -0.057312
0.004188 0.239308 -0.072139
0.001394 0.239308 -0.083560
0.007089 0.254702 0.057717
0.012414 0.255122 0.041603
0.013394 0.255345 0.026126
0.015273 0.253481 -0.006311
0.014991 0.255986 -0.023257
0.012208 0.255912 -0.039950
0.008015 0.255843 -0.056317
0.009403 0.271523 0.058821
0.014545 0.271776 0.042463
0.012910 0.272461 -0.039364
0.016041 0.272454 -0.029354
0.007990 0.272399 -0.055629
0.002603 0.271166 -0.073428
0.015991 0.282718 0.042862
0.013984 0.289892 -0.038427
0.016414 0.285135 -0.031305
0.008536 0.288803 -0.055711
0.004631 0.288692 -0.071886
0.000528 0.275858 -0.081504
0.001333 0.288525 -0.083980
0.006980 0.303836 0.074804
0.008676 0.305129 -0.055660
0.005393 0.305069 -0.071878
0.001790 0.304882 -0.086120
0.008294 0.320190 0.075339
0.012168 0.321415 -0.039251
0.015466 0.321460 -0.028693
0.008231 0.321375 -0.055515
0.004621 0.321319 -0.071923
0.001275 0.321522 -0.089282
0.008341 0.336186 0.090532
0.013997 0.338382 -0.038531
0.015506 0.333523 -0.028580
0.009705 0.337602 -0.055564
0.005916 0.337622 -0.071967
0.002902 0.337488 -0.088443
0.000287 0.327122 -0.097442
0.000820 0.337315 -0.099533
0.013360 0.349217 0.107349
0.014435 0.347909 0.090976
0.013943 0.354947 -0.055131
0.015416 0.350242 -0.044095
0.009928 0.354049 -0.072022
0.005755 0.353873 -0.088651
0.001713 0.353525 -0.103119
0.014001 0.371644 -0.070696
0.015578 0.366817 -0.059829
0.008843 0.370267 -0.088614
0.002853 0.368759 -0.106716
0.012997 0.388144 -0.086897
0.015310 0.383729 -0.075268
0.006432 0.386526 -0.104765
0.000734 0.373442 -0.114976
0.001690 0.386405 -0.116607
0.004659 0.388821 0.156992
0.009441 0.402770 -0.104989
0.014978 0.402880 -0.092487
0.002654 0.402673 -0.118888
0.012402 0.417585 -0.104674
0.016162 0.411499 -0.096460
0.003382 0.418784 -0.121167
0.003482 0.435105 -0.123473
0.012412 0.435336 -0.108006
0.006010 0.451644 -0.121419
0.013633 0.452046 -0.108790
0.000108 0.440457 -0.129864
0.000547 0.451341 -0.130302
0.008397 0.468068 -0.121354
0.014965 0.468377 -0.110964
0.001606 0.467749 -0.131382
0.011423 0.485163 -0.119820
0.015829 0.480443 -0.112564
0.002419 0.484131 -0.132090
0.002025 0.500159 -0.131538
0.010211 0.500396 -0.122050
0.001150 0.516213 -0.130627
0.009363 0.516481 -0.122495
0.000543 0.532621 -0.130181
0.008691 0.532784 -0.122061
0.007391 0.565121 -0.119437
0.015546 0.565287 -0.112533
0.006393 0.581347 -0.117734
0.014553 0.581521 -0.111702
0.004253 0.597721 -0.116191
0.012356 0.597868 -0.110439
0.001469 0.614078 -0.114289
0.009572 0.614259 -0.108761
0.005173 0.663227 -0.099640
0.013332 0.663466 -0.094957
0.007757 0.695647 -0.088070
0.003783 0.728394 -0.081751
0.011827 0.728403 -0.078101
0.007880 0.793917 -0.056905
0.007740 0.826624 -0.038670
0.024722 -0.823582 0.123256
0.024719 -0.825096 0.107443
0.024634 -0.821411 0.091588
0.024579 -0.818582 0.083020
0.024573 -0.815303 0.074869
0.024588 -0.808283 0.059124
0.024583 -0.803175 0.048572
0.024546 -0.798332 0.040364
0.023765 -0.789711 0.026485
0.017791 -0.786379 0.017114
0.024687 -0.777585 0.009908
0.028716 -0.783367 0.020877
0.020684 -0.771763 -0.002078
0.026033 -0.762919 -0.007701
0.031616 -0.768517 0.002624
0.020440 -0.757246 -0.019464
0.025730 -0.746483 -0.023865
0.031401 -0.751196 -0.013465
0.020071 -0.741689 -0.036286
0.025454 -0.729973 -0.040386
0.031001 -0.734252 -0.028311
0.019884 -0.725752 -0.051064
0.024460 -0.712332 -0.055403
0.030782 -0.717266 -0.044692
0.018097 -0.707372 -0.065820
0.022721 -0.693764 -0.070339
0.029049 -0.699156 -0.059740
0.016355 -0.688317 -0.080548
0.018702 -0.679663 -0.082795
0.026885 -0.679725 -0.074202
0.022551 -0.663367 -0.086525
0.030741 -0.663421 -0.078229
0.024737 -0.649243 -0.089184
0.032453 -0.655055 -0.080351
0.016987 -0.643406 -0.097718
0.018651 -0.631113 -0.099425
0.026865 -0.631137 -0.091391
0.020401 -0.614584 -0.101344
0.028567 -0.614548 -0.092120
0.021236 -0.598319 -0.102508
0.029424 -0.598232 -0.092873
0.021793 -0.582190 -0.103405
0.030027 -0.582096 -0.093881
0.021613 -0.565224 -0.106188
0.030856 -0.565595 -0.094702
0.024510 -0.548985 -0.104741
0.031626 -0.548923 -0.095192
0.016604 -0.559339 -0.113753
0.017261 -0.549009 -0.114225
0.024352 -0.532580 -0.104966
0.031518 -0.532523 -0.095390
0.017218 -0.532596 -0.114372
0.030742 -0.516265 -0.094846
0.021467 -0.499998 -0.104277
0.029693 -0.500022 -0.092546
0.020173 -0.483682 -0.102587
0.028153 -0.467564 -0.086791
0.032641 -0.473238 -0.080073
0.018787 -0.467434 -0.100885
0.017512 -0.451087 -0.099168
0.029712 -0.434184 -0.075335
0.019411 -0.417738 -0.086685
0.024533 -0.401426 -0.072172
0.030817 -0.401867 -0.060862
0.018133 -0.401224 -0.083952
0.025417 -0.368757 -0.055598
0.018774 -0.368499 -0.068551
0.026329 -0.352842 0.025959
0.026405 -0.352468 -0.039096
0.023885 -0.336902 0.009530
0.026309 -0.336447 -0.006493
0.024778 -0.336153 -0.022860
0.017215 0.261699 -0.006376
0.019101 0.272280 -0.006780
0.017343 0.261449 -0.018054
0.018357 0.272417 -0.021370
0.018884 0.288001 0.008370
0.021326 0.288582 -0.008229
0.018921 0.289875 -0.025656
0.017566 0.290894 0.042889
0.019982 0.304599 0.042898
0.020587 0.304190 0.025508
0.021153 0.304307 0.007953
0.021909 0.304924 -0.008822
0.016624 0.296049 -0.032642
0.022824 0.320920 0.042888
0.024160 0.320868 0.026336
0.023640 0.321009 0.009521
0.021432 0.321323 -0.007832
0.018441 0.321462 -0.021454
0.025937 0.337236 0.042582
0.026903 0.337355 0.026342
0.026004 0.337510 0.009995
0.022965 0.337711 -0.006845
0.018664 0.338492 -0.023341
0.025901 0.353214 0.057628
0.029004 0.353610 0.041399
0.028887 0.353683 0.025400
0.028131 0.353847 0.009644
0.025835 0.354097 -0.006322
0.021786 0.354085 -0.022737
0.016850 0.344327 -0.032642
0.017532 0.354952 -0.039170
0.018151 0.357487 0.108156
0.022606 0.369148 0.108441
0.018613 0.356064 0.091127
0.024122 0.369073 0.091603
0.026197 0.369168 0.074475
0.031705 0.366189 0.040884
0.031641 0.370620 0.024274
0.029692 0.370128 0.009687
0.026160 0.370417 -0.006309
0.022469 0.370423 -0.022734
0.019227 0.370193 -0.039585
0.016561 0.360928 -0.049825
0.017020 0.371407 -0.055143
0.028117 0.385566 0.108343
0.031371 0.381003 0.075512
0.031022 0.384944 0.010323
0.032845 0.378367 0.018929
0.024903 0.386661 -0.006446
0.021353 0.386778 -0.022840
0.020723 0.386782 -0.039134
0.019104 0.386766 -0.055564
0.016481 0.377896 -0.064307
0.017030 0.388201 -0.070698
0.031902 0.395948 0.108145
0.028596 0.404501 -0.004987
0.031484 0.399912 0.004936
0.024002 0.403169 -0.022866
0.023312 0.403213 -0.039215
0.022300 0.403191 -0.055600
0.020362 0.403126 -0.071980
0.016438 0.394580 -0.080469
0.017696 0.402991 -0.084287
0.030076 0.420271 -0.022807
0.031235 0.415122 -0.009271
0.027367 0.419525 -0.039508
0.026352 0.419540 -0.055813
0.024940 0.419580 -0.071914
0.019520 0.417984 -0.090031
0.030021 0.431071 0.156586
0.031284 0.431377 -0.039532
0.032140 0.429493 -0.028342
0.030723 0.433825 -0.055822
0.029443 0.437386 -0.070532
0.022516 0.435845 -0.088571
0.016842 0.422338 -0.098191
0.017438 0.435574 -0.099260
0.024704 0.452417 -0.088550
0.031081 0.452498 -0.075479
0.018253 0.452255 -0.100543
0.019152 0.457132 0.206877
0.028429 0.468356 -0.087878
0.032285 0.462784 -0.079212
0.019507 0.468530 -0.102871
0.020079 0.485372 -0.106383
0.029191 0.484773 -0.091777
0.022896 0.500668 -0.104929
0.030462 0.500769 -0.093577
0.016401 0.491193 -0.113331
0.016950 0.500588 -0.113848
0.024252 0.516791 -0.104728
0.031356 0.516850 -0.094683
0.017366 0.516718 -0.114242
0.024075 0.533023 -0.104864
0.031737 0.533105 -0.095377
0.016738 0.532947 -0.113824
0.031729 0.549332 -0.095574
0.023281 0.565359 -0.104285
0.031527 0.565435 -0.095336
0.022801 0.581609 -0.103478
0.031030 0.581679 -0.094881
0.021771 0.598033 -0.102160
0.030056 0.598170 -0.094229
0.020566 0.614484 -0.100483
0.028852 0.614640 -0.093551
0.019020 0.630913 -0.098635
0.027225 0.631007 -0.092666
0.024436 0.663643 -0.088134
0.020194 0.695705 -0.082274
0.028446 0.695758 -0.077617
0.024090 0.728434 -0.071036
0.024354 0.777619 -0.056049
0.041186 -0.825429 0.123460
0.041167 -0.825795 0.107661
0.041101 -0.821768 0.091510
0.041058 -0.818742 0.082547
0.041043 -0.814603 0.074487
0.040280 -0.805778 0.058565
0.034323 -0.802392 0.050360
0.041330 -0.794330 0.042769
0.045236 -0.800813 0.052643
0.037440 -0.787785 0.031908
0.042120 -0.780867 0.026343
0.048352 -0.785281 0.035036
0.040898 -0.771805 0.014491
0.041975 -0.762383 0.005918
0.037271 -0.757735 -0.002409
0.041431 -0.746187 -0.006932
0.048204 -0.751862 0.002549
0.034644 -0.740448 -0.017486
0.038164 -0.728871 -0.022824
0.046360 -0.728910 -0.012196
0.046368 -0.714073 -0.023661
0.048973 -0.720510 -0.014584
0.034467 -0.723383 -0.033635
0.037224 -0.712159 -0.039215
0.045100 -0.696933 -0.039154
0.048299 -0.702673 -0.029759
0.033699 -0.706609 -0.048867
0.035758 -0.694777 -0.054748
0.042848 -0.679313 -0.054227
0.047612 -0.684338 -0.044501
0.032670 -0.688229 -0.063922
0.034122 -0.679808 -0.065818
0.036754 -0.663523 -0.069877
0.044978 -0.663727 -0.057961
0.038584 -0.648918 -0.074048
0.047253 -0.647709 -0.061774
0.044208 -0.630447 -0.070992
0.048549 -0.635515 -0.064066
0.033956 -0.644460 -0.081932
0.035135 -0.631152 -0.083234
0.035930 -0.614502 -0.084047
0.044102 -0.614600 -0.073023
0.036531 -0.598108 -0.084703
0.044726 -0.598159 -0.073856
0.037384 -0.581926 -0.085564
0.045627 -0.581924 -0.074787
0.037912 -0.565462 -0.086403
0.046154 -0.565474 -0.075574
0.037892 -0.548845 -0.087004
0.046098 -0.548918 -0.075986
0.037966 -0.532442 -0.087132
0.046177 -0.532541 -0.076240
0.037545 -0.516185 -0.086406
0.045769 -0.516347 -0.075451
0.035585 -0.499996 -0.084208
0.047287 -0.484342 -0.061277
0.037002 -0.467592 -0.073506
0.046184 -0.467691 -0.058953
0.032750 -0.462098 -0.080137
0.041353 -0.434900 -0.055592
0.047463 -0.435363 -0.044524
0.034718 -0.434402 -0.067115
0.040194 -0.418645 0.058306
0.041740 -0.401788 0.042468
0.041900 -0.402536 -0.039297
0.047387 -0.402400 -0.026620
0.035388 -0.402284 -0.052697
0.040149 -0.385353 0.025398
0.037090 -0.369276 -0.006387
0.034001 0.374311 0.041511
0.037555 0.386202 0.042177
0.033399 0.376468 0.029325
0.034979 0.384779 0.025087
0.034958 0.389430 0.075631
0.039397 0.402774 0.075568
0.041673 0.402763 0.059168
0.041654 0.402671 0.042720
0.039007 0.402474 0.025974
0.033923 0.389285 0.015997
0.034782 0.404144 0.009839
0.035456 0.404157 0.107718
0.041771 0.418502 0.107038
0.043524 0.418965 0.090961
0.044430 0.419263 0.075151
0.046267 0.420713 0.044199
0.042424 0.418805 0.025073
0.038059 0.418820 0.008369
0.032902 0.410805 0.001411
0.034277 0.420033 -0.005105
0.047446 0.429946 0.106929
0.048078 0.429842 0.090737
0.048249 0.430147 0.075038
0.046521 0.436374 0.026173
0.048255 0.431534 0.039562
0.041924 0.435549 0.008369
0.038323 0.435873 -0.006830
0.033580 0.426225 -0.017258
0.035353 0.435387 -0.022829
0.034972 0.439560 0.156974
0.041976 0.451496 0.157158
0.046863 0.453340 0.009518
0.048062 0.448488 0.021510
0.043681 0.452305 -0.006694
0.041724 0.452276 -0.022831
0.034695 0.439616 -0.039272
0.039769 0.452327 -0.039118
0.033608 0.442084 -0.055612
0.036655 0.452412 -0.055541
0.032974 0.443747 -0.064129
0.033891 0.452474 -0.067184
0.048155 0.461923 0.156831
0.048211 0.462815 -0.006528
0.048893 0.461770 0.004568
0.047393 0.465532 -0.022790
0.045904 0.469812 -0.038180
0.040874 0.468593 -0.056375
0.035543 0.468408 -0.073480
0.044690 0.484633 -0.057581
0.047968 0.484473 -0.044671
0.039406 0.484906 -0.073491
0.033445 0.473603 -0.082053
0.034445 0.484921 -0.083892
0.048136 0.499813 -0.058538
0.049004 0.493750 -0.048831
0.042910 0.500883 -0.073159
0.035858 0.500885 -0.085782
0.046072 0.515496 -0.071621
0.049149 0.509056 -0.063823
0.037119 0.516936 -0.086682
0.038164 0.533270 -0.087162
0.046439 0.533364 -0.075186
0.038912 0.549541 -0.087294
0.047218 0.549691 -0.076526
0.039134 0.565567 -0.087078
0.047379 0.565667 -0.077271
0.039090 0.581800 -0.086658
0.047321 0.581878 -0.077594
0.039049 0.598392 -0.086007
0.047351 0.598538 -0.077743
0.038987 0.614880 -0.085329
0.047288 0.615038 -0.077978
0.038454 0.631151 -0.084472
0.046661 0.631254 -0.077959
0.037130 0.647449 -0.083180
0.045316 0.647519 -0.077359
0.035340 0.663763 -0.081749
0.043555 0.663801 -0.076583
0.037201 0.712124 -0.066917
0.045516 0.712188 -0.060686
0.034302 0.728488 -0.064998
0.042633 0.728543 -0.058425
0.039293 0.761310 -0.051621
0.047513 0.761355 -0.046152
0.035899 0.777676 -0.049312
0.044152 0.777721 -0.043715
0.057523 -0.828811 0.123834
0.057510 -0.827419 0.107845
0.057436 -0.822439 0.091628
0.057391 -0.818906 0.082582
0.057378 -0.813969 0.074487
0.057355 -0.805823 0.062182
0.057313 -0.799588 0.053943
0.057285 -0.791486 0.044730
0.057240 -0.783792 0.036413
0.055730 -0.774497 0.026472
0.049320 -0.769489 0.017714
0.055706 -0.760378 0.014756
0.060086 -0.765162 0.021032
0.057446 -0.745985 0.006162
0.052224 -0.741143 -0.000400
0.057505 -0.727880 -0.002977
0.063078 -0.732602 0.003501
0.057048 -0.714016 -0.008640
0.051505 -0.709582 -0.018730
0.053697 -0.696769 -0.023557
0.062023 -0.696120 -0.009066
0.059146 -0.679888 -0.022676
0.064222 -0.679781 -0.012463
0.050341 -0.691853 -0.033611
0.051818 -0.679347 -0.038980
0.062864 -0.664986 -0.022424
0.065303 -0.671073 -0.014321
0.055431 -0.663856 -0.039152
0.049554 -0.673520 -0.047895
0.050359 -0.663891 -0.049713
0.057761 -0.647752 -0.040085
0.063602 -0.647577 -0.027690
0.051378 -0.647811 -0.053975
0.061300 -0.630609 -0.038453
0.064512 -0.635353 -0.029772
0.052096 -0.630624 -0.057733
0.054959 -0.614965 -0.055544
0.062612 -0.615102 -0.040510
0.049121 -0.624404 -0.064214
0.049560 -0.614753 -0.064672
0.056235 -0.598587 -0.055510
0.063249 -0.598768 -0.041703
0.050199 -0.598318 -0.065567
0.056729 -0.582352 -0.055961
0.063150 -0.582500 -0.043293
0.050773 -0.582061 -0.066578
0.057767 -0.566079 -0.055969
0.063718 -0.566358 -0.044952
0.051250 -0.565654 -0.067362
0.059163 -0.549798 -0.055554
0.064775 -0.550253 -0.046297
0.051583 -0.549184 -0.067744
0.059271 -0.533536 -0.055889
0.064801 -0.534009 -0.046756
0.051660 -0.532864 -0.068039
0.057686 -0.517281 -0.056503
0.063845 -0.517708 -0.045872
0.051043 -0.516690 -0.067352
0.062554 -0.501432 -0.043665
0.052789 -0.484709 -0.053082
0.060961 -0.485006 -0.040871
0.051078 -0.468044 -0.050875
0.062910 -0.451521 -0.026850
0.052091 -0.435468 -0.036182
0.057343 -0.418785 0.008780
0.057585 -0.419239 -0.006318
0.052224 -0.402180 -0.006287
0.050681 -0.402253 -0.018354
0.049503 0.427278 0.050626
0.050664 0.436680 0.044171
0.051766 0.438261 0.107593
0.057604 0.451690 0.108235
0.051781 0.438077 0.091494
0.057508 0.451916 0.092075
0.051459 0.438355 0.075455
0.056720 0.452161 0.075731
0.056632 0.452399 0.059282
0.054676 0.452500 0.042734
0.049707 0.442625 0.033121
0.050851 0.453437 0.026835
0.059677 0.468089 0.124833
0.063066 0.468194 0.108520
0.063032 0.468137 0.091893
0.062090 0.468289 0.075155
0.061067 0.468695 0.058756
0.058582 0.468905 0.042250
0.054381 0.468894 0.025325
0.049674 0.459555 0.015244
0.051377 0.467879 0.009509
0.052042 0.469970 0.156132
0.058171 0.484089 0.155854
0.063953 0.481019 0.124900
0.065407 0.477249 0.108570
0.065480 0.476899 0.091637
0.065029 0.478554 0.074475
0.064339 0.481829 0.058091
0.063013 0.486247 0.042594
0.058729 0.485196 0.024902
0.056619 0.485109 0.009123
0.051652 0.471001 -0.006417
0.056544 0.484991 -0.006296
0.050622 0.473645 -0.022761
0.054136 0.484787 -0.022749
0.049453 0.476057 -0.031500
0.050463 0.484575 -0.035365
0.062497 0.498128 0.171853
0.063740 0.496841 0.156474
0.063531 0.498875 0.025601
0.064840 0.495742 0.037742
0.063049 0.502833 0.009931
0.061677 0.501275 -0.006276
0.058486 0.501002 -0.022734
0.052469 0.499864 -0.041188
0.064951 0.511705 -0.006289
0.065518 0.510349 0.004862
0.062999 0.517024 -0.022772
0.057370 0.517019 -0.039238
0.050326 0.504644 -0.053331
0.051843 0.515463 -0.057228
0.062108 0.533710 -0.038899
0.064582 0.528737 -0.028413
0.055500 0.533210 -0.056091
0.050023 0.519949 -0.065502
0.050933 0.533296 -0.067010
0.058568 0.549531 -0.056131
0.064118 0.549481 -0.044951
0.051880 0.549643 -0.068341
0.061801 0.564403 -0.054823
0.065444 0.557985 -0.047599
0.052766 0.565711 -0.069035
0.053541 0.581962 -0.069359
0.061737 0.582137 -0.058078
0.054020 0.598546 -0.069634
0.062169 0.598535 -0.059577
0.054363 0.615028 -0.069897
0.062496 0.614971 -0.060442
0.054682 0.631311 -0.069738
0.062861 0.631355 -0.060769
0.054787 0.647595 -0.069080
0.062985 0.647676 -0.061182
0.054566 0.663870 -0.068384
0.062722 0.663946 -0.061407
0.052483 0.679922 -0.066374
0.060589 0.680034 -0.059809
0.052999 0.728609 -0.050313
0.061133 0.728729 -0.044733
0.057165 0.761388 -0.039636
0.052755 0.794097 -0.032917
0.060772 0.794155 -0.028387
0.073689 -0.823550 0.091856
0.073624 -0.818997 0.082878
0.073630 -0.813424 0.074676
0.073639 -0.805346 0.063422
0.073616 -0.798058 0.055142
0.073581 -0.790027 0.047183
0.074828 -0.778306 0.038215
0.070318 -0.772949 0.032174
0.073768 -0.762047 0.026770
0.081120 -0.769615 0.034835
0.066333 -0.754418 0.017438
0.069351 -0.745274 0.014953
0.077465 -0.745360 0.021288
0.071330 -0.727885 0.009432
0.080659 -0.728973 0.019151
0.072904 -0.712639 0.009440
0.080583 -0.712718 0.018842
0.065775 -0.721709 0.001291
0.065917 -0.712555 0.000854
0.073419 -0.696324 0.009429
0.080190 -0.696421 0.019413
0.066830 -0.696193 -0.000977
0.075814 -0.680000 0.010026
0.081041 -0.680050 0.019366
0.068371 -0.679866 -0.004184
0.076550 -0.663727 0.010108
0.080899 -0.663747 0.020051
0.069132 -0.664881 -0.007744
0.075680 -0.647511 0.009738
0.079577 -0.647495 0.021406
0.072328 -0.647408 -0.006211
0.066508 -0.660364 -0.016782
0.068054 -0.647427 -0.019386
0.078185 -0.630212 0.010750
0.079825 -0.634820 0.020497
0.074256 -0.631192 -0.006226
0.068441 -0.630398 -0.023576
0.075766 -0.614912 -0.006378
0.080038 -0.615057 0.006288
0.069853 -0.614923 -0.022720
0.065567 -0.624500 -0.031363
0.065965 -0.615055 -0.032280
0.077355 -0.598543 -0.006428
0.080887 -0.598759 0.003655
0.071026 -0.598515 -0.022792
0.066393 -0.598690 -0.033476
0.079567 -0.581972 -0.005249
0.081368 -0.587494 0.002725
0.072599 -0.582100 -0.022932
0.066846 -0.582357 -0.034791
0.074711 -0.565950 -0.022936
0.080359 -0.565867 -0.009937
0.067897 -0.566213 -0.036444
0.076516 -0.549896 -0.022753
0.081141 -0.549724 -0.012925
0.068955 -0.550141 -0.038051
0.074933 -0.533922 0.091466
0.076826 -0.533470 -0.022702
0.081450 -0.533210 -0.013590
0.068959 -0.533850 -0.038268
0.076096 -0.517086 -0.022691
0.081350 -0.516788 -0.013137
0.068319 -0.517509 -0.036928
0.073244 -0.500963 0.075241
0.074774 -0.501172 -0.022657
0.080797 -0.500993 -0.011665
0.067557 -0.501352 -0.034889
0.072972 -0.484610 0.058333
0.072672 -0.485078 -0.022624
0.079811 -0.484967 -0.008508
0.066450 -0.485049 -0.032535
0.072684 -0.467973 0.042068
0.074154 -0.451533 0.009499
0.072528 -0.451448 -0.006173
0.068494 -0.451443 -0.018595
0.067191 0.489208 0.124950
0.068713 0.485478 0.108571
0.076914 0.500905 0.108561
0.068582 0.485122 0.091442
0.077262 0.502597 0.093086
0.067832 0.486757 0.074049
0.073904 0.501086 0.074637
0.066801 0.490024 0.057715
0.071586 0.501407 0.058003
0.066111 0.492379 0.048555
0.068512 0.501365 0.042740
0.067403 0.506364 0.172514
0.073851 0.517169 0.173317
0.067654 0.505042 0.157082
0.074333 0.516857 0.157496
0.080002 0.514176 0.075574
0.081139 0.511524 0.088813
0.079285 0.518699 0.057984
0.075549 0.517965 0.042351
0.067081 0.507068 0.026193
0.071631 0.517932 0.026394
0.066070 0.509251 0.015760
0.068415 0.516627 0.010224
0.078680 0.531424 0.190103
0.080410 0.528295 0.173982
0.080613 0.527226 0.157650
0.080539 0.530586 0.042690
0.081909 0.526731 0.052157
0.078040 0.535736 0.027823
0.073875 0.533981 0.009782
0.067657 0.519880 -0.006310
0.072416 0.533957 -0.006374
0.066611 0.522397 -0.017337
0.068385 0.534083 -0.022955
0.078904 0.547960 0.009644
0.080129 0.545586 0.023148
0.078983 0.551298 -0.006362
0.073493 0.550044 -0.022927
0.066067 0.539547 -0.032775
0.067381 0.549672 -0.036363
0.078594 0.565354 -0.022881
0.081481 0.559505 -0.011774
0.069580 0.564559 -0.040874
0.074065 0.582359 -0.039139
0.080518 0.582512 -0.028614
0.066490 0.569038 -0.048697
0.067325 0.582217 -0.049858
0.077067 0.598868 -0.038131
0.081607 0.593773 -0.030492
0.067912 0.598428 -0.051767
0.068579 0.614837 -0.052704
0.076751 0.614951 -0.040889
0.069454 0.631389 -0.052595
0.077637 0.631486 -0.041538
0.070020 0.647771 -0.052908
0.078200 0.647865 -0.042419
0.070146 0.663989 -0.053156
0.078305 0.664084 -0.043268
0.069214 0.680126 -0.051580
0.077371 0.680260 -0.042842
0.067021 0.696226 -0.048720
0.075189 0.696391 -0.041261
0.072380 0.728974 -0.036379
0.080546 0.729177 -0.030072
0.070187 0.745222 -0.034500
0.078356 0.745375 -0.028425
0.067801 0.761454 -0.032626
0.075963 0.761523 -0.026621
0.070582 0.810526 -0.017395
0.078720 0.810600 -0.012452
0.090220 -0.840169 0.140341
0.090230 -0.839332 0.124183
0.090231 -0.836328 0.112156
0.090200 -0.833120 0.104108
0.090109 -0.825928 0.091918
0.090026 -0.819436 0.082668
0.090021 -0.812350 0.074462
0.090004 -0.804327 0.065329
0.090467 -0.793970 0.056434
0.085340 -0.788273 0.049350
0.090462 -0.779272 0.045285
0.096277 -0.785288 0.051970
0.090490 -0.763372 0.037081
0.085422 -0.758767 0.032243
0.087660 -0.745482 0.029578
0.095851 -0.745553 0.036743
0.087900 -0.728999 0.027450
0.096066 -0.729042 0.037442
0.087248 -0.712680 0.027473
0.095438 -0.712694 0.038384
0.086181 -0.696373 0.028094
0.094384 -0.696383 0.040607
0.085047 -0.680047 0.027703
0.089374 -0.663730 0.042890
0.084147 -0.663717 0.028328
0.093017 -0.648618 0.108022
0.093655 -0.647712 0.059376
0.089080 -0.647332 0.042947
0.083861 -0.647392 0.030017
0.088687 -0.632177 0.107835
0.092580 -0.632143 0.091621
0.093286 -0.631953 0.075566
0.093116 -0.631464 0.059400
0.089984 -0.631189 0.042964
0.084036 -0.630148 0.026469
0.088875 -0.615529 0.091460
0.091808 -0.615363 0.075608
0.093310 -0.615268 0.059361
0.091688 -0.615218 0.042968
0.086985 -0.615224 0.026507
0.082007 -0.624100 0.017074
0.083170 -0.615158 0.014545
0.086945 -0.598976 0.091482
0.090643 -0.598794 0.075633
0.093136 -0.598759 0.059360
0.092715 -0.598835 0.042977
0.088661 -0.599007 0.026542
0.084018 -0.598942 0.011961
0.085970 -0.582584 0.091633
0.089290 -0.582346 0.075647
0.092479 -0.582113 0.059376
0.093138 -0.582187 0.042985
0.089171 -0.582629 0.026515
0.083647 -0.582361 0.009007
0.087413 -0.566249 0.075606
0.091306 -0.565985 0.059197
0.092984 -0.565946 0.042836
0.090762 -0.566165 0.026530
0.086376 -0.566154 0.010137
0.081939 -0.576533 0.000953
0.082881 -0.566006 -0.001653
0.089519 -0.550094 0.058576
0.092124 -0.549937 0.042276
0.092583 -0.549722 0.026541
0.089515 -0.549616 0.010198
0.084153 -0.549689 -0.004606
0.087181 -0.533784 0.057879
0.090352 -0.533694 0.041528
0.092053 -0.533489 0.026428
0.090029 -0.533316 0.010231
0.084557 -0.533245 -0.005294
0.087547 -0.517342 0.041094
0.089751 -0.517263 0.026230
0.088781 -0.517125 0.010239
0.084412 -0.516910 -0.004843
0.087312 -0.500808 0.026088
0.087317 -0.500841 0.010161
0.083912 -0.500956 -0.003388
0.084776 -0.484465 0.009985
0.082721 -0.484784 -0.000263
0.082218 0.509046 0.108544
0.086410 0.517338 0.108421
0.082199 0.509155 0.099796
0.084618 0.517189 0.093358
0.090666 0.533133 0.123699
0.093171 0.533525 0.107506
0.090927 0.533823 0.091376
0.083587 0.522383 0.075622
0.087855 0.534073 0.075342
0.082700 0.524666 0.063250
0.085142 0.533023 0.058317
0.083486 0.539585 0.190112
0.088564 0.550520 0.190300
0.084829 0.536499 0.174116
0.091515 0.549997 0.174177
0.085472 0.535275 0.157418
0.092664 0.549361 0.157306
0.094000 0.549042 0.139699
0.097236 0.545803 0.106778
0.096154 0.550415 0.091281
0.093027 0.550271 0.075266
0.091275 0.550620 0.059262
0.083606 0.538784 0.042799
0.087847 0.550683 0.042891
0.082100 0.542327 0.034531
0.083762 0.550833 0.027878
0.089938 0.567284 0.206720
0.097026 0.561791 0.174176
0.097516 0.560367 0.157463
0.097921 0.559372 0.140018
0.097004 0.564720 0.075568
0.097852 0.561301 0.086553
0.096487 0.568325 0.060691
0.093355 0.566835 0.042837
0.090054 0.566557 0.026410
0.082886 0.556088 0.009840
0.087374 0.566392 0.009999
0.082347 0.557359 -0.000866
0.084168 0.565464 -0.006378
0.091039 0.583882 0.222861
0.097298 0.578588 0.042795
0.098270 0.575610 0.056090
0.096130 0.583637 0.027119
0.092651 0.582596 0.010103
0.088459 0.582650 -0.006379
0.082996 0.570157 -0.017506
0.084114 0.582597 -0.020471
0.096531 0.596674 0.223030
0.096098 0.599859 0.011289
0.097661 0.595236 0.021917
0.091351 0.599125 -0.006294
0.084792 0.599264 -0.024133
0.094881 0.616553 -0.004916
0.097266 0.611430 0.006742
0.087151 0.615499 -0.022785
0.082023 0.604664 -0.031350
0.082445 0.615200 -0.032130
0.097060 0.627753 0.256096
0.088958 0.631739 -0.022814
0.095910 0.631723 -0.008757
0.083189 0.631577 -0.033247
0.090954 0.648064 -0.022810
0.097189 0.648113 -0.012007
0.083889 0.647922 -0.034203
0.093665 0.664221 -0.021465
0.098044 0.658661 -0.013824
0.084452 0.664242 -0.034941
0.084343 0.680440 -0.034523
0.092624 0.680681 -0.023443
0.083504 0.696562 -0.033045
0.091747 0.696721 -0.023085
0.089042 0.729426 -0.021822
0.097321 0.729640 -0.012680
0.087551 0.745570 -0.020192
0.095814 0.745726 -0.010245
0.085691 0.761616 -0.018443
0.093930 0.761736 -0.007574
0.084239 0.777919 -0.016737
0.097400 0.794479 0.002837
0.087858 0.810672 -0.004243
0.096108 0.810739 0.004487
0.085598 0.826976 -0.001177
0.093835 0.827031 0.006770
0.087367 0.859669 0.013974
0.095736 0.859726 0.020372
0.106484 -0.820298 0.082053
0.107846 -0.809468 0.072644
0.103362 -0.803328 0.066801
0.107864 -0.796194 0.062907
0.114230 -0.802514 0.067540
0.106407 -0.781917 0.053955
0.106414 -0.773881 0.048853
0.105174 -0.745677 0.045037
0.113295 -0.745799 0.052451
0.103016 -0.729123 0.045750
0.111156 -0.729309 0.055556
0.101585 -0.712734 0.046725
0.104356 -0.696750 0.059351
0.099795 -0.696411 0.048937
0.105888 -0.681402 0.091681
0.103559 -0.681006 0.075537
0.099772 0.553967 0.106870
0.103230 0.566150 0.107476
0.099141 0.556022 0.096816
0.100431 0.566541 0.091850
0.100463 0.569941 0.174155
0.105690 0.582650 0.174019
0.100680 0.568725 0.157628
0.106151 0.582553 0.157644
0.100545 0.567888 0.140713
0.105762 0.582627 0.141262
0.107872 0.582623 0.124689
0.108393 0.582624 0.108244
0.105100 0.582627 0.092017
0.098997 0.572830 0.075687
0.102050 0.582724 0.075660
0.098580 0.574652 0.067168
0.100418 0.581768 0.060636
0.108303 0.599274 0.189191
0.112277 0.597169 0.157034
0.112027 0.597683 0.140751
0.112978 0.595731 0.124783
0.113122 0.595773 0.108484
0.111529 0.599852 0.091971
0.107648 0.598842 0.074603
0.106226 0.599216 0.058887
0.099741 0.586686 0.042806
0.103842 0.599247 0.042835
0.098773 0.589710 0.032975
0.099801 0.599951 0.026898
0.100245 0.604797 0.222724
0.107050 0.616541 0.222670
0.113519 0.610843 0.188460
0.112248 0.615294 0.074395
0.114143 0.615311 0.085785
0.110825 0.615558 0.058856
0.108278 0.615519 0.042858
0.103138 0.615055 0.026336
0.098499 0.605787 0.017394
0.099213 0.616057 0.011264
0.113720 0.627101 0.222881
0.114411 0.626614 0.075254
0.114833 0.624379 0.083639
0.113673 0.628957 0.059164
0.112373 0.632361 0.043349
0.107098 0.631463 0.026500
0.102095 0.631445 0.010102
0.098541 0.622505 0.001451
0.099277 0.631553 -0.000474
0.103142 0.635927 0.256100
0.111297 0.648184 0.027570
0.114016 0.643093 0.038196
0.104888 0.647760 0.010003
0.100463 0.647956 -0.003741
0.106926 0.664007 0.009065
0.112105 0.663972 0.022770
0.101090 0.664195 -0.007679
0.108388 0.680377 0.009030
0.113021 0.680325 0.020537
0.102473 0.680728 -0.006509
0.098813 0.669666 -0.015086
0.098879 0.680882 -0.015203
0.109433 0.696856 0.009946
0.113864 0.696906 0.019846
0.102396 0.696862 -0.006383
0.098580 0.696864 -0.014899
0.109872 0.713313 0.009999
0.114275 0.713384 0.019021
0.109277 0.729734 0.009787
0.114101 0.729774 0.018806
0.101737 0.729657 -0.004505
0.107240 0.745949 0.009904
0.113288 0.746090 0.019949
0.100469 0.745793 -0.002007
0.104606 0.762082 0.010130
0.112140 0.762322 0.021694
0.098918 0.761849 0.000719
0.111712 0.778531 0.021921
0.103235 0.794569 0.010939
0.111505 0.794726 0.021676
0.102764 0.810817 0.012654
0.110977 0.810927 0.022084
0.101519 0.827110 0.015026
0.109697 0.827192 0.023242
0.103644 0.876141 0.031080
0.111884 0.876234 0.036848
0.123026 -0.858395 0.140456
0.122875 -0.837608 0.097292
0.122806 -0.829231 0.089113
0.122740 -0.821144 0.081790
0.121296 -0.777266 0.057313
0.114967 -0.770925 0.050857
0.118390 -0.729614 0.063807
0.115844 0.605394 0.156402
0.120939 0.615484 0.156908
0.115732 0.605914 0.140225
0.120331 0.615585 0.140743
0.116450 0.604051 0.124703
0.120710 0.615790 0.124826
0.116274 0.604089 0.108518
0.119547 0.615804 0.108521
0.115386 0.606099 0.098331
0.116484 0.615548 0.094848
0.117822 0.619226 0.189153
0.128064 0.629521 0.173719
0.128367 0.628891 0.157597
0.127867 0.630165 0.141354
0.127532 0.633548 0.125875
0.123419 0.632376 0.108442
0.118196 0.630960 0.090412
0.119401 0.635348 0.222944
0.129846 0.644293 0.206883
0.128615 0.649338 0.108186
0.130184 0.643972 0.120967
0.123702 0.648977 0.092053
0.116139 0.635006 0.075532
0.120128 0.648828 0.075708
0.115592 0.637154 0.059246
0.118834 0.648557 0.059308
0.115312 0.638243 0.049105
0.116583 0.648523 0.043357
0.129108 0.661230 0.237734
0.129326 0.664974 0.091105
0.130796 0.659064 0.102606
0.125847 0.665442 0.075639
0.124284 0.665264 0.059355
0.120651 0.664820 0.042914
0.115272 0.654023 0.033821
0.116084 0.664322 0.031766
0.130094 0.677934 0.075630
0.131045 0.674806 0.084971
0.128964 0.682871 0.060477
0.123337 0.681249 0.042898
0.117069 0.680685 0.029566
0.126429 0.699153 0.044500
0.130140 0.695095 0.055702
0.117881 0.697115 0.028154
0.118778 0.713605 0.027284
0.127000 0.714010 0.041516
0.119521 0.730099 0.027213
0.127759 0.730565 0.039624
0.119473 0.746398 0.028307
0.127707 0.746839 0.039465
0.118889 0.762546 0.029945
0.127094 0.762913 0.040040
0.118871 0.778723 0.030213
0.127067 0.779019 0.039770
0.119149 0.794911 0.030027
0.127341 0.795139 0.039052
0.119098 0.811058 0.030409
0.127247 0.811224 0.038595
0.118395 0.827287 0.031484
0.126495 0.827422 0.038703
0.116763 0.843641 0.033120
0.124807 0.843809 0.039515
0.119302 0.892592 0.048176
0.127497 0.892669 0.054089
0.139254 -0.854683 0.112159
0.139228 -0.848578 0.104039
0.139117 -0.840526 0.095602
0.139034 -0.830573 0.087421
0.138983 -0.822533 0.081488
0.137426 -0.809401 0.072682
0.130947 -0.802846 0.067474
0.134541 -0.794868 0.066189
0.142667 -0.794963 0.068400
0.136449 -0.778792 0.064906
0.144553 -0.778894 0.069316
0.133336 -0.762610 0.065735
0.141484 -0.762784 0.072373
0.132765 0.637829 0.173958
0.136798 0.648705 0.174095
0.133096 0.637173 0.157699
0.137549 0.648510 0.157741
0.132511 0.638448 0.141382
0.136488 0.648525 0.141346
0.131811 0.639833 0.132035
0.133433 0.649151 0.125826
0.133279 0.652386 0.206756
0.138689 0.665478 0.206168
0.141031 0.665368 0.190440
0.142619 0.665210 0.174186
0.143531 0.664819 0.157377
0.142623 0.664649 0.140394
0.138844 0.665094 0.124306
0.132131 0.655066 0.113518
0.134045 0.664940 0.108214
0.134084 0.669352 0.237171
0.144085 0.679911 0.221776
0.145079 0.678410 0.206115
0.146100 0.676982 0.190428
0.146776 0.675798 0.174204
0.147254 0.674608 0.157075
0.146822 0.676604 0.139901
0.144528 0.682362 0.125029
0.139079 0.681935 0.108159
0.132538 0.670104 0.096022
0.134547 0.680985 0.091129
0.144268 0.694943 0.255625
0.144434 0.699413 0.108304
0.146368 0.694542 0.119807
0.140970 0.698401 0.092006
0.132760 0.686137 0.075717
0.137345 0.698343 0.075789
0.131637 0.689178 0.066688
0.132504 0.699596 0.060426
0.146149 0.715587 0.092287
0.146566 0.710758 0.103825
0.142019 0.714611 0.075796
0.135681 0.714423 0.059339
0.131315 0.705779 0.051024
0.132076 0.714240 0.049742
0.145004 0.730578 0.076637
0.147320 0.725075 0.087131
0.138530 0.730858 0.059369
0.133373 0.730823 0.047895
0.139391 0.747112 0.059294
0.145289 0.746971 0.073754
0.133595 0.747100 0.047705
0.139459 0.763225 0.059030
0.145734 0.763142 0.072460
0.133225 0.763178 0.048193
0.140373 0.779273 0.058958
0.146329 0.779165 0.070096
0.133518 0.779257 0.047965
0.143078 0.796121 0.060606
0.146939 0.791196 0.068482
0.134268 0.795340 0.047336
0.134845 0.811381 0.046841
0.143029 0.811410 0.058015
0.134913 0.827547 0.046927
0.143084 0.827626 0.057113
0.134430 0.843975 0.047801
0.142557 0.844006 0.057428
0.133237 0.860333 0.049182
0.146848 0.876565 0.068222
0.136065 0.892749 0.062330
0.144289 0.892839 0.070760
0.155493 -0.833363 0.085175
0.155457 -0.825368 0.081030
0.155480 -0.811270 0.075908
0.155510 -0.795130 0.073588
0.151527 -0.763033 0.080592
0.159779 -0.763251 0.087855
0.148963 0.688027 0.222730
0.155203 0.698106 0.223145
0.149459 0.686555 0.206781
0.155888 0.698046 0.206989
0.149910 0.685099 0.190553
0.156442 0.697953 0.190594
0.150048 0.683904 0.174192
0.156128 0.697831 0.174162
0.149674 0.682848 0.157419
0.154521 0.697783 0.157717
0.148779 0.684968 0.140714
0.151875 0.697828 0.141202
0.148061 0.688286 0.131604
0.149005 0.699136 0.124716
0.149989 0.703146 0.256005
0.155131 0.714915 0.256065
0.162353 0.710629 0.223386
0.162552 0.709938 0.206938
0.162628 0.710107 0.190496
0.162112 0.711874 0.174078
0.161032 0.715466 0.158726
0.156974 0.714260 0.141142
0.153047 0.714320 0.123592
0.148100 0.705546 0.113301
0.149248 0.715452 0.108031
0.162359 0.730315 0.139857
0.163386 0.724771 0.153824
0.158080 0.730531 0.123799
0.152954 0.730688 0.107532
0.148152 0.721582 0.097812
0.149165 0.730573 0.092231
0.162189 0.746073 0.124464
0.163979 0.740180 0.133582
0.156555 0.746851 0.108002
0.151285 0.746900 0.091867
0.148203 0.735787 0.082648
0.148350 0.746905 0.081939
0.162117 0.760482 0.288413
0.160663 0.763040 0.108919
0.163321 0.757625 0.119539
0.153217 0.763061 0.091746
0.148712 0.763104 0.080606
0.158327 0.780704 0.093347
0.162311 0.776382 0.103884
0.150010 0.779118 0.078151
0.150850 0.795995 0.074448
0.159827 0.795188 0.090485
0.153415 0.811391 0.075599
0.160966 0.811419 0.088709
0.147708 0.801943 0.067075
0.148216 0.811378 0.066233
0.154659 0.827703 0.075737
0.161647 0.827702 0.087539
0.148708 0.827665 0.065391
0.154700 0.843957 0.075635
0.161872 0.843915 0.086639
0.148491 0.843966 0.065680
0.161686 0.860165 0.086391
0.153028 0.876573 0.076414
0.161237 0.876562 0.086926
0.151424 0.892903 0.078990
0.159621 0.892936 0.088672
0.151882 0.925588 0.096332
0.160186 0.925708 0.103924
0.171936 -0.811623 0.077223
0.171930 -0.795510 0.079269
0.166030 0.718680 0.223388
0.171879 0.730483 0.223295
0.166610 0.717855 0.206787
0.173151 0.730186 0.206000
0.166241 0.718105 0.190299
0.171878 0.730251 0.189381
0.165141 0.720020 0.173968
0.168949 0.730456 0.173670
0.164440 0.721703 0.164871
0.166216 0.730329 0.158442
0.178395 0.743136 0.223267
0.179117 0.742085 0.205635
0.178611 0.746516 0.187961
0.175205 0.746784 0.173613
0.171459 0.746777 0.157396
0.165346 0.735634 0.144652
0.166775 0.746060 0.139997
0.177737 0.760682 0.256231
0.179630 0.757456 0.173867
0.180596 0.755286 0.182565
0.177298 0.763232 0.157898
0.171527 0.762970 0.141335
0.165012 0.750997 0.130357
0.166564 0.762978 0.125004
0.167142 0.768602 0.288463
0.177576 0.779153 0.140681
0.179474 0.773832 0.152540
0.172022 0.779127 0.124686
0.164948 0.768399 0.114917
0.166222 0.780737 0.109013
0.177469 0.795567 0.124956
0.179840 0.790154 0.134486
0.169780 0.795409 0.108421
0.164176 0.787171 0.100143
0.164879 0.795311 0.098921
0.172502 0.811628 0.108455
0.178836 0.811764 0.120926
0.166012 0.811486 0.096987
0.175816 0.828003 0.109733
0.179811 0.822816 0.118861
0.166941 0.827706 0.095749
0.167921 0.843969 0.094915
0.176186 0.844162 0.106575
0.168473 0.860244 0.094711
0.176732 0.860430 0.105466
0.168384 0.876574 0.095191
0.176581 0.876657 0.105398
0.167136 0.892930 0.096876
0.175300 0.892972 0.106476
0.168390 0.925812 0.112120
0.176604 0.926038 0.121444
0.188300 -0.828519 0.076313
0.188247 -0.812346 0.076034
0.188241 -0.796150 0.079840
0.182826 0.751479 0.223346
0.189584 0.763628 0.223382
0.183036 0.750516 0.206393
0.189866 0.763551 0.206880
0.182145 0.751976 0.193092
0.185626 0.761885 0.189044
0.182752 0.768828 0.256222
0.189878 0.779993 0.255833
0.195725 0.775890 0.223329
0.195821 0.774541 0.206960
0.194367 0.779587 0.189549
0.183223 0.765684 0.173999
0.189229 0.779789 0.174147
0.181684 0.768787 0.163531
0.183900 0.779393 0.157790
0.196141 0.789819 0.255343
0.194798 0.795632 0.173889
0.196641 0.789661 0.183454
0.189605 0.795983 0.157479
0.182055 0.784564 0.145839
0.183664 0.795653 0.140235
0.192738 0.812662 0.157583
0.196180 0.812952 0.168164
0.186819 0.812202 0.140909
0.181317 0.801116 0.130404
0.182028 0.811913 0.128892
0.195246 0.828427 0.157261
0.196814 0.822407 0.166556
0.189657 0.828966 0.141381
0.183154 0.828460 0.124596
0.194329 0.844624 0.140926
0.196420 0.838875 0.151581
0.187216 0.844843 0.124983
0.180940 0.833638 0.116061
0.181859 0.844370 0.114820
0.189768 0.861096 0.125003
0.195843 0.861508 0.135250
0.182700 0.860645 0.113726
0.190163 0.877143 0.124990
0.196190 0.877477 0.134409
0.182703 0.876768 0.113663
0.188957 0.893312 0.124961
0.195699 0.893590 0.134814
0.181945 0.893015 0.114736
0.194447 0.909896 0.135691
0.183300 0.926216 0.129582
0.191386 0.926313 0.137864
0.183487 0.959008 0.147684
0.191664 0.959024 0.151956
0.204970 -0.860928 0.076120
0.204826 -0.845078 0.073234
0.204666 -0.829224 0.072877
0.204600 -0.812964 0.074338
0.198973 0.784053 0.223193
0.204142 0.796399 0.223044
0.199794 0.782712 0.206882
0.205558 0.796481 0.206842
0.198862 0.784791 0.194354
0.201223 0.795729 0.189569
0.200441 0.797909 0.254839
0.207410 0.812591 0.255234
0.208861 0.812570 0.239223
0.211318 0.814331 0.207950
0.206340 0.813080 0.190582
0.198389 0.800640 0.179181
0.199777 0.813035 0.176403
0.210414 0.826781 0.272546
0.212417 0.823301 0.256045
0.213220 0.821633 0.239585
0.210418 0.828746 0.190240
0.213022 0.822662 0.203221
0.201664 0.828596 0.172618
0.209380 0.846038 0.172914
0.212141 0.840484 0.183997
0.198431 0.833423 0.162170
0.201475 0.845059 0.156967
0.209145 0.862505 0.158310
0.212228 0.857549 0.167370
0.198943 0.849672 0.146085
0.200823 0.861772 0.143476
0.202031 0.877678 0.142633
0.210244 0.877936 0.154908
0.202189 0.893743 0.143037
0.210385 0.893874 0.153693
0.201852 0.910053 0.143985
0.210052 0.910197 0.153230
0.200125 0.926416 0.146223
0.208313 0.926514 0.153910
0.205004 0.958877 0.159397
0.221422 -1.000667 0.205915
0.221360 -1.000563 0.197278
0.221347 -0.994307 0.189307
0.221190 -0.970255 0.143739
0.221149 -0.965115 0.135455
0.221072 -0.931621 0.102148
0.221087 -0.923789 0.097748
0.221284 -0.878116 0.074388
0.221146 -0.813117 0.073999
0.213788 0.820636 0.214148
0.216075 0.828562 0.208000
0.215113 0.834997 0.272546
0.221601 0.845846 0.272147
0.216853 0.831522 0.256102
0.217686 0.829850 0.239675
0.225879 0.844645 0.239794
0.226612 0.846414 0.222002
0.224009 0.845531 0.206687
0.215185 0.833619 0.195718
0.218105 0.845830 0.189330
0.228359 0.857082 0.271867
0.229245 0.855953 0.206372
0.229949 0.853629 0.215580
0.225893 0.862145 0.189751
0.215038 0.851498 0.177570
0.216995 0.862628 0.172676
0.221906 0.878036 0.173625
0.228280 0.877924 0.185143
0.214173 0.868191 0.164347
0.215333 0.878019 0.163000
0.225533 0.893404 0.175324
0.229485 0.887681 0.183122
0.216516 0.893849 0.161900
0.217254 0.910277 0.161467
0.225517 0.910371 0.172405
0.217114 0.926607 0.162186
0.225391 0.926665 0.171752
0.215499 0.942674 0.164098
0.223711 0.942614 0.171857
0.214410 0.958764 0.165095
0.222589 0.958677 0.171710
0.230879 -1.000582 0.205774
0.239044 -0.996489 0.206038
0.229903 -1.000562 0.197905
0.236308 -0.994105 0.191740
0.238130 -0.990884 0.236740
0.237687 -0.987118 0.174115
0.237663 -0.984119 0.163138
0.237599 -0.979479 0.154954
0.237403 -0.953337 0.113793
0.237266 -0.912432 0.088046
0.237274 -0.904270 0.083208
0.237293 -0.895037 0.078709
0.237451 -0.878509 0.072846
0.236435 -0.860499 0.069031
0.230309 -0.853990 0.067388
0.234149 -0.845690 0.067090
0.242260 -0.845623 0.067649
0.237682 -0.813087 0.075594
0.230533 0.852948 0.239813
0.234860 0.862093 0.239821
0.230599 0.852595 0.226602
0.233326 0.860297 0.221973
0.233239 0.865321 0.272205
0.242757 0.877477 0.256187
0.243318 0.879930 0.238998
0.240693 0.878387 0.223327
0.232010 0.864131 0.206336
0.236245 0.878130 0.206631
0.230593 0.867520 0.196037
0.231740 0.877928 0.193524
0.245378 0.893436 0.221755
0.246348 0.887002 0.232960
0.240324 0.894687 0.206949
0.232844 0.893702 0.189413
0.243805 0.907654 0.305368
0.243506 0.909620 0.207635
0.246315 0.903269 0.215241
0.235654 0.910757 0.190581
0.230256 0.898545 0.181621
0.230924 0.910478 0.180627
0.237033 0.926955 0.190576
0.243664 0.927203 0.203734
0.231419 0.926744 0.179986
0.237806 0.942820 0.190568
0.244349 0.943022 0.201950
0.231417 0.942595 0.180134
0.240588 0.959574 0.192023
0.245218 0.954908 0.200255
0.231683 0.958589 0.180030
0.231019 0.974776 0.180825
0.254439 -0.985416 0.254383
0.254417 -0.988086 0.237828
0.254304 -0.990331 0.222011
0.254161 -0.990930 0.206471
0.254089 -0.989266 0.190462
0.254066 -0.986175 0.174174
0.254061 -0.983585 0.163607
0.253992 -0.979056 0.155458
0.252995 -0.970146 0.140457
0.246878 -0.966551 0.132852
0.252918 -0.960785 0.126475
0.257776 -0.965393 0.134220
0.253779 -0.951840 0.114955
0.252324 -0.940807 0.106098
0.245930 -0.934902 0.100237
0.252284 -0.927727 0.097315
0.256821 -0.933109 0.101379
0.252858 -0.909720 0.088018
0.246951 -0.903642 0.083592
0.252858 -0.895206 0.081282
0.257786 -0.900812 0.084819
0.253604 -0.878199 0.075242
0.253776 -0.861935 0.070859
0.253969 -0.845490 0.068640
0.254113 -0.829067 0.070490
0.247353 0.885785 0.256223
0.255370 0.896924 0.257812
0.246730 0.886355 0.243956
0.249051 0.893617 0.238965
0.254709 0.911734 0.239762
0.260066 0.911860 0.253924
0.247695 0.897996 0.226155
0.249094 0.909916 0.221726
0.250239 0.916002 0.305297
0.259180 0.928223 0.240570
0.261820 0.923021 0.250516
0.252469 0.927770 0.223262
0.247135 0.914191 0.213542
0.248015 0.927446 0.211914
0.255076 0.943594 0.223114
0.260325 0.943838 0.235915
0.249242 0.943254 0.210129
0.259151 0.960069 0.224040
0.261543 0.955411 0.233190
0.250068 0.959858 0.206183
0.246318 0.965533 0.198494
0.270838 -0.983683 0.270245
0.270756 -0.985260 0.255250
0.270736 -0.986850 0.238900
0.270649 -0.988151 0.222780
0.270532 -0.988660 0.206737
0.270484 -0.987663 0.190537
0.270403 -0.984480 0.173717
0.264888 -0.982999 0.164843
0.270384 -0.977631 0.158831
