0.082809 0.446031 -0.335996
0.084482 0.452010 -0.349770
0.081514 0.457981 -0.343536
0.078994 0.466669 -0.347408
0.083039 0.466987 -0.355063
0.082099 0.475663 -0.358645
0.082894 0.479059 -0.367286
0.079303 0.487052 -0.367727
0.084455 0.484360 -0.382305
0.081504 0.490548 -0.376070
0.078711 0.499886 -0.382926
0.082968 0.495004 -0.386993
0.080961 0.505930 -0.394573
0.083837 0.500214 -0.400259
0.078017 0.515545 -0.400700
0.082306 0.510131 -0.405562
0.083285 0.516012 -0.416974
0.080453 0.521090 -0.411763
0.082335 0.527741 -0.422447
0.078110 0.532663 -0.417223
0.083638 0.532738 -0.432024
0.081104 0.538303 -0.426039
0.078218 0.548705 -0.432201
0.082851 0.543560 -0.436968
0.084257 0.548764 -0.448888
0.080595 0.554321 -0.443221
0.077665 0.564951 -0.449031
0.082732 0.559721 -0.454223
0.083790 0.565458 -0.466172
0.080580 0.570911 -0.460316
0.077529 0.581792 -0.465886
0.082510 0.576843 -0.471359
0.083885 0.582263 -0.481815
0.080744 0.587657 -0.476074
0.078143 0.597967 -0.479348
0.082715 0.598045 -0.487395
0.081988 0.606374 -0.489856
0.078186 0.617399 -0.498705
0.083184 0.609359 -0.498422
0.084856 0.614889 -0.513982
0.081054 0.620894 -0.507942
0.078701 0.631638 -0.514309
0.083052 0.627118 -0.518928
0.084782 0.632075 -0.530236
0.081552 0.638232 -0.523646
0.078470 0.646945 -0.527439
0.083378 0.647304 -0.535227
0.082284 0.656720 -0.538918
0.083898 0.662609 -0.548095
0.079381 0.667337 -0.543025
0.082920 0.673370 -0.553928
0.084572 0.679097 -0.565248
0.078822 0.684174 -0.560975
0.082483 0.689201 -0.571375
0.084196 0.695344 -0.581292
0.079145 0.700187 -0.576431
0.082781 0.706985 -0.587143
0.085211 0.712783 -0.596885
0.079842 0.717814 -0.591809
0.083271 0.728998 -0.602879
0.081975 0.737188 -0.605390
0.083399 0.740803 -0.613729
0.077756 0.748890 -0.614522
0.086483 0.746327 -0.628739
0.081487 0.752701 -0.622779
0.078176 0.762682 -0.629537
0.083813 0.758149 -0.633470
0.086843 0.762923 -0.645324
0.081550 0.769095 -0.639030
0.083995 0.777960 -0.651565
0.082164 0.786604 -0.655811
0.084792 0.793025 -0.664154
0.083215 0.805147 -0.669755
0.085516 0.810648 -0.680692
0.076973 0.815953 -0.675552
0.083016 0.820325 -0.687165
0.085035 0.826281 -0.699387
0.082426 0.835631 -0.706040
0.085907 0.826857 -0.859427
0.082100 0.820511 -0.867896
0.085146 0.842184 -0.715256
0.083255 0.853413 -0.721127
0.088517 0.844853 -0.843833
0.072618 0.844342 -0.856145
0.077377 0.850198 -0.849469
0.084211 0.839483 -0.853884
0.086250 0.859450 -0.730349
0.083942 0.870323 -0.735933
0.088468 0.861494 -0.827299
0.085108 0.856559 -0.838455
0.086193 0.876115 -0.746585
0.083141 0.885164 -0.752744
0.088410 0.878132 -0.795019
0.086727 0.873832 -0.810202
0.084223 0.870443 -0.821913
0.085674 0.887478 -0.761811
0.086444 0.888343 -0.777542
0.084105 0.886363 -0.790181
0.112966 -0.812391 0.808935
0.114922 -0.819648 0.800680
0.114937 -0.819604 0.802878
0.113881 -0.811531 0.795494
0.109174 -0.795328 0.826505
0.113199 -0.807199 0.826545
0.114514 -0.804126 0.835838
0.113210 -0.793584 0.842003
0.108867 -0.795742 0.810427
0.111867 -0.795945 0.795914
0.114327 -0.795888 0.787416
0.114638 -0.806327 0.787541
0.113425 -0.778477 0.854716
0.114880 -0.787187 0.851553
0.109634 -0.778951 0.843001
0.107261 -0.779483 0.827005
0.108800 -0.779723 0.811914
0.111947 -0.779671 0.797164
0.113723 -0.779128 0.782025
0.107707 -0.763221 0.843452
0.111217 -0.763395 0.860262
0.108740 -0.763686 0.828480
0.111008 -0.763738 0.813545
0.111810 -0.763529 0.797752
0.110008 -0.763180 0.781326
0.113994 -0.773051 0.770597
0.111064 -0.762944 0.765012
0.107552 -0.747349 0.859954
0.113587 -0.758523 0.869021
0.111969 -0.747153 0.871404
0.108463 -0.747675 0.844993
0.112558 -0.747791 0.830472
0.113774 -0.747817 0.812537
0.111182 -0.747707 0.797755
0.105908 -0.747421 0.781219
0.104220 -0.746665 0.764694
0.109316 -0.746931 0.746829
0.112637 -0.757103 0.751419
0.111354 -0.730669 0.861565
0.112737 -0.731723 0.871043
0.112148 -0.735975 0.846281
0.114215 -0.739260 0.836624
0.113062 -0.733316 0.796920
0.114879 -0.739774 0.805929
0.106417 -0.731490 0.780994
0.101964 -0.730984 0.764111
0.102593 -0.729941 0.747414
0.108477 -0.729433 0.731086
0.112112 -0.742096 0.736737
0.114516 -0.723374 0.868774
0.114509 -0.723375 0.866926
0.114244 -0.721831 0.790766
0.111260 -0.715908 0.780867
0.103752 -0.715019 0.763326
0.099757 -0.714319 0.746141
0.100761 -0.715859 0.730037
0.111645 -0.724065 0.720723
0.105782 -0.711989 0.715327
0.113187 -0.704036 0.774770
0.109190 -0.698759 0.762996
0.100805 -0.698753 0.748758
0.104679 -0.696652 0.697102
0.110801 -0.707371 0.703573
0.099936 -0.702045 0.710215
0.105896 -0.682479 0.744808
0.111775 -0.687391 0.757024
0.105057 -0.684349 0.681560
0.109400 -0.691390 0.686636
0.098511 -0.687700 0.691063
0.100019 -0.677559 0.733695
0.105772 -0.666248 0.728298
0.110878 -0.671400 0.740228
0.100658 -0.661075 0.717433
0.105449 -0.649388 0.712126
0.111524 -0.655487 0.722845
0.099369 -0.643280 0.702572
0.105440 -0.633125 0.698749
0.110224 -0.638278 0.706758
0.106425 -0.622095 0.690077
0.106453 -0.613882 0.683189
0.106476 -0.604321 0.675045
0.106459 -0.596105 0.666964
0.106434 -0.587964 0.658829
0.106404 -0.579764 0.651488
0.106367 -0.570181 0.643348
0.106357 -0.561972 0.635622
0.106363 -0.554007 0.627463
0.106392 -0.545788 0.619286
0.106401 -0.537271 0.611138
0.106392 -0.529046 0.603089
0.107266 -0.518429 0.593930
0.102390 -0.512804 0.586908
0.107752 -0.502620 0.579777
0.113257 -0.510156 0.589181
0.102220 -0.495092 0.571342
0.107131 -0.488158 0.565265
0.113090 -0.493937 0.572605
0.106327 -0.478556 0.555185
0.106398 -0.468360 0.545841
0.100981 -0.462140 0.538820
0.106348 -0.454490 0.532765
0.111856 -0.460864 0.540154
0.106264 -0.444785 0.523452
0.105872 -0.435463 0.513810
0.100195 -0.428177 0.507369
0.105733 -0.420893 0.498796
0.100403 -0.411489 0.491137
0.105912 -0.404934 0.482025
0.100534 -0.394663 0.475106
0.105604 -0.388849 0.465185
0.099756 -0.378325 0.459074
0.101828 -0.372194 0.449110
0.098357 -0.362626 0.442651
0.100044 -0.359727 0.434283
0.101170 -0.353947 0.417531
0.094113 -0.347951 0.422355
0.098538 -0.345232 0.411514
0.093934 -0.334316 0.404288
0.099132 -0.339182 0.399867
0.098204 -0.329628 0.393471
0.098533 -0.328381 0.384503
0.093656 -0.320170 0.384342
0.096441 -0.317694 0.367727
0.098850 -0.325915 0.367729
0.096669 -0.321091 0.351272
0.098611 -0.326228 0.356098
0.098720 0.705513 -0.702794
0.097244 0.715131 -0.697393
0.095948 0.699358 -0.696640
0.098686 0.710391 -0.703120
0.097000 0.715293 -0.713223
0.098688 0.710455 -0.706766
0.098432 0.747589 -0.712718
0.098179 0.742797 -0.707457
0.097723 0.731378 -0.713284
0.098353 0.737306 -0.717696
0.098282 0.753635 -0.705620
0.097961 0.762696 -0.695669
0.097747 0.747383 -0.699247
0.098368 0.762698 -0.703975
0.097841 0.778939 -0.692736
0.098881 0.779008 -0.701262
0.096577 0.794967 -0.693692
0.099021 0.795144 -0.702492
0.098649 0.786799 -0.813648
0.098390 0.788595 -0.803369
0.097402 0.780934 -0.809261
0.099013 0.795267 -0.809610
0.098611 0.804072 -0.705405
0.093482 0.809914 -0.698841
0.098834 0.806432 -0.714242
0.096726 0.814490 -0.714236
0.098821 0.808859 -0.730277
0.098016 0.817249 -0.730170
0.098151 0.818080 -0.746708
0.098679 0.809366 -0.747204
0.098801 0.812959 -0.763346
0.098250 0.819169 -0.756809
0.097610 0.829673 -0.761922
0.098703 0.824071 -0.767626
0.098867 0.826771 -0.780248
0.098125 0.835223 -0.779739
0.098391 0.836854 -0.791363
0.098929 0.830535 -0.797084
0.097563 0.844884 -0.796457
0.098607 0.838637 -0.802402
0.098865 0.825266 -0.837097
0.095603 0.829635 -0.842909
0.098366 0.835822 -0.835263
0.099386 0.830098 -0.829731
0.097871 0.849385 -0.812422
0.098898 0.841327 -0.813217
0.098924 0.841338 -0.824934
0.096896 0.845828 -0.828900
0.120729 -0.826097 0.794422
0.129873 -0.836465 0.793616
0.130379 -0.836134 0.803420
0.123246 -0.826258 0.808442
0.130350 -0.836224 0.784665
0.127491 -0.826562 0.779875
0.116151 -0.818091 0.813626
0.122318 -0.815070 0.826977
0.127142 -0.821963 0.821969
0.115579 -0.816713 0.790319
0.120984 -0.811796 0.781190
0.130198 -0.811969 0.772480
0.130554 -0.820552 0.772561
0.123366 -0.806784 0.839206
0.123342 -0.798627 0.847423
0.120181 -0.795849 0.779456
0.128325 -0.795733 0.771381
0.123308 -0.790561 0.853640
0.122461 -0.777868 0.862242
0.123121 -0.777773 0.765452
0.117261 -0.784377 0.776990
0.116468 -0.768860 0.866424
0.127369 -0.771983 0.868533
0.122414 -0.763121 0.870778
0.118171 -0.768307 0.759605
0.129051 -0.770995 0.755905
0.122308 -0.760854 0.748206
0.123160 -0.747123 0.877517
0.115597 -0.752795 0.740389
0.126438 -0.753460 0.739921
0.121744 -0.746428 0.735116
0.123050 -0.731722 0.875710
0.118356 -0.742395 0.825634
0.118456 -0.742438 0.816960
0.124720 -0.734036 0.811547
0.123470 -0.737453 0.830950
0.123002 -0.722820 0.869484
0.122465 -0.728761 0.847000
0.116790 -0.724535 0.857606
0.122532 -0.722245 0.862056
0.127608 -0.722397 0.852622
0.120145 -0.728971 0.801854
0.124598 -0.717220 0.796113
0.130968 -0.723471 0.805990
0.118184 -0.710929 0.786605
0.123498 -0.699908 0.778858
0.129069 -0.706512 0.790203
0.117942 -0.693310 0.768734
0.123877 -0.683424 0.760916
0.128829 -0.690321 0.770948
0.118956 -0.676531 0.751266
0.123763 -0.669751 0.745387
0.129792 -0.674306 0.753294
0.122831 -0.660523 0.733740
0.122833 -0.652838 0.725637
0.122820 -0.644647 0.717681
0.122786 -0.635103 0.709511
0.122750 -0.626918 0.702143
0.123728 -0.616455 0.692725
0.118939 -0.610520 0.685997
0.123490 -0.601082 0.678767
0.129778 -0.608743 0.687479
0.117162 -0.593389 0.669925
0.122318 -0.584343 0.662617
0.127984 -0.591849 0.671490
0.116633 -0.576820 0.653865
0.121071 -0.567634 0.646247
0.127484 -0.575498 0.655293
0.114643 -0.559751 0.638023
0.121101 -0.553194 0.631532
0.125511 -0.559296 0.638605
0.122678 -0.543638 0.621341
0.122684 -0.535293 0.613180
0.122677 -0.527059 0.605060
0.122373 -0.517658 0.595504
0.116742 -0.510160 0.589203
0.121384 -0.503069 0.580276
0.115166 -0.493938 0.572617
0.121400 -0.489313 0.564502
0.122625 -0.480011 0.552631
0.121583 -0.470711 0.543845
0.115466 -0.460867 0.540196
0.117894 -0.454497 0.530098
0.114640 -0.444789 0.523550
0.117023 -0.441366 0.515487
0.119822 -0.435581 0.500643
0.111085 -0.429346 0.506345
0.116515 -0.424487 0.495706
0.117825 -0.419535 0.483702
0.111303 -0.413571 0.488857
0.115673 -0.409254 0.478235
0.111448 -0.398362 0.471289
0.116653 -0.403848 0.466690
0.115197 -0.393954 0.460955
0.115694 -0.391994 0.451357
0.110713 -0.383796 0.451021
0.115510 -0.391196 0.436082
0.112672 -0.383042 0.435796
0.112038 -0.387182 0.420092
0.114923 -0.392743 0.425781
0.139669 -0.837166 0.805203
0.139714 -0.832116 0.813211
0.139805 -0.823828 0.824107
0.139830 -0.817192 0.832237
0.139775 -0.809141 0.842422
0.139734 -0.802067 0.850644
0.139681 -0.794067 0.855691
0.139685 -0.781532 0.863772
0.139715 -0.773238 0.869043
0.139669 -0.762246 0.873451
0.139516 -0.747139 0.879902
0.139397 -0.731736 0.877982
0.139352 -0.721826 0.870609
0.139311 -0.731539 0.830524
0.139325 -0.726711 0.842110
0.139311 -0.728556 0.816576
0.139312 -0.721978 0.808255
0.139321 -0.719017 0.861637
0.139310 -0.720829 0.850275
0.139283 -0.713805 0.800465
0.139266 -0.705567 0.791905
0.139237 -0.697500 0.781353
0.139230 -0.689312 0.772057
0.139150 -0.681175 0.762748
0.139122 -0.673636 0.754123
0.140355 -0.664491 0.743240
0.135741 -0.658981 0.735610
0.140387 -0.652241 0.729579
0.146633 -0.658076 0.736733
0.139153 -0.642597 0.719620
0.139132 -0.633995 0.711410
0.139081 -0.625802 0.703341
0.138435 -0.616015 0.693669
0.132563 -0.608743 0.687499
0.139473 -0.600772 0.679173
0.135566 -0.591851 0.671580
0.140077 -0.584617 0.663150
0.133727 -0.575501 0.655371
0.138404 -0.568721 0.646103
0.132192 -0.559300 0.638673
0.138165 -0.555605 0.629504
0.140293 -0.546533 0.615017
0.135745 -0.538072 0.610542
0.138972 -0.533619 0.598630
0.134079 -0.522442 0.594195
0.136889 -0.517689 0.581812
0.127618 -0.511502 0.587885
0.133381 -0.506901 0.577022
0.134956 -0.501815 0.564526
0.126062 -0.495974 0.570018
0.132045 -0.491702 0.559221
0.132748 -0.486124 0.546981
0.131064 -0.477007 0.540780
0.126770 -0.467099 0.531832
0.131322 -0.475306 0.531968
0.129884 -0.465295 0.516073
0.131293 -0.473427 0.516344
0.131023 -0.474325 0.507793
0.129495 -0.468827 0.501778
0.157691 -0.831955 0.809996
0.153122 -0.837081 0.804838
0.156233 -0.816294 0.830973
0.156206 -0.822799 0.822874
0.156160 -0.800850 0.849366
0.156184 -0.808246 0.841157
0.156102 -0.792841 0.854887
0.156121 -0.780558 0.862953
0.156094 -0.762214 0.872274
0.156140 -0.772239 0.868567
0.155939 -0.747096 0.878257
0.155820 -0.731709 0.878202
0.155771 -0.720255 0.871972
0.150811 -0.724859 0.840035
0.156007 -0.725616 0.829302
0.161717 -0.723158 0.833921
0.156067 -0.719570 0.846057
0.155695 -0.725241 0.820280
0.155690 -0.720843 0.812047
0.155729 -0.715559 0.861894
0.155654 -0.712706 0.800634
0.155625 -0.705658 0.792128
0.157138 -0.696293 0.779105
0.152723 -0.689412 0.772251
0.156985 -0.682704 0.762582
0.150354 -0.673598 0.754262
0.154406 -0.667150 0.744316
0.147555 -0.658076 0.736742
0.153996 -0.654252 0.727844
0.155501 -0.645127 0.716973
0.155495 -0.637654 0.708817
0.156021 -0.630108 0.697135
0.150943 -0.620732 0.692353
0.156222 -0.617063 0.679663
0.143436 -0.609783 0.686668
0.150568 -0.603687 0.675847
0.152555 -0.599234 0.664469
0.146417 -0.592734 0.670878
0.149247 -0.588275 0.660028
0.151040 -0.583445 0.647562
0.144626 -0.577339 0.653488
0.148867 -0.572869 0.642652
0.149877 -0.567649 0.629615
0.143092 -0.561941 0.634615
0.147650 -0.558488 0.623699
0.148595 -0.555400 0.613613
0.148932 -0.552328 0.597404
0.146716 -0.544125 0.597115
0.146989 -0.544523 0.581411
0.148084 -0.552567 0.582173
0.143521 -0.549887 0.568113
0.147470 -0.555194 0.574609
0.172825 -0.813467 0.825945
0.167527 -0.820609 0.820298
0.174086 -0.795169 0.846520
0.172559 -0.805303 0.837301
0.173226 -0.778856 0.859034
0.169627 -0.789844 0.853035
0.165818 -0.770675 0.867882
0.171741 -0.761983 0.869319
0.172373 -0.747207 0.873952
0.172258 -0.731741 0.874844
0.172206 -0.720868 0.871127
0.172537 -0.731448 0.815423
0.171934 -0.727183 0.829312
0.165551 -0.721981 0.811023
0.172152 -0.716161 0.862015
0.171902 -0.719543 0.846118
0.166269 -0.723166 0.833921
0.167327 -0.716158 0.796776
0.164656 -0.706682 0.790540
0.167298 -0.702837 0.780560
0.170731 -0.697573 0.764859
0.163611 -0.691049 0.770999
0.166335 -0.686831 0.759466
0.168870 -0.681968 0.746156
0.161263 -0.675934 0.751887
0.165693 -0.671567 0.740894
0.158486 -0.660646 0.732678
0.166635 -0.666242 0.727908
0.164242 -0.657075 0.721962
0.165085 -0.650985 0.711358
0.163980 -0.641231 0.705219
0.164861 -0.639113 0.696173
0.165541 -0.633350 0.678672
0.161888 -0.627801 0.683472
0.164003 -0.624292 0.672634
0.163849 -0.638680 0.656722
0.159851 -0.632879 0.650252
0.163219 -0.628159 0.658151
0.164862 -0.633480 0.663628
0.160951 -0.618123 0.662931
0.164001 -0.624270 0.668248
0.181291 -0.820486 0.803958
0.178361 -0.817528 0.814646
0.172734 -0.823997 0.809533
0.183817 -0.812485 0.809569
0.182665 -0.795394 0.838859
0.180892 -0.803430 0.834953
0.180530 -0.786903 0.850988
0.185882 -0.781039 0.844495
0.183441 -0.776169 0.854328
0.176709 -0.767078 0.865146
0.185337 -0.762703 0.859561
0.181612 -0.756824 0.868136
0.183077 -0.747421 0.869464
0.182708 -0.731809 0.870003
0.180860 -0.748184 0.796228
0.179534 -0.742807 0.800690
0.179539 -0.742800 0.808781
0.182061 -0.748170 0.814228
0.176202 -0.733419 0.796205
0.180376 -0.739936 0.789623
0.181011 -0.722887 0.869239
0.185350 -0.730972 0.845894
0.177196 -0.724881 0.840121
0.182208 -0.736104 0.830554
0.180708 -0.739098 0.819774
0.181168 -0.733470 0.780036
0.178094 -0.729094 0.784805
0.180385 -0.722880 0.773647
0.175141 -0.716656 0.779920
0.182075 -0.721192 0.861882
0.182001 -0.721152 0.851034
0.180680 -0.720070 0.764395
0.178711 -0.711924 0.764188
0.180611 -0.719539 0.753615
0.179563 -0.714344 0.748061
0.180449 -0.709249 0.742311
0.177355 -0.699866 0.746967
0.180449 -0.705700 0.742007
0.177211 -0.699652 0.730676
0.180442 -0.705649 0.736850
-0.040962 0.244829 -0.330352
-0.040941 0.252539 -0.338818
-0.024545 0.212480 -0.297779
-0.024548 0.218132 -0.305989
-0.024525 0.262382 -0.363253
-0.024529 0.269476 -0.371296
-0.024536 0.277724 -0.380401
-0.024523 0.284583 -0.388690
-0.024513 0.292839 -0.397570
-0.024508 0.301468 -0.406040
-0.024519 0.309730 -0.414518
-0.024535 0.316896 -0.422877
-0.024524 0.325133 -0.431826
-0.024521 0.332837 -0.439937
-0.024499 0.341083 -0.447828
-0.024490 0.349248 -0.456045
-0.024479 0.357493 -0.463477
-0.024488 0.367098 -0.471776
-0.024486 0.375336 -0.479802
-0.024505 0.382762 -0.488158
-0.024477 0.390988 -0.496549
-0.024472 0.398965 -0.504708
-0.024461 0.407204 -0.512441
-0.024465 0.415939 -0.520648
-0.024463 0.424186 -0.527798
-0.024471 0.433804 -0.536150
-0.024483 0.442048 -0.543727
-0.024470 0.475209 -0.575257
-0.008221 0.048189 -0.084788
-0.008246 0.054156 -0.093168
-0.008271 0.098201 -0.149413
-0.008281 0.104844 -0.157727
-0.008256 0.113115 -0.168804
-0.008253 0.118735 -0.177035
-0.008230 0.126061 -0.187289
-0.008252 0.132300 -0.196272
-0.008258 0.139192 -0.204526
-0.008259 0.147432 -0.214147
-0.008242 0.154170 -0.222741
-0.008216 0.162451 -0.234776
-0.008218 0.167540 -0.242776
-0.008188 0.174311 -0.252671
-0.008199 0.180979 -0.262606
-0.008188 0.186991 -0.270874
-0.008193 0.195250 -0.281507
-0.008185 0.202168 -0.289749
-0.008193 0.210429 -0.301036
-0.008200 0.215885 -0.309234
-0.008190 0.221900 -0.318216
-0.008203 0.229482 -0.329262
-0.008179 0.237033 -0.337781
-0.008165 0.245297 -0.346892
-0.008160 0.252288 -0.355600
-0.008155 0.260555 -0.365683
-0.008172 0.267132 -0.373719
-0.008156 0.275392 -0.383426
-0.008153 0.281989 -0.391674
-0.008123 0.290225 -0.400486
-0.008106 0.298393 -0.409090
-0.008119 0.430384 -0.538680
-0.008126 0.438615 -0.546659
-0.008145 0.446753 -0.554917
-0.008117 0.454970 -0.562124
-0.008112 0.463925 -0.570401
-0.008099 0.472161 -0.577878
-0.008116 0.481341 -0.586075
-0.008114 0.489612 -0.592960
-0.008125 0.498928 -0.601403
-0.008120 0.507177 -0.609495
-0.008124 0.515151 -0.617749
-0.008119 0.523430 -0.625793
-0.008113 0.530993 -0.633938
-0.008111 0.539260 -0.642213
-0.008113 0.548687 -0.650456
-0.008115 0.556943 -0.657268
-0.008110 0.565779 -0.665838
-0.008096 0.574040 -0.674286
-0.008119 0.581937 -0.682309
-0.008121 0.590203 -0.690483
-0.008150 0.597206 -0.698516
-0.008160 0.605458 -0.707195
-0.008154 0.615320 -0.715392
-0.008162 0.623575 -0.721745
-0.008149 0.632530 -0.729883
-0.008145 0.640766 -0.737502
-0.008143 0.648476 -0.745696
-0.008147 0.656723 -0.754530
-0.008133 0.663869 -0.762718
-0.008128 0.672127 -0.771777
-0.008124 0.681515 -0.779984
-0.008132 0.689748 -0.786728
-0.008053 0.723226 -0.819112
-0.008027 0.731121 -0.827395
-0.008015 0.739360 -0.835916
-0.007996 0.776355 -0.867586
-0.008037 0.784691 -0.873386
-0.008121 0.797085 -0.877097
-0.008222 0.812143 -0.874700
0.008049 -0.002277 -0.020464
0.008086 0.004339 -0.029058
0.008028 0.031535 -0.068913
0.007946 0.036856 -0.077122
0.007979 0.065861 -0.115342
0.007975 0.072786 -0.123653
0.007967 0.081028 -0.133221
0.007961 0.088337 -0.141414
0.007966 0.096604 -0.150837
0.007980 0.103289 -0.159201
0.007992 0.131654 -0.197072
0.007981 0.138461 -0.205307
0.007986 0.146696 -0.215041
0.008007 0.153424 -0.223476
0.008037 0.161692 -0.235099
0.008042 0.167055 -0.243158
0.008076 0.173534 -0.252531
0.008079 0.180688 -0.262942
0.008076 0.186660 -0.271185
0.008066 0.194909 -0.281974
0.008073 0.201669 -0.290190
0.008096 0.229211 -0.329765
0.008119 0.236540 -0.338197
0.008133 0.244802 -0.347256
0.008138 0.251769 -0.355828
0.008146 0.260037 -0.365848
0.008135 0.266592 -0.374020
0.008162 0.274853 -0.384367
0.008176 0.281268 -0.392737
0.008250 0.313128 -0.428071
0.008191 0.320952 -0.435374
0.008128 0.329147 -0.442544
0.008113 0.337299 -0.450470
0.008094 0.345540 -0.458637
0.008124 0.354050 -0.466911
0.008136 0.362290 -0.475033
0.008162 0.369800 -0.483350
0.008153 0.378036 -0.492317
0.008178 0.386000 -0.500572
0.008184 0.394237 -0.508370
0.008189 0.402825 -0.516539
0.008195 0.411071 -0.524565
0.008222 0.462701 -0.571571
0.008231 0.470914 -0.579099
0.008212 0.479856 -0.587227
0.008209 0.488095 -0.594122
0.008196 0.497498 -0.602414
0.008178 0.505742 -0.610299
0.008174 0.513889 -0.618569
0.008185 0.522163 -0.626625
0.008204 0.530090 -0.634837
0.008218 0.538349 -0.642935
0.008229 0.547519 -0.651158
0.008233 0.555774 -0.657978
0.008244 0.564857 -0.666434
0.008249 0.573124 -0.674750
0.008206 0.581027 -0.682851
0.008189 0.589297 -0.691265
0.008158 0.596501 -0.699362
0.008156 0.604752 -0.707885
0.008176 0.614227 -0.716091
0.008182 0.622482 -0.722600
0.008195 0.631371 -0.730769
0.008198 0.639619 -0.738634
0.008197 0.647354 -0.746846
0.008195 0.655611 -0.755940
0.008211 0.662622 -0.764141
0.008223 0.670879 -0.773246
0.008248 0.679584 -0.781483
0.008256 0.687833 -0.788356
0.008276 0.696742 -0.796518
0.008287 0.705003 -0.804117
0.008299 0.714202 -0.812332
0.008294 0.722447 -0.819942
0.008314 0.730436 -0.828221
0.008327 0.738679 -0.836653
0.008384 0.747154 -0.845564
0.008416 0.755408 -0.854152
0.008237 0.797207 -0.881852
0.008124 0.812211 -0.879250
0.024672 -0.132171 0.144612
0.024644 -0.127612 0.136632
0.024700 -0.095261 0.101124
0.024673 -0.087032 0.093394
0.024667 -0.078233 0.084469
0.024590 -0.071810 0.072906
0.024494 -0.065545 0.060880
0.024494 -0.059533 0.052705
0.024458 -0.051337 0.043994
0.024419 -0.044144 0.037332
0.024524 -0.035404 0.025032
0.019193 -0.031680 0.017640
0.024566 -0.026265 0.011263
0.030070 -0.030968 0.019041
0.024389 -0.016964 -0.002446
0.024375 -0.011794 -0.010780
0.024389 -0.003540 -0.022019
0.024403 0.002755 -0.030589
0.024412 0.008938 -0.040114
0.024404 0.016181 -0.051058
0.024363 0.022281 -0.059194
0.024332 0.030509 -0.070325
0.024270 0.035831 -0.078584
0.024275 0.043325 -0.088320
0.024274 0.050381 -0.097544
0.024295 0.056917 -0.105870
0.024302 0.065173 -0.115860
0.024313 0.072254 -0.124211
0.024313 0.080507 -0.133470
0.024313 0.087889 -0.141709
0.024314 0.096158 -0.151373
0.024322 0.102618 -0.159741
0.024356 0.110737 -0.170714
0.024360 0.116640 -0.179093
0.024379 0.122934 -0.187216
0.024363 0.131181 -0.197500
0.024358 0.138192 -0.205742
0.024338 0.146435 -0.215093
0.024344 0.153401 -0.223448
0.024356 0.161670 -0.235185
0.024374 0.166764 -0.243310
0.024427 0.173104 -0.252442
0.024452 0.180563 -0.262965
0.024440 0.186952 -0.271216
0.024407 0.195203 -0.281325
0.024409 0.202221 -0.289534
0.022800 0.211417 -0.302465
0.016251 0.215202 -0.309932
0.022828 0.220705 -0.316542
0.027184 0.216238 -0.308506
0.024461 0.229558 -0.329256
0.024480 0.237123 -0.337680
0.024483 0.245382 -0.346431
0.024491 0.252443 -0.355004
0.024501 0.260707 -0.364906
0.024519 0.267541 -0.373338
0.024550 0.275801 -0.383640
0.024577 0.282171 -0.392177
0.023304 0.291698 -0.403214
0.016994 0.297124 -0.411221
0.022965 0.306095 -0.418499
0.027861 0.298954 -0.409403
0.018055 0.313149 -0.428165
0.023518 0.322264 -0.434301
0.028881 0.315050 -0.425611
0.018132 0.329331 -0.442182
0.024015 0.338438 -0.449239
0.028996 0.331263 -0.440552
0.018957 0.345681 -0.458339
0.024159 0.354838 -0.465509
0.029878 0.347507 -0.456504
0.018445 0.362212 -0.474983
0.024322 0.371244 -0.482343
0.029312 0.364367 -0.472840
0.019298 0.378147 -0.492106
0.025089 0.387373 -0.499594
0.030177 0.380351 -0.489914
0.019953 0.394391 -0.508303
0.025634 0.403697 -0.515885
0.030877 0.396317 -0.507132
0.020390 0.411098 -0.524549
0.025093 0.420190 -0.531763
0.031300 0.412580 -0.523398
0.018872 0.427860 -0.540463
0.024105 0.436919 -0.547916
0.029742 0.429469 -0.539003
0.018423 0.444411 -0.556603
0.024176 0.451991 -0.561981
0.029311 0.445779 -0.555496
0.024619 0.462844 -0.571636
0.024620 0.471058 -0.579209
0.024598 0.479859 -0.587281
0.024586 0.488095 -0.594240
0.024556 0.497300 -0.602485
0.024532 0.505541 -0.610363
0.024537 0.513798 -0.618643
0.024556 0.522074 -0.626620
0.024596 0.530070 -0.634840
0.024606 0.538328 -0.642889
0.024621 0.547563 -0.651114
0.024615 0.555818 -0.657872
0.024630 0.564892 -0.666282
0.024626 0.573156 -0.674606
0.024585 0.580918 -0.682738
0.024558 0.589187 -0.691371
0.024536 0.596315 -0.699503
0.024530 0.604568 -0.708082
0.024552 0.613867 -0.716296
0.024558 0.622122 -0.722843
0.024570 0.630966 -0.731030
0.024572 0.639215 -0.739029
0.024581 0.647048 -0.747258
0.024587 0.655307 -0.756339
0.024612 0.662289 -0.764552
0.024622 0.670546 -0.773702
0.024650 0.678948 -0.781948
0.024655 0.687202 -0.788914
0.024679 0.696125 -0.797085
0.024683 0.704392 -0.804685
0.024694 0.713783 -0.812912
0.024679 0.722032 -0.820403
0.024702 0.729953 -0.828707
0.024710 0.738201 -0.837312
0.024775 0.746064 -0.846302
0.024807 0.754348 -0.855426
0.024815 0.763373 -0.864444
0.024801 0.771612 -0.872195
0.024738 0.781202 -0.879367
0.024635 0.797238 -0.884405
0.024530 0.812196 -0.881430
0.024438 0.827282 -0.874004
0.041023 -0.263723 0.261541
0.041059 -0.175727 0.185326
0.041139 -0.167521 0.177281
0.041109 -0.159399 0.168807
0.041085 -0.151102 0.159330
0.041040 -0.144097 0.150817
0.041021 -0.135864 0.140904
0.040975 -0.129384 0.133061
0.040303 -0.119869 0.123864
0.034400 -0.113377 0.116190
0.040358 -0.105869 0.111344
0.045285 -0.111947 0.117707
0.041039 -0.094657 0.101965
0.040977 -0.086396 0.094276
0.040959 -0.077834 0.085418
0.040797 -0.069124 0.072614
0.035235 -0.064963 0.062238
0.040751 -0.055578 0.056414
0.046144 -0.061510 0.066153
0.035301 -0.049645 0.045735
0.041253 -0.038897 0.042801
0.046257 -0.043203 0.051356
0.036237 -0.034411 0.029830
0.041359 -0.027310 0.025287
0.047177 -0.029911 0.039060
0.040366 -0.019495 0.011176
0.034648 -0.016008 -0.000272
0.040952 -0.006372 -0.005967
0.045543 -0.011624 0.006399
0.036367 -0.001293 -0.019062
0.041389 0.006361 -0.024500
0.047289 0.003238 -0.012062
0.040453 0.014294 -0.038814
0.034784 0.017007 -0.049470
0.041295 0.026720 -0.056090
0.045667 0.021171 -0.043571
0.036977 0.032074 -0.068024
0.041639 0.038004 -0.073206
0.047891 0.035464 -0.062514
0.040084 0.046853 -0.088273
0.034200 0.050477 -0.097398
0.040426 0.059737 -0.104379
0.045133 0.053422 -0.093891
0.035756 0.066103 -0.114702
0.041037 0.073054 -0.120858
0.046638 0.068509 -0.111618
0.040797 0.081850 -0.131964
0.040790 0.088651 -0.140233
0.040784 0.096921 -0.150525
0.040747 0.103155 -0.158903
0.040783 0.112405 -0.172114
0.035356 0.116612 -0.179100
0.040842 0.121914 -0.185519
0.046280 0.116983 -0.178556
0.040865 0.131286 -0.197144
0.040834 0.138633 -0.205410
0.040810 0.146885 -0.214245
0.040763 0.153996 -0.222595
0.040768 0.162277 -0.234250
0.040773 0.167336 -0.242472
0.040873 0.174200 -0.252385
0.040929 0.181073 -0.262199
0.040899 0.187986 -0.270431
0.040840 0.196239 -0.279754
0.040815 0.203624 -0.287951
0.040795 0.211882 -0.298218
0.040806 0.217587 -0.306507
0.040871 0.224784 -0.318172
0.040895 0.230595 -0.327814
0.042493 0.240653 -0.337676
0.038072 0.246718 -0.344881
0.042460 0.253316 -0.351264
0.049009 0.248067 -0.343393
0.040913 0.262831 -0.362615
0.040946 0.270146 -0.371290
0.041008 0.278397 -0.380983
0.041034 0.284915 -0.389587
0.041057 0.293177 -0.398863
0.041007 0.301805 -0.407108
0.040978 0.310051 -0.414509
0.040915 0.317602 -0.422561
0.040886 0.325817 -0.430545
0.040838 0.334031 -0.438156
0.040842 0.342207 -0.445474
0.040835 0.349978 -0.453684
0.040820 0.358223 -0.461821
0.040819 0.367303 -0.470334
0.040842 0.375529 -0.478458
0.040882 0.383015 -0.487205
0.040933 0.391259 -0.496667
0.040979 0.398850 -0.505071
0.041007 0.407091 -0.513441
0.040984 0.414897 -0.521508
0.040967 0.423107 -0.529035
0.040899 0.431907 -0.537116
0.040891 0.440134 -0.544870
0.040898 0.448298 -0.553362
0.040962 0.456550 -0.561234
0.041032 0.464866 -0.569830
0.041067 0.473123 -0.577799
0.041033 0.481833 -0.585835
0.041016 0.490093 -0.592871
0.040970 0.498934 -0.601102
0.040945 0.507184 -0.609096
0.040970 0.515256 -0.617332
0.040987 0.523536 -0.625335
0.041039 0.531115 -0.633520
0.041042 0.539380 -0.641873
0.041050 0.548823 -0.650110
0.041025 0.557076 -0.656888
0.041036 0.565946 -0.665288
0.041030 0.574202 -0.673598
0.041015 0.581697 -0.681716
0.040989 0.589963 -0.690528
0.040981 0.596804 -0.698664
0.040959 0.605059 -0.707574
0.040966 0.614490 -0.715791
0.040958 0.622744 -0.722342
0.040973 0.631502 -0.730533
0.040978 0.639749 -0.738507
0.041012 0.647543 -0.746743
0.041031 0.655801 -0.755653
0.041070 0.662941 -0.763870
0.041067 0.671202 -0.773046
0.041078 0.679538 -0.781284
0.041074 0.687796 -0.788462
0.041103 0.696477 -0.796643
0.041107 0.704744 -0.804509
0.041125 0.713689 -0.812762
0.041109 0.721944 -0.820513
0.041132 0.729710 -0.828856
0.041132 0.737968 -0.837708
0.041191 0.745932 -0.846741
0.041214 0.754231 -0.855655
0.041216 0.763138 -0.864584
0.041208 0.771391 -0.872458
0.041152 0.781194 -0.880021
0.041072 0.797200 -0.885007
0.040972 0.812105 -0.881939
0.040878 0.827186 -0.874385
0.057267 -0.341233 0.331813
0.057285 -0.333035 0.323219
0.057273 -0.324977 0.314983
0.057258 -0.316736 0.307151
0.057226 -0.308346 0.298671
0.057230 -0.300124 0.291281
0.057204 -0.290516 0.283021
0.057262 -0.282356 0.275990
0.057309 -0.273939 0.267870
0.057324 -0.265831 0.260100
0.057269 -0.255717 0.251893
0.057228 -0.247502 0.245976
0.058077 -0.235593 0.236622
0.053254 -0.229417 0.229622
0.057771 -0.219733 0.222271
0.064058 -0.227429 0.231845
0.051448 -0.212017 0.212627
0.056390 -0.202801 0.207197
0.062276 -0.209836 0.215118
0.050476 -0.195624 0.198192
0.056521 -0.186015 0.195779
0.061338 -0.190683 0.201475
0.061883 -0.157298 0.205790
0.060790 -0.156311 0.190425
0.052979 -0.167134 0.178009
0.055233 -0.155873 0.173123
0.058136 -0.140681 0.189350
0.057277 -0.139651 0.174146
0.052480 -0.150503 0.160349
0.054301 -0.139951 0.155881
0.054364 -0.124357 0.172952
0.055745 -0.123505 0.157534
0.052146 -0.135098 0.143644
0.053566 -0.123844 0.139682
0.053659 -0.108011 0.156496
0.055211 -0.107115 0.141273
0.051485 -0.119054 0.128791
0.052689 -0.106746 0.124004
0.054229 -0.091537 0.140083
0.054174 -0.090613 0.124777
0.050775 -0.101391 0.113323
0.051700 -0.089526 0.108216
0.052473 -0.075017 0.123808
0.052440 -0.073916 0.108388
0.050353 -0.083648 0.097167
0.051153 -0.072900 0.090972
0.052418 -0.057189 0.089689
0.050240 -0.067131 0.078121
0.051351 -0.056394 0.072046
0.052245 -0.040609 0.072357
0.050063 -0.050904 0.061377
0.050300 -0.039017 0.057133
0.050419 -0.024865 0.058314
0.049190 -0.032925 0.049473
0.049993 -0.024825 0.043806
0.050622 -0.009347 0.042969
0.049825 -0.019120 0.026408
0.050878 -0.008987 0.026451
0.049207 -0.016843 0.017354
0.049961 -0.007411 0.011110
0.051164 0.006745 0.026530
0.051909 0.007441 0.009933
0.049466 -0.000799 -0.000497
0.050875 0.008091 -0.006819
0.051470 0.022892 0.026538
0.053417 0.023269 0.009814
0.054096 0.023866 -0.007980
0.050163 0.014369 -0.024115
0.053192 0.024793 -0.025059
0.049296 0.017094 -0.032806
0.050930 0.025994 -0.039211
0.051721 0.039199 0.026315
0.054816 0.039432 0.009610
0.056068 0.039828 -0.008585
0.056171 0.040552 -0.026001
0.055098 0.041412 -0.041056
0.050099 0.032058 -0.051686
0.052478 0.041187 -0.056970
0.055254 0.055657 0.009357
0.056837 0.055896 -0.007829
0.057301 0.056420 -0.024571
0.056976 0.057191 -0.040250
0.056621 0.057921 -0.056118
0.051629 0.046097 -0.072342
0.055777 0.058430 -0.072376
0.050267 0.049090 -0.082822
0.052345 0.058733 -0.088515
0.053773 0.071951 0.008515
0.056594 0.072062 -0.006791
0.057408 0.072401 -0.022786
0.057182 0.073093 -0.039091
0.057557 0.073731 -0.055603
0.058192 0.074166 -0.072445
0.057282 0.074707 -0.089275
0.050525 0.064313 -0.100485
0.053428 0.074348 -0.106207
0.055314 0.088396 -0.007442
0.057541 0.088595 -0.022626
0.057718 0.089077 -0.038985
0.058699 0.089640 -0.055640
0.060158 0.090191 -0.073113
0.060077 0.090783 -0.090429
0.058812 0.091329 -0.106728
0.051369 0.080033 -0.121906
0.056355 0.091755 -0.122511
0.049532 0.083227 -0.130599
0.052294 0.092504 -0.136899
0.057136 0.104893 -0.023234
0.058584 0.105188 -0.039035
0.060099 0.105697 -0.055937
0.061884 0.106407 -0.073990
0.062016 0.107009 -0.091316
0.061021 0.107418 -0.106981
0.060346 0.107844 -0.122643
0.058774 0.108188 -0.138438
0.050745 0.098394 -0.148490
0.054030 0.108169 -0.154258
0.058735 0.121438 -0.039923
0.061152 0.121832 -0.056590
0.063062 0.122415 -0.074585
0.063770 0.122993 -0.090954
0.063903 0.125390 -0.121263
0.062936 0.124304 -0.138784
0.061236 0.124600 -0.155415
0.051802 0.113581 -0.167660
0.055704 0.123361 -0.172833
0.056855 0.137768 -0.041649
0.061846 0.138001 -0.057778
0.064987 0.134737 -0.090347
0.065176 0.134247 -0.139127
0.065450 0.132569 -0.126255
0.064563 0.136681 -0.156393
0.063586 0.139454 -0.172799
0.052774 0.128359 -0.187291
0.061292 0.142810 -0.186807
0.050281 0.132063 -0.196300
0.053570 0.142026 -0.202502
0.060969 0.154202 -0.058892
0.062548 0.158157 -0.204775
0.064554 0.152953 -0.191108
0.050861 0.148009 -0.213045
0.055113 0.157987 -0.219161
0.063499 0.169919 -0.220296
0.065290 0.166593 -0.210774
0.052070 0.163726 -0.231637
0.058134 0.174342 -0.236118
0.052935 0.178798 -0.252369
0.061771 0.191080 -0.252944
0.064207 0.185932 -0.240574
0.050055 0.181783 -0.261307
0.053686 0.191424 -0.267546
0.062290 0.203250 -0.268853
0.065135 0.199749 -0.258764
0.050636 0.197499 -0.278314
0.056548 0.208566 -0.283397
0.051495 0.213476 -0.295724
0.057906 0.223164 -0.301745
0.062444 0.218007 -0.288581
0.052619 0.228976 -0.318125
0.061354 0.239321 -0.319090
0.064264 0.233490 -0.307906
0.049515 0.231387 -0.326812
0.053058 0.239837 -0.330977
0.059289 0.254125 -0.337313
0.064873 0.249224 -0.325498
0.052744 0.260189 -0.352295
0.061750 0.271795 -0.354204
0.064616 0.265753 -0.342541
0.049354 0.264210 -0.361068
0.052939 0.273885 -0.367998
0.061802 0.284482 -0.369697
0.065388 0.280746 -0.360840
0.049951 0.280212 -0.378883
0.056014 0.290615 -0.384562
0.051262 0.295583 -0.396460
0.056163 0.307303 -0.401499
0.062090 0.301980 -0.390179
0.050287 0.312533 -0.411902
0.055996 0.323378 -0.417227
0.061151 0.318328 -0.406405
0.050887 0.328404 -0.427861
0.056064 0.339779 -0.432536
0.061742 0.334452 -0.422208
0.050435 0.345072 -0.442568
0.056146 0.355928 -0.447983
0.061306 0.350769 -0.437210
0.050908 0.361086 -0.459133
0.055992 0.373078 -0.464268
0.061828 0.367945 -0.453468
0.050102 0.378224 -0.475624
0.055962 0.389271 -0.481490
0.061047 0.384479 -0.469675
0.050866 0.394126 -0.494059
0.056502 0.405238 -0.499395
0.061760 0.400167 -0.487139
0.051315 0.410227 -0.510749
0.056807 0.421076 -0.516022
0.062138 0.415789 -0.504445
0.051484 0.426290 -0.526576
0.056635 0.437829 -0.531464
0.062348 0.432656 -0.521166
0.050911 0.443008 -0.542199
0.056324 0.454364 -0.547710
0.061821 0.449252 -0.536541
0.050906 0.459497 -0.559017
0.056613 0.470522 -0.564563
0.061744 0.465342 -0.552969
0.051552 0.475598 -0.575763
0.056712 0.486820 -0.580852
0.062339 0.481222 -0.569733
0.051057 0.492362 -0.591102
0.056385 0.503797 -0.596325
0.061905 0.498516 -0.586028
0.050832 0.509089 -0.607379
0.056322 0.520056 -0.612810
0.061717 0.514695 -0.601672
0.050950 0.525414 -0.623619
0.057006 0.535934 -0.629466
0.061784 0.530562 -0.618158
0.052229 0.541217 -0.640197
0.056979 0.552319 -0.645798
0.063041 0.546116 -0.635293
0.050859 0.558524 -0.655670
0.056191 0.569349 -0.661701
0.061710 0.563394 -0.651489
0.050632 0.575291 -0.672376
0.056342 0.585492 -0.678285
0.061482 0.579700 -0.667718
0.051172 0.591251 -0.689011
0.057547 0.601035 -0.695404
0.062029 0.595397 -0.684174
0.053012 0.606645 -0.705970
0.057571 0.617422 -0.711663
0.063906 0.610823 -0.701840
0.051204 0.624033 -0.721265
0.056780 0.634494 -0.727581
0.062107 0.628236 -0.717375
0.051433 0.640756 -0.737491
0.057742 0.650333 -0.744580
0.062334 0.643840 -0.733933
0.053121 0.656843 -0.754390
0.058176 0.663557 -0.760301
0.064022 0.658917 -0.751708
0.057493 0.672593 -0.771486
0.057503 0.681083 -0.779701
0.057483 0.689319 -0.787130
0.057512 0.697580 -0.795314
0.057506 0.705833 -0.803534
0.057530 0.714268 -0.811776
0.057510 0.722519 -0.819869
0.057532 0.730117 -0.828175
0.057519 0.738373 -0.837121
0.057577 0.746816 -0.845986
0.057593 0.755088 -0.854336
0.058573 0.765846 -0.864383
0.053764 0.771996 -0.871523
0.058362 0.779970 -0.875916
0.064661 0.773403 -0.869601
0.057442 0.797206 -0.881957
0.057345 0.812193 -0.879376
0.073621 -0.392346 0.378936
0.074478 -0.382247 0.369207
0.069685 -0.375656 0.362792
0.075063 -0.367543 0.354721
0.080521 -0.375625 0.362916
0.069603 -0.359313 0.346365
0.074486 -0.352792 0.340630
0.080439 -0.359259 0.346502
0.073573 -0.342195 0.330874
0.073592 -0.334127 0.323624
0.073563 -0.324599 0.315291
0.073538 -0.316314 0.308520
0.073496 -0.306578 0.300006
0.073487 -0.298356 0.293111
0.073471 -0.288286 0.284945
0.073521 -0.280285 0.278476
0.074787 -0.270073 0.269904
0.070242 -0.264488 0.262026
0.071813 -0.252857 0.256495
0.077509 -0.239736 0.288305
0.078456 -0.239431 0.272518
0.074974 -0.238352 0.256228
0.066487 -0.246109 0.247233
0.068405 -0.237023 0.243767
0.074894 -0.223289 0.271926
0.075117 -0.222640 0.255844
0.070346 -0.222258 0.238166
0.072612 -0.206730 0.254525
0.072508 -0.205918 0.238594
0.067965 -0.216893 0.226624
0.068958 -0.205044 0.221555
0.068314 -0.189562 0.222279
0.066687 -0.199495 0.211814
0.066393 -0.187019 0.206878
0.065548 -0.180336 0.198673
0.065465 0.131649 -0.114733
0.066036 0.138652 -0.120975
0.065675 0.142736 -0.090166
0.066424 0.154844 -0.090467
0.066674 0.155300 -0.105726
0.067337 0.155856 -0.122356
0.066481 0.142260 -0.139326
0.068079 0.156388 -0.139714
0.066427 0.144727 -0.156694
0.068131 0.156755 -0.156768
0.065969 0.147505 -0.173188
0.067481 0.157054 -0.173149
0.065617 0.149196 -0.181274
0.066400 0.157887 -0.187293
0.066709 0.170907 -0.091127
0.067387 0.171246 -0.106805
0.068456 0.171753 -0.123012
0.069331 0.172333 -0.139656
0.069378 0.172772 -0.156264
0.069053 0.173123 -0.172707
0.068615 0.173483 -0.188865
0.065990 0.163824 -0.200096
0.067212 0.172667 -0.205313
0.067703 0.187437 -0.107054
0.069376 0.187854 -0.122707
0.070083 0.188315 -0.138886
0.069897 0.188865 -0.155358
0.069714 0.189375 -0.172023
0.070110 0.189753 -0.188742
0.070062 0.190036 -0.205255
0.066458 0.178025 -0.220596
0.068762 0.190242 -0.221377
0.065819 0.181371 -0.229882
0.066763 0.190954 -0.236164
0.069752 0.203963 -0.122295
0.070843 0.204316 -0.138130
0.070773 0.204910 -0.154717
0.070515 0.205546 -0.171686
0.071237 0.205981 -0.188585
0.071897 0.206278 -0.205209
0.071419 0.206508 -0.221543
0.069994 0.206659 -0.237402
0.066046 0.196895 -0.248070
0.067744 0.205783 -0.253384
0.069586 0.220018 -0.122547
0.072001 0.220330 -0.137822
0.072242 0.220838 -0.154746
0.071733 0.221423 -0.172127
0.072767 0.221926 -0.188545
0.074022 0.222334 -0.204446
0.074189 0.222638 -0.220534
0.073586 0.222797 -0.236877
0.072506 0.222835 -0.253774
0.066690 0.211343 -0.268976
0.070794 0.222934 -0.269958
0.065710 0.214595 -0.277658
0.068296 0.223273 -0.283983
0.071313 0.236415 -0.138208
0.072855 0.236870 -0.155037
0.072948 0.237428 -0.172585
0.074237 0.237888 -0.188871
0.075870 0.238287 -0.204327
0.076429 0.238675 -0.219961
0.076349 0.238897 -0.236293
0.075923 0.238898 -0.253630
0.075350 0.239000 -0.270068
0.074527 0.239242 -0.285327
0.067396 0.228929 -0.296779
0.070045 0.239121 -0.301973
0.071765 0.253115 -0.155586
0.073909 0.253771 -0.172606
0.075485 0.254085 -0.189479
0.076874 0.254297 -0.205442
0.078024 0.254717 -0.220434
0.078518 0.255027 -0.236047
0.078580 0.255052 -0.252678
0.078557 0.255123 -0.269072
0.078419 0.255340 -0.285169
0.076071 0.255682 -0.301611
0.067356 0.244464 -0.314110
0.069939 0.255163 -0.319378
0.073651 0.269879 -0.172689
0.076477 0.270152 -0.189809
0.077905 0.270282 -0.206536
0.079097 0.270646 -0.221532
0.080245 0.270964 -0.236384
0.080997 0.266747 -0.268719
0.080838 0.267403 -0.285180
0.080169 0.271760 -0.302552
0.076673 0.272107 -0.318696
0.067410 0.260117 -0.331195
0.070469 0.271606 -0.336408
0.076573 0.286021 -0.189867
0.078933 0.286207 -0.207000
0.079649 0.286404 -0.222960
0.080682 0.283553 -0.318591
0.081513 0.280900 -0.308801
0.078703 0.288893 -0.335321
0.067638 0.276638 -0.349575
0.071496 0.287041 -0.354188
0.073072 0.302013 -0.189866
0.077273 0.302262 -0.206663
0.079256 0.302524 -0.223289
0.079959 0.304277 -0.353745
0.081139 0.298540 -0.340759
0.068210 0.292533 -0.369636
0.074544 0.304971 -0.369354
0.066091 0.296494 -0.378719
0.067960 0.306572 -0.385320
0.072488 0.318432 -0.205267
0.077424 0.319014 -0.222261
0.080307 0.319476 -0.370565
0.081742 0.312709 -0.360028
0.074411 0.321472 -0.386525
0.066032 0.312896 -0.395584
0.067915 0.322884 -0.402033
0.073774 0.335204 -0.221727
0.080113 0.336031 -0.387637
0.081747 0.329384 -0.377447
0.074163 0.337771 -0.403443
0.066059 0.329109 -0.411961
0.067941 0.339087 -0.417759
0.079979 0.352938 -0.404499
0.081491 0.346690 -0.394258
0.074558 0.354098 -0.418624
0.066045 0.345318 -0.426887
0.068319 0.355449 -0.432811
0.080072 0.369189 -0.418325
0.081595 0.362875 -0.410048
0.074431 0.370633 -0.433518
0.066260 0.361766 -0.442722
0.067800 0.372381 -0.448767
0.079531 0.386034 -0.433628
0.081232 0.379875 -0.422927
0.073369 0.387146 -0.449778
0.065650 0.378875 -0.458189
0.067258 0.388822 -0.465237
0.079721 0.402695 -0.451370
0.081148 0.396628 -0.439533
0.073988 0.403513 -0.467014
0.065587 0.395311 -0.475808
0.067808 0.404809 -0.482656
0.080092 0.415271 -0.467047
0.081784 0.411768 -0.458034
0.076587 0.421055 -0.483329
0.066099 0.411125 -0.493619
0.068968 0.420768 -0.499872
0.077386 0.437143 -0.500236
0.080211 0.432021 -0.488277
0.066900 0.426747 -0.510547
0.069112 0.437467 -0.516171
0.076992 0.453420 -0.515502
0.080185 0.448317 -0.504501
0.066334 0.443553 -0.525604
0.068596 0.453919 -0.531776
0.076871 0.469366 -0.532013
0.080037 0.464147 -0.519890
0.066159 0.460089 -0.542036
0.068684 0.470103 -0.548304
0.077233 0.486153 -0.548930
0.080101 0.480983 -0.537445
0.066449 0.476337 -0.558831
0.069412 0.486288 -0.564869
0.077828 0.502497 -0.565492
0.080408 0.497095 -0.554169
0.067069 0.492207 -0.575170
0.069421 0.503241 -0.580965
0.077539 0.518314 -0.581443
0.080550 0.512684 -0.570166
0.066306 0.509417 -0.590604
0.069132 0.519468 -0.596842
0.077871 0.534252 -0.598415
0.080600 0.528485 -0.586723
0.066527 0.525595 -0.607425
0.069819 0.535532 -0.613512
0.078272 0.548412 -0.614845
0.080885 0.544670 -0.604740
0.067215 0.541580 -0.624503
0.072956 0.552744 -0.629253
0.067868 0.557078 -0.640503
0.072971 0.569069 -0.645627
0.078693 0.563777 -0.633714
0.067215 0.574351 -0.656626
0.072747 0.585637 -0.661703
0.078066 0.580607 -0.650545
0.067421 0.590682 -0.673402
0.073368 0.601590 -0.678528
0.078283 0.596765 -0.666826
0.068466 0.606400 -0.690913
0.073937 0.617330 -0.695418
0.079326 0.612821 -0.683610
0.068521 0.621794 -0.706393
0.073841 0.634119 -0.711245
0.079395 0.629079 -0.699911
0.068235 0.639199 -0.722948
0.074336 0.649883 -0.728371
0.079110 0.644979 -0.716159
0.069553 0.654808 -0.740671
0.074584 0.662348 -0.745479
0.080406 0.659603 -0.733915
0.072981 0.670890 -0.759932
0.066930 0.673929 -0.769928
0.072078 0.684578 -0.775724
0.077828 0.678508 -0.764781
0.066273 0.690652 -0.785936
0.072032 0.700641 -0.792391
0.077174 0.694379 -0.781573
0.066862 0.706915 -0.802484
0.072433 0.716706 -0.809123
0.077761 0.710082 -0.798915
0.067043 0.723331 -0.818950
0.073218 0.732590 -0.826088
0.077968 0.725876 -0.815833
0.068432 0.739307 -0.835899
0.073130 0.748928 -0.842838
0.079346 0.741692 -0.833263
0.066887 0.756175 -0.852784
0.072936 0.764748 -0.857279
0.077761 0.759106 -0.849673
0.073904 0.776885 -0.866671
0.073860 0.785154 -0.871701
0.073780 0.797238 -0.874174
0.073689 0.812425 -0.872814
0.090118 -0.591993 0.589695
0.090090 -0.584823 0.581463
0.090122 -0.576526 0.572211
0.090088 -0.568721 0.563911
0.090097 -0.560412 0.555423
0.090056 -0.553120 0.547064
0.090078 -0.544929 0.538945
0.090057 -0.536648 0.530576
0.090062 -0.528414 0.521983
0.090015 -0.520592 0.513625
0.090054 -0.512313 0.505547
0.090040 -0.504006 0.497173
0.090044 -0.495742 0.488729
0.089991 -0.488166 0.480301
0.090012 -0.479928 0.471300
0.089983 -0.472528 0.462957
0.088549 -0.463034 0.452053
0.082110 -0.457706 0.444583
0.087563 -0.448860 0.437295
0.093003 -0.456422 0.445935
0.082106 -0.441308 0.428191
0.087764 -0.432329 0.421127
0.093030 -0.439558 0.429880
0.082492 -0.425070 0.411551
0.088082 -0.415774 0.405056
0.093404 -0.422571 0.414101
0.082762 -0.408859 0.395259
0.088134 -0.399329 0.388766
0.093650 -0.406100 0.398377
0.082580 -0.392415 0.378960
0.088771 -0.383547 0.375242
0.093450 -0.388680 0.382088
0.089844 -0.372218 0.366146
0.089853 -0.364217 0.358824
0.090557 -0.353882 0.351921
0.085685 -0.348968 0.341869
0.089089 -0.337320 0.336706
0.096528 -0.337347 0.349346
0.093717 -0.321021 0.336913
0.085106 -0.332158 0.326342
0.087003 -0.319883 0.321088
0.091590 -0.305443 0.367823
0.093640 -0.305293 0.351717
0.092367 -0.304881 0.336147
0.089895 -0.303897 0.320721
0.083564 -0.313828 0.311079
0.084717 -0.302080 0.305110
0.088700 -0.288970 0.351564
0.089875 -0.288743 0.335476
0.089084 -0.288202 0.319928
0.086691 -0.287293 0.304674
0.082489 -0.295823 0.295451
0.083148 -0.284836 0.289636
0.086179 -0.272566 0.335097
0.087175 -0.272389 0.319742
0.086144 -0.271970 0.304804
0.084347 -0.271245 0.288959
0.081719 -0.278260 0.280627
0.082405 -0.270587 0.277550
0.082579 0.274779 -0.268670
0.084782 0.287307 -0.268697
0.082423 0.275441 -0.285184
0.084166 0.287489 -0.285497
0.082120 0.277011 -0.297558
0.082990 0.286740 -0.302950
0.084624 0.303253 -0.252747
0.086176 0.303589 -0.268732
0.085881 0.303757 -0.285620
0.085339 0.303948 -0.302352
0.082699 0.291487 -0.318576
0.084797 0.304214 -0.318538
0.082305 0.294496 -0.329399
0.083309 0.304109 -0.334960
0.083983 0.319872 -0.253315
0.085749 0.320051 -0.268933
0.086978 0.320262 -0.285446
0.087429 0.320491 -0.301969
0.087142 0.320744 -0.318354
0.086367 0.320796 -0.334808
0.082492 0.309452 -0.348878
0.084385 0.319093 -0.353084
0.083670 0.336062 -0.253247
0.085733 0.336223 -0.269019
0.087103 0.336434 -0.285565
0.088256 0.336707 -0.302041
0.089202 0.337030 -0.318322
0.089014 0.337087 -0.334721
0.087865 0.336943 -0.351267
0.083459 0.323569 -0.365580
0.084665 0.335638 -0.370369
0.086342 0.352147 -0.268898
0.086431 0.352378 -0.285996
0.087690 0.352699 -0.302618
0.091132 0.353091 -0.318409
0.091496 0.353295 -0.334756
0.089009 0.353374 -0.351678
0.087263 0.353505 -0.369217
0.082911 0.340286 -0.382535
0.084489 0.352693 -0.387819
0.085471 0.368630 -0.285755
0.087214 0.369063 -0.302297
0.091156 0.369359 -0.318296
0.091993 0.369598 -0.335274
0.089648 0.369798 -0.352941
0.088302 0.369924 -0.370169
0.087096 0.369974 -0.386801
0.083189 0.357511 -0.399981
0.084071 0.368980 -0.403644
0.086713 0.385637 -0.301597
0.089331 0.385765 -0.318166
0.090370 0.385924 -0.336046
0.089783 0.386133 -0.354181
0.088978 0.386254 -0.371049
0.087930 0.386296 -0.386281
0.086479 0.386263 -0.400995
0.082563 0.373751 -0.412820
0.083979 0.385635 -0.417096
0.085453 0.401659 -0.301708
0.088392 0.401883 -0.318906
0.089760 0.402062 -0.336835
0.089710 0.402233 -0.354356
0.089744 0.402343 -0.370281
0.089624 0.402422 -0.384785
0.089024 0.402395 -0.400174
0.087600 0.402507 -0.416434
0.082899 0.390759 -0.428370
0.084556 0.402274 -0.433539
0.086872 0.417787 -0.320249
0.089150 0.418101 -0.337523
0.089233 0.418233 -0.353421
0.090022 0.418343 -0.368451
0.091312 0.418334 -0.383639
0.091305 0.418436 -0.399967
0.089996 0.418710 -0.416432
0.088397 0.419133 -0.432948
0.083166 0.407623 -0.446709
0.085153 0.418064 -0.451249
0.086145 0.434156 -0.336869
0.087662 0.434479 -0.351817
0.089019 0.434502 -0.367369
0.090463 0.434274 -0.383525
0.090913 0.434365 -0.399955
0.090437 0.434740 -0.416417
0.089653 0.435240 -0.432908
0.088408 0.435682 -0.449592
0.083361 0.423352 -0.467005
0.086202 0.435793 -0.466973
0.082142 0.427125 -0.476901
0.083235 0.436746 -0.483358
0.087233 0.450850 -0.367173
0.088193 0.450387 -0.383548
0.089084 0.450352 -0.399979
0.089740 0.450690 -0.416450
0.089820 0.451228 -0.432996
0.089653 0.451711 -0.449759
0.088953 0.451777 -0.467069
0.086730 0.451878 -0.484298
0.082232 0.442871 -0.494301
0.083451 0.453033 -0.499602
0.085196 0.467017 -0.367191
0.087001 0.466751 -0.383549
0.088379 0.466683 -0.400177
0.089357 0.466806 -0.417434
0.090839 0.467146 -0.434568
0.092248 0.467551 -0.451151
0.091702 0.467690 -0.467539
0.089641 0.467851 -0.483604
0.087262 0.468341 -0.499386
0.082318 0.459148 -0.509154
0.084034 0.469167 -0.514620
0.087233 0.483183 -0.400492
0.088510 0.483152 -0.418549
0.091159 0.483273 -0.436268
0.093741 0.483502 -0.452469
0.092989 0.483738 -0.467648
0.090784 0.484037 -0.482724
0.089873 0.484501 -0.498646
0.088163 0.484918 -0.514998
0.082732 0.474986 -0.525639
