0.090106 0.351314 0.141807
0.080264 0.357675 0.148369
0.084733 0.362891 0.137466
0.079681 0.373815 0.131255
0.089733 0.367145 0.124958
0.083735 0.378664 0.120312
0.084072 0.366054 -0.104375
0.079060 0.370758 -0.109074
0.082045 0.359783 -0.114082
0.079445 0.389590 0.114320
0.087134 0.383935 0.108630
0.083264 0.394685 0.103307
0.082291 0.376632 -0.098035
0.075190 0.382769 -0.104059
0.078961 0.387585 -0.091476
0.083633 0.382722 -0.087132
0.079183 0.405609 0.096571
0.085865 0.400100 0.091070
0.082311 0.409722 0.084967
0.081794 0.392080 -0.080510
0.075377 0.398566 -0.086957
0.078968 0.403003 -0.074791
0.082868 0.398538 -0.070503
0.084156 0.412842 0.074416
0.078754 0.421041 0.074163
0.080916 0.423818 0.064456
0.086564 0.417556 0.058729
0.082912 0.426279 0.053628
0.076233 0.432186 0.058114
0.084827 0.414829 -0.039566
0.080551 0.423045 -0.039493
0.081395 0.424249 -0.030046
0.085176 0.417829 -0.023950
0.078350 0.419242 -0.055749
0.083050 0.411039 -0.055786
0.075111 0.414825 -0.070343
0.081653 0.408260 -0.063848
0.083681 0.427359 0.041791
0.077017 0.435589 0.041247
0.083679 0.427549 0.026017
0.077584 0.435791 0.025894
0.077255 0.435239 0.009902
0.083295 0.426997 0.009897
0.082769 0.426134 -0.006475
0.076259 0.434374 -0.006580
0.082243 0.425386 -0.018974
0.076832 0.431668 -0.024014
0.111225 -0.630742 0.108239
0.115076 -0.638184 0.114271
0.115054 -0.638182 0.118350
0.110823 -0.631243 0.124015
0.112351 -0.613508 0.201738
0.114242 -0.623688 0.188239
0.115430 -0.621674 0.195235
0.108444 -0.613346 0.188101
0.105049 -0.613409 0.173725
0.112378 -0.626583 0.173892
0.111148 -0.628026 0.157581
0.102086 -0.612625 0.159254
0.102079 -0.616316 0.141048
0.110324 -0.628891 0.140769
0.101610 -0.617495 0.124360
0.102123 -0.617165 0.107605
0.103755 -0.615109 0.090905
0.111966 -0.626360 0.090617
0.114050 -0.623105 0.073643
0.105235 -0.611919 0.075039
0.111269 -0.613546 0.058126
0.115154 -0.621587 0.064907
0.105667 -0.595432 0.219052
0.114066 -0.607512 0.220611
0.115424 -0.605280 0.229871
0.113176 -0.595522 0.236648
0.103393 -0.599155 0.203190
0.101330 -0.602156 0.187940
0.099517 -0.604180 0.173563
0.098602 -0.605145 0.165838
0.100076 -0.603465 0.070123
0.102123 -0.600928 0.056552
0.113061 -0.607840 0.040198
0.104138 -0.596233 0.039695
0.110711 -0.596883 0.026265
0.114607 -0.605718 0.031960
0.112605 -0.580664 0.249857
0.115106 -0.589110 0.246850
0.104568 -0.580503 0.238137
0.100984 -0.585872 0.224267
0.101780 -0.585068 0.025043
0.099487 -0.587890 0.034294
0.107734 -0.579289 0.010834
0.112768 -0.591375 0.016065
0.100966 -0.567692 0.243701
0.107448 -0.563574 0.254422
0.107500 -0.563754 -0.001821
0.113597 -0.573747 0.000898
0.102766 -0.568526 0.005609
0.103243 -0.547758 0.258249
0.113940 -0.559427 0.264635
0.111439 -0.547765 0.267847
0.100415 -0.536361 0.261590
0.107116 -0.531203 0.271650
0.107349 -0.531396 -0.022235
0.111239 -0.543216 -0.016222
0.106085 -0.548481 -0.010499
0.100324 -0.538655 -0.013610
0.103066 -0.515068 0.275318
0.113804 -0.526051 0.281397
0.111305 -0.515054 0.283809
0.107970 -0.515058 -0.033625
0.114418 -0.524049 -0.031175
0.103506 -0.520021 -0.028284
0.100287 -0.498719 0.278453
0.108569 -0.498715 0.286281
0.099141 -0.489370 0.279875
0.107083 -0.482305 0.288729
0.099326 -0.490358 -0.047303
0.110273 -0.493542 -0.049487
0.105464 -0.499132 -0.043306
0.105493 -0.484012 -0.053053
0.105339 -0.465875 0.291675
0.115031 -0.475229 0.297377
0.113633 -0.465872 0.298135
0.103001 -0.449414 0.293928
0.111273 -0.449418 0.299412
0.101523 -0.433089 0.295418
0.109759 -0.433135 0.300559
0.100060 -0.416673 0.296479
0.108284 -0.416731 0.301891
0.105563 -0.417891 -0.084784
0.110299 -0.428989 -0.081980
0.105550 -0.433941 -0.078345
0.099395 -0.424109 -0.080088
0.098942 -0.408080 0.297131
0.105520 -0.401619 0.302582
0.107467 -0.385167 0.307210
0.101382 -0.390898 -0.096334
0.112447 -0.393069 -0.097570
0.106803 -0.399244 -0.093442
0.106857 -0.384792 -0.100540
0.101786 -0.367441 0.308641
0.113193 -0.380687 0.312092
0.110818 -0.366248 0.317709
0.114018 -0.351307 0.326866
0.114796 -0.360040 0.326400
0.104863 -0.351889 0.317339
0.099487 -0.357752 0.309899
0.099223 -0.358966 -0.113163
0.110154 -0.361160 -0.114263
0.105522 -0.366933 -0.109913
0.105479 -0.352606 -0.117144
0.103993 -0.335090 0.321332
0.112145 -0.335260 0.327918
0.101350 -0.321740 0.323916
0.106863 -0.317466 0.328742
0.101183 -0.325482 -0.129306
0.112150 -0.327440 -0.130321
0.106662 -0.333649 -0.126189
0.106620 -0.319534 -0.132320
0.106809 -0.302814 0.331752
0.106838 -0.286646 0.334774
0.107064 -0.270424 0.337559
0.108488 -0.254823 0.339953
0.105528 -0.237728 0.340314
0.114907 -0.250052 0.343313
0.113796 -0.238088 0.344234
0.103338 -0.221451 0.341516
0.111585 -0.221775 0.345013
0.101032 -0.205296 0.342371
0.109279 -0.205493 0.344907
0.101297 -0.189417 0.342983
0.109536 -0.189580 0.344581
0.106729 -0.173239 0.342671
0.112173 -0.178652 0.344230
0.106923 -0.156856 0.339268
0.107024 -0.140375 0.333441
0.107524 -0.123573 0.328546
0.102407 -0.117729 0.326585
0.107459 -0.108356 0.325092
0.113394 -0.113936 0.327384
0.106873 -0.091781 0.323331
0.106954 -0.075462 0.321226
0.106912 -0.059227 0.316789
0.106855 -0.042874 0.313476
0.106827 -0.026457 0.312093
0.106791 -0.015745 0.310867
0.106750 -0.007567 0.307299
0.106665 0.006328 0.302511
0.106694 0.022755 0.299545
0.106866 0.039189 0.297700
0.106912 0.050415 0.295215
0.106856 0.058574 0.291248
0.106733 0.071904 0.286353
0.106665 0.088301 0.281917
0.106644 0.099361 0.278919
0.095067 0.111107 0.277127
0.106618 0.107545 0.276062
0.106568 0.121102 0.271328
0.105820 0.137324 0.265878
0.098538 0.114363 -0.196426
0.090437 0.120636 -0.199578
0.096279 0.125322 -0.194980
0.105004 0.120575 -0.190323
0.099888 0.147123 0.264070
0.107213 0.154489 0.255137
0.103541 0.165654 0.249363
0.095838 0.176598 0.245997
0.108102 0.170813 0.243759
0.106344 0.186957 0.233741
0.100162 0.166604 -0.181528
0.097699 0.177608 -0.179565
0.106030 0.171571 -0.175000
0.100620 0.196282 0.230153
0.106346 0.202317 0.224506
0.106116 0.219528 0.215156
0.100257 0.229414 0.212324
0.106301 0.219462 -0.156652
0.097260 0.224113 -0.163241
0.098707 0.213165 -0.164818
0.106101 0.235306 0.206147
0.095130 0.240341 0.209332
0.105958 0.251549 0.197942
0.100057 0.262125 0.195820
0.107331 0.254384 -0.140099
0.093296 0.254021 -0.155525
0.097807 0.260265 -0.146571
0.100811 0.249160 -0.150365
0.094853 0.273049 0.192815
0.105887 0.268056 0.189964
0.105195 0.283686 0.182862
0.098892 0.293854 0.180901
0.092957 0.304799 0.176719
0.104944 0.300358 0.172525
0.100128 0.311611 0.167197
0.103778 0.301695 -0.122207
0.096581 0.307206 -0.127936
0.099706 0.296198 -0.132261
0.105501 0.317329 0.156870
0.094027 0.322532 0.162203
0.099951 0.328521 0.151228
0.100562 0.314284 -0.116557
0.093935 0.319202 -0.121995
0.097671 0.325276 -0.111973
0.106036 0.318002 -0.104936
0.105339 0.333321 0.139786
0.095463 0.339444 0.146189
0.099721 0.344926 0.135165
0.095747 0.355869 0.129521
0.102740 0.350560 0.124312
0.099151 0.360454 0.118718
0.100575 0.349591 -0.088865
0.091802 0.349621 -0.104077
0.095736 0.354250 -0.093813
0.098509 0.343302 -0.097742
0.095444 0.372253 0.108375
0.101560 0.364062 0.108426
0.106406 0.367569 0.091903
0.097780 0.375216 0.099807
0.095157 0.384425 0.093055
0.100306 0.379494 0.088323
0.099059 0.360467 -0.083167
0.091970 0.366478 -0.088630
0.095254 0.371424 -0.075714
0.100496 0.366443 -0.071452
0.097117 0.390422 0.079990
0.102249 0.384419 0.074514
0.098630 0.392765 0.068957
0.093017 0.398942 0.074481
0.103208 0.383051 -0.023264
0.097916 0.391248 -0.023579
0.098227 0.391684 -0.014804
0.104017 0.385179 -0.008115
0.101844 0.381897 -0.039955
0.097240 0.390102 -0.040151
0.094800 0.386563 -0.056350
0.099707 0.378351 -0.056382
0.098264 0.375553 -0.064651
0.091017 0.382084 -0.070942
0.095081 0.403491 0.058204
0.100096 0.395283 0.058266
0.101247 0.397399 0.042080
0.096506 0.405598 0.042109
0.101302 0.397220 0.026021
0.096452 0.405409 0.026021
0.095898 0.404271 0.009732
0.100669 0.396071 0.009693
0.095538 0.399739 -0.008189
0.099455 0.394061 -0.003677
0.127586 -0.646930 0.188072
0.130361 -0.655887 0.174172
0.131100 -0.654874 0.183488
0.124176 -0.646219 0.174072
0.129716 -0.656893 0.157528
0.122716 -0.646189 0.157513
0.129554 -0.657198 0.140462
0.122010 -0.646170 0.140520
0.120279 -0.644674 0.123767
0.129544 -0.657113 0.123603
0.120969 -0.644688 0.108035
0.129989 -0.656472 0.107056
0.130783 -0.655446 0.094916
0.126454 -0.647402 0.089751
0.120916 -0.628225 0.201802
0.129188 -0.642067 0.203458
0.130838 -0.639476 0.215262
0.127607 -0.630632 0.220956
0.118763 -0.631913 0.188444
0.117030 -0.634798 0.173951
0.116164 -0.636235 0.157499
0.115682 -0.637097 0.140555
0.115342 -0.637672 0.129376
0.117617 -0.634583 0.090427
0.115990 -0.636854 0.103122
0.120126 -0.631346 0.073551
0.128280 -0.642912 0.073558
0.130204 -0.639751 0.061778
0.123797 -0.629012 0.057631
0.119171 -0.615768 0.220560
0.129534 -0.625744 0.233721
0.124158 -0.612653 0.237687
0.117132 -0.619145 0.206199
0.117383 -0.619182 0.053482
0.128057 -0.625736 0.040594
0.119893 -0.616127 0.040380
0.123735 -0.612885 0.026469
0.130040 -0.623298 0.030947
0.118757 -0.600074 0.241368
0.129480 -0.609119 0.250525
0.124322 -0.595961 0.254238
0.123700 -0.596293 0.010533
0.128228 -0.609122 0.015787
0.117455 -0.602297 0.022178
0.118886 -0.580766 0.257918
0.129922 -0.591894 0.266071
0.127631 -0.579737 0.271295
0.123937 -0.580005 -0.001558
0.130087 -0.590166 0.001203
0.119273 -0.584695 0.005241
0.120893 -0.564742 0.270597
0.130975 -0.573504 0.280592
0.129778 -0.564400 0.282029
0.116049 -0.570499 0.261124
0.119017 -0.547800 0.276226
0.127245 -0.547849 0.284660
0.122759 -0.548568 -0.019647
0.128116 -0.559559 -0.016208
0.122733 -0.564858 -0.010174
0.117223 -0.554040 -0.013148
0.116716 -0.536953 0.278801
0.123295 -0.531687 0.288403
0.119493 -0.515004 0.292387
0.129819 -0.526372 0.298383
0.127664 -0.514979 0.300110
0.117689 -0.498685 0.294780
0.125842 -0.498646 0.301686
0.118905 -0.504497 -0.045437
0.129743 -0.508498 -0.048361
0.123705 -0.514679 -0.041310
0.123776 -0.499050 -0.051128
0.116537 -0.486183 0.296018
0.122532 -0.481312 0.302245
0.124244 -0.466698 0.307242
0.123480 -0.466714 -0.067544
0.129333 -0.475205 -0.064615
0.123511 -0.481515 -0.060019
0.118464 -0.472652 -0.063284
0.120961 -0.449452 0.307378
0.129038 -0.449500 0.314784
0.130213 -0.461803 0.313910
0.119889 -0.433128 0.308440
0.127987 -0.433108 0.315840
0.124113 -0.433947 -0.082383
0.130299 -0.441546 -0.080504
0.124090 -0.448074 -0.076586
0.119540 -0.439902 -0.079779
0.118338 -0.416718 0.309496
0.126446 -0.416686 0.317517
0.116468 -0.400200 0.310239
0.125869 -0.400260 0.320086
0.120541 -0.385308 0.317780
0.131412 -0.394940 0.326348
0.129741 -0.384101 0.327551
0.115615 -0.391552 0.310481
0.118473 -0.370971 0.322502
0.123622 -0.366377 0.328904
0.123321 -0.351376 0.331633
0.123343 -0.335327 0.334047
0.124821 -0.317847 0.338049
0.122231 -0.303136 0.339170
0.131167 -0.311569 0.342837
0.130372 -0.303138 0.343280
0.119660 -0.286949 0.340694
0.127814 -0.286955 0.344806
0.116820 -0.270558 0.342003
0.124885 -0.270588 0.347456
0.115627 -0.260837 0.342638
0.121926 -0.255032 0.347410
0.123286 -0.238283 0.348479
0.123259 -0.221989 0.349788
0.123273 -0.205651 0.349756
0.123189 -0.189618 0.346767
0.123129 -0.178312 0.344206
0.123145 -0.170108 0.342198
0.123253 -0.156887 0.339057
0.123339 -0.140443 0.335019
0.123221 -0.124392 0.331269
0.121873 -0.108430 0.328829
0.115632 -0.103070 0.326153
0.116046 -0.091832 0.325403
0.124134 -0.091871 0.328550
0.117232 -0.075503 0.324259
0.125276 -0.075542 0.327783
0.122846 -0.058994 0.321080
0.127954 -0.064262 0.327009
0.123173 -0.042914 0.314515
0.123114 -0.026499 0.312149
0.123068 -0.016844 0.310601
0.123044 -0.008647 0.307024
0.122995 0.006308 0.301815
0.123058 0.022728 0.298206
0.122878 0.037924 0.295679
0.117278 0.048920 0.294771
0.122873 0.054813 0.290485
0.123071 0.071891 0.284517
0.121458 0.087315 0.280222
0.114992 0.096639 0.278295
0.122761 0.088911 -0.187673
0.106557 0.087839 -0.199079
0.112163 0.092537 -0.194640
0.114992 0.081548 -0.196536
0.121376 0.103147 0.274797
0.123395 0.122143 0.267391
0.118408 0.131747 0.264712
0.123416 0.137334 0.258872
0.110819 0.142681 0.261102
0.122925 0.150479 0.249962
0.122771 0.138086 -0.171632
0.107110 0.137306 -0.184244
0.113051 0.142274 -0.178413
0.115224 0.131267 -0.180086
0.114548 0.161862 0.246641
0.123001 0.158690 0.244842
0.124122 0.171570 0.236201
0.119426 0.181641 0.231565
0.111606 0.192580 0.227838
0.124123 0.186967 0.226805
0.124327 0.204607 0.217022
0.115042 0.179296 -0.164563
0.106396 0.185715 -0.168857
0.111829 0.190284 -0.161899
0.121655 0.185248 -0.155726
0.119763 0.214037 0.213102
0.124300 0.219515 0.207891
0.111189 0.224969 0.209503
0.122257 0.235890 0.198598
0.115480 0.214951 -0.149528
0.114225 0.225962 -0.148458
0.121726 0.220302 -0.142710
0.116411 0.245519 0.195716
0.110913 0.256456 0.193090
0.122168 0.251530 0.190761
0.121216 0.267554 0.183770
0.123798 0.254161 -0.122662
0.113867 0.259594 -0.129241
0.117166 0.248549 -0.133567
0.114820 0.277174 0.181873
0.109709 0.288118 0.178199
0.121610 0.284156 0.173347
0.117561 0.295908 0.168001
0.122922 0.286045 -0.105954
0.110709 0.287016 -0.121791
0.114633 0.293471 -0.113933
0.116714 0.282629 -0.116003
0.122762 0.301732 0.157588
0.111035 0.306840 0.162716
0.117097 0.312094 0.151336
0.121642 0.317064 0.138989
0.110955 0.323028 0.144506
0.115313 0.327177 0.133227
0.117401 0.314597 -0.089175
0.112330 0.322815 -0.089295
0.114745 0.326220 -0.081556
0.122891 0.318611 -0.073719
0.115141 0.310741 -0.097866
0.111304 0.338771 0.124450
0.117625 0.330572 0.124131
0.113961 0.341966 0.115585
0.122643 0.334464 0.108042
0.116432 0.345460 0.104569
0.110456 0.350887 0.109440
0.118766 0.350873 0.090250
0.112526 0.356390 0.095684
0.114952 0.359889 0.083782
0.115110 0.343690 -0.065876
0.108689 0.349847 -0.072203
0.111958 0.354650 -0.059433
0.116394 0.349807 -0.054766
0.111045 0.370686 0.074440
0.116810 0.362480 0.074288
0.113079 0.373706 0.062619
0.118627 0.367822 0.057833
0.108714 0.382407 0.057721
0.114942 0.376111 0.052047
0.118577 0.364926 -0.006320
0.112689 0.373130 -0.006430
0.113800 0.374440 0.006524
0.118421 0.368272 0.011233
0.111306 0.371420 -0.022943
0.117460 0.363212 -0.022782
0.109919 0.368986 -0.039676
0.115565 0.360773 -0.039490
0.114499 0.359177 -0.048175
0.107598 0.365685 -0.054830
0.109445 0.384565 0.042225
0.115096 0.376355 0.042431
0.114852 0.375947 0.026272
0.109486 0.384154 0.026110
0.114632 0.375580 0.017482
0.109505 0.382109 0.011069
0.143491 -0.663565 0.203934
0.146104 -0.674017 0.189313
0.147417 -0.671885 0.198876
0.137347 -0.661299 0.188494
0.136300 -0.664130 0.174164
0.144458 -0.676566 0.174209
0.143620 -0.677323 0.157377
0.135419 -0.665123 0.157448
0.135307 -0.665419 0.140243
0.143516 -0.676874 0.139969
0.144025 -0.675971 0.123026
0.135844 -0.665343 0.123350
0.136691 -0.664709 0.106867
0.144853 -0.674713 0.106638
0.145897 -0.673244 0.090015
0.136821 -0.661598 0.089589
0.143031 -0.662830 0.073678
0.147024 -0.671839 0.079338
0.136384 -0.645467 0.220982
0.145170 -0.659253 0.220703
0.146846 -0.656565 0.232254
0.143395 -0.646435 0.237998
0.134682 -0.650308 0.203594
0.132771 -0.652908 0.192338
0.134334 -0.651135 0.073536
0.132125 -0.653698 0.083714
0.139218 -0.646706 0.055650
0.145596 -0.657532 0.060747
0.134864 -0.630682 0.238981
0.146188 -0.641134 0.250153
0.143578 -0.629843 0.255791
0.132422 -0.636651 0.227162
0.132825 -0.636428 0.050527
0.143039 -0.643602 0.041118
0.134873 -0.634001 0.040893
0.139297 -0.629895 0.025763
0.145473 -0.640851 0.030796
0.135787 -0.614230 0.255891
0.146843 -0.624404 0.265623
0.144265 -0.613760 0.269292
0.132526 -0.620007 0.245517
0.138800 -0.614436 0.012261
0.143984 -0.625554 0.016027
0.133162 -0.619993 0.020898
0.133068 -0.602803 0.261619
0.138863 -0.598719 0.273304
0.133729 -0.584517 0.277058
0.144683 -0.594546 0.284482
0.139846 -0.580320 0.288077
0.136609 -0.564407 0.290421
0.144838 -0.564416 0.299188
0.145949 -0.576079 0.298290
0.133644 -0.570412 -0.013293
0.144543 -0.574791 -0.015890
0.139131 -0.580630 -0.009421
0.139174 -0.564929 -0.019041
0.135305 -0.547880 0.292998
0.143524 -0.547896 0.300206
0.133340 -0.537362 0.295263
0.139128 -0.531677 0.302492
0.131676 -0.539648 -0.030785
0.142607 -0.544262 -0.033754
0.137999 -0.549193 -0.027978
0.137954 -0.533342 -0.037396
0.140117 -0.516239 0.309069
0.136063 -0.498608 0.309702
0.145952 -0.511622 0.314301
0.144253 -0.498619 0.315412
0.133778 -0.482226 0.311322
0.141946 -0.482237 0.316870
0.131966 -0.472700 0.312661
0.138210 -0.466722 0.318002
0.140336 -0.451097 0.322277
0.136521 -0.433091 0.322481
0.146446 -0.446674 0.327058
0.144751 -0.433114 0.328079
0.133745 -0.416654 0.324443
0.141976 -0.416688 0.329336
0.131889 -0.405673 0.325895
0.138350 -0.400375 0.329857
0.139763 -0.384160 0.333757
0.139660 -0.367796 0.337056
0.139966 -0.352831 0.339820
0.135283 -0.335432 0.340594
0.145645 -0.348397 0.343961
0.143464 -0.335530 0.345542
0.133199 -0.322386 0.341701
0.139002 -0.317927 0.345745
0.139556 -0.303198 0.346889
0.139635 -0.287010 0.349871
0.140408 -0.270056 0.356492
0.140393 -0.254014 0.357554
0.146360 -0.258968 0.361356
0.146365 -0.264175 0.361560
0.139620 -0.238583 0.354955
0.139544 -0.222202 0.354333
0.139471 -0.205723 0.352106
0.140138 -0.188245 0.346332
0.135134 -0.180147 0.343861
0.140147 -0.174130 0.342363
0.139491 -0.156859 0.340941
0.139521 -0.140552 0.339249
0.139486 -0.124506 0.335388
0.139457 -0.108330 0.332672
0.139469 -0.091957 0.331400
0.139450 -0.075615 0.329644
0.139376 -0.062133 0.327651
0.139400 -0.053961 0.322416
0.139434 -0.042932 0.316038
0.138956 -0.025629 0.311959
0.133186 -0.017868 0.310409
0.138945 -0.011484 0.307218
0.139355 0.006301 0.300384
0.138085 0.022065 0.296002
0.131825 0.031629 0.294636
0.128071 0.042590 0.293092
0.138147 0.037900 0.290854
0.139423 0.055498 0.285359
0.138331 0.071001 0.281451
0.132171 0.081199 0.280365
0.138231 0.087325 0.276388
0.125812 0.092144 0.277857
0.139095 0.104701 0.270331
0.138649 0.090181 -0.174383
0.130650 0.096243 -0.179027
0.132768 0.085537 -0.180484
0.138980 0.117022 0.265595
0.138974 0.125228 0.260164
0.129140 0.128307 0.263130
0.138153 0.137071 0.251433
0.132157 0.146847 0.248032
0.139420 0.138914 -0.156176
0.130456 0.144995 -0.162785
0.132631 0.133942 -0.164693
0.139781 0.154432 0.238951
0.136491 0.166938 0.233218
0.140894 0.171585 0.228200
0.130256 0.177892 0.229844
0.139296 0.186732 0.220961
0.139271 0.199275 0.214296
0.132009 0.180301 -0.149383
0.128458 0.191386 -0.146172
0.138659 0.186150 -0.139587
0.130586 0.211045 0.211385
0.139271 0.207462 0.209290
0.139120 0.219759 0.201017
0.133617 0.230375 0.196907
0.140328 0.237185 0.189609
0.127160 0.241308 0.193762
0.135270 0.252366 0.184748
0.131199 0.228237 -0.132097
0.122707 0.234748 -0.136490
0.128092 0.239174 -0.128096
0.135505 0.234782 -0.122454
0.131381 0.261252 0.182668
0.139090 0.252493 -0.104867
0.130406 0.259716 -0.112166
0.133138 0.248692 -0.115784
0.125582 0.272187 0.178854
0.137788 0.267501 0.173337
0.133272 0.280181 0.168139
0.128425 0.291105 0.163933
0.139070 0.285346 0.157378
0.133890 0.296591 0.152299
0.131689 0.278572 -0.098056
0.129138 0.289462 -0.094171
0.134315 0.284499 -0.088758
0.127997 0.307530 0.144990
0.138445 0.300955 0.138539
0.132021 0.311088 0.133273
0.134468 0.301250 -0.071781
0.125493 0.301309 -0.088819
0.128731 0.306539 -0.076993
0.132251 0.295573 -0.083075
0.125820 0.321568 0.123605
0.134176 0.313359 0.122870
0.128815 0.324178 0.111330
0.136282 0.318423 0.105944
0.131384 0.326930 0.100503
0.133650 0.317076 -0.054690
0.127948 0.321947 -0.059553
0.131781 0.310980 -0.065940
0.127681 0.338315 0.090920
0.133685 0.330126 0.090757
0.135281 0.335436 0.074006
0.130032 0.341612 0.079332
0.125726 0.349688 0.074118
0.131398 0.343470 0.068646
0.133838 0.335298 -0.006627
0.129375 0.339378 -0.022906
0.130449 0.341345 -0.011929
0.133092 0.331196 -0.023132
0.132189 0.328567 -0.039401
0.127605 0.336743 -0.039402
0.131467 0.326921 -0.048230
0.124419 0.333198 -0.054864
0.132273 0.345268 0.058433
0.127543 0.353506 0.058523
0.132879 0.346638 0.042616
0.128470 0.354862 0.042682
0.128227 0.354760 0.026374
0.132917 0.346548 0.026376
0.132286 0.345230 0.010032
0.127516 0.353444 0.010028
0.127281 0.349756 -0.006336
0.131416 0.343551 -0.000900
0.160114 -0.696621 0.190131
0.162929 -0.705565 0.174195
0.163603 -0.704691 0.185733
0.156530 -0.695401 0.174192
0.163052 -0.705449 0.156715
0.156047 -0.695377 0.156974
0.157110 -0.695361 0.139182
0.163817 -0.704508 0.138738
0.159727 -0.696498 0.122842
0.164304 -0.703860 0.128269
0.161803 -0.678451 0.236172
0.163177 -0.689898 0.220489
0.164093 -0.688123 0.230231
0.157187 -0.679000 0.220562
0.161576 -0.692774 0.204405
0.152816 -0.678017 0.204229
0.151348 -0.682226 0.189435
0.149601 -0.684747 0.174192
0.149076 -0.685506 0.157246
0.149492 -0.685081 0.139686
0.150450 -0.684203 0.122717
0.151897 -0.682948 0.106413
0.160108 -0.692912 0.106169
0.153839 -0.681477 0.089830
0.162046 -0.690106 0.089627
0.163613 -0.688061 0.078683
0.156817 -0.678832 0.073491
0.161205 -0.661964 0.252571
0.163762 -0.672652 0.246499
0.153120 -0.662283 0.237496
0.150345 -0.667467 0.220681
0.148942 -0.669666 0.209356
0.150012 -0.668492 0.068281
0.161412 -0.674413 0.057052
0.152597 -0.662869 0.055937
0.159413 -0.662739 0.042422
0.163753 -0.671622 0.048193
0.161477 -0.644718 0.270116
0.163659 -0.656068 0.262548
0.152592 -0.646480 0.254811
0.149544 -0.652059 0.243438
0.150413 -0.651850 0.041328
0.148622 -0.653649 0.049786
0.156111 -0.645836 0.026000
0.161307 -0.657354 0.031665
0.153759 -0.629912 0.271372
0.164273 -0.638234 0.280426
0.162374 -0.630046 0.282728
0.149319 -0.635248 0.261383
0.156078 -0.630822 0.014177
0.161813 -0.639831 0.017457
0.150977 -0.636420 0.020383
0.150076 -0.613834 0.277538
0.159330 -0.612688 0.288996
0.161181 -0.597543 0.298972
0.163903 -0.606540 0.297486
0.151958 -0.599059 0.289586
0.147851 -0.605555 0.280418
0.147887 -0.605853 0.001909
0.158854 -0.608727 0.000501
0.154303 -0.614095 0.004826
0.154274 -0.599357 -0.003823
0.149470 -0.587158 0.295535
0.155385 -0.581358 0.301435
0.157551 -0.563294 0.307401
0.154359 -0.547854 0.308263
0.162560 -0.547830 0.314105
0.164071 -0.556993 0.312810
0.155281 -0.549315 -0.036180
0.160461 -0.558827 -0.032498
0.155255 -0.564449 -0.026545
0.149545 -0.555218 -0.030135
0.150671 -0.531376 0.311009
0.158966 -0.531370 0.315797
0.148179 -0.522541 0.313064
0.154683 -0.516238 0.316989
0.154642 -0.516835 -0.052185
0.159458 -0.526879 -0.049149
0.154640 -0.532275 -0.045186
0.148407 -0.523230 -0.047468
0.156686 -0.498691 0.322449
0.152027 -0.482234 0.323845
0.160299 -0.482310 0.329230
0.162576 -0.493322 0.328104
0.149817 -0.489298 -0.063475
0.160750 -0.492909 -0.064896
0.155458 -0.498601 -0.060784
0.155442 -0.483418 -0.067319
0.149159 -0.465923 0.325368
0.157592 -0.465968 0.330053
0.147695 -0.457628 0.326227
0.154502 -0.451117 0.330493
0.157365 -0.449260 -0.082016
0.164013 -0.457813 -0.080588
0.157317 -0.464465 -0.075924
0.152776 -0.454582 -0.079172
0.156170 -0.433161 0.334290
0.157657 -0.415983 0.338131
0.154281 -0.400560 0.338861
0.164186 -0.410111 0.342841
0.162580 -0.400687 0.343638
0.151203 -0.406930 -0.096030
0.162205 -0.409281 -0.097146
0.156355 -0.415510 -0.093245
0.156368 -0.400990 -0.099365
0.151421 -0.384279 0.340642
0.159709 -0.384486 0.344768
0.149162 -0.367997 0.342111
0.157420 -0.368420 0.345642
0.148173 -0.359221 0.342573
0.154630 -0.353343 0.346644
0.156127 -0.335685 0.351290
0.156155 -0.319423 0.353285
0.156143 -0.303474 0.353396
0.156178 -0.287273 0.355652
0.156884 -0.270288 0.359298
0.151715 -0.259072 0.361242
0.151718 -0.264286 0.361448
0.156841 -0.254340 0.359239
0.156071 -0.238965 0.356492
0.156059 -0.222489 0.353828
0.156103 -0.205869 0.350763
0.154922 -0.188313 0.346158
0.148563 -0.182005 0.343343
0.146071 -0.181998 0.343354
0.150437 -0.173361 0.342840
0.158776 -0.173486 0.344293
0.150923 -0.156938 0.342370
0.159277 -0.157062 0.343756
0.155316 -0.140131 0.341426
0.160411 -0.145163 0.343264
0.156002 -0.124643 0.337859
0.155929 -0.108420 0.334437
0.155929 -0.092028 0.332040
0.155894 -0.075663 0.329775
0.155799 -0.062898 0.327610
0.155777 -0.054735 0.323196
0.155804 -0.042938 0.316942
0.155814 -0.027991 0.312497
0.155807 -0.019779 0.310327
0.144091 -0.019546 0.310239
0.155813 -0.010119 0.305486
0.155663 0.006378 0.298144
0.150107 0.016154 0.295731
0.155650 0.022049 0.292025
0.142661 0.027100 0.293194
0.155780 0.039087 0.285530
0.154850 0.055008 0.280982
0.147491 0.032468 -0.179603
0.140102 0.038787 -0.183679
0.146303 0.043322 -0.178518
0.155601 0.039989 -0.171334
0.148736 0.064949 0.280246
0.154761 0.071009 0.275296
0.143070 0.075878 0.278473
0.155570 0.088293 0.269074
0.154643 0.103265 0.264474
0.148495 0.113928 0.263799
0.155834 0.105806 -0.156121
0.140077 0.104913 -0.168836
0.146160 0.110193 -0.162446
0.148244 0.099264 -0.163968
0.154634 0.120323 0.253779
0.149683 0.131320 0.248535
0.143063 0.142260 0.244625
0.155403 0.137083 0.240448
0.155682 0.149894 0.231969
0.156006 0.138853 -0.140375
0.146324 0.143911 -0.146907
0.148908 0.132897 -0.149473
0.147374 0.162003 0.230270
0.155696 0.158096 0.227271
0.156790 0.171429 0.218928
0.151314 0.186730 0.214515
0.147924 0.195541 0.212362
0.148616 0.180950 -0.132885
0.145476 0.192133 -0.129736
0.155552 0.186699 -0.122598
0.154407 0.201848 0.203495
0.149990 0.214423 0.198437
0.156070 0.220228 0.189756
0.144438 0.225360 0.194293
0.151190 0.233084 0.185293
0.149252 0.216941 -0.115750
0.141703 0.221436 -0.122250
0.147448 0.227802 -0.113477
0.155362 0.220144 -0.105608
0.147021 0.244000 0.182246
0.157330 0.238509 0.176120
0.143403 0.252367 0.179441
0.152316 0.252385 0.171272
0.148705 0.262780 0.167691
0.147914 0.245278 -0.097501
0.145011 0.256193 -0.092771
0.150214 0.251440 -0.088085
0.152371 0.268470 0.156589
0.144219 0.273708 0.162649
0.148818 0.279561 0.150678
0.148033 0.261940 -0.082299
0.141928 0.268072 -0.088138
0.145657 0.272846 -0.078052
0.150475 0.267945 -0.072738
0.144868 0.290482 0.143991
0.151040 0.285073 0.138237
0.147971 0.294376 0.131923
0.150453 0.284894 -0.055671
0.142759 0.284959 -0.072358
0.145684 0.290222 -0.060849
0.148475 0.279258 -0.066807
0.149608 0.296514 0.121808
0.142371 0.304745 0.122247
0.145431 0.307941 0.106077
0.151747 0.299717 0.105705
0.147064 0.309600 0.097754
0.152902 0.303093 0.091588
0.142875 0.317748 0.091761
0.148520 0.312115 0.087267
0.149615 0.297656 -0.039431
0.145033 0.305888 -0.039426
0.146530 0.308446 -0.027010
0.151016 0.302418 -0.022074
0.148095 0.294954 -0.049777
0.142165 0.300913 -0.055541
0.144238 0.322084 0.074173
0.149742 0.313868 0.074524
0.150582 0.314494 0.058593
0.144512 0.322724 0.058133
0.150883 0.314681 0.042511
0.144624 0.322903 0.042212
0.150858 0.315165 0.026194
0.144900 0.323385 0.026204
0.144185 0.322388 0.009839
0.150149 0.314163 0.009780
0.142442 0.319765 -0.006767
0.148652 0.311549 -0.006616
0.147700 0.310120 -0.016070
0.141971 0.316571 -0.022245
0.173510 -0.711770 0.204669
0.180015 -0.721478 0.204771
0.180860 -0.720197 0.213282
0.177050 -0.712775 0.219406
0.178299 -0.724149 0.189803
0.169272 -0.710832 0.190266
0.177149 -0.726095 0.174110
0.168876 -0.713783 0.174137
0.177410 -0.725796 0.156539
0.169143 -0.713653 0.156600
0.170062 -0.712715 0.138641
0.178287 -0.724403 0.138637
0.170248 -0.710326 0.122560
0.179393 -0.722504 0.122036
0.180376 -0.720835 0.111455
0.175659 -0.712798 0.105940
0.178117 -0.694231 0.252197
0.178366 -0.707918 0.236760
0.180165 -0.704972 0.246391
0.170197 -0.694331 0.236081
0.167950 -0.698126 0.220482
0.166245 -0.700994 0.204510
0.164991 -0.702910 0.195399
0.166550 -0.701146 0.105950
0.165155 -0.702760 0.117648
0.169111 -0.698351 0.089508
0.177304 -0.708241 0.089444
0.179442 -0.705360 0.076195
0.172540 -0.695790 0.072103
0.178326 -0.679129 0.264837
0.180500 -0.688029 0.261500
0.170228 -0.678522 0.252221
0.166465 -0.683570 0.240883
0.165631 -0.685801 0.067960
0.176167 -0.693155 0.057491
0.167988 -0.682655 0.057247
0.173060 -0.677905 0.042818
0.178739 -0.689867 0.047631
0.166925 -0.667008 0.257123
0.172655 -0.662976 0.269993
0.173741 -0.661594 0.026920
0.178219 -0.673233 0.032769
0.167417 -0.668264 0.038186
0.167465 -0.649172 0.275067
0.178364 -0.658949 0.282433
0.173503 -0.644771 0.287358
0.173653 -0.645889 0.016143
0.180174 -0.654819 0.018207
0.169319 -0.650687 0.021088
0.169230 -0.630136 0.291119
0.177406 -0.630219 0.300399
0.179537 -0.640385 0.298333
0.166472 -0.617346 0.294655
0.172158 -0.612718 0.302257
0.172771 -0.614146 -0.001230
0.178651 -0.623315 0.001173
0.172717 -0.629416 0.007270
0.167742 -0.619467 0.003436
0.172799 -0.598834 0.307775
0.167666 -0.580948 0.309040
0.178505 -0.594196 0.313824
0.175916 -0.580902 0.315066
0.164868 -0.588903 -0.014385
0.175808 -0.592022 -0.016341
0.171064 -0.597671 -0.010564
0.171029 -0.582523 -0.020342
0.165529 -0.568078 0.310995
0.171638 -0.563233 0.316479
0.173548 -0.548181 0.322160
0.170472 -0.531342 0.322948
0.179680 -0.542951 0.328423
0.178681 -0.531346 0.328988
0.167518 -0.537961 -0.046678
0.178430 -0.541168 -0.048090
0.172608 -0.547423 -0.042838
0.172663 -0.532260 -0.050304
0.168881 -0.514977 0.324029
0.177102 -0.515000 0.329527
0.166613 -0.504194 0.325529
0.172256 -0.498759 0.331296
0.172547 -0.482446 0.336113
0.174072 -0.466710 0.338931
0.170982 -0.449580 0.339114
0.180526 -0.461675 0.342982
0.179220 -0.449624 0.343759
0.168135 -0.433215 0.340714
0.176383 -0.433324 0.345150
0.165782 -0.420957 0.342002
0.171871 -0.416217 0.345785
0.172747 -0.400865 0.348647
0.172672 -0.384784 0.350706
0.172539 -0.369020 0.351891
0.172579 -0.352823 0.353513
0.173224 -0.335967 0.357443
0.170140 -0.319544 0.358579
0.178383 -0.319702 0.361664
0.179058 -0.330378 0.361598
0.170520 -0.303816 0.358453
0.178754 -0.304014 0.360896
0.173508 -0.288389 0.358513
0.179503 -0.294554 0.360420
0.172761 -0.271169 0.357773
0.172671 -0.255159 0.356212
0.172514 -0.239231 0.353370
0.172609 -0.222712 0.351783
0.172791 -0.206042 0.350672
0.172699 -0.189810 0.348219
0.172534 -0.173673 0.345862
0.172580 -0.157265 0.345012
0.174143 -0.140356 0.343544
0.169682 -0.134529 0.342235
0.174052 -0.126378 0.340291
0.180590 -0.132877 0.342672
0.172403 -0.108497 0.335137
0.172404 -0.092092 0.331724
0.172367 -0.075704 0.329092
0.172278 -0.065381 0.327031
0.172227 -0.057213 0.322309
0.172245 -0.042946 0.315651
0.172292 -0.030566 0.312229
0.172313 -0.022345 0.309224
0.173035 -0.009125 0.301516
0.170585 -0.025225 -0.176093
0.156791 -0.025227 -0.182442
0.163325 -0.019568 -0.179736
0.164138 -0.030620 -0.179950
0.167979 0.000969 0.297560
0.161035 0.011906 0.295015
0.172922 0.006375 0.294202
0.172145 0.022672 0.287914
0.172298 0.039652 0.281265
0.166896 0.049232 0.279119
0.165263 0.036625 -0.164168
0.163720 0.047558 -0.162821
0.171280 0.041125 -0.158615
0.159694 0.060160 0.277220
0.172237 0.055011 0.274789
0.171999 0.071879 0.268235
0.170540 0.086871 0.263201
0.164137 0.096862 0.261557
0.159604 0.107803 0.258834
0.171447 0.104152 0.253043
0.167775 0.115792 0.247840
0.171452 0.106213 -0.143091
0.163583 0.112465 -0.148214
0.165527 0.101465 -0.149603
0.160750 0.126726 0.244051
0.172800 0.121197 0.240841
0.170611 0.136504 0.231466
0.164169 0.145928 0.228979
0.165960 0.133884 -0.133736
0.163238 0.144913 -0.130882
0.171750 0.138813 -0.126017
0.171763 0.153709 0.220351
0.168456 0.166703 0.214463
0.173111 0.171425 0.208655
0.162991 0.177645 0.211169
0.159473 0.186732 0.208731
0.171555 0.185999 0.200836
0.165867 0.197216 0.198258
0.164986 0.181310 -0.115276
0.162613 0.192474 -0.112323
0.171406 0.185876 -0.104915
0.160898 0.208141 0.194397
0.171889 0.203117 0.189604
0.166994 0.215087 0.184890
0.162173 0.226032 0.180944
0.172943 0.220718 0.175153
0.167914 0.232998 0.170012
0.167268 0.218613 -0.088289
0.161460 0.223329 -0.093322
0.164342 0.212404 -0.097716
0.173348 0.237718 0.158955
0.163503 0.243910 0.165701
0.167819 0.249543 0.153351
0.161252 0.253954 0.158264
0.164937 0.230246 -0.082314
0.158244 0.235982 -0.088245
0.162117 0.241165 -0.078015
0.167869 0.235812 -0.072525
0.163777 0.260467 0.147032
0.172636 0.253308 0.140154
0.166466 0.263933 0.135314
0.160523 0.269151 0.140186
0.167427 0.252098 -0.055946
0.158611 0.252193 -0.072806
0.161931 0.257419 -0.061381
0.165067 0.246442 -0.067108
0.167949 0.269122 0.120114
0.162265 0.274844 0.124775
0.158145 0.283716 0.120241
0.163964 0.277274 0.113783
0.166536 0.265732 -0.039649
0.162057 0.273929 -0.039606
0.163583 0.276627 -0.030589
0.168608 0.270209 -0.024272
0.158709 0.268205 -0.055935
0.164875 0.262310 -0.050159
0.165010 0.278911 0.105215
0.159996 0.287129 0.105287
0.161591 0.289829 0.090072
0.166750 0.281629 0.089937
0.162767 0.291831 0.078496
0.167369 0.285886 0.073868
0.163833 0.293631 0.068145
0.158503 0.300094 0.073874
0.166797 0.282107 -0.006699
0.161804 0.290328 -0.006623
0.163044 0.292452 0.003869
0.168502 0.286246 0.009072
0.165002 0.279283 -0.019524
0.160563 0.284936 -0.024185
0.158714 0.303012 0.058944
0.164741 0.294765 0.059128
0.165403 0.295642 0.042777
0.159019 0.303864 0.042679
0.159022 0.303280 0.025948
0.164905 0.295054 0.025791
0.164266 0.294176 0.014405
0.158983 0.300435 0.009390
0.192808 -0.745214 0.188652
0.196484 -0.753816 0.173111
0.196916 -0.753203 0.182428
0.189862 -0.744613 0.173548
0.190060 -0.744590 0.156396
0.196536 -0.753829 0.156286
0.192711 -0.745954 0.138969
0.197027 -0.753202 0.144664
0.185928 -0.726699 0.219347
0.194798 -0.740148 0.220460
0.195920 -0.738743 0.233746
0.191856 -0.729828 0.238341
0.185523 -0.729730 0.204905
0.193662 -0.741208 0.205162
0.183759 -0.732384 0.189794
0.182392 -0.734307 0.173995
0.182608 -0.733998 0.156479
0.183627 -0.732619 0.138689
0.193386 -0.742349 0.122411
0.185232 -0.730742 0.122100
0.186669 -0.727102 0.105904
0.195564 -0.739089 0.105879
0.196836 -0.737096 0.095651
0.192734 -0.729022 0.089858
0.186754 -0.711143 0.252905
0.194677 -0.724769 0.254252
0.196637 -0.721035 0.264253
0.194579 -0.711189 0.270298
0.183420 -0.716142 0.236701
0.181746 -0.718930 0.224007
0.183765 -0.716479 0.089410
0.181858 -0.718957 0.100514
0.185388 -0.711269 0.072018
0.194623 -0.723915 0.073634
0.196237 -0.721190 0.064650
0.191483 -0.711951 0.058839
0.194892 -0.695964 0.284135
0.196474 -0.705163 0.281150
0.186955 -0.694563 0.268965
0.183077 -0.699040 0.257388
0.180843 -0.703487 0.065817
0.182553 -0.701414 0.057864
0.189085 -0.694835 0.042679
0.193768 -0.706573 0.048203
0.183739 -0.679312 0.273803
0.192332 -0.680169 0.289032
0.189278 -0.679073 0.030673
0.195230 -0.688797 0.033745
0.184446 -0.684135 0.037341
0.185110 -0.663982 0.288006
0.196093 -0.675255 0.297678
0.193699 -0.663265 0.300140
0.181616 -0.669914 0.277238
0.182619 -0.651335 0.294606
0.189396 -0.645598 0.304893
0.186095 -0.630220 0.308536
0.196164 -0.639790 0.314175
0.194251 -0.630236 0.315645
0.182793 -0.613844 0.311291
0.190948 -0.613814 0.317381
0.180926 -0.605187 0.312663
0.188658 -0.597904 0.319743
0.190076 -0.597487 -0.017605
0.196584 -0.605844 -0.014847
0.190060 -0.612436 -0.008643
0.185681 -0.603000 -0.012432
0.186786 -0.580859 0.322337
0.194895 -0.580849 0.328210
0.196351 -0.590663 0.327165
0.183844 -0.564293 0.324636
0.191978 -0.564316 0.330599
0.182843 -0.571831 -0.030407
0.193677 -0.574385 -0.031936
0.188338 -0.580382 -0.026896
0.188334 -0.565735 -0.035699
0.181647 -0.553918 0.326488
0.187827 -0.548186 0.332545
0.190532 -0.529771 0.337835
0.188095 -0.515030 0.337656
0.196936 -0.523266 0.343624
0.196132 -0.515069 0.343988
0.185823 -0.498769 0.339585
0.193930 -0.498798 0.344803
0.188350 -0.499943 -0.066698
0.193666 -0.508606 -0.064529
0.188360 -0.514646 -0.060688
0.182934 -0.505969 -0.063325
0.182816 -0.482538 0.341763
0.191001 -0.482556 0.346191
0.181171 -0.472732 0.342524
0.187673 -0.466765 0.347350
0.189253 -0.449673 0.351146
0.189225 -0.433535 0.353184
0.189925 -0.418972 0.355447
0.185775 -0.401101 0.355965
0.193774 -0.401282 0.361621
0.195780 -0.414698 0.360083
0.184724 -0.384968 0.356991
0.192714 -0.385118 0.362401
0.185820 -0.369252 0.357260
0.193944 -0.369291 0.361185
0.185853 -0.353048 0.357897
0.193997 -0.353079 0.361276
0.183633 -0.341816 0.359128
0.189038 -0.336306 0.364262
0.189040 -0.320068 0.366249
0.189255 -0.303407 0.361758
0.183993 -0.294607 0.360240
0.189241 -0.288655 0.358009
0.190440 -0.269885 0.357857
0.190379 -0.256860 0.355525
0.196758 -0.263239 0.360161
0.196759 -0.263389 0.360157
0.188807 -0.239244 0.349443
0.188920 -0.222751 0.349903
0.189062 -0.206179 0.351633
0.188986 -0.189982 0.349193
0.188842 -0.173853 0.345806
0.188837 -0.157461 0.345191
0.187445 -0.139980 0.343742
0.181145 -0.132881 0.342673
0.187370 -0.126439 0.340302
0.188680 -0.108535 0.335005
0.188670 -0.092133 0.331145
0.188116 -0.075579 0.327859
0.182327 -0.066874 0.326702
0.188082 -0.060597 0.322033
0.187566 -0.042849 0.314232
0.181434 -0.033921 0.312104
0.187668 -0.027693 0.306761
0.188767 -0.014486 0.298983
0.178962 -0.002973 0.296366
0.188689 -0.006266 0.295341
0.188556 0.006260 0.290859
0.188483 0.022658 0.284689
0.187289 0.006185 -0.156778
0.172459 0.006479 -0.167451
0.178240 0.011271 -0.161973
0.180980 0.000358 -0.163915
0.188495 0.034091 0.280045
0.188487 0.042304 0.275830
0.177838 0.045516 0.277128
0.188405 0.055475 0.270213
0.186938 0.071611 0.264617
0.182231 0.051666 -0.147644
0.173243 0.056800 -0.152816
0.179489 0.062632 -0.145933
0.188008 0.056629 -0.141548
0.180586 0.080461 0.262395
0.188349 0.088304 0.254017
0.175090 0.091413 0.258682
0.185241 0.100520 0.247749
0.189810 0.105472 0.242125
0.178748 0.111458 0.244360
0.187619 0.120538 0.232694
0.181606 0.130373 0.229308
0.187217 0.119037 -0.121867
0.171688 0.120012 -0.136498
0.176938 0.124544 -0.128692
0.180549 0.113573 -0.132301
0.187559 0.136502 0.222863
0.175081 0.141300 0.226121
0.188326 0.149794 0.214736
0.179351 0.161484 0.211351
0.188310 0.157976 0.209053
0.187529 0.169897 0.201074
0.180707 0.146789 -0.114481
0.172435 0.153043 -0.119547
0.178157 0.157677 -0.111560
0.185310 0.153035 -0.105843
0.181591 0.180036 0.197638
0.176762 0.190967 0.194363
0.187775 0.186207 0.189449
0.183038 0.198078 0.184673
0.183795 0.185662 -0.088462
0.177814 0.190325 -0.093814
0.180594 0.179344 -0.097460
0.188864 0.203852 0.174705
0.177933 0.209005 0.180319
0.183810 0.215383 0.169348
0.184961 0.203430 -0.072909
0.174979 0.203591 -0.088581
0.179102 0.209066 -0.078660
0.181605 0.198122 -0.082754
0.178909 0.226317 0.164345
0.189193 0.220548 0.158339
0.183691 0.231497 0.152487
0.185361 0.220124 -0.056841
0.176264 0.220225 -0.072931
0.179327 0.226004 -0.062758
0.181964 0.215030 -0.067721
0.178794 0.242410 0.145139
0.188278 0.235904 0.139481
0.182016 0.246129 0.133298
0.182116 0.230780 -0.051841
0.176062 0.236188 -0.056892
0.178578 0.241761 -0.044459
0.184253 0.236154 -0.039117
0.184565 0.248559 0.121599
0.177066 0.256777 0.121399
0.186935 0.250903 0.105247
0.178975 0.259124 0.105057
0.186714 0.253780 0.090322
0.179977 0.260190 0.095224
0.175924 0.267639 0.090127
0.180946 0.261425 0.085464
0.184863 0.252924 -0.006586
0.177159 0.256050 -0.023032
0.178993 0.258756 -0.012040
0.182718 0.247847 -0.022910
0.181112 0.245411 -0.033187
0.174823 0.251501 -0.039172
0.181735 0.262790 0.074566
0.176484 0.270993 0.074635
0.177804 0.273168 0.058823
0.182717 0.264954 0.058727
0.178724 0.274746 0.042484
0.183515 0.266559 0.042381
0.178898 0.275094 0.025466
0.184006 0.266913 0.025425
0.182978 0.264996 0.009024
0.177578 0.273185 0.009023
0.175331 0.268152 -0.006725
0.181273 0.262253 -0.001374
0.205594 -0.761031 0.189341
0.211394 -0.772266 0.172602
0.212358 -0.771068 0.185362
0.203193 -0.762041 0.172766
0.203472 -0.762057 0.156169
0.211655 -0.771884 0.156184
0.203339 -0.759626 0.139367
0.212692 -0.770565 0.139819
0.208335 -0.762181 0.123364
0.213348 -0.769684 0.129298
0.201243 -0.744399 0.238256
0.210330 -0.758180 0.236568
0.212293 -0.755340 0.248919
0.208192 -0.745472 0.254738
0.200875 -0.748395 0.220481
0.209025 -0.759507 0.220543
0.200232 -0.749473 0.205227
0.208412 -0.759807 0.205227
0.198810 -0.751121 0.193250
0.197748 -0.752364 0.133507
0.199095 -0.750576 0.122709
0.201531 -0.747347 0.106180
0.209689 -0.758285 0.106639
0.205144 -0.744875 0.089279
0.211845 -0.755426 0.093716
0.205530 -0.728635 0.272155
0.211238 -0.740628 0.268501
0.199633 -0.732975 0.254316
0.197379 -0.736369 0.245058
0.201002 -0.732180 0.073817
0.209153 -0.741707 0.074317
0.198448 -0.735036 0.084789
0.211845 -0.738282 0.064881
0.206029 -0.727225 0.059625
0.199812 -0.716008 0.275610
0.205397 -0.712528 0.288907
0.210789 -0.725342 0.285578
0.206302 -0.711021 0.043466
0.211055 -0.722244 0.049428
0.200225 -0.717520 0.054550
0.199709 -0.695950 0.292764
0.207948 -0.695941 0.301812
0.210975 -0.708956 0.299306
0.201592 -0.699675 0.037494
0.212496 -0.704409 0.034266
0.206179 -0.694914 0.032009
0.197632 -0.686038 0.295939
0.203972 -0.680272 0.302959
0.205180 -0.664632 0.309042
0.199842 -0.669473 0.019685
0.210811 -0.672860 0.017546
0.205153 -0.678760 0.023230
0.205118 -0.663688 0.014568
0.199607 -0.650833 0.311461
0.205121 -0.645869 0.317751
0.210632 -0.659963 0.315331
0.206005 -0.630341 0.324269
0.203237 -0.631817 -0.003765
0.207661 -0.641340 -0.000082
0.203226 -0.646816 0.005123
0.196635 -0.638354 0.001868
0.201660 -0.613762 0.324858
0.209895 -0.613746 0.330615
0.212092 -0.624925 0.330324
0.199022 -0.601620 0.325556
0.204779 -0.596638 0.331355
0.206411 -0.580984 0.337473
0.203422 -0.564425 0.339180
0.212736 -0.575609 0.344095
0.211683 -0.564526 0.345204
0.201372 -0.547863 0.341716
0.209636 -0.547949 0.346550
0.201268 -0.554206 -0.046117
0.212211 -0.556861 -0.047756
0.205949 -0.563270 -0.042006
0.206001 -0.548584 -0.049998
0.199014 -0.534188 0.342998
0.204807 -0.529842 0.346872
0.205237 -0.515090 0.349312
0.205301 -0.498838 0.351696
0.206263 -0.483554 0.355092
0.201813 -0.466153 0.356437
0.210038 -0.466237 0.360663
0.212351 -0.478781 0.359765
0.198973 -0.449724 0.358222
0.207154 -0.449899 0.361622
0.197658 -0.433695 0.358884
0.205787 -0.433971 0.362243
0.197481 -0.425558 0.358947
0.203817 -0.419370 0.363024
0.205089 -0.401558 0.367508
0.205001 -0.385373 0.369074
0.205155 -0.369460 0.366157
0.205242 -0.353263 0.366021
0.205228 -0.336922 0.372254
0.202302 -0.320548 0.372797
0.210492 -0.320812 0.376124
0.210718 -0.331650 0.376065
0.206171 -0.309661 0.367441
0.212158 -0.312078 0.375944
0.194854 -0.297579 0.358911
0.205326 -0.301419 0.357718
0.205250 -0.288249 0.356275
0.205191 -0.272464 0.358307
0.205171 -0.263098 0.360354
0.205168 -0.264136 0.360343
0.205172 -0.255127 0.354784
0.205169 -0.239269 0.348023
0.205244 -0.222815 0.349436
0.205322 -0.206350 0.353407
0.205251 -0.190163 0.350647
0.205125 -0.173992 0.345957
0.205083 -0.157591 0.345056
0.205059 -0.143423 0.343888
0.205050 -0.135277 0.342142
0.191825 -0.133842 0.342506
0.205002 -0.124901 0.338457
0.204958 -0.108554 0.333977
0.205878 -0.090999 0.329494
0.201033 -0.080941 0.327416
0.205878 -0.075600 0.324044
0.193160 -0.070017 0.325558
0.205860 -0.058337 0.316688
0.201008 -0.048242 0.313968
0.192340 -0.037297 0.310888
0.205935 -0.042834 0.309441
0.204259 -0.025780 0.300481
0.197295 -0.047393 -0.163109
0.189796 -0.041908 -0.166882
0.196185 -0.036549 -0.162361
0.203639 -0.042176 -0.157631
0.198199 -0.017610 0.297284
0.204217 -0.011333 0.293333
0.204896 0.006255 0.286817
0.203579 0.022046 0.281498
0.197330 0.031461 0.279462
0.203277 0.021569 -0.140102
0.189265 0.021725 -0.150310
0.195214 0.026076 -0.145214
0.196756 0.015180 -0.146325
0.203589 0.037793 0.273445
0.204473 0.055290 0.265354
0.198787 0.065972 0.264063
0.205490 0.072668 0.254737
0.191458 0.076907 0.260571
0.201270 0.085197 0.248984
0.204449 0.071384 -0.122860
0.188844 0.071175 -0.135721
0.194605 0.075904 -0.129265
0.197056 0.064906 -0.130963
0.205976 0.089719 0.242291
0.196105 0.096147 0.245224
0.204232 0.104112 0.233444
0.198415 0.114703 0.230173
0.205587 0.121942 0.220985
0.192468 0.125629 0.226638
0.200943 0.137503 0.215191
0.196919 0.113577 -0.114833
0.194022 0.124583 -0.111402
0.200774 0.120027 -0.105904
0.197045 0.146301 0.212852
0.204980 0.138263 -0.089230
0.191902 0.139337 -0.105671
0.196630 0.145727 -0.096985
0.198824 0.134770 -0.099898
0.203036 0.152176 0.203628
0.198129 0.164144 0.198677
0.192491 0.175086 0.194437
0.203872 0.169191 0.188937
0.198614 0.181439 0.184598
0.201259 0.170653 -0.072861
0.191198 0.170758 -0.088192
0.195526 0.176296 -0.078677
0.197790 0.165363 -0.082224
0.204419 0.186288 0.173678
0.193945 0.192363 0.180107
0.199201 0.198669 0.169103
0.202216 0.187724 -0.057184
0.193086 0.187827 -0.072948
0.196148 0.193857 -0.063377
0.198461 0.182908 -0.067784
0.194695 0.209592 0.163840
0.204491 0.202907 0.157064
0.198830 0.214752 0.152500
0.198957 0.199689 -0.052451
0.193763 0.204407 -0.057209
0.196271 0.210637 -0.046923
0.201461 0.204364 -0.040637
0.201524 0.219943 0.139963
0.194547 0.225675 0.145594
0.197740 0.229382 0.133874
0.198207 0.214444 -0.035702
0.193321 0.219791 -0.040608
0.195180 0.225410 -0.027851
0.199747 0.219797 -0.022542
0.200034 0.231936 0.122239
0.192683 0.240150 0.121914
0.195046 0.242606 0.105377
0.202065 0.234381 0.105635
0.202245 0.235311 0.090550
0.195949 0.243519 0.090295
0.201454 0.237428 0.075888
0.196264 0.243882 0.081403
0.191024 0.251024 0.075489
0.196890 0.244630 0.070871
0.200574 0.236562 0.009909
0.193446 0.239725 -0.006398
0.195385 0.242454 0.004508
0.198821 0.231518 -0.006343
0.191162 0.235108 -0.022533
0.197463 0.229038 -0.016745
0.197667 0.245526 0.059216
0.190866 0.253754 0.058914
0.191692 0.254509 0.042521
0.198201 0.246298 0.042830
0.192198 0.254577 0.025713
0.197972 0.246368 0.026143
0.197402 0.245600 0.015226
0.191510 0.251607 0.009519
0.227716 -0.776293 0.251655
0.229072 -0.787574 0.236637
0.230042 -0.785881 0.245096
0.222755 -0.777420 0.236569
0.221428 -0.777418 0.220665
0.228465 -0.788519 0.220801
0.221460 -0.777450 0.205246
0.228625 -0.788005 0.205323
0.218290 -0.776929 0.190349
0.227347 -0.789532 0.189556
0.217830 -0.780504 0.172934
0.226062 -0.791127 0.173301
0.218221 -0.780127 0.156397
0.226423 -0.790483 0.156634
0.227454 -0.789052 0.139949
0.219294 -0.778811 0.139879
0.228539 -0.787841 0.123571
0.219393 -0.776091 0.123668
0.224665 -0.778439 0.107330
0.229411 -0.786698 0.112877
0.218686 -0.760936 0.254162
0.229729 -0.770100 0.262818
0.226518 -0.761073 0.269989
0.215640 -0.766399 0.236518
0.214908 -0.767722 0.220521
0.214736 -0.768028 0.205191
0.214076 -0.768836 0.196434
0.215658 -0.766513 0.106921
0.214280 -0.768451 0.118192
0.220173 -0.762362 0.088681
0.226540 -0.773717 0.094176
0.224800 -0.745928 0.289385
0.228657 -0.755655 0.283992
0.217072 -0.745622 0.273095
0.214925 -0.751464 0.260949
0.217046 -0.749975 0.074846
0.225183 -0.757718 0.075177
0.213827 -0.752634 0.083166
0.223059 -0.743783 0.060259
0.228747 -0.753996 0.066120
0.215933 -0.729984 0.290223
0.227726 -0.741204 0.299941
0.224483 -0.728762 0.303110
0.213890 -0.736195 0.280005
0.222214 -0.728136 0.046828
0.228239 -0.738214 0.050116
0.217371 -0.733187 0.054474
0.213863 -0.719915 0.296599
0.220872 -0.714594 0.306084
0.216992 -0.695944 0.309726
0.227892 -0.709208 0.314498
0.225302 -0.695851 0.316191
0.214718 -0.679693 0.311870
0.223039 -0.679540 0.317634
0.213834 -0.671045 0.312693
0.221406 -0.663905 0.321173
0.217895 -0.646635 0.326449
0.228996 -0.656818 0.330102
0.226280 -0.646575 0.331993
0.222302 -0.646688 -0.002244
0.228445 -0.655530 0.000966
0.222309 -0.661878 0.007329
0.217355 -0.652319 0.003346
0.214904 -0.635909 0.328876
0.221002 -0.630351 0.333785
0.222558 -0.614031 0.338453
0.220495 -0.614826 -0.019736
0.225450 -0.625145 -0.016443
0.220521 -0.630420 -0.011342
0.214405 -0.620905 -0.014050
0.217380 -0.597467 0.340111
0.225705 -0.597552 0.345251
0.228637 -0.608777 0.343660
0.214544 -0.586582 0.342287
0.220797 -0.581154 0.347231
0.219948 -0.582536 -0.035745
0.224492 -0.592623 -0.032560
0.219917 -0.597847 -0.028526
0.213421 -0.588973 -0.031017
0.221823 -0.564713 0.351168
0.221873 -0.548210 0.353430
0.221917 -0.531652 0.354924
0.221964 -0.515147 0.356185
0.222401 -0.516169 -0.066279
0.228620 -0.524099 -0.064172
0.222344 -0.530579 -0.060585
0.217440 -0.522190 -0.063329
0.220734 -0.500424 0.358060
0.214312 -0.489672 0.358729
0.225420 -0.496079 0.361450
0.220697 -0.483626 0.362859
0.221982 -0.466385 0.364450
0.215712 -0.473057 -0.079854
0.226757 -0.475717 -0.080723
0.221310 -0.481685 -0.077762
0.221328 -0.466969 -0.082361
0.221950 -0.450296 0.364813
0.223300 -0.433246 0.369786
0.221494 -0.418535 0.371598
0.229643 -0.427413 0.375875
