-0.832653 -0.221353 0.128923
-0.824558 -0.221621 0.137920
-0.832491 -0.204742 0.128207
-0.824431 -0.205109 0.137628
-0.832901 -0.188266 0.129093
-0.824836 -0.188494 0.138304
-0.833094 -0.171860 0.129988
-0.825012 -0.171936 0.138705
-0.831976 -0.155509 0.129193
-0.823898 -0.155653 0.137050
-0.830567 -0.139374 0.127767
-0.822506 -0.139642 0.135227
-0.830320 -0.123529 0.127208
-0.822253 -0.123785 0.134917
-0.829942 -0.107503 0.126428
-0.821870 -0.107703 0.134339
-0.828650 -0.089746 0.124023
-0.821037 -0.095805 0.133130
-0.836236 -0.083650 0.114422
-0.836135 -0.074488 0.114775
-0.828120 -0.074669 0.123119
-0.836351 -0.058554 0.115991
-0.828328 -0.058603 0.123703
-0.835104 -0.042291 0.114775
-0.827039 -0.042275 0.123023
-0.832225 -0.025594 0.110803
-0.824105 -0.025557 0.120721
-0.831609 -0.009075 0.109246
-0.823488 -0.009043 0.120620
-0.833064 0.007205 0.110615
-0.824955 0.007196 0.122910
-0.833049 0.024110 0.110320
-0.824929 0.024036 0.122826
-0.832820 0.041948 0.106896
-0.823919 0.041393 0.120741
-0.824315 0.057936 0.120827
-0.836301 0.047965 0.099729
-0.833506 0.073981 0.111085
-0.825401 0.073935 0.122332
-0.833396 0.092237 0.108175
-0.824531 0.090730 0.121763
-0.830196 0.107720 0.108544
-0.822719 0.107771 0.120000
-0.836428 0.098967 0.100230
-0.835810 0.107664 0.099099
-0.829630 0.124061 0.108505
-0.822526 0.124064 0.119972
-0.835381 0.124036 0.098197
-0.829188 0.140194 0.108386
-0.822498 0.140128 0.119996
-0.834915 0.140206 0.096767
-0.824433 0.157211 0.108947
-0.821364 0.151836 0.118306
-0.832739 0.156409 0.091645
-0.828376 0.173356 0.091993
-0.822497 0.173394 0.105240
-0.835231 0.161757 0.078447
-0.834066 0.171699 0.074076
-0.828074 0.189497 0.091993
-0.822500 0.189611 0.105944
-0.832776 0.189493 0.075700
-0.835613 0.176143 0.062514
-0.835440 0.189625 0.062594
-0.827075 0.206062 0.271148
-0.826881 0.205818 0.092000
-0.822068 0.206003 0.105276
-0.831164 0.205796 0.075654
-0.834478 0.206252 0.059954
-0.822257 0.222288 0.091286
-0.820702 0.216471 0.102186
-0.826146 0.222673 0.075528
-0.829047 0.222868 0.058920
-0.835599 0.212538 0.042647
-0.831135 0.222997 0.042205
-0.836107 0.214340 0.033317
-0.833135 0.221758 0.026587
-0.821512 0.234757 0.075401
-0.820440 0.232513 0.085311
-0.822755 0.237358 0.058654
-0.822935 0.240780 0.041300
-0.825073 0.239658 0.025348
-0.833052 0.224826 0.009167
-0.826357 0.239693 0.009313
-0.833572 0.226288 -0.006641
-0.827235 0.239729 -0.006516
-0.834329 0.227729 -0.022942
-0.828727 0.239749 -0.022858
-0.835248 0.229334 -0.039482
-0.830668 0.239762 -0.039421
-0.835836 0.230354 -0.055769
-0.831840 0.239731 -0.055738
-0.836127 0.230777 -0.067840
-0.833360 0.238113 -0.072752
-0.820669 0.249590 0.025722
-0.820049 0.248254 0.035518
-0.821353 0.251184 0.009661
-0.821724 0.252176 -0.006379
-0.822466 0.254212 -0.022769
-0.823200 0.257650 -0.038278
-0.825377 0.256191 -0.055725
-0.826192 0.256139 -0.071937
-0.833470 0.241021 -0.088507
-0.827390 0.256126 -0.088669
-0.834255 0.243190 -0.105385
-0.828866 0.256155 -0.105918
-0.835102 0.245120 -0.121715
-0.830500 0.256088 -0.122065
-0.835817 0.246534 -0.134080
-0.833046 0.254448 -0.138753
-0.821140 0.266969 -0.055743
-0.820581 0.265924 -0.043145
-0.821566 0.267711 -0.071936
-0.822098 0.269248 -0.088810
-0.822202 0.273322 -0.107849
-0.823889 0.272512 -0.122231
-0.825469 0.272374 -0.137612
-0.833433 0.257566 -0.154002
-0.827089 0.272364 -0.153997
-0.834276 0.259802 -0.170427
-0.828778 0.272366 -0.170442
-0.835200 0.261412 -0.186810
-0.830539 0.272070 -0.186820
-0.835537 0.261839 -0.203207
-0.831325 0.271717 -0.203208
-0.834988 0.261006 -0.219764
-0.830615 0.271683 -0.219804
-0.835366 0.261663 -0.236244
-0.831577 0.271495 -0.236314
-0.836227 0.262971 -0.244708
-0.834975 0.272006 -0.251132
-0.820284 0.281479 -0.122100
-0.819939 0.280820 -0.114603
-0.821020 0.282947 -0.137590
-0.821822 0.284733 -0.154007
-0.822633 0.286508 -0.170477
-0.822819 0.289601 -0.188303
-0.824272 0.288129 -0.203217
-0.824711 0.287885 -0.219924
-0.826266 0.287553 -0.236503
-0.830192 0.286843 -0.252647
-0.836236 0.277503 -0.261154
-0.834623 0.286184 -0.264935
-0.820375 0.297262 -0.203206
-0.820093 0.296715 -0.194695
-0.820949 0.298899 -0.219927
-0.821897 0.301531 -0.236485
-0.823805 0.304739 -0.251308
-0.832269 0.301608 -0.270736
-0.825903 0.319095 -0.268536
-0.821466 0.314586 -0.255760
-0.835838 0.306177 -0.278622
-0.834628 0.318145 -0.279249
-0.812630 -0.566195 -0.317664
-0.812654 -0.550740 -0.317926
-0.817580 -0.518146 -0.311769
-0.809359 -0.518001 -0.306153
-0.811132 -0.468576 -0.252673
-0.814304 -0.451311 -0.203188
-0.814527 -0.451541 -0.219883
-0.813496 -0.435512 -0.154974
-0.809569 -0.419569 -0.006409
-0.811569 -0.419517 -0.022899
-0.813424 -0.419611 -0.039551
-0.815574 -0.419403 -0.055928
-0.807910 -0.403237 0.059308
-0.809449 -0.403223 0.042865
-0.811200 -0.403129 0.026468
-0.812919 -0.402971 0.010076
-0.814229 -0.402762 -0.006330
-0.815641 -0.402749 -0.022855
-0.812612 -0.386667 0.075751
-0.811717 -0.370445 0.108129
-0.806441 -0.370416 0.120489
-0.806579 -0.337284 0.135829
-0.815726 -0.304551 0.144966
-0.807724 -0.304607 0.152782
-0.818291 -0.288021 0.147258
-0.810237 -0.288097 0.155307
-0.817900 -0.271236 0.146520
-0.809843 -0.271223 0.154363
-0.817697 -0.254639 0.146239
-0.809653 -0.254677 0.154720
-0.817707 -0.238235 0.146293
-0.808853 -0.222801 0.157734
-0.804535 -0.228958 0.164125
-0.817857 -0.221848 0.146073
-0.818079 -0.205359 0.145852
-0.810054 -0.205369 0.155941
-0.818442 -0.188669 0.146540
-0.811743 -0.172186 0.157119
-0.805563 -0.172306 0.166629
-0.818458 -0.172035 0.146892
-0.809012 -0.155574 0.158283
-0.805132 -0.160911 0.166127
-0.817582 -0.155764 0.145195
-0.816722 -0.139773 0.143321
-0.808669 -0.139727 0.156064
-0.816645 -0.123903 0.142991
-0.809060 -0.107837 0.156834
-0.805035 -0.107812 0.166385
-0.816402 -0.107805 0.142500
-0.806896 -0.092369 0.157338
-0.804591 -0.098560 0.165530
-0.816269 -0.090755 0.139386
-0.814138 -0.074918 0.140663
-0.806570 -0.074881 0.153726
-0.820231 -0.084790 0.131782
-0.820001 -0.074872 0.131683
-0.813902 -0.058626 0.140898
-0.806465 -0.058562 0.153665
-0.819877 -0.058674 0.131980
-0.812788 -0.042186 0.140986
-0.806014 -0.042115 0.152679
-0.819220 -0.042277 0.131183
-0.810657 -0.025556 0.140938
-0.805165 -0.025491 0.150595
-0.817942 -0.025587 0.128868
-0.810513 -0.009074 0.141047
-0.805096 -0.008997 0.150522
-0.817856 -0.009097 0.128785
-0.812360 0.007243 0.141244
-0.805750 0.007354 0.152346
-0.819010 0.007153 0.131116
-0.812217 0.023908 0.141218
-0.805686 0.023978 0.152315
-0.818897 0.023903 0.131066
-0.810469 0.040889 0.140911
-0.805022 0.040831 0.150674
-0.817775 0.041121 0.129078
-0.810391 0.057430 0.140709
-0.804958 0.057338 0.150374
-0.817733 0.057687 0.129078
-0.811253 0.073711 0.140754
-0.805188 0.073649 0.150810
-0.818360 0.073826 0.130412
-0.810450 0.090505 0.140821
-0.804781 0.090416 0.149939
-0.817940 0.090659 0.129855
-0.808016 0.107010 0.142381
-0.804298 0.101111 0.148919
-0.816917 0.107656 0.128128
-0.816990 0.123934 0.128087
-0.809826 0.139774 0.140759
-0.804878 0.139676 0.150591
-0.817145 0.139977 0.128085
-0.807489 0.155711 0.141432
-0.804605 0.149760 0.149765
-0.816432 0.156982 0.123869
-0.813370 0.173165 0.124085
-0.806613 0.172960 0.137455
-0.819477 0.163065 0.114712
-0.818840 0.173356 0.113217
-0.813151 0.189656 0.124172
-0.806140 0.189720 0.136310
-0.818956 0.189622 0.113968
-0.812162 0.206276 0.124405
-0.805457 0.206473 0.135301
-0.818528 0.206077 0.113396
-0.807823 0.222885 0.125334
-0.804440 0.217228 0.133735
-0.816173 0.222505 0.107926
-0.810727 0.239683 0.108386
-0.805935 0.239717 0.120683
-0.818349 0.227739 0.096296
-0.816160 0.238705 0.091238
-0.806356 0.256600 0.109222
-0.804407 0.251451 0.118069
-0.811062 0.256099 0.091817
-0.817820 0.243086 0.075333
-0.813714 0.256084 0.075257
-0.818842 0.245633 0.058649
-0.815228 0.256064 0.058771
-0.819464 0.247017 0.046472
-0.817160 0.254662 0.041645
-0.810740 0.272340 0.271612
-0.806477 0.273506 0.092574
-0.804899 0.268640 0.104288
-0.809502 0.272551 0.075340
-0.810511 0.272514 0.059023
-0.811418 0.272521 0.042678
-0.817543 0.257821 0.026019
-0.812722 0.272576 0.026271
-0.818158 0.259419 0.009857
-0.813921 0.272605 0.009948
-0.818554 0.260387 -0.006338
-0.814770 0.272607 -0.006345
-0.819229 0.262406 -0.022762
-0.816091 0.272604 -0.022799
-0.819770 0.264067 -0.031962
-0.817953 0.271873 -0.038348
-0.811445 0.288225 0.287855
-0.805530 0.286183 0.075574
-0.804638 0.283680 0.087702
-0.806057 0.287761 0.059239
-0.805977 0.290361 0.042715
-0.807415 0.289002 0.026254
-0.808531 0.289015 0.009807
-0.809547 0.289029 -0.006484
-0.810866 0.289016 -0.022947
-0.812470 0.288989 -0.039604
-0.817960 0.275180 -0.055818
-0.813150 0.288996 -0.055972
-0.818141 0.275930 -0.071990
-0.813241 0.289021 -0.072158
-0.818717 0.277449 -0.088865
-0.814353 0.289004 -0.088917
-0.819400 0.279280 -0.103118
-0.816953 0.287350 -0.107581
-0.804150 0.299220 0.026283
-0.803873 0.297926 0.037180
-0.804660 0.301275 0.009761
-0.805213 0.303433 -0.006624
-0.805528 0.306684 -0.023114
-0.807162 0.305398 -0.039629
-0.807532 0.305406 -0.056004
-0.807316 0.305437 -0.072282
-0.808306 0.305414 -0.088857
-0.810328 0.305351 -0.105445
-0.817485 0.289673 -0.121881
-0.812307 0.305265 -0.121541
-0.818098 0.291193 -0.137617
-0.813783 0.305202 -0.137616
-0.818554 0.292990 -0.154056
-0.814561 0.305238 -0.154060
-0.819090 0.294764 -0.170536
-0.815391 0.305237 -0.170527
-0.819636 0.295947 -0.183873
-0.817436 0.303303 -0.188321
-0.804099 0.315584 -0.039538
-0.803786 0.314463 -0.028627
-0.804174 0.315750 -0.055903
-0.804018 0.315135 -0.072245
-0.804464 0.315962 -0.088716
-0.805445 0.317911 -0.105174
-0.806130 0.322223 -0.122161
-0.808298 0.321561 -0.137634
-0.808681 0.321602 -0.154045
-0.808977 0.321628 -0.170477
-0.810826 0.321175 -0.186831
-0.817852 0.305310 -0.203210
-0.812794 0.320663 -0.203197
-0.818503 0.307115 -0.219832
-0.814305 0.320711 -0.219722
-0.819375 0.309901 -0.236336
-0.816164 0.320627 -0.236192
-0.819940 0.311593 -0.244967
-0.818548 0.320190 -0.251202
-0.804355 0.331537 -0.137639
-0.803811 0.330518 -0.128040
-0.804419 0.331740 -0.154021
-0.804438 0.331729 -0.170428
-0.805567 0.333252 -0.186803
-0.806787 0.334894 -0.203176
-0.807621 0.336193 -0.219622
-0.808185 0.338843 -0.235458
-0.812693 0.336620 -0.252441
-0.819461 0.325112 -0.262144
-0.817474 0.335527 -0.265606
-0.806409 0.350494 -0.252417
-0.804641 0.347531 -0.240492
-0.812633 0.352943 -0.269103
-0.818834 0.355386 -0.278293
-0.796376 -0.583075 -0.318548
-0.799882 -0.551175 -0.312349
-0.791651 -0.551200 -0.307437
-0.800246 -0.517759 -0.299360
-0.794516 -0.484083 -0.186795
-0.797445 -0.484218 -0.203221
-0.798892 -0.484396 -0.219666
-0.791390 -0.467707 -0.072052
-0.795341 -0.467719 -0.154146
-0.797909 -0.467535 -0.170367
-0.795124 -0.451915 -0.039273
-0.797332 -0.451585 -0.055562
-0.793042 -0.436065 0.075726
-0.793737 -0.436135 0.059307
-0.794385 -0.436228 0.042844
-0.795344 -0.436305 0.026180
-0.794601 -0.419852 0.108579
-0.789818 -0.419874 0.120339
-0.798456 -0.419845 0.092158
-0.798514 -0.402786 0.108565
-0.791458 -0.402881 0.123059
-0.801205 -0.370498 0.128474
-0.789827 -0.354197 0.151688
-0.799347 -0.337279 0.144064
-0.791244 -0.337270 0.153149
-0.801476 -0.304747 0.160048
-0.797449 -0.288363 0.171148
-0.790174 -0.288567 0.183244
-0.803356 -0.288215 0.162238
-0.795386 -0.271532 0.170969
-0.789252 -0.272013 0.184798
-0.802285 -0.271255 0.161235
-0.796533 -0.255004 0.171091
-0.790036 -0.255549 0.186764
-0.802717 -0.254737 0.161639
-0.791536 -0.239049 0.187068
-0.800087 -0.222898 0.170684
-0.791204 -0.222372 0.188146
-0.797703 -0.205347 0.172687
-0.803922 -0.217804 0.163656
-0.803707 -0.205298 0.163769
-0.790262 -0.189185 0.190059
-0.788181 -0.194948 0.197567
-0.799823 -0.172414 0.174527
-0.791667 -0.172532 0.188017
-0.800240 -0.155685 0.172060
-0.791685 -0.140117 0.188820
-0.788502 -0.140341 0.198200
-0.798721 -0.139757 0.173090
-0.803847 -0.149942 0.164333
-0.803714 -0.139640 0.164038
-0.793261 -0.124198 0.189126
-0.788917 -0.124361 0.199648
-0.794407 -0.108027 0.189457
-0.789375 -0.108139 0.201549
-0.801253 -0.107883 0.174562
-0.793059 -0.091428 0.189658
-0.788956 -0.091567 0.200675
-0.800545 -0.092315 0.172055
-0.792057 -0.074928 0.189528
-0.788699 -0.075071 0.199872
-0.798035 -0.074780 0.173513
-0.803430 -0.087466 0.163138
-0.802885 -0.074801 0.161920
-0.792479 -0.058742 0.188980
-0.788950 -0.058836 0.200648
-0.798298 -0.058628 0.173096
-0.802965 -0.058585 0.161687
-0.792333 -0.042393 0.188387
-0.788958 -0.042461 0.200813
-0.797856 -0.042290 0.172524
-0.802676 -0.042196 0.160483
-0.791207 -0.025758 0.187918
-0.788625 -0.025845 0.199387
-0.796079 -0.025598 0.171991
-0.801707 -0.025513 0.158207
-0.789897 -0.007570 0.189549
-0.788297 -0.012036 0.197715
-0.795368 -0.009050 0.171971
-0.801432 -0.008996 0.158060
-0.796264 0.007286 0.172469
-0.790321 0.007288 0.187625
-0.802158 0.007314 0.160002
-0.795620 0.023988 0.173070
-0.789885 0.024019 0.186621
-0.801919 0.023970 0.160188
-0.793470 0.040949 0.173597
-0.788869 0.040966 0.185341
-0.800735 0.040876 0.158806
-0.793519 0.057445 0.173701
-0.788988 0.057585 0.187205
-0.800643 0.057347 0.158626
-0.794895 0.073658 0.173498
-0.801214 0.073573 0.159021
-0.789316 0.090133 0.189553
-0.788301 0.084432 0.201053
-0.794124 0.090353 0.173227
-0.800839 0.090331 0.158030
-0.792862 0.107204 0.172955
-0.788662 0.107160 0.184779
-0.800983 0.106883 0.155223
-0.794904 0.123420 0.172826
-0.804130 0.112178 0.148682
-0.790629 0.138973 0.206358
-0.793200 0.139244 0.189620
-0.797351 0.139487 0.172808
-0.802012 0.139601 0.158448
-0.795489 0.155409 0.239423
-0.790104 0.155406 0.222820
-0.790565 0.155669 0.206067
-0.792499 0.155977 0.189371
-0.796085 0.156188 0.172810
-0.801518 0.155680 0.155615
-0.788488 0.170195 0.222668
-0.788589 0.169972 0.205550
-0.789416 0.173890 0.189710
-0.793086 0.173115 0.172683
-0.798300 0.173015 0.156422
-0.803688 0.160869 0.147349
-0.802771 0.172902 0.145548
-0.790039 0.190464 0.173250
-0.788266 0.185322 0.184539
-0.796013 0.189780 0.156235
-0.801649 0.189732 0.144327
-0.791886 0.207904 0.157476
-0.788895 0.203233 0.168280
-0.800147 0.206508 0.143228
-0.798473 0.222938 0.139601
-0.789835 0.223184 0.153070
-0.792036 0.240039 0.141501
-0.788308 0.234766 0.149765
-0.802671 0.228313 0.131277
-0.800701 0.239717 0.128719
-0.799213 0.256612 0.123809
-0.790443 0.256168 0.138607
-0.794516 0.272572 0.124331
-0.788706 0.272593 0.135714
-0.802962 0.262360 0.115280
-0.801406 0.273502 0.109134
-0.789890 0.287941 0.123819
-0.787558 0.281753 0.132954
-0.796314 0.289017 0.108040
-0.803102 0.279617 0.098617
-0.801205 0.289108 0.092663
-0.790362 0.305721 0.108035
-0.788395 0.300427 0.118175
-0.795286 0.305439 0.091895
-0.802439 0.294409 0.075659
-0.798249 0.305439 0.075649
-0.803139 0.295988 0.059306
-0.800001 0.305441 0.059297
-0.803512 0.296748 0.048194
-0.801666 0.304219 0.042739
-0.797233 0.321290 0.271155
-0.789701 0.319562 0.091877
-0.788231 0.316305 0.102755
-0.791106 0.323328 0.076795
-0.795021 0.321818 0.059203
-0.796771 0.321811 0.042796
-0.801798 0.307442 0.026292
-0.797482 0.321818 0.026303
-0.802338 0.309502 0.009778
-0.798701 0.321821 0.009768
-0.802963 0.311646 -0.006704
-0.800315 0.321812 -0.006834
-0.803392 0.312987 -0.017697
-0.801849 0.320671 -0.023285
-0.789874 0.333607 0.059057
-0.788334 0.331593 0.072104
-0.790883 0.335260 0.042642
-0.791109 0.336226 0.026146
-0.791776 0.337175 0.009588
-0.792740 0.337879 -0.007046
-0.792324 0.339848 -0.022101
-0.801723 0.323788 -0.039628
-0.794167 0.338217 -0.040043
-0.801396 0.323951 -0.055939
-0.800829 0.323317 -0.072268
-0.792599 0.337604 -0.072507
-0.800796 0.324158 -0.088713
-0.792566 0.337758 -0.088986
-0.801457 0.326146 -0.105138
-0.792421 0.339855 -0.104068
-0.802453 0.328121 -0.117256
-0.797967 0.336918 -0.122312
-0.789327 0.348813 0.287502
-0.787844 0.347413 -0.040450
-0.787536 0.346965 -0.026781
-0.789180 0.349280 -0.121828
-0.787791 0.347411 -0.108830
-0.798945 0.339848 -0.137685
-0.790741 0.351379 -0.137718
-0.799250 0.340026 -0.154057
-0.791059 0.351960 -0.154081
-0.799311 0.339989 -0.170464
-0.791132 0.352098 -0.170505
-0.800344 0.341705 -0.186827
-0.792158 0.352875 -0.186845
-0.801640 0.343534 -0.203195
-0.792250 0.355704 -0.204524
-0.802587 0.344757 -0.219615
-0.795247 0.354434 -0.219631
-0.803204 0.345594 -0.229551
-0.799196 0.353656 -0.235446
-0.788079 0.363969 -0.219657
-0.787322 0.362931 -0.210852
-0.790183 0.367183 -0.236182
-0.801604 0.359122 -0.252440
-0.794051 0.371385 -0.251444
-0.803601 0.361776 -0.261097
-0.801935 0.369459 -0.263593
-0.799685 0.385956 -0.270249
-0.790288 0.385333 -0.257233
-0.792995 0.399325 -0.271542
-0.788146 0.393501 -0.260937
-0.804046 0.391872 -0.278896
-0.802173 0.400091 -0.278771
-0.779830 -0.599972 -0.316708
-0.782743 -0.551047 -0.300812
-0.779387 -0.517430 -0.236437
-0.779339 -0.484598 -0.106667
-0.780746 -0.484666 -0.122617
-0.773986 -0.469084 0.288412
-0.774242 -0.468945 0.270940
-0.777719 -0.468926 0.075726
-0.777099 -0.468995 0.059341
-0.776359 -0.469091 0.042885
-0.776798 -0.469174 0.025873
-0.778549 -0.469129 0.008956
-0.781482 -0.468902 -0.007456
-0.779596 -0.452587 0.288531
-0.778602 -0.452501 0.271245
-0.778217 -0.452397 0.108587
-0.773182 -0.452501 0.120761
-0.784020 -0.419914 0.128489
-0.779264 -0.403213 0.140784
-0.772597 -0.403330 0.150751
-0.786113 -0.403068 0.131150
-0.774153 -0.370749 0.169156
-0.785108 -0.354231 0.159699
-0.778141 -0.337479 0.173268
-0.772486 -0.337716 0.183562
-0.785359 -0.337279 0.161193
-0.775170 -0.321338 0.186266
-0.783955 -0.288735 0.192022
-0.777499 -0.272216 0.221576
-0.782928 -0.272369 0.204094
-0.786753 -0.272316 0.193121
-0.781496 -0.255775 0.221832
-0.785664 -0.255910 0.204350
-0.787824 -0.255892 0.195139
-0.784357 -0.239460 0.222283
-0.785560 -0.239392 0.205327
-0.787559 -0.239325 0.195742
-0.782678 -0.222933 0.221668
-0.785417 -0.222721 0.205387
-0.787753 -0.222611 0.196657
-0.779363 -0.206280 0.220750
-0.778160 -0.189650 0.220969
-0.784634 -0.189420 0.203777
-0.777810 -0.173097 0.221659
-0.782668 -0.172752 0.205172
-0.787496 -0.183865 0.196291
-0.787381 -0.172623 0.196149
-0.778872 -0.156662 0.222020
-0.780058 -0.140476 0.222228
-0.785228 -0.140437 0.206726
-0.781736 -0.124483 0.222578
-0.785437 -0.124447 0.208109
-0.783218 -0.108278 0.222850
-0.785924 -0.108221 0.209969
-0.782611 -0.091767 0.222885
-0.785874 -0.091665 0.209094
-0.782744 -0.075321 0.222808
-0.785894 -0.075189 0.208353
-0.786456 -0.058950 0.209243
-0.786812 -0.042563 0.209542
-0.785629 -0.026017 0.222549
-0.786638 -0.025937 0.208267
-0.784944 -0.009482 0.222589
-0.786686 -0.007702 0.204217
-0.785315 0.006880 0.222697
-0.785854 0.007149 0.205217
-0.787991 -0.001023 0.196184
-0.787701 0.007258 0.195767
-0.783904 0.023562 0.222783
-0.784717 0.023869 0.205765
-0.787011 0.023989 0.194776
-0.781125 0.040630 0.222776
-0.783572 0.040826 0.206299
-0.786476 0.040914 0.193486
-0.781874 0.057397 0.222749
-0.784827 0.057581 0.206421
-0.787077 0.057623 0.195354
-0.784193 0.073819 0.222621
-0.780573 0.090390 0.221688
-0.785430 0.090210 0.206237
-0.774957 0.108143 0.222143
-0.782228 0.107053 0.205812
-0.786919 0.095432 0.194946
-0.786272 0.107095 0.193228
-0.787318 0.178562 0.222504
-0.784837 0.188898 0.222139
-0.787116 0.178368 0.205177
-0.783850 0.189309 0.204719
-0.787398 0.180018 0.195361
-0.785901 0.190278 0.189112
-0.780027 0.205627 0.221494
-0.778910 0.206013 0.204143
-0.781247 0.206264 0.187950
-0.787099 0.196382 0.179048
-0.785801 0.207811 0.172979
-0.774644 0.222667 0.220719
-0.774867 0.222849 0.203758
-0.776726 0.222995 0.187832
-0.781255 0.223113 0.172063
-0.787369 0.214389 0.163572
-0.785949 0.223160 0.160909
-0.771493 0.233512 0.220272
-0.772030 0.235872 0.203563
-0.772582 0.240323 0.187578
-0.776684 0.239677 0.172186
-0.784112 0.240028 0.155492
-0.773125 0.255214 0.172516
-0.771170 0.249128 0.182417
-0.780795 0.256141 0.156155
-0.786996 0.245730 0.147347
-0.786389 0.256152 0.146371
-0.775625 0.272361 0.156698
-0.772013 0.266699 0.167546
-0.784128 0.272583 0.143569
-0.778887 0.289007 0.140346
-0.772967 0.285312 0.151603
-0.784766 0.292705 0.128981
-0.782257 0.305724 0.123955
-0.773833 0.305449 0.137436
-0.775320 0.321760 0.124991
-0.771758 0.316252 0.134592
-0.785862 0.311380 0.113561
-0.783802 0.321779 0.108243
-0.775050 0.338338 0.107481
-0.773152 0.332913 0.120000
-0.786101 0.327740 0.091816
-0.779938 0.338218 0.091631
-0.787042 0.329778 0.083003
-0.783537 0.337538 0.076383
-0.772770 0.349792 0.091290
-0.771298 0.347250 0.101391
-0.774491 0.352671 0.074307
-0.783873 0.341846 0.058775
-0.775637 0.353831 0.058267
-0.784969 0.343490 0.042410
-0.775902 0.356149 0.042757
-0.785894 0.344449 0.025884
-0.779249 0.354667 0.025382
-0.786522 0.345403 0.009364
-0.780410 0.354675 0.008984
-0.786913 0.346124 -0.007175
-0.780607 0.354689 -0.007226
-0.787114 0.346430 -0.015650
-0.782487 0.353340 -0.022378
-0.786577 0.345849 -0.072784
-0.780926 0.354683 -0.073205
-0.786693 0.345994 -0.089316
-0.781250 0.354678 -0.089814
-0.787059 0.346417 -0.097939
-0.783468 0.353606 -0.104887
-0.783436 0.357296 0.287501
-0.775185 0.370017 0.287782
-0.773515 0.372236 0.271710
-0.772339 0.365485 0.024996
-0.771344 0.363821 0.037465
-0.772883 0.366331 0.008714
-0.772656 0.365709 -0.007171
-0.773146 0.366147 -0.024008
-0.782350 0.355641 -0.041015
-0.774158 0.367506 -0.041591
-0.774032 0.367556 -0.058124
-0.773198 0.366718 -0.073877
-0.773398 0.367273 -0.090554
-0.774366 0.368988 -0.107308
-0.783723 0.357525 -0.122145
-0.774834 0.372246 -0.122594
-0.784859 0.359632 -0.137747
-0.778021 0.371050 -0.137698
-0.785396 0.360203 -0.154113
-0.779308 0.371028 -0.154070
-0.785624 0.360343 -0.170547
-0.779763 0.371014 -0.170502
-0.786087 0.361169 -0.186866
-0.780515 0.370960 -0.186832
-0.786672 0.362083 -0.199928
-0.782885 0.369340 -0.204514
-0.770876 0.379914 0.266912
-0.772005 0.381926 -0.137627
-0.771152 0.380254 -0.127369
-0.772743 0.383306 -0.153995
-0.772995 0.383582 -0.170416
-0.773312 0.383618 -0.186773
-0.773889 0.383994 -0.203160
-0.783071 0.372032 -0.219778
-0.774754 0.385086 -0.220076
-0.785147 0.375276 -0.236434
-0.776727 0.387985 -0.236407
-0.786935 0.377840 -0.245370
-0.784354 0.386122 -0.249271
-0.778236 0.401534 -0.254285
-0.772582 0.398367 -0.241795
-0.783855 0.404651 -0.266733
-0.779106 0.416862 -0.270478
-0.772723 0.413810 -0.258072
-0.785465 0.420181 -0.279010
-0.768296 -0.600292 -0.312197
-0.760001 -0.600069 -0.306150
-0.760972 -0.534212 -0.186842
-0.763394 -0.534452 -0.203221
-0.761770 -0.517522 -0.122141
-0.764091 -0.517541 -0.137873
-0.768108 -0.452575 0.128946
-0.759967 -0.452688 0.138756
-0.766390 -0.403443 0.158870
-0.760647 -0.387261 0.189015
-0.760541 -0.370965 0.221453
-0.760944 -0.370902 0.205476
-0.765634 -0.370850 0.189337
-0.770062 -0.370805 0.177611
-0.763864 -0.354518 0.220897
-0.763624 -0.354467 0.205254
-0.763927 -0.337995 0.220329
-0.765403 -0.338054 0.204561
-0.769295 -0.337913 0.191125
-0.766223 -0.321582 0.220522
-0.768196 -0.321651 0.204661
-0.770678 -0.321551 0.194168
-0.771258 0.114353 0.227809
-0.770281 0.241770 0.220253
-0.768925 0.255825 0.220433
-0.770431 0.244161 0.203513
-0.768646 0.256006 0.203564
-0.770715 0.246302 0.192467
-0.769748 0.255188 0.187629
-0.766220 0.272300 0.220657
-0.765092 0.272463 0.203815
-0.765979 0.272518 0.188092
-0.770234 0.260067 0.177946
-0.768641 0.272322 0.172849
-0.762093 0.288901 0.220732
-0.760496 0.288954 0.204218
-0.761396 0.288985 0.188507
-0.764077 0.289003 0.172958
-0.769923 0.277677 0.162690
-0.768722 0.290065 0.157048
-0.756299 0.302739 0.204451
-0.756514 0.306147 0.188514
-0.759487 0.305433 0.173173
-0.764590 0.305441 0.156921
-0.770616 0.296251 0.147875
-0.769367 0.305438 0.145615
-0.755527 0.320943 0.172059
-0.754737 0.314860 0.183299
-0.760077 0.321842 0.157153
-0.767196 0.321767 0.140398
-0.756077 0.333991 0.157183
-0.754432 0.330245 0.165930
-0.759688 0.339639 0.142161
-0.769702 0.327164 0.130805
-0.767376 0.338339 0.125127
-0.759395 0.355942 0.125781
-0.756581 0.351302 0.137527
-0.769387 0.343883 0.112418
-0.766566 0.353514 0.107510
-0.758226 0.371907 0.108699
-0.756379 0.366964 0.121267
-0.768442 0.358021 0.091062
-0.762783 0.371080 0.091085
-0.769766 0.360901 0.073829
-0.765189 0.371076 0.073940
-0.770297 0.362053 0.057849
-0.766257 0.371094 0.058077
-0.770555 0.362602 0.048590
-0.767958 0.370015 0.042721
-0.770143 0.378083 0.288071
-0.765630 0.386843 0.288195
-0.770346 0.378522 0.278115
-0.767574 0.386040 0.272259
-0.756856 0.384299 0.091143
-0.755485 0.381969 0.103339
-0.757939 0.385670 0.074161
-0.757843 0.388549 0.057932
-0.760627 0.387478 0.042356
-0.768396 0.373702 0.025246
-0.763382 0.387483 0.025630
-0.768695 0.374555 0.008987
-0.764251 0.387494 0.009335
-0.768328 0.373928 -0.006869
-0.763402 0.387483 -0.006595
-0.768386 0.374349 -0.023813
-0.763358 0.387461 -0.023619
-0.768901 0.375710 -0.041664
-0.764094 0.387447 -0.041618
-0.768862 0.375770 -0.058505
-0.763927 0.387454 -0.058764
-0.768402 0.374940 -0.074453
-0.763245 0.387446 -0.074997
-0.768738 0.375487 -0.091048
-0.763905 0.387447 -0.091389
-0.769659 0.377192 -0.107572
-0.765596 0.387458 -0.107482
-0.770319 0.378493 -0.118051
-0.768052 0.386413 -0.122546
-0.757826 0.402789 0.288245
-0.758775 0.403244 0.271546
-0.755775 0.398292 0.042476
-0.754656 0.396216 0.052483
-0.757105 0.404015 0.024644
-0.757684 0.401483 -0.006717
-0.757606 0.401197 -0.023831
-0.757848 0.402380 -0.041775
-0.757675 0.402629 -0.058772
-0.757365 0.402332 -0.074793
-0.757299 0.404907 -0.090470
-0.759621 0.403816 -0.106435
-0.761502 0.403792 -0.121859
-0.768674 0.390097 -0.137624
-0.763165 0.403745 -0.137628
-0.769058 0.391468 -0.154002
-0.764012 0.403719 -0.154134
-0.769071 0.391751 -0.170419
-0.764248 0.403695 -0.170567
-0.769091 0.391761 -0.186777
-0.764340 0.403564 -0.186815
-0.769279 0.392123 -0.203166
-0.764765 0.403427 -0.203167
-0.769717 0.393269 -0.220326
-0.766061 0.403401 -0.220125
-0.770189 0.394423 -0.230744
-0.768754 0.403748 -0.236478
-0.754715 0.412527 0.018303
-0.755558 0.414759 -0.105359
-0.754874 0.413044 -0.094832
-0.756346 0.416802 -0.121357
-0.756950 0.418144 -0.137655
-0.757395 0.418825 -0.154480
-0.757633 0.419244 -0.170997
-0.757714 0.419594 -0.186937
-0.757454 0.421457 -0.202143
-0.760087 0.419753 -0.219799
-0.763361 0.419530 -0.236634
-0.770010 0.409298 -0.247454
-0.768019 0.419354 -0.252840
-0.755622 0.430565 -0.219703
-0.754714 0.428882 -0.206910
-0.757301 0.433543 -0.236390
-0.760076 0.436554 -0.251430
-0.769919 0.424439 -0.263077
-0.767883 0.434152 -0.266157
-0.763815 0.450732 -0.269890
-0.756922 0.446542 -0.255788
-0.770690 0.455537 -0.278700
-0.747055 -0.648436 -0.316544
-0.751649 -0.599638 -0.299462
-0.745768 -0.550441 -0.105492
-0.748244 -0.550387 -0.121999
-0.748598 -0.550382 -0.138232
-0.747973 -0.550208 -0.154472
-0.742783 -0.534589 0.009807
-0.743545 -0.534671 -0.006922
-0.744448 -0.534713 -0.023462
-0.745550 -0.534692 -0.039755
-0.746525 -0.534620 -0.056016
-0.747522 -0.534483 -0.072299
-0.749689 -0.534305 -0.088910
-0.746676 -0.518329 0.059206
-0.747662 -0.518326 0.042812
-0.749033 -0.518273 0.026349
-0.749685 -0.518263 0.009645
-0.749880 -0.518302 -0.007564
-0.750600 -0.518333 -0.024472
-0.742929 -0.485683 0.137109
-0.752623 -0.452791 0.146793
-0.743122 -0.403853 0.222378
-0.753809 0.310947 0.204520
-0.752291 0.321792 0.204484
-0.754077 0.312105 0.193541
-0.753033 0.320922 0.188713
-0.749256 0.338205 0.204433
-0.749424 0.338228 0.188994
-0.753632 0.325796 0.176538
-0.751557 0.336735 0.172047
-0.745174 0.354661 0.220628
-0.743636 0.354655 0.204612
-0.744596 0.354670 0.188914
-0.746158 0.354686 0.173229
-0.752964 0.342211 0.157025
-0.749047 0.354679 0.156797
-0.754210 0.346043 0.148304
-0.752902 0.355937 0.141832
-0.739051 0.365695 0.204809
-0.739904 0.367810 0.188860
-0.740968 0.372038 0.173528
-0.744680 0.371099 0.156570
-0.748663 0.371100 0.140423
-0.754143 0.362261 0.131768
-0.752753 0.371903 0.125791
-0.740782 0.387496 0.156474
-0.738892 0.387497 0.168696
-0.744219 0.387500 0.140612
-0.749305 0.387501 0.124692
-0.753857 0.377908 0.114393
-0.752893 0.387460 0.108632
-0.738298 0.396615 0.156415
-0.738063 0.396293 0.166205
-0.739955 0.398996 0.140458
-0.742845 0.404533 0.124400
-0.747826 0.403887 0.107907
-0.753391 0.392509 0.091084
-0.749406 0.403873 0.090846
-0.753662 0.393881 0.074208
-0.750241 0.403873 0.074155
-0.753967 0.394731 0.062849
-0.751811 0.402577 0.057950
-0.753915 0.411152 0.288157
-0.749569 0.419875 0.288095
-0.753922 0.411516 0.271186
-0.748452 0.420047 0.271089
-0.741055 0.417349 0.107253
-0.739480 0.414817 0.118605
-0.741401 0.421206 0.089503
-0.743589 0.420276 0.074262
-0.745198 0.420289 0.058449
-0.752423 0.406514 0.042392
-0.747326 0.420293 0.042372
-0.753553 0.409568 0.029442
-0.750985 0.418919 0.024672
-0.753599 0.409681 -0.007017
-0.749703 0.420281 -0.007413
-0.753516 0.409404 -0.024220
-0.749530 0.420252 -0.024541
-0.753996 0.410579 -0.041971
-0.750452 0.420222 -0.041815
-0.754078 0.410821 -0.058587
-0.750699 0.420217 -0.058031
-0.753896 0.410536 -0.074236
-0.750568 0.420225 -0.073462
-0.754063 0.411107 -0.084509
-0.751990 0.419184 -0.089194
-0.742531 0.434777 0.303206
-0.741642 0.434302 0.288132
-0.740490 0.432896 0.271118
-0.738820 0.430086 0.074550
-0.738112 0.428841 0.083339
-0.739859 0.431834 0.058645
-0.741028 0.433540 0.042482
-0.742520 0.435417 0.026039
-0.742958 0.435910 0.009401
-0.742349 0.435184 -0.007474
-0.742284 0.435170 -0.024247
-0.742743 0.435907 -0.040728
-0.742353 0.438094 -0.055703
-0.744299 0.436513 -0.072417
-0.745367 0.436415 -0.088484
-0.752505 0.422928 -0.105053
-0.746560 0.436338 -0.104818
-0.753140 0.424993 -0.121256
-0.747578 0.436317 -0.121232
-0.753544 0.426369 -0.137703
-0.748395 0.436319 -0.137793
-0.753762 0.427060 -0.154763
-0.748707 0.436332 -0.154953
-0.753951 0.427481 -0.171335
-0.749015 0.436325 -0.171581
-0.754180 0.427848 -0.187049
-0.749978 0.436197 -0.187188
-0.754308 0.428048 -0.195971
-0.751617 0.434930 -0.202160
-0.739507 0.446903 -0.072022
-0.738805 0.445824 -0.059818
-0.740024 0.447506 -0.088364
-0.740359 0.447876 -0.104800
-0.740705 0.448424 -0.121317
-0.741064 0.448668 -0.138057
-0.741137 0.448611 -0.155312
-0.741251 0.448976 -0.171965
-0.741990 0.450583 -0.187440
-0.742025 0.453771 -0.203178
-0.751721 0.438550 -0.219734
-0.744301 0.452313 -0.219746
-0.753266 0.441580 -0.236400
-0.747163 0.451970 -0.236347
-0.754400 0.443217 -0.244896
-0.752012 0.451782 -0.251305
-0.738765 0.461987 -0.219727
-0.738317 0.461271 -0.208587
-0.740160 0.463410 -0.236252
-0.742684 0.467955 -0.253762
-0.753885 0.456721 -0.262149
-0.751124 0.467755 -0.268523
-0.739022 0.477086 -0.259946
-0.754376 0.473497 -0.278143
-0.746816 0.498609 -0.274474
-0.730687 -0.665669 -0.316017
-0.730157 -0.582300 -0.219845
-0.731355 -0.566031 0.287309
-0.734283 -0.550668 0.287867
-0.729289 -0.550874 0.271072
-0.731212 -0.550927 0.042723
-0.736143 -0.534535 0.288246
-0.733415 -0.534670 0.271347
-0.733610 -0.534590 0.092047
-0.735006 -0.485741 0.144883
-0.727692 -0.469385 0.170648
-0.723775 -0.469393 0.181425
-0.735694 0.373906 0.204717
-0.729834 0.387478 0.204533
-0.736473 0.376020 0.188659
-0.733105 0.387480 0.188406
-0.737415 0.378138 0.179085
-0.737011 0.387470 0.176679
-0.726218 0.400302 0.220409
-0.723798 0.399212 0.204421
-0.726302 0.401375 0.188191
-0.729299 0.403986 0.170270
-0.731209 0.404838 0.155960
-0.722982 0.413797 0.155503
-0.721410 0.412096 0.163586
-0.734324 0.407219 0.139917
-0.726095 0.417707 0.139349
-0.736531 0.410434 0.129491
-0.730575 0.421535 0.124462
-0.735455 0.425583 0.106811
-0.727234 0.435175 0.106929
-0.724631 0.431983 0.119760
-0.736963 0.427319 0.094159
-0.730260 0.436852 0.091287
-0.736568 0.442945 0.303231
-0.728320 0.450863 0.303312
-0.735991 0.442564 0.288200
-0.727731 0.451484 0.288269
-0.735231 0.441146 0.271177
-0.726993 0.451950 0.271102
-0.733360 0.438324 0.074895
-0.725163 0.449760 0.075230
-0.723596 0.447773 0.088503
-0.734245 0.440067 0.058854
-0.726028 0.450502 0.059006
-0.735324 0.441756 0.042585
-0.727082 0.451402 0.042634
-0.736807 0.443627 0.026164
-0.727299 0.454351 0.025243
-0.737276 0.444121 0.009593
-0.736747 0.443403 -0.007203
-0.728495 0.452849 -0.007124
-0.736830 0.443400 -0.023704
-0.727569 0.454562 -0.023102
-0.737498 0.444139 -0.039824
-0.730820 0.453061 -0.039633
-0.737923 0.444614 -0.049122
-0.733538 0.452008 -0.054936
-0.721764 0.461612 0.019110
-0.723204 0.462996 -0.039540
-0.722259 0.461945 -0.028115
-0.724322 0.463991 -0.055684
-0.733445 0.455143 -0.071969
-0.725209 0.464643 -0.071929
-0.733915 0.455771 -0.088352
-0.725673 0.465619 -0.088386
-0.734291 0.456170 -0.104828
-0.726052 0.466707 -0.105072
-0.734746 0.456722 -0.121419
-0.726507 0.467122 -0.121842
-0.734855 0.456978 -0.138292
-0.726619 0.466935 -0.138718
-0.734734 0.456928 -0.155625
-0.726505 0.466960 -0.156002
-0.735048 0.457306 -0.172269
-0.726820 0.467943 -0.172561
-0.736471 0.458964 -0.187617
-0.727634 0.470682 -0.186765
-0.737664 0.460358 -0.197688
-0.733086 0.467760 -0.203199
-0.723880 0.480649 -0.203232
-0.722764 0.479176 -0.190983
-0.733183 0.470335 -0.219711
-0.724948 0.482077 -0.219698
-0.734403 0.471925 -0.236233
-0.726167 0.483457 -0.236251
-0.736189 0.474217 -0.248912
-0.729978 0.484866 -0.253071
-0.734850 0.487299 -0.265804
-0.729751 0.499666 -0.267717
-0.723795 0.495766 -0.257274
-0.730419 0.514924 -0.271584
-0.730524 0.531249 -0.272255
-0.713009 -0.726280 0.252797
-0.713264 -0.711447 -0.009224
-0.713284 -0.711255 -0.025433
-0.713367 -0.711502 -0.074664
-0.717899 -0.666129 -0.312279
-0.709540 -0.666133 -0.307137
-0.714147 -0.599545 0.270359
-0.713044 -0.599504 -0.105330
-0.715155 -0.599270 -0.121663
-0.715761 -0.599085 -0.137994
-0.713825 -0.598914 -0.154391
-0.712077 -0.598910 -0.170671
-0.713738 -0.599157 -0.186872
-0.715840 -0.583016 -0.039285
-0.716886 -0.582985 -0.055722
-0.714306 -0.566927 0.075632
-0.710352 -0.518600 0.170943
-0.711589 -0.518542 0.155742
-0.711242 -0.502262 0.187865
-0.706359 -0.502267 0.200583
-0.716509 -0.502223 0.170810
-0.711744 -0.469340 0.221036
-0.713130 -0.469413 0.204907
-0.718661 -0.469433 0.190334
-0.716288 -0.452968 0.221011
-0.717665 0.408517 0.220074
-0.709524 0.417793 0.219858
-0.717614 0.407430 0.204154
-0.709459 0.418096 0.203876
-0.719791 0.409591 0.187991
-0.710464 0.421680 0.187306
-0.721041 0.411678 0.174426
-0.715396 0.418672 0.169868
-0.705965 0.429572 0.171117
-0.705298 0.428789 0.181367
-0.715977 0.422014 0.155164
-0.707757 0.432171 0.154977
-0.719178 0.425926 0.138943
-0.710125 0.437334 0.138421
-0.721234 0.428244 0.130388
-0.717350 0.437175 0.124455
-0.707793 0.452198 0.122564
-0.705632 0.446097 0.132988
-0.720170 0.443403 0.107256
-0.714010 0.453124 0.107661
-0.721469 0.444847 0.099188
-0.718872 0.453190 0.092962
-0.719568 0.459174 0.303372
-0.711276 0.468732 0.303445
-0.719830 0.459750 0.288322
-0.710835 0.470696 0.289289
-0.720560 0.460191 0.271028
-0.714384 0.469442 0.270740
-0.707130 0.464472 0.108054
-0.705295 0.461710 0.116802
-0.709583 0.470144 0.091448
-0.719591 0.457964 0.075291
-0.712767 0.469484 0.075064
-0.719671 0.458706 0.059030
-0.712459 0.469514 0.058837
-0.720146 0.459597 0.042623
-0.713322 0.469529 0.042507
-0.720941 0.460628 0.030123
-0.717110 0.468065 0.025143
-0.721346 0.461041 -0.007095
-0.715713 0.469528 -0.007235
-0.721357 0.461009 -0.017388
-0.717257 0.468274 -0.023244
-0.706927 0.482262 0.270442
-0.705898 0.480209 0.284095
-0.706534 0.479899 0.074690
-0.706046 0.479075 0.085543
-0.706090 0.479288 0.058565
-0.706448 0.479689 0.042360
-0.708226 0.482103 0.025949
-0.708716 0.482735 0.009415
-0.707742 0.481406 -0.007332
-0.708167 0.481974 -0.023944
-0.717901 0.471225 -0.039824
-0.709707 0.484181 -0.040280
-0.718206 0.472257 -0.055812
-0.710004 0.484455 -0.056111
-0.718099 0.472957 -0.071926
-0.709885 0.483981 -0.071975
-0.718877 0.473956 -0.088459
-0.710664 0.484992 -0.088646
-0.719870 0.475072 -0.105401
-0.710793 0.487478 -0.104275
-0.720125 0.475523 -0.122350
-0.712724 0.485859 -0.122638
-0.719896 0.475341 -0.139215
-0.712376 0.485850 -0.139104
-0.719974 0.475334 -0.156423
-0.712855 0.485824 -0.156288
-0.720717 0.476298 -0.172832
-0.714561 0.485800 -0.172686
-0.721388 0.477279 -0.181305
-0.717659 0.485108 -0.186703
-0.706115 0.495322 -0.122816
-0.705992 0.495064 -0.109313
-0.705960 0.495139 -0.138854
-0.706347 0.495743 -0.155951
-0.707293 0.497168 -0.172285
-0.708654 0.498765 -0.187371
-0.718022 0.488843 -0.203210
-0.709828 0.500145 -0.203174
-0.719109 0.490281 -0.219706
-0.710262 0.502914 -0.219108
-0.720313 0.491694 -0.236303
-0.714187 0.501388 -0.236483
-0.721164 0.492701 -0.246152
-0.718643 0.500893 -0.252367
-0.707299 0.512216 -0.236757
-0.706004 0.510824 -0.224364
-0.709377 0.516131 -0.254607
-0.720791 0.505234 -0.262800
-0.717349 0.515215 -0.265462
-0.712464 0.530133 -0.269673
-0.705875 0.524035 -0.260916
-0.713969 0.547687 -0.274922
-0.696906 -0.727871 0.073511
-0.696815 -0.727943 0.056781
-0.696809 -0.727206 -0.140161
-0.697706 -0.697967 -0.318679
-0.697289 -0.599992 0.026198
-0.699633 -0.599998 0.009790
-0.700752 -0.600115 -0.006502
-0.699674 -0.518679 0.220758
-0.703998 -0.502254 0.221073
-0.704712 -0.502267 0.208878
-0.704253 0.426015 0.219813
-0.699765 0.436718 0.220268
-0.704427 0.426304 0.203779
-0.699275 0.436719 0.204425
-0.704907 0.428079 0.192403
-0.701165 0.435259 0.187499
-0.691713 0.451171 0.205248
-0.692143 0.451259 0.188513
-0.701496 0.437810 0.171244
-0.692974 0.454368 0.172220
-0.703023 0.440397 0.155113
-0.697438 0.453135 0.155435
-0.704167 0.443224 0.143415
-0.702017 0.452204 0.139008
-0.691254 0.466405 0.155805
-0.689610 0.463232 0.167228
-0.693930 0.470807 0.141606
-0.703829 0.457053 0.127341
-0.701136 0.468142 0.123177
-0.704667 0.477147 0.303463
-0.700649 0.485820 0.303471
-0.704478 0.477059 0.295788
-0.702240 0.485772 0.289243
-0.692346 0.486381 0.123704
-0.690723 0.481197 0.137377
-0.703283 0.472693 0.108191
-0.697043 0.485924 0.108307
-0.704548 0.476061 0.097021
-0.701721 0.485078 0.091169
-0.692066 0.503122 0.302861
-0.695200 0.502171 0.288328
-0.702832 0.490480 0.270419
-0.697808 0.502176 0.270633
-0.690766 0.496884 0.108241
-0.689207 0.494716 0.117617
-0.693195 0.499389 0.090902
-0.702418 0.488097 0.074317
-0.694296 0.500234 0.073925
-0.702152 0.487510 0.058312
-0.694054 0.500603 0.058102
-0.702275 0.487908 0.042243
-0.694193 0.501495 0.042259
-0.703310 0.490312 0.025893
-0.694742 0.503834 0.027586
-0.703672 0.490950 0.009426
-0.697422 0.502141 0.009640
-0.703315 0.489618 -0.007238
-0.696509 0.502054 -0.006884
-0.703576 0.490164 -0.023947
-0.696929 0.501947 -0.023652
-0.704467 0.492353 -0.040549
-0.698910 0.501831 -0.040589
-0.704573 0.492623 -0.056344
-0.699450 0.501819 -0.056709
-0.704304 0.492163 -0.072018
-0.699162 0.501870 -0.072452
-0.704861 0.493179 -0.088835
-0.700152 0.501913 -0.089096
-0.705317 0.494031 -0.097612
-0.702032 0.501011 -0.104516
-0.690092 0.511875 0.288416
-0.688810 0.510468 0.298158
-0.691737 0.513381 0.270838
-0.690837 0.512588 0.009831
-0.690268 0.511908 0.023285
-0.690313 0.511851 -0.006585
-0.690517 0.511953 -0.023319
-0.691658 0.513189 -0.040458
-0.692114 0.513653 -0.057047
-0.692104 0.513697 -0.073146
-0.692544 0.514228 -0.089698
-0.693118 0.515061 -0.106298
-0.701480 0.503342 -0.122477
-0.693353 0.515855 -0.122307
-0.701546 0.503204 -0.138498
-0.693403 0.516509 -0.138245
-0.701788 0.503851 -0.155431
-0.693634 0.517406 -0.154795
-0.702484 0.505292 -0.171719
-0.693510 0.519911 -0.170487
-0.703319 0.506783 -0.187120
-0.696166 0.518125 -0.186938
-0.704122 0.508063 -0.203161
-0.697622 0.517817 -0.203170
-0.704754 0.509036 -0.213051
-0.700526 0.516816 -0.219218
-0.689914 0.527885 -0.186842
-0.689398 0.527298 -0.175222
-0.690507 0.528407 -0.203163
-0.691511 0.529349 -0.219943
-0.701448 0.520294 -0.236933
-0.693279 0.530895 -0.236989
-0.703461 0.521977 -0.250133
-0.697061 0.532472 -0.254326
-0.701649 0.535215 -0.266612
-0.696713 0.548036 -0.269576
-0.690684 0.543378 -0.258421
-0.697501 0.564157 -0.274029
-0.681462 -0.714469 -0.317720
-0.679074 -0.600159 0.238644
-0.683673 -0.600109 0.108487
-0.679022 -0.567668 0.222282
-0.680915 -0.551507 0.205826
-0.687897 0.459377 0.205461
-0.683642 0.469546 0.205223
-0.687976 0.459463 0.188626
-0.684232 0.469545 0.188553
-0.688440 0.460660 0.178282
-0.686645 0.469034 0.172376
-0.679715 0.485963 0.220598
-0.677403 0.485966 0.204996
-0.678356 0.485966 0.188699
-0.681155 0.485964 0.172174
-0.687737 0.474607 0.156025
-0.684190 0.485952 0.156403
-0.688535 0.477123 0.147882
-0.687066 0.486378 0.141963
-0.679411 0.502338 0.236548
-0.673481 0.498394 0.205222
-0.673782 0.502339 0.188499
-0.675779 0.502342 0.173060
-0.677848 0.503740 0.141478
-0.688031 0.492153 0.128475
-0.684386 0.501001 0.123680
-0.688254 0.509008 0.306762
-0.682701 0.516829 0.302865
-0.674274 0.513990 0.236648
-0.672804 0.511173 0.173574
-0.672631 0.510942 0.182894
-0.675683 0.514437 0.124354
-0.673232 0.511430 0.136314
-0.686410 0.504997 0.108053
-0.678187 0.517296 0.107574
-0.687064 0.507500 0.090614
-0.678842 0.517498 0.090410
-0.687378 0.508335 0.073684
-0.679167 0.517904 0.073714
-0.687649 0.508711 0.058021
-0.678814 0.520142 0.059345
-0.688353 0.509608 0.042318
-0.682696 0.518495 0.042242
-0.688901 0.510336 0.034144
-0.685401 0.517791 0.027662
-0.673473 0.528140 0.303454
-0.682289 0.520136 0.288361
-0.674127 0.529028 0.288240
-0.682024 0.521675 0.270894
-0.673865 0.528248 0.270896
-0.675107 0.529642 0.042145
-0.673793 0.528217 0.054994
-0.676390 0.530869 0.026077
-0.685335 0.520701 0.009851
-0.677157 0.531603 0.009844
-0.685589 0.519901 -0.006534
-0.677399 0.532115 -0.006495
-0.685824 0.520019 -0.023172
-0.677620 0.532169 -0.022994
-0.686135 0.521382 -0.040182
-0.677915 0.532054 -0.039768
-0.686344 0.521861 -0.057036
-0.678124 0.532548 -0.056816
-0.686494 0.521835 -0.073610
-0.678280 0.533250 -0.074033
-0.686695 0.522340 -0.090158
-0.678484 0.533932 -0.090907
-0.686960 0.523200 -0.106477
-0.677776 0.536166 -0.106589
-0.687314 0.524058 -0.122374
-0.680239 0.534742 -0.122986
-0.687653 0.524777 -0.138265
-0.681348 0.534898 -0.138640
-0.688239 0.525669 -0.154552
-0.682529 0.534961 -0.154566
-0.688793 0.526435 -0.164570
-0.684840 0.533679 -0.170172
-0.673833 0.544622 -0.123716
-0.673110 0.543516 -0.111943
-0.674517 0.545772 -0.139250
-0.675091 0.546634 -0.154713
-0.675776 0.547588 -0.170567
-0.684390 0.536193 -0.186819
-0.676225 0.548278 -0.186813
-0.684702 0.536778 -0.203178
-0.676558 0.548431 -0.203210
-0.685335 0.537769 -0.220013
-0.677207 0.548446 -0.220063
-0.686706 0.539439 -0.237091
-0.678579 0.549373 -0.237057
-0.688082 0.540819 -0.247716
-0.681862 0.550925 -0.252074
-0.686552 0.553722 -0.264690
-0.681147 0.565277 -0.267440
-0.675681 0.561295 -0.256350
-0.681184 0.580570 -0.273050
-0.681260 0.596873 -0.271903
-0.664123 -0.762000 0.122350
-0.664165 -0.760621 0.106113
-0.665028 -0.731148 -0.316251
-0.664694 -0.664976 -0.122098
-0.665047 -0.665116 -0.203326
-0.665250 -0.649025 -0.039466
-0.666172 -0.648990 -0.055971
-0.665790 -0.648972 -0.072465
-0.663995 -0.600367 0.206479
-0.662678 -0.600387 0.190041
-0.664204 -0.600324 0.173606
-0.665038 -0.600220 0.157432
-0.667944 -0.584026 0.190063
-0.668361 -0.583930 0.173631
-0.669529 0.506630 0.205425
-0.661305 0.516823 0.205572
-0.670804 0.507841 0.193619
-0.664135 0.518599 0.189903
-0.672092 0.510159 0.147302
-0.667985 0.517618 0.141177
-0.667168 0.519385 0.173650
-0.658942 0.530024 0.173654
-0.657499 0.528509 0.186106
-0.658980 0.530231 0.156867
-0.658918 0.530477 0.139977
-0.669326 0.522686 0.123921
-0.661093 0.532864 0.123139
-0.671301 0.525575 0.107131
-0.661716 0.536490 0.105227
-0.671543 0.525806 0.090211
-0.663810 0.535075 0.089858
-0.671944 0.526210 0.073767
-0.665031 0.535077 0.073672
-0.672471 0.526739 0.065468
-0.667855 0.534302 0.059225
-0.665884 0.536490 0.303406
-0.657609 0.545845 0.303436
-0.666564 0.537316 0.287920
-0.658305 0.547193 0.287725
-0.666438 0.536492 0.270275
-0.658206 0.547033 0.269716
-0.656597 0.544173 0.089544
-0.656164 0.543442 0.098502
-0.657450 0.545435 0.073641
-0.658581 0.546809 0.057789
-0.668054 0.537990 0.041964
-0.659874 0.548244 0.041733
-0.669188 0.539223 0.025928
-0.660993 0.549306 0.025435
-0.669892 0.540017 0.009773
-0.661689 0.549979 0.009291
-0.670381 0.540664 -0.006501
-0.662174 0.550562 -0.006716
-0.670492 0.540784 -0.022901
-0.662289 0.550771 -0.022969
-0.670519 0.540646 -0.039476
-0.662329 0.550851 -0.039456
-0.670983 0.541138 -0.056607
-0.662797 0.550957 -0.056644
-0.671564 0.541845 -0.074268
-0.663365 0.550871 -0.074448
-0.672190 0.542466 -0.091326
-0.663975 0.551000 -0.091617
-0.672571 0.542841 -0.101000
-0.664823 0.551433 -0.106009
-0.666196 0.552832 -0.123928
-0.658056 0.561835 -0.124230
-0.657140 0.560496 -0.110777
-0.667004 0.554013 -0.139510
-0.658853 0.562900 -0.139815
-0.668101 0.554857 -0.154862
-0.659925 0.563856 -0.155049
-0.669353 0.555808 -0.170579
-0.661163 0.565239 -0.170644
-0.670171 0.556529 -0.186818
-0.661997 0.566528 -0.186820
-0.670468 0.556722 -0.203240
-0.661224 0.568658 -0.202351
-0.670623 0.556738 -0.220114
-0.662809 0.566981 -0.220215
-0.671678 0.557689 -0.237058
-0.664833 0.566681 -0.237183
-0.672613 0.558544 -0.245638
-0.669474 0.566481 -0.251957
-0.656597 0.575396 -0.220279
-0.656469 0.575265 -0.207240
-0.657647 0.576469 -0.237286
-0.660528 0.578750 -0.253351
-0.671397 0.571187 -0.263150
-0.665432 0.582134 -0.266039
-0.647533 -0.776400 0.171053
-0.647578 -0.774563 0.154775
-0.647997 -0.762006 -0.304009
-0.648332 -0.757684 -0.313685
-0.648450 -0.746967 -0.316784
-0.647420 -0.665999 -0.006667
-0.649728 -0.649548 0.075489
-0.649251 -0.649573 0.059103
-0.654824 0.525505 0.220742
-0.654587 0.525020 0.205710
-0.645366 0.536401 0.206019
-0.655484 0.526230 0.196926
-0.650819 0.534486 0.190962
-0.641669 0.546358 0.190091
-0.640097 0.544207 0.201069
-0.651827 0.538297 0.173563
-0.643600 0.549011 0.173327
-0.652393 0.538514 0.156484
-0.644176 0.550292 0.156025
-0.652773 0.538754 0.139298
-0.643819 0.552805 0.138623
-0.654429 0.541122 0.122331
-0.647685 0.551520 0.122095
-0.655747 0.542923 0.109426
-0.651634 0.549949 0.104708
-0.652550 0.554004 0.303480
-0.646131 0.567060 0.303521
-0.653526 0.555349 0.287750
-0.648602 0.567291 0.287888
-0.653811 0.555188 0.269651
-0.649780 0.567310 0.269736
-0.641172 0.561891 0.122240
-0.640048 0.560293 0.132864
-0.642656 0.564186 0.106249
-0.651800 0.552348 0.089717
-0.643703 0.566378 0.090217
-0.652413 0.553624 0.073797
-0.644307 0.567200 0.074168
-0.652886 0.555005 0.057888
-0.644731 0.566569 0.058162
-0.653761 0.556415 0.041630
-0.645571 0.566938 0.041604
-0.654644 0.557445 0.024962
-0.645751 0.569239 0.025611
-0.655229 0.558106 0.008786
-0.648907 0.567497 0.007990
-0.655719 0.558675 -0.006933
-0.650202 0.567328 -0.007479
-0.655905 0.558879 -0.023045
-0.650769 0.567254 -0.023324
-0.655989 0.558982 -0.039489
-0.651111 0.567247 -0.039636
-0.656073 0.559104 -0.056690
-0.651178 0.567255 -0.056720
-0.655984 0.559029 -0.074571
-0.650664 0.567295 -0.074476
-0.656116 0.559164 -0.091729
-0.651275 0.567241 -0.091629
-0.656267 0.559313 -0.099842
-0.652966 0.566349 -0.106481
-0.641284 0.576830 0.303562
-0.642697 0.579514 0.288088
-0.643651 0.581405 0.269910
-0.641872 0.577724 0.007380
-0.640990 0.577007 0.020277
-0.642677 0.577904 -0.007938
-0.643059 0.578278 -0.023627
-0.643335 0.579292 -0.039974
-0.643307 0.579199 -0.056968
-0.642831 0.578397 -0.074465
-0.643272 0.579228 -0.091549
-0.643965 0.580482 -0.108161
-0.652512 0.569748 -0.124309
-0.644327 0.580870 -0.124451
-0.652646 0.570855 -0.140045
-0.644461 0.580833 -0.140194
-0.653053 0.571874 -0.155292
-0.644846 0.581602 -0.155357
-0.654263 0.573271 -0.170734
-0.644866 0.584942 -0.171943
-0.655564 0.574478 -0.186820
-0.648176 0.583613 -0.186821
-0.656146 0.574995 -0.196222
-0.651241 0.581780 -0.202330
-0.640679 0.592919 -0.186804
-0.639986 0.592306 -0.178012
-0.641856 0.594128 -0.203188
-0.651014 0.583529 -0.220330
-0.642787 0.595703 -0.220410
-0.652091 0.584616 -0.237407
-0.643836 0.596834 -0.237575
-0.653923 0.587038 -0.253388
-0.645657 0.597123 -0.253465
-0.655534 0.588667 -0.262139
-0.650387 0.600122 -0.267657
-0.656241 0.605016 -0.277513
-0.648377 0.629729 -0.272656
-0.631081 -0.794336 0.220043
-0.631152 -0.793577 0.203733
-0.631297 -0.778380 -0.107423
-0.631220 -0.777746 -0.187735
-0.631171 -0.777371 -0.203924
-0.631169 -0.776427 -0.221124
-0.631175 -0.776072 -0.238256
-0.631179 -0.776517 -0.254611
-0.631235 -0.776575 -0.271386
