-0.418573 0.386199 -0.250818
-0.418839 0.384334 -0.630854
-0.418570 0.402918 -0.249785
-0.418810 0.401253 -0.632451
-0.418570 0.419996 -0.250011
-0.418824 0.418471 -0.635302
-0.418553 0.436329 -0.247940
-0.418354 0.461283 -0.571378
-0.418390 0.485819 -0.247181
-0.418433 0.463864 -0.580466
-0.418276 0.502159 -0.247690
-0.418196 0.518395 -0.249575
-0.417393 0.515887 -0.436824
-0.418175 0.510434 -0.571374
-0.419082 0.536059 -0.256415
-0.411656 0.527006 -0.453060
-0.411630 0.526749 -0.442232
-0.416962 0.518112 -0.581529
-0.421727 0.521649 -0.597041
-0.413447 0.526780 -0.597086
-0.410646 0.525444 -0.587681
-0.425114 0.523659 -0.607501
-0.419197 0.528982 -0.613657
-0.425234 0.542298 -0.264492
-0.419178 0.545575 -0.269489
-0.414157 0.544590 -0.259616
-0.423048 0.541049 -0.301884
-0.414802 0.545461 -0.301913
-0.423577 0.541312 -0.319254
-0.415346 0.546365 -0.319354
-0.421978 0.540043 -0.335891
-0.413752 0.545728 -0.335936
-0.418309 0.534855 -0.367438
-0.416824 0.537133 -0.384987
-0.410278 0.543128 -0.391287
-0.418541 0.533805 -0.631268
-0.418229 0.539024 -0.648567
-0.423551 0.541310 -0.659769
-0.418177 0.545785 -0.665766
-0.412573 0.543270 -0.654448
-0.418355 0.553957 -0.678225
-0.418441 0.563706 -0.685053
-0.418578 0.570853 -0.689451
-0.418639 0.580651 -0.694862
-0.418667 0.594687 -0.701373
-0.418713 0.602644 -0.704350
-0.401841 -0.589209 -0.705625
-0.401883 -0.581348 -0.714286
-0.401939 -0.573268 -0.720849
-0.401615 -0.559810 0.566734
-0.401464 -0.562521 0.549288
-0.401427 -0.564318 0.531961
-0.401487 -0.564722 0.515521
-0.401610 -0.562815 0.500883
-0.401689 -0.560125 0.485869
-0.400608 -0.557987 0.468169
-0.402756 -0.557925 0.451094
-0.394440 -0.555493 0.451123
-0.394339 -0.555518 0.461752
-0.400520 -0.557301 0.418908
-0.406219 -0.556481 0.402072
-0.397926 -0.554509 0.402120
-0.394254 -0.555692 0.412887
-0.408865 -0.556128 0.384266
-0.400555 -0.553705 0.384146
-0.406860 -0.556485 0.367492
-0.398592 -0.554554 0.367563
-0.405270 -0.556884 0.351046
-0.397009 -0.554983 0.351120
-0.405445 -0.557081 0.334841
-0.397141 -0.554605 0.334671
-0.404587 -0.557277 0.319536
-0.396276 -0.554850 0.319444
-0.402561 -0.557447 0.304615
-0.394315 -0.555617 0.304795
-0.402941 -0.557348 0.287968
-0.394685 -0.555521 0.288126
-0.405047 -0.557057 0.270189
-0.396735 -0.554886 0.270075
-0.406719 -0.556700 0.254330
-0.398417 -0.554401 0.254144
-0.408299 -0.556318 0.243509
-0.402363 -0.554111 0.238646
-0.407647 -0.556588 0.205791
-0.399334 -0.553838 0.205410
-0.406555 -0.556800 0.189732
-0.398273 -0.554366 0.189657
-0.405852 -0.556903 0.173844
-0.397612 -0.554724 0.174043
-0.406709 -0.556697 0.156865
-0.398427 -0.554349 0.156860
-0.407269 -0.556600 0.139802
-0.398941 -0.554047 0.139519
-0.405845 -0.556873 0.123786
-0.397555 -0.554625 0.123693
-0.404586 -0.557191 0.107653
-0.396319 -0.555076 0.107742
-0.405044 -0.557168 0.090372
-0.396742 -0.554823 0.090105
-0.404804 -0.557172 0.073903
-0.396480 -0.554893 0.073641
-0.400093 -0.557173 0.041537
-0.403848 -0.556988 0.024666
-0.395530 -0.555266 0.024624
-0.393531 -0.555809 0.035426
-0.406066 -0.556639 0.007602
-0.397737 -0.554763 0.007356
-0.407546 -0.556300 -0.008036
-0.399291 -0.554737 -0.007891
-0.408637 -0.556089 -0.024915
-0.400390 -0.554504 -0.024752
-0.408902 -0.556066 -0.042422
-0.400603 -0.554250 -0.042511
-0.407890 -0.556204 -0.058150
-0.399599 -0.554586 -0.057934
-0.405825 -0.556403 -0.073049
-0.397591 -0.555220 -0.072607
-0.407448 -0.556148 -0.090002
-0.399194 -0.555047 -0.089753
-0.409802 -0.555892 -0.099973
-0.403227 -0.554614 -0.106496
-0.409059 -0.556066 -0.136697
-0.402786 -0.554414 -0.140696
-0.401969 -0.565177 -0.482793
-0.402021 -0.566663 -0.498566
-0.401972 -0.564785 -0.515603
-0.401838 -0.563954 -0.533765
-0.401879 -0.562193 -0.549952
-0.401887 -0.559713 -0.564225
-0.401814 -0.557545 -0.580376
-0.400598 -0.556347 -0.598384
-0.406183 -0.556153 -0.614573
-0.397922 -0.555311 -0.614621
-0.394224 -0.555811 -0.604915
-0.409847 -0.555903 -0.623534
-0.403366 -0.554408 -0.629773
-0.401595 -0.557827 -0.666670
-0.401661 -0.552893 -0.156023
-0.401712 -0.551767 -0.173214
-0.401716 -0.552369 -0.189658
-0.401690 -0.552313 -0.206272
-0.401667 -0.550323 -0.223259
-0.401676 -0.547294 -0.239743
-0.402098 -0.542194 -0.255033
-0.406653 -0.540147 -0.269435
-0.398343 -0.538917 -0.269375
-0.396814 -0.539161 -0.259905
-0.400643 -0.540570 -0.303737
-0.404252 -0.540613 -0.320986
-0.396034 -0.539088 -0.321041
-0.394473 -0.539360 -0.308790
-0.401845 -0.542081 -0.352727
-0.401885 -0.540894 -0.363994
-0.401932 -0.537803 -0.371575
-0.401974 -0.533943 -0.383769
-0.402047 -0.533458 -0.400338
-0.402054 -0.536523 -0.418070
-0.402238 -0.517973 -0.682737
-0.402249 -0.485689 -0.645730
-0.402339 -0.469185 -0.643740
-0.402404 -0.452605 -0.645201
-0.402332 -0.436029 -0.643844
-0.401994 -0.418435 -0.259290
-0.402281 -0.419260 -0.643452
-0.402313 -0.402162 -0.645810
-0.402308 -0.385624 -0.648117
-0.402225 -0.369863 -0.649331
-0.402221 -0.353398 -0.650936
-0.402195 -0.304229 -0.656348
-0.402197 -0.287534 -0.657624
-0.402242 -0.270010 -0.658160
-0.401764 -0.236722 -0.253034
-0.401727 -0.219957 -0.252574
-0.401194 -0.218918 -0.420206
-0.400660 -0.221637 -0.627794
-0.394155 -0.228220 -0.622175
-0.401651 -0.203230 -0.254730
-0.395043 -0.211362 -0.425624
-0.402108 -0.208933 -0.636209
-0.401569 -0.187011 -0.256514
-0.402056 -0.200670 -0.644170
-0.402001 -0.193439 -0.653324
-0.401550 -0.170753 -0.253881
-0.401222 -0.184599 -0.666965
-0.406330 -0.179805 -0.676088
-0.401351 -0.174573 -0.681543
-0.395245 -0.178204 -0.673980
-0.401918 -0.166092 -0.693196
-0.401909 -0.157519 -0.700460
-0.401929 -0.149243 -0.705065
-0.401942 -0.138322 -0.707976
-0.401637 -0.106199 0.529680
-0.401806 -0.117885 -0.331363
-0.402898 -0.088849 0.528740
-0.409261 -0.082994 0.524720
-0.403004 -0.072965 0.522223
-0.398240 -0.076813 0.528026
-0.408937 -0.083549 -0.179228
-0.402810 -0.073469 -0.182091
-0.397832 -0.078001 -0.175605
-0.400319 -0.059890 0.513495
-0.409795 -0.066896 -0.052225
-0.402331 -0.057965 -0.056137
-0.401654 -0.059618 -0.190158
-0.404828 -0.055485 0.506428
-0.400393 -0.049106 0.501539
-0.393806 -0.050681 0.510290
-0.408610 -0.050991 0.369699
-0.400328 -0.046470 0.369746
-0.406768 -0.052419 0.353776
-0.398479 -0.047685 0.353855
-0.403604 -0.055374 0.336459
-0.395256 -0.049012 0.335973
-0.400555 -0.053892 0.305135
-0.394188 -0.049998 0.299774
-0.401820 -0.059054 0.271263
-0.401836 -0.059612 0.253825
-0.401895 -0.058272 0.237304
-0.400385 -0.056213 0.219925
-0.402632 -0.056778 0.204648
-0.394311 -0.049651 0.204346
-0.393834 -0.049816 0.213883
-0.405118 -0.054009 0.189774
-0.396815 -0.048828 0.189426
-0.407490 -0.051668 0.174131
-0.399206 -0.048071 0.174165
-0.405500 -0.052607 0.157635
-0.397178 -0.048812 0.157604
-0.403993 -0.053824 0.141116
-0.395644 -0.049328 0.141010
-0.406880 -0.052571 0.124811
-0.398573 -0.048104 0.124756
-0.408432 -0.051986 0.108508
-0.400146 -0.047279 0.108526
-0.406004 -0.054014 0.091902
-0.397679 -0.048223 0.091780
-0.405150 -0.054720 0.075470
-0.396812 -0.048674 0.075363
-0.407695 -0.052668 0.059272
-0.399404 -0.047568 0.059304
-0.407750 -0.052384 0.042843
-0.399450 -0.047705 0.042897
-0.400866 -0.054450 0.008923
-0.404779 -0.053396 -0.007013
-0.396516 -0.049029 -0.006555
-0.394646 -0.049898 0.004037
-0.404198 -0.054176 -0.023834
-0.395958 -0.049209 -0.023011
-0.404932 -0.055785 -0.072014
-0.396672 -0.049295 -0.071905
-0.394825 -0.049898 -0.060701
-0.407077 -0.054827 -0.205143
-0.398820 -0.048070 -0.205067
-0.395963 -0.049405 -0.192619
-0.408223 -0.052409 -0.223287
-0.399996 -0.047765 -0.223251
-0.408520 -0.051800 -0.231972
-0.402595 -0.042932 -0.235080
-0.401963 -0.045678 0.485831
-0.401899 -0.043731 0.467487
-0.401857 -0.041585 0.449265
-0.401854 -0.040151 0.434723
-0.401840 -0.040668 0.420267
-0.401785 -0.042635 0.402352
-0.401118 -0.024877 -0.243842
-0.406086 -0.018884 -0.247864
-0.401086 -0.009741 -0.249475
-0.395125 -0.015542 -0.246431
-0.401938 0.007108 -0.254341
-0.406780 -0.004623 -0.320726
-0.398434 0.005330 -0.320891
-0.406822 -0.004647 -0.332927
-0.402704 0.009466 -0.337599
-0.401936 0.023973 -0.256654
-0.409694 0.015970 -0.345632
-0.401923 0.041657 -0.256905
-0.398912 0.041528 -0.302507
-0.402029 0.042140 -0.336225
-0.401903 0.058339 -0.257463
-0.401857 0.074230 -0.258324
-0.401920 0.090953 -0.258992
-0.402041 0.107913 -0.259144
-0.402005 0.123690 -0.257313
-0.401888 0.139236 -0.254412
-0.401853 0.155730 -0.251711
-0.401861 0.172200 -0.249533
-0.401991 0.185984 -0.498475
-0.402056 0.188100 -0.516033
-0.401963 0.187797 -0.534367
-0.401998 0.188297 -0.550230
-0.401956 0.188908 -0.564482
-0.402158 0.203857 -0.705889
-0.401915 0.199222 -0.666502
-0.402224 0.219974 -0.706249
-0.401895 0.219860 0.303332
-0.401906 0.217012 0.236750
-0.401908 0.220632 0.220193
-0.402241 0.218790 -0.400702
-0.402185 0.218721 -0.418997
-0.401842 0.237391 0.582767
-0.401863 0.235808 0.566086
-0.401859 0.236321 0.367739
-0.401840 0.232286 0.351303
-0.401771 0.231114 0.334510
-0.402045 0.229727 0.173235
-0.401975 0.231139 0.155770
-0.401907 0.232004 0.138311
-0.401974 0.231547 0.122877
-0.402015 0.231423 0.107130
-0.401934 0.232438 0.089749
-0.401896 0.232794 0.073259
-0.401989 0.232044 0.058240
-0.401985 0.231384 0.042082
-0.401853 0.231259 0.024108
-0.401816 0.230313 0.007134
-0.401649 0.255995 0.629744
-0.401865 0.257474 0.613625
-0.402195 0.254622 0.485913
-0.402133 0.254245 0.468314
-0.402022 0.251192 0.450355
-0.402005 0.248405 0.434722
-0.401963 0.246414 0.418953
-0.402110 0.268899 -0.258096
-0.402080 0.286056 -0.255374
-0.402053 0.303121 -0.254499
-0.405017 0.302986 -0.319770
-0.408854 0.303364 -0.337518
-0.401961 0.319401 -0.256002
-0.396511 0.312423 -0.307141
-0.409634 0.309245 -0.351701
-0.401342 0.315328 -0.351621
-0.409856 0.311052 -0.360005
-0.403463 0.316602 -0.366251
-0.401925 0.336462 -0.257554
-0.402386 0.315857 -0.417540
-0.402258 0.315442 -0.435820
-0.402028 0.317827 -0.453150
-0.401953 0.354040 -0.258312
-0.402406 0.351613 -0.633939
-0.401970 0.370559 -0.256747
-0.401963 0.386515 -0.253414
-0.401948 0.403137 -0.252347
-0.401933 0.420019 -0.252684
-0.401936 0.436376 -0.250711
-0.401936 0.452636 -0.248074
-0.401911 0.469201 -0.248303
-0.402226 0.462434 -0.619579
-0.401849 0.485803 -0.249474
-0.402246 0.470997 -0.625592
-0.401723 0.502199 -0.248501
-0.401625 0.518537 -0.248833
-0.400524 0.518296 -0.482142
-0.401701 0.513433 -0.570771
-0.401610 0.534932 -0.253426
-0.407921 0.522286 -0.429410
-0.402130 0.530194 -0.435604
-0.396182 0.528441 -0.482144
-0.401733 0.521625 -0.576217
-0.401762 0.526730 -0.584414
-0.401667 0.546475 -0.258587
-0.408540 0.542063 -0.367384
-0.400265 0.546790 -0.367374
-0.409162 0.542480 -0.380397
-0.402939 0.545910 -0.384970
-0.401711 0.532477 -0.453077
-0.401960 0.531632 -0.597219
-0.401323 0.538221 -0.614340
-0.405667 0.540037 -0.631721
-0.397370 0.543515 -0.631998
-0.395265 0.542880 -0.620267
-0.408072 0.541443 -0.642822
-0.402280 0.544963 -0.648842
-0.401792 0.551378 -0.268743
-0.401836 0.551857 -0.285226
-0.401799 0.551095 -0.302028
-0.400197 0.554502 -0.321415
-0.393663 0.559247 -0.328794
-0.401832 0.550627 -0.666085
-0.401848 0.556429 -0.676831
-0.400700 0.566918 -0.684613
-0.405593 0.572144 -0.688674
-0.401185 0.579598 -0.692578
-0.394434 0.572937 -0.688183
-0.402222 0.595864 -0.700796
-0.402290 0.603818 -0.704034
-0.391002 -0.588978 -0.704817
-0.385728 -0.582641 -0.711650
-0.385562 -0.573859 -0.721316
-0.390809 -0.556674 0.566772
-0.382623 -0.554189 0.566745
-0.385049 -0.559964 0.531947
-0.385111 -0.560718 0.515647
-0.384032 -0.558530 0.500234
-0.388404 -0.557203 0.485886
-0.380224 -0.555068 0.485883
-0.377833 -0.555617 0.495125
-0.391379 -0.556287 0.474160
-0.385657 -0.554478 0.468196
-0.391093 -0.556423 0.424047
-0.385451 -0.554517 0.419087
-0.392102 -0.556024 0.046709
-0.386055 -0.555090 0.041685
-0.385561 -0.563666 -0.482858
-0.385613 -0.565365 -0.498578
-0.385562 -0.563387 -0.515565
-0.385432 -0.562545 -0.533726
-0.385465 -0.560741 -0.549903
-0.384169 -0.557763 -0.565435
-0.389337 -0.556575 -0.580365
-0.381182 -0.555031 -0.580406
-0.377747 -0.555762 -0.571704
-0.392971 -0.555975 -0.593250
-0.386794 -0.554636 -0.598381
-0.385111 -0.546886 0.598393
-0.385174 -0.553861 0.451181
-0.385136 -0.551905 0.402229
-0.385105 -0.550583 0.384322
-0.385107 -0.551918 0.367615
-0.385106 -0.552513 0.351111
-0.385092 -0.551701 0.334671
-0.385107 -0.552430 0.319477
-0.385168 -0.554422 0.304808
-0.385161 -0.554504 0.288192
-0.385087 -0.553283 0.270209
-0.385124 -0.552085 0.254196
-0.385221 -0.550694 0.239306
-0.385238 -0.550244 0.222589
-0.385213 -0.550975 0.205459
-0.385242 -0.551855 0.189721
-0.385264 -0.552515 0.174079
-0.385213 -0.552099 0.156990
-0.385164 -0.551758 0.139711
-0.385196 -0.552580 0.123746
-0.385215 -0.553273 0.107681
-0.385190 -0.552941 0.090085
-0.385164 -0.553181 0.073668
-0.385135 -0.553763 0.024696
-0.385110 -0.552792 0.007521
-0.385129 -0.552609 -0.007767
-0.385152 -0.552025 -0.024733
-0.385145 -0.551465 -0.042566
-0.385170 -0.552071 -0.057943
-0.385247 -0.553276 -0.072573
-0.385251 -0.552979 -0.089608
-0.385181 -0.552007 -0.107631
-0.385140 -0.551861 -0.123616
-0.385125 -0.551800 -0.138847
-0.385163 -0.550749 -0.155772
-0.385202 -0.549793 -0.173216
-0.385230 -0.550358 -0.189820
-0.385236 -0.550204 -0.206421
-0.385233 -0.547981 -0.223298
-0.385235 -0.544606 -0.239747
-0.385267 -0.541129 -0.251294
-0.385298 -0.538252 -0.257994
-0.393171 -0.539566 -0.297738
-0.386769 -0.538076 -0.303688
-0.390596 -0.539986 -0.352837
-0.382409 -0.538647 -0.352829
-0.391313 -0.539888 -0.361470
-0.385708 -0.536732 -0.367112
-0.385622 -0.553599 -0.614598
-0.385526 -0.552150 -0.630980
-0.385331 -0.536801 -0.269356
-0.385320 -0.537365 -0.320963
-0.385516 -0.531624 -0.383764
-0.385583 -0.531316 -0.400323
-0.385588 -0.533995 -0.418028
-0.385429 -0.536254 -0.436079
-0.385914 -0.469190 -0.647200
-0.385982 -0.452638 -0.647200
-0.385902 -0.436046 -0.644733
-0.385836 -0.419278 -0.643854
-0.385865 -0.402246 -0.647206
-0.385872 -0.385704 -0.650033
-0.385802 -0.369880 -0.650751
-0.385848 -0.319771 -0.658772
-0.385791 -0.304342 -0.657688
-0.385787 -0.287687 -0.658916
-0.385818 -0.270146 -0.660237
-0.385322 -0.236898 -0.254939
-0.385290 -0.220080 -0.254218
-0.385221 -0.203264 -0.255789
-0.377696 -0.194749 0.576838
-0.385154 -0.187021 -0.256309
-0.385131 -0.170749 -0.252971
-0.385397 -0.152939 0.553109
-0.380212 -0.157778 0.557944
-0.385511 -0.166066 -0.693265
-0.385508 -0.158126 -0.700496
-0.383957 -0.137391 0.544252
-0.385522 -0.149823 -0.705354
-0.385535 -0.138248 -0.708264
-0.388684 -0.131809 0.536693
-0.384020 -0.122734 0.534810
-0.377795 -0.128526 0.539958
-0.385158 -0.105892 0.533379
-0.388906 -0.106284 -0.165404
-0.380674 -0.106306 -0.160744
-0.385368 -0.116416 -0.330550
-0.389552 -0.090477 -0.164618
-0.381304 -0.090285 -0.159557
-0.389648 -0.071972 0.532912
-0.388884 -0.073304 -0.170230
-0.385188 -0.057875 0.564258
-0.381216 -0.057632 0.548575
-0.386038 -0.057997 0.533018
-0.393399 -0.066511 0.525107
-0.391896 -0.058434 0.521351
-0.388489 -0.058242 -0.124302
-0.385798 -0.058182 -0.139135
-0.384837 -0.058212 -0.154241
-0.387729 -0.058356 -0.170370
-0.393315 -0.067187 -0.178882
-0.392257 -0.058533 -0.180983
-0.381830 -0.045941 0.564288
-0.379005 -0.048456 0.548872
-0.380524 -0.047434 0.533166
-0.385788 -0.046476 0.516070
-0.393210 -0.050437 0.310562
-0.386873 -0.046414 0.305242
-0.391597 -0.052295 0.271577
-0.383457 -0.046612 0.272016
-0.391915 -0.052081 0.254756
-0.383785 -0.046170 0.255365
-0.392853 -0.050991 0.238740
-0.384705 -0.045389 0.239104
-0.393169 -0.050598 0.226083
-0.386817 -0.045678 0.220881
-0.393097 -0.051018 0.013925
-0.386839 -0.045185 0.009114
-0.393264 -0.050856 -0.050770
-0.386947 -0.045516 -0.055854
-0.384599 -0.045299 -0.107963
-0.383117 -0.046377 -0.124128
-0.381989 -0.047089 -0.138772
-0.381506 -0.047093 -0.154049
-0.382283 -0.046223 -0.170356
-0.386148 -0.044651 -0.187029
-0.384086 -0.040364 0.501010
-0.386948 -0.038759 0.485833
-0.378759 -0.033445 0.485775
-0.377737 -0.033812 0.494951
-0.389407 -0.036908 0.467487
-0.381232 -0.032472 0.467459
-0.392045 -0.035087 0.449254
-0.383882 -0.031758 0.449289
-0.391774 -0.034879 0.434729
-0.383577 -0.031501 0.434704
-0.390143 -0.035495 0.420281
-0.381962 -0.031259 0.420284
-0.389606 -0.036026 0.402207
-0.381479 -0.031497 0.402387
-0.387828 -0.037028 0.384830
-0.379700 -0.032434 0.385291
-0.385823 -0.038011 0.370020
-0.377641 -0.033051 0.370324
-0.385262 -0.042126 0.336082
-0.385416 -0.043785 0.204699
-0.385509 -0.042693 0.189545
-0.385596 -0.041949 0.174185
-0.385517 -0.043131 0.157593
-0.385462 -0.043698 0.140967
-0.385564 -0.041326 0.124738
-0.385628 -0.039642 0.108529
-0.385544 -0.040956 0.091740
-0.385514 -0.041684 0.075306
-0.385612 -0.039869 0.059297
-0.385608 -0.040140 0.042908
-0.385582 -0.042143 -0.006482
-0.385577 -0.042521 -0.022933
-0.385594 -0.042894 -0.071902
-0.383863 -0.038649 -0.206017
-0.377347 -0.033811 -0.213141
-0.385283 -0.036843 -0.233245
-0.385351 -0.025064 -0.239345
-0.383838 -0.009499 -0.245780
-0.388213 -0.005033 -0.248248
-0.383822 0.005647 -0.250145
-0.377327 -0.000564 -0.247233
-0.385442 0.024006 -0.253118
-0.391506 0.013417 -0.321032
-0.391666 0.013660 -0.331794
-0.391448 0.025072 -0.331850
-0.385439 0.041686 -0.253775
-0.392858 0.042120 -0.330084
-0.385443 0.058421 -0.255260
-0.385423 0.074385 -0.257183
-0.385490 0.091100 -0.258486
-0.385597 0.108043 -0.258889
-0.385526 0.123857 -0.256600
-0.385374 0.139403 -0.253131
-0.385354 0.155712 -0.251121
-0.385418 0.171920 -0.250833
-0.385476 0.187536 -0.253169
-0.385627 0.177465 -0.705770
-0.385700 0.189006 -0.707836
-0.385526 0.200133 -0.257866
-0.385477 0.189853 -0.353202
-0.385503 0.192981 -0.363859
-0.385544 0.199711 -0.371597
-0.385743 0.189422 -0.597365
-0.385772 0.189346 -0.615171
-0.385653 0.188914 -0.632684
-0.385753 0.203764 -0.707399
-0.385610 0.205889 -0.268855
-0.385431 0.219699 0.203463
-0.385473 0.237154 0.548240
-0.385465 0.237746 0.531305
-0.385462 0.239231 0.514914
-0.385520 0.242857 0.505283
-0.385628 0.247957 0.498985
-0.385406 0.240112 0.383832
-0.385438 0.234514 0.367800
-0.385426 0.230578 0.351342
-0.385351 0.229496 0.334486
-0.385483 0.230141 0.138307
-0.385562 0.229882 0.122868
-0.385611 0.229924 0.107105
-0.385514 0.231219 0.089586
-0.385464 0.231632 0.073141
-0.385579 0.230667 0.058337
-0.385581 0.229880 0.042307
-0.385435 0.229854 0.024219
-0.385210 0.252360 0.629770
-0.385419 0.254235 0.613702
-0.385750 0.252825 0.485923
-0.385668 0.252705 0.468312
-0.385550 0.249584 0.450366
-0.385656 0.268970 -0.255849
-0.385667 0.286352 -0.254101
-0.385639 0.303602 -0.254630
-0.386026 0.301795 -0.626607
-0.385500 0.319800 -0.257532
-0.385960 0.313756 -0.632919
-0.385703 0.334707 -0.324259
-0.385668 0.318515 -0.351536
-0.385709 0.318776 -0.367533
-0.385799 0.321329 -0.383681
-0.385869 0.320837 -0.400100
-0.385917 0.317205 -0.417379
-0.385805 0.316731 -0.435671
-0.385614 0.318158 -0.453117
-0.385903 0.321931 -0.639490
-0.385497 0.386700 -0.255159
-0.385869 0.384933 -0.639656
-0.385491 0.403244 -0.253839
-0.385843 0.401806 -0.640049
-0.385497 0.420030 -0.254122
-0.385868 0.418869 -0.639783
-0.385509 0.436395 -0.252430
-0.385509 0.452672 -0.250142
-0.385492 0.469206 -0.250293
-0.385528 0.469486 -0.379521
-0.385443 0.485788 -0.251206
-0.385319 0.502193 -0.249816
-0.385201 0.518548 -0.249482
-0.385307 0.515833 -0.570511
-0.385157 0.534962 -0.253128
-0.385294 0.523988 -0.573101
-0.385313 0.527616 -0.581302
-0.385197 0.547556 -0.258134
-0.384717 0.538005 -0.436340
-0.378737 0.543338 -0.443467
-0.385525 0.534821 -0.597303
-0.385641 0.541149 -0.609876
-0.385625 0.543035 -0.618714
-0.385336 0.553607 -0.268737
-0.385399 0.554689 -0.285230
-0.385379 0.555212 -0.302041
-0.385362 0.557747 -0.315731
-0.385376 0.560335 -0.324882
-0.385333 0.554584 -0.351532
-0.385367 0.552594 -0.367381
-0.385432 0.552360 -0.383644
-0.385553 0.544459 -0.631898
-0.385464 0.547524 -0.648883
-0.385421 0.553131 -0.666061
-0.385411 0.557809 -0.675772
-0.385530 0.566122 -0.682239
-0.385625 0.574165 -0.687770
-0.385721 0.582479 -0.692747
-0.385767 0.596408 -0.700265
-0.385839 0.604340 -0.703936
-0.369073 -0.580282 -0.712656
-0.369153 -0.574363 -0.721927
-0.374835 -0.556595 0.531915
-0.366667 -0.553528 0.531928
-0.372839 -0.557180 0.515499
-0.364659 -0.554532 0.515377
-0.374118 -0.556705 0.504138
-0.368787 -0.553861 0.500000
-0.369165 -0.562352 -0.482949
-0.369244 -0.564033 -0.498561
-0.369243 -0.561201 -0.515412
-0.369099 -0.560098 -0.533583
-0.368253 -0.557924 -0.550763
-0.373082 -0.556693 -0.561067
-0.368201 -0.554813 -0.565573
-0.362346 -0.555577 -0.555681
-0.368959 -0.546775 0.582994
-0.368879 -0.549269 0.566637
-0.368945 -0.551464 0.485844
-0.368957 -0.550575 0.468706
-0.368928 -0.550390 0.451405
-0.368892 -0.550373 0.435435
-0.368892 -0.550014 0.419642
-0.368929 -0.548881 0.402817
-0.368916 -0.548566 0.385318
-0.368845 -0.549309 0.367860
-0.368811 -0.549351 0.351172
-0.368845 -0.548748 0.335429
-0.368860 -0.549928 0.320148
-0.368847 -0.552632 0.304644
-0.368843 -0.553431 0.288158
-0.368842 -0.552490 0.270992
-0.368874 -0.550749 0.254887
-0.368923 -0.548723 0.239329
-0.368972 -0.548629 0.222882
-0.369000 -0.549831 0.206172
-0.368981 -0.550159 0.189911
-0.368960 -0.550338 0.173734
-0.368979 -0.550782 0.157193
-0.369002 -0.551252 0.140518
-0.368978 -0.551487 0.124013
-0.368959 -0.551842 0.107463
-0.368977 -0.551946 0.090585
-0.368969 -0.552286 0.074242
-0.368916 -0.553067 0.058460
-0.368911 -0.553407 0.042252
-0.368964 -0.552665 0.025339
-0.368953 -0.551630 0.008550
-0.368891 -0.550789 -0.007820
-0.368886 -0.550071 -0.024941
-0.368928 -0.549818 -0.042237
-0.368934 -0.550254 -0.058133
-0.368928 -0.550985 -0.073380
-0.368979 -0.550939 -0.089835
-0.369007 -0.550680 -0.106988
-0.368902 -0.551092 -0.123280
-0.368781 -0.551403 -0.139261
-0.368825 -0.550296 -0.155911
-0.368899 -0.549121 -0.172855
-0.368868 -0.549490 -0.189606
-0.368798 -0.549043 -0.206424
-0.368765 -0.546085 -0.223297
-0.368253 -0.541729 -0.240652
-0.373379 -0.540176 -0.249183
-0.368449 -0.537063 -0.254028
-0.362482 -0.539204 -0.246528
-0.369089 -0.552437 -0.580404
-0.369297 -0.550839 -0.597321
-0.369381 -0.550481 -0.614400
-0.369253 -0.550317 -0.630729
-0.369113 -0.551249 -0.648320
-0.369067 -0.533408 -0.269493
-0.368987 -0.533332 -0.286967
-0.368928 -0.534054 -0.304259
-0.368949 -0.534648 -0.320618
-0.368986 -0.535765 -0.336774
-0.369035 -0.536456 -0.352710
-0.369108 -0.533644 -0.368111
-0.369175 -0.529119 -0.383793
-0.369220 -0.528695 -0.400392
-0.369183 -0.531087 -0.418156
-0.369033 -0.532597 -0.436144
-0.362241 -0.484773 -0.197093
-0.361384 -0.468106 -0.144542
-0.361984 -0.473810 -0.196970
-0.369612 -0.469184 -0.649372
-0.361014 -0.459207 -0.146323
-0.369668 -0.452676 -0.647836
-0.369653 -0.436235 -0.646260
-0.361615 -0.426728 0.540172
-0.369637 -0.419642 -0.645762
-0.369664 -0.402654 -0.648042
-0.369683 -0.386096 -0.651150
-0.369681 -0.336492 -0.657066
-0.369671 -0.320181 -0.658545
-0.369600 -0.304686 -0.659616
-0.369583 -0.288079 -0.660864
-0.369605 -0.270660 -0.661152
-0.369128 -0.237641 -0.256334
-0.369539 -0.238049 -0.646584
-0.369074 -0.220548 -0.255395
-0.369481 -0.220922 -0.646570
-0.368993 -0.203382 -0.256939
-0.369440 -0.208404 -0.652749
-0.370805 -0.188468 0.582129
-0.368916 -0.187097 -0.256389
-0.369346 -0.200009 -0.659867
-0.369247 -0.190163 -0.669155
-0.369173 -0.181997 -0.678677
-0.369157 -0.176498 -0.685987
-0.370073 -0.153042 0.562024
-0.369178 -0.168253 -0.694044
-0.369157 -0.158747 -0.701203
-0.376255 -0.146768 0.555526
-0.369999 -0.136845 0.551889
-0.365422 -0.141798 0.558608
-0.364498 -0.137636 0.332714
-0.369159 -0.150420 -0.705618
-0.369156 -0.138303 -0.708219
-0.369286 -0.122707 0.544805
-0.375058 -0.118161 0.538330
-0.375410 -0.105713 0.538677
-0.368895 -0.106142 -0.156006
-0.377101 -0.115521 -0.330030
-0.369953 -0.089586 0.564189
-0.368880 -0.089731 -0.153865
-0.367331 -0.038430 0.547828
-0.370012 -0.038780 0.533173
-0.361813 -0.032635 0.533214
-0.360829 -0.032565 0.542303
-0.372241 -0.037018 0.517361
-0.364023 -0.032403 0.517279
-0.374798 -0.035451 0.505495
-0.369231 -0.031555 0.500889
-0.374917 -0.034997 0.336399
-0.366791 -0.031477 0.336966
-0.372309 -0.036161 0.320290
-0.364166 -0.032505 0.320748
-0.369072 -0.038540 0.288965
-0.369073 -0.039699 0.272346
-0.369096 -0.038768 0.255823
-0.369128 -0.037017 0.239417
-0.368251 -0.035467 0.223032
-0.371631 -0.035809 0.205484
-0.363504 -0.032492 0.206028
-0.362250 -0.032493 0.218035
-0.370936 -0.035312 0.189778
-0.362768 -0.032240 0.189948
-0.369236 -0.035956 0.157614
-0.368055 -0.035494 0.142348
-0.370513 -0.034653 0.124800
-0.362360 -0.032392 0.124842
-0.361871 -0.032970 0.137777
-0.372472 -0.033712 0.108502
-0.364308 -0.031748 0.108472
-0.374315 -0.034421 0.091808
-0.366199 -0.031589 0.091883
-0.374398 -0.034829 0.075368
-0.366283 -0.031487 0.075428
-0.375302 -0.033959 0.059271
-0.367133 -0.031180 0.059200
-0.375165 -0.034115 0.042873
-0.366984 -0.031119 0.042783
-0.373576 -0.035640 0.025821
-0.365479 -0.031820 0.026013
-0.373473 -0.035837 0.009356
-0.365380 -0.031726 0.009619
-0.374133 -0.034600 -0.006425
-0.365971 -0.030796 -0.006411
-0.373657 -0.034798 -0.022876
-0.365495 -0.031080 -0.022882
-0.372256 -0.036278 -0.039783
-0.364151 -0.032248 -0.039633
-0.372176 -0.036279 -0.056039
-0.364044 -0.032254 -0.055954
-0.372998 -0.035266 -0.071954
-0.364810 -0.031539 -0.072063
-0.371598 -0.035607 -0.089924
-0.363439 -0.032399 -0.090055
-0.369100 -0.038868 -0.124316
-0.368954 -0.039834 -0.139039
-0.367543 -0.038045 -0.155187
-0.370504 -0.037873 -0.170339
-0.362339 -0.032745 -0.170328
-0.361181 -0.033130 -0.161241
-0.373918 -0.035776 -0.186980
-0.365738 -0.031380 -0.186961
-0.376610 -0.034258 -0.200114
-0.370238 -0.030811 -0.205992
-0.376645 -0.033879 -0.231799
-0.370296 -0.024898 -0.235412
-0.369065 -0.029070 0.485644
-0.368970 -0.027729 0.467314
-0.368949 -0.026942 0.449272
-0.368923 -0.026516 0.434679
-0.368951 -0.026583 0.420262
-0.369017 -0.026875 0.402851
-0.369042 -0.028290 0.385993
-0.368980 -0.029645 0.370564
-0.368939 -0.008255 -0.242403
-0.368969 0.005783 -0.245231
-0.374391 0.009956 -0.248439
-0.371917 0.024030 -0.249243
-0.363785 0.024050 -0.245950
-0.368185 0.041614 -0.249551
-0.362129 0.035656 -0.246847
-0.369157 0.058626 -0.252688
-0.369191 0.074650 -0.255634
-0.369263 0.091310 -0.257600
-0.369343 0.108172 -0.258331
-0.369225 0.124088 -0.255145
-0.368277 0.141040 0.532507
-0.370286 0.139947 0.334996
-0.369031 0.139734 -0.251053
-0.366827 0.157557 0.565047
-0.370977 0.157431 0.549833
-0.370433 0.155710 0.303335
-0.365360 0.155660 0.287376
-0.363759 0.156384 0.255557
-0.368793 0.155545 0.237433
-0.371027 0.155528 0.220935
-0.371342 0.155490 0.204654
-0.369969 0.155553 0.189008
-0.368159 0.155671 0.173117
-0.368315 0.155692 0.156288
-0.369549 0.155682 0.139450
-0.370678 0.155749 0.123501
-0.371399 0.155835 0.107428
-0.369740 0.156179 0.058440
-0.367695 0.156243 0.042209
-0.366833 0.156160 0.025123
-0.366504 0.156238 0.008576
-0.365602 0.156537 -0.007271
-0.364203 0.156553 -0.023823
-0.369014 0.155876 -0.250586
-0.362493 0.165945 0.286941
-0.363455 0.170967 0.250342
-0.371747 0.171180 0.173082
-0.369073 0.171948 -0.007628
-0.366339 0.171961 -0.024167
-0.369139 0.171795 -0.252846
-0.372282 0.186929 0.240016
-0.364119 0.186914 0.246746
-0.369354 0.172617 -0.516358
-0.369175 0.172852 -0.534667
-0.369194 0.173666 -0.550922
-0.369224 0.174832 -0.565110
-0.369306 0.188921 -0.709233
-0.369157 0.200456 0.237213
-0.363658 0.195854 0.245490
-0.369089 0.184054 -0.666543
-0.369382 0.203621 -0.707124
-0.369432 0.204095 -0.401078
-0.369363 0.204678 -0.419353
-0.369220 0.208646 -0.432437
-0.369055 0.215150 -0.440721
-0.369167 0.230414 0.562380
-0.369253 0.216203 0.188257
-0.369297 0.217288 0.172527
-0.369258 0.219081 -0.007800
-0.369196 0.234461 0.548316
-0.369164 0.235654 0.531325
-0.369166 0.237909 0.514904
-0.369263 0.242364 0.504635
-0.369400 0.247327 0.498345
-0.369279 0.241054 0.418637
-0.369251 0.240070 0.401617
-0.369220 0.237235 0.384536
-0.369176 0.231992 0.367832
-0.369328 0.229712 0.090217
-0.369314 0.229952 0.073837
-0.369243 0.250219 0.613554
-0.369542 0.251422 0.485923
-0.369488 0.250131 0.468680
-0.369452 0.269050 -0.253762
-0.369666 0.268801 -0.646480
-0.361316 0.277529 0.539546
-0.369521 0.286659 -0.254882
-0.369497 0.303912 -0.256863
-0.369300 0.319977 -0.257685
-0.369465 0.320371 -0.318423
-0.370105 0.337608 -0.259026
-0.369721 0.337979 -0.322424
-0.374098 0.325333 -0.383694
-0.366034 0.334645 -0.383695
-0.364427 0.332318 -0.371299
-0.373618 0.324848 -0.400109
-0.365533 0.333192 -0.400105
-0.369285 0.317043 -0.453102
-0.369630 0.335139 -0.641893
-0.365353 0.348831 -0.260012
-0.364578 0.347186 -0.325563
-0.369685 0.352625 -0.641800
-0.369690 0.369264 -0.642054
-0.369294 0.386721 -0.254737
-0.369628 0.385051 -0.641329
-0.361223 0.393287 0.362345
-0.369326 0.403251 -0.253201
-0.364340 0.399297 -0.387531
-0.369633 0.401898 -0.641118
-0.369394 0.420074 -0.253428
-0.369695 0.419189 -0.641067
-0.369403 0.436377 -0.252232
-0.362466 0.451021 0.361652
-0.369369 0.452548 -0.250659
-0.369680 0.450962 -0.628393
-0.362436 0.461239 0.361328
-0.369344 0.469133 -0.250629
-0.364603 0.461248 -0.580460
-0.362673 0.460297 -0.571934
-0.369655 0.466573 -0.632125
-0.369299 0.485801 -0.251387
-0.375352 0.475604 -0.376732
-0.369656 0.475414 -0.638390
-0.369176 0.502123 -0.251094
-0.362951 0.512259 0.606804
-0.369047 0.518391 -0.251402
-0.367826 0.518477 -0.570235
-0.368991 0.534864 -0.254445
-0.372406 0.524971 -0.572597
-0.367831 0.528168 -0.579036
-0.361531 0.525053 -0.572261
-0.369031 0.547289 -0.258587
-0.368987 0.544232 -0.440362
-0.370092 0.538069 -0.596863
-0.376143 0.541680 -0.608712
-0.370187 0.543752 -0.614625
-0.365280 0.543831 -0.602353
-0.369128 0.553950 -0.268739
-0.369123 0.555883 -0.285217
-0.369770 0.557327 -0.301886
-0.375675 0.558703 -0.311413
-0.369778 0.562714 -0.318256
-0.364813 0.560008 -0.307422
-0.373244 0.558122 -0.351478
-0.365130 0.560986 -0.351449
-0.370940 0.557054 -0.367379
-0.362823 0.559976 -0.367375
-0.371977 0.556734 -0.383651
-0.363883 0.559785 -0.383665
-0.369121 0.553458 -0.665927
-0.369078 0.558345 -0.675164
-0.369145 0.566478 -0.680788
-0.369205 0.576400 -0.686923
-0.369280 0.584328 -0.692068
-0.369276 0.596070 -0.699718
-0.369329 0.604037 -0.704328
-0.369367 0.613601 -0.706471
-0.352657 -0.577724 -0.712622
-0.352726 -0.573587 -0.721525
-0.352796 -0.564185 -0.721791
-0.351430 -0.559719 -0.499852
-0.354990 -0.557838 -0.515337
-0.346738 -0.554987 -0.515317
-0.345019 -0.555674 -0.506194
-0.356692 -0.557163 -0.533505
-0.348458 -0.554268 -0.533459
-0.358309 -0.556646 -0.546813
-0.352860 -0.553596 -0.550635
-0.358096 -0.541339 0.582924
-0.349830 -0.536468 0.583197
-0.355995 -0.542729 0.566645
-0.347745 -0.537542 0.566770
-0.353450 -0.544054 0.549234
-0.345205 -0.538868 0.549263
-0.352348 -0.548190 0.515473
-0.352451 -0.546395 0.500804
-0.352527 -0.544160 0.485841
-0.351006 -0.543002 0.469861
-0.352684 -0.543811 0.451501
-0.344383 -0.539386 0.451464
-0.344450 -0.539367 0.464626
-0.352809 -0.543573 0.435284
-0.344524 -0.539333 0.435438
-0.353016 -0.543363 0.419449
-0.344735 -0.539244 0.419632
-0.353255 -0.543268 0.402994
-0.344948 -0.539107 0.402772
-0.353165 -0.543474 0.385791
-0.344854 -0.539133 0.385535
-0.350749 -0.542841 0.350290
-0.353076 -0.543437 0.335596
-0.344745 -0.539169 0.335055
-0.344101 -0.539468 0.344086
-0.352424 -0.547958 0.304235
-0.352427 -0.549436 0.287893
-0.352445 -0.548924 0.271082
-0.352493 -0.546957 0.255209
-0.350984 -0.543392 0.238221
-0.344457 -0.539394 0.232098
-0.352613 -0.545603 0.206372
-0.352595 -0.545709 0.189801
-0.352561 -0.545742 0.173452
-0.352596 -0.546529 0.157125
-0.352645 -0.547432 0.140801
-0.352616 -0.547804 0.124359
-0.352579 -0.548339 0.107787
-0.352594 -0.548691 0.091017
-0.352594 -0.548979 0.074438
-0.352546 -0.549269 0.058319
-0.352535 -0.549398 0.042073
-0.352602 -0.549111 0.025521
-0.352609 -0.548077 0.009054
-0.352538 -0.546841 -0.007408
-0.352511 -0.546157 -0.024605
-0.352535 -0.546138 -0.042051
-0.352547 -0.546481 -0.058371
-0.352537 -0.546747 -0.073856
-0.352586 -0.546641 -0.089978
-0.352629 -0.546632 -0.106698
-0.352529 -0.547562 -0.123157
-0.352390 -0.548517 -0.139516
-0.352450 -0.547474 -0.156016
-0.352541 -0.546073 -0.172721
-0.352482 -0.545853 -0.189557
-0.352364 -0.544935 -0.206466
-0.352128 -0.541902 -0.222598
-0.357507 -0.540571 -0.235847
-0.352267 -0.537631 -0.240615
-0.346544 -0.538710 -0.227668
-0.352755 -0.550475 -0.564280
-0.352679 -0.547912 -0.580412
-0.352900 -0.546413 -0.597285
-0.352996 -0.546232 -0.614226
-0.352876 -0.546451 -0.630507
-0.352730 -0.547325 -0.648115
-0.352533 -0.548727 -0.666371
-0.352588 -0.532764 -0.254455
-0.352667 -0.528745 -0.269531
-0.352586 -0.527946 -0.286831
-0.352532 -0.528614 -0.304024
-0.352558 -0.530048 -0.320444
-0.352579 -0.531483 -0.336635
-0.352622 -0.531816 -0.352620
-0.351208 -0.527733 -0.369399
-0.355514 -0.525331 -0.383818
-0.347262 -0.521801 -0.383814
-0.344739 -0.522996 -0.375305
-0.355476 -0.525092 -0.400427
-0.347218 -0.521845 -0.400386
-0.352595 -0.527741 -0.436148
-0.352455 -0.530717 -0.453118
-0.353240 -0.452676 -0.648708
-0.353244 -0.436283 -0.647122
-0.353256 -0.419747 -0.647121
-0.353303 -0.402823 -0.649751
-0.353277 -0.353784 -0.657644
-0.353322 -0.336592 -0.658571
-0.353300 -0.320299 -0.659653
-0.353218 -0.304774 -0.660584
-0.353202 -0.288166 -0.662138
-0.353229 -0.270801 -0.663113
-0.352758 -0.238185 -0.257319
-0.353172 -0.238425 -0.650674
-0.352687 -0.220962 -0.257032
-0.360095 -0.166203 0.573473
-0.353708 -0.154112 0.570446
-0.352733 -0.159603 -0.701979
-0.351655 -0.137009 0.560617
-0.352740 -0.151209 -0.705863
-0.352728 -0.138348 -0.708283
-0.356610 -0.130950 0.554621
-0.354180 -0.121907 0.553970
-0.357701 -0.089249 -0.149726
-0.360192 -0.032890 0.551982
-0.353743 -0.028158 0.547764
-0.358962 -0.033937 0.288937
-0.350674 -0.029059 0.288892
-0.358784 -0.034862 0.272464
-0.350464 -0.030147 0.272187
-0.359468 -0.034162 0.256009
-0.351170 -0.029392 0.255830
-0.360288 -0.032701 0.239553
-0.352036 -0.027877 0.239676
-0.360590 -0.032357 0.229367
-0.354146 -0.028335 0.223458
-0.360698 -0.032923 0.157624
-0.352418 -0.027729 0.157404
-0.361079 -0.033250 0.148721
-0.354470 -0.029170 0.142212
-0.359413 -0.034362 -0.124483
-0.351109 -0.029413 -0.124635
-0.358338 -0.034368 -0.139232
-0.350049 -0.029263 -0.139303
-0.359261 -0.033904 -0.150641
-0.353295 -0.028994 -0.155192
-0.352408 -0.027036 0.533181
-0.352467 -0.026341 0.517405
-0.352561 -0.024013 0.502028
-0.352566 -0.021526 0.485537
-0.351208 -0.020203 0.467998
-0.353603 -0.020973 0.449263
-0.345301 -0.014637 0.449271
-0.351019 -0.019013 0.420763
-0.354169 -0.020450 0.402916
-0.345853 -0.013673 0.402471
-0.344576 -0.014498 0.415662
-0.352522 -0.022253 0.370771
-0.352461 -0.023646 0.354409
-0.352475 -0.025121 0.336800
-0.352521 -0.027179 0.320397
-0.352706 -0.027176 0.205889
-0.352739 -0.026961 0.189774
-0.352851 -0.027032 0.124798
-0.352851 -0.025946 0.108521
-0.352838 -0.025766 0.091749
-0.352826 -0.025633 0.075181
-0.352808 -0.024729 0.059116
-0.352799 -0.024516 0.042720
-0.352840 -0.025704 0.025561
-0.352860 -0.025654 0.009256
-0.352825 -0.024283 -0.006361
-0.352805 -0.024911 -0.022880
-0.352818 -0.027056 -0.040121
-0.352825 -0.027151 -0.056489
-0.352806 -0.025825 -0.072114
-0.352811 -0.026849 -0.090131
-0.352627 -0.025736 -0.170322
-0.351542 -0.021696 -0.186213
-0.353918 -0.021069 -0.205108
-0.345684 -0.011901 -0.205159
-0.345323 -0.013631 -0.191410
-0.353306 -0.020829 -0.223234
-0.345083 -0.012705 -0.223235
-0.355519 -0.019146 -0.234232
-0.351077 -0.008691 -0.235475
-0.351367 0.007078 0.485363
-0.348304 0.007281 0.497513
-0.352510 0.007327 -0.238164
-0.349827 0.022800 0.485260
-0.348686 0.020828 0.497329
-0.352602 0.024010 -0.240771
-0.353063 0.041581 -0.244484
-0.358805 0.047418 -0.247632
-0.353085 0.058292 -0.249344
-0.347842 0.052620 -0.245656
-0.352774 0.074764 -0.253714
-0.352846 0.091409 -0.256251
-0.352908 0.108210 -0.256836
-0.352776 0.124176 -0.253503
-0.352591 0.139817 -0.249886
-0.352607 0.155782 -0.250752
-0.352550 0.161543 0.259520
-0.352772 0.171543 -0.254586
-0.352701 0.164735 -0.704638
-0.352778 0.174078 -0.708341
-0.352927 0.183312 -0.258737
-0.352686 0.173602 -0.338278
-0.352703 0.176060 -0.353156
-0.352727 0.179181 -0.362039
-0.352799 0.184459 -0.369917
-0.352732 0.167502 -0.534713
-0.352747 0.168263 -0.551176
-0.352800 0.169304 -0.565350
-0.352830 0.172662 -0.580451
-0.352962 0.176561 -0.633435
-0.352871 0.188894 -0.709805
-0.352964 0.189119 -0.269038
-0.352914 0.191704 -0.380390
-0.352988 0.197667 -0.388492
-0.352955 0.203579 -0.706511
-0.352749 0.219686 0.562560
-0.353012 0.199320 -0.401218
-0.352940 0.199599 -0.419486
-0.352773 0.206169 -0.434179
-0.352618 0.214939 -0.442451
-0.352792 0.229116 0.559770
-0.352717 0.222207 0.334912
-0.352518 0.243322 0.631528
-0.352721 0.245401 0.623340
-0.352809 0.232006 0.548346
-0.352772 0.233348 0.531335
-0.352777 0.236120 0.514912
-0.352892 0.241678 0.503888
-0.353025 0.246600 0.497593
-0.352905 0.240916 0.434253
-0.352888 0.238589 0.418298
-0.352869 0.237543 0.401512
-0.352841 0.234541 0.384632
-0.352859 0.246867 0.613463
-0.353141 0.250038 0.485917
-0.353088 0.248450 0.468765
-0.353080 0.269114 -0.254029
-0.353291 0.268824 -0.644014
-0.353355 0.285591 -0.641642
-0.353273 0.286371 -0.302414
-0.353227 0.288060 -0.319651
-0.353353 0.302254 -0.642107
-0.353117 0.309816 -0.363171
-0.353030 0.321044 -0.366115
-0.353227 0.308217 -0.432346
-0.353021 0.313677 -0.441254
-0.353236 0.318521 -0.643580
-0.352996 0.337482 -0.319108
-0.352981 0.333291 -0.370395
-0.353187 0.335465 -0.644744
-0.353066 0.347426 -0.325503
-0.353771 0.342131 -0.384465
-0.348687 0.346676 -0.390419
-0.353226 0.353133 -0.645299
-0.353230 0.369713 -0.645429
-0.353200 0.385316 -0.643990
-0.352923 0.403186 -0.254405
-0.354567 0.404382 -0.386396
-0.353234 0.402092 -0.642830
-0.352997 0.420064 -0.254328
-0.350676 0.420050 -0.388269
-0.353298 0.419388 -0.642020
-0.353009 0.436326 -0.253418
-0.352978 0.452420 -0.252357
-0.353298 0.450994 -0.631506
-0.352960 0.469043 -0.252271
-0.353278 0.464929 -0.633826
-0.352914 0.485768 -0.252751
-0.353267 0.473829 -0.638730
-0.352815 0.502033 -0.253013
-0.352718 0.518239 -0.253900
-0.352702 0.517060 -0.568926
-0.352663 0.534757 -0.256470
-0.360056 0.525094 -0.425792
-0.353791 0.534569 -0.427041
-0.352587 0.525578 -0.571899
-0.352674 0.546043 -0.259365
-0.352623 0.546726 -0.436916
-0.352686 0.529092 -0.580465
-0.361073 0.542454 -0.639236
-0.354446 0.545212 -0.646470
-0.352750 0.552687 -0.268737
-0.352750 0.556566 -0.285202
-0.352693 0.557791 -0.296014
-0.352697 0.561526 -0.304505
-0.352723 0.553696 -0.665908
-0.352665 0.558780 -0.674820
-0.352703 0.566824 -0.679886
-0.352403 0.569326 -0.320083
-0.346733 0.575374 -0.326624
-0.352686 0.566660 -0.351602
-0.352741 0.564162 -0.367433
-0.352817 0.563496 -0.383670
-0.352748 0.577852 -0.686378
-0.352821 0.585594 -0.691620
-0.352792 0.596394 -0.699331
-0.352844 0.604379 -0.704419
-0.352891 0.613792 -0.707485
-0.337278 -0.574395 -0.712539
-0.343303 -0.572642 -0.720741
-0.337389 -0.563470 -0.721032
-0.332438 -0.568573 -0.717702
-0.341442 -0.557369 -0.495247
-0.336125 -0.553229 -0.499882
-0.341679 -0.541320 0.515734
-0.333449 -0.535859 0.515993
-0.342800 -0.540518 0.501055
-0.334585 -0.536040 0.501276
-0.344088 -0.539574 0.485889
-0.335850 -0.535824 0.485903
-0.344172 -0.539521 0.476454
-0.337578 -0.535780 0.469640
-0.343984 -0.539568 0.355245
-0.337425 -0.536046 0.350808
-0.340338 -0.541812 0.303932
-0.332053 -0.537012 0.303729
-0.338851 -0.542676 0.287585
-0.330566 -0.537807 0.287393
-0.339028 -0.542506 0.270319
-0.330707 -0.537671 0.269848
-0.340433 -0.541556 0.254872
-0.332141 -0.537199 0.254659
-0.342470 -0.540444 0.242922
-0.336611 -0.536979 0.238429
-0.342399 -0.540578 0.206148
-0.334081 -0.536237 0.205725
-0.342077 -0.540702 0.189600
-0.333783 -0.536629 0.189309
-0.341760 -0.540858 0.173477
-0.333507 -0.536884 0.173603
-0.341408 -0.541160 0.156950
-0.333119 -0.536831 0.156669
-0.340837 -0.541547 0.140591
-0.332508 -0.536988 0.140166
-0.339274 -0.541927 0.124621
-0.330985 -0.537987 0.124596
-0.337617 -0.542366 0.108362
-0.329355 -0.538885 0.108502
-0.337571 -0.542533 0.090972
-0.329269 -0.538821 0.090794
-0.337996 -0.542633 0.073986
-0.329667 -0.538568 0.073620
-0.337899 -0.542718 0.058433
-0.329623 -0.538636 0.058441
-0.337790 -0.542730 0.042284
-0.329528 -0.538693 0.042371
-0.338205 -0.542605 0.024980
-0.329879 -0.538430 0.024559
-0.338949 -0.542129 0.008644
-0.330611 -0.538155 0.008281
-0.339613 -0.541585 -0.006847
-0.331352 -0.538121 -0.006697
-0.340036 -0.541276 -0.024063
-0.331781 -0.538079 -0.023843
-0.340070 -0.541208 -0.042113
-0.331747 -0.538096 -0.042033
-0.339772 -0.541373 -0.058523
-0.331466 -0.538260 -0.058477
-0.339695 -0.541475 -0.073615
-0.331435 -0.538369 -0.073339
-0.340445 -0.541310 -0.089797
-0.332161 -0.537923 -0.089719
-0.340994 -0.541217 -0.106928
-0.332662 -0.537421 -0.107230
-0.339434 -0.541815 -0.123339
-0.331135 -0.538031 -0.123531
-0.337411 -0.542528 -0.139429
-0.329162 -0.538881 -0.139367
-0.337855 -0.542058 -0.156021
-0.329611 -0.538884 -0.156031
-0.339567 -0.541300 -0.172916
-0.331332 -0.538312 -0.173060
-0.341061 -0.541019 -0.189725
-0.332836 -0.536985 -0.189831
-0.342494 -0.540463 -0.206540
-0.334295 -0.535467 -0.206531
-0.343550 -0.539818 -0.216567
-0.337228 -0.535028 -0.222575
-0.336328 -0.550396 -0.515347
-0.336214 -0.549089 -0.533452
-0.336246 -0.547158 -0.549667
-0.336244 -0.544315 -0.564107
-0.335701 -0.541820 -0.579165
-0.339397 -0.541741 -0.597312
-0.331105 -0.538169 -0.597339
-0.329880 -0.538652 -0.583876
-0.339778 -0.541683 -0.614192
-0.331479 -0.538009 -0.614251
-0.340028 -0.541515 -0.630379
-0.331773 -0.537850 -0.630391
-0.339109 -0.541896 -0.647917
-0.330871 -0.538181 -0.647842
-0.336484 -0.532001 -0.711643
-0.336067 -0.528879 0.583527
-0.336014 -0.531035 0.566841
-0.335879 -0.533814 0.549232
-0.335887 -0.534297 0.451068
-0.335918 -0.534876 0.435444
-0.335939 -0.535006 0.419776
-0.335912 -0.533734 0.402242
-0.335886 -0.533323 0.384786
-0.335761 -0.534324 0.334868
-0.335959 -0.530906 -0.239591
-0.336226 -0.526251 -0.253500
-0.341243 -0.524648 -0.269446
-0.332969 -0.520079 -0.269368
-0.330866 -0.520922 -0.257455
-0.342198 -0.524015 -0.286711
-0.333966 -0.520321 -0.286602
-0.341866 -0.524206 -0.303917
-0.333668 -0.520557 -0.303842
-0.339889 -0.525006 -0.320528
-0.331703 -0.521371 -0.320590
-0.338096 -0.525723 -0.336780
-0.329906 -0.522143 -0.336896
-0.338107 -0.525779 -0.352626
-0.329921 -0.522076 -0.352660
-0.340581 -0.524769 -0.365147
-0.335544 -0.520769 -0.369327
-0.341762 -0.524103 -0.436078
-0.333536 -0.520531 -0.435972
-0.338930 -0.525419 -0.453211
-0.330700 -0.521877 -0.453220
-0.336211 -0.516498 -0.383804
-0.336254 -0.516616 -0.400352
-0.336636 -0.436151 -0.647599
-0.336628 -0.419543 -0.647768
-0.336680 -0.370129 -0.655769
-0.336669 -0.353561 -0.657218
-0.336729 -0.336290 -0.661547
-0.336699 -0.319984 -0.662583
-0.336599 -0.304520 -0.660368
-0.336596 -0.287877 -0.662441
-0.336657 -0.270432 -0.666150
-0.336175 -0.238291 -0.258311
-0.336570 -0.238191 -0.650326
-0.329284 -0.220286 0.468012
-0.328813 -0.226218 0.480044
-0.336516 -0.224457 -0.651841
-0.329908 -0.203392 0.461905
-0.336464 -0.215462 -0.659505
-0.336420 -0.205950 -0.668696
-0.336350 -0.197445 -0.677223
-0.336310 -0.190337 -0.684553
-0.336299 -0.182230 -0.691896
-0.336284 -0.171145 -0.698224
-0.336252 -0.161134 -0.702872
-0.339441 -0.148770 0.572095
-0.334728 -0.139230 0.568496
-0.336269 -0.152546 -0.706089
-0.336263 -0.138352 -0.708523
-0.336104 -0.122561 -0.153734
-0.341552 -0.017091 0.564213
-0.337948 -0.007391 0.564209
-0.339133 -0.018380 0.548553
-0.332655 -0.007415 0.548558
-0.338797 -0.018838 0.533084
-0.331895 -0.007873 0.532974
-0.339616 -0.019209 0.517635
-0.333911 -0.008616 0.517456
-0.341237 -0.018251 0.502137
-0.343102 -0.017071 0.485567
-0.343990 -0.016918 0.475070
-0.343935 -0.015388 0.426600
-0.342042 -0.008603 0.420782
-0.342490 -0.017088 0.370747
-0.338214 -0.008138 0.370376
-0.340765 -0.017930 0.354344
-0.340801 -0.019104 0.336096
-0.332211 -0.007280 0.337367
-0.339067 -0.020033 0.319329
-0.336431 -0.020284 0.304738
-0.328162 -0.014493 0.304409
-0.335989 -0.022053 0.271166
-0.334529 -0.020223 0.254948
-0.337021 -0.019650 0.239790
-0.328785 -0.013563 0.239823
-0.328079 -0.015722 0.250071
-0.338052 -0.019418 0.222893
-0.329558 -0.008203 0.221603
-0.338921 -0.019743 0.205309
-0.331473 -0.008568 0.204607
-0.339140 -0.019274 0.189310
-0.339123 -0.018820 0.173991
-0.330825 -0.008930 0.173970
-0.339227 -0.019471 0.156815
-0.331106 -0.006619 0.157825
-0.339157 -0.020002 0.140146
-0.332956 -0.008102 0.139861
-0.339470 -0.018982 0.124620
-0.333042 -0.007941 0.124571
-0.339553 -0.018347 0.108554
-0.332636 -0.007958 0.108560
-0.339740 -0.019092 0.091317
-0.333344 -0.008487 0.090980
-0.340237 -0.019308 0.074600
-0.334335 -0.008669 0.073964
-0.340903 -0.018046 0.059006
-0.334972 -0.008202 0.058674
-0.341155 -0.017826 0.042667
-0.335072 -0.008142 0.042496
-0.341042 -0.019152 0.024783
-0.335133 -0.008714 0.024519
-0.341019 -0.019253 0.008570
-0.335582 -0.008726 0.008436
-0.341208 -0.017870 -0.006338
-0.336356 -0.008055 -0.006331
-0.340533 -0.018353 -0.022897
-0.334893 -0.008298 -0.022897
-0.339273 -0.020309 -0.040891
-0.338902 -0.020385 -0.057294
-0.330028 -0.007786 -0.058615
-0.339662 -0.019088 -0.072163
-0.332565 -0.008772 -0.072160
-0.340234 -0.019495 -0.090240
-0.334106 -0.008929 -0.090280
-0.339521 -0.020880 -0.108520
-0.332869 -0.009287 -0.108560
-0.335942 -0.021187 -0.139436
-0.336421 -0.018918 -0.152692
-0.342579 -0.018208 -0.170345
-0.338990 -0.008716 -0.170361
-0.332319 -0.008218 -0.155523
-0.344093 -0.017199 -0.180089
-0.342477 -0.008687 -0.186316
-0.335788 0.008278 0.564242
-0.329015 0.005450 0.532983
-0.331120 0.008009 0.517572
-0.339561 0.007369 0.505198
-0.342574 -0.006326 0.449254
-0.337491 0.007302 0.449253
-0.335319 0.007362 0.434639
-0.333759 0.007816 0.420247
-0.341939 -0.005263 0.402215
-0.332835 0.007440 0.384345
-0.331695 0.005289 0.369744
-0.328658 0.002055 0.331899
-0.328576 0.002535 0.204103
-0.328054 0.000686 0.214532
-0.330662 0.008765 0.140286
-0.328998 0.008854 0.152226
-0.329333 0.005654 0.108558
-0.329537 0.008775 0.091021
-0.330548 0.007750 0.073343
-0.330599 0.007404 0.058071
-0.330179 0.006134 0.024533
-0.330378 0.009262 0.009070
-0.332843 0.007756 -0.006348
-0.329073 0.005419 -0.073272
-0.327911 -0.001076 -0.063644
-0.329477 0.002969 -0.108563
-0.335719 0.007568 -0.170441
-0.331264 0.007751 -0.156997
-0.337465 0.007227 -0.187146
-0.342809 -0.004378 -0.205223
-0.338209 0.007027 -0.205096
-0.342740 -0.005086 -0.223234
-0.338681 0.007146 -0.223106
-0.343191 -0.004105 -0.232157
-0.341683 0.007290 -0.232926
-0.337137 0.025108 0.502287
-0.330018 0.018158 0.512878
-0.329236 0.018267 0.434684
-0.327993 0.016408 0.420263
-0.328456 0.019033 0.140532
-0.327971 0.018250 0.148928
-0.328048 0.016479 0.073044
-0.328001 0.016529 0.084674
-0.328149 0.015799 0.057731
-0.329353 0.018852 -0.006325
-0.328243 0.017069 0.004870
-0.328225 0.015313 -0.079390
-0.331107 0.021331 -0.170472
-0.329874 0.019394 -0.159081
-0.331393 0.021221 -0.187125
-0.331454 0.021290 -0.204878
-0.331288 0.024589 -0.223532
-0.338652 0.023854 -0.234370
-0.343438 0.031370 0.485259
-0.335234 0.036303 0.485418
-0.333231 0.034962 0.497064
-0.331588 0.035397 0.467100
-0.334776 0.040097 -0.236434
-0.328164 0.032949 -0.229756
-0.334766 0.058121 -0.243768
-0.339307 0.063317 -0.247944
-0.334727 0.073242 -0.249885
-0.328302 0.066874 -0.246321
-0.336211 0.091371 -0.253667
-0.336279 0.108150 -0.253802
-0.336174 0.124097 -0.251527
-0.336040 0.139616 -0.249638
-0.336098 0.155399 -0.251481
-0.335912 0.160071 0.269300
-0.335966 0.154853 -0.041471
-0.336265 0.171150 -0.256229
-0.336331 0.158936 -0.498493
-0.336190 0.162671 -0.697198
-0.336270 0.163872 -0.705306
-0.336347 0.174069 -0.709278
-0.336375 0.180647 -0.259815
-0.336230 0.173712 -0.321844
-0.336261 0.171405 -0.338406
-0.336258 0.173637 -0.353301
-0.336273 0.177807 -0.363638
-0.336300 0.183320 -0.371460
-0.336462 0.170920 -0.597903
-0.336541 0.171775 -0.616179
-0.336408 0.172948 -0.633514
-0.336296 0.173713 -0.650070
-0.336156 0.173854 -0.666629
-0.336413 0.188915 -0.710500
