0.143328 0.205320 -0.171629
0.137787 0.203129 -0.187606
0.147976 0.195756 -0.181445
0.147538 0.195017 -0.230447
0.147518 0.211514 -0.018943
0.169581 -0.253307 0.811850
0.163018 -0.259324 0.816402
0.156915 -0.264685 0.810744
0.164668 -0.261001 0.805050
0.164402 -0.244772 0.921700
0.162005 -0.242002 0.932252
0.168947 -0.236458 0.927799
0.171461 -0.218883 0.952969
0.165378 -0.229093 0.950693
0.170916 -0.222699 0.388103
0.164135 -0.227770 0.394233
0.157622 -0.233295 0.388007
0.164531 -0.228054 0.383605
0.172430 -0.203660 0.958886
0.172511 -0.187470 0.961573
0.164177 -0.194990 -0.180818
0.161707 -0.192283 -0.169224
0.156070 -0.198693 -0.173714
0.167779 -0.186797 -0.173657
0.172576 -0.171183 0.961912
0.170971 -0.168866 -0.155506
0.166384 -0.181411 -0.161168
0.172549 -0.154761 0.962317
0.164639 -0.162796 -0.145423
0.161261 -0.160614 -0.134412
0.155823 -0.167329 -0.139136
0.171042 -0.156711 -0.138969
0.172488 -0.138335 0.962711
0.172443 -0.122057 0.962098
0.172425 -0.105778 0.961761
0.174041 -0.087788 0.963811
0.174048 -0.074670 0.963913
0.180607 -0.080944 0.966341
0.180607 -0.081202 0.966341
0.172443 -0.057222 0.960989
0.172440 -0.040925 0.960101
0.165978 -0.051707 0.922868
0.165959 -0.051647 0.919343
0.166112 -0.040457 0.919184
0.166131 -0.040533 0.923039
0.172399 -0.024136 0.961572
0.164915 -0.030888 0.919966
0.159104 -0.030852 0.919954
0.164927 -0.030922 0.921593
0.165985 -0.033702 -0.147552
0.166002 -0.033687 -0.143680
0.169299 -0.022989 -0.148909
0.169310 -0.022944 -0.141537
0.173414 -0.008009 0.963800
0.171845 -0.006657 -0.155770
0.170273 -0.006865 -0.142196
0.170094 0.007190 0.964319
0.179583 -0.002954 0.966479
0.178295 0.007125 0.966678
0.168049 0.008244 -0.144686
0.176657 0.008132 -0.157937
0.168821 -0.001249 -0.169219
0.174625 0.008046 -0.175219
0.167840 0.023163 0.965088
0.176015 0.023132 0.967207
0.166997 0.024208 -0.146375
0.175517 0.024629 -0.158172
0.169430 0.013050 -0.185877
0.170746 0.025180 -0.187518
0.178507 0.025218 -0.174809
0.165633 0.035897 0.965672
0.171629 0.040625 0.967799
0.170668 0.041710 -0.157003
0.165944 0.041395 -0.147426
0.173092 0.042051 -0.172794
0.168402 0.041920 -0.186466
0.172454 0.055835 0.970260
0.164862 0.051457 -0.148309
0.167588 0.057503 -0.156449
0.172172 0.058506 -0.172512
0.168286 0.057487 -0.188306
0.172414 0.072071 0.972380
0.174530 0.074740 -0.173172
0.168575 0.074424 -0.160589
0.173063 0.074276 -0.187884
0.165280 0.061885 -0.197557
0.167288 0.073458 -0.203329
0.172339 0.056345 -0.318248
0.156268 0.056505 -0.331992
0.162229 0.062182 -0.324835
0.166042 0.051453 -0.327797
0.173739 0.089931 0.970125
0.173960 0.091015 -0.172753
0.167696 0.090780 -0.161651
0.174521 0.090774 -0.187605
0.170340 0.090248 -0.203418
0.165522 0.078546 -0.216994
0.166228 0.089940 -0.220439
0.167929 0.104873 0.967775
0.166359 0.107161 -0.161843
0.172281 0.107257 -0.171784
0.174461 0.107331 -0.187090
0.171172 0.107156 -0.203388
0.166397 0.105352 -0.223448
0.171944 0.088976 -0.303293
0.162687 0.094768 -0.309762
0.165080 0.083914 -0.311793
0.164136 0.113182 0.966259
0.167073 0.123285 -0.160942
0.173734 0.123194 -0.171506
0.176738 0.123008 -0.187502
0.174292 0.122825 -0.204229
0.170473 0.122685 -0.221827
0.164400 0.109764 -0.231734
0.166231 0.122657 -0.232285
0.165664 0.114972 0.959230
0.159486 0.125351 0.944471
0.167752 0.117170 0.944730
0.168783 0.121476 0.927521
0.161525 0.127059 0.931968
0.164048 0.129669 0.921090
0.168094 0.139181 -0.160702
0.176851 0.139625 -0.173354
0.179630 0.136445 -0.188536
0.178296 0.138963 -0.205249
0.176983 0.139496 -0.223474
0.172330 0.139287 -0.237179
0.164529 0.114491 -0.296905
0.161317 0.125536 -0.291199
0.170137 0.119387 -0.285080
0.158446 0.140320 0.912141
0.166029 0.132109 0.912165
0.171368 0.136836 0.893409
0.161967 0.143782 0.900544
0.165134 0.147203 0.888723
0.172857 0.154566 -0.173804
0.166676 0.150623 -0.162400
0.174029 0.154907 -0.206669
0.173008 0.154073 -0.222682
0.167583 0.153295 -0.238303
0.167671 0.137087 -0.270196
0.161230 0.142118 -0.274928
0.164895 0.131106 -0.280275
0.158631 0.156716 0.878364
0.166360 0.148526 0.877853
0.160422 0.158515 0.861879
0.167779 0.150303 0.861491
0.169998 0.152363 0.844716
0.162339 0.160566 0.844917
0.163457 0.161796 0.834971
0.172561 0.154465 0.829267
0.165219 0.163471 0.823705
0.178849 0.163109 -0.189783
0.178925 0.157599 -0.189639
0.172792 0.169811 -0.174255
0.173334 0.165512 -0.207298
0.166471 0.153433 -0.254375
0.160815 0.158416 -0.258457
0.164878 0.147396 -0.264473
0.167028 0.165083 0.811118
0.157778 0.173291 0.810974
0.158507 0.174229 0.795276
0.168257 0.165987 0.795329
0.167268 0.165094 0.780433
0.157542 0.173296 0.780436
0.157118 0.172674 0.764790
0.166488 0.164490 0.764789
0.167450 0.165199 0.748359
0.158075 0.173391 0.748347
0.168235 0.165790 0.731813
0.158788 0.173992 0.731783
0.168124 0.165771 0.715146
0.158686 0.173981 0.715099
0.158835 0.174175 0.698598
0.168445 0.165962 0.698640
0.159556 0.174849 0.682383
0.169674 0.166638 0.682393
0.170387 0.167107 0.665996
0.160017 0.175320 0.665982
0.170324 0.167233 0.649406
0.160106 0.175453 0.649381
0.160580 0.175838 0.632989
0.170818 0.167616 0.632999
0.161363 0.176475 0.616737
0.173447 0.167120 0.616045
0.172075 0.168836 0.600182
0.161811 0.176862 0.600210
0.162080 0.177102 0.583533
0.172011 0.169195 0.583511
0.162960 0.177828 0.567136
0.172020 0.170457 0.567134
0.170696 0.173180 0.551727
0.163714 0.178456 0.558027
0.164306 0.178891 0.546863
0.172033 0.167429 -0.221902
0.160123 0.173629 -0.240038
0.166112 0.165512 -0.240043
0.164384 0.162913 -0.248518
0.164394 0.178983 0.533107
0.164591 0.179208 0.515590
0.166009 0.180313 0.499877
0.167233 0.181244 0.484673
0.156686 0.189475 0.484385
0.166983 0.181114 0.468611
0.157008 0.189347 0.468302
0.156884 0.189175 0.451924
0.166683 0.180928 0.452050
0.167080 0.181139 0.435224
0.156793 0.189394 0.435198
0.167464 0.181363 0.418636
0.156978 0.189602 0.418599
0.157279 0.189319 0.402387
0.167070 0.181101 0.402480
0.157906 0.189309 0.386337
0.166969 0.181107 0.386426
0.168071 0.182101 0.370333
0.158960 0.190300 0.370281
0.168560 0.182679 0.353831
0.159514 0.190886 0.353813
0.159507 0.190687 0.336885
0.168091 0.182457 0.336859
0.159662 0.190613 0.320483
0.168232 0.182362 0.320472
0.159903 0.190775 0.304608
0.169169 0.182535 0.304654
0.169314 0.182354 0.288425
0.159641 0.190587 0.288411
0.159036 0.190201 0.272021
0.168659 0.181951 0.271936
0.158868 0.190277 0.255753
0.168582 0.182027 0.255644
0.168819 0.182297 0.239426
0.158906 0.190530 0.239500
0.168663 0.182299 0.222908
0.158763 0.190527 0.223007
0.158647 0.190420 0.206431
0.168364 0.182173 0.206275
0.158872 0.190510 0.190061
0.168409 0.182266 0.189937
0.168560 0.182440 0.173673
0.159155 0.190662 0.173735
0.168411 0.182332 0.157128
0.159111 0.190558 0.157205
0.159280 0.190498 0.140724
0.168319 0.182260 0.140627
0.168720 0.182643 0.124422
0.160034 0.190866 0.124472
0.160560 0.191107 0.108140
0.168950 0.182898 0.108134
0.168520 0.182545 0.091522
0.160360 0.190766 0.091539
0.160287 0.190543 0.075074
0.168237 0.182309 0.075044
0.168494 0.182603 0.058867
0.160739 0.190814 0.058885
0.168406 0.182586 0.042508
0.160797 0.190785 0.042510
0.167747 0.182016 0.025843
0.160214 0.190241 0.025866
0.160246 0.190025 0.009450
0.167409 0.181792 0.009425
0.167486 0.182082 -0.006713
0.161034 0.190289 -0.006731
0.167137 0.181848 -0.023174
0.161026 0.190046 -0.023201
0.160301 0.189369 -0.039950
0.166498 0.181157 -0.039974
0.160285 0.189573 -0.056537
0.166933 0.181359 -0.056650
0.160799 0.190384 -0.072978
0.168158 0.182191 -0.073165
0.168519 0.182523 -0.089696
0.160994 0.190718 -0.089628
0.160873 0.190834 -0.106480
0.168678 0.182599 -0.106267
0.160622 0.191374 -0.123411
0.172536 0.182226 -0.124552
0.172111 0.183620 -0.139887
0.159993 0.191620 -0.140106
0.158701 0.190199 -0.156397
0.172151 0.181471 -0.155933
0.158403 0.186058 -0.174230
0.166704 0.180063 -0.170000
0.181667 -0.229430 0.907333
0.179875 -0.227685 0.919392
0.174626 -0.235438 0.912709
0.187700 -0.222424 0.912792
0.188433 -0.224767 0.847631
0.180509 -0.228559 0.854218
0.176528 -0.236010 0.848129
0.182870 -0.230218 0.843784
0.181642 -0.212725 0.950844
0.187735 -0.202359 0.953193
0.188836 -0.187170 0.959314
0.189138 -0.169895 0.964078
0.183745 -0.154527 0.965243
0.191876 -0.154331 0.967815
0.194705 -0.163694 0.966355
0.189121 -0.153226 -0.154285
0.175551 -0.159386 -0.149894
0.182000 -0.164066 -0.161356
0.181670 -0.138159 0.965429
0.189828 -0.137949 0.970172
0.182601 -0.146607 -0.124184
0.180497 -0.145679 -0.113310
0.173983 -0.151711 -0.119785
0.189744 -0.138980 -0.118619
0.181831 -0.121906 0.965286
0.190011 -0.121671 0.970601
0.182331 -0.105649 0.965237
0.190494 -0.105437 0.969338
0.181686 -0.092156 0.965804
0.187792 -0.087600 0.968479
0.187900 -0.074510 0.968577
0.181876 -0.070308 0.965820
0.183559 -0.057221 0.964789
0.191718 -0.057078 0.968807
0.184064 -0.040984 0.964363
0.192232 -0.040877 0.968841
0.182812 -0.024207 0.965137
0.190998 -0.024178 0.969452
0.181640 -0.013024 0.965791
0.187804 -0.008112 0.969692
0.188883 0.007067 0.971994
0.188882 0.023045 0.973729
0.181095 0.013490 -0.170252
0.181105 0.013312 -0.164515
0.181122 0.019446 -0.170191
0.181123 0.019282 -0.164487
0.190175 0.039622 0.977139
0.190138 0.054542 0.976994
0.196486 0.045145 0.982495
0.196476 0.048284 0.982496
0.188783 0.071787 0.971305
0.187761 0.054532 -0.301601
0.178616 0.061319 -0.308713
0.181279 0.050421 -0.311640
0.183320 0.085365 0.969280
0.187906 0.088381 0.958856
0.180023 0.096308 0.965705
0.174934 0.104335 0.960357
0.181682 0.098465 0.956392
0.184258 0.088639 -0.287396
0.178819 0.094073 -0.293972
0.181135 0.083229 -0.296557
0.175966 0.108481 0.944727
0.182950 0.100231 0.944629
0.178106 0.110893 0.928909
0.184044 0.102680 0.928908
0.188012 0.105053 0.912771
0.179851 0.112680 0.920241
0.182018 0.115402 0.908922
0.175193 0.121073 0.913583
0.183712 0.121043 0.893205
0.177596 0.126367 0.898322
0.180690 0.129859 0.886174
0.188451 0.121868 -0.253807
0.176119 0.124848 -0.270403
0.179270 0.128732 -0.260614
0.182873 0.116677 -0.269821
0.180139 0.113265 -0.278197
0.181812 0.131077 0.877512
0.174588 0.139325 0.877603
0.176023 0.141419 0.861315
0.183719 0.133173 0.861467
0.178230 0.143713 0.844577
0.185437 0.135479 0.844806
0.186482 0.138896 0.828779
0.179901 0.145245 0.834734
0.181534 0.147115 0.823702
0.180667 0.145131 -0.179916
0.187196 0.144463 -0.190507
0.186146 0.153713 -0.189430
0.180656 0.147820 -0.180072
0.187469 0.143036 -0.205198
0.181096 0.154163 -0.205758
0.184810 0.135199 -0.238199
0.188174 0.138564 -0.223421
0.182358 0.132084 -0.249902
0.175482 0.137720 -0.255418
0.182717 0.148696 0.811330
0.175242 0.156959 0.811199
0.176491 0.158135 0.795409
0.183637 0.149877 0.795596
0.175518 0.157612 0.780462
0.183423 0.149405 0.780562
0.183061 0.148841 0.764784
0.174750 0.157040 0.764768
0.183708 0.149597 0.748327
0.175718 0.157813 0.748334
0.176501 0.158491 0.731779
0.184296 0.150262 0.731761
0.176375 0.158375 0.715121
0.184306 0.150146 0.715092
0.184721 0.150476 0.698576
0.176684 0.158714 0.698622
0.185877 0.151692 0.682302
0.177912 0.159926 0.682376
0.178629 0.160629 0.665963
0.186563 0.152399 0.665890
0.186596 0.152360 0.649302
0.178557 0.160587 0.649387
0.186798 0.152807 0.632882
0.179040 0.161032 0.632982
0.185911 0.155346 0.615919
0.179820 0.161737 0.621007
0.180482 0.162323 0.610099
0.180535 0.162385 0.600177
0.180618 0.162489 0.583524
0.181273 0.162995 0.567177
0.182224 0.163698 0.550723
0.172609 0.172001 0.532985
0.182346 0.163785 0.532949
0.172794 0.171993 0.515380
0.182260 0.163753 0.515311
0.174255 0.173048 0.499654
0.183282 0.164793 0.499685
0.184229 0.165824 0.484813
0.175470 0.174053 0.484676
0.184249 0.165678 0.468955
0.175228 0.173893 0.468773
0.184342 0.165384 0.452380
0.174929 0.173612 0.452170
0.184894 0.165778 0.435367
0.175318 0.174024 0.435210
0.175698 0.174312 0.418580
0.185163 0.166077 0.418673
0.175294 0.173892 0.402569
0.184743 0.165668 0.402742
0.184537 0.165465 0.386816
0.175187 0.173690 0.386579
0.184986 0.166091 0.370643
0.176294 0.174316 0.370450
0.176791 0.174504 0.353953
0.184916 0.166274 0.354176
0.176314 0.173980 0.337051
0.184221 0.165738 0.337418
0.176443 0.174231 0.320621
0.184562 0.165967 0.320993
0.185605 0.167189 0.304894
0.177382 0.175437 0.304679
0.185869 0.167569 0.288511
0.177525 0.175798 0.288433
0.176871 0.175121 0.271875
0.185599 0.166866 0.271928
0.176793 0.175016 0.255546
0.185979 0.166748 0.255582
0.187002 0.167096 0.239365
0.177033 0.175354 0.239363
0.176881 0.175131 0.222849
0.187262 0.166875 0.222897
0.186967 0.166357 0.206349
0.176575 0.174629 0.206211
0.176617 0.174636 0.189861
0.187330 0.166354 0.190014
0.187979 0.166504 0.173723
0.176770 0.174783 0.173634
0.176624 0.174513 0.157108
0.188147 0.166232 0.157233
0.189941 0.165296 0.140878
0.176531 0.174309 0.140607
0.188449 0.166663 0.124490
0.176933 0.174655 0.124403
0.177164 0.174781 0.108129
0.188454 0.167004 0.108176
0.176733 0.174238 0.091540
0.188413 0.166392 0.091667
0.188392 0.165977 0.075217
0.176447 0.173900 0.075059
0.188428 0.166293 0.058936
0.176707 0.174136 0.058853
0.176624 0.174008 0.042502
0.188437 0.166141 0.042544
0.175965 0.173286 0.025856
0.188384 0.165227 0.025978
0.188370 0.164551 0.009568
0.175621 0.172725 0.009437
0.188401 0.164136 -0.006663
0.175708 0.172320 -0.006718
0.175361 0.171610 -0.023157
0.189394 0.163174 -0.023085
0.185112 0.162741 -0.039778
0.174719 0.170958 -0.039932
0.175157 0.172002 -0.056690
0.188057 0.163739 -0.055234
0.176388 0.174053 -0.073327
0.188456 0.166812 -0.073066
0.176738 0.174657 -0.089782
0.188452 0.167547 -0.089482
0.176894 0.174879 -0.106225
0.188419 0.167771 -0.105856
0.178270 0.176427 -0.119871
0.186806 0.172271 -0.124342
0.180359 0.178655 -0.130893
0.187122 0.173105 -0.155724
0.177662 0.176524 -0.161164
0.188514 0.166859 -0.172602
0.187014 0.163021 -0.187967
0.180696 0.162672 -0.206359
0.180549 0.162510 -0.215020
0.180705 0.178848 -0.139598
0.180792 0.178880 -0.149793
0.200365 -0.204141 0.928527
0.195149 -0.210104 0.933698
0.189277 -0.216734 0.928537
0.197188 -0.212084 0.922758
0.197383 -0.196086 0.950742
0.200132 -0.187014 0.953308
0.204590 -0.169493 0.957701
0.200485 -0.154174 0.967879
0.197669 -0.163626 0.966371
0.206004 -0.137961 0.970169
0.201310 -0.138878 -0.153666
0.196235 -0.145247 -0.147104
0.197697 -0.147176 -0.158880
0.205273 -0.121391 0.973658
0.198426 -0.132280 -0.124015
0.196896 -0.129265 -0.113109
0.200480 -0.122722 -0.119653
0.205254 -0.105122 0.975162
0.206302 -0.088656 0.978203
0.206299 -0.072284 0.978468
0.212498 -0.077253 0.983315
0.212498 -0.082991 0.983281
0.205256 -0.056793 0.975939
0.205291 -0.040670 0.975791
0.206533 -0.023686 0.978460
0.204307 -0.008241 0.978599
0.212522 -0.008204 0.982850
0.212840 -0.017845 0.983049
0.206537 0.007518 0.980107
0.212864 0.002687 0.982610
0.205230 0.022957 0.979102
0.204530 0.039881 0.975856
0.197312 0.048276 0.982498
0.197323 0.045130 0.982497
0.200154 0.054483 0.974384
0.198031 0.066085 0.968801
0.198750 0.054211 -0.285477
0.194252 0.058718 -0.290593
0.196557 0.047717 -0.294461
0.199297 0.071711 0.957678
0.194096 0.076991 0.961658
0.196769 0.080423 0.951711
0.199418 0.071807 -0.269451
0.191410 0.071847 -0.285673
0.194787 0.077060 -0.274920
0.197219 0.066051 -0.279362
0.191134 0.089569 0.944359
0.197230 0.081300 0.944111
0.192256 0.091433 0.928857
0.198029 0.083201 0.928822
0.194041 0.093924 0.916526
0.199323 0.088473 0.911518
0.197124 0.097380 0.905384
0.198317 0.099726 0.894987
0.192517 0.107935 0.894756
0.194889 0.110924 0.883282
0.200802 0.105200 0.878395
0.197844 0.114367 0.873203
0.190189 0.120435 0.877925
0.198641 0.104141 -0.252711
0.190097 0.104117 -0.268033
0.194590 0.108990 -0.257843
0.196696 0.098043 -0.261265
0.191820 0.124371 0.861955
0.199424 0.116135 0.862441
0.193533 0.125919 0.845189
0.200448 0.117694 0.845573
0.200934 0.119305 0.828373
0.195253 0.127521 0.828182
0.196342 0.128893 0.818172
0.201764 0.122543 0.812371
0.191810 0.136416 0.812177
0.197280 0.130124 0.807262
0.199685 0.118312 -0.236917
0.192859 0.126508 -0.237269
0.195160 0.129180 -0.227847
0.202331 0.123009 -0.221348
0.197538 0.114947 -0.247239
0.197922 0.131018 0.795967
0.191790 0.139256 0.795796
0.198133 0.131489 0.780757
0.191623 0.139709 0.780661
0.198219 0.131702 0.764808
0.191284 0.139928 0.764775
0.191927 0.140396 0.748301
0.198588 0.132177 0.748321
0.192510 0.140558 0.731700
0.198704 0.132342 0.731708
0.192523 0.140504 0.715006
0.198612 0.132277 0.714979
0.198892 0.132745 0.698447
0.192935 0.140982 0.698485
0.194082 0.142213 0.682215
0.199665 0.133990 0.682209
0.194769 0.143007 0.665782
0.200060 0.134790 0.665786
0.194813 0.143105 0.649179
0.199930 0.134877 0.649129
0.200037 0.135126 0.632701
0.195013 0.143352 0.632752
0.195401 0.143811 0.616444
0.200375 0.135605 0.616449
0.195772 0.144351 0.599910
0.200579 0.136149 0.599917
0.200758 0.136699 0.583248
0.196094 0.144905 0.583317
0.200309 0.138965 0.565483
0.196393 0.145372 0.569961
0.190767 0.152346 0.565654
0.196693 0.145775 0.559271
0.204923 0.138072 -0.188198
0.199795 0.135049 -0.204518
0.198060 0.131549 -0.216849
0.190424 0.154305 0.550706
0.196888 0.146080 0.550680
0.197057 0.146356 0.532976
0.190551 0.154568 0.532952
0.197141 0.146502 0.515360
0.190465 0.154732 0.515279
0.191510 0.155425 0.499633
0.197519 0.147155 0.499715
0.197951 0.147909 0.484827
0.192463 0.156180 0.484799
0.198148 0.148304 0.469101
0.192498 0.156513 0.469046
0.198276 0.148616 0.452625
0.192593 0.156806 0.452529
0.193124 0.157297 0.435380
0.198544 0.149084 0.435288
0.198928 0.149579 0.418467
0.193381 0.157818 0.418620
0.199247 0.149768 0.402906
0.192962 0.158004 0.402841
0.192746 0.157896 0.386991
0.199167 0.149660 0.387151
0.198659 0.149402 0.370915
0.193166 0.157658 0.370798
0.193093 0.157043 0.354393
0.198160 0.148794 0.354531
0.197771 0.147928 0.338071
0.192420 0.156163 0.337807
0.197757 0.148190 0.321594
0.192758 0.156441 0.321357
0.193792 0.157672 0.305024
0.198179 0.149410 0.305068
0.194070 0.158172 0.288541
0.198391 0.149916 0.288500
0.198435 0.149987 0.271929
0.193809 0.158244 0.271963
0.199026 0.150970 0.255547
0.194178 0.159225 0.255592
0.195185 0.160676 0.239349
0.199880 0.152440 0.239290
0.195445 0.161012 0.222938
0.199944 0.152780 0.222941
0.199590 0.152445 0.206549
0.195152 0.160682 0.206476
0.199724 0.152765 0.190165
0.195502 0.161000 0.190120
0.196140 0.161656 0.173777
0.199981 0.153430 0.173765
0.199957 0.153648 0.157346
0.196316 0.161868 0.157316
0.199325 0.155473 0.141010
0.196397 0.161955 0.146450
0.196712 0.162253 0.135562
0.198491 0.153339 -0.039555
0.193286 0.161576 -0.039666
0.195511 0.161990 -0.028602
0.198215 0.155535 -0.023055
0.199039 0.155275 -0.055009
0.193257 0.161594 -0.048818
0.197216 0.162749 -0.059824
0.196956 0.162485 0.124578
0.197178 0.162698 0.108233
0.197062 0.162600 0.091788
0.196977 0.162531 0.075368
0.197102 0.162663 0.059019
0.197074 0.162641 0.042596
0.196824 0.162401 0.026084
0.196698 0.162296 0.009679
0.196695 0.162328 -0.006625
0.196655 0.162312 -0.017523
0.197900 0.163341 -0.072832
0.198057 0.163453 -0.089253
0.198044 0.163406 -0.105635
0.198844 0.164088 -0.122623
0.188847 0.173111 -0.139821
0.199621 0.164841 -0.139740
0.199689 0.165094 -0.156001
0.198376 0.163881 -0.172013
0.197014 0.162518 -0.180872
0.213775 -0.196675 0.872266
0.212833 -0.194776 0.883423
0.208731 -0.202769 0.877062
0.215818 -0.188343 0.877927
0.214282 -0.170110 0.911080
0.211846 -0.175192 0.915740
0.210024 -0.185794 0.910976
0.213190 -0.179424 0.904602
0.213929 -0.164468 0.950996
0.208572 -0.154126 0.962051
0.215486 -0.154102 0.953986
0.211912 -0.143568 0.964991
0.217384 -0.137894 0.959175
0.214278 -0.132608 0.967408
0.215477 -0.121303 0.969322
0.217207 -0.104969 0.972407
0.214081 -0.115073 -0.159975
0.212068 -0.110099 -0.148951
0.209880 -0.120777 -0.154559
0.216090 -0.104654 -0.154336
0.218463 -0.088463 0.976597
0.214504 -0.099168 -0.141554
0.213079 -0.095918 -0.130570
0.210675 -0.104664 -0.136776
0.217473 -0.089570 -0.136660
0.213968 -0.082967 0.983330
0.213970 -0.077237 0.983364
0.221509 -0.071265 0.975486
0.222289 -0.057833 0.972964
0.219757 -0.040490 0.973871
0.219472 -0.023616 0.976622
0.213951 -0.017837 0.983081
0.214015 -0.008203 0.982881
0.213745 0.002673 0.982619
0.217328 0.007461 0.976231
0.216222 0.022922 0.972969
0.214521 0.034546 0.970048
0.216205 0.039732 0.960209
0.211640 0.045484 0.965059
0.208141 0.055210 0.959855
0.214121 0.049465 0.955686
0.214826 0.050830 0.944983
0.209628 0.058965 0.944704
0.215334 0.051654 0.928950
0.210212 0.059770 0.928897
0.211365 0.061406 0.915292
0.215764 0.055843 0.910588
0.213178 0.063930 0.904056
0.207881 0.070467 0.910737
0.217394 0.057168 -0.239049
0.210951 0.060628 -0.253724
0.212729 0.063522 -0.245254
0.215146 0.052382 -0.254102
0.207130 0.054975 -0.269143
0.213778 0.048986 -0.263408
0.210595 0.074996 0.895314
0.214117 0.066744 0.894914
0.215779 0.072690 0.878229
0.212418 0.078630 0.884025
0.209546 0.087932 0.878668
0.213676 0.082077 0.873395
0.211636 0.092927 0.866436
0.214609 0.087866 0.861638
0.207825 0.103502 0.861643
0.213395 0.097163 0.855616
0.214580 0.087905 -0.220443
0.209006 0.087592 -0.235349
0.212070 0.092473 -0.226573
0.213019 0.081290 -0.228613
0.213777 0.098024 0.845839
0.208657 0.106213 0.845766
0.209131 0.107423 0.828543
0.214327 0.099237 0.828628
0.210806 0.109319 0.811887
0.214907 0.101136 0.811942
0.215155 0.102459 0.796324
0.212006 0.110606 0.796292
0.215269 0.102554 0.780971
0.211842 0.110663 0.780932
0.212032 0.111238 0.764814
0.215394 0.103133 0.764830
0.215225 0.103707 0.748367
0.212454 0.111799 0.748356
0.215076 0.103531 0.731802
0.212442 0.111627 0.731782
0.212336 0.111332 0.715009
0.215158 0.103218 0.715066
0.215356 0.103831 0.698561
0.212604 0.111949 0.698491
0.215248 0.106543 0.683153
0.212982 0.112838 0.688991
0.208846 0.119987 0.683064
0.213392 0.113756 0.678254
0.214088 0.102193 -0.215118
0.210787 0.106687 -0.220602
0.212643 0.113271 -0.210387
0.215800 0.107313 -0.204189
0.213435 0.113808 0.665961
0.208278 0.121903 0.665849
0.213237 0.113327 0.649161
0.208162 0.121480 0.649112
0.208271 0.121697 0.632700
0.213342 0.113551 0.632758
0.208599 0.122504 0.616547
0.213736 0.114427 0.616686
0.213849 0.114669 0.600119
0.208805 0.122757 0.599984
0.213827 0.114593 0.583190
0.208999 0.122752 0.583169
0.209453 0.123584 0.566659
0.214323 0.115443 0.566522
0.209944 0.124623 0.550148
0.215007 0.116543 0.549940
0.209987 0.124734 0.532763
0.215059 0.116615 0.532759
0.209921 0.124534 0.515584
0.214853 0.116346 0.515876
0.215049 0.116799 0.500621
0.210329 0.124908 0.500239
0.215478 0.117546 0.485409
0.210765 0.125556 0.485175
0.215940 0.118124 0.468798
0.210984 0.126209 0.468957
0.216590 0.118895 0.451859
0.211355 0.127051 0.452246
0.211938 0.127971 0.435079
0.217473 0.119945 0.435076
0.217771 0.120735 0.418625
0.212538 0.128681 0.418391
0.216471 0.122829 0.401273
0.212953 0.129134 0.405569
0.208456 0.136059 0.401421
0.213228 0.129495 0.395305
0.217069 0.120430 0.370978
0.212243 0.128424 0.370968
0.213031 0.129278 0.383902
0.216265 0.122882 0.388234
0.216656 0.119114 0.354611
0.211269 0.127115 0.354575
0.215824 0.117860 0.337817
0.210775 0.126000 0.337973
0.210543 0.125627 0.321440
0.215455 0.117462 0.321229
0.215282 0.117620 0.304999
0.210514 0.125671 0.305012
0.210509 0.125536 0.288489
0.215044 0.117512 0.288570
0.215065 0.117558 0.272035
0.210585 0.125675 0.271928
0.211210 0.126482 0.255578
0.215157 0.118392 0.255700
0.212214 0.127874 0.239339
0.215310 0.119868 0.239456
0.215460 0.120405 0.223012
0.212535 0.128451 0.222964
0.215563 0.120244 0.206492
0.212431 0.128368 0.206535
0.212732 0.128814 0.190126
0.215574 0.120745 0.190104
0.215115 0.122967 0.174360
0.213066 0.129304 0.180203
0.213278 0.129747 0.169278
0.209148 0.136194 0.174350
0.214489 0.122485 0.092550
0.212459 0.128215 0.075313
0.212674 0.128618 0.087568
0.214645 0.120084 0.075280
0.212575 0.128492 0.058968
0.214824 0.120490 0.058991
0.214776 0.120099 0.042611
0.212322 0.128074 0.042564
0.211514 0.126466 0.026091
0.214345 0.118353 0.026095
0.211189 0.125833 0.009684
0.214157 0.117747 0.009673
0.211438 0.126648 -0.006676
0.214389 0.118814 -0.006657
0.214411 0.118915 -0.023120
0.211428 0.126734 -0.023120
0.211291 0.126371 -0.039639
0.214330 0.118334 -0.039713
0.214759 0.121915 -0.057320
0.211907 0.127459 -0.052480
0.207871 0.136281 -0.057229
0.213224 0.129887 -0.063512
0.215278 0.121721 -0.185670
0.208699 0.121742 -0.204550
0.210447 0.126707 -0.190660
0.214394 0.116609 -0.199431
0.213226 0.129494 0.394604
0.208477 0.136035 0.388434
0.208193 0.138174 0.157343
0.213349 0.129966 0.157353
0.213352 0.130030 0.141007
0.208170 0.138246 0.140993
0.213364 0.130108 0.124642
0.208321 0.138299 0.124620
0.208339 0.138125 0.108208
0.213289 0.129947 0.108233
0.213152 0.129605 0.098630
0.208759 0.136088 0.092579
0.208825 0.139415 -0.072819
0.213645 0.131231 -0.072765
0.214122 0.132711 -0.089195
0.209678 0.140898 -0.089279
0.210201 0.141644 -0.105743
0.214370 0.133442 -0.105673
0.211102 0.142671 -0.123101
0.214652 0.134464 -0.123071
0.211932 0.143661 -0.140418
0.214909 0.135475 -0.140368
0.211843 0.143720 -0.155886
0.215012 0.135545 -0.155732
0.214310 0.132973 -0.170773
0.210159 0.141131 -0.171062
0.213480 0.130373 -0.179574
0.231906 -0.154848 0.863335
0.229178 -0.160821 0.869154
0.226550 -0.169711 0.862661
0.230236 -0.163788 0.857878
0.232711 -0.138294 0.878905
0.229114 -0.144183 0.884019
0.227481 -0.154825 0.879174
0.230886 -0.149918 0.874649
0.232135 -0.122697 0.912783
0.229604 -0.128926 0.918722
0.227014 -0.136613 0.912761
0.230082 -0.130422 0.907471
0.230454 -0.116351 0.939620
0.228989 -0.110706 0.949170
0.227733 -0.121561 0.944177
0.231719 -0.105231 0.944389
0.230321 -0.099819 0.953070
0.227448 -0.088563 0.964295
0.225748 -0.105134 0.958571
0.231605 -0.088640 0.956328
0.232126 -0.071446 0.960965
0.229022 -0.076007 0.967180
0.229853 -0.063860 0.968025
0.229845 -0.065284 0.968044
0.231469 -0.055634 -0.158168
0.228664 -0.055631 -0.149546
0.227776 -0.072254 -0.154245
0.230720 -0.067026 -0.159912
0.231668 -0.057820 0.959715
0.228153 -0.053402 0.965060
0.231662 -0.040456 0.956762
0.227908 -0.040403 0.964736
0.232411 -0.039014 -0.154481
0.229099 -0.044169 -0.148363
0.232193 -0.024157 0.958645
0.228824 -0.024005 0.966529
0.230497 -0.033234 -0.143997
0.228757 -0.028519 -0.132895
0.227562 -0.038901 -0.138302
0.232110 -0.022988 -0.138097
0.231593 -0.008480 0.957542
0.228099 -0.008365 0.965180
0.226489 0.007325 0.959624
0.230354 0.002366 0.954640
0.228962 0.012694 0.944729
0.230873 0.004843 0.944725
0.229450 0.014199 0.928767
0.231333 0.006399 0.928784
0.229685 0.015107 0.920305
0.232996 0.009123 0.913857
0.228113 0.024505 0.913710
0.231105 0.019957 0.909228
0.232339 0.024417 0.896094
0.229275 0.030404 0.902296
0.230298 0.033104 0.889893
0.226714 0.038844 0.895081
0.231754 0.024125 -0.221087
0.226866 0.024009 -0.235197
0.229387 0.030011 -0.227693
0.229809 0.019172 -0.228579
0.227792 0.043595 0.876427
0.231167 0.035395 0.877057
0.228898 0.045778 0.864745
0.231803 0.039874 0.860082
0.230043 0.048247 0.854059
0.226367 0.054491 0.860246
0.230687 0.038446 0.108344
0.228964 0.046662 0.108333
0.229236 0.047511 0.121066
0.230606 0.041198 0.125585
0.230419 0.037329 0.091837
0.228770 0.045484 0.091835
0.228826 0.045513 0.075406
0.230392 0.037371 0.075391
0.229133 0.047297 0.059153
0.230760 0.039043 0.059124
0.230865 0.039693 0.042668
0.229282 0.047959 0.042694
0.230538 0.038563 0.025837
0.229161 0.046698 0.025824
0.229294 0.047153 0.009357
0.230604 0.039031 0.009392
0.230939 0.042168 -0.005158
0.229521 0.048492 0.001148
0.229775 0.049359 -0.009590
0.226322 0.055474 -0.005233
0.231367 0.041435 -0.122804
0.229379 0.047421 -0.139763
0.229541 0.047987 -0.129106
0.231533 0.038831 -0.139684
0.229428 0.047821 -0.152206
0.231179 0.041544 -0.156785
0.227693 0.055652 -0.156777
0.229794 0.049456 -0.162010
0.230584 0.050283 0.844006
0.227481 0.058458 0.844469
0.228798 0.061923 0.827987
0.231391 0.053839 0.827742
0.229628 0.063936 0.817697
0.231868 0.057641 0.812134
0.229856 0.064392 0.807072
0.226769 0.070759 0.812214
0.231788 0.053874 0.748347
0.228134 0.062010 0.748342
0.229046 0.063309 0.760846
0.231839 0.057081 0.765684
0.231558 0.052984 0.731849
0.227475 0.061071 0.731821
0.231627 0.052852 0.715264
0.227577 0.061048 0.715243
0.231714 0.053112 0.698803
0.227802 0.061319 0.698781
0.227968 0.061688 0.682491
0.231691 0.053664 0.682537
0.228082 0.061795 0.666034
0.231674 0.053787 0.666060
0.231697 0.053468 0.649243
0.228146 0.061665 0.649336
0.231810 0.053649 0.632867
0.228248 0.061863 0.632921
0.228307 0.062206 0.616745
0.231991 0.054103 0.616848
0.228360 0.062267 0.600277
0.232041 0.054144 0.600409
0.232039 0.054143 0.583740
0.228566 0.062373 0.583626
0.229075 0.063205 0.567094
0.232333 0.055061 0.567196
0.229597 0.064159 0.550598
0.232680 0.056204 0.550704
0.232619 0.055970 0.533803
0.229518 0.063978 0.533769
0.232481 0.055475 0.516796
0.229387 0.063643 0.516901
0.232355 0.057613 0.500520
0.229588 0.063949 0.506138
0.226426 0.071058 0.500910
0.229971 0.064629 0.495454
0.232142 0.057063 0.321931
0.228211 0.061825 0.305169
0.229023 0.063311 0.317294
0.231843 0.053685 0.305192
0.231239 0.052134 0.288563
0.227451 0.060301 0.288670
0.227053 0.059262 0.271691
0.230913 0.050923 0.271192
0.226744 0.058623 0.255175
0.230592 0.050337 0.254581
0.230375 0.050320 0.238842
0.226538 0.058390 0.239164
0.226541 0.058364 0.222813
0.230404 0.050299 0.222636
0.230494 0.050194 0.206298
0.226595 0.058377 0.206375
0.226514 0.058113 0.190204
0.230225 0.050010 0.190207
0.229838 0.049554 0.173972
0.226351 0.057553 0.173961
0.229699 0.048871 0.157128
0.226196 0.056970 0.157263
0.226042 0.056578 0.140618
0.229642 0.048366 0.140370
0.226458 0.054889 0.125622
0.229554 0.048195 0.131539
0.229914 0.049529 -0.022975
0.225502 0.057616 -0.023061
0.229899 0.049074 -0.039575
0.225303 0.057327 -0.039616
0.225763 0.057707 -0.056276
0.230178 0.049447 -0.056266
0.226645 0.058654 -0.072950
0.230712 0.050481 -0.072924
0.230830 0.050577 -0.089159
0.226789 0.058788 -0.089295
0.226528 0.057936 -0.105574
0.230388 0.049673 -0.105303
0.227276 0.055321 -0.123078
0.229922 0.048924 -0.117137
0.230123 0.050296 -0.170726
0.227522 0.058421 -0.171025
0.231164 0.052509 -0.186693
0.228053 0.060598 -0.186756
0.227319 0.060155 -0.203113
0.231233 0.052111 -0.203095
0.224695 0.055299 -0.219468
0.230223 0.049521 -0.212936
0.225709 0.072619 0.796322
0.229882 0.064490 0.796367
0.225687 0.072762 0.780945
0.229803 0.064574 0.780951
0.226010 0.071058 0.765743
0.229714 0.064551 0.771805
0.225969 0.073448 0.484773
0.230261 0.065234 0.484429
0.226704 0.074560 0.468582
0.230588 0.066297 0.468270
0.227402 0.075534 0.452320
0.230761 0.067252 0.452184
0.230855 0.067985 0.436101
0.227799 0.076196 0.435942
0.227955 0.076498 0.419444
0.230891 0.068324 0.419691
0.230895 0.068309 0.402753
0.227903 0.076565 0.402848
0.230932 0.068513 0.386371
0.227988 0.076809 0.386647
0.228074 0.076904 0.370753
0.230944 0.068670 0.370653
0.227801 0.076057 0.354406
0.230679 0.067859 0.354380
0.230116 0.065976 0.337473
0.227149 0.074213 0.337546
0.229745 0.064697 0.327762
0.226547 0.071216 0.321989
0.246064 -0.114609 0.838589
0.245398 -0.111575 0.850973
0.243524 -0.120606 0.844767
0.247414 -0.105992 0.844959
0.248928 -0.090346 0.862428
0.245566 -0.096219 0.868600
0.244482 -0.105644 0.863095
0.246646 -0.100692 0.858081
0.246386 -0.072832 0.888029
0.245004 -0.072728 0.897318
0.243988 -0.088059 0.893393
0.246123 -0.082140 0.886337
0.246703 -0.056500 0.889268
0.244513 -0.056362 0.898200
0.243912 -0.039908 0.897789
0.246711 -0.040007 0.889265
0.247398 -0.059182 0.140815
0.245400 -0.050972 0.141105
0.245929 -0.049200 0.151317
0.247758 -0.055464 0.157009
0.244432 -0.053161 0.124750
0.247070 -0.061348 0.124573
0.243496 -0.054659 0.108405
0.246623 -0.062813 0.108339
0.246210 -0.063751 0.098457
0.243085 -0.057406 0.092500
0.243935 -0.023206 0.894571
0.246389 -0.028529 0.888278
0.246358 -0.043855 0.162353
0.245605 -0.039204 0.157157
0.245975 -0.033007 0.166734
0.246791 -0.039292 0.172940
0.248134 -0.023549 0.880339
0.245734 -0.017600 0.886428
0.244458 -0.007286 0.880530
0.247647 -0.012109 0.875924
0.245307 -0.002315 0.868147
0.248920 -0.007965 0.862889
0.242640 0.005803 0.862516
0.246518 -0.000407 0.857111
0.248188 -0.007407 0.749336
0.245762 -0.001514 0.731918
0.245872 -0.001201 0.744479
0.248805 -0.009075 0.731926
0.248530 -0.009691 0.715299
0.245695 -0.001893 0.715314
0.248557 -0.009918 0.698833
0.245662 -0.002016 0.698842
0.245576 -0.001926 0.682594
0.248975 -0.009600 0.682615
0.245545 -0.001943 0.666196
0.249050 -0.009618 0.666235
0.248719 -0.010043 0.649679
0.245588 -0.002100 0.649620
0.248923 -0.009570 0.633306
0.245759 -0.001674 0.633255
0.245960 -0.001034 0.621778
0.248942 -0.006933 0.616636
0.243317 0.005647 0.616505
0.246128 -0.000519 0.610884
0.248968 -0.006978 0.534858
0.246037 -0.000688 0.540420
0.246035 -0.000731 0.548276
0.249020 -0.006889 0.552804
0.243305 0.005881 0.534479
0.246151 -0.000558 0.529241
0.247630 -0.007980 0.321005
0.244864 -0.003037 0.305032
0.245570 -0.001904 0.316561
0.247791 -0.010996 0.304962
0.244263 -0.004083 0.288680
0.247626 -0.012081 0.288693
0.247394 -0.012917 0.271955
0.243994 -0.004775 0.271988
0.247399 -0.013015 0.255714
0.243783 -0.004852 0.255706
0.243657 -0.004609 0.239603
0.247516 -0.012707 0.239676
0.247062 -0.013906 0.222899
0.243312 -0.005739 0.222924
0.246314 -0.015923 0.205810
0.242774 -0.007655 0.206045
0.242432 -0.007973 0.189930
0.246120 -0.016135 0.189762
0.242153 -0.007789 0.174007
0.246053 -0.015799 0.174038
0.245918 -0.015988 0.165872
0.242026 -0.009714 0.159178
0.246925 0.000952 0.845476
0.243636 0.009011 0.845057
0.247351 0.003532 0.827432
0.244970 0.011651 0.827345
0.247552 0.004439 0.810729
0.245408 0.012552 0.810785
0.245148 0.011752 0.795440
0.247435 0.003673 0.795455
0.244714 0.010562 0.780580
0.246850 0.002396 0.780633
0.246165 0.000131 0.764837
0.243936 0.008363 0.764798
0.245956 -0.001011 0.755442
0.243720 0.005504 0.749309
0.246176 -0.000506 0.600492
0.242784 0.007437 0.600398
0.246203 -0.000623 0.583775
0.242875 0.007478 0.583698
0.246151 -0.000717 0.567382
0.242851 0.007353 0.567181
0.243319 0.005691 0.552386
0.246094 -0.000770 0.559152
0.246179 -0.000528 0.518028
0.242790 0.007634 0.517762
0.242763 0.007617 0.501299
0.246206 -0.000477 0.501793
0.242806 0.007664 0.484938
0.246258 -0.000356 0.485556
0.246344 -0.000063 0.468832
0.243244 0.008082 0.468653
0.246463 0.000320 0.452141
0.243465 0.008588 0.452410
0.243352 0.008824 0.436213
0.246595 0.000625 0.435923
0.243438 0.009114 0.419827
0.246730 0.000995 0.419607
0.243721 0.009600 0.402987
0.246808 0.001425 0.402794
0.246839 0.001793 0.386593
0.243951 0.009939 0.386647
0.244115 0.010118 0.370818
0.246849 0.002153 0.370857
0.246691 0.001718 0.354511
0.244107 0.009666 0.354497
0.243849 0.008580 0.337607
0.246406 0.000451 0.337333
0.246197 -0.000414 0.326890
0.243447 0.006080 0.321592
-0.254119 -0.071643 -0.155295
-0.221562 -0.249781 0.715441
-0.221397 -0.234716 0.534657
-0.205089 -0.251602 0.567605
-0.205046 -0.220354 0.255606
-0.205021 -0.219627 0.239438
-0.205028 -0.218367 0.222995
-0.188878 -0.268676 0.928249
-0.188808 -0.271087 0.698889
-0.188816 -0.270500 0.682638
-0.188818 -0.269687 0.666224
-0.188811 -0.268671 0.649597
-0.188804 -0.267550 0.633212
-0.188799 -0.266283 0.617012
-0.188797 -0.265303 0.600548
-0.188681 -0.235657 0.305187
-0.188669 -0.234154 0.288676
-0.188670 -0.221513 0.140958
-0.188664 -0.220461 0.124651
-0.188666 -0.219281 0.108297
-0.188701 -0.217701 0.091775
-0.188716 -0.216577 0.075337
-0.188704 -0.203065 -0.171514
-0.188700 -0.149760 -0.265195
-0.172311 -0.285093 0.894032
-0.172313 -0.282830 0.764685
-0.172384 -0.282284 0.748377
-0.172425 -0.281994 0.731942
-0.172417 -0.271435 0.567653
-0.172404 -0.269989 0.551374
-0.172370 -0.269041 0.534695
-0.172345 -0.268365 0.517763
-0.172353 -0.267583 0.501341
-0.172358 -0.266822 0.485161
-0.172352 -0.266240 0.468556
-0.172346 -0.265627 0.452048
-0.172362 -0.251467 0.338011
-0.172217 -0.236445 0.206455
-0.172223 -0.234648 0.190151
-0.172220 -0.233208 0.173870
-0.172291 -0.221514 0.026012
-0.172305 -0.220496 0.009608
-0.172288 -0.220495 -0.006517
-0.172282 -0.219508 -0.022944
-0.172291 -0.217571 -0.039726
-0.172289 -0.215872 -0.056905
-0.172262 -0.214706 -0.074225
-0.172213 -0.214146 -0.091059
-0.172194 -0.213713 -0.107031
-0.165531 0.122965 -0.193562
-0.169199 0.138341 -0.204189
-0.167837 0.138557 -0.191812
-0.169018 0.154500 -0.192472
-0.167526 0.166041 -0.194239
-0.155799 -0.296278 0.862103
-0.155880 -0.296142 0.845807
-0.155949 -0.296225 0.828964
-0.155877 -0.297297 0.812481
-0.155784 -0.297041 0.796523
-0.155785 -0.294667 0.784905
-0.155829 -0.291581 0.776960
-0.155919 -0.283354 0.942654
-0.156001 -0.285294 0.928384
-0.155923 -0.287468 0.912102
-0.155867 -0.288797 0.764683
-0.155899 -0.288141 0.748382
-0.155925 -0.288006 0.731964
-0.155963 -0.286970 0.715446
-0.155977 -0.286134 0.699023
-0.155942 -0.285673 0.682729
-0.155938 -0.284837 0.666315
-0.155975 -0.283613 0.649722
-0.155973 -0.282645 0.633322
-0.155931 -0.281838 0.617091
-0.155937 -0.280788 0.600656
-0.155926 -0.272434 0.451992
-0.155944 -0.271469 0.436112
-0.155940 -0.269670 0.419763
-0.155909 -0.266700 0.402415
-0.155918 -0.264686 0.386138
-0.155939 -0.263885 0.370867
-0.155847 -0.254074 0.288551
-0.155818 -0.252081 0.271534
-0.155774 -0.249617 0.255149
-0.155724 -0.246871 0.239268
-0.155716 -0.244873 0.227303
-0.155744 -0.243518 0.218963
-0.155763 -0.241683 0.206324
-0.155769 -0.240305 0.190120
-0.155760 -0.239468 0.173904
-0.155774 -0.237820 0.157305
-0.155792 -0.236010 0.140748
-0.155781 -0.234730 0.124557
-0.155780 -0.233325 0.108297
-0.155819 -0.231260 0.091683
-0.155833 -0.229758 0.075229
-0.155782 -0.229134 0.059079
-0.155744 -0.228333 0.047016
-0.155760 -0.227352 0.038704
-0.155789 -0.226006 0.025847
-0.155802 -0.224687 0.009421
-0.155775 -0.223814 -0.006556
-0.155774 -0.222300 -0.023001
-0.155794 -0.220199 -0.039976
-0.155770 -0.217762 -0.057380
-0.155715 -0.215236 -0.074709
-0.155529 -0.213137 -0.090807
-0.159809 -0.213104 -0.107039
-0.151603 -0.207855 -0.106894
-0.149939 -0.209828 -0.095886
-0.158240 -0.212866 -0.122084
-0.150028 -0.208940 -0.121982
-0.155930 -0.216568 -0.154544
-0.155953 -0.218751 -0.171263
-0.155978 -0.218355 -0.187247
-0.150020 -0.040190 -0.143831
-0.151926 -0.023384 -0.143743
-0.155886 -0.023806 -0.352555
-0.151063 -0.007537 -0.145447
-0.148788 0.007427 -0.147977
-0.148049 0.015665 -0.148856
-0.156073 0.039787 -0.350959
-0.155981 0.123120 -0.189507
-0.154672 0.153999 -0.184462
-0.148142 0.148408 -0.179815
-0.156290 0.171140 -0.191509
-0.139300 -0.299630 0.876833
-0.139308 -0.301298 0.861404
-0.139386 -0.300938 0.845362
-0.139444 -0.300073 0.828769
-0.139379 -0.300386 0.812255
-0.139315 -0.299743 0.796248
-0.139379 -0.283377 0.942707
-0.139458 -0.288580 0.928417
-0.139484 -0.290896 0.715480
-0.139498 -0.289987 0.699066
-0.139430 -0.289623 0.682748
-0.139429 -0.288671 0.666325
-0.139502 -0.287110 0.649774
-0.139495 -0.286110 0.633373
-0.139420 -0.285524 0.617094
-0.139436 -0.284507 0.600650
-0.139503 -0.283238 0.584144
-0.139476 -0.282317 0.567753
-0.139409 -0.281647 0.551406
-0.139424 -0.280888 0.534836
-0.139451 -0.280244 0.518097
-0.139399 -0.280044 0.501511
-0.139354 -0.279675 0.484971
-0.139424 -0.269880 0.386087
-0.139414 -0.268585 0.370786
-0.139417 -0.267528 0.354598
-0.139446 -0.266462 0.337853
-0.139426 -0.265001 0.321329
-0.139292 -0.251659 0.239249
-0.139326 -0.240031 0.124426
-0.139324 -0.238255 0.108208
-0.139368 -0.235520 0.091560
-0.139379 -0.233524 0.075128
-0.139323 -0.232625 0.059057
-0.139296 -0.225387 -0.006616
-0.139305 -0.223533 -0.023093
-0.139333 -0.221187 -0.040230
-0.139290 -0.218238 -0.057815
-0.139225 -0.214515 -0.075155
-0.139234 -0.211975 -0.086208
-0.139282 -0.208849 -0.094109
-0.139453 -0.217693 -0.155107
-0.139411 -0.222295 -0.171972
-0.139467 -0.223498 -0.187551
-0.139505 -0.221447 -0.203544
-0.139418 -0.217494 -0.221250
-0.139369 -0.203264 -0.106747
-0.139461 -0.203804 -0.121847
-0.139592 -0.197711 -0.265586
-0.138360 -0.107747 0.911451
-0.134056 -0.110343 0.875905
-0.132561 -0.046371 0.869086
-0.139296 -0.040235 -0.140624
-0.139455 -0.023447 -0.141548
-0.139433 -0.024524 0.928487
-0.139506 -0.007627 -0.144299
-0.139442 0.007313 -0.147752
-0.135150 0.007509 -0.194466
-0.139524 0.007420 -0.368707
-0.139412 0.015898 -0.148866
-0.135917 0.019558 -0.192993
-0.133464 0.072872 -0.194124
-0.142520 0.089535 -0.203229
-0.136032 0.089745 -0.193382
-0.139532 0.123203 -0.186424
-0.139727 0.170726 -0.186436
-0.122988 -0.297999 0.894300
-0.122934 -0.302471 0.877366
-0.122945 -0.305488 0.861939
-0.123015 -0.305574 0.845696
-0.123050 -0.304339 0.828845
-0.122968 -0.302954 0.811878
-0.122875 -0.300101 0.795614
-0.122879 -0.296633 0.780229
-0.122995 -0.289659 0.649603
-0.122997 -0.288475 0.633203
-0.122940 -0.287730 0.617009
-0.122951 -0.286643 0.600543
-0.122995 -0.285422 0.583942
-0.122972 -0.284637 0.567596
-0.122915 -0.284115 0.551364
-0.122929 -0.283477 0.534807
-0.122956 -0.282979 0.518068
-0.122903 -0.283156 0.501532
-0.122864 -0.283037 0.485047
-0.122933 -0.281922 0.468220
-0.123054 -0.281023 0.451912
-0.123160 -0.280710 0.436222
-0.123187 -0.280000 0.419986
-0.122895 -0.270456 0.354519
-0.122961 -0.268987 0.337922
-0.122957 -0.267559 0.321398
-0.122881 -0.265972 0.304984
-0.122882 -0.264312 0.288416
-0.122944 -0.262624 0.271765
-0.123023 -0.252910 0.206510
-0.123013 -0.251116 0.190211
-0.122988 -0.249720 0.173890
-0.122987 -0.248434 0.157197
-0.117494 -0.221365 0.859824
-0.115871 -0.221422 0.868726
-0.122987 -0.239336 0.074934
-0.122968 -0.237866 0.058937
-0.122960 -0.235737 0.042586
-0.122977 -0.232862 0.025665
-0.117302 -0.205011 0.859278
-0.116159 -0.205260 0.870375
-0.122954 -0.221093 -0.057750
-0.122944 -0.215477 -0.074970
-0.122972 -0.212132 -0.085970
-0.123005 -0.208952 -0.093839
-0.123102 -0.218324 -0.237217
-0.123148 -0.213315 -0.249443
-0.123212 -0.209037 -0.257389
-0.117106 -0.188097 0.859564
-0.116423 -0.188414 0.871062
-0.123087 -0.202578 -0.106571
-0.123201 -0.199180 -0.121791
-0.117447 -0.171188 0.860593
-0.116548 -0.171499 0.871446
-0.118056 -0.155999 0.910593
-0.121386 -0.155298 0.861197
-0.124221 -0.139239 0.893506
-0.117934 -0.139536 0.906505
-0.127532 -0.139257 0.876400
-0.126944 -0.139645 0.860490
-0.123367 -0.140884 -0.323103
-0.124853 -0.123710 0.843289
-0.123334 -0.132662 -0.328217
-0.123239 -0.121482 -0.333656
-0.125205 -0.106888 0.843229
-0.124470 -0.101724 0.877441
-0.125162 -0.090213 0.859483
-0.120136 -0.090259 0.873631
-0.121622 -0.073672 0.859518
-0.118035 -0.073703 0.871279
-0.123734 -0.040365 0.871940
-0.121479 -0.023751 0.861605
-0.118695 -0.023510 0.872118
-0.115837 -0.013190 0.862458
-0.115967 -0.013557 0.871648
-0.123307 0.024606 -0.192278
-0.117979 0.036737 -0.194366
-0.123174 0.072996 -0.190847
-0.123196 0.089807 -0.189723
-0.123224 0.106668 -0.189493
-0.123186 0.123022 -0.186171
-0.123172 0.139011 -0.182938
-0.123251 0.154862 -0.182967
-0.123346 0.170755 -0.185187
-0.123361 0.186889 -0.187273
-0.106627 -0.296057 0.912180
-0.106593 -0.298401 0.894409
-0.106550 -0.302801 0.877723
-0.106563 -0.306337 0.862351
-0.106427 -0.301335 0.795160
-0.106419 -0.297069 0.779972
-0.106454 -0.295592 0.764552
-0.106479 -0.295816 0.748317
-0.106519 -0.295972 0.731864
-0.106541 -0.295679 0.715171
-0.106542 -0.295302 0.698693
-0.106491 -0.294898 0.682553
-0.106502 -0.288819 0.567433
-0.106451 -0.288011 0.551335
-0.106466 -0.287324 0.534795
-0.106498 -0.286757 0.518056
-0.106463 -0.286678 0.501594
-0.106423 -0.286276 0.485168
-0.106476 -0.285188 0.468230
-0.106590 -0.284436 0.451774
-0.106721 -0.283823 0.436106
-0.106761 -0.283180 0.419937
-0.106650 -0.281957 0.402617
-0.106531 -0.279767 0.385972
-0.106455 -0.277754 0.374307
-0.106399 -0.275932 0.366519
-0.106403 -0.273828 0.354459
-0.106498 -0.272092 0.337947
-0.106516 -0.270428 0.321407
-0.106426 -0.268627 0.304840
-0.106429 -0.266626 0.288366
-0.106522 -0.264592 0.272049
-0.106583 -0.263636 0.255859
-0.106602 -0.263096 0.239629
-0.106606 -0.255530 0.173639
-0.106603 -0.253971 0.156989
-0.106608 -0.252625 0.140406
-0.106602 -0.250306 0.124248
-0.106592 -0.248390 0.107966
-0.106700 -0.221407 0.873229
-0.106618 -0.237434 0.009166
-0.106613 -0.235957 -0.006792
-0.106602 -0.234526 -0.023282
-0.106704 -0.237605 -0.172296
-0.106661 -0.238126 -0.188235
-0.106637 -0.234284 -0.203986
-0.106497 -0.187912 0.879947
-0.106863 -0.198694 -0.121630
-0.106922 -0.198758 -0.283252
-0.106938 -0.192994 -0.291547
-0.106953 -0.184851 -0.298985
-0.106991 -0.173868 -0.307060
-0.106995 -0.165652 -0.312334
-0.111286 -0.150121 0.915571
-0.110766 -0.139679 0.915392
-0.114140 -0.098992 0.883981
-0.107854 -0.089556 0.881680
-0.106678 -0.073415 0.877011
-0.106647 -0.056525 0.876386
-0.106604 -0.039766 0.876484
-0.106659 -0.042915 -0.143364
-0.106566 -0.023240 0.874862
-0.106538 -0.011044 0.871972
-0.099850 0.007105 -0.148460
-0.099961 0.016977 -0.157577
-0.098844 0.015075 -0.149060
-0.102162 0.020975 -0.174110
-0.107022 0.025285 -0.186216
-0.107935 0.041515 -0.191529
-0.106732 0.073188 -0.186013
-0.106775 0.089833 -0.185291
-0.106812 0.106457 -0.186042
-0.106784 0.122747 -0.184754
-0.107783 0.154739 -0.182648
-0.099529 0.154726 -0.181159
-0.106014 0.170217 -0.183509
-0.099875 0.164475 -0.181163
-0.106932 0.186956 -0.188054
-0.106907 0.200530 -0.193967
-0.090212 -0.311089 0.828621
-0.090142 -0.298298 0.912064
-0.090062 -0.301725 0.894175
-0.090003 -0.304523 0.877232
-0.090037 -0.307002 0.861639
-0.090036 -0.300422 0.780145
-0.090127 -0.298010 0.764671
-0.090122 -0.299220 0.748381
-0.090143 -0.299987 0.731918
-0.090187 -0.299688 0.715262
-0.090177 -0.299228 0.698781
-0.090107 -0.298787 0.682593
-0.090099 -0.298096 0.666201
-0.090177 -0.297182 0.649551
-0.090178 -0.296652 0.633190
-0.090091 -0.296350 0.617043
-0.090089 -0.295916 0.600535
-0.090034 -0.289314 0.468172
-0.090088 -0.288009 0.451505
-0.090171 -0.287086 0.435927
-0.090220 -0.285883 0.419888
-0.090169 -0.283756 0.402737
-0.090088 -0.281495 0.386172
-0.090016 -0.272979 0.304776
-0.090035 -0.270691 0.288334
-0.090140 -0.268482 0.272039
-0.090186 -0.267512 0.255882
-0.090182 -0.267272 0.239649
-0.090168 -0.266589 0.222773
-0.090146 -0.265388 0.205518
-0.090157 -0.255095 0.124169
-0.090133 -0.252818 0.107962
-0.090127 -0.251668 0.090870
-0.090125 -0.250383 0.074122
-0.090117 -0.248616 0.058293
-0.090132 -0.247171 0.042157
-0.090136 -0.239009 -0.205513
-0.090118 -0.234318 -0.221325
-0.090436 -0.214051 -0.266725
-0.090412 -0.209616 -0.275156
-0.097959 -0.181820 0.883708
-0.090573 -0.158778 -0.323776
-0.090573 -0.150497 -0.329882
-0.095810 -0.083512 0.882986
-0.092901 -0.073092 0.881557
-0.082689 -0.057782 0.893281
-0.091204 -0.056247 0.880847
-0.088795 -0.039623 0.880764
-0.082436 -0.045164 0.888227
-0.090051 -0.042340 -0.140764
-0.087524 0.009092 0.872389
-0.090157 0.007141 -0.144067
-0.085427 0.024661 0.870948
-0.090183 0.021665 -0.145555
-0.096815 0.012930 -0.640795
-0.082117 0.032940 0.867996
-0.095378 0.025305 -0.157552
-0.087127 0.040994 -0.156609
-0.084660 0.035542 -0.147239
-0.097252 0.029258 -0.174060
-0.092985 0.040580 -0.173729
-0.098249 0.031731 -0.182625
-0.096799 0.040499 -0.184503
-0.090573 0.057166 -0.173592
-0.084556 0.057107 -0.161189
-0.096158 0.056968 -0.184751
-0.091608 0.073489 -0.173805
-0.084236 0.073455 -0.163450
-0.097490 0.073375 -0.182686
-0.090598 0.089874 -0.173519
-0.083220 0.089831 -0.164563
-0.097532 0.089873 -0.182097
-0.088853 0.106250 -0.172955
-0.082279 0.106187 -0.165034
-0.096785 0.106328 -0.182053
-0.089579 0.122572 -0.172881
-0.082738 0.122510 -0.164340
-0.097047 0.122614 -0.181810
-0.083800 0.138731 -0.163244
-0.092635 0.154761 -0.173079
-0.084311 0.154771 -0.162588
-0.092483 0.170257 -0.174998
-0.083450 0.170846 -0.163624
-0.085799 0.185769 -0.174325
-0.082348 0.179488 -0.165125
-0.097608 0.175278 -0.182674
-0.094860 0.187006 -0.184785
-0.089670 0.199978 -0.190296
-0.083609 0.197930 -0.180096
-0.090558 0.235966 0.812571
-0.073828 -0.314208 0.828765
-0.073703 -0.313569 0.811516
-0.073724 -0.302786 0.912082
-0.073788 -0.302741 0.764774
-0.073766 -0.304224 0.748423
-0.073794 -0.305257 0.731959
-0.073854 -0.304847 0.715357
-0.073848 -0.304239 0.698889
-0.073769 -0.303717 0.682652
-0.073768 -0.302940 0.666251
-0.073853 -0.301796 0.649650
-0.073842 -0.300961 0.633293
