-0.078858 -0.350962 0.207498
-0.074250 -0.364481 -0.242606
-0.078123 -0.334637 0.207936
-0.069888 -0.334682 0.220666
-0.074280 -0.356686 -0.234186
-0.074330 -0.348515 -0.224904
-0.074214 -0.317848 0.205997
-0.068143 -0.322573 0.218625
-0.074347 -0.342073 -0.216469
-0.074375 -0.333851 -0.206602
-0.080252 -0.313125 0.193954
-0.074379 -0.305407 0.189056
-0.069375 -0.307161 0.202331
-0.074480 -0.318486 -0.185571
-0.079908 -0.314130 -0.177630
-0.074361 -0.308110 -0.171395
-0.069012 -0.312848 -0.179375
-0.074398 -0.327460 -0.198261
-0.073615 -0.299938 0.173255
-0.078985 -0.298102 0.160616
-0.074012 -0.286961 0.155805
-0.068081 -0.292962 0.168901
-0.074268 -0.299124 -0.158884
-0.079926 -0.280973 0.144201
-0.073671 -0.271081 0.139050
-0.069028 -0.276240 0.151057
-0.080980 -0.280984 -0.129688
-0.075027 -0.284957 -0.137723
-0.070102 -0.278245 -0.132423
-0.075486 -0.271324 -0.123748
-0.074195 -0.294009 -0.150629
-0.078335 -0.266047 0.128512
-0.072554 -0.254885 0.122766
-0.067421 -0.260060 0.133677
-0.080936 -0.264355 -0.113565
-0.077473 -0.255377 -0.107959
-0.069661 -0.255478 -0.118505
-0.077645 -0.249454 0.108796
-0.072189 -0.239334 0.104270
-0.066779 -0.244307 0.116839
-0.080075 -0.249641 -0.089870
-0.081383 -0.247827 -0.079716
-0.079735 -0.238447 -0.073473
-0.075710 -0.238926 -0.089982
-0.070612 -0.238910 -0.107807
-0.066560 -0.238958 -0.117781
-0.077570 -0.234229 0.092405
-0.075399 -0.220980 0.088136
-0.066626 -0.221081 0.099875
-0.081031 -0.232444 -0.062201
-0.081023 -0.227806 -0.062192
-0.079299 -0.221891 -0.072325
-0.074960 -0.221862 -0.090026
-0.070858 -0.222002 -0.107943
-0.067052 -0.222177 -0.120027
-0.065680 -0.208796 0.098617
-0.070396 -0.203677 0.091817
-0.080385 -0.215364 0.079226
-0.079538 -0.204151 0.078938
-0.080641 -0.209924 -0.077779
-0.079732 -0.204423 -0.091481
-0.075514 -0.204755 -0.107838
-0.068963 -0.205509 -0.125255
-0.079580 -0.188039 0.079926
-0.071468 -0.188294 0.089474
-0.080148 -0.189323 -0.108846
-0.081662 -0.195503 -0.098633
-0.073693 -0.188381 -0.124413
-0.066548 -0.200329 -0.133183
-0.067683 -0.188782 -0.134160
-0.080120 -0.171922 0.080698
-0.071999 -0.172226 0.087868
-0.078151 -0.172686 -0.124168
-0.081463 -0.178669 -0.115259
-0.069486 -0.172286 -0.135423
-0.080829 -0.160707 0.081382
-0.074693 -0.155341 0.086547
-0.074155 -0.154217 -0.136438
-0.079829 -0.158578 -0.129142
-0.073638 -0.138912 0.087698
-0.073706 -0.123123 0.087228
-0.068915 -0.122960 -0.148474
-0.066918 -0.134457 -0.147152
-0.072901 -0.139383 -0.141725
-0.076957 -0.122528 -0.143147
-0.073729 -0.106889 0.087338
-0.072128 -0.106377 -0.150397
-0.080218 -0.105946 -0.145386
-0.073656 -0.089590 0.088670
-0.075557 -0.091437 -0.152287
-0.082024 -0.097577 -0.146830
-0.073623 -0.072795 0.090048
-0.073690 -0.057205 0.091140
-0.068782 -0.057325 -0.163189
-0.066572 -0.067134 -0.162356
-0.072762 -0.072822 -0.158280
-0.076858 -0.056915 -0.159549
-0.073699 -0.040912 0.092037
-0.080352 -0.040305 -0.161200
-0.072282 -0.040723 -0.164429
-0.071978 -0.022587 0.093436
-0.082047 -0.031742 -0.162054
-0.075689 -0.025743 -0.165341
-0.074079 -0.006873 0.093093
-0.065403 -0.016191 0.096545
-0.065896 -0.006955 0.096682
-0.074799 0.008925 0.093436
-0.066633 0.008696 0.096853
-0.075240 0.025323 0.093566
-0.067052 0.025137 0.096950
-0.075479 0.042303 0.093670
-0.067276 0.042280 0.097029
-0.075801 0.058724 0.093975
-0.067620 0.058695 0.097143
-0.076450 0.074863 0.094387
-0.068280 0.074751 0.097325
-0.077495 0.091533 0.094918
-0.069316 0.091432 0.097599
-0.078570 0.108342 0.095396
-0.070380 0.108291 0.097987
-0.077260 0.124476 0.094813
-0.069064 0.124472 0.097872
-0.077616 0.140180 0.095054
-0.069438 0.140261 0.099254
-0.080404 0.148609 0.096409
-0.074428 0.152012 0.105299
-0.081198 0.164146 0.128926
-0.074888 0.160194 0.122828
-0.070335 0.162317 0.133126
-0.074889 0.166229 0.138241
-0.077176 0.182405 0.160692
-0.072465 0.176033 0.154584
-0.066330 0.180531 0.162412
-0.072321 0.189508 0.169902
-0.078273 0.199178 0.177489
-0.067419 0.196562 0.179968
-0.073147 0.203102 0.186175
-0.073558 0.211415 0.197808
-0.073542 0.219156 0.206075
-0.073507 0.227281 0.213668
-0.074481 0.239055 0.222843
-0.080553 0.247930 0.227442
-0.069735 0.244970 0.229381
-0.074932 0.255074 0.236482
-0.080106 0.264720 0.243477
-0.069288 0.262192 0.246182
-0.074442 0.271251 0.252685
-0.079564 0.281359 0.259308
-0.072647 0.288764 0.267936
-0.068729 0.277842 0.261856
-0.076509 0.301824 0.274164
-0.065650 0.296294 0.277119
-0.072032 0.306391 0.278761
-0.072786 0.322275 0.287277
-0.077795 0.333934 0.291211
-0.066982 0.328187 0.294699
-0.072771 0.338875 0.298722
-0.073360 0.348393 0.307200
-0.073185 0.371717 0.322113
-0.073328 0.356509 0.313783
-0.078524 0.381539 0.324932
-0.067691 0.377581 0.326679
-0.073207 0.387090 0.328368
-0.073300 0.403783 0.334276
-0.074222 0.420498 0.340480
-0.080254 0.429541 0.342368
-0.069424 0.426085 0.343280
-0.074211 0.435659 0.344695
-0.073247 0.453085 0.349630
-0.073190 0.468014 0.355703
-0.073121 0.476170 0.359482
-0.073119 0.485895 0.362218
-0.073180 0.502285 0.366950
-0.073225 0.517375 0.372406
-0.073223 0.525519 0.375979
-0.073177 0.535086 0.379562
-0.073144 0.551486 0.386136
-0.073138 0.561692 0.390758
-0.073147 0.584340 0.400401
-0.073163 0.569888 0.394586
-0.082272 0.559739 -0.344292
-0.085732 0.564845 -0.350922
-0.082709 0.570639 -0.342991
-0.079743 0.564835 -0.336523
-0.073102 0.598818 0.405824
-0.073083 0.607027 0.408787
-0.073085 0.617170 0.412057
-0.073136 0.633570 0.419134
-0.073158 0.642937 0.424088
-0.073152 0.651113 0.427343
-0.073156 0.666339 0.433533
-0.073215 0.678318 0.439037
-0.073285 0.686481 0.443166
-0.073318 0.699136 0.448711
-0.073352 0.714079 0.455032
-0.079450 0.694934 -0.319047
-0.085681 0.694951 -0.333575
-0.083519 0.700116 -0.325268
-0.082309 0.689170 -0.327259
-0.073368 0.722291 0.458823
-0.073343 0.731987 0.465122
-0.073299 0.744296 0.474055
-0.073265 0.752523 0.480181
-0.073268 0.764838 0.488081
-0.082384 0.738809 -0.326609
-0.085704 0.744410 -0.333395
-0.082944 0.749697 -0.325340
-0.080652 0.744400 -0.319117
-0.073270 0.773673 0.493752
-0.081653 0.773194 0.493963
-0.073390 0.797632 0.500844
-0.073331 0.781883 0.496141
-0.073444 0.809972 0.505256
-0.073483 0.818062 0.508495
-0.073493 0.830297 0.512140
-0.081237 0.809172 -0.302315
-0.084809 0.809247 -0.317504
-0.083223 0.813960 -0.308054
-0.082506 0.802990 -0.310984
-0.073536 0.846594 0.517636
-0.073884 0.862037 0.521864
-0.073932 0.876848 0.520279
-0.068661 0.871717 0.523565
-0.068640 0.866806 0.523562
-0.079631 0.858366 -0.286930
-0.085338 0.858404 -0.301196
-0.083282 0.863082 -0.293158
-0.082513 0.852139 -0.295209
-0.073699 0.890122 0.511853
-0.073735 0.898226 0.503652
-0.073683 0.902645 0.496940
-0.079173 0.892474 -0.269807
-0.085651 0.892492 -0.284917
-0.083154 0.898065 -0.275695
-0.081682 0.887079 -0.279043
-0.073693 0.907665 0.485282
-0.073690 0.913277 0.468657
-0.073696 0.916460 0.457002
-0.073619 0.918107 0.448521
-0.073544 0.920279 0.434873
-0.073521 0.923327 0.418426
-0.073690 0.927527 0.401856
-0.073784 0.931209 0.385301
-0.073765 0.932916 0.373369
-0.073678 0.933917 0.365280
-0.079664 0.925607 -0.235450
-0.085178 0.929200 -0.252616
-0.083798 0.931401 -0.240356
-0.080723 0.921044 -0.252465
-0.081721 0.919035 -0.262493
-0.087811 0.924773 -0.268436
-0.073756 0.937048 0.352247
-0.073884 0.942962 0.335755
-0.073958 0.947964 0.321963
-0.073948 0.950390 0.313888
-0.076304 0.943050 -0.187719
-0.084914 0.947861 -0.203687
-0.083174 0.949342 -0.193623
-0.077536 0.939655 -0.203632
-0.087400 0.944516 -0.220238
-0.080511 0.936271 -0.220090
-0.088932 0.940350 -0.235744
-0.082327 0.933893 -0.229507
-0.073987 0.954026 0.303247
-0.074061 0.960713 0.286979
-0.074108 0.965311 0.277270
-0.074168 0.969273 0.269093
-0.073136 0.977666 0.253017
-0.077834 0.981181 0.243564
-0.073125 0.983191 0.238183
-0.066988 0.982702 0.246820
-0.074220 0.984720 0.221691
-0.074252 0.985901 0.205385
-0.074233 0.986303 0.189076
-0.074200 0.986521 0.172685
-0.074210 0.987360 0.156151
-0.074231 0.987990 0.139729
-0.074237 0.987719 0.123616
-0.074241 0.987601 0.107423
-0.074257 0.988208 0.090916
-0.074268 0.988529 0.074517
-0.074262 0.988206 0.058380
-0.074259 0.988292 0.041971
-0.074262 0.989247 0.025180
-0.074265 0.989261 0.008751
-0.074255 0.988189 -0.007266
-0.074259 0.988069 -0.023658
-0.074274 0.988702 -0.040354
-0.074269 0.988867 -0.056736
-0.074262 0.988574 -0.072850
-0.074290 0.988559 -0.089166
-0.074332 0.988504 -0.105579
-0.074358 0.987979 -0.121876
-0.074401 0.987034 -0.138100
-0.073406 0.985379 -0.155000
-0.077725 0.984762 -0.170623
-0.080923 0.983644 -0.186960
-0.082409 0.983045 -0.195811
-0.051301 -0.810148 -0.320110
-0.049422 -0.819742 -0.319752
-0.049136 -0.818673 -0.311623
-0.050425 -0.810579 -0.305921
-0.049845 -0.821514 -0.336076
-0.052156 -0.810181 -0.336254
-0.053198 -0.810171 -0.353567
-0.050157 -0.823237 -0.353738
-0.053751 -0.810156 -0.369949
-0.050412 -0.824051 -0.369989
-0.053778 -0.810249 -0.385668
-0.050503 -0.823778 -0.385195
-0.050210 -0.822818 -0.402135
-0.053313 -0.810299 -0.402716
-0.052607 -0.810280 -0.420130
-0.049823 -0.821838 -0.419851
-0.052409 -0.810590 -0.436956
-0.049953 -0.823155 -0.436775
-0.050071 -0.823769 -0.453387
-0.052032 -0.811325 -0.453296
-0.049739 -0.822026 -0.462582
-0.050443 -0.812024 -0.463776
-0.052827 -0.793746 -0.288779
-0.049862 -0.805084 -0.288711
-0.049147 -0.802670 -0.279364
-0.050346 -0.793648 -0.273167
-0.054633 -0.793735 -0.305123
-0.055028 -0.793753 -0.320450
-0.055902 -0.793787 -0.336366
-0.057360 -0.793761 -0.353324
-0.057911 -0.793753 -0.369936
-0.057842 -0.793867 -0.386297
-0.057441 -0.793927 -0.403324
-0.056699 -0.793897 -0.420377
-0.055721 -0.794222 -0.437160
-0.054360 -0.795008 -0.452869
-0.051474 -0.795901 -0.464211
-0.051668 -0.777317 -0.239196
-0.049500 -0.787700 -0.238916
-0.049141 -0.786047 -0.230040
-0.050028 -0.776942 -0.223820
-0.049879 -0.789236 -0.255501
-0.053057 -0.777325 -0.255513
-0.054699 -0.777355 -0.272047
-0.057043 -0.777344 -0.288800
-0.058987 -0.777346 -0.305266
-0.059907 -0.777351 -0.320304
-0.061002 -0.777374 -0.336103
-0.062136 -0.777355 -0.353415
-0.063109 -0.775961 -0.370417
-0.062678 -0.777893 -0.386539
-0.062734 -0.775937 -0.402256
-0.060881 -0.777497 -0.420431
-0.059495 -0.777880 -0.437259
-0.057538 -0.778772 -0.452220
-0.052938 -0.779837 -0.463945
-0.050956 -0.762379 -0.204800
-0.049518 -0.771214 -0.209263
-0.053153 -0.760920 -0.222879
-0.055282 -0.760917 -0.239508
-0.057286 -0.760923 -0.255580
-0.059536 -0.760943 -0.271954
-0.062529 -0.759450 -0.289973
-0.063213 -0.763031 -0.305273
-0.063932 -0.765362 -0.320200
-0.064600 -0.767123 -0.336027
-0.065039 -0.768163 -0.353593
-0.065153 -0.768468 -0.365371
-0.064173 -0.765875 -0.420435
-0.064847 -0.767909 -0.407201
-0.063530 -0.763718 -0.437164
-0.062197 -0.761161 -0.450743
-0.054567 -0.763737 -0.463454
-0.050685 -0.745038 -0.174082
-0.050074 -0.757613 -0.189905
-0.049327 -0.754141 -0.179656
-0.053146 -0.744529 -0.190242
-0.055339 -0.744531 -0.206696
-0.057443 -0.744517 -0.223215
-0.059657 -0.744507 -0.239603
-0.061387 -0.744520 -0.255673
-0.063657 -0.745130 -0.271134
-0.064760 -0.750984 -0.285225
-0.055348 -0.747666 -0.462250
-0.063335 -0.746633 -0.453671
-0.052544 -0.728127 -0.157503
-0.049651 -0.739213 -0.157512
-0.049032 -0.736577 -0.149123
-0.050460 -0.728450 -0.142674
-0.055121 -0.728113 -0.173831
-0.057716 -0.728120 -0.190390
-0.060197 -0.728119 -0.206928
-0.062934 -0.727083 -0.223504
-0.063722 -0.731528 -0.239645
-0.064427 -0.734190 -0.255725
-0.064865 -0.735433 -0.265051
-0.055224 -0.731556 -0.460756
-0.063231 -0.730908 -0.455081
-0.051163 -0.712885 -0.107826
-0.049959 -0.723416 -0.124798
-0.049395 -0.721322 -0.112954
-0.053515 -0.711711 -0.124836
-0.055324 -0.711721 -0.141211
-0.057271 -0.711721 -0.157413
-0.059895 -0.711714 -0.173690
-0.063005 -0.710561 -0.190927
-0.064059 -0.715511 -0.206920
-0.064901 -0.718688 -0.218198
-0.054237 -0.715327 -0.459354
-0.062235 -0.714875 -0.455095
-0.051893 -0.695333 -0.075189
-0.049720 -0.705884 -0.075057
-0.049296 -0.704204 -0.065677
-0.050391 -0.695331 -0.059658
-0.050469 -0.708894 -0.091669
-0.053832 -0.695335 -0.091747
-0.056294 -0.695319 -0.108350
-0.058359 -0.695308 -0.124805
-0.059973 -0.695315 -0.141163
-0.062621 -0.693915 -0.158628
-0.063870 -0.698328 -0.173679
-0.064890 -0.701643 -0.185787
-0.052177 -0.703804 -0.458236
-0.057631 -0.698453 -0.454439
-0.049872 -0.678922 -0.031482
-0.049678 -0.689458 -0.042459
-0.049143 -0.687463 -0.034107
-0.051984 -0.678919 -0.042397
-0.053985 -0.678914 -0.058856
-0.055167 -0.678932 -0.075469
-0.057687 -0.678937 -0.091938
-0.061179 -0.678916 -0.108355
-0.063474 -0.677294 -0.126037
-0.063675 -0.680602 -0.141152
-0.064531 -0.683825 -0.154102
-0.052169 -0.663168 -0.025611
-0.056765 -0.662518 -0.042480
-0.059146 -0.662504 -0.059013
-0.060158 -0.662521 -0.075565
-0.062784 -0.662350 -0.091409
-0.064498 -0.668273 -0.108377
-0.065380 -0.670498 -0.121456
-0.054605 -0.646110 -0.009365
-0.050470 -0.658719 -0.009618
-0.049697 -0.656406 0.002345
-0.051582 -0.646995 0.007453
-0.058023 -0.646119 -0.025910
-0.062671 -0.645445 -0.042983
-0.063841 -0.649833 -0.059202
-0.064395 -0.651857 -0.075576
-0.064904 -0.653166 -0.085559
-0.049866 -0.629711 0.034087
-0.049934 -0.641092 0.023214
-0.049071 -0.637912 0.031384
-0.052768 -0.629714 0.023056
-0.056402 -0.629710 0.006710
-0.058565 -0.629720 -0.009455
-0.062432 -0.629139 -0.027082
-0.064589 -0.634215 -0.037750
-0.058981 -0.648501 -0.442596
-0.065066 -0.642182 -0.440845
-0.054245 -0.640152 -0.441636
-0.058909 -0.634163 -0.437772
-0.056916 -0.613319 0.022865
-0.051513 -0.613428 0.039912
-0.060473 -0.613304 0.006469
-0.061530 -0.613315 -0.009835
-0.063511 -0.613317 -0.022408
-0.056090 -0.596914 0.039407
-0.049695 -0.608040 0.051748
-0.051761 -0.598119 0.057028
-0.061969 -0.596119 0.021858
-0.063922 -0.600568 0.006383
-0.064270 -0.602517 -0.009943
-0.064640 -0.603656 -0.019483
-0.053348 -0.580483 0.121136
-0.049950 -0.591355 0.121171
-0.049609 -0.590666 0.134340
-0.051659 -0.582009 0.138907
-0.050189 -0.591788 0.104914
-0.053714 -0.580489 0.104832
-0.052416 -0.581634 0.088175
-0.049982 -0.591207 0.092887
-0.053274 -0.581636 0.074177
-0.050561 -0.593457 0.069466
-0.057434 -0.580489 0.056518
-0.061758 -0.579251 0.038438
-0.063922 -0.583895 0.026767
-0.057840 -0.604911 -0.425780
-0.057860 -0.596711 -0.422960
-0.053081 -0.564106 0.154051
-0.050101 -0.576258 0.154139
-0.049013 -0.572335 0.162566
-0.049887 -0.563291 0.168994
-0.056572 -0.564096 0.137560
-0.057417 -0.564094 0.121160
-0.058101 -0.564096 0.104787
-0.060807 -0.562700 0.087452
-0.061334 -0.565121 0.072474
-0.063061 -0.563022 0.056019
-0.064028 -0.564091 0.044242
-0.053219 -0.547718 0.170386
-0.049348 -0.557312 0.182700
-0.051188 -0.549018 0.187593
-0.057024 -0.547708 0.153973
-0.060930 -0.547694 0.137599
-0.061595 -0.547692 0.121230
-0.062851 -0.547351 0.105208
-0.064011 -0.552580 0.092016
-0.065113 -0.555096 0.047932
-0.065107 -0.555103 0.050420
-0.057910 -0.569078 -0.411079
-0.057911 -0.560919 -0.407779
-0.050583 -0.530516 0.219078
-0.050340 -0.543944 0.203459
-0.049258 -0.540502 0.212635
-0.053983 -0.531280 0.203396
-0.055894 -0.531290 0.186815
-0.057085 -0.531303 0.170353
-0.061744 -0.530203 0.152705
-0.064366 -0.535537 0.137655
-0.064679 -0.537780 0.121389
-0.064639 -0.537906 0.111111
-0.051109 -0.515835 0.237129
-0.049419 -0.524558 0.232077
-0.054992 -0.514869 0.220189
-0.058891 -0.514874 0.203328
-0.060314 -0.514878 0.186788
-0.062083 -0.513252 0.168719
-0.063440 -0.517632 0.157255
-0.057879 -0.536043 -0.395260
-0.057873 -0.527860 -0.391248
-0.051150 -0.498880 0.253784
-0.050066 -0.511015 0.249089
-0.055514 -0.498471 0.236561
-0.060903 -0.497604 0.218936
-0.063329 -0.502556 0.203232
-0.063948 -0.504121 0.186769
-0.064184 -0.504565 0.173078
-0.050246 -0.482050 0.264757
-0.049369 -0.493705 0.262216
-0.054110 -0.482060 0.252743
-0.059147 -0.482059 0.236334
-0.063395 -0.482066 0.224039
-0.057898 -0.508331 -0.377025
-0.057911 -0.500123 -0.371438
-0.050994 -0.464824 0.269695
-0.056877 -0.465645 0.252601
-0.062802 -0.466301 0.236164
-0.064705 -0.472204 0.227056
-0.057897 -0.487658 -0.363024
-0.057881 -0.479459 -0.357744
-0.049132 -0.449241 0.278301
-0.049073 -0.458828 0.278021
-0.052309 -0.449254 0.269008
-0.059016 -0.449251 0.252505
-0.064029 -0.449239 0.241475
-0.051653 -0.432969 0.270433
-0.049010 -0.438533 0.277947
-0.059883 -0.432846 0.252501
-0.064658 -0.432837 0.243180
-0.057858 -0.460942 -0.342895
-0.057868 -0.452788 -0.335815
-0.051771 -0.415371 0.270516
-0.061421 -0.415716 0.251022
-0.064912 -0.420689 0.243767
-0.057887 -0.435406 -0.319670
-0.057869 -0.443612 -0.327508
-0.049266 -0.400087 0.279158
-0.048817 -0.409232 0.277613
-0.053237 -0.400060 0.269335
-0.060928 -0.400030 0.253975
-0.057895 -0.418281 -0.304733
-0.057898 -0.426479 -0.311318
-0.051959 -0.383436 0.270508
-0.049376 -0.388721 0.279545
-0.061292 -0.382655 0.252261
-0.057870 -0.400180 -0.288533
-0.057887 -0.408367 -0.296299
-0.057231 -0.367397 0.253432
-0.051058 -0.367484 0.266108
-0.064951 -0.376497 0.244352
-0.063182 -0.367351 0.240497
-0.057863 -0.384935 -0.269232
-0.057879 -0.393132 -0.280177
-0.049819 -0.354112 0.263129
-0.052695 -0.349694 0.255067
-0.061795 -0.352047 0.235729
-0.057851 -0.371442 -0.252299
-0.057865 -0.363547 -0.243542
-0.057861 -0.379021 -0.260963
-0.059588 -0.334825 0.238709
-0.052114 -0.335099 0.251944
-0.065031 -0.347183 0.229408
-0.064661 -0.334707 0.229773
-0.057915 -0.347286 -0.226604
-0.057872 -0.355431 -0.235185
-0.053321 -0.319810 0.237533
-0.050824 -0.325409 0.248971
-0.061560 -0.318151 0.223789
-0.057914 -0.340605 -0.218243
-0.057932 -0.332400 -0.208474
-0.052755 -0.305018 0.221529
-0.049718 -0.311143 0.231138
-0.064636 -0.312393 0.213312
-0.061637 -0.302726 0.207573
-0.057956 -0.326324 -0.200161
-0.057965 -0.318101 -0.188604
-0.053186 -0.291562 0.206590
-0.050139 -0.295153 0.215499
-0.064414 -0.297166 0.190233
-0.055265 -0.286307 0.190490
-0.065013 -0.296639 0.180896
-0.061241 -0.287441 0.174601
-0.056985 -0.302657 -0.168834
-0.061711 -0.297532 -0.161449
-0.056845 -0.292879 -0.155194
-0.050848 -0.296871 -0.162305
-0.057954 -0.311975 -0.180372
-0.049922 -0.278282 0.185209
-0.052353 -0.275396 0.173846
-0.063531 -0.281611 0.162794
-0.057436 -0.269913 0.157727
-0.057687 -0.283676 -0.142090
-0.062222 -0.264835 0.145458
-0.059305 -0.254617 0.140032
-0.050991 -0.254503 0.151730
-0.057469 -0.266281 -0.128658
-0.057587 -0.274681 -0.134423
-0.049307 -0.246560 0.149037
-0.052135 -0.240198 0.139402
-0.063580 -0.249344 0.128640
-0.060443 -0.238750 0.122877
-0.060311 -0.239086 -0.125611
-0.050706 -0.252310 -0.132477
-0.056590 -0.256784 -0.127184
-0.052277 -0.239283 -0.134536
-0.050298 -0.228876 0.132682
-0.052910 -0.222579 0.122289
-0.063186 -0.233181 0.111170
-0.061100 -0.221396 0.108141
-0.054723 -0.222697 -0.137142
-0.062818 -0.222375 -0.127884
-0.058150 -0.203250 0.105844
-0.051083 -0.208708 0.116056
-0.057437 -0.206187 -0.139559
-0.064849 -0.211618 -0.130952
-0.065222 -0.197917 0.098128
-0.063838 -0.188563 0.096569
-0.055777 -0.188928 0.102900
-0.051184 -0.189783 -0.147201
-0.050290 -0.201035 -0.146725
-0.059166 -0.189286 -0.141230
-0.061959 -0.172607 0.094682
-0.053900 -0.172867 0.099537
-0.052504 -0.173156 -0.147816
-0.060510 -0.172735 -0.142466
-0.061725 -0.155811 0.094432
-0.053649 -0.156017 0.098684
-0.062813 -0.156141 -0.144403
-0.054814 -0.156532 -0.148775
-0.061887 -0.139230 0.094460
-0.053799 -0.139445 0.098436
-0.058796 -0.140210 -0.149790
-0.064829 -0.145454 -0.145820
-0.061207 -0.123616 0.094067
-0.053119 -0.123863 0.097909
-0.060853 -0.107520 0.093997
-0.052757 -0.107802 0.097653
-0.061395 -0.090031 0.094599
-0.053281 -0.090268 0.097745
-0.062511 -0.073078 0.095257
-0.054394 -0.073278 0.097995
-0.063251 -0.078212 -0.161245
-0.052451 -0.087421 -0.162875
-0.057770 -0.091837 -0.160245
-0.057865 -0.073535 -0.163700
-0.063907 -0.057620 0.095805
-0.055801 -0.057849 0.098266
-0.064884 -0.041287 0.096251
-0.056770 -0.041487 0.098322
-0.065247 -0.027936 0.096458
-0.058777 -0.022819 0.097907
-0.057239 -0.007069 0.098452
-0.057328 0.008465 0.098810
-0.057319 0.024913 0.099023
-0.057208 0.042187 0.099240
-0.057162 0.058621 0.099642
-0.057166 0.074594 0.100131
-0.057150 0.091233 0.100588
-0.057135 0.108143 0.101197
-0.057175 0.124446 0.101781
-0.056162 0.141637 0.106982
-0.060924 0.150356 0.110477
-0.050028 0.147864 0.116617
-0.056195 0.151997 0.121846
-0.063171 0.164791 0.144081
-0.057538 0.159165 0.138156
-0.052335 0.162542 0.147419
-0.057580 0.169895 0.153350
-0.057280 0.179106 0.163675
-0.057288 0.186494 0.172039
-0.057270 0.199534 0.191833
-0.057276 0.194793 0.183650
-0.061970 0.215982 0.209265
-0.056848 0.208404 0.203489
-0.056842 0.221704 0.216514
-0.051157 0.213029 0.212209
-0.057195 0.233299 0.225474
-0.057162 0.251745 0.239829
-0.057173 0.241672 0.231476
-0.057098 0.266858 0.257193
-0.057105 0.259923 0.248973
-0.057117 0.274946 0.263613
-0.057171 0.286904 0.271787
-0.057140 0.304788 0.282547
-0.057129 0.295144 0.277692
-0.057138 0.317903 0.290185
-0.057151 0.326106 0.296011
-0.057351 0.339475 0.305207
-0.062846 0.346490 0.309651
-0.057320 0.352838 0.313632
-0.052090 0.345924 0.309906
-0.057086 0.369432 0.322740
-0.057092 0.377529 0.326632
-0.057105 0.387129 0.329900
-0.057077 0.403635 0.335536
-0.057035 0.417501 0.340473
-0.057026 0.436586 0.346281
-0.057024 0.425689 0.343407
-0.057023 0.452988 0.351033
-0.056977 0.467234 0.356358
-0.056933 0.485817 0.362618
-0.056935 0.475383 0.359684
-0.056980 0.502175 0.367307
-0.057000 0.516938 0.372562
-0.056997 0.525102 0.376136
-0.056944 0.535011 0.379715
-0.056892 0.551436 0.385810
-0.056872 0.562514 0.390435
-0.056890 0.570696 0.394308
-0.056892 0.584313 0.399951
-0.056867 0.598842 0.405648
-0.066179 0.573687 -0.310031
-0.070951 0.579764 -0.316645
-0.066626 0.584629 -0.309360
-0.061952 0.579712 -0.302985
-0.056868 0.617162 0.412571
-0.056856 0.607041 0.408825
-0.057559 0.634978 0.420993
-0.063357 0.641999 0.424528
-0.057561 0.648429 0.427257
-0.052604 0.641356 0.424827
-0.056919 0.666292 0.434242
-0.056943 0.678299 0.439312
-0.063538 0.661686 -0.286765
-0.069258 0.661718 -0.300639
-0.066824 0.666599 -0.293360
-0.066101 0.655633 -0.294049
-0.057006 0.686466 0.442899
-0.057038 0.699079 0.447875
-0.057050 0.714192 0.454326
-0.057046 0.731963 0.465082
-0.057054 0.722405 0.458574
-0.057037 0.744286 0.474008
-0.057026 0.752505 0.479988
-0.057057 0.764829 0.487820
-0.066138 0.737217 -0.277556
-0.069516 0.743481 -0.284200
-0.066584 0.748186 -0.276247
-0.064261 0.743485 -0.270104
-0.057080 0.774080 0.493519
-0.057137 0.797632 0.501393
-0.057108 0.782284 0.496132
-0.057189 0.810363 0.506095
-0.057237 0.818497 0.508800
-0.057242 0.830282 0.512714
-0.065658 0.805385 -0.262328
-0.068889 0.810629 -0.268344
-0.066583 0.816340 -0.259239
-0.064514 0.810627 -0.253319
-0.057257 0.846569 0.518346
-0.057295 0.858227 0.522120
-0.057337 0.865700 0.523716
-0.057364 0.872462 0.523714
-0.065061 0.858529 -0.236418
-0.067538 0.858606 -0.251675
-0.066723 0.863383 -0.241916
-0.066051 0.852424 -0.245578
-0.057426 0.879759 0.521537
-0.056547 0.893637 0.512307
-0.061313 0.899849 0.505991
-0.056546 0.902994 0.500782
-0.050561 0.900662 0.507324
-0.065969 0.884623 -0.228490
-0.069254 0.891035 -0.234911
-0.067453 0.895566 -0.224911
-0.064613 0.890947 -0.219902
-0.057476 0.909167 0.484674
-0.057425 0.914383 0.467883
-0.057386 0.916886 0.458817
-0.057338 0.918185 0.450543
-0.057329 0.920404 0.434790
-0.057372 0.923112 0.418593
-0.057474 0.927051 0.402045
-0.057547 0.930480 0.385501
-0.057040 0.932411 0.370234
-0.062083 0.933804 0.365466
-0.062340 0.926666 -0.171819
-0.067365 0.931656 -0.187300
-0.066513 0.933037 -0.178094
-0.063515 0.923373 -0.187344
-0.069395 0.927921 -0.203885
-0.065006 0.919662 -0.203940
-0.072646 0.923638 -0.218674
-0.066229 0.917046 -0.212231
-0.057098 0.935807 0.353813
-0.057715 0.941728 0.336202
-0.058330 0.947021 0.319240
-0.064119 0.950171 0.313319
-0.062993 0.938944 -0.154233
-0.068684 0.947148 -0.154257
-0.066863 0.949378 -0.143477
-0.061334 0.943119 -0.137934
-0.065060 0.935906 -0.167070
-0.070613 0.941575 -0.171796
-0.058380 0.951991 0.303249
-0.057859 0.959383 0.287522
-0.057905 0.965074 0.277879
-0.057944 0.970202 0.269741
-0.057967 0.978420 0.257089
-0.057939 0.983038 0.248685
-0.057893 0.984250 0.238542
-0.057892 0.985710 0.222286
-0.057926 0.986538 0.206072
-0.057908 0.986794 0.189618
-0.057881 0.986940 0.173097
-0.057900 0.987417 0.156758
-0.057918 0.987816 0.140474
-0.057894 0.987904 0.124085
-0.057877 0.988055 0.107698
-0.057899 0.988405 0.091371
-0.057912 0.988580 0.075017
-0.057897 0.988507 0.058591
-0.057897 0.988547 0.042190
-0.057919 0.988902 0.025832
-0.057918 0.988852 0.009450
-0.057889 0.988296 -0.006995
-0.057893 0.988112 -0.023420
-0.057930 0.988176 -0.039797
-0.057940 0.988029 -0.056202
-0.057934 0.987491 -0.072571
-0.057969 0.986692 -0.088853
-0.057203 0.985512 -0.104420
-0.060692 0.985384 -0.121467
-0.062547 0.984802 -0.137837
-0.064573 0.983988 -0.149890
-0.037045 -0.859406 -0.353642
-0.033323 -0.869159 -0.353740
-0.032715 -0.867984 -0.344441
-0.034394 -0.859392 -0.338285
-0.033720 -0.870022 -0.370154
-0.037831 -0.859401 -0.370097
-0.033445 -0.869741 -0.386226
-0.037102 -0.859518 -0.386437
-0.037007 -0.859558 -0.402629
-0.033460 -0.869844 -0.402551
-0.037314 -0.859500 -0.419245
-0.033636 -0.870210 -0.419404
-0.037560 -0.859675 -0.436448
-0.033735 -0.871047 -0.436512
-0.033524 -0.871207 -0.453307
-0.036962 -0.860115 -0.453386
-0.034886 -0.861712 -0.470563
-0.033068 -0.869854 -0.465801
-0.036842 -0.842957 -0.304788
-0.033257 -0.853090 -0.304782
-0.032834 -0.851937 -0.294699
-0.034598 -0.843464 -0.289072
-0.033680 -0.854552 -0.320916
-0.038444 -0.842992 -0.320458
-0.040548 -0.843027 -0.336783
-0.043143 -0.842999 -0.353691
-0.043918 -0.842993 -0.370069
-0.043184 -0.843092 -0.385914
-0.042763 -0.843135 -0.402276
-0.042788 -0.843108 -0.419335
-0.043336 -0.843360 -0.436580
-0.042823 -0.843958 -0.453483
-0.040042 -0.844510 -0.469003
-0.034119 -0.857555 -0.479420
-0.035706 -0.845131 -0.480567
-0.036328 -0.826551 -0.255823
-0.032972 -0.836035 -0.255927
-0.032659 -0.835148 -0.246796
-0.034539 -0.827176 -0.240612
-0.038348 -0.826571 -0.272137
-0.033796 -0.838431 -0.272279
-0.040899 -0.826556 -0.288650
-0.044665 -0.825114 -0.305829
-0.045506 -0.828012 -0.319869
-0.046592 -0.829749 -0.336220
-0.047663 -0.831483 -0.353798
-0.048044 -0.832335 -0.370038
-0.047762 -0.832044 -0.385280
-0.047456 -0.831049 -0.401986
-0.047338 -0.830093 -0.419652
-0.047772 -0.831422 -0.436799
-0.047712 -0.832021 -0.453508
-0.045329 -0.828066 -0.467650
-0.037401 -0.829438 -0.480224
-0.034410 -0.810679 -0.206266
-0.033820 -0.822214 -0.222948
-0.033026 -0.819726 -0.211437
-0.038018 -0.810154 -0.222840
-0.040986 -0.810136 -0.239252
-0.042307 -0.810150 -0.255644
-0.045261 -0.808955 -0.273129
-0.046751 -0.813319 -0.288700
-0.047970 -0.816368 -0.301386
-0.038380 -0.813259 -0.479087
-0.046396 -0.812593 -0.470382
-0.035087 -0.795108 -0.172906
-0.033489 -0.806071 -0.190291
-0.033054 -0.803872 -0.177716
-0.037374 -0.793722 -0.190304
-0.039648 -0.793743 -0.206573
-0.044925 -0.792408 -0.223907
-0.046824 -0.795941 -0.238997
-0.047197 -0.797473 -0.255588
-0.047710 -0.799059 -0.268361
-0.038719 -0.796982 -0.477760
-0.046728 -0.796503 -0.471269
-0.037891 -0.777341 -0.157471
-0.033609 -0.789610 -0.157540
-0.032597 -0.785953 -0.148509
-0.035030 -0.778054 -0.142209
-0.040911 -0.777319 -0.173849
-0.043590 -0.777315 -0.190000
-0.046446 -0.776947 -0.204837
-0.047550 -0.782152 -0.219290
-0.038795 -0.780789 -0.476599
-0.046786 -0.780502 -0.471685
-0.034314 -0.761767 -0.091651
-0.033509 -0.771886 -0.108306
-0.032950 -0.770112 -0.096969
-0.036519 -0.760958 -0.108309
-0.038840 -0.760948 -0.124677
-0.034439 -0.774103 -0.124690
-0.041389 -0.760951 -0.141031
-0.043597 -0.760949 -0.157426
-0.046506 -0.760152 -0.174046
-0.047959 -0.765859 -0.189734
-0.048894 -0.768826 -0.198140
-0.037420 -0.764578 -0.475236
-0.045445 -0.764423 -0.471605
-0.035878 -0.744565 -0.075549
-0.033496 -0.756917 -0.075509
-0.032926 -0.754253 -0.064786
-0.034148 -0.745207 -0.059281
-0.038015 -0.744567 -0.091927
-0.040610 -0.744551 -0.108337
-0.043243 -0.744547 -0.124752
-0.046473 -0.743062 -0.142612
-0.047594 -0.747451 -0.157496
-0.048403 -0.750884 -0.168809
-0.040815 -0.748582 -0.470386
-0.035097 -0.754261 -0.474260
-0.036938 -0.728138 -0.042759
-0.033378 -0.739616 -0.042795
-0.032682 -0.736853 -0.034160
-0.034067 -0.727358 -0.027747
-0.038976 -0.728128 -0.059137
-0.040617 -0.728151 -0.075492
-0.043079 -0.728156 -0.091907
-0.046271 -0.727330 -0.107817
-0.047056 -0.731645 -0.124831
-0.048037 -0.734161 -0.138220
-0.035559 -0.712963 -0.009383
-0.033025 -0.721391 -0.014441
-0.039698 -0.711744 -0.026372
-0.042753 -0.711734 -0.042673
-0.045713 -0.710501 -0.059793
-0.046475 -0.714126 -0.075292
-0.047771 -0.717122 -0.091808
-0.048723 -0.719153 -0.102005
-0.037785 -0.695328 0.006465
-0.034026 -0.708095 0.006487
-0.032898 -0.704864 0.016152
-0.034030 -0.694256 0.022159
-0.041238 -0.695340 -0.009986
-0.045784 -0.693908 -0.027767
-0.047460 -0.697700 -0.042576
-0.048233 -0.700853 -0.054866
-0.037915 -0.678930 0.022936
-0.032798 -0.688101 0.031911
-0.033850 -0.678918 0.035012
-0.042181 -0.678920 0.006541
-0.044562 -0.678940 -0.009906
-0.047274 -0.678945 -0.023403
-0.041474 -0.693112 -0.456713
-0.041483 -0.701262 -0.458677
-0.042900 -0.662520 0.023021
-0.036736 -0.663619 0.040343
-0.046945 -0.662126 0.007321
-0.047506 -0.666946 -0.009797
-0.048234 -0.669076 -0.019973
-0.034403 -0.647313 0.087509
-0.033328 -0.656918 0.072031
-0.032633 -0.654498 0.080974
-0.036241 -0.646105 0.072047
-0.039813 -0.646109 0.055746
-0.034694 -0.660197 0.055691
-0.044953 -0.644481 0.037860
-0.047375 -0.649321 0.023125
-0.048733 -0.653083 0.013259
-0.033370 -0.628937 0.168855
-0.033089 -0.639824 0.153996
-0.032563 -0.637946 0.162189
-0.035645 -0.629745 0.153995
-0.033949 -0.642568 0.137689
-0.037778 -0.629736 0.137620
-0.038788 -0.629727 0.121681
-0.034682 -0.643569 0.121924
-0.039362 -0.629718 0.105587
-0.035129 -0.644354 0.105768
-0.039074 -0.629719 0.088883
-0.040607 -0.629720 0.072242
-0.044479 -0.629728 0.055816
-0.047683 -0.629733 0.042257
-0.034031 -0.614485 0.187268
-0.032840 -0.622961 0.181803
-0.035789 -0.613341 0.170754
-0.039347 -0.613354 0.154081
-0.042348 -0.613338 0.137559
-0.042501 -0.613330 0.121268
-0.042624 -0.613320 0.105128
-0.042906 -0.613310 0.089145
-0.044576 -0.613310 0.072795
-0.047795 -0.613428 0.056795
-0.048535 -0.618980 0.045806
-0.041488 -0.639206 -0.442075
-0.041470 -0.631011 -0.438153
-0.035623 -0.598348 0.204872
-0.033700 -0.609775 0.200217
-0.038123 -0.596912 0.187425
-0.039694 -0.596916 0.171074
-0.043628 -0.596934 0.154164
-0.047078 -0.596450 0.138912
-0.046518 -0.599567 0.121150
-0.046562 -0.599996 0.104959
-0.047150 -0.596768 0.088443
-0.047832 -0.598105 0.074286
-0.048901 -0.604392 0.063137
-0.034793 -0.582076 0.238270
-0.033906 -0.593157 0.220435
-0.032810 -0.589513 0.233883
-0.037607 -0.580496 0.220528
-0.040501 -0.580501 0.203662
-0.042505 -0.580498 0.187521
-0.045657 -0.578879 0.169417
-0.047601 -0.584488 0.154141
-0.048870 -0.588502 0.145256
-0.048821 -0.587862 0.080645
-0.048814 -0.587874 0.082709
-0.041466 -0.595561 -0.423340
-0.041458 -0.603799 -0.426536
-0.037904 -0.564100 0.252721
-0.034401 -0.579711 0.252788
-0.033553 -0.576817 0.265583
-0.034931 -0.565262 0.270192
-0.039088 -0.564092 0.236799
-0.041513 -0.564092 0.220383
-0.044662 -0.564097 0.203617
-0.047127 -0.563301 0.187919
-0.047848 -0.568236 0.173687
-0.038373 -0.547689 0.268903
-0.033273 -0.560557 0.279262
-0.034153 -0.547666 0.281364
-0.041209 -0.547689 0.252641
-0.042090 -0.547689 0.236531
-0.045693 -0.546662 0.218997
-0.047915 -0.552164 0.203494
-0.048838 -0.555361 0.193608
-0.041496 -0.569000 -0.411295
-0.041500 -0.560819 -0.407807
-0.035165 -0.530820 0.285794
-0.041180 -0.531282 0.268902
-0.044663 -0.531281 0.252669
-0.046642 -0.530529 0.237013
-0.047415 -0.535500 0.223831
-0.033829 -0.514855 0.296667
-0.032910 -0.525066 0.294661
-0.038292 -0.514868 0.285310
-0.043943 -0.514876 0.268919
-0.047780 -0.515839 0.253727
-0.048593 -0.521942 0.242699
-0.041467 -0.528790 -0.390534
-0.041479 -0.536979 -0.395049
-0.034808 -0.498456 0.298444
-0.040259 -0.498474 0.285314
-0.046488 -0.498896 0.268152
-0.048636 -0.504629 0.259760
-0.041936 -0.482067 0.285382
-0.035443 -0.482045 0.299614
-0.047132 -0.482071 0.272920
-0.044578 -0.508828 -0.376673
-0.040107 -0.502958 -0.371338
-0.045142 -0.464837 0.284555
-0.035790 -0.464798 0.303766
-0.048143 -0.469754 0.275627
-0.041500 -0.489411 -0.362019
-0.041488 -0.481195 -0.356453
-0.037344 -0.449238 0.303196
-0.032568 -0.458797 0.311748
-0.032560 -0.449246 0.311438
-0.045426 -0.449251 0.287263
-0.032426 -0.440308 0.310784
-0.035701 -0.434070 0.303693
-0.045419 -0.432993 0.284755
-0.042245 -0.453284 -0.334037
-0.048931 -0.461032 -0.342841
-0.036285 -0.416523 0.301034
-0.045217 -0.415418 0.284253
-0.048566 -0.427586 0.276911
-0.048544 -0.420128 0.276935
-0.046537 -0.444216 -0.326943
-0.040477 -0.436560 -0.318172
-0.045443 -0.400115 0.287331
-0.037248 -0.400167 0.300597
-0.045348 -0.427095 -0.310770
-0.040553 -0.421106 -0.304961
-0.044136 -0.383542 0.285143
-0.035361 -0.383917 0.296866
-0.041471 -0.409115 -0.295573
-0.041460 -0.400931 -0.288196
-0.032692 -0.375471 0.293682
-0.036607 -0.369202 0.284847
-0.048016 -0.377856 0.276421
-0.045643 -0.367625 0.273789
-0.041440 -0.385160 -0.269255
-0.041459 -0.393359 -0.279844
-0.043673 -0.349974 0.268496
-0.034151 -0.351824 0.278600
-0.039806 -0.369323 -0.250716
-0.044144 -0.363080 -0.243984
-0.040723 -0.354720 -0.236033
-0.033164 -0.362886 -0.244174
-0.041435 -0.379009 -0.260985
-0.032735 -0.342986 0.277176
-0.038236 -0.336739 0.269563
-0.048929 -0.343380 0.261017
-0.047734 -0.335315 0.259138
-0.048193 -0.346622 -0.227523
-0.041309 -0.338544 -0.219522
-0.037280 -0.345977 -0.228171
-0.041090 -0.319937 0.252941
-0.036410 -0.324528 0.264394
-0.045386 -0.331149 -0.210014
-0.034405 -0.329794 -0.211606
-0.040520 -0.325692 -0.203911
-0.045821 -0.315361 0.240961
-0.040067 -0.305602 0.235324
-0.034852 -0.310374 0.246816
-0.041488 -0.316564 -0.190777
-0.045336 -0.300841 0.225249
-0.039321 -0.289583 0.218746
-0.034311 -0.295148 0.229479
-0.041492 -0.310041 -0.182545
-0.041487 -0.301779 -0.172652
-0.045149 -0.283284 0.205566
-0.033264 -0.279116 0.212007
-0.036810 -0.275870 0.204186
-0.048654 -0.279822 0.195895
-0.041395 -0.271168 0.189634
-0.046842 -0.282163 -0.144077
-0.041428 -0.286181 -0.153991
-0.042454 -0.270345 -0.139745
-0.035858 -0.276808 -0.148659
-0.041461 -0.294570 -0.164349
-0.045109 -0.267025 0.173797
-0.036621 -0.255722 0.171324
-0.034182 -0.261629 0.183795
-0.047654 -0.263688 0.163611
-0.044641 -0.254603 0.159380
-0.049155 -0.263808 -0.130693
-0.049158 -0.263073 -0.130731
-0.041655 -0.256904 -0.138952
-0.039936 -0.241226 0.153530
-0.033679 -0.246497 0.163752
-0.036395 -0.239483 -0.148403
-0.034316 -0.250854 -0.147330
-0.044495 -0.239362 -0.141781
-0.046215 -0.235988 0.143802
-0.040843 -0.225803 0.137690
-0.035320 -0.229729 0.147621
-0.047155 -0.222909 -0.144194
-0.039075 -0.223012 -0.149659
-0.041015 -0.217077 0.127547
-0.042184 -0.204341 0.118344
-0.048799 -0.212000 -0.145707
-0.042618 -0.206643 -0.149946
-0.048426 -0.197777 0.112786
-0.042178 -0.189971 0.109879
-0.037495 -0.195790 0.113775
-0.041033 -0.173062 0.103553
-0.041026 -0.156205 0.101391
-0.041050 -0.139688 0.100457
-0.041102 -0.124063 0.099288
-0.041113 -0.107998 0.098697
-0.041019 -0.090531 0.098659
-0.047839 -0.098466 -0.161942
-0.036907 -0.102459 -0.162393
-0.041956 -0.107744 -0.161095
-0.042063 -0.092467 -0.163285
-0.040961 -0.073615 0.099010
-0.041028 -0.058197 0.099588
-0.041008 -0.041872 0.099825
-0.040875 -0.024114 0.099787
-0.040849 -0.007330 0.099997
-0.040946 0.008073 0.100416
-0.040928 0.024544 0.100649
-0.040794 0.041952 0.100750
-0.040747 0.058370 0.100991
-0.040759 0.074191 0.101224
-0.040740 0.090859 0.101233
-0.040718 0.107923 0.101134
-0.040776 0.124339 0.101314
-0.042046 0.141645 0.106176
-0.042074 0.152607 0.121971
-0.048283 0.147876 0.116610
-0.046700 0.162554 0.147414
-0.041153 0.170342 0.153417
-0.040983 0.179156 0.163560
-0.040976 0.185703 0.171948
-0.040936 0.198390 0.193526
-0.040951 0.194045 0.185297
-0.040918 0.212954 0.212310
-0.040907 0.222118 0.219617
-0.040880 0.231553 0.226918
-0.040865 0.250425 0.240899
-0.040865 0.239875 0.232509
-0.040778 0.265217 0.258777
-0.040803 0.258590 0.250515
-0.040808 0.273281 0.264676
-0.040880 0.285956 0.272853
-0.040856 0.304580 0.283918
-0.040832 0.294126 0.278140
-0.040862 0.316595 0.291142
-0.042051 0.339301 0.305194
-0.040882 0.324778 0.296459
-0.048222 0.345879 0.309904
-0.041978 0.353508 0.312549
-0.042135 0.371907 0.321582
-0.042127 0.386508 0.328257
-0.048396 0.378348 0.326279
-0.040849 0.403298 0.333875
-0.040834 0.420836 0.339832
-0.046253 0.427048 0.342986
-0.040812 0.435486 0.344832
-0.040787 0.452774 0.350203
-0.040128 0.470254 0.356375
-0.045129 0.476444 0.359316
-0.040095 0.484328 0.361146
-0.040746 0.501931 0.366341
-0.041143 0.519494 0.372388
-0.046795 0.525845 0.375756
-0.041075 0.534283 0.377696
-0.040646 0.551293 0.383978
-0.046955 0.532434 -0.286811
-0.054436 0.532444 -0.300886
-0.050090 0.538619 -0.293080
-0.049011 0.527678 -0.294771
-0.040610 0.564479 0.389572
-0.040618 0.572663 0.393254
-0.040626 0.584223 0.398218
-0.040598 0.599709 0.404959
-0.049895 0.572510 -0.277337
-0.052520 0.579032 -0.283793
-0.050436 0.583457 -0.275706
-0.048439 0.579004 -0.269968
-0.040600 0.607929 0.408556
-0.040621 0.617127 0.412176
-0.041563 0.634907 0.420397
-0.048062 0.614394 -0.253050
-0.051886 0.614381 -0.269263
-0.050113 0.620527 -0.258877
-0.048637 0.609590 -0.263834
-0.041569 0.649331 0.426771
-0.047628 0.641337 0.424824
-0.049349 0.623970 -0.247830
-0.052060 0.629592 -0.253226
-0.050641 0.634962 -0.241899
-0.048393 0.629607 -0.236258
-0.040639 0.666185 0.432921
-0.039293 0.682455 0.438991
-0.049537 0.656997 -0.229328
-0.051329 0.662557 -0.235518
-0.050082 0.667986 -0.227482
-0.047389 0.662560 -0.221008
-0.039358 0.697471 0.444664
-0.043886 0.687883 0.442219
-0.041357 0.716549 0.453069
-0.047208 0.722869 0.458121
-0.041332 0.731657 0.461655
-0.039318 0.748310 0.472829
-0.039354 0.763356 0.483122
-0.043887 0.753783 0.478902
-0.039567 0.779999 0.491525
-0.048016 0.759812 -0.204489
-0.053405 0.759869 -0.218235
-0.050136 0.764417 -0.210458
-0.049653 0.753467 -0.211747
-0.044279 0.784663 0.495156
-0.039588 0.796632 0.497296
-0.041441 0.814291 0.503892
-0.041527 0.830806 0.510409
-0.047360 0.819947 0.508632
-0.040946 0.846540 0.516105
-0.049638 0.819647 -0.196252
-0.051876 0.825771 -0.202715
-0.050129 0.830619 -0.193875
-0.048833 0.825775 -0.187835
-0.041321 0.862312 0.521094
-0.047293 0.844534 -0.172547
-0.050400 0.844513 -0.188171
-0.049785 0.850877 -0.179238
-0.049152 0.839924 -0.182613
-0.047043 0.871427 0.523435
-0.047012 0.867317 0.523446
-0.041421 0.876562 0.521649
-0.041175 0.892389 0.514672
-0.046435 0.876463 -0.155659
-0.051689 0.876489 -0.170090
-0.050094 0.882267 -0.161428
-0.049161 0.871278 -0.164381
-0.041211 0.901128 0.508128
-0.041221 0.904398 0.499915
-0.041171 0.909568 0.484152
-0.040253 0.914935 0.465923
-0.045062 0.916824 0.458661
-0.040183 0.917578 0.452522
-0.034230 0.916877 0.459500
-0.041075 0.919146 0.435034
-0.041134 0.921188 0.418849
-0.041189 0.924760 0.402330
-0.041250 0.927932 0.385842
-0.041305 0.930010 0.369506
-0.051367 0.932913 0.360209
-0.041342 0.932110 0.358356
-0.041378 0.934871 0.350110
-0.047040 0.922453 -0.121563
-0.051219 0.930786 -0.121533
-0.050497 0.932215 -0.110956
-0.045261 0.926094 -0.105276
-0.052493 0.927859 -0.137997
-0.048635 0.919529 -0.138010
-0.055151 0.923897 -0.152847
-0.049747 0.917302 -0.146441
-0.041461 0.938886 0.336737
-0.041508 0.942999 0.320290
-0.041612 0.947246 0.303518
-0.053387 0.948617 0.308368
-0.047161 0.950528 0.297821
-0.046638 0.937948 -0.088527
-0.052682 0.946368 -0.088605
-0.050918 0.949140 -0.076524
-0.044671 0.942973 -0.071398
-0.054147 0.941242 -0.105233
-0.048896 0.935098 -0.099908
-0.041686 0.953424 0.288195
-0.041451 0.961458 0.272659
-0.046852 0.968974 0.267440
-0.041599 0.974186 0.255057
-0.047222 0.983180 0.249303
-0.041705 0.983895 0.239214
-0.041591 0.985067 0.222757
-0.041637 0.985415 0.206506
-0.041614 0.985724 0.190021
-0.041578 0.986010 0.173495
-0.041606 0.986257 0.157200
-0.041634 0.986494 0.140926
-0.041592 0.986826 0.124448
-0.041558 0.987116 0.108003
-0.041585 0.987268 0.091706
-0.041606 0.987372 0.075343
-0.041583 0.987484 0.058834
-0.041581 0.987393 0.042455
-0.041625 0.986961 0.026248
-0.041638 0.986549 0.009877
-0.041596 0.986350 -0.006691
-0.040604 0.985737 -0.022037
-0.043969 0.985801 -0.039377
-0.045467 0.985674 -0.055815
-0.046900 0.985397 -0.072311
-0.048574 0.984656 -0.088612
-0.049610 0.984109 -0.098343
-0.018683 -0.892556 -0.338110
-0.016626 -0.901615 -0.353985
-0.016154 -0.900533 -0.345346
-0.020878 -0.892245 -0.354050
-0.022280 -0.892241 -0.370403
-0.017382 -0.903283 -0.370344
-0.017807 -0.904374 -0.386153
-0.022940 -0.892290 -0.385736
-0.018134 -0.905621 -0.402583
-0.023352 -0.892349 -0.402319
-0.018366 -0.906875 -0.419439
-0.023700 -0.892372 -0.419768
-0.024543 -0.892487 -0.436719
-0.018727 -0.907311 -0.436372
-0.024822 -0.892691 -0.453390
-0.018842 -0.906809 -0.453184
-0.023239 -0.892823 -0.469772
-0.018211 -0.905611 -0.469687
-0.017271 -0.903700 -0.484738
-0.020671 -0.893383 -0.484446
-0.016709 -0.902395 -0.491834
-0.017945 -0.894180 -0.494377
-0.023890 -0.875822 -0.320400
-0.018022 -0.887644 -0.320161
-0.016984 -0.885632 -0.309549
-0.020435 -0.876929 -0.304530
-0.027750 -0.874425 -0.337835
-0.028582 -0.877408 -0.353961
-0.029244 -0.878287 -0.370282
-0.029477 -0.877979 -0.385812
-0.029588 -0.878077 -0.402340
-0.029731 -0.878500 -0.419671
-0.030191 -0.879327 -0.436670
-0.030336 -0.879428 -0.453434
-0.030022 -0.875759 -0.470748
-0.025596 -0.877322 -0.484093
-0.019215 -0.878014 -0.499322
-0.018520 -0.859328 -0.224121
-0.016888 -0.869001 -0.239572
-0.016373 -0.868087 -0.230310
-0.021529 -0.859374 -0.239544
-0.017326 -0.869830 -0.255721
-0.022501 -0.859382 -0.255975
-0.018070 -0.871174 -0.272033
-0.024144 -0.859396 -0.272378
-0.028087 -0.858199 -0.289085
-0.019452 -0.873431 -0.288634
-0.029036 -0.861314 -0.304889
-0.030169 -0.862787 -0.320850
-0.031244 -0.864850 -0.333386
-0.032557 -0.867925 -0.476377
-0.029835 -0.862476 -0.484170
-0.020464 -0.862454 -0.499788
-0.016764 -0.868078 -0.506759
-0.016763 -0.872711 -0.506757
-0.019202 -0.842963 -0.190333
-0.016212 -0.851593 -0.190365
-0.016275 -0.851677 -0.180612
-0.017583 -0.843130 -0.174741
-0.021315 -0.842990 -0.206597
-0.016805 -0.853210 -0.206760
-0.025268 -0.842991 -0.223065
-0.029253 -0.841560 -0.240611
-0.029434 -0.844265 -0.256044
-0.030333 -0.846666 -0.272433
-0.031615 -0.849275 -0.284029
-0.022700 -0.846385 -0.496545
-0.030703 -0.845853 -0.488066
-0.018903 -0.826957 -0.157561
-0.016743 -0.837806 -0.163119
-0.022977 -0.826550 -0.174098
-0.025830 -0.826545 -0.190261
-0.029228 -0.825750 -0.206165
-0.030652 -0.830451 -0.223043
-0.031865 -0.833084 -0.235910
-0.022503 -0.830174 -0.493741
-0.030504 -0.829968 -0.488373
-0.020398 -0.810147 -0.124815
-0.016871 -0.820856 -0.124795
-0.016533 -0.819887 -0.111591
-0.018486 -0.811729 -0.107049
-0.017450 -0.822263 -0.141027
-0.022038 -0.810156 -0.141112
-0.025761 -0.810156 -0.157557
-0.029953 -0.809661 -0.172978
-0.031072 -0.814307 -0.190265
-0.032026 -0.816504 -0.200591
-0.025216 -0.812967 -0.487648
-0.020117 -0.817877 -0.491557
-0.021676 -0.793774 -0.092010
-0.017473 -0.807334 -0.092010
-0.016517 -0.803802 -0.079639
-0.018651 -0.795108 -0.074777
-0.024508 -0.793757 -0.108418
-0.026376 -0.793744 -0.124813
-0.029118 -0.792357 -0.142300
-0.030924 -0.797827 -0.157595
-0.032328 -0.801501 -0.166786
-0.023627 -0.777343 -0.059282
-0.017995 -0.791678 -0.059266
-0.017020 -0.788779 -0.046080
-0.019830 -0.778847 -0.041499
-0.025966 -0.777360 -0.075578
-0.029079 -0.776300 -0.091692
-0.030085 -0.780104 -0.108381
-0.031083 -0.782323 -0.124795
-0.031724 -0.784013 -0.137605
-0.018468 -0.762098 -0.009670
-0.017859 -0.773758 -0.026329
-0.016374 -0.770087 -0.014955
-0.022720 -0.760970 -0.026338
-0.026952 -0.760960 -0.042855
-0.030164 -0.760219 -0.059301
-0.031323 -0.765137 -0.075547
-0.032158 -0.767772 -0.086018
-0.017895 -0.743970 0.022135
-0.017392 -0.757237 0.006440
-0.016422 -0.754125 0.016087
-0.021478 -0.744548 0.006542
-0.024205 -0.744563 -0.009855
-0.028891 -0.743231 -0.027721
-0.031231 -0.747838 -0.042849
-0.032097 -0.751138 -0.053918
-0.022906 -0.728141 0.022961
-0.016573 -0.738143 0.032814
-0.018054 -0.727499 0.038703
-0.027175 -0.728134 0.006601
-0.030095 -0.727373 -0.009297
-0.030967 -0.732334 -0.023191
-0.029352 -0.754324 -0.474257
-0.024334 -0.748711 -0.472007
-0.019599 -0.711726 0.055719
-0.016538 -0.721493 0.055655
-0.016203 -0.720321 0.064596
-0.017564 -0.711960 0.070846
-0.023252 -0.711739 0.039397
-0.029107 -0.710890 0.022190
-0.031331 -0.716309 0.006519
-0.032283 -0.719249 -0.003489
-0.018491 -0.696934 0.107510
-0.017107 -0.707202 0.088695
-0.016755 -0.705288 0.102896
-0.020499 -0.695340 0.088672
-0.022217 -0.695331 0.071991
-0.024526 -0.695327 0.055763
-0.029065 -0.694285 0.038244
-0.031378 -0.699056 0.027130
-0.020530 -0.678937 0.153996
-0.016955 -0.689823 0.154007
-0.016222 -0.687523 0.164099
-0.018257 -0.680106 0.169905
-0.017951 -0.693240 0.137786
-0.022243 -0.678931 0.137703
-0.022307 -0.678928 0.121745
-0.018197 -0.694893 0.122115
-0.022989 -0.678930 0.105439
-0.025243 -0.678934 0.088585
-0.027375 -0.678924 0.071999
-0.028966 -0.678930 0.055685
-0.031081 -0.678943 0.043229
-0.030529 -0.691771 -0.457349
-0.025089 -0.698026 -0.459110
-0.019651 -0.690524 -0.457934
-0.025053 -0.684163 -0.454851
-0.020292 -0.662528 0.203467
-0.017082 -0.673966 0.203462
-0.016217 -0.671153 0.212257
-0.017394 -0.662512 0.216756
-0.022512 -0.662531 0.186861
-0.018099 -0.677169 0.186853
-0.023974 -0.662540 0.170407
-0.025984 -0.662537 0.153995
-0.027574 -0.662522 0.137673
-0.027548 -0.662517 0.121651
-0.027987 -0.662525 0.105368
-0.030399 -0.660996 0.087380
-0.031239 -0.665131 0.071997
-0.031825 -0.668400 0.055635
-0.032187 -0.669822 0.046432
-0.019793 -0.646116 0.253079
-0.016612 -0.656404 0.252985
-0.016596 -0.656484 0.263914
-0.018373 -0.646829 0.269167
-0.018330 -0.647710 0.236842
-0.016253 -0.654940 0.240827
-0.019924 -0.647713 0.223037
-0.024738 -0.646126 0.203454
-0.027161 -0.646132 0.186835
-0.029744 -0.644508 0.168770
-0.030615 -0.648037 0.153973
-0.031469 -0.650761 0.137661
-0.031611 -0.651765 0.121773
-0.031849 -0.652546 0.105549
-0.032339 -0.653579 0.092224
-0.022270 -0.629729 0.268860
-0.017064 -0.641852 0.280288
-0.018146 -0.629712 0.283499
-0.023730 -0.629728 0.253026
-0.022836 -0.629721 0.237861
-0.024846 -0.629723 0.221054
-0.028685 -0.629736 0.203427
-0.031192 -0.628955 0.187068
-0.031832 -0.633894 0.173184
-0.024958 -0.613324 0.268863
-0.019215 -0.614764 0.286880
-0.026482 -0.613318 0.252787
-0.025756 -0.613322 0.237132
-0.028113 -0.613325 0.220524
-0.031653 -0.614484 0.204781
-0.032389 -0.620727 0.192672
-0.025059 -0.639006 -0.442233
-0.025046 -0.630773 -0.438581
-0.023611 -0.596909 0.285329
-0.016808 -0.610244 0.296965
-0.018496 -0.597365 0.302177
-0.028271 -0.596912 0.268886
-0.030030 -0.596903 0.252733
-0.030397 -0.595755 0.238180
-0.031167 -0.601374 0.220319
-0.032469 -0.604778 0.211207
-0.023062 -0.580489 0.301866
-0.016882 -0.592226 0.312668
-0.018264 -0.580475 0.316018
-0.027928 -0.580499 0.285415
-0.031526 -0.581575 0.270190
-0.032376 -0.587906 0.252755
-0.032512 -0.588592 0.244335
-0.025021 -0.604841 -0.426854
-0.025022 -0.596581 -0.422599
-0.025365 -0.564084 0.301828
-0.018859 -0.565522 0.319726
-0.030661 -0.565261 0.285036
-0.032436 -0.571513 0.276528
-0.016816 -0.547657 0.329243
-0.016290 -0.561002 0.327604
-0.020622 -0.547669 0.318089
-0.026285 -0.547674 0.301732
-0.030769 -0.547681 0.289597
-0.025036 -0.571644 -0.410150
-0.025029 -0.563413 -0.406627
-0.022448 -0.531268 0.318094
-0.017683 -0.531256 0.332085
-0.029087 -0.530826 0.300758
-0.031533 -0.535999 0.291591
-0.024321 -0.514863 0.318161
-0.018411 -0.514853 0.333801
-0.030081 -0.514864 0.304876
-0.025012 -0.539617 -0.393860
-0.025015 -0.531408 -0.388351
-0.024807 -0.498461 0.318570
-0.018360 -0.498456 0.332694
-0.030635 -0.498468 0.306745
