0.368039 0.778113 -0.173518
0.368011 0.791507 -0.187008
0.368749 0.796433 -0.108477
0.363216 0.802779 -0.114672
0.367904 0.809709 -0.124753
0.361665 0.818895 -0.132418
0.367941 0.823043 -0.141337
0.369020 0.831977 -0.153406
0.359027 0.834355 -0.150028
0.369030 0.837667 -0.161545
0.356102 0.849048 -0.168848
0.369108 0.846134 -0.174068
0.363653 0.852232 -0.179524
0.369057 0.854767 -0.189818
0.368841 0.860814 -0.206066
0.367708 0.864459 -0.219976
0.360545 0.867554 -0.213835
0.361527 0.867961 -0.223850
0.361532 0.867958 -0.229051
0.384003 -0.864504 -0.204508
0.377063 -0.867636 -0.198791
0.370528 -0.871376 -0.204496
0.377741 -0.868146 -0.208155
0.385363 -0.845699 -0.173807
0.372155 -0.848432 -0.168724
0.367690 -0.854034 -0.174014
0.379861 -0.852399 -0.179733
0.385456 -0.837054 -0.161120
0.376088 -0.834180 -0.149968
0.385513 -0.831929 -0.153260
0.385318 -0.809798 -0.124238
0.379028 -0.819159 -0.131856
0.384937 -0.832539 -0.216137
0.384924 -0.824368 -0.209414
0.385880 -0.797241 -0.107328
0.372658 -0.799635 -0.102006
0.367968 -0.804829 -0.107531
0.380727 -0.803352 -0.113188
0.384985 -0.806853 -0.193935
0.384961 -0.815182 -0.201285
0.384584 -0.776797 -0.075181
0.377913 -0.785872 -0.081959
0.380380 -0.770819 -0.064333
0.372347 -0.766686 -0.053444
0.367809 -0.773062 -0.058463
0.385657 -0.763929 -0.058600
0.385036 -0.775955 -0.176067
0.385044 -0.784140 -0.180915
0.378780 -0.753481 -0.031367
0.373980 -0.750953 -0.020003
0.368805 -0.755505 -0.025279
0.384764 -0.748235 -0.025166
0.386012 -0.762216 -0.167080
0.381250 -0.756094 -0.161601
0.386402 -0.746329 -0.154290
0.392120 -0.754126 -0.163167
0.386286 -0.733051 0.007692
0.375268 -0.735137 0.013158
0.369607 -0.740020 0.007641
0.381333 -0.737851 0.002720
0.380664 -0.738564 -0.145527
0.391547 -0.737000 -0.146966
0.385255 -0.729443 -0.138122
0.377946 -0.720093 0.049087
0.384268 -0.713973 0.055296
0.378963 -0.721907 -0.129083
0.384699 -0.715388 -0.122676
0.389823 -0.720289 -0.130742
0.385606 -0.701205 0.076708
0.376049 -0.703042 0.080024
0.370111 -0.708775 0.073961
0.385610 -0.705762 0.068589
0.385099 -0.706697 -0.111838
0.378355 -0.687428 0.115243
0.384585 -0.681742 0.120981
0.385122 -0.699905 -0.103541
0.385146 -0.691613 -0.093083
0.385342 -0.665584 0.170485
0.375186 -0.668997 0.176026
0.369634 -0.673687 0.170882
0.379467 -0.671528 0.164812
0.381493 -0.673548 -0.060878
0.386249 -0.677150 -0.070845
0.392417 -0.671224 -0.064548
0.386273 -0.668003 -0.055508
0.385188 -0.685674 -0.084836
0.384625 -0.649731 0.203523
0.374931 -0.652857 0.208979
0.369464 -0.657179 0.203857
0.378487 -0.654739 0.197106
0.385224 -0.659383 -0.041987
0.380205 -0.639107 0.266123
0.385573 -0.629927 0.270866
0.377196 -0.639962 -0.014375
0.383648 -0.644690 -0.022681
0.383658 -0.635436 -0.007860
0.388044 -0.638101 -0.017150
0.385218 -0.653768 -0.033723
0.385618 -0.615173 0.280773
0.380059 -0.624012 0.277787
0.384926 -0.627508 0.009789
0.379346 -0.625025 0.019772
0.386096 -0.616001 0.026883
0.390203 -0.621799 0.015089
0.385803 -0.598704 0.287741
0.373641 -0.599144 0.291747
0.381969 -0.610186 0.038107
0.392857 -0.607032 0.033959
0.387501 -0.600717 0.044412
0.376562 -0.588166 0.293028
0.385379 -0.582361 0.291762
0.382125 -0.594486 0.053124
0.386349 -0.583638 0.059777
0.393044 -0.590611 0.050710
0.385224 -0.566722 0.294264
0.379535 -0.577044 0.293499
0.379674 -0.576573 0.068441
0.390567 -0.573901 0.066408
0.385090 -0.568076 0.072758
0.385554 -0.550460 0.296129
0.385482 -0.534091 0.296603
0.385022 -0.555813 0.081569
0.385008 -0.547622 0.087120
0.385517 -0.517410 0.296638
0.383937 -0.533203 0.095581
0.377793 -0.526711 0.100554
0.388681 -0.522429 0.099047
0.384005 -0.517287 0.101831
0.385673 -0.500879 0.297970
0.385838 -0.484260 0.299468
0.385904 -0.467357 0.299688
0.385896 -0.450650 0.299820
0.385825 -0.434484 0.300747
0.378889 -0.444103 0.116981
0.384807 -0.450378 0.114440
0.384719 -0.435696 0.118730
0.389729 -0.441583 0.116095
0.385778 -0.418101 0.301330
0.385811 -0.401110 0.300895
0.385906 -0.384457 0.300785
0.386030 -0.368388 0.301128
0.386066 -0.351968 0.301879
0.385997 -0.335133 0.303361
0.384242 -0.351545 0.131052
0.377831 -0.345073 0.133140
0.384113 -0.335320 0.134130
0.388683 -0.340007 0.132336
0.385885 -0.318753 0.304333
0.385789 -0.302808 0.304656
0.386940 -0.304034 0.131646
0.390140 -0.316712 0.132396
0.384987 -0.321361 0.134447
0.378780 -0.304110 0.133600
0.385785 -0.286369 0.303985
0.386327 -0.287500 0.131868
0.378175 -0.287535 0.133295
0.385866 -0.269515 0.302737
0.384471 -0.270849 0.134071
0.389284 -0.276528 0.132690
0.385911 -0.253075 0.303079
0.385929 -0.236855 0.304179
0.385920 -0.220330 0.303798
0.385919 -0.203748 0.302646
0.385984 -0.187533 0.301866
0.386074 -0.171344 0.301230
0.386154 -0.154774 0.300467
0.385574 -0.168263 0.150126
0.385505 -0.176571 0.149072
0.386137 -0.138435 0.300589
0.385934 -0.122951 0.302244
0.385729 -0.107154 0.304251
0.385655 -0.090226 0.305507
0.385699 -0.073602 0.305239
0.385830 -0.057839 0.303231
0.385924 -0.041651 0.301563
0.385973 -0.024713 0.301083
0.385989 -0.008128 0.301129
0.385974 0.007958 0.301685
0.385888 0.024448 0.302075
0.385756 0.041307 0.302298
0.385771 0.057720 0.303076
0.385887 0.073837 0.304078
0.385916 0.090376 0.304524
0.385901 0.107061 0.304598
0.385936 0.123271 0.304474
0.385976 0.139366 0.304241
0.385947 0.155916 0.304135
0.385876 0.172382 0.304179
0.385826 0.188290 0.304256
0.385823 0.204334 0.304162
0.385860 0.220983 0.303493
0.385920 0.237738 0.303906
0.385996 0.254371 0.306432
0.386051 0.271018 0.307895
0.386070 0.287667 0.307495
0.386062 0.303766 0.307309
0.386026 0.319330 0.307600
0.386047 0.335538 0.307685
0.386112 0.352389 0.307722
0.386100 0.368693 0.306971
0.386052 0.384600 0.305588
0.386096 0.401117 0.305643
0.386174 0.417910 0.306543
0.386096 0.434073 0.305879
0.380145 0.436475 0.150180
0.391662 0.424086 0.148640
0.386088 0.419178 0.151443
0.388238 0.436406 0.147262
0.385925 0.449992 0.304442
0.377842 0.445148 0.149412
0.384150 0.451446 0.145690
0.385778 0.466330 0.303748
0.385643 0.482786 0.303311
0.385541 0.499109 0.303676
0.389392 0.502076 0.131212
0.392061 0.491867 0.132585
0.386138 0.486049 0.136923
0.381296 0.502080 0.135240
0.385527 0.515537 0.303634
0.378477 0.513606 0.133903
0.384406 0.518897 0.129527
0.385573 0.532252 0.302385
0.385642 0.548855 0.300871
0.385718 0.565068 0.299291
0.385397 0.569007 0.112132
0.390765 0.555496 0.114614
0.385276 0.550599 0.119856
0.379864 0.564260 0.118172
0.385798 0.581344 0.296918
0.385840 0.594089 0.294341
0.381565 0.596160 0.092095
0.389798 0.588579 0.092101
0.384154 0.582937 0.103808
0.377765 0.592920 0.100750
0.393487 0.592265 0.083696
0.387980 0.602797 0.077693
0.385876 0.602289 0.290793
0.375547 0.605189 0.292643
0.386164 0.614687 0.282172
0.386579 0.617576 0.060037
0.393460 0.608589 0.067200
0.382454 0.611665 0.071705
0.380856 0.623722 0.278139
0.379705 0.626390 0.052874
0.390668 0.623433 0.047412
0.385243 0.628609 0.042232
0.386941 0.630568 0.270497
0.382096 0.641363 0.265115
0.384418 0.643600 0.008305
0.389327 0.638485 0.012765
0.384479 0.635932 0.025912
0.378407 0.642042 0.020125
0.374245 0.652296 0.261022
0.386635 0.646564 0.258278
0.385299 0.658158 0.249392
0.384280 0.658495 -0.024539
0.389085 0.654139 -0.020022
0.384292 0.650975 -0.007394
0.378172 0.657134 -0.013494
0.385331 0.666351 0.241438
0.375759 0.669893 0.244922
0.385342 0.674610 0.232585
0.384692 0.679855 -0.072736
0.392018 0.671591 -0.065273
0.386037 0.670129 -0.054686
0.381057 0.674427 -0.059298
0.384881 0.681907 0.220595
0.376202 0.686463 0.226307
0.379104 0.688695 0.215197
0.386219 0.679354 0.186112
0.371938 0.683381 0.170405
0.374993 0.685373 0.181709
0.383452 0.675148 0.170376
0.382893 0.674071 0.153990
0.386365 0.674958 0.138004
0.373241 0.685435 0.126229
0.385633 0.682851 0.121147
0.380217 0.688502 0.115627
0.383806 0.691758 -0.089011
0.388315 0.685210 -0.083701
0.377376 0.688185 -0.080116
0.380145 0.689504 0.203198
0.379294 0.688789 0.192625
0.385599 0.690857 0.105346
0.383843 0.698300 0.087174
0.372210 0.701806 0.091806
0.377283 0.703650 0.080483
0.382413 0.707002 -0.109083
0.393359 0.703807 -0.113375
0.386850 0.701189 -0.104222
0.385314 0.712766 -0.121510
0.380560 0.705480 0.072318
0.386441 0.709599 0.056922
0.385725 0.717247 0.040785
0.376347 0.719646 0.047036
0.380427 0.721471 0.036088
0.383780 0.724666 -0.137589
0.388229 0.718453 -0.131794
0.377284 0.720326 -0.129575
0.385688 0.723080 0.022845
0.383799 0.730645 0.005446
0.377281 0.736410 -0.001045
0.383770 0.737756 -0.010676
0.385284 0.741912 -0.025645
0.383625 0.748090 -0.043345
0.377066 0.752788 -0.049832
0.383648 0.755499 -0.058842
0.385047 0.764562 -0.075300
0.372137 0.767171 -0.069918
0.379410 0.770964 -0.081033
0.384130 0.776567 -0.092144
0.377896 0.785975 -0.098302
0.384132 0.789430 -0.107517
0.374098 0.800842 -0.116902
0.385241 0.798306 -0.118926
0.385276 0.805933 -0.127397
0.372589 0.816485 -0.135848
0.386307 0.814747 -0.141168
0.381472 0.820520 -0.146794
0.384684 0.825570 -0.231525
0.389831 0.817077 -0.228997
0.384670 0.812690 -0.221365
0.378889 0.819471 -0.227229
0.385269 0.826533 -0.157544
0.378133 0.835316 -0.164884
0.384363 0.838088 -0.174553
0.374592 0.849772 -0.184285
0.385655 0.846864 -0.189849
0.380324 0.852276 -0.194843
0.385587 0.853589 -0.206205
0.385227 0.856642 -0.221330
0.385210 0.854442 -0.231879
0.367737 0.859682 -0.232881
0.403043 -0.847722 -0.189513
0.390760 -0.849863 -0.183457
0.385408 -0.856924 -0.189713
0.398344 -0.853951 -0.194769
0.401546 -0.826281 -0.157149
0.394211 -0.835150 -0.164140
0.397934 -0.820610 -0.145960
0.389933 -0.816213 -0.134999
0.384939 -0.823115 -0.140738
0.402813 -0.813796 -0.140461
0.393837 -0.821358 -0.211447
0.400258 -0.827544 -0.218507
0.404791 -0.818758 -0.213862
0.399753 -0.812176 -0.204500
0.401880 -0.805081 -0.128174
0.391604 -0.800921 -0.116590
0.401831 -0.798334 -0.119583
0.394656 -0.805350 -0.194998
0.400664 -0.796299 -0.191805
0.405597 -0.801793 -0.197245
0.401496 -0.779468 -0.091473
0.388773 -0.782760 -0.086489
0.384166 -0.788211 -0.091294
0.395702 -0.786526 -0.097288
0.401882 -0.765100 -0.071806
0.391260 -0.767811 -0.068327
0.401907 -0.771272 -0.079973
0.402196 -0.779188 -0.182463
0.397247 -0.773409 -0.177744
0.408187 -0.770677 -0.179353
0.402259 -0.764267 -0.173033
0.394623 -0.753322 -0.048604
0.389641 -0.750807 -0.037321
0.384690 -0.755318 -0.042394
0.400835 -0.747624 -0.042201
0.397323 -0.738013 -0.012101
0.392194 -0.735516 -0.001877
0.386278 -0.740437 -0.007548
0.402472 -0.732904 -0.007270
0.401587 -0.743779 -0.157007
0.401552 -0.752295 -0.164401
0.402478 -0.717112 0.025260
0.393720 -0.719905 0.031887
0.387222 -0.725045 0.025209
0.397300 -0.721927 0.020741
0.401635 -0.734579 -0.148732
0.401612 -0.726472 -0.141337
0.394306 -0.703879 0.065305
0.402020 -0.695220 0.072931
0.393519 -0.705355 -0.113063
0.400010 -0.709054 -0.121504
0.404468 -0.703387 -0.116025
0.400516 -0.696541 -0.105393
0.401603 -0.717918 -0.133005
0.401147 -0.681348 0.105280
0.389274 -0.685121 0.110349
0.384534 -0.689252 0.105594
0.394944 -0.687816 0.099388
0.396575 -0.689717 -0.095448
0.401918 -0.683661 -0.089425
0.407535 -0.687787 -0.097743
0.395922 -0.671651 0.132994
0.392308 -0.669747 0.143807
0.386400 -0.673983 0.138262
0.401725 -0.666225 0.138213
0.401665 -0.674538 -0.075682
0.395751 -0.655293 0.180650
0.389445 -0.651919 0.191565
0.384755 -0.657414 0.186662
0.401603 -0.648675 0.186626
0.395373 -0.656907 -0.045523
0.401170 -0.660475 -0.055676
0.401639 -0.648069 -0.039026
0.406322 -0.653599 -0.050174
0.401679 -0.668751 -0.067427
0.400798 -0.633640 0.239197
0.391690 -0.636875 0.244284
0.385940 -0.640947 0.239253
0.394528 -0.638284 0.233309
0.396938 -0.642547 -0.028178
0.402109 -0.635850 -0.022679
0.407893 -0.638483 -0.032516
0.396865 -0.625133 0.267120
0.390956 -0.620373 0.275553
0.403180 -0.614798 0.271807
0.401595 -0.627671 -0.006142
0.396126 -0.624997 0.004156
0.401616 -0.619067 0.009755
0.407082 -0.622071 -0.000601
0.403320 -0.599463 0.281742
0.398543 -0.610062 0.278788
0.401604 -0.610839 0.022974
0.402180 -0.581888 0.288467
0.401634 -0.596512 0.040409
0.401631 -0.604760 0.031196
0.390433 -0.572157 0.292773
0.402192 -0.570085 0.292103
0.401606 -0.580653 0.056235
0.401648 -0.588578 0.048682
0.401979 -0.550396 0.295486
0.402114 -0.562357 0.293937
0.401496 -0.563923 0.071358
0.401552 -0.571865 0.064530
0.401897 -0.534063 0.296386
0.401429 -0.545290 0.085667
0.401444 -0.553435 0.079632
0.401929 -0.517415 0.296565
0.402077 -0.500965 0.297777
0.402329 -0.517385 0.098233
0.397392 -0.511433 0.100781
0.408454 -0.509084 0.100070
0.402490 -0.502750 0.102366
0.402229 -0.484430 0.299083
0.402278 -0.467567 0.299229
0.402265 -0.450837 0.299196
0.402212 -0.434575 0.299993
0.402184 -0.418118 0.300686
0.401814 -0.431085 0.118233
0.401869 -0.439265 0.115393
0.402215 -0.401148 0.300386
0.402293 -0.384541 0.300371
0.402389 -0.368512 0.300848
0.402425 -0.352079 0.301735
0.402381 -0.335185 0.303005
0.402284 -0.318801 0.303725
0.400911 -0.335263 0.131657
0.394725 -0.328927 0.133275
0.394718 -0.327362 0.133279
0.400809 -0.321277 0.131840
0.402183 -0.302881 0.304065
0.402172 -0.286439 0.303345
0.402237 -0.269573 0.301985
0.402293 -0.253137 0.302281
0.401518 -0.270838 0.131881
0.395898 -0.265379 0.133754
0.401548 -0.254172 0.134740
0.406884 -0.259584 0.132407
0.402333 -0.236924 0.303417
0.402327 -0.220395 0.302849
0.402321 -0.203802 0.301492
0.402399 -0.187553 0.301112
0.402492 -0.171355 0.301067
0.402542 -0.154880 0.300547
0.400516 -0.170774 0.147807
0.394071 -0.164449 0.149490
0.405099 -0.161322 0.148670
0.400606 -0.155820 0.150863
0.402500 -0.138677 0.300689
0.402295 -0.123192 0.302452
0.402111 -0.107307 0.304466
0.402083 -0.090331 0.305350
0.402155 -0.073621 0.305074
0.402275 -0.057741 0.303677
0.402366 -0.041510 0.302532
0.402421 -0.024630 0.302296
0.402436 -0.008125 0.302231
0.402402 0.007916 0.302768
0.402339 0.024434 0.303076
0.402273 0.041362 0.302856
0.402292 0.057871 0.303496
0.402366 0.074073 0.304624
0.402380 0.090498 0.305028
0.402366 0.106968 0.304920
0.402386 0.123147 0.304777
0.402404 0.139298 0.304596
0.402384 0.155842 0.304506
0.402325 0.172335 0.304648
0.402255 0.188369 0.305143
0.402217 0.204472 0.305319
0.402230 0.220988 0.304807
0.402288 0.237618 0.305088
0.402377 0.254228 0.306926
0.402463 0.270829 0.307952
0.402542 0.287390 0.307533
0.402567 0.303542 0.307669
0.402531 0.319299 0.308206
0.402535 0.335587 0.308280
0.402570 0.352395 0.308023
0.402548 0.368698 0.307352
0.402487 0.384615 0.306353
0.402473 0.401012 0.306282
0.406725 0.403545 0.148512
0.410033 0.394609 0.149349
0.403639 0.388335 0.151913
0.398583 0.403539 0.150953
0.402473 0.417620 0.306500
0.395014 0.413114 0.149747
0.401065 0.419099 0.146843
0.402349 0.433739 0.305950
0.402164 0.449745 0.305263
0.402038 0.466187 0.304396
0.401952 0.482757 0.303619
0.401868 0.486077 0.131255
0.407604 0.475339 0.132483
0.401996 0.469560 0.135818
0.396678 0.480866 0.134198
0.401918 0.499211 0.303085
0.401964 0.515710 0.302342
0.402049 0.532430 0.301301
0.402134 0.548983 0.299699
0.400910 0.550609 0.110974
0.405769 0.539793 0.114619
0.400848 0.534621 0.118692
0.394768 0.544562 0.117188
0.402188 0.565068 0.297699
0.402006 0.581641 0.294858
0.400597 0.579783 0.090786
0.405163 0.570827 0.095443
0.400571 0.566383 0.102592
0.394226 0.576546 0.100666
0.396416 0.591041 0.293668
0.403830 0.602535 0.061663
0.409895 0.592166 0.067092
0.403420 0.589156 0.077162
0.398881 0.597716 0.072699
0.402057 0.596846 0.288112
0.402197 0.609561 0.279602
0.397730 0.612605 0.056247
0.408771 0.607354 0.048131
0.401745 0.616837 0.042216
0.402109 0.617520 0.273162
0.391780 0.620371 0.275991
0.401952 0.626019 0.265845
0.394703 0.625731 0.036359
0.405970 0.621260 0.026187
0.397664 0.627645 0.026247
0.408952 0.623946 0.015909
0.401236 0.632598 0.008854
0.401878 0.634189 0.258735
0.393020 0.637461 0.262075
0.400544 0.645379 0.249848
0.397501 0.643027 -0.006500
0.405785 0.638052 -0.006459
0.393527 0.640928 0.001795
0.409788 0.640500 -0.014827
0.401655 0.648522 -0.022971
0.394131 0.654811 0.246917
0.396824 0.658245 -0.039514
0.405078 0.653693 -0.039528
0.393541 0.656369 -0.031043
0.402694 0.661591 -0.055233
0.408842 0.655696 -0.049269
0.397361 0.661213 0.236101
0.393788 0.671131 0.229457
0.402063 0.664121 0.170377
0.391641 0.669382 0.170372
0.393176 0.670371 0.179543
0.402200 0.667464 0.185761
0.391070 0.669209 0.153998
0.402025 0.664315 0.153987
0.402157 0.668134 0.137979
0.392374 0.670152 0.143652
0.396773 0.671934 0.132791
0.401737 0.680037 -0.088725
0.407504 0.670651 -0.082616
0.401917 0.668740 -0.071377
0.396522 0.674706 -0.076265
0.395561 0.672921 0.220312
0.388343 0.682751 0.203215
0.397783 0.674525 0.203212
0.396875 0.673297 0.190495
0.402116 0.675410 0.122138
0.402030 0.683943 0.105279
0.391136 0.686114 0.110729
0.396589 0.688355 0.099767
0.395939 0.689437 -0.094757
0.406914 0.685366 -0.099976
0.401533 0.693070 -0.105337
0.401998 0.689837 0.088216
0.401897 0.695614 0.072339
0.388748 0.701194 0.072342
0.392580 0.703117 0.062958
0.401890 0.701382 0.059221
0.401863 0.705386 0.051059
0.397962 0.707545 -0.124303
0.408961 0.703180 -0.130548
0.402766 0.701329 -0.119939
0.403119 0.713243 -0.136666
0.401870 0.710240 0.039653
0.391351 0.718849 0.027907
0.401138 0.716478 0.022734
0.395151 0.720503 0.017023
0.397233 0.723233 -0.142759
0.408229 0.718847 -0.147112
0.402319 0.728541 -0.150873
0.401098 0.722824 0.006760
0.400568 0.731169 -0.010715
0.388184 0.734046 -0.005986
0.394286 0.736606 -0.016978
0.397784 0.737753 -0.025686
0.403022 0.740368 -0.040533
0.401881 0.748812 -0.058896
0.387991 0.750759 -0.053645
0.396473 0.753833 -0.064869
0.393626 0.753103 -0.162554
0.404607 0.748280 -0.165180
0.400130 0.743574 -0.160099
0.400859 0.760665 -0.171409
0.401881 0.757295 -0.074134
0.390347 0.767865 -0.085983
0.402485 0.766230 -0.091331
0.397471 0.771154 -0.096789
0.396996 0.770940 -0.177546
0.407983 0.768098 -0.179920
0.403186 0.778347 -0.187068
0.388817 0.782102 -0.102088
0.402450 0.776959 -0.104623
0.401651 0.786839 -0.113663
0.398292 0.787212 -0.193954
0.409240 0.785480 -0.195966
0.401755 0.794292 -0.204011
0.401677 0.795102 -0.122112
0.401704 0.803388 -0.130528
0.394254 0.802302 -0.211591
0.405374 0.801000 -0.213264
0.400656 0.806858 -0.219484
0.401769 0.809646 -0.140817
0.401801 0.816402 -0.153086
0.392379 0.817911 -0.150051
0.401825 0.821097 -0.161270
0.401151 0.829290 -0.174469
0.389061 0.832441 -0.169606
0.395189 0.835685 -0.180391
0.401159 0.838291 -0.190817
0.400816 0.846045 -0.206302
0.391271 0.849833 -0.201231
0.394756 0.851647 -0.211393
0.396875 0.852403 -0.221325
0.396628 0.852319 -0.229953
0.419117 -0.826877 -0.172068
0.405181 -0.831837 -0.168545
0.400590 -0.838096 -0.173751
0.411941 -0.835853 -0.179476
0.415417 -0.820835 -0.160467
0.408881 -0.817531 -0.149983
0.419883 -0.815571 -0.155729
0.411956 -0.802814 -0.131100
0.418464 -0.793508 -0.123668
0.417805 -0.807753 -0.208117
0.417774 -0.815819 -0.216417
0.419005 -0.780739 -0.107076
0.406685 -0.783517 -0.101484
0.401442 -0.789797 -0.106961
0.414009 -0.787254 -0.112513
0.417839 -0.798277 -0.199840
0.417858 -0.790079 -0.193998
0.410392 -0.769316 -0.082539
0.417164 -0.760096 -0.075555
0.412991 -0.754169 -0.064490
0.405639 -0.750367 -0.053378
0.400839 -0.756415 -0.058631
0.418402 -0.747788 -0.058490
0.417917 -0.760066 -0.174919
0.417879 -0.768473 -0.180549
0.418473 -0.732104 -0.023503
0.408277 -0.735117 -0.017728
0.402436 -0.740192 -0.023818
0.413033 -0.737579 -0.029067
0.418042 -0.740526 -0.160042
0.418001 -0.749078 -0.166740
0.418616 -0.715420 0.007849
0.408259 -0.718559 0.013201
0.402452 -0.724979 0.007796
0.413313 -0.721714 0.002923
0.419651 -0.728904 -0.150634
0.415242 -0.723298 -0.144128
0.426190 -0.721121 -0.146227
0.420656 -0.714150 -0.136980
0.410282 -0.703546 0.049056
0.405303 -0.700462 0.059536
0.400698 -0.705840 0.055262
0.417709 -0.694880 0.056087
0.415125 -0.707156 -0.127154
0.419556 -0.702022 -0.121575
0.426078 -0.705183 -0.129921
0.419197 -0.684221 0.074329
0.409703 -0.686762 0.080554
0.414208 -0.689510 0.069643
0.417996 -0.692878 -0.108162
0.411493 -0.671335 0.115551
0.406914 -0.668459 0.126095
0.401714 -0.673731 0.121316
0.419058 -0.662483 0.122548
0.417792 -0.676913 -0.088067
0.412186 -0.672629 -0.078999
0.423110 -0.669849 -0.082224
0.418235 -0.663687 -0.072190
0.418028 -0.685905 -0.099906
0.412156 -0.655500 0.150495
0.410018 -0.653970 0.161649
0.403616 -0.659581 0.155395
0.418055 -0.649999 0.155466
0.413340 -0.657473 -0.061189
0.419746 -0.648548 -0.054510
0.424264 -0.654308 -0.065418
0.417787 -0.634148 0.204690
0.408926 -0.637263 0.210619
0.402941 -0.641265 0.204623
0.411905 -0.638773 0.198972
0.415216 -0.642833 -0.043674
0.426151 -0.639229 -0.047890
0.419635 -0.636765 -0.038636
0.419013 -0.614241 0.256945
0.407916 -0.619720 0.261391
0.402201 -0.627099 0.256122
0.412349 -0.622884 0.250423
0.418202 -0.628225 -0.022503
0.412858 -0.625080 -0.011515
0.423780 -0.621957 -0.016818
0.418233 -0.619256 -0.006167
0.419453 -0.601975 0.271638
0.409506 -0.605475 0.276466
0.414647 -0.609079 0.268019
0.411933 -0.608354 0.019583
0.417647 -0.611034 0.009591
0.418465 -0.599267 0.026602
0.422847 -0.605279 0.014787
0.418543 -0.581573 0.284674
0.418460 -0.593760 0.279095
0.414078 -0.593206 0.037121
0.425003 -0.590009 0.033636
0.419987 -0.583570 0.043974
0.419796 -0.565505 0.291318
0.414951 -0.577228 0.053575
0.425906 -0.574214 0.050797
0.419445 -0.569951 0.059171
0.415101 -0.560214 0.293629
0.419691 -0.551673 0.294610
0.417962 -0.561083 0.069507
0.418398 -0.533933 0.296142
0.414207 -0.543933 0.084805
0.418985 -0.549858 0.078860
0.419011 -0.535887 0.088031
0.425183 -0.542245 0.083647
0.418435 -0.517340 0.296459
0.418572 -0.500975 0.297603
0.418712 -0.484536 0.298659
0.418231 -0.498513 0.101696
0.418118 -0.506784 0.099343
0.418746 -0.467730 0.298674
0.418734 -0.450973 0.298538
0.418717 -0.434565 0.299288
0.418712 -0.418068 0.300052
0.419016 -0.434330 0.114907
0.413917 -0.428472 0.117367
0.418987 -0.419322 0.118808
0.424914 -0.425462 0.116468
0.418722 -0.401257 0.299735
0.418762 -0.384732 0.299667
0.418816 -0.368635 0.300333
0.418844 -0.352168 0.301331
0.418826 -0.335288 0.302453
0.418756 -0.318927 0.303018
0.418680 -0.303062 0.302991
0.418668 -0.286587 0.302272
0.418719 -0.269652 0.301264
0.418772 -0.253254 0.301560
0.418821 -0.237131 0.302391
0.418254 -0.257117 0.131696
0.418249 -0.249057 0.134093
0.418828 -0.220612 0.301596
0.418838 -0.203943 0.300163
0.418926 -0.187569 0.300207
0.419010 -0.171297 0.300757
0.419006 -0.154985 0.300140
0.418916 -0.139039 0.300045
0.418536 -0.150957 0.150564
0.418536 -0.158943 0.147807
0.418703 -0.123588 0.302124
0.418548 -0.107640 0.304186
0.418577 -0.090655 0.304972
0.418682 -0.073823 0.304501
0.418787 -0.057669 0.303248
0.418886 -0.041310 0.303058
0.418973 -0.024563 0.303183
0.418956 -0.008203 0.302605
0.418840 0.007777 0.303235
0.418824 0.024339 0.303509
0.418910 0.041375 0.302494
0.418919 0.057947 0.303238
0.418867 0.074138 0.305023
0.418855 0.090455 0.305535
0.418868 0.106780 0.305279
0.418849 0.122880 0.305196
0.418825 0.139033 0.305130
0.418844 0.155654 0.304824
0.418849 0.172296 0.304783
0.418787 0.188464 0.305586
0.418731 0.204604 0.306007
0.418726 0.221066 0.305703
0.418765 0.237623 0.305824
0.418832 0.254146 0.307034
0.418926 0.270665 0.307675
0.419053 0.287186 0.307280
0.419126 0.303438 0.307641
0.419118 0.319397 0.308523
0.419081 0.335672 0.308621
0.419008 0.352271 0.307927
0.418950 0.368574 0.307568
0.424575 0.370651 0.148868
0.426515 0.362070 0.149211
0.420132 0.355702 0.151106
0.416421 0.370696 0.150616
0.418909 0.384631 0.307320
0.413200 0.383655 0.150112
0.418599 0.388335 0.148138
0.418834 0.400958 0.306629
0.418738 0.417414 0.305776
0.418608 0.433598 0.305478
0.418491 0.449773 0.305289
0.418432 0.466324 0.304099
0.418464 0.469661 0.131140
0.424280 0.458227 0.132576
0.418554 0.452760 0.135493
0.413390 0.464461 0.134228
0.418404 0.482986 0.302776
0.418428 0.499438 0.301750
0.418499 0.515857 0.301001
0.418568 0.532505 0.300006
0.418153 0.534619 0.111456
0.423523 0.524221 0.115370
0.418089 0.518713 0.119277
0.412547 0.528842 0.117524
0.418637 0.548994 0.297993
0.419936 0.566237 0.295123
0.415955 0.565364 0.089742
0.421261 0.554409 0.095107
0.416826 0.549977 0.102480
0.410333 0.559896 0.100456
0.415304 0.576278 0.294018
0.410661 0.576513 0.084413
0.421581 0.570824 0.078555
0.417062 0.579516 0.074082
0.407319 0.587300 0.291979
0.419966 0.581424 0.290166
0.418366 0.597590 0.280972
0.414807 0.596440 0.056144
0.425783 0.591591 0.049450
0.419562 0.588556 0.060656
0.418673 0.600785 0.043233
0.412662 0.606629 0.277762
0.414217 0.613162 0.026124
0.422464 0.605044 0.026109
0.411555 0.610225 0.037031
0.418513 0.616781 0.009540
0.425191 0.607453 0.014077
0.417679 0.612613 0.268802
0.411692 0.622521 0.263001
0.411800 0.626742 0.005031
0.423051 0.620623 -0.006453
0.414749 0.630111 -0.006475
0.419689 0.634353 -0.020958
0.425613 0.623668 -0.015991
0.417448 0.628791 0.252519
0.412135 0.639408 0.246194
0.413769 0.642913 -0.025886
0.424804 0.638714 -0.033439
0.418862 0.645641 -0.039273
0.417961 0.642910 0.235812
0.406425 0.651347 0.236939
0.418861 0.651137 0.221414
0.410113 0.654417 0.228078
0.413683 0.656899 0.216975
0.405055 0.662464 0.221655
0.418194 0.660087 -0.072704
0.423677 0.654610 -0.067459
0.418211 0.652731 -0.055279
0.412677 0.657805 -0.060202
0.418836 0.658229 0.202092
0.405956 0.667205 0.203242
0.419550 0.658038 0.187222
0.417375 0.657423 0.170416
0.419709 0.657422 0.154466
0.418415 0.661750 0.137620
0.419924 0.668190 0.122076
0.407706 0.669862 0.127875
0.415440 0.672975 0.117197
0.413875 0.674766 -0.093715
0.424843 0.670862 -0.098409
0.418914 0.668006 -0.088381
0.418757 0.680153 -0.104730
0.419884 0.675924 0.106847
0.407542 0.686143 0.093382
0.417366 0.683300 0.088236
0.411236 0.687712 0.082274
0.412627 0.689501 -0.110958
0.423604 0.685566 -0.118075
0.418138 0.691846 -0.122721
0.417338 0.689703 0.071518
0.416695 0.698086 0.054406
0.410152 0.703608 0.047917
0.413787 0.705213 0.039639
0.419578 0.708309 0.024317
0.406112 0.718579 0.012056
0.418194 0.716086 0.006582
0.412637 0.721023 0.001071
0.418147 0.723469 -0.009479
0.406013 0.734698 -0.025695
0.418168 0.729692 -0.025738
0.409378 0.736117 -0.034336
0.419102 0.734395 -0.040713
0.414220 0.737976 -0.045209
0.410826 0.737242 -0.162033
0.421810 0.733187 -0.164850
0.417045 0.727972 -0.158625
0.417056 0.743539 -0.168733
0.419096 0.741783 -0.057193
0.418161 0.750111 -0.071638
0.407456 0.751995 -0.068129
0.418161 0.754645 -0.079839
0.418154 0.760511 -0.091177
0.418135 0.766840 -0.102470
0.408462 0.768744 -0.099842
0.416463 0.776913 -0.111661
0.409894 0.785588 -0.115617
0.415680 0.792678 -0.125146
0.410422 0.802137 -0.132167
0.416891 0.804751 -0.140948
0.417196 0.813197 -0.158161
0.411050 0.818914 -0.164397
0.417251 0.821133 -0.174533
0.417354 0.829511 -0.190633
0.406179 0.832859 -0.185833
0.411299 0.835536 -0.196446
0.414925 0.837469 -0.205987
0.419544 0.839288 -0.220293
0.405179 0.848068 -0.221418
0.401938 0.843723 -0.232025
0.418055 0.838298 -0.230406
0.435732 -0.830928 -0.189525
0.422896 -0.832739 -0.183622
0.417808 -0.839998 -0.189734
0.430963 -0.837057 -0.195066
0.434651 -0.816221 -0.167049
0.426293 -0.818281 -0.164507
0.434601 -0.821865 -0.175221
0.430278 -0.803709 -0.146038
0.422929 -0.799753 -0.134984
0.417839 -0.806290 -0.140513
0.435306 -0.797011 -0.140561
0.434217 -0.811158 -0.217779
0.428703 -0.805379 -0.210520
0.439579 -0.802858 -0.213041
0.432891 -0.795583 -0.203753
0.434624 -0.781529 -0.120055
0.424950 -0.784658 -0.116324
0.434688 -0.788304 -0.128503
0.426132 -0.788124 -0.195356
0.432621 -0.779702 -0.192440
0.437001 -0.785193 -0.197018
0.427019 -0.769567 -0.098415
0.421315 -0.765970 -0.087517
0.416809 -0.771528 -0.092063
0.434692 -0.760617 -0.090810
0.436052 -0.749436 -0.074218
0.423946 -0.751330 -0.068504
0.431525 -0.755021 -0.079515
0.429446 -0.757045 -0.177130
0.434586 -0.762942 -0.183063
0.434664 -0.745993 -0.170350
0.440298 -0.753702 -0.179865
0.429091 -0.737344 -0.046768
0.423979 -0.734575 -0.035315
0.418429 -0.739519 -0.041059
0.434595 -0.731720 -0.040979
0.429005 -0.738372 -0.161942
0.434450 -0.730262 -0.156718
0.439865 -0.736363 -0.163645
0.429553 -0.721313 -0.012685
0.424241 -0.718346 -0.002490
0.418615 -0.724366 -0.007626
0.434883 -0.715828 -0.007672
0.428121 -0.704395 0.017235
0.424463 -0.702170 0.028506
0.418755 -0.707768 0.023234
0.434035 -0.699407 0.023144
0.434437 -0.719534 -0.147536
0.434408 -0.711563 -0.139784
0.430731 -0.689266 0.052382
0.425156 -0.686114 0.063201
0.435653 -0.683431 0.057221
0.435025 -0.695272 -0.120556
0.430025 -0.690572 -0.111055
0.440912 -0.687636 -0.114359
0.435087 -0.683236 -0.105385
0.434405 -0.703727 -0.131565
0.435032 -0.666566 0.090957
0.426390 -0.670415 0.097499
0.419938 -0.676580 0.091054
0.429619 -0.672716 0.086469
0.434480 -0.674130 -0.093772
0.429864 -0.656524 0.119026
0.426589 -0.654215 0.129487
0.435144 -0.650815 0.123180
0.434504 -0.666882 -0.085509
0.434497 -0.658880 -0.076894
0.428602 -0.639158 0.166919
0.426014 -0.637408 0.178047
0.419818 -0.643554 0.171989
0.434432 -0.633580 0.171854
0.434432 -0.643253 -0.059305
0.434472 -0.651287 -0.068636
0.427725 -0.622428 0.233049
0.423414 -0.619639 0.244248
0.418126 -0.624959 0.239146
0.434712 -0.612893 0.239050
0.434529 -0.628891 -0.039315
0.429220 -0.625238 -0.027902
0.440060 -0.621621 -0.033701
0.434586 -0.618908 -0.022540
0.434417 -0.636846 -0.051099
0.435602 -0.601371 0.257298
0.425642 -0.604511 0.263452
0.430744 -0.608743 0.252495
0.433780 -0.610853 -0.007062
0.427924 -0.608231 0.003919
0.434599 -0.599116 0.009990
0.438776 -0.603671 -0.002088
0.433755 -0.581173 0.280019
0.427581 -0.589975 0.277414
0.430442 -0.594403 0.022635
0.435298 -0.586734 0.027433
0.441263 -0.589846 0.016132
0.434954 -0.565520 0.287858
0.434436 -0.578232 0.038885
0.426043 -0.557870 0.293245
0.435004 -0.555508 0.292499
0.433162 -0.563215 0.059160
0.426885 -0.559283 0.068062
0.437751 -0.555546 0.064598
0.433121 -0.550423 0.072451
0.434447 -0.571807 0.047163
0.434866 -0.533777 0.295375
0.434944 -0.547603 0.294206
0.434872 -0.517256 0.295989
0.434313 -0.538676 0.081466
0.434329 -0.530542 0.086045
0.434961 -0.501014 0.297115
0.435054 -0.484697 0.298025
0.435673 -0.501245 0.097947
0.431094 -0.495488 0.100894
0.441944 -0.492939 0.100038
0.435822 -0.486434 0.102335
0.435068 -0.467964 0.298019
0.435064 -0.451217 0.298120
0.435073 -0.434804 0.298931
0.435076 -0.418294 0.299622
0.435077 -0.401438 0.299508
0.435936 -0.419489 0.115735
0.431278 -0.414507 0.117871
0.442178 -0.409166 0.116520
0.435945 -0.402849 0.119297
0.435113 -0.384907 0.299568
0.435154 -0.368872 0.300169
0.435175 -0.352394 0.301053
0.435175 -0.335417 0.302095
0.435131 -0.319008 0.302725
0.435063 -0.303149 0.302778
0.435052 -0.286712 0.302230
0.435098 -0.269825 0.301314
0.435141 -0.253436 0.301357
0.435183 -0.237299 0.301844
0.434655 -0.247817 0.133598
0.434664 -0.255874 0.131479
0.435193 -0.220719 0.301135
0.435215 -0.203998 0.300005
0.435306 -0.187691 0.299936
0.435384 -0.171492 0.300302
0.435369 -0.155125 0.299978
0.435258 -0.139099 0.300394
0.430172 -0.149284 0.149791
0.435361 -0.155107 0.147403
0.441067 -0.139855 0.148894
0.432903 -0.139890 0.150675
0.435044 -0.123631 0.302578
0.432763 -0.124046 0.150674
0.440940 -0.124015 0.149175
0.434908 -0.107653 0.304607
0.440312 -0.107864 0.149196
0.432118 -0.107904 0.150444
0.434971 -0.090561 0.305618
0.435356 -0.090275 0.150720
0.441430 -0.095237 0.149271
0.435106 -0.073710 0.305298
0.435214 -0.057678 0.304071
0.435282 -0.041415 0.303949
0.435305 -0.024709 0.304360
0.442644 -0.032029 0.149405
0.442657 -0.035660 0.149403
0.436230 -0.041248 0.151503
0.436240 -0.025899 0.150887
0.435275 -0.008349 0.303946
0.435207 0.007646 0.304413
0.431514 0.007673 0.151278
0.440806 -0.004791 0.148944
0.435146 -0.009592 0.150644
0.439708 0.007568 0.148537
0.435218 0.024208 0.304709
0.430993 0.024154 0.151367
0.439188 0.024055 0.148260
0.435300 0.041252 0.303889
0.430862 0.040697 0.150877
0.438985 0.040588 0.148462
0.435302 0.057755 0.304357
0.439440 0.057249 0.148699
0.431311 0.057428 0.150815
0.435244 0.073824 0.305544
0.431749 0.074200 0.150946
0.439933 0.073928 0.148766
0.435212 0.090156 0.305840
0.440211 0.090328 0.149037
0.432027 0.090558 0.150603
0.435199 0.106565 0.305700
0.435232 0.106935 0.150364
0.441064 0.101562 0.149247
0.435174 0.122666 0.305880
0.435160 0.138800 0.306134
0.435188 0.155478 0.306065
0.435206 0.172151 0.306038
0.435155 0.188238 0.306590
0.435113 0.204330 0.306826
0.435119 0.220881 0.306519
0.435148 0.237430 0.306436
0.435186 0.253732 0.307123
0.435895 0.256086 0.150434
0.442031 0.243084 0.149369
0.435793 0.238080 0.150406
0.442078 0.250869 0.149362
0.435275 0.270195 0.307686
0.435433 0.286982 0.307710
0.442153 0.288243 0.149294
0.442686 0.277019 0.149396
0.436266 0.271766 0.150466
0.433937 0.288251 0.150505
0.435498 0.303322 0.307792
0.441532 0.304705 0.149093
0.433336 0.304673 0.150593
0.435438 0.319154 0.307767
0.441951 0.321160 0.149140
0.433809 0.321253 0.150696
0.435346 0.335359 0.307524
0.432619 0.337736 0.150477
0.440696 0.337586 0.148786
0.435217 0.351900 0.307312
0.429376 0.351127 0.150083
0.434754 0.355486 0.148123
0.435130 0.368202 0.307161
0.435078 0.384334 0.306861
0.434996 0.400705 0.306361
0.434893 0.417206 0.305672
0.434812 0.433519 0.305166
0.437929 0.436286 0.131075
0.440795 0.425305 0.132474
0.435036 0.419804 0.136159
0.429825 0.436274 0.134652
0.434781 0.449827 0.304488
0.427254 0.447250 0.133651
0.433358 0.452794 0.129523
0.434814 0.466466 0.303209
0.434865 0.483160 0.301916
0.434898 0.499484 0.300906
0.439404 0.502247 0.114252
0.441872 0.492564 0.116202
0.435612 0.486546 0.120505
0.431198 0.502247 0.118927
0.434954 0.515767 0.299938
0.435419 0.519778 0.109155
0.428294 0.513260 0.117663
0.435045 0.532414 0.298234
0.439442 0.536560 0.093431
0.442537 0.526269 0.099871
0.430514 0.535077 0.103476
0.436310 0.550021 0.295279
0.426786 0.543496 0.100477
0.429987 0.549933 0.090560
0.438981 0.552273 0.077130
0.442779 0.542987 0.083616
0.431611 0.561656 0.294100
0.429362 0.566346 0.074059
0.426761 0.559875 0.084040
0.441798 0.558301 0.065995
0.438316 0.568399 0.059963
0.426222 0.572253 0.293047
0.436300 0.566015 0.291163
0.435835 0.581697 0.282641
0.426769 0.576183 0.067570
0.429879 0.579589 0.059208
0.441739 0.574215 0.047809
0.435146 0.584317 0.043098
0.430946 0.592156 0.278758
0.431143 0.596824 0.026208
0.439285 0.587659 0.026343
0.428563 0.594172 0.038379
0.434548 0.600645 0.009235
0.441587 0.590414 0.015334
0.423605 0.603094 0.274616
0.436183 0.598038 0.270722
0.430584 0.607787 0.265089
0.430601 0.612515 -0.006453
0.438769 0.605208 -0.006412
0.427496 0.609579 0.003297
0.441952 0.607864 -0.015725
0.435829 0.617582 -0.021409
0.435670 0.613747 0.254821
0.422723 0.618659 0.258926
0.429916 0.624166 0.247522
0.429685 0.628069 -0.027097
0.440593 0.622070 -0.034340
0.434608 0.632165 -0.039458
0.434531 0.629331 0.236300
0.423184 0.635082 0.240910
0.428258 0.639346 0.229806
0.428596 0.641850 -0.044600
0.439538 0.636199 -0.052469
0.434343 0.643453 -0.057229
0.430826 0.642150 0.219792
0.424641 0.653148 0.206821
0.432246 0.647103 0.202123
0.426817 0.654636 0.195848
0.434795 0.646610 0.187808
0.425567 0.654017 0.170444
0.425811 0.654085 0.182031
0.434933 0.648088 0.170419
0.433790 0.650315 0.154454
0.426041 0.654247 0.160270
0.427523 0.654965 0.149284
0.434383 0.660698 -0.088368
0.439725 0.654192 -0.082620
0.434437 0.651131 -0.072687
0.428759 0.657024 -0.078392
0.426833 0.654640 0.192951
0.430034 0.656430 0.137610
0.435391 0.660466 0.121914
0.426390 0.670685 0.113299
0.436285 0.668888 0.106804
0.431768 0.672733 0.102392
0.436220 0.674949 0.090289
0.422147 0.685263 0.076434
0.434164 0.682863 0.071514
0.428321 0.687838 0.065508
0.427466 0.688008 -0.128923
0.438437 0.686185 -0.131490
0.433576 0.683145 -0.122797
0.432837 0.695066 -0.138612
0.434155 0.690759 0.056253
0.421994 0.701979 0.039649
0.434705 0.697776 0.039623
0.436078 0.702242 0.024322
0.425917 0.703366 0.030593
0.431520 0.705232 0.019596
0.427224 0.704116 -0.145701
0.438159 0.702017 -0.147406
0.434329 0.711802 -0.154183
0.436038 0.708244 0.008145
0.434957 0.716510 -0.009548
0.423566 0.718675 -0.004026
0.429713 0.721224 -0.014887
0.430419 0.722254 -0.160949
0.441346 0.719417 -0.162971
0.435332 0.727952 -0.167076
0.434921 0.723156 -0.025592
0.434544 0.729031 -0.042031
0.425167 0.735809 -0.050930
0.434539 0.734176 -0.053410
0.434538 0.739151 -0.061668
0.433153 0.747296 -0.076379
0.426787 0.752973 -0.082699
0.426386 0.752961 -0.178988
0.437386 0.748273 -0.182246
0.432892 0.743532 -0.176638
0.433561 0.760262 -0.188073
0.433192 0.754666 -0.092720
0.434366 0.763357 -0.108172
0.428762 0.771081 -0.113917
0.434586 0.777604 -0.203933
0.440545 0.767301 -0.197722
0.429579 0.771601 -0.193692
0.434395 0.776937 -0.121514
0.420879 0.782038 -0.118005
0.434565 0.788028 -0.129756
0.428519 0.787584 -0.209857
0.439569 0.783317 -0.215313
0.433716 0.793232 -0.221188
0.421420 0.799606 -0.135572
0.434728 0.796605 -0.140880
0.429355 0.803085 -0.146438
0.433660 0.809361 -0.230488
0.438660 0.798444 -0.229138
0.427743 0.803465 -0.226673
0.434773 0.805217 -0.156759
0.421997 0.816216 -0.169665
0.433494 0.813030 -0.174229
0.427278 0.818890 -0.180439
0.431007 0.821338 -0.189696
0.436003 0.824542 -0.204408
0.423140 0.833141 -0.205891
0.433571 0.830729 -0.220170
0.425952 0.834585 -0.214287
0.427517 0.835562 -0.224439
0.427518 0.835553 -0.229067
0.451056 -0.812565 -0.173067
0.445623 -0.819672 -0.178642
0.451022 -0.804045 -0.161701
0.441120 -0.801005 -0.150104
0.435294 -0.807872 -0.155836
0.451038 -0.798243 -0.153811
0.443423 -0.785999 -0.131952
0.449226 -0.776321 -0.125400
0.450574 -0.792162 -0.207973
0.450571 -0.800003 -0.215698
0.444129 -0.770209 -0.114207
0.437880 -0.766174 -0.103148
0.433302 -0.772732 -0.108032
0.451181 -0.760853 -0.107034
0.450818 -0.779971 -0.199476
0.445540 -0.774239 -0.194253
0.450844 -0.764257 -0.190554
0.456398 -0.770398 -0.196365
0.447369 -0.755220 -0.094077
0.442363 -0.752511 -0.083274
0.452123 -0.750127 -0.089547
0.451646 -0.732060 -0.057633
0.439960 -0.734592 -0.051958
0.434602 -0.740330 -0.057648
0.446630 -0.737970 -0.063142
0.450645 -0.751305 -0.181985
0.450700 -0.742580 -0.174024
0.450901 -0.715888 -0.023862
0.440408 -0.718651 -0.018108
0.434859 -0.723743 -0.023738
0.445308 -0.721203 -0.029473
0.450770 -0.733850 -0.165873
0.450766 -0.725645 -0.158882
0.451122 -0.698677 0.007497
0.438986 -0.701691 0.012566
0.434033 -0.707288 0.007475
0.445734 -0.705040 0.002247
0.450754 -0.707993 -0.143435
0.450775 -0.715992 -0.150625
0.445959 -0.688878 0.035606
0.441624 -0.686249 0.046616
0.435620 -0.691922 0.040937
0.451367 -0.683131 0.040586
0.450764 -0.692209 -0.125273
0.450767 -0.700492 -0.135148
0.451431 -0.662798 0.073296
0.440497 -0.668567 0.077999
0.434974 -0.675293 0.072771
0.444780 -0.671921 0.066868
0.449688 -0.676221 -0.105039
0.443548 -0.672032 -0.096477
0.449287 -0.662996 -0.089454
0.454427 -0.669589 -0.099472
0.450788 -0.685464 -0.116946
0.444331 -0.655291 0.099541
0.440775 -0.652681 0.110388
0.435179 -0.659295 0.105452
0.450391 -0.648225 0.105213
0.444161 -0.656398 -0.079883
0.455012 -0.653554 -0.082419
0.449753 -0.647023 -0.072948
0.450682 -0.632966 0.137958
0.441542 -0.636970 0.143641
0.435624 -0.643625 0.138087
0.444839 -0.639284 0.132708
0.444488 -0.640471 -0.063076
0.455352 -0.637996 -0.066023
0.450646 -0.631677 -0.056086
0.451516 -0.613763 0.188091
0.441293 -0.619924 0.192766
0.435514 -0.627092 0.187437
0.444581 -0.622604 0.181508
0.445934 -0.625322 -0.044802
0.456817 -0.622032 -0.049123
0.451149 -0.618555 -0.039308
0.451332 -0.596758 0.239792
0.441678 -0.603749 0.244964
0.444241 -0.606128 0.233977
0.444679 -0.607887 -0.013035
0.450361 -0.610099 -0.023936
0.455548 -0.604074 -0.019156
0.450731 -0.598445 -0.006688
0.444461 -0.590059 0.265808
0.438396 -0.586280 0.274288
0.433679 -0.592974 0.270341
0.451064 -0.580768 0.271030
0.445891 -0.592916 0.005161
0.451102 -0.586991 0.010374
0.456786 -0.589360 -0.000329
0.446872 -0.575446 0.278512
0.451929 -0.565983 0.282014
0.443327 -0.574726 0.035062
0.449524 -0.578173 0.025861
0.454172 -0.571944 0.031038
0.450606 -0.566076 0.042600
0.451994 -0.549490 0.290697
0.446998 -0.560353 0.053562
0.457913 -0.557426 0.050135
0.452289 -0.551151 0.060162
0.451936 -0.534378 0.294187
0.446873 -0.544278 0.293687
0.446674 -0.544822 0.069901
0.457594 -0.541312 0.066728
0.450508 -0.534110 0.075935
0.451328 -0.517171 0.295252
0.443450 -0.526893 0.084236
0.454347 -0.523180 0.081944
0.449647 -0.517873 0.086577
0.451351 -0.501056 0.296338
0.451386 -0.484864 0.297200
0.451383 -0.468209 0.297308
0.450949 -0.481690 0.101415
0.450906 -0.489929 0.098924
0.451390 -0.451519 0.297672
0.451412 -0.435170 0.298538
0.451421 -0.418664 0.299183
0.451426 -0.401686 0.299270
0.451457 -0.385099 0.299441
0.445435 -0.397914 0.117464
0.450991 -0.402936 0.115186
0.451021 -0.384801 0.118480
0.456384 -0.389713 0.115894
0.451496 -0.369163 0.299864
0.451510 -0.352705 0.300635
0.451514 -0.335622 0.301689
0.451482 -0.319143 0.302354
0.451420 -0.303252 0.302584
0.451409 -0.286856 0.302181
0.451449 -0.270059 0.301290
0.451487 -0.253663 0.300966
0.451519 -0.237463 0.301023
0.446226 -0.247212 0.133277
0.451447 -0.253417 0.131842
0.457170 -0.245886 0.132965
0.451441 -0.239524 0.134625
0.451531 -0.220797 0.300640
0.451560 -0.204060 0.300093
0.451644 -0.187922 0.299686
0.451713 -0.171875 0.299531
0.451693 -0.155368 0.299859
0.451574 -0.139122 0.301135
0.451380 -0.123569 0.303262
0.451265 -0.107547 0.305198
0.451347 -0.090369 0.306368
0.451491 -0.073589 0.306380
0.442941 -0.083921 0.149514
0.449364 -0.090082 0.147829
0.451487 -0.074362 0.147594
0.443253 -0.074450 0.149564
0.451599 -0.057825 0.305494
0.443711 -0.058199 0.149638
0.451940 -0.058213 0.147816
0.451621 -0.041728 0.304941
0.443660 -0.046632 0.149620
0.449926 -0.041494 0.148227
0.451554 -0.025024 0.305021
0.451524 -0.008596 0.305262
0.445041 -0.021003 0.149688
0.450724 -0.026107 0.148650
0.445019 -0.015719 0.149691
0.450678 -0.009740 0.148079
0.451538 0.007495 0.305879
0.451548 0.024050 0.306150
0.451559 0.041007 0.305827
0.451565 0.057375 0.305848
0.451558 0.073314 0.306158
0.451526 0.089725 0.306072
0.451488 0.106326 0.305830
0.451468 0.122497 0.306378
0.446014 0.112447 0.149744
0.451293 0.106810 0.148754
0.451313 0.122526 0.150352
0.456968 0.116651 0.149366
0.451464 0.138619 0.307198
0.451484 0.155312 0.307381
0.451493 0.171939 0.307243
0.451465 0.187907 0.307397
0.451455 0.203967 0.307327
0.447016 0.205453 0.150201
0.457810 0.194456 0.149282
0.451803 0.188955 0.150546
0.455263 0.205409 0.148844
0.451494 0.220640 0.307139
0.452656 0.222049 0.148462
0.444399 0.222035 0.149779
0.451526 0.237195 0.307215
0.443354 0.232006 0.149593
0.449796 0.237993 0.148449
0.451541 0.253318 0.307156
0.451605 0.269737 0.307490
0.449892 0.255888 0.148484
0.443537 0.261910 0.149573
0.449991 0.271575 0.148452
0.443566 0.266030 0.149565
0.451741 0.286764 0.308292
0.451755 0.303132 0.308062
0.451618 0.318767 0.306750
0.451475 0.334928 0.306240
0.451352 0.351479 0.306758
0.451261 0.367813 0.306650
0.451191 0.384008 0.306021
0.451140 0.400467 0.305668
0.451105 0.417085 0.305208
0.450392 0.419793 0.130642
0.455697 0.408190 0.132158
0.450502 0.402908 0.135502
0.444802 0.414305 0.133844
0.451110 0.433533 0.304402
0.451164 0.449922 0.303221
0.451279 0.466609 0.301886
0.448281 0.469383 0.119007
0.458717 0.460593 0.116475
0.452257 0.454219 0.120713
0.456506 0.469404 0.115176
0.451391 0.483273 0.300692
0.450749 0.486585 0.113092
0.445087 0.481596 0.117694
0.451403 0.499440 0.299691
0.451427 0.515602 0.298251
0.452400 0.520320 0.093758
0.457594 0.508201 0.098671
0.451684 0.502549 0.105900
0.446656 0.515318 0.102934
0.452818 0.533586 0.295368
0.447197 0.532047 0.088868
0.458134 0.525293 0.082514
0.452745 0.536954 0.077566
0.448241 0.545247 0.294097
0.447334 0.547333 0.072690
0.458294 0.541882 0.066073
0.452351 0.552353 0.060546
0.452877 0.549721 0.291140
0.442589 0.556055 0.292951
0.452948 0.565951 0.282968
0.446402 0.563266 0.055000
0.457330 0.557327 0.047228
0.450687 0.567259 0.041978
0.448419 0.576665 0.279408
0.444041 0.577017 0.036783
0.454468 0.570811 0.026364
0.446282 0.579419 0.026364
0.457237 0.573683 0.014937
0.450968 0.583838 0.009631
0.441760 0.587592 0.275880
0.452834 0.581473 0.273646
0.451239 0.591999 0.266279
0.444685 0.593751 0.004348
0.455598 0.588133 -0.003056
0.450552 0.596127 -0.007702
0.452422 0.600811 0.256309
0.441384 0.603970 0.262083
0.447781 0.608808 0.251015
0.451250 0.616126 -0.039161
0.457629 0.606383 -0.032868
0.451787 0.603926 -0.021886
0.446741 0.611396 -0.026770
0.440772 0.619743 0.243051
0.452024 0.613801 0.239127
0.445364 0.623558 0.231886
0.444847 0.625468 -0.045401
0.455769 0.620917 -0.052056
0.449657 0.630169 -0.057755
0.438993 0.634133 0.220053
0.447673 0.625905 0.220326
0.441661 0.636519 0.203359
0.449799 0.628295 0.203337
0.442702 0.637693 0.193570
0.451734 0.630724 0.188449
0.444360 0.639134 0.182596
0.443509 0.640042 -0.063399
0.454447 0.634809 -0.069249
0.449863 0.642091 -0.073779
0.446066 0.640373 0.170399
0.447308 0.641277 0.153977
0.451426 0.642041 0.136095
0.438234 0.651162 0.137622
0.451791 0.649607 0.121886
0.441231 0.653239 0.127576
0.446621 0.656940 0.116854
0.452422 0.664295 -0.104572
0.458606 0.654840 -0.097295
0.452339 0.651165 -0.088338
0.447637 0.658061 -0.093615
0.451737 0.660107 0.105360
0.442705 0.670645 0.096783
0.451463 0.667536 0.090303
0.446122 0.672222 0.085741
0.451420 0.675835 -0.120979
0.457176 0.670542 -0.115019
0.446184 0.672709 -0.111750
0.451406 0.675290 0.072863
0.452014 0.683954 0.056254
0.439234 0.685910 0.061846
0.447118 0.688925 0.050957
0.451979 0.691075 0.040281
0.451083 0.696775 0.023205
0.451405 0.701285 0.008196
0.442420 0.703458 0.014562
0.446135 0.705499 0.003679
0.451339 0.708190 -0.009646
0.440600 0.718986 -0.020061
0.450632 0.715750 -0.025623
0.444941 0.721031 -0.030858
0.450629 0.722711 -0.042995
0.451138 0.731206 -0.058906
0.445788 0.737381 -0.064723
0.451647 0.744997 -0.187046
0.455512 0.734881 -0.180385
0.450374 0.728964 -0.173607
0.444522 0.737269 -0.178289
0.451157 0.740022 -0.074457
0.437692 0.750787 -0.088263
0.449485 0.747956 -0.092823
0.443056 0.752934 -0.099158
0.447650 0.756361 -0.193519
0.458566 0.752447 -0.196358
0.452194 0.761588 -0.200474
0.449545 0.755444 -0.108789
0.450976 0.764214 -0.121427
0.439705 0.767412 -0.117694
0.449522 0.775777 -0.130084
0.443081 0.785755 -0.132090
0.445406 0.787589 -0.225849
0.456320 0.784059 -0.228580
0.450896 0.780290 -0.220634
0.450801 0.793274 -0.230152
0.449587 0.788757 -0.141287
0.450840 0.797453 -0.156655
0.440267 0.800565 -0.151306
0.445261 0.802949 -0.161909
0.450867 0.804972 -0.173006
0.439217 0.816548 -0.189679
0.450933 0.811291 -0.189418
0.442459 0.818205 -0.198152
0.450969 0.816115 -0.204307
0.445515 0.819889 -0.208527
0.448573 0.821567 -0.221103
0.447653 0.821084 -0.229684
0.433583 0.826577 -0.230407
0.467674 -0.813674 -0.188813
0.456510 -0.816809 -0.182729
0.451072 -0.823513 -0.189053
0.462411 -0.820470 -0.194250
0.459216 -0.802070 -0.164705
0.465864 -0.792778 -0.158204
0.461554 -0.787088 -0.147250
0.454336 -0.782399 -0.136268
0.449759 -0.789388 -0.141273
0.467653 -0.777541 -0.140771
0.460345 -0.789486 -0.210540
0.466356 -0.795038 -0.217935
0.471281 -0.785103 -0.214147
0.466281 -0.779928 -0.207046
0.462744 -0.771473 -0.130242
0.455046 -0.766441 -0.118758
0.468938 -0.761754 -0.123106
0.464167 -0.755463 -0.110956
0.458229 -0.752194 -0.099868
0.468765 -0.749843 -0.106130
0.466965 -0.766974 -0.198602
0.466992 -0.758582 -0.193342
0.463403 -0.738261 -0.078724
0.457541 -0.735374 -0.067825
0.451688 -0.741586 -0.073788
0.468333 -0.732746 -0.073508
0.467996 -0.745801 -0.184204
0.463207 -0.739622 -0.176915
0.468204 -0.729704 -0.170295
0.474162 -0.736758 -0.179581
0.460842 -0.720991 -0.047145
0.456190 -0.718149 -0.035797
0.450843 -0.723553 -0.041226
0.466798 -0.714063 -0.041300
0.462217 -0.722665 -0.161328
0.473166 -0.719574 -0.163672
0.466757 -0.712654 -0.154814
0.462171 -0.705337 -0.012340
0.456633 -0.701954 -0.002074
0.451136 -0.708005 -0.007440
0.467595 -0.697977 -0.007319
0.460330 -0.705684 -0.145775
0.471279 -0.703069 -0.148335
0.466836 -0.696440 -0.138360
0.460396 -0.687906 0.017154
0.456856 -0.685587 0.028110
0.451248 -0.690815 0.023054
0.466590 -0.681445 0.022970
0.462381 -0.689764 -0.128253
0.473341 -0.687627 -0.130971
