-0.269602 0.333384 -0.612293
-0.271196 0.338371 0.671104
-0.271219 0.350790 0.665181
-0.276202 0.339944 -0.580625
-0.278403 0.341906 -0.570655
-0.270968 0.351023 -0.564392
-0.267962 0.347483 -0.580625
-0.272740 0.336901 -0.597445
-0.264514 0.344325 -0.597438
-0.262779 0.342749 -0.606251
-0.271290 0.363479 0.659035
-0.277238 0.357574 -0.538161
-0.274271 0.354950 -0.547666
-0.266038 0.361493 -0.547669
-0.270567 0.367047 -0.532464
-0.263550 0.359696 -0.558128
-0.271345 0.371645 0.654355
-0.271211 0.384098 0.645884
-0.277717 0.373953 -0.112459
-0.275972 0.372572 -0.122026
-0.270465 0.383052 -0.105815
-0.267729 0.379087 -0.121993
-0.274387 0.371489 -0.137520
-0.266121 0.377672 -0.137529
-0.273476 0.371033 -0.153920
-0.265207 0.376875 -0.153907
-0.273101 0.370987 -0.170365
-0.264854 0.376597 -0.170341
-0.273462 0.370988 -0.186831
-0.265230 0.376873 -0.186821
-0.274017 0.371270 -0.203673
-0.265762 0.377296 -0.203643
-0.273773 0.371556 -0.221419
-0.265493 0.377137 -0.221454
-0.273248 0.371373 -0.237772
-0.264969 0.376820 -0.237824
-0.272936 0.370641 -0.252782
-0.264680 0.376694 -0.252777
-0.272631 0.370063 -0.268802
-0.264370 0.376535 -0.268796
-0.272217 0.370090 -0.286172
-0.263930 0.376245 -0.285750
-0.271593 0.369799 -0.303047
-0.263321 0.375772 -0.302277
-0.269556 0.370025 -0.317285
-0.262941 0.375460 -0.310786
-0.271156 0.368106 -0.334553
-0.271065 0.368561 -0.351388
-0.270157 0.370979 -0.366526
-0.273845 0.371357 -0.383638
-0.265561 0.377645 -0.383621
-0.264037 0.376407 -0.370882
-0.275084 0.372273 -0.400106
-0.266802 0.378627 -0.400072
-0.275788 0.372969 -0.416889
-0.267503 0.379026 -0.416812
-0.276010 0.373171 -0.433310
-0.267745 0.379114 -0.433221
-0.276177 0.373251 -0.449418
-0.267904 0.379183 -0.449345
-0.277184 0.374021 -0.466340
-0.268902 0.379795 -0.466226
-0.278163 0.374772 -0.484116
-0.269919 0.380482 -0.483920
-0.277848 0.374544 -0.501819
-0.269638 0.380478 -0.501574
-0.274971 0.372520 -0.517968
-0.266789 0.378393 -0.517690
-0.263866 0.376215 -0.526568
-0.276640 0.389854 0.639227
-0.272464 0.400696 0.632930
-0.265655 0.393346 0.641800
-0.276567 0.389251 0.223370
-0.277326 0.389835 0.234942
-0.268277 0.396622 0.223388
-0.270186 0.399408 0.241328
-0.277265 0.390056 0.206929
-0.268974 0.397128 0.206933
-0.278466 0.391000 0.190542
-0.270182 0.397860 0.190538
-0.279329 0.391633 0.180714
-0.272792 0.397466 0.174787
-0.277772 0.390582 -0.076324
-0.274316 0.387772 -0.089811
-0.266147 0.394576 -0.089498
-0.271857 0.397254 -0.071519
-0.263215 0.392046 -0.099005
-0.279232 0.408029 0.624903
-0.272433 0.417090 0.617137
-0.268256 0.410134 0.626670
-0.279188 0.408091 0.264525
-0.275253 0.404905 0.256089
-0.266998 0.411423 0.256072
-0.271204 0.416381 0.271951
-0.263020 0.408358 0.247698
-0.271230 0.399926 0.156799
-0.269803 0.402440 0.139160
-0.272624 0.402201 0.122630
-0.263355 0.408581 0.132705
-0.264378 0.409522 0.121797
-0.273812 0.403226 0.105898
-0.265589 0.410623 0.105637
-0.274342 0.404103 0.088721
-0.266126 0.410875 0.088715
-0.274844 0.404693 0.072879
-0.266626 0.411093 0.072904
-0.275468 0.404905 0.058312
-0.267242 0.412161 0.058336
-0.275467 0.404738 0.042914
-0.267211 0.412460 0.042925
-0.274816 0.404232 0.025986
-0.266595 0.411630 0.025950
-0.274451 0.403776 0.008854
-0.266249 0.411162 0.008804
-0.274463 0.403347 -0.008081
-0.266281 0.411263 -0.008027
-0.274046 0.402779 -0.024644
-0.265864 0.410799 -0.024344
-0.273139 0.402082 -0.040861
-0.264950 0.409812 -0.040368
-0.270106 0.402371 -0.058037
-0.263959 0.408972 -0.053318
-0.276630 0.424028 0.607820
-0.271242 0.428153 0.601392
-0.265637 0.425130 0.609444
-0.276927 0.422688 0.402879
-0.278879 0.424158 0.413166
-0.271155 0.432725 0.420054
-0.268613 0.428974 0.402606
-0.274326 0.420798 0.386226
-0.266041 0.426832 0.385821
-0.272727 0.419787 0.370817
-0.264445 0.425696 0.370673
-0.269920 0.419606 0.354698
-0.263501 0.425038 0.360346
-0.271237 0.415862 0.336850
-0.269683 0.418254 0.318733
-0.272644 0.419627 0.304780
-0.264408 0.425734 0.304644
-0.263133 0.424710 0.312787
-0.272717 0.419314 0.288687
-0.264495 0.425915 0.288654
-0.263234 0.424964 0.279392
-0.271370 0.435668 0.583516
-0.271297 0.439861 0.571360
-0.271209 0.442267 0.563521
-0.277881 0.440013 0.447522
-0.274558 0.437213 0.436601
-0.271799 0.446415 0.452670
-0.266206 0.443894 0.436550
-0.263430 0.441609 0.426937
-0.271133 0.445269 0.551292
-0.271063 0.447740 0.534585
-0.271027 0.449114 0.517804
-0.271020 0.450329 0.501706
-0.271038 0.450847 0.485657
-0.271052 0.450223 0.468929
-0.255236 -0.750044 -0.186473
-0.263025 -0.752464 -0.180490
-0.269339 -0.756596 -0.186543
-0.261316 -0.753294 -0.191778
-0.255505 -0.733841 0.153052
-0.262945 -0.735984 0.158304
-0.269253 -0.739061 0.153514
-0.261790 -0.736428 0.146698
-0.262390 -0.719984 0.310943
-0.265478 -0.717713 0.322142
-0.270903 -0.723499 0.317896
-0.254639 -0.711142 0.318888
-0.261924 -0.703896 0.625911
-0.265373 -0.700773 0.636077
-0.270842 -0.707883 0.631670
-0.255289 -0.694845 0.631746
-0.259562 -0.689804 0.642564
-0.265462 -0.684196 0.652297
-0.254323 -0.679120 0.647564
-0.262362 -0.687422 0.293641
-0.262361 -0.687420 0.294245
-0.262363 -0.686733 0.293641
-0.262361 -0.686724 0.294244
-0.260004 -0.673293 0.656758
-0.267123 -0.665987 0.667459
-0.255483 -0.661536 0.662338
-0.255542 -0.645287 0.673006
-0.261837 -0.654978 0.671060
-0.261726 -0.654722 0.362305
-0.263346 -0.654734 0.362314
-0.263355 -0.654735 0.362970
-0.261736 -0.654719 0.362958
-0.254810 -0.646400 0.356458
-0.263516 -0.646385 0.362057
-0.255516 -0.647398 0.365427
-0.254369 -0.630100 0.679069
-0.263005 -0.638030 0.362237
-0.252660 -0.631770 0.356173
-0.255998 -0.648219 0.287621
-0.264696 -0.644098 0.292984
-0.264705 -0.644026 0.295880
-0.255529 -0.647808 0.302779
-0.264706 -0.638298 0.293010
-0.254372 -0.635498 0.289913
-0.253918 -0.614326 0.685118
-0.267090 -0.619698 0.686366
-0.253908 -0.599773 0.689234
-0.259000 -0.609523 0.687913
-0.254381 -0.581764 0.692345
-0.254417 -0.566002 0.693057
-0.254514 -0.550581 0.693166
-0.254416 -0.533852 0.695679
-0.254278 -0.516787 0.699353
-0.254325 -0.500824 0.700456
-0.254391 -0.484929 0.699711
-0.254298 -0.468016 0.699704
-0.254239 -0.451307 0.700029
-0.254348 -0.435555 0.700307
-0.254366 -0.419395 0.701045
-0.254161 -0.403887 0.702617
-0.254015 -0.394942 0.703750
-0.255414 -0.385227 0.703967
-0.261686 -0.379974 0.703478
-0.261160 -0.369648 0.703363
-0.253103 -0.369591 0.704215
-0.259941 -0.353408 0.702882
-0.251882 -0.353311 0.704198
-0.260030 -0.340562 0.702823
-0.254400 -0.335292 0.704169
-0.252680 -0.320635 0.703957
-0.257135 -0.316101 0.702908
-0.253854 -0.305062 0.702830
-0.246533 -0.311975 0.703659
-0.261295 -0.298176 0.703856
-0.255138 -0.286939 0.703877
-0.253974 -0.270920 0.704358
-0.253989 -0.259180 0.704236
-0.254113 -0.251424 0.702062
-0.254281 -0.238802 0.700301
-0.254323 -0.225582 0.701989
-0.254169 -0.205708 0.706229
-0.254232 -0.217158 0.704507
-0.254215 -0.189714 0.707234
-0.254264 -0.173739 0.707670
-0.254096 -0.157009 0.709151
-0.253962 -0.140315 0.710953
-0.254093 -0.124257 0.712457
-0.254195 -0.108100 0.714063
-0.254089 -0.091336 0.715930
-0.254026 -0.074849 0.716789
-0.254120 -0.058888 0.716208
-0.254095 -0.042549 0.715849
-0.253876 -0.025590 0.716397
-0.253871 -0.009138 0.714604
-0.254101 0.006755 0.710935
-0.254156 0.023130 0.709005
-0.254044 0.039804 0.708442
-0.254037 0.056237 0.707961
-0.254110 0.072473 0.707023
-0.255572 0.090464 0.705181
-0.261889 0.096935 0.703470
-0.260290 0.105388 0.702667
-0.252230 0.105533 0.704639
-0.260393 0.121739 0.702672
-0.252299 0.121834 0.705229
-0.261420 0.137976 0.703165
-0.253266 0.138043 0.705631
-0.255034 0.155918 0.702043
-0.250320 0.151539 0.704801
-0.253841 0.170722 0.699322
-0.252103 0.188630 0.699588
-0.252127 0.201738 0.698694
-0.245591 0.195213 0.703538
-0.245590 0.195086 0.703538
-0.253957 0.219650 0.694231
-0.254856 0.206569 -0.707426
-0.261136 0.212812 -0.705312
-0.255244 0.222287 -0.704298
-0.250438 0.217835 -0.706210
-0.254220 0.235985 0.692008
-0.254498 0.252362 0.691665
-0.254636 0.268760 0.691258
-0.254671 0.284442 0.689336
-0.259717 0.272181 -0.686113
-0.254380 0.267535 -0.691787
-0.254309 0.286491 -0.683428
-0.248688 0.281684 -0.689777
-0.260220 0.289402 0.686606
-0.254638 0.301845 0.685261
-0.249172 0.296525 0.688472
-0.254588 0.317989 0.681682
-0.253126 0.300600 -0.675399
-0.257765 0.305246 -0.666665
-0.253048 0.313606 -0.662309
-0.246661 0.310489 -0.672576
-0.255940 0.335753 0.676463
-0.261768 0.325644 -0.637979
-0.255532 0.322687 -0.648725
-0.255017 0.335016 -0.631753
-0.250915 0.330177 -0.644222
-0.262268 0.342101 0.672584
-0.256021 0.351154 0.670110
-0.251366 0.345934 0.673846
-0.259092 0.339819 -0.617316
-0.248252 0.344264 -0.625481
-0.253981 0.346507 -0.612811
-0.255776 0.368540 0.661242
-0.261263 0.357904 -0.569114
-0.258684 0.355676 -0.580641
-0.255306 0.363998 -0.563810
-0.250506 0.362053 -0.580668
-0.253748 0.353361 -0.598037
-0.247850 0.360186 -0.592690
-0.261923 0.374873 0.656440
-0.255819 0.382758 0.651842
-0.250948 0.376730 0.657603
-0.262255 0.375013 -0.321576
-0.261929 0.374823 -0.334453
-0.255964 0.379715 -0.316910
-0.253753 0.380160 -0.334421
-0.262033 0.374951 -0.350973
-0.253792 0.380318 -0.350864
-0.262328 0.375184 -0.360113
-0.255902 0.380659 -0.366191
-0.258541 0.372564 -0.536122
-0.253717 0.370388 -0.547957
-0.247723 0.376405 -0.542639
-0.253657 0.379005 -0.531634
-0.254884 0.394712 0.642838
-0.257017 0.387277 -0.122159
-0.259780 0.389341 -0.110138
-0.254500 0.395979 -0.105965
-0.248871 0.393664 -0.122520
-0.253531 0.386769 -0.137593
-0.247273 0.392303 -0.132155
-0.254784 0.384319 -0.153902
-0.254813 0.383956 -0.170339
-0.254822 0.384288 -0.186805
-0.254779 0.384717 -0.203469
-0.254665 0.384280 -0.220745
-0.254635 0.384024 -0.237145
-0.253153 0.385969 -0.253903
-0.253174 0.385982 -0.267797
-0.246666 0.391874 -0.260047
-0.246665 0.391873 -0.261671
-0.254612 0.383780 -0.285460
-0.254590 0.382349 -0.301939
-0.254579 0.384726 -0.383618
-0.253176 0.387616 -0.400220
-0.255342 0.387233 -0.416658
-0.246787 0.392018 -0.405768
-0.247217 0.392260 -0.416483
-0.255207 0.387331 -0.433070
-0.247093 0.392218 -0.432915
-0.254893 0.387391 -0.449317
-0.246755 0.392068 -0.449298
-0.255898 0.388009 -0.466034
-0.247761 0.392543 -0.465853
-0.257225 0.388715 -0.483456
-0.249119 0.393189 -0.482984
-0.257256 0.388685 -0.501027
-0.249142 0.393323 -0.500638
-0.253810 0.386895 -0.517251
-0.247963 0.392748 -0.511895
-0.254929 0.402873 0.635665
-0.254939 0.411269 0.627883
-0.259359 0.404793 0.223364
-0.260341 0.405807 0.236781
-0.251253 0.413517 0.223329
-0.254872 0.413226 0.241273
-0.259976 0.405307 0.206858
-0.251853 0.414257 0.206691
-0.260803 0.406043 0.190478
-0.252651 0.415083 0.190288
-0.261578 0.406803 0.174091
-0.253400 0.415787 0.173857
-0.262164 0.407450 0.156064
-0.253994 0.415978 0.155843
-0.262590 0.407892 0.143879
-0.254679 0.416438 0.137784
-0.260956 0.406650 -0.072569
-0.262835 0.408122 -0.063963
-0.255165 0.416412 -0.057412
-0.252919 0.413517 -0.072470
-0.254888 0.403417 -0.090964
-0.249619 0.410574 -0.085581
-0.254958 0.419441 0.617920
-0.254911 0.425362 0.609853
-0.260941 0.423050 0.336635
-0.262246 0.424065 0.349228
-0.255977 0.430031 0.354669
-0.252752 0.429788 0.336998
-0.260970 0.423061 0.322574
-0.255231 0.428979 0.318927
-0.255087 0.420302 0.254947
-0.260752 0.423286 0.268484
-0.255064 0.429312 0.273262
-0.249848 0.427508 0.259592
-0.255609 0.417744 0.122291
-0.247536 0.425265 0.122930
-0.246767 0.424735 0.131861
-0.256425 0.418830 0.106542
-0.248396 0.425823 0.107681
-0.256344 0.419084 0.089411
-0.248305 0.425846 0.090276
-0.256705 0.419301 0.073300
-0.248665 0.426227 0.073829
-0.258077 0.420318 0.058545
-0.250039 0.427078 0.058769
-0.258687 0.420644 0.042903
-0.250619 0.427477 0.042835
-0.258345 0.419812 0.025942
-0.250235 0.427494 0.025958
-0.258034 0.419354 0.009012
-0.249916 0.427144 0.009375
-0.257771 0.419437 -0.007469
-0.249685 0.426466 -0.006710
-0.257264 0.418979 -0.023729
-0.249157 0.426003 -0.022947
-0.256448 0.417996 -0.039866
-0.248316 0.425649 -0.039325
-0.247482 0.425145 -0.050642
-0.254944 0.430284 0.600209
-0.254909 0.437406 0.583292
-0.254850 0.440710 0.573813
-0.254773 0.442802 0.566051
-0.260967 0.439417 0.415971
-0.258790 0.437168 0.402942
-0.250605 0.444156 0.403430
-0.255214 0.444956 0.420974
-0.256723 0.435030 0.386247
-0.248524 0.442726 0.386853
-0.253577 0.434929 0.370713
-0.247339 0.441579 0.376132
-0.254730 0.432081 0.304756
-0.254699 0.432623 0.288591
-0.254682 0.446403 0.551248
-0.254627 0.449801 0.534585
-0.254591 0.452741 0.517805
-0.253610 0.455687 0.500780
-0.258349 0.456645 0.485570
-0.247552 0.457600 0.494953
-0.250219 0.458223 0.485566
-0.260504 0.456741 0.468711
-0.252354 0.459085 0.468839
-0.258359 0.455328 0.452324
-0.250212 0.458694 0.452460
-0.253682 0.451975 0.437517
-0.247539 0.457793 0.443597
-0.237802 -0.734651 0.123781
-0.247769 -0.735940 0.127743
-0.253463 -0.737772 0.122034
-0.243119 -0.736923 0.118322
-0.245902 -0.720049 0.196107
-0.248203 -0.718529 0.208290
-0.253897 -0.722880 0.203720
-0.239454 -0.714148 0.202695
-0.239379 -0.698127 0.566484
-0.246625 -0.703060 0.571008
-0.252951 -0.707897 0.566435
-0.245849 -0.703657 0.560910
-0.239625 -0.697785 0.369325
-0.246939 -0.703023 0.373607
-0.253143 -0.707114 0.369126
-0.246099 -0.703569 0.363210
-0.244929 -0.704565 0.315966
-0.246912 -0.703027 0.326806
-0.238947 -0.698121 0.321190
-0.243763 -0.688877 0.627533
-0.248636 -0.684962 0.637465
-0.237530 -0.679462 0.633097
-0.242236 -0.674023 0.642741
-0.249109 -0.668062 0.652650
-0.237025 -0.663277 0.648201
-0.245804 -0.671102 0.295258
-0.247248 -0.671138 0.294365
-0.247257 -0.671134 0.295173
-0.245804 -0.671106 0.294451
-0.239436 -0.661851 0.289393
-0.251056 -0.662784 0.290424
-0.239420 -0.661831 0.298998
-0.238022 -0.645917 0.663250
-0.250974 -0.650102 0.667886
-0.242759 -0.657113 0.657308
-0.239457 -0.647476 0.279931
-0.244235 -0.639129 0.671574
-0.238523 -0.629686 0.673837
-0.242239 -0.638568 0.429567
-0.247388 -0.638596 0.426411
-0.247386 -0.638595 0.429612
-0.242232 -0.638576 0.426372
-0.242244 -0.636781 0.426379
-0.247400 -0.636795 0.426400
-0.242218 -0.636762 0.429580
-0.238008 -0.642282 0.367221
-0.238080 -0.642062 0.353924
-0.243608 -0.639086 0.343540
-0.247888 -0.639101 0.343443
-0.247904 -0.636437 0.343444
-0.236935 -0.629398 0.343872
-0.232706 -0.633254 0.348308
-0.238082 -0.641325 0.315745
-0.248632 -0.640788 0.313096
-0.238043 -0.649478 0.308035
-0.242251 -0.629632 0.285381
-0.238152 -0.613923 0.680626
-0.241124 -0.625507 0.350295
-0.246603 -0.621157 0.361558
-0.238285 -0.614816 0.355143
-0.238218 -0.602519 0.685717
-0.248113 -0.605775 0.687029
-0.238229 -0.594090 0.688738
-0.238212 -0.581005 0.691555
-0.238215 -0.565213 0.692785
-0.238226 -0.549841 0.692974
-0.238189 -0.533272 0.695383
-0.238136 -0.516288 0.698997
-0.238108 -0.500405 0.699915
-0.238133 -0.484586 0.699174
-0.238210 -0.467744 0.699890
-0.238255 -0.450994 0.700595
-0.238202 -0.435093 0.700287
-0.238121 -0.418862 0.700810
-0.238048 -0.404479 0.702632
-0.238002 -0.395745 0.703928
-0.237989 -0.385137 0.704667
-0.237970 -0.369534 0.705229
-0.237977 -0.353252 0.705319
-0.238000 -0.336032 0.705521
-0.237988 -0.319753 0.705037
-0.237967 -0.309733 0.704006
-0.237895 -0.301843 0.702417
-0.250459 -0.291828 0.702718
-0.237904 -0.289812 0.702434
-0.237909 -0.281288 0.703882
-0.237921 -0.270917 0.704719
-0.237941 -0.258480 0.704572
-0.237958 -0.250613 0.702251
-0.238019 -0.238624 0.699905
-0.238061 -0.223907 0.701519
-0.238082 -0.215514 0.704382
-0.238093 -0.205583 0.705757
-0.238079 -0.189582 0.706080
-0.238039 -0.173611 0.706016
-0.237957 -0.157049 0.708513
-0.237899 -0.140471 0.711260
-0.237915 -0.124275 0.712166
-0.237951 -0.107999 0.712961
-0.237965 -0.091310 0.714906
-0.237954 -0.074859 0.715303
-0.237924 -0.058827 0.713090
-0.237861 -0.042483 0.712352
-0.237743 -0.025676 0.714458
-0.237734 -0.009235 0.713775
-0.237843 0.006803 0.710160
-0.237896 0.023225 0.708622
-0.237903 0.039933 0.708933
-0.237891 0.056371 0.708315
-0.237874 0.072587 0.706947
-0.237875 0.089095 0.706291
-0.237877 0.105693 0.706439
-0.237839 0.121936 0.708246
-0.237727 0.138109 0.709293
-0.238992 0.156096 0.706208
-0.245395 0.162536 0.703483
-0.244041 0.170823 0.703090
-0.235812 0.170963 0.704526
-0.243720 0.184269 0.703003
-0.237938 0.188659 0.704362
-0.237352 0.201698 0.704352
-0.242611 0.206056 0.702058
-0.237570 0.219023 0.699404
-0.231965 0.213208 0.704030
-0.238008 0.235969 0.694835
-0.246035 0.227984 -0.705039
-0.239352 0.221684 -0.707766
-0.244309 0.236354 -0.703817
-0.236144 0.236224 -0.706637
-0.238169 0.252364 0.694854
-0.242310 0.252603 -0.701931
-0.234145 0.252538 -0.705954
-0.238190 0.268763 0.694732
-0.240213 0.268952 -0.700040
-0.232001 0.268921 -0.704975
-0.238030 0.285158 0.692663
-0.237870 0.285254 -0.696287
-0.230107 0.277870 -0.704188
-0.237852 0.301827 0.689444
-0.245650 0.292666 -0.687472
-0.234641 0.298717 -0.692108
-0.239196 0.303213 -0.684775
-0.243306 0.307443 0.687057
-0.237999 0.317670 0.685734
-0.232312 0.311986 0.688236
-0.238252 0.334383 0.680737
-0.245918 0.326068 -0.655323
-0.242006 0.322481 -0.663885
-0.233840 0.329910 -0.663935
-0.239745 0.335976 -0.649351
-0.236306 0.316834 -0.675714
-0.229883 0.326567 -0.672533
-0.237776 0.351157 0.674637
-0.244499 0.341095 -0.636462
-0.237738 0.350516 -0.630513
-0.233575 0.345785 -0.643401
-0.242955 0.356844 0.671180
-0.237844 0.366105 0.667046
-0.231966 0.359885 0.672383
-0.242285 0.355584 -0.614439
-0.245304 0.358232 -0.604178
-0.237825 0.367155 -0.597670
-0.234048 0.362783 -0.614633
-0.230938 0.359901 -0.624603
-0.238380 0.378378 0.658753
-0.243402 0.372952 -0.564130
-0.245490 0.374761 -0.553596
-0.239275 0.381250 -0.547957
-0.235161 0.379660 -0.564138
-0.240342 0.370242 -0.580707
-0.232092 0.377259 -0.580738
-0.230344 0.375914 -0.591045
-0.238374 0.386554 0.651715
-0.238359 0.395780 0.643708
-0.245740 0.391053 -0.153925
-0.246040 0.391338 -0.143070
-0.237560 0.398727 -0.154009
-0.239746 0.397682 -0.137556
-0.245654 0.390969 -0.170366
-0.237478 0.399327 -0.170623
-0.245703 0.391035 -0.186817
-0.237501 0.398927 -0.186982
-0.245631 0.391039 -0.203316
-0.237425 0.398358 -0.203277
-0.245150 0.390760 -0.219956
-0.236965 0.398013 -0.220228
-0.245222 0.390821 -0.236354
-0.237044 0.398358 -0.236861
-0.245929 0.391306 -0.249215
-0.239642 0.397854 -0.253954
-0.246261 0.391547 -0.272585
-0.245658 0.391162 -0.285206
-0.237462 0.399063 -0.285405
-0.239840 0.397979 -0.267809
-0.244489 0.390204 -0.301615
-0.236306 0.398023 -0.301806
-0.243182 0.388937 -0.318015
-0.234978 0.396275 -0.318041
-0.242314 0.388352 -0.334410
-0.234088 0.395436 -0.334419
-0.242404 0.388526 -0.350812
-0.234182 0.395859 -0.350837
-0.243398 0.389430 -0.367226
-0.235205 0.396394 -0.367245
-0.244899 0.390712 -0.383620
-0.236722 0.397002 -0.383614
-0.245990 0.391478 -0.394833
-0.239636 0.396830 -0.400199
-0.238636 0.388122 -0.533152
-0.244356 0.390555 -0.521993
-0.238573 0.396621 -0.516797
-0.233446 0.394280 -0.528809
-0.238405 0.403948 0.635815
-0.238407 0.411059 0.628179
-0.243035 0.405035 -0.107985
-0.245725 0.407451 -0.098221
-0.234865 0.412047 -0.108204
-0.238903 0.416719 -0.091014
-0.237784 0.402900 -0.123511
-0.231845 0.409630 -0.119779
-0.238262 0.399026 -0.416484
-0.238196 0.398743 -0.432914
-0.238151 0.398061 -0.449306
-0.238127 0.398918 -0.465857
-0.238115 0.400269 -0.482852
-0.238101 0.400427 -0.500295
-0.237571 0.420152 0.615708
-0.242551 0.425086 0.609556
-0.244499 0.422544 0.239799
-0.245988 0.424084 0.248857
-0.238399 0.433968 0.255223
-0.236240 0.431139 0.239744
-0.243586 0.421689 0.223257
-0.235337 0.430125 0.223175
-0.244278 0.422445 0.206491
-0.236028 0.429950 0.206280
-0.245236 0.423271 0.190100
-0.236966 0.430255 0.189580
-0.245980 0.423975 0.173668
-0.237705 0.430471 0.173035
-0.246157 0.424180 0.155677
-0.237944 0.430253 0.155923
-0.246282 0.424311 0.142725
-0.239908 0.428985 0.138529
-0.245748 0.423823 -0.061616
-0.243222 0.421716 -0.072431
-0.235054 0.426821 -0.072469
-0.239544 0.428270 -0.055928
-0.232089 0.425427 -0.083696
-0.237581 0.428699 0.601772
-0.239700 0.438215 0.582030
-0.246100 0.440990 0.574806
-0.239635 0.442843 0.568617
-0.234986 0.441294 0.575580
-0.241970 0.439263 0.354477
-0.244574 0.440356 0.365379
-0.238781 0.443289 0.370813
-0.233685 0.442021 0.354476
-0.239830 0.437977 0.337674
-0.231559 0.441472 0.338008
-0.240043 0.438191 0.321180
-0.231766 0.441518 0.321546
-0.241021 0.439162 0.305002
-0.232726 0.441771 0.305087
-0.242055 0.439526 0.288595
-0.233751 0.441993 0.288632
-0.241201 0.438418 0.272255
-0.232881 0.441804 0.272262
-0.230772 0.441295 0.261632
-0.238568 0.430601 0.123835
-0.238637 0.431328 0.108196
-0.238605 0.431803 0.091078
-0.238575 0.432750 0.074440
-0.238514 0.434058 0.058734
-0.238438 0.434852 0.042582
-0.238417 0.435295 0.026009
-0.238456 0.434504 0.009690
-0.238512 0.432314 -0.006388
-0.238506 0.431168 -0.022726
-0.238470 0.430856 -0.039218
-0.238273 0.447077 0.551252
-0.238269 0.450959 0.534778
-0.236892 0.455224 0.516693
-0.241453 0.456776 0.505703
-0.236842 0.457957 0.500970
-0.230473 0.457472 0.510262
-0.238311 0.451950 0.420188
-0.238251 0.455364 0.432993
-0.238347 0.450004 0.403660
-0.238367 0.447355 0.387153
-0.238159 0.459730 0.485614
-0.238125 0.461671 0.468992
-0.238148 0.461161 0.452576
-0.238197 0.458586 0.441131
-0.222628 -0.733611 0.108645
-0.232436 -0.735711 0.113688
-0.237950 -0.737697 0.107733
-0.228732 -0.736707 0.103101
-0.224528 -0.721036 0.167085
-0.230153 -0.719631 0.177444
-0.236477 -0.723684 0.171396
-0.219985 -0.717965 0.172099
-0.228625 -0.704141 0.218117
-0.229942 -0.703491 0.230906
-0.236436 -0.708418 0.223735
-0.222490 -0.699630 0.223104
-0.221882 -0.678591 0.616588
-0.232828 -0.684877 0.621722
-0.238159 -0.691922 0.616609
-0.228397 -0.688302 0.610937
-0.226354 -0.673936 0.628803
-0.231299 -0.669439 0.638641
-0.220225 -0.663642 0.633986
-0.225088 -0.658505 0.643689
-0.231810 -0.652688 0.653704
-0.219471 -0.647677 0.649074
-0.225264 -0.655808 0.297806
-0.225258 -0.655816 0.291677
-0.220486 -0.651203 0.286612
-0.220503 -0.646871 0.304503
-0.229907 -0.654954 -0.425119
-0.230117 -0.654959 -0.425112
-0.230120 -0.654964 -0.424343
-0.229910 -0.654958 -0.424350
-0.230738 -0.646878 -0.427074
-0.229064 -0.646816 -0.427122
-0.229203 -0.645535 -0.418039
-0.220665 -0.630696 0.663786
-0.233344 -0.634961 0.669139
-0.224887 -0.641749 0.658581
-0.227502 -0.639132 0.364742
-0.227496 -0.639146 0.359606
-0.225881 -0.628577 0.354093
-0.225026 -0.629779 0.367923
-0.226837 -0.639717 0.315447
-0.223608 -0.629885 0.317998
-0.215268 -0.629827 0.310903
-0.234680 -0.642780 0.270497
-0.222164 -0.642487 0.270714
-0.228140 -0.639683 0.259368
-0.231270 -0.639711 0.259431
-0.228142 -0.636059 0.259417
-0.231283 -0.636075 0.259458
-0.221275 -0.629396 0.270697
-0.229948 -0.639318 -0.408151
-0.230696 -0.645578 -0.417994
-0.230210 -0.639329 -0.408152
-0.229946 -0.638746 -0.408149
-0.229092 -0.637890 -0.416708
-0.228873 -0.637652 -0.427610
-0.230911 -0.637707 -0.427570
-0.229719 -0.638781 -0.474490
-0.230314 -0.638794 -0.476308
-0.230317 -0.638793 -0.474496
-0.229716 -0.638782 -0.476318
-0.229715 -0.638140 -0.476299
-0.230315 -0.638146 -0.476295
-0.229717 -0.638135 -0.474491
-0.227523 -0.624083 0.671979
-0.221896 -0.613730 0.674740
-0.228399 -0.625294 0.485769
-0.230944 -0.625285 0.485785
-0.230117 -0.623123 0.494711
-0.229192 -0.623120 0.494705
-0.229182 -0.619863 0.494713
-0.228465 -0.613977 0.484547
-0.230914 -0.624934 0.474465
-0.228445 -0.624940 0.474478
-0.230681 -0.613308 0.473857
-0.228537 -0.613322 0.473880
-0.228423 -0.626045 0.431655
-0.231585 -0.626043 0.423120
-0.231574 -0.626031 0.431701
-0.228432 -0.626044 0.423123
-0.231413 -0.614541 0.418577
-0.227908 -0.614538 0.418565
-0.227974 -0.613333 0.433517
-0.222952 -0.613434 0.354158
-0.224558 -0.613686 0.372010
-0.229659 -0.622347 0.344187
-0.230641 -0.613497 0.343230
-0.229012 -0.613499 0.343250
-0.216465 -0.612340 0.305281
-0.225041 -0.613586 0.317138
-0.230874 -0.618324 0.276395
-0.234326 -0.630374 0.270609
-0.225527 -0.618294 0.276293
-0.219751 -0.612176 0.285270
-0.214458 -0.622818 0.279070
-0.222262 -0.596669 0.683020
-0.229734 -0.604138 0.475681
-0.229342 -0.604144 0.475696
-0.229335 -0.604134 0.478236
-0.228380 -0.600404 0.419966
-0.228662 -0.602157 0.431843
-0.230162 -0.609872 0.408855
-0.228989 -0.609875 0.408853
-0.230153 -0.601785 0.408841
-0.228984 -0.601798 0.408852
-0.236584 -0.614767 0.370672
-0.230271 -0.608376 0.381465
-0.229076 -0.608366 0.381426
-0.222955 -0.597000 0.370691
-0.229132 -0.596983 0.381013
-0.224324 -0.597303 0.353865
-0.230539 -0.603027 0.343895
-0.228944 -0.603025 0.343916
-0.221351 -0.597374 0.303515
-0.228721 -0.602436 0.314327
-0.232712 -0.597373 0.289391
-0.233637 -0.613259 0.286190
-0.220321 -0.597588 0.290421
-0.228221 -0.590690 0.687980
-0.222315 -0.580139 0.689006
-0.229522 -0.590061 0.443286
-0.229755 -0.590059 0.443299
-0.229757 -0.590063 0.444842
-0.229525 -0.590059 0.444823
-0.229522 -0.587682 0.443208
-0.229754 -0.587676 0.443215
-0.229523 -0.587675 0.444748
-0.229659 -0.588365 0.379051
-0.226451 -0.585205 0.370559
-0.225511 -0.584449 0.359184
-0.231976 -0.584449 0.359023
-0.232829 -0.597347 0.353686
-0.222456 -0.580967 0.292870
-0.231734 -0.580865 0.292553
-0.221794 -0.564996 0.690715
-0.228619 -0.572173 0.295469
-0.230123 -0.572163 0.295459
-0.228610 -0.572163 0.296283
-0.222468 -0.580960 0.298734
-0.221812 -0.549636 0.691645
-0.221745 -0.533159 0.694156
-0.221666 -0.516267 0.697344
-0.221692 -0.500501 0.698183
-0.221762 -0.484726 0.697905
-0.221779 -0.467811 0.700170
-0.221770 -0.450970 0.702101
-0.221742 -0.435009 0.701383
-0.221675 -0.418753 0.701194
-0.221560 -0.403947 0.702689
-0.221510 -0.385197 0.704607
-0.221495 -0.395273 0.703844
-0.221563 -0.369680 0.705445
-0.221557 -0.353375 0.705944
-0.221459 -0.336003 0.706658
-0.221436 -0.319614 0.706371
-0.220785 -0.303966 0.704563
-0.225784 -0.298609 0.703023
-0.225787 -0.292276 0.703034
-0.220765 -0.287078 0.704298
-0.221419 -0.270879 0.705507
-0.220676 -0.254518 0.704838
-0.225730 -0.249094 0.702868
-0.223154 -0.238813 0.701964
-0.214854 -0.239042 0.704091
-0.225063 -0.226335 0.702370
-0.220325 -0.221407 0.704979
-0.221483 -0.205537 0.707174
-0.221513 -0.189475 0.707542
-0.221552 -0.173535 0.707722
-0.221084 -0.171721 -0.704267
-0.215106 -0.183637 -0.703854
-0.221061 -0.188797 -0.702246
-0.226223 -0.176820 -0.703058
-0.221472 -0.156971 0.710267
-0.221396 -0.140438 0.713207
-0.221429 -0.124328 0.715104
-0.219885 -0.107461 0.717066
-0.219803 -0.091854 0.717847
-0.213189 -0.097994 0.719973
-0.213228 -0.101611 0.719974
-0.221365 -0.074731 0.717242
-0.221423 -0.058759 0.715760
-0.221416 -0.042454 0.715425
-0.220237 -0.027058 0.717516
-0.220186 -0.009889 0.716969
-0.213894 -0.022303 0.720055
-0.213844 -0.015544 0.720054
-0.221395 0.006739 0.713353
-0.221435 0.023172 0.711626
-0.221389 0.039941 0.710965
-0.221392 0.056368 0.709601
-0.221441 0.072521 0.707950
-0.221459 0.089054 0.707303
-0.221408 0.105733 0.707867
-0.221262 0.122030 0.710035
-0.221833 0.124584 -0.718723
-0.213692 0.112983 -0.720331
-0.220181 0.107685 -0.718780
-0.213467 0.124593 -0.720462
-0.221086 0.138193 0.711069
-0.212950 0.133474 -0.720535
-0.219528 0.139766 -0.719097
-0.220940 0.154603 0.708388
-0.220924 0.170910 0.705424
-0.221105 0.187017 0.705366
-0.221343 0.203235 0.705521
-0.221495 0.214802 0.704331
-0.221585 0.222971 0.701044
-0.221658 0.235975 0.697896
-0.221668 0.252374 0.697762
-0.221605 0.268772 0.696877
-0.221465 0.285163 0.694151
-0.221430 0.301566 0.691027
-0.221501 0.284205 -0.706053
-0.226912 0.288837 -0.702919
-0.222613 0.302701 -0.697375
-0.215965 0.295708 -0.705182
-0.221519 0.315260 0.688481
-0.229323 0.309673 -0.687961
-0.225307 0.318188 -0.684322
-0.217097 0.318280 -0.691065
-0.221583 0.323437 0.687138
-0.221635 0.334386 0.683617
-0.218916 0.332080 -0.678269
-0.213153 0.326630 -0.688570
-0.221692 0.350794 0.677315
-0.229002 0.341777 -0.654460
-0.225404 0.338145 -0.664092
-0.217221 0.347174 -0.664293
-0.222964 0.352378 -0.649529
-0.213750 0.343443 -0.673352
-0.221745 0.361507 0.672819
-0.227885 0.356764 -0.635504
-0.216881 0.362267 -0.644468
-0.221166 0.366596 -0.630137
-0.221745 0.369702 0.667852
-0.221729 0.380404 0.659920
-0.225754 0.371062 -0.614780
-0.228663 0.374148 -0.602747
-0.221212 0.383861 -0.598438
-0.217418 0.380453 -0.615002
-0.214438 0.376910 -0.624837
-0.221709 0.388583 0.652469
-0.221708 0.396225 0.644455
-0.229391 0.391496 -0.538845
-0.227803 0.390244 -0.547740
-0.219441 0.396976 -0.547804
-0.222244 0.400697 -0.533008
-0.225332 0.387904 -0.564186
-0.216962 0.395112 -0.564234
-0.223367 0.385519 -0.580844
-0.214989 0.393715 -0.580935
-0.213767 0.392739 -0.593955
-0.221757 0.404400 0.635548
-0.221744 0.411019 0.628236
-0.229046 0.406945 -0.137521
-0.229895 0.407803 -0.128372
-0.220658 0.414748 -0.137511
-0.222025 0.416804 -0.123373
-0.229050 0.406889 -0.154119
-0.220708 0.414290 -0.154123
-0.229677 0.407503 -0.170911
-0.221390 0.414572 -0.170918
-0.229195 0.407107 -0.187141
-0.220884 0.414519 -0.187143
-0.228602 0.406539 -0.203223
-0.220244 0.414315 -0.203221
-0.228308 0.406195 -0.220729
-0.219978 0.414109 -0.220956
-0.228586 0.406542 -0.237679
-0.220265 0.413946 -0.238208
-0.229456 0.407503 -0.253000
-0.221078 0.414104 -0.253381
-0.229543 0.407677 -0.268918
-0.221135 0.413888 -0.269387
-0.228879 0.407239 -0.285831
-0.220518 0.413296 -0.286896
-0.227804 0.406199 -0.302385
-0.219462 0.412664 -0.303656
-0.226234 0.404463 -0.318346
-0.217891 0.411682 -0.319056
-0.225397 0.403609 -0.334583
-0.217070 0.411079 -0.334849
-0.225192 0.404019 -0.351019
-0.216949 0.410834 -0.351307
-0.225614 0.404555 -0.367349
-0.217383 0.411033 -0.367477
-0.226813 0.405182 -0.383629
-0.218492 0.411673 -0.383620
-0.227945 0.406126 -0.400044
-0.219575 0.412246 -0.400046
-0.228664 0.406801 -0.416522
-0.220268 0.412689 -0.416645
-0.228338 0.406558 -0.432941
-0.219972 0.412590 -0.433057
-0.227675 0.406032 -0.449306
-0.219328 0.412291 -0.449303
-0.227987 0.406428 -0.465901
-0.219629 0.412437 -0.466016
-0.228676 0.407148 -0.482901
-0.220313 0.412792 -0.483173
-0.228490 0.407177 -0.500115
-0.220140 0.412821 -0.500023
-0.226238 0.405365 -0.516460
-0.217919 0.411601 -0.516046
-0.215121 0.409804 -0.526915
-0.223116 0.420117 0.616595
-0.229565 0.424332 0.608492
-0.231467 0.424335 0.608478
-0.223080 0.429020 0.601869
-0.218425 0.425915 0.611087
-0.227590 0.422816 -0.096468
-0.224570 0.420260 -0.108323
-0.221990 0.427581 -0.090180
-0.216254 0.426055 -0.108162
-0.214190 0.425031 -0.118307
-0.221666 0.437321 0.583958
-0.221592 0.441229 0.575522
-0.221695 0.438723 0.239679
-0.221602 0.440546 0.250161
-0.221725 0.437008 0.223009
-0.221692 0.436746 0.205998
-0.221709 0.437268 0.189415
-0.221784 0.437670 0.173186
-0.221897 0.437213 0.156938
-0.221992 0.436510 0.140844
-0.222011 0.436045 0.124796
-0.222007 0.436001 0.108491
-0.221986 0.436529 0.091160
-0.221927 0.437542 0.073946
-0.221873 0.438708 0.058051
-0.221837 0.439409 0.042323
-0.221820 0.439891 0.026217
-0.221815 0.439361 0.010012
-0.221815 0.437530 -0.006230
-0.221841 0.436538 -0.022658
-0.221879 0.436215 -0.039321
-0.221904 0.434435 -0.055921
-0.221906 0.431354 -0.072550
-0.221622 0.443451 0.567242
-0.221629 0.447305 0.551319
-0.221607 0.450478 0.534649
-0.223182 0.453910 0.516434
-0.229877 0.457472 0.510261
-0.221603 0.451314 0.420179
-0.221839 0.454186 0.435790
-0.221589 0.450020 0.403508
-0.221590 0.448008 0.387034
-0.221645 0.444828 0.370904
-0.221672 0.442787 0.354539
-0.221650 0.441885 0.337844
-0.221594 0.441873 0.321334
-0.221507 0.442351 0.305115
-0.221441 0.442725 0.288658
-0.221423 0.442603 0.272135
-0.221485 0.441624 0.258194
-0.228890 0.457953 0.501914
-0.227153 0.458935 0.485634
-0.225575 0.460017 0.468952
-0.225644 0.459888 0.452460
-0.227642 0.458598 0.440909
-0.205819 -0.732127 -0.005372
-0.214227 -0.735843 0.000518
-0.220483 -0.739978 -0.005415
-0.211761 -0.737218 -0.010439
-0.206728 -0.731764 -0.139808
-0.214754 -0.735602 -0.135737
-0.220761 -0.738184 -0.139793
-0.213291 -0.736361 -0.145724
-0.204683 -0.718105 0.158575
-0.213780 -0.719830 0.163811
-0.220178 -0.722987 0.157080
-0.209835 -0.721384 0.154088
-0.204979 -0.706022 0.183679
-0.213924 -0.703038 0.194156
-0.220194 -0.709450 0.187979
-0.204853 -0.700421 0.191277
-0.212734 -0.687456 0.265087
-0.213597 -0.686813 0.276422
-0.220080 -0.691391 0.270602
-0.206389 -0.682125 0.270636
-0.204669 -0.662838 0.617762
-0.215385 -0.668770 0.622232
-0.211387 -0.672267 0.611416
-0.208845 -0.657839 0.629348
-0.214081 -0.653603 0.639064
-0.204028 -0.650664 0.633487
-0.204970 -0.642098 0.643722
-0.213854 -0.637300 0.654447
-0.204973 -0.633514 0.651256
-0.205625 -0.642934 0.287655
-0.205040 -0.643238 0.300545
-0.211478 -0.639237 0.276254
-0.211474 -0.633703 0.276239
-0.205610 -0.628896 0.281545
-0.204567 -0.613613 0.665997
-0.216494 -0.619072 0.669024
-0.205016 -0.625332 0.657505
-0.205045 -0.614669 0.288409
-0.209775 -0.608400 0.672555
-0.204622 -0.597656 0.675248
-0.205738 -0.580072 0.683254
-0.217113 -0.585139 0.685756
-0.204987 -0.594306 0.294223
-0.204993 -0.594273 0.297126
-0.204082 -0.581102 0.294353
-0.205865 -0.563468 0.688190
-0.211677 -0.574203 0.687854
-0.205330 -0.549614 0.689671
-0.205209 -0.533166 0.692152
-0.205078 -0.516325 0.694750
-0.205200 -0.500697 0.695727
-0.205325 -0.484987 0.696365
-0.203607 -0.466127 0.700879
-0.208304 -0.450993 0.703298
-0.196939 -0.458932 0.703628
-0.200004 -0.450844 0.703838
-0.205956 -0.435198 0.702783
-0.200929 -0.440364 0.703908
-0.205145 -0.418878 0.702092
-0.205000 -0.405635 0.703017
-0.204897 -0.385237 0.704608
-0.204877 -0.396906 0.703859
-0.205077 -0.369780 0.705387
-0.205039 -0.353456 0.706200
-0.204719 -0.335944 0.707572
-0.204679 -0.319461 0.707654
-0.204937 -0.304044 0.705932
-0.204952 -0.287731 0.705362
-0.204775 -0.270766 0.706098
-0.204836 -0.254741 0.705652
-0.205020 -0.239108 0.704891
-0.204907 -0.222464 0.706423
-0.204701 -0.205491 0.708840
-0.204806 -0.189378 0.709641
-0.210745 -0.194239 -0.703628
-0.199652 -0.196945 -0.704104
-0.205114 -0.203422 -0.701526
-0.205187 -0.188684 -0.704288
-0.204965 -0.173468 0.710330
-0.204856 -0.156812 0.712523
-0.204739 -0.140266 0.715302
-0.205792 -0.124012 0.718546
-0.211966 -0.112661 0.719778
-0.201025 -0.118551 0.720276
-0.205828 -0.107530 0.720442
-0.205446 -0.091787 0.720368
-0.211357 -0.086443 0.719793
-0.210239 -0.074637 0.719635
-0.201977 -0.074500 0.720278
-0.210490 -0.058734 0.719533
-0.202258 -0.058625 0.720399
-0.211899 -0.042486 0.719702
-0.203685 -0.042386 0.720522
-0.207016 -0.040518 -0.719077
-0.198271 -0.050339 -0.720249
-0.204237 -0.056102 -0.718521
-0.198806 -0.040444 -0.720331
-0.212822 -0.033632 0.719898
-0.206238 -0.026935 0.720405
-0.199758 -0.023594 -0.720623
-0.207993 -0.023667 -0.719642
-0.204647 -0.012599 0.720218
-0.209462 -0.007269 -0.719813
-0.201227 -0.007209 -0.720825
-0.204707 -0.004762 0.719307
-0.204872 0.006692 0.717706
-0.202098 0.008645 -0.720850
-0.210316 0.008619 -0.719543
-0.204882 0.023120 0.715274
-0.210458 0.025123 -0.719532
-0.202217 0.025158 -0.720901
-0.204719 0.039988 0.712741
-0.210401 0.042105 -0.719730
-0.202116 0.042158 -0.720973
-0.204747 0.056397 0.711153
-0.210630 0.058519 -0.719736
-0.202353 0.058569 -0.720971
-0.204904 0.072457 0.710230
-0.202315 0.074700 -0.720819
-0.210557 0.074645 -0.719554
-0.204903 0.089029 0.709324
-0.203327 0.091295 -0.720915
-0.211600 0.091216 -0.719778
-0.204750 0.105825 0.709167
-0.212846 0.101857 -0.720097
-0.206328 0.107725 -0.721040
-0.204552 0.122185 0.710621
-0.204420 0.138269 0.711116
-0.204459 0.154494 0.708082
-0.205147 0.139748 -0.721471
-0.211062 0.144425 -0.720563
-0.208139 0.157239 -0.720378
-0.199968 0.157016 -0.721726
-0.204610 0.170712 0.704962
-0.197562 0.168529 -0.721626
-0.203715 0.173531 -0.720258
-0.204828 0.186908 0.704684
-0.205046 0.203200 0.704836
-0.205174 0.214555 0.704063
-0.205228 0.222745 0.701920
-0.205216 0.236004 0.700086
-0.205111 0.252399 0.700180
-0.204996 0.268794 0.698707
-0.204902 0.285183 0.694776
-0.204859 0.301582 0.691133
-0.206314 0.319412 0.688678
-0.209569 0.306881 -0.702627
-0.204451 0.301726 -0.706973
-0.198587 0.312506 -0.705401
-0.204368 0.318143 -0.699348
-0.212815 0.325808 0.687486
-0.206358 0.333935 0.685470
-0.201740 0.328161 0.687942
-0.205019 0.350793 0.678792
-0.204910 0.338256 -0.684686
-0.204821 0.330130 -0.691557
-0.205086 0.362654 0.673149
-0.206573 0.356049 -0.666048
-0.213095 0.359002 -0.655656
-0.205806 0.367941 -0.648500
-0.202090 0.362629 -0.661603
-0.204976 0.347273 -0.676810
-0.205086 0.370840 0.668139
-0.205059 0.380876 0.660077
-0.209511 0.373262 -0.635586
-0.198531 0.376678 -0.641124
-0.204334 0.379907 -0.630647
-0.205044 0.389061 0.651708
-0.205049 0.396053 0.643602
-0.212449 0.391834 -0.605972
-0.206137 0.389018 -0.616256
-0.201519 0.394829 -0.611640
-0.206089 0.396362 -0.599408
-0.205122 0.404234 0.635626
-0.205127 0.412279 0.628734
-0.211258 0.407016 -0.537491
-0.208597 0.405157 -0.547934
-0.200350 0.410728 -0.548096
-0.205419 0.413632 -0.532019
-0.204031 0.403919 -0.564681
-0.197987 0.409274 -0.559474
-0.204823 0.400133 -0.581076
-0.205171 0.420454 0.621043
-0.205137 0.426881 0.613057
-0.212494 0.423918 -0.126939
-0.210975 0.422911 -0.137502
-0.206273 0.427885 -0.122513
-0.202685 0.427161 -0.137503
-0.210417 0.422457 -0.154143
-0.202118 0.426781 -0.154101
-0.210925 0.422753 -0.170935
-0.202622 0.426912 -0.170852
-0.210648 0.422700 -0.187132
-0.202378 0.426825 -0.187099
-0.210218 0.422499 -0.203225
-0.201971 0.426737 -0.203242
-0.210003 0.422300 -0.221115
-0.201757 0.426774 -0.220992
-0.209744 0.422137 -0.238653
-0.201489 0.426682 -0.238486
-0.209674 0.422289 -0.253766
-0.201397 0.426495 -0.253805
-0.209102 0.422083 -0.269974
-0.200813 0.426219 -0.270237
-0.208091 0.421500 -0.288003
-0.199812 0.425850 -0.288193
-0.207083 0.420881 -0.304864
-0.198842 0.425457 -0.305089
-0.205950 0.419899 -0.319937
-0.197701 0.425003 -0.320312
-0.205543 0.419272 -0.335423
-0.197265 0.424806 -0.335896
-0.205717 0.419017 -0.352049
-0.197489 0.424873 -0.352612
-0.205851 0.419210 -0.367874
-0.197631 0.424920 -0.368176
-0.205861 0.419853 -0.383605
-0.197626 0.424928 -0.383612
-0.206076 0.420425 -0.400063
-0.197818 0.425066 -0.400063
-0.206304 0.420871 -0.416805
-0.198045 0.425221 -0.416859
-0.206003 0.420785 -0.433217
-0.197779 0.425101 -0.433233
-0.205568 0.420481 -0.449299
-0.197354 0.424887 -0.449273
-0.205565 0.420622 -0.466097
-0.197337 0.424919 -0.466071
-0.205988 0.420983 -0.483329
-0.197768 0.425191 -0.483178
-0.206671 0.421015 -0.499699
-0.198473 0.425565 -0.499348
-0.204144 0.420539 -0.516322
-0.198136 0.425418 -0.511150
-0.205116 0.432081 0.600532
-0.205035 0.438002 0.585379
-0.204957 0.441621 0.576942
-0.213087 0.441006 0.247980
-0.211461 0.440430 0.239634
-0.203174 0.442331 0.239528
-0.206434 0.442807 0.254217
-0.209826 0.439722 0.222835
-0.201544 0.442323 0.222671
-0.209794 0.439621 0.205837
-0.201533 0.442557 0.205767
-0.210128 0.439834 0.189747
-0.201899 0.442567 0.189857
-0.210265 0.440023 0.173966
-0.202046 0.442332 0.174057
-0.209084 0.439785 0.157720
-0.200848 0.441895 0.157754
-0.207061 0.439346 0.141368
-0.198798 0.441410 0.141378
-0.203970 0.439262 0.124956
-0.197552 0.441123 0.130436
-0.205354 0.438556 0.108492
-0.205286 0.438707 0.090552
-0.204333 0.439544 0.073989
-0.208676 0.439904 0.057337
-0.198214 0.441307 0.069257
-0.200425 0.441831 0.057128
-0.210202 0.440207 0.042216
-0.201954 0.442180 0.042119
-0.210203 0.440261 0.026376
-0.201953 0.442074 0.026409
-0.209895 0.440181 0.010130
-0.201646 0.442027 0.010153
-0.209187 0.439879 -0.006216
-0.200935 0.442022 -0.006225
-0.208382 0.439573 -0.022687
-0.200131 0.441894 -0.022728
-0.207329 0.439207 -0.039639
-0.199062 0.441619 -0.039884
-0.204193 0.438739 -0.056091
-0.197955 0.441307 -0.050902
-0.205251 0.436246 -0.072507
-0.205226 0.433789 -0.090035
-0.205228 0.431065 -0.107626
-0.204989 0.444264 0.567382
-0.205017 0.447797 0.551381
-0.204954 0.449950 0.534408
-0.204863 0.450963 0.517315
-0.220465 0.454387 0.501755
-0.204872 0.451430 0.501509
-0.204885 0.451735 0.485789
-0.218756 0.454632 0.485726
-0.217141 0.454883 0.468805
-0.204773 0.452130 0.468700
-0.217184 0.454750 0.452161
-0.204724 0.452014 0.451944
-0.204861 0.450946 0.436254
-0.204957 0.449577 0.420207
-0.204873 0.448522 0.403193
-0.204845 0.447207 0.386681
-0.204975 0.445519 0.370909
-0.205011 0.444452 0.354600
-0.204924 0.443975 0.337592
-0.204865 0.443819 0.320975
-0.204818 0.443932 0.305045
-0.204764 0.444042 0.288631
-0.204728 0.444057 0.271967
-0.196818 -0.736438 -0.194764
-0.198043 -0.735957 -0.183618
-0.204145 -0.737719 -0.188328
-0.190407 -0.731762 -0.188371
-0.188051 -0.729010 -0.362345
-0.182116 -0.736753 -0.359474
-0.187971 -0.739391 -0.352143
-0.193010 -0.734895 -0.357690
-0.197113 -0.720012 0.133561
-0.199010 -0.719219 0.144620
-0.204851 -0.722493 0.140043
-0.190594 -0.713985 0.140072
-0.190202 -0.714657 0.073293
-0.197126 -0.719867 0.079427
-0.203569 -0.724632 0.073409
-0.196443 -0.720246 0.068214
-0.195263 -0.721358 0.005830
-0.198122 -0.719197 0.016826
-0.204250 -0.725549 0.010928
-0.189389 -0.715099 0.010936
-0.189440 -0.697241 0.187245
-0.195343 -0.704249 0.181497
-0.188600 -0.688678 0.198978
-0.197205 -0.686720 0.210543
-0.203540 -0.692864 0.204341
-0.188558 -0.684278 0.207080
-0.190131 -0.665527 0.469504
-0.197106 -0.670428 0.475189
-0.203474 -0.675340 0.469224
-0.196349 -0.670943 0.463855
-0.195576 -0.671847 0.283994
-0.197180 -0.670416 0.295427
-0.203587 -0.676961 0.288718
-0.189656 -0.664988 0.289196
-0.192924 -0.656873 0.613215
-0.197954 -0.653572 0.624111
-0.188046 -0.650976 0.618068
-0.195087 -0.638731 0.640198
-0.190333 -0.628772 0.645880
-0.195151 -0.639818 0.297815
-0.195145 -0.639841 0.293791
-0.193927 -0.629863 0.290813
-0.193919 -0.629848 0.299337
-0.190137 -0.613069 0.658253
-0.196526 -0.621741 0.654767
-0.194654 -0.617125 0.291363
-0.194640 -0.617088 0.298761
-0.187826 -0.597481 0.667686
-0.198775 -0.603386 0.669829
-0.192698 -0.592313 0.672642
-0.187851 -0.581512 0.675651
-0.188738 -0.595616 0.292713
-0.188742 -0.595536 0.299938
-0.188738 -0.581000 0.291013
-0.200694 -0.567485 0.685971
-0.190403 -0.563186 0.683396
-0.198012 -0.572708 0.295479
-0.188713 -0.570881 0.294262
-0.190489 -0.547419 0.687968
-0.197026 -0.557267 0.687527
-0.188830 -0.532510 0.690171
-0.188767 -0.515764 0.692919
-0.188852 -0.500147 0.694363
-0.188923 -0.484477 0.695660
-0.190104 -0.465714 0.700779
-0.196297 -0.458907 0.703628
-0.190014 -0.451536 0.703981
-0.187463 -0.434613 0.703990
-0.192087 -0.429761 0.703136
-0.192040 -0.418611 0.703074
-0.183906 -0.418218 0.703871
-0.195153 -0.408453 0.703374
-0.189303 -0.402036 0.704513
-0.188672 -0.384898 0.705722
-0.188734 -0.369317 0.706223
-0.188650 -0.353003 0.707149
-0.188390 -0.335644 0.708776
-0.188356 -0.319212 0.709032
-0.188560 -0.303725 0.707485
-0.188615 -0.287403 0.706754
-0.188549 -0.270453 0.707196
-0.188600 -0.254446 0.706006
-0.189158 -0.240303 0.704399
-0.189032 -0.222111 0.705433
-0.188408 -0.205201 0.708114
-0.188476 -0.189065 0.708659
-0.188596 -0.173141 0.708958
-0.188544 -0.156504 0.711312
-0.188485 -0.139992 0.714128
-0.189327 -0.123843 0.716930
-0.193767 -0.108150 0.720538
-0.195313 -0.118525 0.720275
-0.188501 -0.089379 0.720343
-0.188216 -0.076010 0.720208
-0.193104 -0.058551 0.720398
-0.193520 -0.042294 0.720521
-0.192024 -0.025328 0.720429
-0.192880 -0.012518 0.720190
-0.187880 -0.007798 0.718382
-0.188508 0.007012 0.715516
-0.188496 0.023453 0.713337
-0.188372 0.040416 0.711671
-0.188386 0.056845 0.711569
-0.188472 0.072906 0.711990
-0.188356 0.089583 0.711092
-0.188139 0.106387 0.710178
-0.188033 0.122454 0.710404
-0.188044 0.138239 0.709902
-0.188178 0.154339 0.706891
-0.189078 0.170367 0.704118
-0.194171 0.186881 0.703871
-0.189865 0.172747 -0.722567
-0.196346 0.178753 -0.721425
-0.195338 0.187997 -0.720919
-0.187225 0.187738 -0.722142
-0.194896 0.203198 0.703867
-0.187095 0.203907 -0.721659
-0.195200 0.203895 -0.720361
-0.196162 0.212852 0.703675
-0.196550 0.220396 -0.720227
-0.188368 0.220633 -0.721193
-0.189967 0.218880 0.699827
-0.188768 0.236075 0.699210
-0.188366 0.237301 -0.720776
-0.196599 0.236861 -0.720108
-0.188665 0.252458 0.701028
-0.184947 0.253819 -0.720456
-0.193127 0.253338 -0.719655
-0.188541 0.268839 0.699768
-0.181646 0.263249 -0.720188
-0.187748 0.269016 -0.718507
-0.188393 0.285225 0.694425
-0.188328 0.301613 0.690607
-0.188358 0.317999 0.689575
-0.188406 0.328853 0.688255
-0.192240 0.323645 -0.703392
-0.187427 0.318618 -0.707190
-0.181270 0.327895 -0.706131
-0.187449 0.334878 -0.697115
-0.188463 0.337029 0.684315
-0.187930 0.351773 0.676043
-0.193695 0.342123 -0.688468
-0.182736 0.343647 -0.690657
-0.188518 0.351306 -0.681339
-0.193026 0.361418 0.672488
-0.194344 0.358987 -0.673029
-0.183341 0.359330 -0.674053
-0.188720 0.363765 -0.666715
-0.188018 0.367010 0.666962
-0.188643 0.379394 0.658251
-0.188535 0.372928 -0.652241
-0.188631 0.387587 0.650436
-0.188612 0.396751 0.642223
-0.188556 0.386820 -0.630616
-0.193975 0.391404 -0.622409
-0.187140 0.399326 -0.615062
-0.183143 0.392945 -0.624844
-0.188525 0.377835 -0.643497
-0.188686 0.404930 0.636191
-0.187730 0.416746 0.628554
-0.195511 0.407734 -0.570476
-0.193458 0.406592 -0.581275
-0.189513 0.413677 -0.564928
-0.185370 0.411682 -0.581392
-0.190224 0.404994 -0.598637
-0.182111 0.409494 -0.598716
-0.180298 0.408352 -0.607544
-0.192521 0.422437 0.622727
-0.187850 0.429029 0.617057
-0.181695 0.424931 0.624592
-0.196143 0.424364 -0.522115
-0.193443 0.422003 -0.531916
-0.189900 0.428924 -0.516071
-0.185349 0.427623 -0.532228
-0.187941 0.419771 -0.549514
-0.182091 0.425841 -0.545194
-0.189320 0.437745 0.602117
-0.194904 0.439464 0.588861
-0.187855 0.448193 0.582212
-0.184275 0.443647 0.597641
-0.196952 0.440894 0.119491
-0.196944 0.440893 0.108503
-0.189241 0.449217 0.108467
-0.189102 0.449146 0.125366
-0.196935 0.440958 0.090432
-0.187415 0.450747 0.090263
-0.196884 0.440980 0.080022
-0.189041 0.449250 0.074725
-0.195605 0.439928 -0.072321
-0.196435 0.440602 -0.061249
-0.187545 0.447820 -0.072143
-0.188639 0.449086 -0.055168
-0.194546 0.438909 -0.089461
-0.186496 0.446588 -0.088955
-0.193376 0.437833 -0.106744
-0.185324 0.445307 -0.105958
-0.191690 0.436591 -0.122164
-0.183622 0.443786 -0.121817
-0.190093 0.435356 -0.137516
-0.182000 0.442272 -0.137539
-0.189299 0.434969 -0.153990
-0.181150 0.441385 -0.153925
-0.189083 0.435101 -0.170560
-0.180902 0.441099 -0.170372
-0.189222 0.435016 -0.186932
-0.181121 0.441273 -0.186850
-0.189317 0.434930 -0.203286
-0.181286 0.441394 -0.203343
-0.187452 0.436075 -0.220462
-0.181122 0.441233 -0.214632
-0.188905 0.434389 -0.237396
-0.188807 0.434251 -0.253314
-0.188715 0.433668 -0.269851
-0.188676 0.432469 -0.287399
-0.188694 0.431805 -0.304266
-0.188728 0.431560 -0.319905
-0.188789 0.431333 -0.335632
-0.188858 0.430984 -0.352121
-0.188899 0.430924 -0.367932
-0.188927 0.431018 -0.383636
-0.188878 0.431269 -0.400043
-0.188783 0.431479 -0.416701
-0.188766 0.430842 -0.433133
-0.188797 0.429872 -0.449336
-0.188754 0.429817 -0.465996
-0.188687 0.430430 -0.482833
-0.188642 0.430953 -0.499069
-0.190216 0.451425 0.567424
-0.182237 0.459392 0.567384
-0.180813 0.457450 0.575646
-0.192553 0.453159 0.551229
-0.184553 0.462737 0.551011
-0.193585 0.454110 0.534342
-0.185628 0.464114 0.534171
-0.193784 0.454418 0.517342
-0.185879 0.464263 0.517252
-0.193923 0.454484 0.501509
-0.185986 0.464891 0.501375
-0.194005 0.454540 0.485742
-0.186043 0.465406 0.485579
-0.194034 0.454682 0.468763
-0.186123 0.465227 0.468756
-0.193939 0.454701 0.452059
-0.186061 0.464732 0.452153
-0.193736 0.454420 0.436276
-0.185810 0.464418 0.436270
-0.193369 0.453967 0.420180
-0.185412 0.464060 0.420110
-0.192978 0.453596 0.403281
-0.185067 0.463466 0.403365
-0.192486 0.453067 0.386791
-0.184586 0.462816 0.386913
-0.192035 0.452329 0.370899
-0.184060 0.462290 0.370856
-0.191667 0.451881 0.354570
-0.183669 0.461687 0.354465
-0.191216 0.451759 0.337719
-0.183262 0.460863 0.337714
-0.190855 0.451657 0.321096
-0.182910 0.460339 0.321079
-0.190481 0.451539 0.304909
-0.182509 0.460042 0.304657
-0.190037 0.451498 0.288511
-0.182075 0.459409 0.288288
-0.189697 0.451448 0.272007
-0.181775 0.458823 0.272007
-0.189842 0.451043 0.255581
-0.181902 0.458981 0.255477
-0.190179 0.450516 0.239117
