0.600378 0.685107 0.188140
0.590015 0.686924 0.194468
0.595823 0.689370 0.183552
0.600657 0.696227 0.171130
0.594545 0.706548 0.163793
0.592692 0.692615 0.066517
0.583574 0.697003 0.063886
0.590164 0.703522 0.067529
0.598291 0.697067 0.070421
0.586429 0.717493 0.161422
0.599569 0.711946 0.160129
0.598828 0.728191 0.154505
0.598837 0.741847 0.148755
0.589129 0.752314 0.145702
0.598869 0.750085 0.144702
0.598844 0.761096 0.139697
0.598807 0.777552 0.134199
0.594603 0.756551 0.082695
0.580613 0.761662 0.081903
0.585161 0.767488 0.084561
0.599403 0.761707 0.085685
0.598003 0.793470 0.131152
0.592010 0.803389 0.130344
0.598046 0.809632 0.127559
0.598748 0.826971 0.122757
0.599894 0.844577 0.117135
0.595157 0.853038 0.115320
0.599858 0.854727 0.108058
0.598585 0.854288 0.098171
0.615265 0.037615 0.385019
0.609772 0.034032 0.379112
0.615311 0.046060 0.397874
0.616700 0.059754 0.404830
0.613490 0.075409 0.406069
0.623026 0.065524 0.409982
0.621640 0.075408 0.411204
0.610365 0.091644 0.408359
0.618527 0.091616 0.413590
0.607946 0.102025 0.410021
0.614130 0.107556 0.415267
0.615285 0.123777 0.418320
0.615351 0.139703 0.418705
0.616933 0.157642 0.421794
0.614204 0.172959 0.422439
0.622320 0.172818 0.426981
0.623368 0.164122 0.426993
0.611589 0.189019 0.423045
0.619725 0.188825 0.426903
0.609085 0.199876 0.423981
0.614892 0.205021 0.426884
0.615401 0.221267 0.428541
0.615296 0.237730 0.430128
0.615229 0.254121 0.432934
0.615233 0.270761 0.435822
0.615952 0.287557 0.438774
0.612942 0.304219 0.439250
0.621041 0.304156 0.442100
0.621794 0.293080 0.441859
0.611075 0.317301 0.439812
0.616077 0.321790 0.442086
0.614644 0.336259 0.442285
0.608661 0.341445 0.440722
0.608602 0.350353 0.440725
0.614545 0.355082 0.442678
0.615214 0.370136 0.444445
0.615113 0.385996 0.446452
0.615201 0.402391 0.448624
0.615423 0.419148 0.450997
0.616671 0.436166 0.454322
0.612047 0.451995 0.455741
0.622835 0.441786 0.457694
0.620180 0.451685 0.458258
0.609481 0.468458 0.456758
0.617658 0.468145 0.458699
0.608628 0.484723 0.456993
0.616824 0.484472 0.458662
0.608369 0.500578 0.457270
0.616539 0.500266 0.458107
0.614314 0.515000 0.456357
0.619024 0.508643 0.457544
0.615428 0.532441 0.454069
0.615467 0.548541 0.448774
0.615432 0.558316 0.442646
0.608079 0.548014 0.067063
0.600369 0.552540 0.063782
0.606882 0.558841 0.067533
0.614183 0.552492 0.069742
0.614422 0.565686 0.432223
0.608305 0.573471 0.426300
0.601777 0.584437 0.416914
0.612030 0.576165 0.416890
0.605361 0.587340 0.406357
0.616615 0.581814 0.402439
0.609793 0.590510 0.396068
0.612843 0.592260 0.385084
0.602552 0.600462 0.385362
0.616637 0.592563 0.368329
0.603406 0.601451 0.368492
0.614184 0.599054 0.350398
0.604620 0.602749 0.355301
0.607964 0.605415 0.344137
0.614169 0.606411 0.333641
0.615308 0.609539 0.318328
0.600402 0.616682 0.318290
0.615325 0.612704 0.301771
0.602066 0.618321 0.301758
0.604309 0.619927 0.288833
0.614289 0.617822 0.284119
0.608142 0.621872 0.277853
0.606949 0.607859 0.067445
0.599835 0.613990 0.064054
0.606125 0.618551 0.068008
0.613449 0.613975 0.070515
0.614344 0.623757 0.268150
0.603383 0.635157 0.257510
0.616614 0.633208 0.252194
0.611919 0.640907 0.246602
0.616541 0.646287 0.239062
0.604426 0.651828 0.241539
0.615281 0.655987 0.229991
0.603671 0.667423 0.222786
0.613949 0.663604 0.218241
0.607578 0.670912 0.211846
0.613972 0.672814 0.202609
0.615352 0.680497 0.186876
0.615302 0.686261 0.177694
0.606749 0.687017 0.178487
0.615260 0.694153 0.169522
0.606612 0.671090 0.067505
0.598230 0.677623 0.065526
0.603604 0.681973 0.069311
0.613191 0.677685 0.072010
0.615260 0.702380 0.161471
0.605501 0.703041 0.161909
0.615241 0.711799 0.157693
0.615260 0.728203 0.151612
0.615277 0.738869 0.147236
0.615314 0.747140 0.142977
0.615297 0.761145 0.136297
0.614822 0.741580 0.081813
0.599372 0.745925 0.079587
0.605538 0.752259 0.084240
0.614851 0.749849 0.085007
0.614558 0.777172 0.131091
0.608578 0.787589 0.130175
0.614574 0.793627 0.127342
0.602982 0.798609 0.129095
0.615193 0.810549 0.123455
0.616846 0.828507 0.118150
0.612470 0.839785 0.115724
0.616807 0.845081 0.108897
0.606068 0.850701 0.113425
0.610182 0.852534 0.104007
0.610072 0.852499 0.099002
0.630693 0.044807 0.402591
0.624565 0.054719 0.408552
0.630663 0.059740 0.414083
0.635446 0.048830 0.412295
0.633301 0.076932 0.419751
0.630063 0.091555 0.421465
0.639755 0.083219 0.425792
0.638173 0.091471 0.427001
0.627661 0.107722 0.424009
0.635785 0.107590 0.428433
0.627162 0.123498 0.425129
0.635293 0.123260 0.427675
0.627101 0.139319 0.424936
0.635223 0.139049 0.427315
0.625655 0.152625 0.425365
0.631265 0.157264 0.428336
0.631615 0.172607 0.429455
0.631726 0.188533 0.430037
0.631780 0.204504 0.431417
0.631670 0.221115 0.433525
0.631533 0.237665 0.435893
0.631843 0.252291 0.438446
0.627138 0.270415 0.439382
0.635251 0.270181 0.442412
0.637496 0.256499 0.441867
0.625109 0.281673 0.440545
0.630888 0.287296 0.443149
0.631541 0.304071 0.444666
0.631684 0.320217 0.445304
0.631725 0.336819 0.446385
0.631657 0.353815 0.448375
0.631559 0.370153 0.450585
0.631464 0.385956 0.452412
0.632663 0.402851 0.454917
0.628512 0.419286 0.455618
0.636569 0.419398 0.458303
0.638857 0.408897 0.457680
0.625663 0.431164 0.456602
0.631341 0.436000 0.459124
0.631880 0.451172 0.460690
0.631896 0.467584 0.461220
0.631814 0.484040 0.461018
0.632213 0.501174 0.458809
0.627112 0.508336 0.457546
0.632162 0.514387 0.455730
0.631665 0.532054 0.452399
0.630728 0.548748 0.445562
0.624683 0.556678 0.441565
0.627733 0.558200 0.433052
0.620186 0.570004 0.416886
0.632682 0.561864 0.418018
0.623416 0.572301 0.408786
0.631593 0.569734 0.405802
0.631545 0.576066 0.398086
0.631553 0.581906 0.385132
0.621053 0.587409 0.385096
0.623001 0.588485 0.374010
0.630370 0.585419 0.368277
0.624137 0.589098 0.362734
0.630434 0.591092 0.350412
0.630583 0.599611 0.333732
0.618903 0.602481 0.338327
0.624383 0.605309 0.327322
0.630584 0.606382 0.318215
0.631689 0.609251 0.301834
0.631724 0.613329 0.285302
0.619086 0.620230 0.273184
0.631816 0.618853 0.270060
0.631822 0.622105 0.261852
0.631775 0.628505 0.252424
0.622829 0.637635 0.243723
0.631668 0.636172 0.241278
0.630054 0.645700 0.232093
0.623594 0.654388 0.227923
0.627191 0.656105 0.219654
0.618518 0.667562 0.207635
0.633031 0.663116 0.203858
0.626777 0.671600 0.196723
0.632037 0.675893 0.187908
0.631684 0.684756 0.176262
0.631624 0.693277 0.168088
0.631620 0.701504 0.160956
0.631623 0.711808 0.156528
0.632114 0.729483 0.149302
0.626941 0.737392 0.146550
0.632158 0.743656 0.141973
0.630908 0.761474 0.132710
0.630957 0.744476 0.085969
0.625276 0.738607 0.083242
0.624914 0.771398 0.130165
0.630942 0.777397 0.127032
0.619568 0.782420 0.128889
0.631644 0.794389 0.122720
0.632964 0.811993 0.117764
0.628363 0.824045 0.115890
0.632932 0.828471 0.112391
0.623353 0.834898 0.114258
0.631560 0.839603 0.105154
0.631407 0.839457 0.095704
0.615249 0.844020 0.096115
0.648086 0.049090 0.413042
0.647618 0.059015 0.421308
0.641781 0.072582 0.424506
0.652787 0.064262 0.426205
0.647575 0.076914 0.427176
0.648001 0.091538 0.430130
0.647947 0.107545 0.432480
0.647961 0.123105 0.431066
0.647988 0.138834 0.429741
0.647952 0.155484 0.431003
0.647946 0.172169 0.431324
0.648055 0.188102 0.431950
0.648112 0.204135 0.434130
0.648036 0.220816 0.437064
0.646564 0.238076 0.440165
0.640072 0.245907 0.441110
0.651159 0.243766 0.441407
0.646500 0.252017 0.442701
0.647802 0.269871 0.444313
0.647767 0.286863 0.445047
0.647828 0.303581 0.446457
0.647980 0.319822 0.447810
0.648070 0.336493 0.449638
0.648085 0.353500 0.452132
0.648050 0.369878 0.454799
0.647327 0.384630 0.456568
0.641311 0.397315 0.457088
0.647270 0.402644 0.458615
0.652433 0.389064 0.458197
0.647893 0.419023 0.460242
0.648003 0.434882 0.462121
0.648146 0.450483 0.462958
0.648209 0.466879 0.462886
0.648191 0.483366 0.462104
0.648114 0.497351 0.459410
0.637939 0.507073 0.457355
0.648062 0.505173 0.456110
0.648002 0.515240 0.452145
0.649083 0.532379 0.446169
0.644349 0.543520 0.443962
0.649080 0.545322 0.433381
0.635830 0.554185 0.433140
0.648498 0.552100 0.418239
0.638816 0.555345 0.424078
0.643360 0.558011 0.413566
0.647486 0.563506 0.401234
0.640694 0.573346 0.394598
0.642488 0.575022 0.385139
0.644413 0.576569 0.368103
0.635026 0.586352 0.355154
0.647396 0.579957 0.350129
0.640528 0.589470 0.344190
0.642821 0.592040 0.334933
0.635311 0.603322 0.323685
0.647528 0.596405 0.317484
0.640965 0.605802 0.312589
0.642572 0.606686 0.301874
0.648009 0.608112 0.284195
0.646588 0.615236 0.267216
0.640034 0.621608 0.260636
0.646529 0.624082 0.251473
0.647823 0.632939 0.235626
0.642140 0.639922 0.229904
0.647847 0.642659 0.218892
0.635360 0.651409 0.219655
0.648175 0.650544 0.207360
0.639254 0.653918 0.210975
0.648174 0.657915 0.199197
0.637705 0.669581 0.194065
0.648205 0.666119 0.191048
0.648137 0.674098 0.182840
0.648097 0.682305 0.174319
0.648027 0.691648 0.166152
0.647017 0.680932 0.086810
0.632692 0.680752 0.080331
0.639064 0.686859 0.084104
0.641062 0.676340 0.083121
0.648036 0.699883 0.159996
0.648041 0.711840 0.154500
0.648116 0.725858 0.148652
0.648139 0.734110 0.144825
0.637881 0.735784 0.145648
0.648137 0.744784 0.138872
0.648151 0.757242 0.131938
0.648125 0.765611 0.127766
0.635829 0.767172 0.128637
0.648085 0.778005 0.123460
0.648063 0.794546 0.119166
0.648098 0.807731 0.115517
0.639252 0.818138 0.113647
0.648029 0.815749 0.112158
0.648050 0.827047 0.105490
0.642581 0.836734 0.102190
0.642460 0.836664 0.097307
0.663817 0.054529 0.416914
0.657827 0.050710 0.411241
0.664566 0.075533 0.433735
0.664580 0.062353 0.429098
0.664497 0.091618 0.436021
0.664443 0.107479 0.438295
0.664458 0.122964 0.436259
0.664500 0.138664 0.432306
0.664487 0.155174 0.431066
0.664472 0.171735 0.430790
0.664499 0.187704 0.432364
0.664517 0.203782 0.435269
0.664526 0.220301 0.437466
0.664515 0.235492 0.439827
0.664441 0.253135 0.443864
0.664481 0.243677 0.441325
0.664373 0.269558 0.445398
0.664321 0.286226 0.445105
0.664331 0.302810 0.445951
0.664380 0.319256 0.448526
0.664478 0.335901 0.450973
0.664621 0.352656 0.452570
0.665099 0.370328 0.455932
0.659795 0.378222 0.457250
0.670894 0.376278 0.457549
0.665043 0.384097 0.458763
0.664547 0.401623 0.460816
0.664464 0.418140 0.461898
0.664458 0.434072 0.463226
0.664477 0.449906 0.463483
0.664539 0.466244 0.462875
0.664608 0.482644 0.460985
0.664600 0.493250 0.458465
0.664581 0.501281 0.453299
0.664532 0.514817 0.445396
0.659027 0.527180 0.442922
0.655289 0.538161 0.438838
0.663933 0.531501 0.432954
0.657814 0.540643 0.428191
0.663725 0.543046 0.416417
0.654292 0.554595 0.407807
0.664439 0.550897 0.402252
0.659007 0.558091 0.397572
0.661600 0.560135 0.385540
0.650686 0.568333 0.385318
0.652643 0.569605 0.368205
0.665425 0.560619 0.367999
0.654297 0.570721 0.356221
0.663670 0.566824 0.351014
0.657668 0.573547 0.345101
0.651030 0.583851 0.334737
0.660310 0.575669 0.334644
0.654102 0.586492 0.322295
0.664119 0.580131 0.317659
0.657024 0.589446 0.311308
0.658759 0.591171 0.301732
0.650787 0.599396 0.301820
0.653390 0.602238 0.288921
0.661498 0.596841 0.284153
0.656970 0.605503 0.277940
0.660203 0.607163 0.268848
0.650963 0.618430 0.256300
0.664889 0.613385 0.252588
0.657916 0.622310 0.245366
0.663820 0.625167 0.235783
0.663653 0.633554 0.218875
0.653133 0.636364 0.223857
0.657614 0.638798 0.212889
0.662795 0.644799 0.201832
0.657034 0.654840 0.195544
0.663806 0.662177 0.185881
0.659696 0.671903 0.179786
0.664906 0.678041 0.173014
0.664495 0.689383 0.164003
0.664527 0.697652 0.158718
0.664511 0.711893 0.151933
0.664538 0.723180 0.147382
0.664534 0.731472 0.143632
0.664542 0.744892 0.137058
0.664582 0.756213 0.131323
0.664555 0.764685 0.127024
0.664497 0.778200 0.121592
0.665061 0.795572 0.116169
0.659952 0.804487 0.114352
0.666027 0.811356 0.107542
0.661001 0.821557 0.102596
0.660842 0.821482 0.096250
0.647818 0.826902 0.093273
0.675916 0.075584 0.439743
0.680941 0.063870 0.434453
0.686346 0.066609 0.443209
0.684053 0.075543 0.445758
0.674523 0.091640 0.440861
0.682664 0.091547 0.448165
0.673719 0.107414 0.442396
0.681876 0.107227 0.449586
0.674787 0.122860 0.441279
0.682930 0.122690 0.448548
0.677808 0.138546 0.438314
0.685929 0.138467 0.445283
0.680176 0.154912 0.436759
0.688276 0.154792 0.443113
0.680771 0.171350 0.436178
0.688861 0.171156 0.442046
0.678525 0.187415 0.436894
0.686623 0.187280 0.443897
0.675979 0.203595 0.438355
0.684067 0.203532 0.446921
0.675111 0.220077 0.439307
0.683180 0.220082 0.447571
0.674012 0.233705 0.440263
0.681227 0.238146 0.448676
0.679950 0.252957 0.450630
0.688092 0.252923 0.457866
0.688463 0.242551 0.457745
0.680051 0.269345 0.451643
0.688226 0.269265 0.457767
0.679781 0.285899 0.451370
0.687946 0.285863 0.457994
0.679287 0.302423 0.451440
0.687450 0.302383 0.458220
0.678672 0.318887 0.453114
0.686829 0.318722 0.458227
0.677670 0.335483 0.454563
0.685794 0.335286 0.458608
0.676325 0.352149 0.455111
0.684397 0.352046 0.459364
0.674552 0.365300 0.456384
0.680382 0.369768 0.459684
0.681072 0.384632 0.462010
0.681022 0.401012 0.463841
0.680925 0.417448 0.464865
0.680834 0.433518 0.464809
0.680771 0.449564 0.463346
0.680822 0.465926 0.462033
0.680323 0.483503 0.459170
0.674550 0.490842 0.457569
0.680421 0.498087 0.449829
0.675480 0.509147 0.442719
0.680627 0.514890 0.433098
0.670052 0.520067 0.437747
0.674907 0.524859 0.427113
0.668800 0.535804 0.421084
0.679939 0.530812 0.416877
0.674087 0.540185 0.410638
0.679962 0.542752 0.401706
0.680693 0.548414 0.385693
0.669816 0.553554 0.385547
0.671552 0.555003 0.373461
0.679839 0.552423 0.368110
0.673798 0.556435 0.362071
0.679899 0.558172 0.350383
0.668511 0.569743 0.334633
0.680889 0.563365 0.334703
0.671225 0.571523 0.324008
0.680424 0.568636 0.318401
0.674667 0.573748 0.313085
0.677806 0.575668 0.301704
0.666960 0.583861 0.301730
0.670566 0.586916 0.285272
0.682190 0.578657 0.286268
0.672797 0.588744 0.276980
0.682218 0.586426 0.270431
0.677587 0.592895 0.266047
0.669253 0.597792 0.270450
0.682253 0.597807 0.257728
0.671845 0.603787 0.259803
0.680979 0.608753 0.249086
0.680949 0.616947 0.237885
0.668843 0.619289 0.241058
0.680886 0.622659 0.229716
0.680949 0.627425 0.219667
0.682123 0.635134 0.202900
0.668585 0.636295 0.208136
0.677420 0.639847 0.197197
0.682115 0.645674 0.190468
0.667936 0.650770 0.191988
0.680944 0.658929 0.181350
0.670598 0.669486 0.177925
0.680942 0.667145 0.176297
0.680311 0.679723 0.167270
0.674469 0.687916 0.162822
0.680344 0.694262 0.157608
0.680613 0.712362 0.148635
0.674940 0.721292 0.146520
0.680645 0.727551 0.142582
0.681009 0.746023 0.133876
0.675609 0.754943 0.130660
0.681047 0.761184 0.125898
0.681819 0.779308 0.117599
0.676936 0.790695 0.115147
0.670897 0.801487 0.112966
0.681787 0.795352 0.110191
0.680820 0.806145 0.102943
0.680700 0.806019 0.097023
0.665372 0.811598 0.093835
0.698175 0.066490 0.449016
0.693015 0.075534 0.453796
0.704174 0.067069 0.458357
0.701157 0.075410 0.460525
0.690627 0.091462 0.455929
0.698763 0.091206 0.462630
0.690256 0.107041 0.457035
0.698396 0.106743 0.462492
0.692887 0.122432 0.455916
0.701023 0.122183 0.460145
0.698292 0.139352 0.453635
0.704410 0.134586 0.458062
0.697185 0.154584 0.449690
0.697124 0.170956 0.448794
0.696911 0.185662 0.452934
0.691508 0.203428 0.455112
0.699649 0.203368 0.459145
0.702213 0.190040 0.458417
0.690589 0.220040 0.455775
0.698711 0.219962 0.459537
0.690130 0.231607 0.456240
0.696168 0.236808 0.459426
0.697187 0.252788 0.459837
0.697218 0.269147 0.459774
0.697138 0.285751 0.460716
0.697074 0.302233 0.461222
0.697067 0.318498 0.460932
0.697097 0.334992 0.461476
0.697158 0.351750 0.463012
0.697243 0.368103 0.464250
0.697325 0.384159 0.465023
0.697329 0.400568 0.466261
0.697257 0.417074 0.467345
0.697143 0.433250 0.465945
0.697047 0.449393 0.462888
0.697073 0.465804 0.460781
0.697139 0.478570 0.458753
0.697179 0.486747 0.454338
0.685328 0.489683 0.456932
0.697148 0.494568 0.446237
0.697931 0.502976 0.433873
0.686312 0.505346 0.438978
0.693027 0.509697 0.428691
0.685756 0.520638 0.422985
0.698150 0.515656 0.418937
0.692397 0.525829 0.412914
0.697841 0.532052 0.402824
0.684963 0.536753 0.406991
0.692374 0.540999 0.396825
0.697552 0.542271 0.385578
0.697174 0.545257 0.368693
0.696147 0.550877 0.350427
0.684700 0.553887 0.355270
0.689960 0.556313 0.344021
0.693686 0.557804 0.334817
0.698781 0.560359 0.319801
0.697242 0.565878 0.301708
0.685957 0.570630 0.301699
0.688438 0.572002 0.292415
0.697577 0.570077 0.286259
0.692360 0.574384 0.281462
0.697670 0.577517 0.268757
0.697411 0.585479 0.258166
0.688506 0.588369 0.260278
0.698787 0.598446 0.249932
0.694281 0.606755 0.246059
0.697306 0.613180 0.236058
0.689418 0.621647 0.228053
0.695877 0.623890 0.219617
0.697395 0.631326 0.203295
0.688320 0.637838 0.194756
0.697378 0.636724 0.193183
0.698021 0.647458 0.184446
0.690867 0.627026 0.099883
0.681048 0.631999 0.099078
0.686686 0.637510 0.100783
0.696673 0.632093 0.102400
0.693037 0.656291 0.179890
0.698057 0.662143 0.174714
0.697360 0.675319 0.165943
0.685379 0.685632 0.161466
0.697348 0.683533 0.160190
0.697322 0.695511 0.152999
0.697356 0.706363 0.147006
0.685864 0.718154 0.145261
0.697380 0.714732 0.144162
0.697370 0.728753 0.138884
0.697384 0.741992 0.132795
0.697337 0.750420 0.127522
0.686518 0.752312 0.129002
0.697296 0.761919 0.121312
0.697319 0.774331 0.115707
0.687842 0.785230 0.113064
0.697252 0.782414 0.110893
0.695883 0.793496 0.103193
0.689520 0.802517 0.100005
0.689483 0.802497 0.098896
0.713771 0.074262 0.465040
0.707861 0.067069 0.458380
0.709957 0.091021 0.470728
0.718163 0.091032 0.475800
0.719709 0.080195 0.475034
0.710865 0.106494 0.470347
0.719062 0.106469 0.475289
0.714665 0.120939 0.467227
0.720819 0.114983 0.474367
0.712373 0.139172 0.459425
0.706095 0.145368 0.457506
0.712375 0.153743 0.455954
0.717011 0.147827 0.458126
0.713534 0.170745 0.454571
0.713507 0.180150 0.456520
0.713452 0.203311 0.461190
0.713492 0.188271 0.459093
0.713420 0.219850 0.461462
0.713456 0.236335 0.461585
0.713556 0.252629 0.461575
0.713605 0.269003 0.461834
0.713571 0.285557 0.463151
0.713539 0.302015 0.463657
0.713525 0.318317 0.463188
0.713525 0.334772 0.463518
0.713537 0.351417 0.464790
0.713589 0.367770 0.465539
0.713645 0.383926 0.465601
0.713676 0.400336 0.466166
0.713666 0.416804 0.466431
0.713581 0.433075 0.464141
0.714007 0.449592 0.459997
0.708694 0.465764 0.458701
0.706247 0.475360 0.457955
0.712042 0.480584 0.448026
0.706934 0.491883 0.443119
0.712838 0.494537 0.433241
0.714548 0.503023 0.419637
0.703864 0.505825 0.425094
0.709784 0.510665 0.414824
0.703261 0.521591 0.408924
0.714856 0.516102 0.403846
0.709006 0.527345 0.398198
0.703325 0.538266 0.391086
0.713005 0.530874 0.384276
0.706041 0.540034 0.379657
0.707223 0.540766 0.368729
0.710357 0.542974 0.351589
0.714958 0.545904 0.335794
0.701892 0.554359 0.334925
0.705284 0.555890 0.326462
0.714096 0.552628 0.319842
0.708810 0.557679 0.315326
0.714061 0.558901 0.300765
0.713740 0.563054 0.285260
0.713427 0.568601 0.268754
0.703311 0.571510 0.274179
0.707696 0.573934 0.263241
0.714332 0.580882 0.252645
0.710007 0.593937 0.246777
0.705203 0.604877 0.244082
0.714785 0.598426 0.240772
0.713692 0.608087 0.232271
0.713846 0.616596 0.219615
0.700360 0.619591 0.225036
0.708476 0.622799 0.214121
0.713909 0.626060 0.203860
0.713786 0.634488 0.190512
0.713744 0.643317 0.182330
0.703945 0.653735 0.178243
0.713772 0.651539 0.176824
0.713778 0.662702 0.170318
0.713809 0.673091 0.164107
0.713815 0.681353 0.158916
0.712366 0.696917 0.149884
0.705929 0.703839 0.146145
0.712444 0.710676 0.143206
0.713786 0.729022 0.135816
0.713798 0.739160 0.131160
0.713734 0.747511 0.125680
0.713617 0.762528 0.117403
0.708067 0.771149 0.114632
0.713354 0.776962 0.106550
0.707588 0.787442 0.101345
0.707450 0.787349 0.097592
0.695722 0.793340 0.096106
0.730193 0.091030 0.481875
0.730231 0.078620 0.477515
0.730110 0.106407 0.481033
0.730051 0.118011 0.476684
0.730042 0.125837 0.470901
0.730033 0.137908 0.464536
0.729994 0.150921 0.459406
0.730010 0.159170 0.456242
0.729985 0.170702 0.454993
0.729965 0.180265 0.456358
0.729929 0.203286 0.462561
0.729954 0.188375 0.459976
0.729911 0.219789 0.461782
0.729928 0.236247 0.461360
0.729957 0.252565 0.462061
0.729992 0.268939 0.462756
0.730036 0.285426 0.463771
0.730062 0.301882 0.464274
0.730053 0.318265 0.464024
0.730047 0.334707 0.464171
0.730055 0.351220 0.464991
0.730045 0.367573 0.465367
0.730010 0.383830 0.465095
0.730048 0.400225 0.464833
0.730111 0.416643 0.463171
0.729725 0.431943 0.459727
0.723940 0.444311 0.458405
0.730490 0.449991 0.449918
0.719860 0.455201 0.456044
0.725600 0.465735 0.445026
0.716908 0.465747 0.452939
0.722526 0.474875 0.442275
0.717849 0.485826 0.437664
0.728352 0.481107 0.433298
0.723206 0.491253 0.428149
0.729159 0.494539 0.418576
0.720718 0.506027 0.409869
0.730626 0.503211 0.403420
0.725655 0.510608 0.398521
0.729333 0.514456 0.383517
0.719962 0.521519 0.388963
0.722093 0.523452 0.377385
0.715452 0.532795 0.368420
0.723341 0.524573 0.368080
0.718609 0.536078 0.351493
0.727081 0.527869 0.351351
0.721281 0.538785 0.341878
0.731415 0.532257 0.336637
0.724764 0.541338 0.330818
0.730232 0.542859 0.316647
0.719822 0.554186 0.305625
0.728957 0.549335 0.300784
0.722626 0.556268 0.294645
0.725438 0.557467 0.285273
0.730996 0.559733 0.268751
0.718682 0.570774 0.258539
0.731842 0.568528 0.252821
0.727362 0.576903 0.247612
0.731769 0.581638 0.241085
0.720950 0.587809 0.243528
0.728884 0.596009 0.231654
0.722595 0.605550 0.228424
0.728895 0.609104 0.219492
0.719421 0.620328 0.209673
0.730189 0.618027 0.206533
0.730195 0.623683 0.198360
0.731467 0.633018 0.186312
0.726821 0.640322 0.180380
0.731471 0.646020 0.175391
0.730196 0.663640 0.165929
0.724730 0.671769 0.162953
0.730273 0.678145 0.158581
0.730334 0.694503 0.149967
0.730366 0.702942 0.145199
0.716954 0.703379 0.145738
0.730287 0.712628 0.140460
0.728813 0.729468 0.132782
0.722400 0.737561 0.130227
0.728900 0.744053 0.124333
0.730126 0.757174 0.116403
0.719004 0.768133 0.112314
0.731292 0.761164 0.106376
0.724723 0.771529 0.102883
0.724590 0.771454 0.098904
0.713066 0.777331 0.096515
0.746726 0.090976 0.487309
0.746625 0.080182 0.479191
0.746663 0.106691 0.488061
0.752182 0.101768 0.490852
0.752227 0.095900 0.490851
0.745680 0.122869 0.479580
0.739727 0.128837 0.473127
0.745674 0.138417 0.470815
0.750582 0.133376 0.475150
0.745058 0.155530 0.463277
0.738747 0.161762 0.457279
0.738992 0.170663 0.456933
0.747130 0.170745 0.461856
0.738696 0.179313 0.457032
0.745025 0.185639 0.462231
0.746320 0.203295 0.464801
0.746298 0.219818 0.463658
0.746298 0.236290 0.462940
0.746301 0.252582 0.463139
0.746330 0.268945 0.463652
0.746384 0.285452 0.464595
0.746419 0.301917 0.465064
0.746430 0.318272 0.464543
0.746436 0.334703 0.464449
0.746438 0.351232 0.465116
0.746383 0.367583 0.464796
0.746309 0.383819 0.463422
0.746341 0.400222 0.462012
0.745667 0.416437 0.459255
0.739788 0.425804 0.457859
0.746417 0.433063 0.449995
0.734933 0.436673 0.454345
0.742199 0.444790 0.443908
0.747106 0.449895 0.438966
0.737043 0.455686 0.440890
0.746616 0.465940 0.431585
0.733840 0.465744 0.438631
0.741349 0.476403 0.428960
0.734159 0.487323 0.423763
0.746407 0.482400 0.419364
0.740570 0.491672 0.412910
0.746089 0.494777 0.402582
0.736594 0.505713 0.389618
0.745248 0.502527 0.384537
0.739163 0.507370 0.378156
0.741579 0.508957 0.368006
0.731530 0.517151 0.368048
0.735285 0.520602 0.351317
0.746910 0.511946 0.351141
0.738081 0.522916 0.342447
0.746421 0.519109 0.336156
0.740935 0.525761 0.331482
0.745138 0.530753 0.316508
0.735704 0.536643 0.321082
0.738488 0.539571 0.310056
0.742069 0.540833 0.301760
0.747863 0.544657 0.286681
0.733659 0.552252 0.285287
0.736932 0.554848 0.274175
0.747979 0.553462 0.268792
0.743390 0.556777 0.263237
0.747975 0.561825 0.254031
0.738318 0.572325 0.244161
0.746634 0.570882 0.242402
0.746085 0.580974 0.233542
0.740305 0.589896 0.228854
0.746071 0.596006 0.222066
0.733526 0.600831 0.224805
0.746544 0.606818 0.213552
0.745964 0.615784 0.202144
0.740089 0.622097 0.195832
0.745713 0.616713 0.118248
0.731337 0.616740 0.113929
0.737718 0.622554 0.116889
0.739823 0.611827 0.116252
0.745970 0.627366 0.188023
0.746577 0.636681 0.177643
0.737756 0.637867 0.178729
0.746597 0.646364 0.171970
0.746684 0.660374 0.164978
0.746710 0.668759 0.161355
0.735663 0.669727 0.161821
0.746735 0.679632 0.156396
0.746792 0.694171 0.149318
0.746799 0.702644 0.144600
0.746697 0.712871 0.138435
0.746635 0.724242 0.132154
0.733386 0.735168 0.128655
0.746518 0.732504 0.127100
0.745835 0.745451 0.118984
0.739949 0.754313 0.115449
0.739802 0.754264 0.110246
0.756803 0.082435 0.477316
0.762487 0.088751 0.482532
0.762889 0.095731 0.491063
0.762868 0.103431 0.491056
0.762841 0.111173 0.489614
0.762827 0.121703 0.483682
0.762797 0.136359 0.476124
0.762785 0.144504 0.473146
0.762792 0.154342 0.470304
0.762762 0.170820 0.467244
0.762712 0.187036 0.466448
0.762659 0.203326 0.465899
0.762617 0.219900 0.464979
0.762609 0.236392 0.464360
0.762625 0.252632 0.463701
0.762648 0.268982 0.463615
0.762661 0.285554 0.464546
0.762684 0.302022 0.464790
0.762717 0.318295 0.463901
0.762740 0.334729 0.463742
0.762739 0.351345 0.464236
0.762684 0.367684 0.463232
0.762608 0.383845 0.460972
0.762256 0.399555 0.458880
0.756625 0.410915 0.458238
0.762307 0.416597 0.453305
0.750568 0.421811 0.455970
0.762653 0.429194 0.445806
0.753062 0.440286 0.441456
0.762653 0.437239 0.439375
0.762390 0.448995 0.431693
0.756766 0.460594 0.428781
0.752256 0.471554 0.425749
0.763082 0.466451 0.419745
0.758470 0.477475 0.414976
0.751466 0.488381 0.408457
0.763216 0.482783 0.403573
0.757020 0.491967 0.397262
0.760417 0.494061 0.385704
0.749724 0.504296 0.368101
0.764312 0.495711 0.370008
0.762071 0.502294 0.351277
0.752625 0.505626 0.356523
0.756125 0.507868 0.345549
0.759371 0.510106 0.334959
0.763346 0.515401 0.319015
0.751806 0.521026 0.323008
0.756338 0.524829 0.311922
0.750204 0.536477 0.301810
0.762215 0.527612 0.300570
0.754109 0.539294 0.293096
0.762941 0.535730 0.289539
0.762972 0.541719 0.281372
0.763051 0.547542 0.268956
0.754304 0.555974 0.260564
0.763100 0.553685 0.258323
0.763038 0.559848 0.250091
0.763009 0.567997 0.238618
0.762935 0.575198 0.230433
0.762964 0.583412 0.223875
0.751227 0.586703 0.226420
0.761716 0.596848 0.215070
0.755434 0.605408 0.211871
0.761760 0.609966 0.204016
0.751013 0.620689 0.194103
0.763058 0.619287 0.192797
0.763018 0.626952 0.184606
0.762986 0.635167 0.176318
0.763018 0.646497 0.170026
0.763126 0.659478 0.164369
0.763172 0.668097 0.160862
0.763176 0.680153 0.155259
0.763208 0.693337 0.148704
0.763161 0.701681 0.143624
0.763731 0.714120 0.135234
0.758642 0.722012 0.131363
0.763595 0.728023 0.125759
0.762815 0.739256 0.117681
0.762715 0.739198 0.112794
0.745595 0.745439 0.108174
0.772120 0.097391 0.490737
0.772103 0.101761 0.490730
0.778261 0.106989 0.485224
0.779258 0.121897 0.481767
0.779232 0.136101 0.475958
0.779219 0.144227 0.473043
0.779221 0.154377 0.470056
0.779186 0.170831 0.466629
0.779128 0.187038 0.465369
0.779070 0.203325 0.464742
0.779021 0.219884 0.463760
0.779013 0.236357 0.463045
0.779034 0.252603 0.462320
0.779050 0.268955 0.462009
0.779056 0.285497 0.462530
0.779074 0.301952 0.462466
0.779103 0.318254 0.461759
0.779134 0.334685 0.461689
0.779154 0.351255 0.461715
0.780136 0.368357 0.459842
0.774978 0.383832 0.458661
0.771899 0.393555 0.457917
0.778048 0.399564 0.452665
0.767455 0.404631 0.456214
0.777981 0.415667 0.445598
0.771800 0.426125 0.443849
0.777786 0.431931 0.434355
0.772777 0.443313 0.428959
0.767674 0.454197 0.424508
0.778704 0.448890 0.418855
0.773642 0.461338 0.413724
0.769408 0.472278 0.409759
0.779327 0.466123 0.403075
0.774042 0.477173 0.398586
0.768637 0.488606 0.385955
0.777202 0.480410 0.385838
0.779856 0.482908 0.370835
0.770811 0.490290 0.377037
0.772519 0.491627 0.365471
0.775824 0.493863 0.351670
0.780588 0.496467 0.335984
0.767554 0.505008 0.335073
0.770381 0.506558 0.326191
0.779535 0.503050 0.319725
0.774141 0.509738 0.314947
0.778261 0.513971 0.299948
0.767216 0.520609 0.305248
0.771399 0.523744 0.294233
0.773736 0.530141 0.284042
0.771557 0.539996 0.277788
0.773713 0.541735 0.268992
0.779570 0.547994 0.252727
0.774015 0.557594 0.246663
0.778328 0.563631 0.235153
0.771703 0.572728 0.228203
0.778661 0.580192 0.219329
0.774696 0.591263 0.213133
0.779908 0.596875 0.207643
0.766367 0.602226 0.209749
0.779499 0.608926 0.199227
0.779546 0.617266 0.191296
0.779549 0.626301 0.183118
0.779543 0.634585 0.175870
0.779546 0.646709 0.169302
0.779598 0.658885 0.164102
0.779588 0.667557 0.160135
0.779551 0.680269 0.153130
0.779562 0.690338 0.147377
0.779471 0.698616 0.141675
0.779417 0.709466 0.134165
0.769527 0.720073 0.130295
0.780446 0.713043 0.123879
0.775253 0.728499 0.119607
0.771228 0.736805 0.116351
0.771212 0.736798 0.115808
0.787746 0.099723 0.474261
0.778265 0.096676 0.480728
0.794194 0.108876 0.475798
0.797251 0.122433 0.476231
0.792776 0.133075 0.474953
0.797194 0.138357 0.471899
0.795648 0.154473 0.466648
0.795612 0.170839 0.463205
0.795553 0.187015 0.462268
0.795492 0.203305 0.461934
0.795442 0.219816 0.460862
0.795428 0.236266 0.459977
0.795448 0.252545 0.459497
0.795469 0.268899 0.459273
0.795486 0.285368 0.459402
0.796636 0.300994 0.458952
0.794084 0.318188 0.458947
0.793260 0.334613 0.458950
0.791549 0.351098 0.458840
0.789439 0.363358 0.458321
0.786293 0.374202 0.457067
0.795149 0.368254 0.453638
0.796817 0.384802 0.447285
0.783233 0.383814 0.455556
0.791409 0.400249 0.444795
0.787851 0.409306 0.442941
0.794146 0.415154 0.433836
0.782784 0.420332 0.439452
0.789462 0.426987 0.429371
0.783781 0.437793 0.424165
0.794965 0.432480 0.418863
0.789513 0.443552 0.413164
0.784622 0.454454 0.407656
0.794915 0.448729 0.401824
0.789406 0.459973 0.396426
0.792358 0.463238 0.385477
0.785454 0.471416 0.385641
0.796058 0.466319 0.369404
0.787192 0.473648 0.376090
0.789186 0.475529 0.364711
0.784099 0.486895 0.351695
0.792761 0.478710 0.351637
0.786942 0.489683 0.342059
0.796754 0.482861 0.336992
0.789711 0.492019 0.331048
0.795423 0.493610 0.317220
0.794530 0.500103 0.300827
0.785156 0.504721 0.305675
0.788200 0.507313 0.294659
0.791571 0.510024 0.285283
0.782321 0.518223 0.285280
0.785730 0.521511 0.273428
0.796054 0.515241 0.269047
0.788883 0.524863 0.262484
0.781909 0.530793 0.268388
0.785107 0.535818 0.258732
0.796426 0.532246 0.253040
0.793064 0.542989 0.247759
0.784933 0.553871 0.242108
0.797460 0.548202 0.239710
0.795819 0.558139 0.230411
0.795819 0.566350 0.222977
0.782661 0.569685 0.225552
0.795817 0.577022 0.214836
0.785630 0.587636 0.210698
0.795875 0.585277 0.209201
0.795913 0.597129 0.202557
0.795979 0.606956 0.196844
0.796042 0.615389 0.190067
0.796099 0.625823 0.181897
0.796108 0.634187 0.175505
0.796066 0.646942 0.168345
0.796054 0.657531 0.163563
0.795954 0.666073 0.158923
0.794318 0.680278 0.150138
0.787853 0.688170 0.146430
0.794969 0.695471 0.138453
0.791002 0.705913 0.132764
0.790826 0.705874 0.127791
0.804036 0.115265 0.474093
0.804028 0.117768 0.474063
0.811143 0.122659 0.467906
0.803702 0.127502 0.473810
0.811995 0.138418 0.467213
0.811965 0.154594 0.462812
0.812319 0.170496 0.459338
0.808433 0.186997 0.459011
0.807516 0.203301 0.458825
0.805907 0.219802 0.458373
0.804341 0.236242 0.458003
0.803834 0.252527 0.457795
0.803846 0.268879 0.457716
0.803873 0.285331 0.457746
0.803827 0.294964 0.457752
0.802857 0.305884 0.457328
0.810266 0.301023 0.453788
0.802262 0.318166 0.457052
0.811814 0.318188 0.451872
0.811839 0.334613 0.450362
0.801426 0.334593 0.456487
0.812982 0.351472 0.446959
0.799713 0.351085 0.455250
0.808356 0.367516 0.445415
0.805292 0.380018 0.443188
0.812249 0.385242 0.435008
0.803157 0.390913 0.441398
0.807969 0.400259 0.431193
0.799640 0.400256 0.438675
0.804830 0.410033 0.428371
0.800430 0.420968 0.424479
0.811016 0.415902 0.418620
0.806307 0.427137 0.413563
0.800453 0.437993 0.407277
0.811463 0.432907 0.402446
0.805735 0.442984 0.396000
0.800547 0.454044 0.385411
0.809109 0.445859 0.385557
0.812550 0.449822 0.369492
0.802935 0.456550 0.374130
0.805309 0.458962 0.362701
0.800963 0.470784 0.351555
0.808356 0.462588 0.351385
0.812947 0.466614 0.336369
0.803801 0.473831 0.342915
0.806591 0.476061 0.332027
0.800647 0.486948 0.322001
0.811030 0.481093 0.317080
0.804599 0.490712 0.310803
0.807192 0.491789 0.301817
0.812733 0.495476 0.286150
0.799789 0.503434 0.285283
0.803220 0.506275 0.275624
0.812448 0.503896 0.269641
0.807163 0.508984 0.264679
0.812467 0.514729 0.255749
0.799814 0.519928 0.258289
0.812225 0.528176 0.247091
0.803985 0.539644 0.244249
0.812241 0.536421 0.242247
0.810667 0.548276 0.232846
0.804193 0.556087 0.227955
0.810671 0.562692 0.221625
0.812225 0.574341 0.212788
0.812295 0.582681 0.207879
0.812393 0.597465 0.200077
0.812474 0.606188 0.195760
0.812498 0.614637 0.189364
0.812549 0.625536 0.181149
0.812509 0.633802 0.174884
0.811897 0.647863 0.166089
0.806060 0.655941 0.162939
0.811819 0.662272 0.158024
0.812160 0.675127 0.150267
0.798731 0.685651 0.144282
0.812666 0.682262 0.140103
0.807629 0.691503 0.135134
0.807564 0.691578 0.130638
0.795918 0.696829 0.126524
0.825619 0.138985 0.461428
0.823120 0.127787 0.461522
0.824141 0.154779 0.459414
0.821106 0.164868 0.457995
0.817949 0.175638 0.456507
0.827239 0.170751 0.454018
0.816553 0.187083 0.455431
0.828251 0.187337 0.449586
0.828194 0.203541 0.447656
0.815633 0.203372 0.454630
0.828134 0.220036 0.446666
0.814024 0.219878 0.454112
0.812466 0.236320 0.453554
0.828098 0.236459 0.445676
0.811956 0.252580 0.452961
0.828109 0.252675 0.444839
0.828120 0.269016 0.444935
0.811961 0.268929 0.452909
0.811988 0.285417 0.453256
0.828125 0.285536 0.445589
0.829152 0.301235 0.444724
0.826162 0.318199 0.444452
0.823739 0.334625 0.443542
0.821160 0.346215 0.442811
0.827280 0.351624 0.436845
0.819143 0.357297 0.441787
0.827853 0.366146 0.431138
0.816490 0.367625 0.439205
0.822161 0.379581 0.428743
0.829102 0.385350 0.419733
0.819250 0.390433 0.426056
0.816169 0.400277 0.423601
0.825047 0.400280 0.415589
0.821714 0.410855 0.412834
0.817198 0.421761 0.408822
0.827881 0.416426 0.402731
0.823110 0.427812 0.397715
0.817275 0.439129 0.385780
0.828485 0.429887 0.384808
0.819814 0.440970 0.376414
0.827902 0.435925 0.370213
0.822146 0.443093 0.364829
0.827982 0.445105 0.349941
0.816492 0.454203 0.351372
0.819311 0.456720 0.340567
0.827526 0.451678 0.335306
0.821423 0.459414 0.329910
0.824585 0.465226 0.318058
0.817445 0.470288 0.323451
0.821623 0.475242 0.312066
0.824497 0.478156 0.301769
0.815335 0.486341 0.301831
0.818526 0.489241 0.292207
0.829947 0.483763 0.286768
0.824384 0.492419 0.281262
0.829398 0.495594 0.269621
0.818061 0.506026 0.259654
0.828650 0.503651 0.257357
0.827904 0.515387 0.248605
0.821976 0.524409 0.244967
0.827936 0.530647 0.239019
0.828664 0.543172 0.230631
0.815108 0.553958 0.226756
0.828682 0.551378 0.225378
0.828350 0.565756 0.216304
0.822665 0.573193 0.211966
0.828448 0.579779 0.207560
0.827256 0.598318 0.198154
0.820800 0.606223 0.195545
0.827388 0.613110 0.188821
0.828914 0.624248 0.179985
0.828811 0.632345 0.173764
0.828754 0.643422 0.165869
0.816945 0.653756 0.161663
0.828610 0.651598 0.160080
0.829083 0.663728 0.152916
0.823994 0.672859 0.149727
0.823963 0.674240 0.140899
0.812529 0.679656 0.130753
0.821391 0.673785 0.132560
0.840360 0.140289 0.447489
0.833813 0.139578 0.454935
0.828485 0.126937 0.451153
0.837027 0.132226 0.445190
0.832306 0.155110 0.456000
0.845923 0.155762 0.447986
0.846193 0.173049 0.445842
0.841992 0.187660 0.443656
0.839103 0.203663 0.442338
0.837951 0.220116 0.441991
0.836994 0.236510 0.441690
0.836519 0.252700 0.441406
0.836667 0.269036 0.441562
0.836768 0.285556 0.442135
0.836584 0.295361 0.442384
0.842598 0.301343 0.435483
0.835321 0.306208 0.441056
0.834380 0.318229 0.439985
0.843513 0.318274 0.432314
0.831963 0.334657 0.438082
0.841319 0.334697 0.430509
0.837851 0.351386 0.428682
0.836488 0.359821 0.428047
0.833088 0.370472 0.424383
0.840615 0.366141 0.419361
0.838775 0.380258 0.413373
0.836044 0.391105 0.410470
0.845843 0.386112 0.403751
0.833244 0.400274 0.407980
0.841877 0.400258 0.399868
0.838215 0.411081 0.396664
0.840099 0.416647 0.385060
0.834067 0.422046 0.389665
0.836704 0.425152 0.378577
0.837987 0.426736 0.369690
0.833126 0.437934 0.354722
0.840625 0.432858 0.350763
0.836692 0.441347 0.343499
0.838041 0.442737 0.335402
0.832858 0.454475 0.318554
0.841912 0.446311 0.318585
0.835922 0.456985 0.308783
0.846242 0.450756 0.303587
0.839639 0.461535 0.297820
0.833016 0.466524 0.302680
0.845529 0.466303 0.285712
0.835501 0.472465 0.292248
0.840443 0.478273 0.281358
0.845650 0.483308 0.269822
0.835338 0.489273 0.275567
0.839875 0.492565 0.264618
0.846087 0.499605 0.252841
0.841321 0.510130 0.246440
0.832904 0.520999 0.242904
0.846116 0.515498 0.241256
0.844770 0.532259 0.232069
0.839128 0.541084 0.228804
0.844877 0.547304 0.224012
0.845211 0.562560 0.215504
0.833655 0.572147 0.211176
0.845244 0.570896 0.210043
0.845251 0.581380 0.203576
0.845285 0.592971 0.197064
0.845230 0.601680 0.192078
0.831701 0.604445 0.194161
0.843648 0.615025 0.183077
0.837218 0.622956 0.179111
0.844705 0.630387 0.171139
0.841085 0.640595 0.165074
0.841439 0.646413 0.156238
0.839323 0.658492 0.151331
0.839248 0.658578 0.147483
0.828101 0.664331 0.140914
0.859852 0.157699 0.435492
0.852220 0.150883 0.441998
0.846577 0.141709 0.436703
0.854622 0.147833 0.431675
0.854204 0.168940 0.443367
0.854227 0.161365 0.443821
0.852634 0.179342 0.441754
0.860282 0.173786 0.438563
0.861257 0.188495 0.434738
0.850230 0.187980 0.439854
0.847362 0.203909 0.437584
0.862033 0.204566 0.429059
0.858125 0.220453 0.428265
0.846205 0.220244 0.436556
0.856520 0.236662 0.427244
0.845262 0.236578 0.435588
0.844806 0.252779 0.435297
0.856006 0.252867 0.427005
0.855937 0.269230 0.427217
0.844951 0.269121 0.435421
0.854778 0.282651 0.427161
0.846524 0.287140 0.433443
0.852746 0.293758 0.426887
0.860581 0.287291 0.420782
0.862493 0.302568 0.416252
0.852270 0.302185 0.426143
0.851810 0.318323 0.425062
0.860011 0.318353 0.416834
0.857307 0.334711 0.414951
0.849594 0.334706 0.422987
0.854372 0.346453 0.412657
0.846931 0.351738 0.418754
0.852041 0.357459 0.410495
0.861281 0.351906 0.403212
0.849848 0.367611 0.408068
0.857734 0.367544 0.399781
0.854956 0.381095 0.396899
0.852902 0.391991 0.394828
0.860910 0.384489 0.386571
0.855957 0.395898 0.383305
0.849840 0.400934 0.388061
0.851644 0.406917 0.374004
0.860409 0.399832 0.367346
0.853880 0.409564 0.362685
0.846746 0.415757 0.368969
0.849825 0.421164 0.352804
0.860130 0.412263 0.350916
0.852526 0.424417 0.343279
0.862263 0.421064 0.336863
0.847275 0.432901 0.336744
0.857432 0.427258 0.332015
0.850134 0.438611 0.318623
0.862291 0.431061 0.319928
0.861389 0.438988 0.306264
0.852838 0.440946 0.309390
0.861388 0.444312 0.298010
0.850630 0.455451 0.290081
0.862040 0.453203 0.284840
0.856993 0.460143 0.279165
0.851419 0.471113 0.274993
0.862068 0.465803 0.272910
0.861478 0.477699 0.264266
0.850825 0.488449 0.259167
0.861515 0.486185 0.257713
0.861535 0.497731 0.249692
0.852277 0.506573 0.244164
0.861538 0.505868 0.243610
0.861527 0.515490 0.237945
0.861562 0.528198 0.230680
0.861590 0.536595 0.226425
0.850074 0.538166 0.227243
0.861620 0.548455 0.220521
0.861681 0.560441 0.214081
0.861700 0.568862 0.208175
0.860860 0.582005 0.199416
0.854853 0.590615 0.195875
0.860834 0.597077 0.190034
0.861410 0.608987 0.182198
0.848086 0.620286 0.177238
0.862332 0.617330 0.172870
0.857517 0.626720 0.168076
0.857420 0.626918 0.162115
0.844633 0.630768 0.155405
0.873709 0.173487 0.430270
0.870531 0.164619 0.429158
0.874214 0.189143 0.428575
0.871161 0.199701 0.425841
0.868009 0.210218 0.423845
0.877026 0.205301 0.420706
0.879100 0.222604 0.414109
0.866317 0.220697 0.422543
0.864703 0.236803 0.421086
0.876124 0.237070 0.412866
0.864204 0.252979 0.420229
0.874656 0.253119 0.411992
0.873865 0.269424 0.411542
0.864133 0.269321 0.419875
0.871935 0.285918 0.410736
0.870034 0.297474 0.410031
0.876280 0.302627 0.404511
0.868896 0.308203 0.409214
0.878494 0.318621 0.399410
0.868188 0.318391 0.408536
0.873780 0.334743 0.398307
0.865468 0.334732 0.406459
0.870827 0.346411 0.395997
0.868205 0.357333 0.393408
0.877516 0.351909 0.386109
0.865919 0.367524 0.390158
0.872925 0.367499 0.381463
0.870162 0.376949 0.378315
0.866935 0.387932 0.372204
0.875522 0.382071 0.366211
0.869972 0.392703 0.360513
0.864833 0.403760 0.355081
0.875337 0.398156 0.349084
0.869792 0.409042 0.344099
0.876231 0.412469 0.334594
0.868353 0.424311 0.326642
0.877731 0.421346 0.323634
0.877710 0.427980 0.314947
0.877536 0.436541 0.300706
0.871958 0.442039 0.294514
0.877575 0.447123 0.286203
0.867919 0.457104 0.276281
0.877826 0.456274 0.275317
0.877847 0.466228 0.269201
0.877895 0.476964 0.262790
0.877938 0.485593 0.257158
0.877995 0.498085 0.249107
0.878004 0.506148 0.243448
0.878004 0.515883 0.237411
0.878035 0.527870 0.230257
0.878031 0.536313 0.225935
0.878027 0.548743 0.219211
0.878051 0.558759 0.213358
0.877997 0.567113 0.206481
0.877967 0.576990 0.198703
0.865740 0.587768 0.194336
0.877828 0.585195 0.192413
0.876564 0.597071 0.184459
0.870360 0.606575 0.181325
0.872795 0.609475 0.173415
0.873004 0.610394 0.164183
0.862119 0.615675 0.161133
0.887329 0.180433 0.415170
0.882365 0.189639 0.423327
0.880314 0.174488 0.420231
0.890006 0.190091 0.415515
0.891322 0.206016 0.412445
0.889022 0.218728 0.410072
0.894275 0.223267 0.406521
0.885472 0.229000 0.408301
0.884269 0.237266 0.407616
0.893972 0.237624 0.402816
0.882817 0.253261 0.406475
0.893948 0.253553 0.399326
0.895291 0.269915 0.396436
0.882012 0.269538 0.405674
0.891737 0.286051 0.396525
0.880075 0.285985 0.405006
0.888772 0.302298 0.394987
0.886762 0.313367 0.393772
0.884611 0.324175 0.392437
0.893872 0.318602 0.384406
0.890133 0.334768 0.381126
0.881938 0.334774 0.390160
0.887292 0.346504 0.378543
0.884214 0.357436 0.376099
0.893996 0.351531 0.368287
0.889026 0.367542 0.363717
0.881135 0.367542 0.372407
0.886166 0.376195 0.360262
0.880871 0.387202 0.354333
0.888674 0.382654 0.349789
0.886048 0.392550 0.343158
0.888748 0.399202 0.333993
0.880715 0.403652 0.339128
0.886732 0.410185 0.328283
0.892500 0.415524 0.317083
0.887343 0.426270 0.311672
0.893360 0.429378 0.301195
0.882840 0.440462 0.292290
0.894181 0.437787 0.289048
0.894207 0.445037 0.280901
0.894236 0.453372 0.272461
0.893958 0.466068 0.264439
0.888337 0.476637 0.262143
0.894090 0.483085 0.256184
0.894428 0.497026 0.247880
0.894425 0.504997 0.242385
0.896024 0.517754 0.233875
0.891656 0.526830 0.229593
0.896009 0.532533 0.225598
0.893810 0.549304 0.216648
0.887990 0.557655 0.212935
0.893462 0.564256 0.204393
0.888026 0.574590 0.197960
0.890027 0.580454 0.188737
0.886799 0.590764 0.183292
0.886742 0.590821 0.179891
0.877108 0.596311 0.172689
0.904637 0.196977 0.398206
0.899465 0.206434 0.406960
0.896163 0.191047 0.403117
0.910273 0.207777 0.399138
0.910492 0.222600 0.399530
0.909838 0.237217 0.395574
0.903679 0.253840 0.393021
0.902399 0.264728 0.392040
0.901662 0.275561 0.391534
0.910469 0.271485 0.383996
0.908625 0.286369 0.381925
0.899921 0.286142 0.390170
0.896972 0.302378 0.387379
0.905253 0.302513 0.378966
0.903086 0.313091 0.376726
0.910132 0.318137 0.367076
0.901009 0.323836 0.374369
0.898387 0.334801 0.371635
0.905946 0.334826 0.363180
0.903230 0.345632 0.360517
0.907137 0.351211 0.351702
0.900697 0.356591 0.357891
0.897487 0.368086 0.351948
0.904359 0.363002 0.346616
0.909779 0.367127 0.333878
0.900991 0.373953 0.340815
0.897306 0.384466 0.335046
0.904237 0.379284 0.329747
0.910999 0.385156 0.318524
0.900610 0.390220 0.324865
0.897535 0.400735 0.322094
0.906348 0.400621 0.313728
0.903220 0.410015 0.311060
0.898265 0.420906 0.306400
0.909153 0.415636 0.300601
0.904170 0.426576 0.295250
0.909298 0.432602 0.284080
0.903444 0.442259 0.277820
0.909218 0.448947 0.267752
0.904013 0.460223 0.261678
0.910047 0.466526 0.257586
0.899235 0.471638 0.259682
0.910823 0.484801 0.249428
0.905428 0.494334 0.246063
0.910895 0.499950 0.240254
0.910792 0.513356 0.231879
0.902492 0.524128 0.228361
0.910730 0.521436 0.227153
0.910647 0.532310 0.221473
0.910610 0.543318 0.215790
0.898824 0.554802 0.211041
0.911026 0.551164 0.206532
0.905935 0.559611 0.201550
0.905326 0.560360 0.190534
0.898418 0.568419 0.189984
0.894681 0.565025 0.180061
0.902630 0.558974 0.182093
0.919299 0.214051 0.395180
0.919553 0.222965 0.394745
0.919252 0.231624 0.393926
0.914875 0.241999 0.390562
0.924866 0.237926 0.385848
0.923386 0.254806 0.379198
0.911897 0.254248 0.387020
0.919623 0.267549 0.376482
0.918561 0.278168 0.375556
0.925855 0.272286 0.371604
0.927968 0.287673 0.365121
0.916876 0.286596 0.373852
0.922684 0.302949 0.362034
0.913517 0.302686 0.370350
0.919523 0.312487 0.359766
0.917184 0.323235 0.357047
0.926486 0.319052 0.350776
0.914819 0.336193 0.351425
0.922473 0.331748 0.346162
0.918271 0.342561 0.342242
0.927523 0.336645 0.338626
0.925665 0.350790 0.330016
0.915838 0.351461 0.338759
0.919383 0.360315 0.326868
0.915164 0.371332 0.322954
0.926235 0.367724 0.317902
0.922119 0.380311 0.312248
0.927357 0.385322 0.306494
0.917763 0.390908 0.309337
0.914557 0.400560 0.306384
0.926513 0.400274 0.297971
0.920757 0.410380 0.294784
0.927471 0.417617 0.285428
0.915131 0.421386 0.290352
0.923177 0.427751 0.279561
0.928471 0.434657 0.270002
0.914412 0.438708 0.273811
0.922846 0.444603 0.263153
0.927826 0.450272 0.258418
0.914949 0.455616 0.259853
0.927712 0.467979 0.250865
0.922709 0.479668 0.247676
0.916341 0.490934 0.244156
0.927718 0.484869 0.241749
0.926182 0.499175 0.233740
0.920197 0.509673 0.230595
0.923684 0.515372 0.222514
0.920804 0.532138 0.217002
0.918965 0.540623 0.214895
0.920034 0.543076 0.206769
0.909727 0.550296 0.190303
0.920150 0.543910 0.196562
0.939727 0.255685 0.367202
0.931513 0.255255 0.374478
0.933538 0.238761 0.371678
0.937563 0.243691 0.367320
0.938981 0.271559 0.363090
0.936539 0.283007 0.360774
0.934112 0.293694 0.358626
0.942552 0.288407 0.354600
0.943678 0.304322 0.347700
0.930906 0.303322 0.355848
0.938453 0.315029 0.344621
0.943692 0.320464 0.338282
0.933366 0.325539 0.341259
0.942325 0.335139 0.329547
0.936195 0.345003 0.327091
0.943372 0.353079 0.318730
0.930304 0.355935 0.323559
0.939455 0.364523 0.313040
0.933044 0.374991 0.309126
0.944311 0.369966 0.307046
0.943190 0.384993 0.298122
0.937620 0.394755 0.294972
0.943229 0.400851 0.289055
0.931673 0.405606 0.291490
0.943393 0.414174 0.280948
0.934063 0.424638 0.276896
0.943388 0.422324 0.275704
0.943435 0.431628 0.267763
0.943412 0.439953 0.259362
0.933711 0.441448 0.260853
0.944460 0.451220 0.252183
0.939774 0.462617 0.248882
0.933519 0.474255 0.245131
0.942962 0.468088 0.240010
0.938994 0.484115 0.234592
0.935834 0.493152 0.231881
0.935764 0.493233 0.226650
0.931586 0.499190 0.221781
0.952526 0.278542 0.346851
0.946532 0.272581 0.352531
0.953277 0.288405 0.346584
0.952840 0.299600 0.344946
0.949317 0.310111 0.342004
0.955861 0.304958 0.337210
0.954482 0.320649 0.330899
0.951831 0.329550 0.327306
0.955725 0.335927 0.319918
0.947074 0.340075 0.324751
0.953813 0.349836 0.314530
0.950348 0.360956 0.310405
0.957555 0.355083 0.305098
0.955225 0.370060 0.299739
0.952495 0.380129 0.295932
0.948504 0.390320 0.292684
0.957001 0.385766 0.287819
0.955061 0.401751 0.282262
0.952537 0.411380 0.279254
0.956466 0.417392 0.271120
0.954100 0.428902 0.265824
0.954772 0.434653 0.255202
0.953104 0.446420 0.249807
0.953081 0.446773 0.245294
0.944888 0.451640 0.238998
-0.796250 -0.468760 -0.165734
-0.779748 -0.499821 -0.167670
-0.779349 -0.497286 -0.091369
-0.779767 -0.484351 -0.167814
-0.779833 -0.469014 -0.166785
-0.764724 -0.524356 -0.156428
-0.756553 -0.522752 -0.156328
-0.767866 -0.523841 -0.164508
-0.762789 -0.516705 -0.167267
-0.763305 -0.499804 -0.171378
-0.763320 -0.484354 -0.170045
-0.763383 -0.469004 -0.168241
-0.746770 -0.514886 -0.155656
-0.746836 -0.510982 -0.166261
-0.746900 -0.499440 -0.171408
-0.751223 -0.493899 -0.106652
-0.743078 -0.486271 -0.106844
-0.746946 -0.484231 -0.173822
-0.747021 -0.469006 -0.171724
-0.747086 -0.453069 -0.168040
-0.738114 -0.507156 -0.155078
-0.729884 -0.499912 -0.154988
-0.738066 -0.507273 -0.164045
-0.731743 -0.498032 -0.167480
-0.730679 -0.453001 -0.171671
-0.720591 -0.491725 -0.154916
-0.712365 -0.485697 -0.154930
-0.720701 -0.491777 -0.165659
-0.714776 -0.484032 -0.171293
-0.714046 -0.477086 -0.179988
