-0.072390 0.288751 -0.318892
-0.064906 0.288821 -0.326490
-0.065609 0.264776 -0.345630
-0.069801 0.271134 -0.352243
-0.067177 0.275735 -0.342484
-0.064283 0.271077 -0.336733
-0.064524 0.288796 -0.376174
-0.061913 0.288599 -0.254570
-0.062050 0.305701 -0.254592
-0.065668 0.280737 -0.280048
-0.072984 0.287200 -0.283625
-0.067034 0.291721 -0.278443
-0.062819 0.287279 -0.272117
-0.072563 0.305158 -0.318995
-0.064971 0.305236 -0.326595
-0.064458 0.305207 -0.376310
-0.062724 0.321697 -0.244019
-0.064137 0.311456 -0.246189
-0.064297 0.321477 -0.324908
-0.070007 0.321441 -0.317180
-0.070254 0.321598 -0.365459
-0.062705 0.321553 -0.373165
-0.062457 0.338108 -0.243812
-0.064572 0.337871 -0.325474
-0.070514 0.337832 -0.317766
-0.062576 0.337958 -0.372964
-0.070152 0.337997 -0.365280
-0.063770 0.349554 -0.245888
-0.065261 0.350675 -0.327184
-0.065462 0.330813 -0.346591
-0.070453 0.336999 -0.352849
-0.067657 0.341788 -0.341307
-0.064641 0.336933 -0.336078
-0.064146 0.354441 -0.375868
-0.069702 0.360535 -0.249731
-0.062795 0.354837 -0.254481
-0.069699 0.364378 -0.249735
-0.061986 0.370263 -0.254364
-0.069883 0.355494 -0.336109
-0.065252 0.350689 -0.329914
-0.064211 0.370854 -0.375905
-0.061194 0.387351 -0.242967
-0.062718 0.375279 -0.245063
-0.064770 0.387060 -0.326374
-0.071925 0.387022 -0.318641
-0.065223 0.374428 -0.327231
-0.071069 0.387231 -0.366320
-0.063124 0.387210 -0.373938
-0.061849 0.403757 -0.243844
-0.064977 0.398924 -0.326835
-0.063838 0.403636 -0.375064
-0.063563 0.415729 -0.246336
-0.064961 0.398971 -0.332486
-0.068673 0.404132 -0.337688
-0.065060 0.415089 -0.377241
-0.067169 0.426684 -0.248967
-0.062503 0.420777 -0.254219
-0.067147 0.430513 -0.248906
-0.062342 0.436197 -0.254171
-0.061762 0.420416 -0.384485
-0.066122 0.426063 -0.378732
-0.066112 0.429461 -0.378738
-0.061101 0.435582 -0.384453
-0.064597 0.441447 -0.246338
-0.063665 0.452992 -0.245219
-0.065540 0.452723 -0.328287
-0.065723 0.444473 -0.328619
-0.064304 0.440359 -0.375970
-0.070696 0.452881 -0.366690
-0.063387 0.452865 -0.374338
-0.063668 0.469411 -0.245434
-0.065491 0.462159 -0.328231
-0.063813 0.469289 -0.375160
-0.063483 0.485831 -0.245878
-0.065557 0.461540 -0.280189
-0.072994 0.467872 -0.283121
-0.067058 0.472519 -0.278788
-0.061597 0.467942 -0.272179
-0.070100 0.468309 -0.336135
-0.065486 0.462178 -0.329718
-0.064498 0.485727 -0.376651
-0.057552 0.503242 -0.239569
-0.063534 0.502069 -0.375344
-0.057359 0.518687 -0.190067
-0.069172 0.518726 -0.182490
-0.057345 0.508727 -0.193269
-0.062747 0.518399 -0.373861
-0.069364 0.518440 -0.366207
-0.056762 0.534505 -0.190722
-0.068294 0.535129 -0.182230
-0.065626 0.510621 -0.279565
-0.072444 0.516931 -0.283715
-0.066150 0.521543 -0.278868
-0.061935 0.516992 -0.272227
-0.063334 0.534825 -0.374447
-0.069806 0.534832 -0.366843
-0.067391 0.545182 -0.181982
-0.056172 0.551371 -0.187387
-0.069237 0.551154 -0.366259
-0.063208 0.551182 -0.373833
-0.065089 0.559178 -0.164113
-0.068007 0.562379 -0.152399
-0.059020 0.568669 -0.157501
-0.067099 0.562356 -0.364146
-0.062360 0.567610 -0.369603
-0.065095 0.584294 0.050992
-0.069818 0.584322 0.058140
-0.065186 0.575868 0.050784
-0.063938 0.574802 -0.012755
-0.067204 0.584360 -0.003252
-0.072681 0.569774 -0.007691
-0.063703 0.584339 -0.011310
-0.064232 0.585557 -0.073905
-0.065718 0.580963 -0.067997
-0.070938 0.568628 -0.073556
-0.064287 0.574552 -0.078514
-0.063459 0.573305 -0.142302
-0.065826 0.578240 -0.131136
-0.069746 0.567873 -0.137722
-0.062136 0.583940 -0.137316
-0.065206 0.583488 -0.339386
-0.065842 0.583432 -0.330878
-0.067897 0.568266 -0.336130
-0.065399 0.574321 -0.341021
-0.065162 0.594359 0.050881
-0.069001 0.600196 0.056484
-0.064479 0.594697 -0.012530
-0.067628 0.600411 -0.007141
-0.064192 0.600714 -0.124164
-0.065890 0.600729 -0.116743
-0.066241 0.583956 -0.121799
-0.064769 0.589172 -0.125985
-0.065128 0.599938 -0.341468
-0.066439 0.599933 -0.332920
-0.061014 0.616170 0.950940
-0.064653 0.607497 0.949844
-0.067216 0.600191 0.043331
-0.065163 0.594368 0.049584
-0.064381 0.600398 -0.026043
-0.066760 0.605635 -0.021136
-0.062149 0.616525 -0.026033
-0.066777 0.610654 -0.021176
-0.064541 0.599604 -0.059432
-0.066100 0.603538 -0.074734
-0.065622 0.604332 -0.065446
-0.064747 0.595323 -0.074742
-0.064617 0.595382 -0.087415
-0.066410 0.600805 -0.092122
-0.065890 0.609626 -0.116228
-0.061296 0.615890 -0.121633
-0.066494 0.609895 -0.332353
-0.063439 0.615615 -0.337733
-0.055803 0.630629 0.952401
-0.065007 0.624954 0.248644
-0.066566 0.627082 0.257891
-0.073324 0.617278 0.253346
-0.058738 0.633737 0.253546
-0.062150 0.620413 0.054918
-0.065530 0.625520 0.064950
-0.067444 0.615825 0.059141
-0.057233 0.632273 0.058185
-0.064204 0.631677 -0.309807
-0.068316 0.631679 -0.301751
-0.072679 0.617188 -0.306851
-0.065657 0.623550 -0.313188
-0.057190 0.647994 0.955240
-0.064328 0.639832 0.642534
-0.066725 0.649872 0.653810
-0.071281 0.634041 0.648129
-0.063962 0.649829 0.644741
-0.065204 0.641521 0.525141
-0.065843 0.643597 0.537143
-0.072134 0.635912 0.531753
-0.064315 0.649382 0.531464
-0.063620 0.638975 0.461271
-0.068047 0.645360 0.473842
-0.070873 0.633512 0.467577
-0.061989 0.650404 0.467914
-0.061119 0.648833 0.074742
-0.065698 0.642730 0.080492
-0.067024 0.632005 0.074266
-0.063057 0.636422 0.070020
-0.066955 0.647740 -0.299159
-0.063061 0.647747 -0.307168
-0.057162 0.664645 0.956474
-0.064476 0.666262 0.709727
-0.066480 0.666262 0.718187
-0.065965 0.648808 0.712895
-0.064908 0.653558 0.707865
-0.065992 0.666242 0.654645
-0.064357 0.666199 0.645461
-0.064740 0.654498 0.543339
-0.066416 0.662540 0.554240
-0.068413 0.649382 0.549156
-0.064268 0.667279 0.548743
-0.067457 0.663909 -0.299901
-0.063476 0.664062 -0.307871
-0.057097 0.680877 0.955922
-0.067030 0.682635 0.718528
-0.064246 0.682635 0.709728
-0.065563 0.675587 0.655714
-0.063934 0.681669 0.648985
-0.065345 0.673415 0.557696
-0.066733 0.677293 0.568222
-0.068869 0.667274 0.563772
-0.063637 0.682668 0.564152
-0.060670 0.679525 -0.304322
-0.066950 0.673336 -0.298920
-0.059252 0.663117 -0.979507
-0.073402 0.663050 -0.983236
-0.067403 0.668472 -0.982722
-0.065598 0.657536 -0.982908
-0.057011 0.696824 0.953963
-0.066800 0.699011 0.719868
-0.064036 0.699022 0.710725
-0.064917 0.686551 0.658661
-0.068139 0.699062 0.669140
-0.067967 0.681681 0.664892
-0.064244 0.699080 0.660587
-0.065078 0.689494 0.593354
-0.065996 0.693465 0.605366
-0.067524 0.683456 0.599341
-0.063805 0.698955 0.599631
-0.056909 0.713302 0.951752
-0.061991 0.714576 0.715046
-0.066157 0.708553 0.721675
-0.067152 0.710162 0.671551
-0.062223 0.715609 0.665939
-0.056834 0.724761 0.950136
-0.061392 0.731185 0.828398
-0.066679 0.725269 0.833043
-0.069061 0.716763 0.827646
-0.065207 0.723070 0.821439
-0.059122 0.730653 0.797127
-0.065886 0.724330 0.802805
-0.068767 0.716420 0.797334
-0.064916 0.722598 0.791803
-0.063958 0.705928 -0.982672
-0.058285 0.711798 -0.980031
-0.057010 0.733168 0.945089
-0.057320 0.746013 0.938372
-0.057539 0.757947 0.934629
-0.050077 0.755095 -0.982546
-0.050107 0.752235 -0.982545
-0.056371 0.746254 -0.979561
-0.056298 0.760844 -0.979506
-0.057635 0.765974 0.932334
-0.057697 0.777699 0.927459
-0.057759 0.788160 0.922169
-0.057815 0.796269 0.914629
-0.057834 0.803548 0.906338
-0.057829 0.787204 -0.967308
-0.057883 0.795367 -0.958590
-0.057840 0.809206 0.895051
-0.057793 0.814356 0.878702
-0.057736 0.816021 0.863173
-0.057735 0.817380 0.846820
-0.057747 0.818254 0.834133
-0.057755 0.818531 0.825943
-0.060852 0.818057 0.810991
-0.056319 0.817609 0.798991
-0.056365 0.818517 0.815447
-0.049995 0.818406 0.805387
-0.057715 0.816400 0.781073
-0.057733 0.815559 0.764652
-0.057734 0.815234 0.748309
-0.057740 0.814843 0.731919
-0.057771 0.813810 0.715367
-0.057784 0.813227 0.698936
-0.057754 0.813509 0.682679
-0.057752 0.813302 0.666271
-0.057781 0.812429 0.649621
-0.057788 0.812397 0.633225
-0.057769 0.813102 0.617072
-0.057781 0.813129 0.600630
-0.057809 0.812778 0.584047
-0.057806 0.813007 0.567644
-0.057791 0.813547 0.551396
-0.057824 0.813569 0.534958
-0.057861 0.813452 0.518505
-0.057846 0.813724 0.502159
-0.057824 0.813967 0.485807
-0.057846 0.813712 0.469276
-0.057861 0.813398 0.452789
-0.057825 0.813524 0.436447
-0.057812 0.813600 0.420092
-0.057853 0.813232 0.403585
-0.057868 0.813166 0.387185
-0.057833 0.813671 0.370913
-0.057833 0.813764 0.354515
-0.057870 0.813174 0.337944
-0.057857 0.812856 0.321503
-0.057796 0.813006 0.305195
-0.057806 0.812928 0.288771
-0.057862 0.812668 0.272319
-0.057849 0.812561 0.255945
-0.057799 0.812532 0.239628
-0.057810 0.812330 0.223157
-0.057840 0.812095 0.206633
-0.057806 0.812069 0.190220
-0.057773 0.812121 0.173875
-0.057813 0.811940 0.157420
-0.057845 0.811684 0.141013
-0.057800 0.811650 0.124672
-0.057771 0.811717 0.108285
-0.057812 0.811591 0.091703
-0.057816 0.811540 0.075193
-0.057743 0.811773 0.058846
-0.057730 0.811948 0.042450
-0.057796 0.811876 0.025899
-0.057799 0.812123 0.009550
-0.057732 0.812711 -0.006640
-0.057738 0.812945 -0.023058
-0.057804 0.812837 -0.039659
-0.057795 0.812984 -0.056045
-0.057746 0.813358 -0.072234
-0.057772 0.813507 -0.088767
-0.057830 0.813519 -0.105358
-0.057810 0.813459 -0.121579
-0.057774 0.813346 -0.137730
-0.057813 0.813112 -0.154308
-0.057854 0.812852 -0.170923
-0.057817 0.812631 -0.187179
-0.057792 0.812604 -0.203431
-0.057843 0.812717 -0.220144
-0.057908 0.813449 -0.236778
-0.057953 0.815119 -0.252975
-0.058002 0.816283 -0.269418
-0.058049 0.816489 -0.286430
-0.057964 0.815191 -0.304333
-0.057747 0.812785 -0.321934
-0.057747 0.811385 -0.338579
-0.057865 0.811667 -0.352607
-0.057930 0.812411 -0.367261
-0.057973 0.811873 -0.383841
-0.058015 0.811548 -0.400463
-0.058047 0.811756 -0.417072
-0.058034 0.811447 -0.433497
-0.057995 0.811043 -0.449939
-0.057974 0.811129 -0.466973
-0.057961 0.811557 -0.483989
-0.057934 0.812071 -0.500125
-0.057896 0.812685 -0.516212
-0.057883 0.813235 -0.533064
-0.057885 0.813147 -0.549653
-0.057895 0.812142 -0.565437
-0.057898 0.811442 -0.581615
-0.057891 0.811432 -0.598671
-0.057897 0.811302 -0.615096
-0.057909 0.810826 -0.630663
-0.057913 0.810635 -0.646940
-0.057901 0.810709 -0.664022
-0.057910 0.810766 -0.680218
-0.057935 0.810799 -0.695806
-0.057927 0.810787 -0.712473
-0.057893 0.810425 -0.729712
-0.057890 0.809513 -0.745706
-0.057914 0.808726 -0.761195
-0.057936 0.808372 -0.777517
-0.057943 0.808316 -0.793961
-0.057950 0.808385 -0.810309
-0.057963 0.808563 -0.826682
-0.057971 0.808673 -0.843306
-0.057984 0.808731 -0.859810
-0.057991 0.808590 -0.876002
-0.057990 0.808296 -0.892325
-0.057977 0.808091 -0.909182
-0.057963 0.806945 -0.925718
-0.057939 0.804314 -0.941673
-0.057904 0.802369 -0.950357
-0.041282 -0.815492 -0.300804
-0.041260 -0.818575 -0.308234
-0.047565 -0.818022 -0.364433
-0.041727 -0.818843 -0.369361
-0.047564 -0.818025 -0.357407
-0.041756 -0.818803 -0.351923
-0.041386 -0.799143 -0.293402
-0.041324 -0.807850 -0.292653
-0.041503 -0.792250 -0.302007
-0.041489 -0.787588 -0.309722
-0.041502 -0.781987 -0.319587
-0.041518 -0.777912 -0.335556
-0.041564 -0.778363 -0.353061
-0.041523 -0.778065 -0.369532
-0.056936 -0.774209 -0.385965
-0.041421 -0.776421 -0.385109
-0.041461 -0.775239 -0.401291
-0.056778 -0.773794 -0.402066
-0.041579 -0.775186 -0.417995
-0.041550 -0.775155 -0.434791
-0.041434 -0.775364 -0.451622
-0.041401 -0.776208 -0.468452
-0.041411 -0.776839 -0.485121
-0.041384 -0.776583 -0.501486
-0.041362 -0.776223 -0.517717
-0.041395 -0.776642 -0.533965
-0.041415 -0.777275 -0.550303
-0.041361 -0.777834 -0.566781
-0.041336 -0.778054 -0.583220
-0.041377 -0.777970 -0.599492
-0.041392 -0.777585 -0.615810
-0.056981 -0.775075 -0.631388
-0.041335 -0.776925 -0.632242
-0.055797 -0.774587 -0.647710
-0.041334 -0.776099 -0.648593
-0.041397 -0.775310 -0.664795
-0.055897 -0.774248 -0.664782
-0.041137 -0.773566 -0.681244
-0.053885 -0.773466 -0.680962
-0.050807 -0.772305 -0.692027
-0.046464 -0.772289 -0.692080
-0.041130 -0.770710 -0.697197
-0.035425 -0.771749 -0.686870
-0.041612 -0.773596 -0.981473
-0.041527 -0.781323 -0.982665
-0.041402 -0.768947 -0.713870
-0.041399 -0.767646 -0.731206
-0.041366 -0.762931 -0.747071
-0.051765 -0.756576 -0.757218
-0.041326 -0.757134 -0.756913
-0.040510 -0.746454 -0.765799
-0.051412 -0.740493 -0.771903
-0.045496 -0.740580 -0.771556
-0.054747 -0.730283 -0.772959
-0.040483 -0.731270 -0.772268
-0.034436 -0.737571 -0.769793
-0.041296 -0.713050 -0.774656
-0.042781 -0.727375 -0.969134
-0.056541 -0.727333 -0.969649
-0.050209 -0.720876 -0.966942
-0.049047 -0.720878 -0.966935
-0.042705 -0.712905 -0.965024
-0.038082 -0.718858 -0.967463
-0.041320 -0.696267 -0.775708
-0.041295 -0.680395 -0.776426
-0.041308 -0.663988 -0.777300
-0.041366 -0.646976 -0.778307
-0.041373 -0.630513 -0.779049
-0.041330 -0.614428 -0.779368
-0.041321 -0.597929 -0.779535
-0.041332 -0.581186 -0.779606
-0.041303 -0.564818 -0.779389
-0.041257 -0.548619 -0.778822
-0.041244 -0.532122 -0.778205
-0.041239 -0.515523 -0.777502
-0.045554 -0.499523 -0.654033
-0.051804 -0.499270 -0.645159
-0.055204 -0.515198 -0.648368
-0.046342 -0.509484 -0.655323
-0.041212 -0.499229 -0.776593
-0.041867 -0.484575 -0.647268
-0.050565 -0.482693 -0.642704
-0.034269 -0.495754 -0.642015
-0.034269 -0.495741 -0.639782
-0.037673 -0.482609 -0.637695
-0.041187 -0.482916 -0.775672
-0.041386 -0.466401 -0.437578
-0.041373 -0.481296 -0.440636
-0.041281 -0.478841 -0.506263
-0.051319 -0.474026 -0.495616
-0.041297 -0.470855 -0.498322
-0.048773 -0.477031 -0.603393
-0.049802 -0.474709 -0.592609
-0.051874 -0.482768 -0.598275
-0.042445 -0.471220 -0.598761
-0.049757 -0.473807 -0.640028
-0.049008 -0.473805 -0.640089
-0.042899 -0.473321 -0.632255
-0.041183 -0.466285 -0.774764
-0.041392 -0.449971 -0.435689
-0.041175 -0.449735 -0.773794
-0.055870 -0.449645 -0.772753
-0.041363 -0.433734 -0.434477
-0.054419 -0.433486 -0.772413
-0.041151 -0.433577 -0.772842
-0.041356 -0.417411 -0.433585
-0.040062 -0.434370 -0.497220
-0.052332 -0.429343 -0.495704
-0.052356 -0.429483 -0.488598
-0.040097 -0.434516 -0.487771
-0.053056 -0.417605 -0.496385
-0.041281 -0.417309 -0.501137
-0.053377 -0.417199 -0.772095
-0.041135 -0.417273 -0.772038
-0.041379 -0.400886 -0.433572
-0.051507 -0.406785 -0.494930
-0.041298 -0.403379 -0.496754
-0.041145 -0.400577 -0.771394
-0.052349 -0.400529 -0.771572
-0.041379 -0.384494 -0.433076
-0.041195 -0.385049 -0.770582
-0.051254 -0.384056 -0.771038
-0.041346 -0.368336 -0.431169
-0.050278 -0.368052 -0.770702
-0.046831 -0.368055 -0.770578
-0.038508 -0.368040 -0.766933
-0.035669 -0.380272 -0.768497
-0.046048 -0.373720 -0.966478
-0.035032 -0.377129 -0.967157
-0.040916 -0.383170 -0.965819
-0.040918 -0.368134 -0.967996
-0.041344 -0.351985 -0.430812
-0.040810 -0.367986 -0.493969
-0.050127 -0.362501 -0.492775
-0.050132 -0.362521 -0.491117
-0.040824 -0.368027 -0.490206
-0.050130 -0.357637 -0.492804
-0.041709 -0.352005 -0.494128
-0.049708 -0.356051 -0.770470
-0.048616 -0.356038 -0.770429
-0.042274 -0.350935 -0.766749
-0.041366 -0.335376 -0.432730
-0.041076 -0.334954 -0.766008
-0.053232 -0.334963 -0.761698
-0.052385 -0.350916 -0.764067
-0.041362 -0.319073 -0.432170
-0.049252 -0.343462 -0.739486
-0.053481 -0.336773 -0.745594
-0.051103 -0.332504 -0.737407
-0.042688 -0.336935 -0.732721
-0.041063 -0.318651 -0.763587
-0.052676 -0.318658 -0.760407
-0.041488 -0.340941 -0.967282
-0.058936 -0.336533 -0.967659
-0.054228 -0.332080 -0.966536
-0.041484 -0.332712 -0.966365
-0.040757 -0.302125 -0.428972
-0.051325 -0.302777 -0.759059
-0.040046 -0.301815 -0.758348
-0.040752 -0.287542 -0.428941
-0.034797 -0.293486 -0.426936
-0.034798 -0.296003 -0.426934
-0.041007 -0.301961 -0.492890
-0.049737 -0.296020 -0.492246
-0.049737 -0.296025 -0.491802
-0.041012 -0.301975 -0.491562
-0.049736 -0.294711 -0.492220
-0.039670 -0.288064 -0.492555
-0.050959 -0.286350 -0.758259
-0.040036 -0.287020 -0.757381
-0.033847 -0.295812 -0.753318
-0.033848 -0.293088 -0.753315
-0.041372 -0.270098 -0.431173
-0.041020 -0.269485 -0.758615
-0.051005 -0.269503 -0.757553
-0.041358 -0.253727 -0.429997
-0.041022 -0.256997 -0.756484
-0.050360 -0.258054 -0.756336
-0.042694 -0.238921 -0.427675
-0.042690 -0.220813 -0.428238
-0.038020 -0.226058 -0.426226
-0.038048 -0.234265 -0.426230
-0.041343 -0.204424 -0.429880
-0.042368 -0.187687 -0.428758
-0.048615 -0.178333 -0.427427
-0.042358 -0.172272 -0.424505
-0.037498 -0.181846 -0.426402
-0.041315 -0.155176 -0.423392
-0.041318 -0.138686 -0.424347
-0.041277 -0.122233 -0.422725
-0.041251 -0.105772 -0.422152
-0.040337 -0.088242 -0.425538
-0.045307 -0.082161 -0.427165
-0.045299 -0.079750 -0.427175
-0.040349 -0.073635 -0.425944
-0.041219 -0.056430 -0.420408
-0.034508 -0.043374 -0.245435
-0.034432 -0.050592 -0.254727
-0.034512 -0.050428 -0.245457
-0.034431 -0.043511 -0.254697
-0.033319 -0.046671 -0.263400
-0.033317 -0.049047 -0.263412
-0.041198 -0.040045 -0.417739
-0.041249 -0.023650 -0.420830
-0.048149 -0.037296 -0.753828
-0.049518 -0.037275 -0.754632
-0.049517 -0.037286 -0.753899
-0.048155 -0.037290 -0.754560
-0.041976 -0.021973 -0.754160
-0.049785 -0.023594 -0.754639
-0.041739 -0.023609 -0.747899
-0.041258 -0.007200 -0.423374
-0.041014 -0.012375 -0.753899
-0.049736 -0.011504 -0.754377
-0.044174 0.009668 -0.253175
-0.034965 -0.000288 -0.254408
-0.033537 0.001047 -0.246076
-0.037120 0.009886 -0.243976
-0.040776 0.009361 -0.267374
-0.035054 -0.000490 -0.264001
-0.041318 0.009209 -0.424054
-0.045491 0.026552 -0.253047
-0.037989 0.026323 -0.243383
-0.033883 0.020538 -0.396268
-0.033882 0.015967 -0.396296
-0.033872 0.015988 -0.392561
-0.033883 0.020559 -0.392543
-0.046946 0.014540 -0.427195
-0.043803 0.025748 -0.427323
-0.035438 0.025897 -0.425242
-0.034710 0.037185 -0.245214
-0.036616 0.038735 -0.254132
-0.041404 0.026268 -0.267556
-0.036092 0.037366 -0.264230
-0.043049 0.042218 -0.427266
-0.034692 0.042353 -0.426711
-0.042331 0.023030 -0.979112
-0.048407 0.016458 -0.982671
-0.045943 0.052893 -0.427029
-0.052752 0.052930 -0.427048
-0.040706 0.058577 -0.423710
-0.033328 0.075293 -0.244660
-0.033023 0.067164 -0.245551
-0.033023 0.067164 -0.245546
-0.033330 0.075277 -0.245701
-0.039764 0.076185 -0.416654
-0.033425 0.084306 -0.245741
-0.033424 0.084319 -0.244359
-0.054375 0.091761 -0.414910
-0.039749 0.091452 -0.414275
-0.033221 0.085839 -0.408079
-0.033218 0.082386 -0.408073
-0.040604 0.108405 -0.412564
-0.052045 0.108235 -0.412572
-0.050485 0.124658 -0.411523
-0.046207 0.124663 -0.411524
-0.037311 0.124928 -0.402778
-0.034674 0.114039 -0.409255
-0.043466 0.140574 -0.403350
-0.033512 0.130570 -0.392770
-0.034102 0.141199 -0.392479
-0.049787 0.134673 -0.410973
-0.048796 0.134674 -0.410960
-0.052178 0.157593 -0.400509
-0.051847 0.140584 -0.403808
-0.040065 0.158351 -0.399004
-0.033799 0.153421 -0.392507
-0.041147 0.173965 -0.402046
-0.052788 0.174006 -0.399988
-0.041860 0.190789 -0.406670
-0.053219 0.190864 -0.403298
-0.047869 0.196519 -0.410987
-0.049946 0.196495 -0.411007
-0.050592 0.206342 -0.411720
-0.045398 0.206350 -0.411692
-0.037078 0.206438 -0.408360
-0.040551 0.222141 -0.413402
-0.051440 0.222807 -0.412812
-0.034554 0.216270 -0.409910
-0.033531 0.232767 -0.327192
-0.033533 0.229131 -0.327591
-0.033532 0.229139 -0.327204
-0.033526 0.232765 -0.327580
-0.041234 0.239252 -0.414479
-0.051467 0.239243 -0.412999
-0.041673 0.254374 -0.412163
-0.050639 0.255532 -0.412183
-0.051023 0.271891 -0.412957
-0.041676 0.272729 -0.413035
-0.036409 0.267906 -0.405028
-0.036417 0.259096 -0.405138
-0.053213 0.289487 -0.419063
-0.041277 0.286619 -0.421708
-0.041302 0.294810 -0.428395
-0.050503 0.295546 -0.427958
-0.041298 0.298243 -0.428401
-0.050491 0.297159 -0.427961
-0.041912 0.321939 -0.402723
-0.033833 0.312140 -0.401622
-0.033436 0.312202 -0.391838
-0.035344 0.321432 -0.389835
-0.040003 0.307618 -0.418678
-0.050685 0.316784 -0.412323
-0.053007 0.303576 -0.418725
-0.044642 0.316792 -0.412330
-0.033439 0.331596 -0.246310
-0.033442 0.327937 -0.246337
-0.033452 0.327954 -0.244683
-0.033448 0.331600 -0.244659
-0.051222 0.337820 -0.402970
-0.051732 0.321947 -0.403011
-0.043519 0.337812 -0.402709
-0.035601 0.337858 -0.389648
-0.033771 0.348130 -0.391580
-0.035835 0.348431 -0.401559
-0.047007 0.343271 -0.411163
-0.050007 0.343229 -0.411157
-0.041385 0.353130 -0.415721
-0.051798 0.354028 -0.413759
-0.042510 0.370876 -0.415316
-0.051534 0.370451 -0.413283
-0.035327 0.387295 -0.243028
-0.034182 0.377488 -0.247310
-0.034189 0.377491 -0.245429
-0.035303 0.387244 -0.249582
-0.044073 0.386044 -0.402500
-0.037234 0.375811 -0.401405
-0.033754 0.376996 -0.391474
-0.034867 0.387147 -0.390372
-0.049686 0.379819 -0.410471
-0.048865 0.379827 -0.410469
-0.034908 0.399488 -0.249650
-0.034934 0.399521 -0.242806
-0.052675 0.402693 -0.402778
-0.051320 0.386052 -0.402771
-0.040548 0.400739 -0.402403
-0.034594 0.398799 -0.390459
-0.041206 0.407679 -0.412428
-0.051234 0.407518 -0.411911
-0.041253 0.419745 -0.417507
-0.053093 0.419756 -0.414181
-0.042354 0.436300 -0.414316
-0.052059 0.436137 -0.412983
-0.034335 0.452761 -0.263839
-0.033162 0.444248 -0.262988
-0.033163 0.444257 -0.262172
-0.034339 0.452812 -0.259938
-0.043741 0.452754 -0.402544
-0.036986 0.441551 -0.401114
-0.033671 0.443165 -0.391320
-0.034639 0.452784 -0.390302
-0.049861 0.447245 -0.410283
-0.048605 0.447249 -0.410258
-0.034575 0.464725 -0.259436
-0.034567 0.464677 -0.263813
-0.040422 0.465407 -0.402535
-0.053108 0.467905 -0.402961
-0.051818 0.452770 -0.402871
-0.034373 0.464191 -0.390501
-0.036386 0.484904 -0.203697
-0.033495 0.473407 -0.213227
-0.033482 0.473417 -0.209070
-0.035856 0.485792 -0.217661
-0.041222 0.472242 -0.413766
-0.051741 0.472380 -0.412673
-0.041260 0.485291 -0.418019
-0.053008 0.485317 -0.414309
-0.045080 0.500554 -0.203853
-0.034765 0.489805 -0.193613
-0.040590 0.503821 -0.191014
-0.041579 0.498406 -0.223294
-0.041208 0.498575 -0.414177
-0.051934 0.498463 -0.412955
-0.040009 0.518072 -0.185022
-0.038504 0.518339 -0.254674
-0.035647 0.505778 -0.254790
-0.040784 0.504966 -0.238736
-0.044514 0.518456 -0.242782
-0.035307 0.518146 -0.264835
-0.034620 0.506159 -0.264168
-0.040781 0.505181 -0.402702
-0.051656 0.518126 -0.401102
-0.053106 0.503183 -0.403112
-0.044476 0.518101 -0.400787
-0.034964 0.506281 -0.389606
-0.036159 0.518263 -0.388275
-0.041033 0.534983 -0.187060
-0.033762 0.523154 -0.177487
-0.033776 0.530404 -0.177615
-0.035817 0.532229 -0.254466
-0.041061 0.535452 -0.242773
-0.034439 0.530161 -0.263599
-0.040855 0.531833 -0.402730
-0.052147 0.533133 -0.403024
-0.035100 0.531640 -0.389522
-0.048313 0.539563 -0.197508
-0.051039 0.539567 -0.197518
-0.051064 0.546721 -0.197661
-0.048347 0.546722 -0.197654
-0.042582 0.550978 -0.186429
-0.041222 0.537419 -0.414881
-0.051076 0.537396 -0.413042
-0.042118 0.551626 -0.414000
-0.050754 0.550663 -0.412391
-0.044247 0.563704 -0.171497
-0.035857 0.556276 -0.171804
-0.032976 0.559500 -0.164001
-0.039544 0.568118 -0.157584
-0.050700 0.560622 -0.182310
-0.047927 0.560619 -0.182284
-0.044286 0.565589 -0.401339
-0.036790 0.554836 -0.401057
-0.033804 0.554790 -0.391212
-0.035638 0.567301 -0.388844
-0.048222 0.558997 -0.410035
-0.049623 0.558979 -0.410025
-0.036090 0.584226 -0.138396
-0.034422 0.573093 -0.138665
-0.032846 0.575905 -0.130107
-0.032879 0.584223 -0.129911
-0.044412 0.584174 -0.153553
-0.053913 0.584203 -0.153554
-0.043489 0.583831 -0.243430
-0.035072 0.570359 -0.249325
-0.040911 0.565991 -0.243340
-0.035134 0.583775 -0.249313
-0.050805 0.583498 -0.396690
-0.051188 0.565609 -0.401592
-0.045774 0.583478 -0.396454
-0.037530 0.583548 -0.387110
-0.032837 0.592793 -0.129833
-0.034152 0.599236 -0.139706
-0.039546 0.601321 -0.154570
-0.052686 0.600503 -0.155855
-0.033734 0.592897 -0.247739
-0.040136 0.599069 -0.242445
-0.050021 0.596493 -0.394637
-0.047322 0.596478 -0.394521
-0.041531 0.601288 -0.388797
-0.035570 0.616774 -0.139661
-0.036715 0.616588 -0.153480
-0.050401 0.605796 -0.164651
-0.041321 0.605710 -0.166154
-0.042103 0.616458 -0.166407
-0.050457 0.616860 -0.165284
-0.050885 0.616485 -0.381899
-0.052004 0.601311 -0.386362
-0.041761 0.616775 -0.382491
-0.044283 0.627874 -0.075036
-0.035977 0.623879 -0.074613
-0.033817 0.624649 -0.064529
-0.040092 0.628854 -0.058536
-0.035976 0.624014 -0.087881
-0.041357 0.627243 -0.092516
-0.042754 0.633408 -0.138310
-0.035054 0.622032 -0.125705
-0.042082 0.632360 -0.122475
-0.045499 0.634009 -0.156301
-0.048171 0.628949 -0.164511
-0.049984 0.628953 -0.164441
-0.047734 0.626114 -0.378819
-0.049784 0.626123 -0.378884
-0.036747 0.622230 -0.375305
-0.042624 0.631913 -0.369651
-0.040853 0.633656 0.950855
-0.040817 0.648046 0.953261
-0.037005 0.649791 0.449921
-0.038429 0.639474 0.435824
-0.035669 0.640345 0.448294
-0.045593 0.650524 0.434013
-0.037125 0.640062 0.419986
-0.046081 0.650549 0.418770
-0.038173 0.650546 0.403758
-0.033957 0.641135 0.410350
-0.040750 0.638251 0.370145
-0.051043 0.645051 0.375903
-0.056753 0.635596 0.370115
-0.046136 0.645045 0.375927
-0.040755 0.650737 0.386121
-0.034998 0.640926 0.380323
-0.041347 0.650865 0.304323
-0.034943 0.640902 0.303378
-0.041078 0.639809 0.318349
-0.046675 0.646064 0.313215
-0.032812 0.641619 0.296291
-0.033031 0.649887 0.296290
-0.041104 0.638530 0.251247
-0.053261 0.649814 0.257629
-0.041114 0.649825 0.255143
-0.049276 0.641645 0.198549
-0.049607 0.641644 0.198546
-0.055906 0.635701 0.191535
-0.042660 0.638506 0.191812
-0.049275 0.641643 0.199052
-0.042690 0.639453 0.205413
-0.043191 0.649850 0.103683
-0.033968 0.640763 0.097317
-0.040082 0.638983 0.106958
-0.034882 0.649839 0.097086
-0.039493 0.636798 0.057485
-0.052834 0.649837 0.061137
-0.041387 0.649817 0.061399
-0.032946 0.641484 0.066381
-0.033081 0.649811 0.066329
-0.047404 0.648835 -0.138853
-0.049040 0.642732 -0.129666
-0.050666 0.648634 -0.156289
-0.051223 0.634012 -0.156286
-0.046589 0.648624 -0.156339
-0.038433 0.648901 -0.254697
-0.035681 0.634977 -0.254070
-0.040964 0.632026 -0.239813
-0.042800 0.648231 -0.235528
-0.035718 0.648552 -0.266431
-0.034335 0.636818 -0.264967
-0.036800 0.648126 -0.336983
-0.035442 0.637320 -0.336999
-0.034352 0.638030 -0.326518
-0.034073 0.648026 -0.326851
-0.044493 0.648044 -0.354818
-0.037788 0.636966 -0.354102
-0.048486 0.642580 -0.363767
-0.049894 0.642583 -0.363757
-0.051313 0.631677 -0.369277
-0.047528 0.637928 -0.457391
-0.050468 0.636041 -0.467170
-0.049893 0.637910 -0.457397
-0.041622 0.634647 -0.467775
-0.039501 0.648975 -0.463670
-0.047847 0.648994 -0.457816
-0.041072 0.632735 -0.483520
-0.050444 0.636655 -0.483408
-0.049842 0.638563 -0.493281
-0.041031 0.638076 -0.493216
-0.049985 0.648152 -0.494171
-0.041042 0.648522 -0.495857
-0.040765 0.664714 0.955096
-0.050545 0.666214 0.437418
-0.051161 0.650525 0.433937
-0.045434 0.666214 0.437403
-0.037098 0.666186 0.448085
-0.049142 0.658462 0.412656
-0.046999 0.660044 0.402748
-0.050330 0.660206 0.392236
-0.053388 0.650162 0.386487
-0.046515 0.660238 0.392151
-0.036014 0.666315 0.296518
-0.044328 0.666305 0.299338
-0.051817 0.666194 0.259040
-0.041104 0.666231 0.255790
-0.035750 0.666254 0.097882
-0.044083 0.666262 0.102402
-0.050951 0.666218 0.063244
-0.039546 0.667152 0.063752
-0.032988 0.662305 0.066050
-0.048460 0.660273 -0.144447
-0.042508 0.666144 -0.155800
-0.047200 0.653495 -0.171620
-0.050188 0.653463 -0.171489
-0.038831 0.662186 -0.172087
-0.048328 0.656451 -0.181113
-0.049926 0.656436 -0.181065
-0.041100 0.665770 -0.187926
-0.051062 0.665846 -0.186824
-0.045793 0.653103 -0.225273
-0.051100 0.648174 -0.235244
-0.050050 0.653055 -0.225115
-0.040124 0.664445 -0.219872
-0.035214 0.661080 -0.238054
-0.040273 0.666769 -0.254816
-0.040911 0.666391 -0.266304
-0.033052 0.656705 -0.328073
-0.034519 0.663212 -0.338242
-0.050937 0.664632 -0.350277
-0.051449 0.648058 -0.354855
-0.043144 0.664640 -0.350268
-0.049182 0.657565 -0.459069
-0.042608 0.663921 -0.463484
-0.049849 0.664388 -0.494341
-0.041068 0.664854 -0.497379
-0.040712 0.680901 0.955634
-0.046933 0.675261 0.440286
-0.049906 0.675254 0.440338
-0.041280 0.676377 0.451337
-0.041815 0.676575 0.289903
-0.047847 0.674563 0.296454
-0.041116 0.676765 0.259731
-0.050569 0.676009 0.261211
-0.040891 0.677772 0.092556
-0.046258 0.675319 0.100690
-0.041072 0.675020 0.065201
-0.049845 0.675185 0.065118
-0.043174 0.668999 -0.203603
-0.050630 0.669080 -0.203670
-0.043193 0.678371 -0.203502
-0.040195 0.678353 -0.188467
-0.050587 0.664922 -0.219955
-0.040569 0.676423 -0.220002
-0.041284 0.673956 -0.250184
-0.049864 0.673805 -0.249916
-0.050628 0.666498 -0.255463
-0.050242 0.674634 -0.347722
-0.044811 0.674649 -0.347757
-0.040058 0.676824 -0.338351
-0.049684 0.673178 -0.494179
-0.041061 0.675906 -0.495725
-0.040662 0.696780 0.954892
-0.040332 0.687705 0.499744
-0.050652 0.695823 0.504515
-0.053458 0.683986 0.499754
-0.045446 0.695818 0.504368
-0.041189 0.698946 0.516780
-0.034340 0.689778 0.512241
-0.042789 0.696800 -0.288040
-0.036827 0.687845 -0.281466
-0.041887 0.682168 -0.274506
-0.047867 0.689992 -0.279359
-0.041260 0.684449 -0.322626
-0.050437 0.690774 -0.315043
-0.053469 0.681435 -0.320604
-0.041286 0.690517 -0.314533
-0.040561 0.713219 0.953146
-0.036219 0.715363 0.563962
-0.034528 0.704416 0.551220
-0.033058 0.706569 0.560794
-0.043402 0.715903 0.551218
-0.037378 0.701076 0.534274
-0.045705 0.711636 0.534374
-0.050081 0.709492 0.521183
-0.051770 0.700244 0.516255
-0.048017 0.709492 0.521190
-0.048755 0.705129 -0.295432
-0.049776 0.705115 -0.295436
-0.051912 0.696142 -0.302453
-0.042480 0.699057 -0.302155
-0.048769 0.705133 -0.294720
-0.040458 0.728329 0.950790
-0.049761 0.724265 0.556643
-0.051778 0.715929 0.551090
-0.048116 0.724261 0.556677
-0.041993 0.725702 0.568299
-0.040543 0.736669 0.947267
-0.040860 0.745909 0.940597
-0.039973 0.741421 0.829322
-0.037100 0.738498 0.813478
-0.033678 0.739580 0.823104
-0.045425 0.740720 0.813432
-0.047607 0.740379 0.796899
-0.039318 0.737693 0.797157
-0.036646 0.738508 0.783695
-0.041718 0.740617 0.779022
-0.041854 0.738207 0.732413
-0.049394 0.740204 0.738383
-0.054461 0.733170 0.732408
-0.047939 0.740197 0.738422
-0.036879 0.739476 0.743662
-0.041853 0.740461 0.748501
-0.041165 0.757939 0.934763
-0.041261 0.765995 0.932195
-0.041327 0.777676 0.927297
-0.047225 0.755095 -0.982546
-0.041527 0.760801 -0.981241
-0.041380 0.788164 0.922109
-0.041431 0.796276 0.914694
-0.041443 0.803605 0.906399
-0.041484 0.796699 -0.959392
-0.041439 0.788535 -0.968391
-0.041443 0.809364 0.895154
-0.041405 0.814514 0.878801
-0.041334 0.815943 0.863158
-0.041347 0.817210 0.846817
-0.041378 0.818212 0.835840
-0.041379 0.818660 0.827673
-0.041306 0.817925 0.795500
-0.041331 0.816603 0.781118
-0.041345 0.815391 0.764700
-0.041344 0.815058 0.748308
-0.041348 0.814702 0.731915
-0.041395 0.813586 0.715490
-0.041408 0.812948 0.699080
-0.041373 0.813299 0.682694
-0.041363 0.813063 0.666285
-0.041398 0.812108 0.649792
-0.041403 0.812087 0.633383
-0.041382 0.812897 0.617059
-0.041394 0.812983 0.600642
-0.041429 0.812511 0.584194
-0.041429 0.812874 0.567784
-0.041413 0.813634 0.551410
-0.041446 0.813558 0.535007
-0.041480 0.813289 0.518595
-0.041466 0.813666 0.502194
-0.041439 0.814043 0.485790
-0.041467 0.813695 0.469340
-0.041485 0.813295 0.452922
-0.041454 0.813471 0.436510
-0.041431 0.813598 0.420111
-0.041473 0.813113 0.403702
-0.041492 0.812981 0.387297
-0.041451 0.813583 0.370904
-0.041441 0.813691 0.354502
-0.041489 0.813059 0.338094
-0.041486 0.812745 0.321686
-0.041424 0.812893 0.305234
-0.041427 0.812820 0.288818
-0.041482 0.812470 0.272448
-0.041470 0.812375 0.256027
-0.041415 0.812427 0.239599
-0.041425 0.812201 0.223178
-0.041460 0.811884 0.206792
-0.041440 0.811863 0.190376
-0.041406 0.811957 0.173949
-0.041439 0.811708 0.157549
-0.041469 0.811441 0.141150
-0.041429 0.811531 0.124691
-0.041396 0.811740 0.108258
-0.041438 0.811600 0.091839
-0.041450 0.811504 0.075445
-0.041384 0.811823 0.058992
-0.041362 0.812056 0.042564
-0.041419 0.812056 0.026136
-0.041428 0.812358 0.009733
-0.041360 0.812991 -0.006635
-0.041363 0.813291 -0.023034
-0.041433 0.813178 -0.039445
-0.041439 0.813399 -0.055811
-0.041392 0.813859 -0.072151
-0.041412 0.814050 -0.088633
-0.041466 0.814102 -0.105147
-0.041450 0.814053 -0.121481
-0.041410 0.813873 -0.137742
-0.041452 0.813563 -0.154225
-0.041503 0.813257 -0.170704
-0.041470 0.813049 -0.187030
-0.041438 0.813130 -0.203373
-0.041492 0.813366 -0.219925
-0.041558 0.814099 -0.236496
-0.041587 0.815725 -0.252878
-0.041617 0.816868 -0.269418
-0.041650 0.817061 -0.286365
-0.041566 0.815632 -0.304268
-0.041343 0.812959 -0.321923
-0.041331 0.811447 -0.338521
-0.041443 0.811857 -0.352585
-0.041534 0.812553 -0.367220
-0.041587 0.811905 -0.383716
-0.041621 0.811735 -0.400258
-0.041641 0.812264 -0.416930
-0.041618 0.811912 -0.433538
-0.041566 0.811184 -0.450117
-0.041532 0.811150 -0.467066
-0.041519 0.811606 -0.484017
-0.041483 0.812043 -0.500442
-0.041440 0.812542 -0.516738
-0.041434 0.813016 -0.533256
-0.041444 0.812917 -0.549703
-0.041437 0.811869 -0.565932
-0.041428 0.811111 -0.582261
-0.041431 0.811156 -0.598777
-0.041441 0.811102 -0.615156
-0.041441 0.810579 -0.631337
-0.041434 0.810302 -0.647644
-0.041429 0.810349 -0.664069
-0.041443 0.810189 -0.680119
-0.041466 0.809966 -0.696035
-0.041455 0.809869 -0.712735
-0.041426 0.809622 -0.729714
-0.041460 0.809028 -0.745523
-0.041533 0.808803 -0.761111
-0.041568 0.809095 -0.777484
-0.041572 0.809505 -0.793956
-0.041593 0.809745 -0.810313
-0.041616 0.809943 -0.826674
-0.041608 0.810211 -0.843248
-0.041610 0.810285 -0.859726
-0.041626 0.809764 -0.875968
-0.041623 0.809134 -0.892307
-0.041594 0.808933 -0.908974
-0.041572 0.807839 -0.925469
-0.041542 0.805059 -0.941617
-0.041508 0.802682 -0.951171
-0.041347 0.818777 0.813975
-0.041326 0.818496 0.803713
-0.023939 -0.833146 -0.776009
-0.019133 -0.835316 -0.794641
-0.018020 -0.835118 -0.780648
-0.027438 -0.833255 -0.794407
-0.018451 -0.835184 -0.810725
-0.026691 -0.832929 -0.810619
-0.025578 -0.832477 -0.826728
-0.017390 -0.834999 -0.826633
-0.025674 -0.832643 -0.843828
-0.017417 -0.835010 -0.843955
-0.017083 -0.834949 -0.857123
-0.023332 -0.832893 -0.861525
-0.024742 -0.816790 -0.297213
-0.024740 -0.818986 -0.304806
-0.024437 -0.812021 -0.972751
-0.018684 -0.818663 -0.966443
-0.024009 -0.821420 -0.961109
-0.029552 -0.817340 -0.965325
-0.024848 -0.799299 -0.292607
-0.024772 -0.809176 -0.291617
-0.024963 -0.792428 -0.301821
-0.024973 -0.787538 -0.309306
-0.025019 -0.781651 -0.319121
-0.025029 -0.777698 -0.335279
-0.025035 -0.778854 -0.353065
-0.025014 -0.778394 -0.369357
-0.024966 -0.775960 -0.384448
-0.024949 -0.774452 -0.401007
-0.024972 -0.774324 -0.418464
-0.024833 -0.773319 -0.435578
-0.028529 -0.772994 -0.451736
-0.020268 -0.770485 -0.451702
-0.019211 -0.771156 -0.441168
-0.024547 -0.773585 -0.468442
-0.018841 -0.770878 -0.462801
-0.024826 -0.775061 -0.485012
-0.023726 -0.773790 -0.502501
-0.023750 -0.772985 -0.519308
-0.017490 -0.771553 -0.508539
-0.017508 -0.771537 -0.514903
-0.024842 -0.774624 -0.533887
-0.024847 -0.775883 -0.550258
-0.024800 -0.775530 -0.567089
-0.024776 -0.775222 -0.583608
-0.024816 -0.775799 -0.599420
-0.024823 -0.775614 -0.615772
-0.023500 -0.773767 -0.633654
-0.025755 -0.773534 -0.649310
-0.017115 -0.771665 -0.639898
-0.017471 -0.771696 -0.649459
-0.023559 -0.773275 -0.664189
-0.017161 -0.771918 -0.658712
-0.024855 -0.772946 -0.675780
-0.024856 -0.770626 -0.683866
-0.024001 -0.778067 -0.981331
-0.028712 -0.782500 -0.982573
-0.024829 -0.767940 -0.697019
-0.024800 -0.767060 -0.714100
-0.024797 -0.767365 -0.731120
-0.024800 -0.762445 -0.746345
-0.024790 -0.756505 -0.754545
-0.024701 -0.747313 -0.761252
-0.024514 -0.731243 -0.768155
-0.030017 -0.726003 -0.770558
-0.026956 -0.712988 -0.771196
-0.018566 -0.713013 -0.768904
-0.023205 -0.696088 -0.771318
-0.016699 -0.701425 -0.769256
-0.024211 -0.712876 -0.965225
-0.029269 -0.718833 -0.967402
-0.024583 -0.680212 -0.772674
-0.024610 -0.663747 -0.773834
-0.024628 -0.646763 -0.775025
-0.024634 -0.630280 -0.776335
-0.024628 -0.614127 -0.777560
-0.024618 -0.597656 -0.777747
-0.024605 -0.580999 -0.777247
-0.024588 -0.564642 -0.777319
-0.024568 -0.548419 -0.777439
-0.024556 -0.531951 -0.776752
-0.024544 -0.515400 -0.775696
-0.020935 -0.498884 -0.462739
-0.017185 -0.508874 -0.459316
-0.017191 -0.508861 -0.457223
-0.022822 -0.499592 -0.451338
-0.025971 -0.500296 -0.638467
-0.021304 -0.508213 -0.641273
-0.021334 -0.508205 -0.639930
-0.025964 -0.500291 -0.643466
-0.024517 -0.499112 -0.774621
-0.025788 -0.483259 -0.439758
-0.020974 -0.494604 -0.441142
-0.032152 -0.489193 -0.450441
-0.026165 -0.487075 -0.468191
-0.027585 -0.485226 -0.517306
-0.019223 -0.492709 -0.517227
-0.019620 -0.493023 -0.508068
-0.024959 -0.482440 -0.506238
-0.023330 -0.481525 -0.526634
-0.016895 -0.491039 -0.525495
-0.024927 -0.482524 -0.584082
-0.021311 -0.494553 -0.578513
-0.021342 -0.494539 -0.572959
-0.025995 -0.483814 -0.570388
-0.024589 -0.482598 -0.633874
-0.024490 -0.482809 -0.773422
-0.024653 -0.466155 -0.437055
-0.024669 -0.465437 -0.498098
-0.037776 -0.471917 -0.561466
-0.042499 -0.479485 -0.566677
-0.024528 -0.466181 -0.562736
-0.028558 -0.473316 -0.589397
-0.017409 -0.474944 -0.591657
-0.025105 -0.466143 -0.598445
-0.024595 -0.469665 -0.627631
-0.025061 -0.469786 -0.683618
-0.019341 -0.477484 -0.699110
-0.018359 -0.475276 -0.690339
-0.027671 -0.471294 -0.699090
-0.024027 -0.465714 -0.708352
-0.018224 -0.477746 -0.707792
-0.024480 -0.466225 -0.772334
-0.024649 -0.449732 -0.435729
-0.023518 -0.449421 -0.770833
-0.024624 -0.433432 -0.434313
-0.024674 -0.449226 -0.491391
-0.033716 -0.443499 -0.494095
-0.033719 -0.443515 -0.493316
-0.024659 -0.449211 -0.495695
-0.024603 -0.433479 -0.497512
-0.028371 -0.433539 -0.770324
-0.017297 -0.443788 -0.768882
-0.020000 -0.433570 -0.767700
-0.024612 -0.417061 -0.433662
-0.024593 -0.416949 -0.498104
-0.031991 -0.427165 -0.540099
-0.033636 -0.427232 -0.541678
-0.033638 -0.427220 -0.540109
-0.031991 -0.427174 -0.541671
-0.031992 -0.424331 -0.541517
-0.033638 -0.424389 -0.541531
-0.031994 -0.424318 -0.539951
-0.031173 -0.417224 -0.769856
-0.022802 -0.417248 -0.766594
-0.024608 -0.400572 -0.434333
-0.026095 -0.399284 -0.496764
-0.031870 -0.400552 -0.769650
-0.023494 -0.400587 -0.766819
-0.024597 -0.384182 -0.434033
-0.032195 -0.391079 -0.769556
-0.025738 -0.385083 -0.766159
-0.024581 -0.367941 -0.431516
-0.026096 -0.385330 -0.489985
-0.034953 -0.380708 -0.493883
-0.034960 -0.380729 -0.492355
-0.026083 -0.385280 -0.495733
-0.024753 -0.367933 -0.494369
-0.024417 -0.368034 -0.760694
-0.024580 -0.351562 -0.431094
-0.024750 -0.350311 -0.494054
-0.024748 -0.350340 -0.490289
-0.024752 -0.367963 -0.489960
-0.024408 -0.351691 -0.758908
-0.024576 -0.335028 -0.433649
-0.037436 -0.335749 -0.494599
-0.024567 -0.335208 -0.496398
-0.024397 -0.335005 -0.761438
-0.024576 -0.318714 -0.432899
-0.024775 -0.317854 -0.495381
-0.036538 -0.319414 -0.494307
-0.024393 -0.318689 -0.759326
-0.024906 -0.331714 -0.966934
-0.024930 -0.339910 -0.967411
-0.024561 -0.305072 -0.429460
-0.031056 -0.302746 -0.492959
-0.031062 -0.302743 -0.491634
-0.024784 -0.317921 -0.489569
-0.024412 -0.307124 -0.754594
-0.017550 -0.286511 -0.328003
-0.017879 -0.299374 -0.328377
-0.017879 -0.299406 -0.325963
-0.017559 -0.286542 -0.326158
-0.024598 -0.296990 -0.425460
-0.024589 -0.291891 -0.425465
-0.032355 -0.286461 -0.492542
-0.032353 -0.286440 -0.492375
-0.024420 -0.299088 -0.751592
-0.024400 -0.289296 -0.751603
-0.016536 -0.277961 -0.326877
-0.016536 -0.277961 -0.326919
-0.024555 -0.283606 -0.429512
-0.024567 -0.269651 -0.432075
-0.033032 -0.278249 -0.493018
-0.032243 -0.278217 -0.493026
-0.032250 -0.278217 -0.492959
-0.024392 -0.280938 -0.754115
-0.024348 -0.269491 -0.755889
-0.024558 -0.253267 -0.430769
-0.024348 -0.258146 -0.755215
-0.024536 -0.244169 -0.428304
-0.024366 -0.250162 -0.749119
-0.033589 -0.242621 -0.740376
-0.041249 -0.253415 -0.745371
-0.025461 -0.237003 -0.742301
-0.024559 -0.224516 -0.424963
-0.024571 -0.235993 -0.424957
-0.024530 -0.216258 -0.429229
-0.024550 -0.203996 -0.430696
-0.024438 -0.220321 -0.732090
-0.034406 -0.216474 -0.741056
-0.034424 -0.216505 -0.737609
-0.025466 -0.221293 -0.743100
-0.024375 -0.204161 -0.747642
-0.035652 -0.204455 -0.742430
-0.024532 -0.190384 -0.429634
-0.025312 -0.187219 -0.743754
-0.034954 -0.192536 -0.741679
-0.018822 -0.171354 -0.390297
-0.017288 -0.180433 -0.396530
-0.017316 -0.180492 -0.391450
-0.019275 -0.171387 -0.402501
-0.024564 -0.182231 -0.424057
-0.023921 -0.171407 -0.416258
-0.019264 -0.159124 -0.401886
-0.018619 -0.159053 -0.390519
-0.024384 -0.155047 -0.420433
-0.029063 -0.138383 -0.426272
-0.024125 -0.154253 -0.732221
-0.034359 -0.150083 -0.740696
-0.034370 -0.150103 -0.737635
-0.025148 -0.155204 -0.742847
-0.024364 -0.138535 -0.746211
-0.034879 -0.138748 -0.741337
-0.023535 -0.121775 -0.420234
-0.025267 -0.121941 -0.742749
-0.033960 -0.127425 -0.740516
-0.017300 -0.104965 -0.210027
-0.017250 -0.114509 -0.215388
-0.017251 -0.114495 -0.209767
-0.017298 -0.104986 -0.215809
-0.018854 -0.105063 -0.244395
-0.017726 -0.114734 -0.250632
-0.017696 -0.114610 -0.245174
-0.018676 -0.104843 -0.255394
-0.016852 -0.111783 -0.326447
-0.016849 -0.115035 -0.327086
-0.016849 -0.115037 -0.326444
-0.016847 -0.111792 -0.327090
-0.017632 -0.105583 -0.391263
-0.018140 -0.116887 -0.401881
-0.017675 -0.117240 -0.391204
-0.018004 -0.105809 -0.401300
-0.023532 -0.105772 -0.415855
-0.016554 -0.096167 -0.212052
-0.016553 -0.096170 -0.214143
-0.018127 -0.091937 -0.255053
-0.018187 -0.094157 -0.245764
-0.016791 -0.093196 -0.263212
-0.016771 -0.099297 -0.263228
-0.016639 -0.096585 -0.394648
-0.016656 -0.096611 -0.392138
-0.026095 -0.089120 -0.424405
-0.026073 -0.071441 -0.426335
-0.024866 -0.089693 -0.731559
-0.034603 -0.085373 -0.741523
-0.034613 -0.085420 -0.737453
-0.025667 -0.090157 -0.744040
-0.024364 -0.072905 -0.746656
-0.034525 -0.073088 -0.741617
-0.023404 -0.054771 -0.240557
-0.020383 -0.070208 -0.254972
-0.018880 -0.066759 -0.246156
-0.028710 -0.058689 -0.254775
-0.019108 -0.069768 -0.265068
-0.024586 -0.055378 -0.267853
-0.019158 -0.056285 -0.389846
-0.016352 -0.064650 -0.392947
-0.016355 -0.064652 -0.392414
-0.021638 -0.056598 -0.400380
-0.025922 -0.056559 -0.416464
-0.025151 -0.057111 -0.742308
-0.033236 -0.063033 -0.740101
-0.016659 -0.046120 -0.210953
-0.016980 -0.049105 -0.221824
-0.016658 -0.048912 -0.211035
-0.016981 -0.045644 -0.221738
-0.024527 -0.039397 -0.239721
-0.018737 -0.040567 -0.328946
-0.018732 -0.052872 -0.329041
-0.018732 -0.052907 -0.324752
-0.018747 -0.040607 -0.324750
-0.021129 -0.039919 -0.388302
-0.026902 -0.039827 -0.402013
-0.030332 -0.039858 -0.412545
-0.031852 -0.035243 -0.254696
-0.023503 -0.021762 -0.253748
-0.021113 -0.026017 -0.244474
-0.025736 -0.040890 -0.269101
-0.021695 -0.023705 -0.267654
-0.017212 -0.030613 -0.326170
-0.017204 -0.030609 -0.327466
-0.020168 -0.026386 -0.401882
-0.018984 -0.026380 -0.390311
-0.023462 -0.022802 -0.419410
-0.024378 -0.009589 -0.253657
-0.024455 -0.006554 -0.267943
-0.023394 -0.007392 -0.423594
-0.024864 -0.024268 -0.731365
-0.035345 -0.020772 -0.737099
-0.027003 -0.023429 -0.746903
-0.032604 -0.015264 -0.753031
-0.032604 -0.015097 -0.753031
-0.026584 -0.008068 -0.746843
-0.024091 0.010221 -0.236961
-0.024530 -0.002616 -0.244571
-0.018398 0.008854 -0.325373
-0.016833 -0.000210 -0.327267
-0.016833 -0.000209 -0.326635
-0.018394 0.008871 -0.328653
-0.025348 0.009136 -0.403326
-0.019866 -0.003974 -0.398277
-0.019923 -0.004055 -0.390053
-0.025070 0.010060 -0.388011
-0.025001 0.008456 -0.416248
-0.018751 0.023093 -0.203526
-0.018738 0.014579 -0.203495
-0.017396 0.016611 -0.193418
-0.017399 0.020460 -0.193431
-0.019341 0.014057 -0.221485
-0.019353 0.023950 -0.221507
-0.024090 0.026773 -0.235898
-0.019523 0.021767 -0.281423
-0.019529 0.012992 -0.281450
-0.024869 0.008233 -0.276423
-0.024874 0.026711 -0.276720
-0.018375 0.025353 -0.325482
-0.018368 0.025368 -0.328722
-0.025612 0.025988 -0.387788
-0.024815 0.028351 -0.420740
-0.025804 0.027044 -0.403378
-0.024772 0.042742 -0.242802
-0.016800 0.035112 -0.326860
-0.016796 0.035107 -0.327438
-0.021780 0.042526 -0.399946
-0.021846 0.042464 -0.389238
-0.029507 0.042439 -0.426961
-0.029925 0.046971 -0.254244
-0.024150 0.060979 -0.240260
-0.028017 0.060599 -0.252293
-0.025342 0.042586 -0.268693
-0.020309 0.058715 -0.265890
-0.021842 0.058890 -0.389004
-0.022594 0.059146 -0.402394
-0.025335 0.058593 -0.420002
-0.018370 0.075281 -0.204077
-0.017643 0.065590 -0.221256
-0.016528 0.066728 -0.210132
-0.022659 0.075446 -0.220829
-0.029085 0.075378 -0.236951
-0.017720 0.069816 -0.263571
-0.023826 0.075302 -0.254736
-0.020123 0.074834 -0.323759
-0.018438 0.063115 -0.328607
-0.018447 0.063089 -0.325409
-0.020097 0.074898 -0.329947
-0.030705 0.076304 -0.402145
-0.023649 0.075302 -0.387169
-0.030509 0.071426 -0.412946
-0.018801 0.092824 -0.202399
-0.017174 0.080697 -0.191232
-0.017170 0.088154 -0.191237
-0.022855 0.091806 -0.220958
-0.027797 0.090663 -0.239019
-0.019968 0.091403 -0.324254
-0.019945 0.091460 -0.329718
-0.031499 0.091560 -0.402187
-0.023745 0.091818 -0.387544
-0.017161 0.108176 -0.207802
-0.017643 0.109265 -0.221291
-0.018977 0.109315 -0.238724
-0.024484 0.090557 -0.250175
-0.018834 0.108255 -0.249425
-0.018645 0.108033 -0.325900
-0.018628 0.108051 -0.328488
-0.023287 0.108336 -0.388839
-0.031169 0.108495 -0.402745
-0.031703 0.096859 -0.411495
-0.031698 0.103076 -0.411544
-0.018682 0.123280 -0.220922
-0.017063 0.124602 -0.209086
-0.021376 0.123323 -0.238185
-0.020425 0.124604 -0.249338
-0.019636 0.124399 -0.329309
-0.019659 0.124378 -0.325363
-0.031947 0.119632 -0.397281
-0.025648 0.124930 -0.388645
-0.017268 0.141040 -0.208822
-0.021904 0.141056 -0.220407
-0.027341 0.141007 -0.237620
-0.022736 0.140893 -0.249807
-0.021631 0.140688 -0.324261
-0.021607 0.140726 -0.330827
-0.024495 0.141122 -0.385652
-0.018927 0.153167 -0.220763
-0.016723 0.150661 -0.210396
-0.021522 0.155088 -0.238476
-0.020205 0.153152 -0.248950
-0.021724 0.157286 -0.330493
-0.021744 0.157257 -0.324688
-0.025956 0.158352 -0.388145
-0.021800 0.173806 -0.325074
-0.021777 0.173826 -0.330153
-0.032444 0.164383 -0.393569
-0.031473 0.174018 -0.395310
-0.023176 0.173995 -0.388709
-0.022862 0.190077 -0.324088
-0.022831 0.190115 -0.332024
-0.030402 0.190254 -0.397504
-0.022129 0.190241 -0.387602
-0.016361 0.199216 -0.210433
-0.017166 0.196678 -0.220497
-0.016360 0.198058 -0.210436
-0.017171 0.201741 -0.220408
-0.018417 0.195253 -0.238125
-0.018066 0.207248 -0.239517
-0.017702 0.206688 -0.247683
-0.018044 0.196110 -0.247813
-0.023878 0.206450 -0.333616
-0.023908 0.206401 -0.323250
-0.029892 0.206504 -0.399241
-0.021628 0.206516 -0.386729
-0.016364 0.215091 -0.246579
-0.016366 0.215086 -0.247197
-0.026188 0.223312 -0.324382
-0.026173 0.223347 -0.331837
-0.024875 0.222979 -0.403500
-0.020964 0.223012 -0.388299
-0.025865 0.238692 -0.324720
-0.022926 0.240048 -0.402656
-0.021617 0.239485 -0.388350
-0.024448 0.227114 -0.415174
-0.025262 0.239996 -0.414599
-0.025849 0.238719 -0.331271
-0.022625 0.255701 -0.323553
-0.022606 0.255754 -0.333439
-0.031153 0.254551 -0.400175
-0.022798 0.256328 -0.383751
-0.031378 0.248242 -0.411441
-0.017206 0.267914 -0.206631
-0.018220 0.261564 -0.220761
-0.017196 0.262669 -0.206635
-0.018227 0.270646 -0.220827
-0.021511 0.259276 -0.238422
-0.023284 0.273675 -0.237108
-0.021854 0.259229 -0.255091
-0.027862 0.272297 -0.254695
-0.020281 0.272167 -0.266997
-0.018380 0.262034 -0.265624
-0.021134 0.272105 -0.333051
-0.021154 0.272042 -0.323653
-0.023152 0.272594 -0.382971
-0.017483 0.262081 -0.375300
-0.017484 0.267385 -0.375297
-0.031406 0.272954 -0.400069
-0.025579 0.288746 -0.255090
-0.021170 0.288783 -0.243027
-0.020612 0.288666 -0.266553
-0.019280 0.288641 -0.325387
-0.019264 0.288664 -0.330047
-0.023366 0.287786 -0.401404
-0.022261 0.288677 -0.387208
-0.031254 0.278896 -0.411751
-0.025190 0.284596 -0.418483
-0.025136 0.305159 -0.255137
-0.019916 0.306796 -0.240212
-0.020516 0.305064 -0.266533
-0.019418 0.305079 -0.330157
-0.019435 0.305052 -0.325226
-0.024733 0.304798 -0.401437
-0.024771 0.306064 -0.387605
-0.024474 0.292932 -0.429316
-0.024483 0.300684 -0.429327
-0.027794 0.322169 -0.238960
-0.016190 0.313371 -0.229631
-0.020295 0.320220 -0.221852
-0.029613 0.322059 -0.253438
-0.021397 0.321301 -0.268336
-0.020928 0.322431 -0.335989
-0.021639 0.321202 -0.322377
-0.025093 0.319866 -0.380602
-0.019934 0.336449 -0.203228
-0.019936 0.323594 -0.203225
-0.018170 0.326706 -0.190719
-0.018160 0.333224 -0.190728
