-0.122626 -0.385415 0.007354
-0.122669 -0.383609 -0.008473
-0.122679 -0.381870 -0.024851
-0.122648 -0.380357 -0.041754
-0.122664 -0.369239 -0.139201
-0.122670 -0.367138 -0.155849
-0.122657 -0.365206 -0.172651
-0.122683 -0.352425 -0.286964
-0.122686 -0.350205 -0.303427
-0.122709 -0.348578 -0.319523
-0.122712 -0.336496 -0.434302
-0.122735 -0.334773 -0.450193
-0.122753 -0.332647 -0.466594
-0.122706 -0.319535 -0.614614
-0.122716 -0.318473 -0.630791
-0.122715 -0.317117 -0.647382
-0.122689 -0.315441 -0.664413
-0.122689 -0.314239 -0.680463
-0.122701 -0.302489 -0.778204
-0.122718 -0.300422 -0.795107
-0.122674 -0.299220 -0.811666
-0.122618 -0.298038 -0.828560
-0.122792 -0.285042 -0.878132
-0.123210 -0.262604 -0.921735
-0.123156 -0.257257 -0.931288
-0.122924 -0.246634 -1.001507
-0.123297 -0.206170 -0.988765
-0.123397 -0.189919 -0.984680
-0.123435 -0.157120 -0.980495
-0.123409 -0.140762 -0.979062
-0.123348 -0.124139 -0.977549
-0.123303 -0.107507 -0.976347
-0.123307 -0.091040 -0.975520
-0.123334 -0.074741 -0.974940
-0.123370 -0.058568 -0.974661
-0.123368 -0.042186 -0.974149
-0.123320 -0.025540 -0.973271
-0.123273 -0.009116 -0.973677
-0.123234 0.007069 -0.975432
-0.123235 0.023402 -0.976789
-0.123269 0.039859 -0.977762
-0.123284 0.056256 -0.978143
-0.123288 0.072626 -0.978040
-0.123289 0.089161 -0.978372
-0.123330 0.105725 -0.979076
-0.123501 0.121981 -0.979931
-0.123687 0.138153 -0.980870
-0.123725 0.151466 -0.981991
-0.123707 0.159685 -0.982802
-0.123079 0.188574 -0.978934
-0.122708 0.205827 -0.976946
-0.122636 0.222702 -0.976851
-0.122710 0.239440 -0.978110
-0.122830 0.256101 -0.979194
-0.122896 0.272567 -0.980415
-0.122878 0.288862 -0.982881
-0.122870 0.305046 -0.983893
-0.122923 0.321013 -0.982971
-0.122979 0.336460 -0.983474
-0.106122 -0.484221 0.942242
-0.106278 -0.484106 0.927671
-0.106322 -0.482862 0.912104
-0.106299 -0.480985 0.895410
-0.106402 -0.478508 0.879250
-0.106539 -0.476305 0.863197
-0.106534 -0.469853 0.796988
-0.106626 -0.468124 0.780566
-0.106663 -0.466679 0.764225
-0.106570 -0.464148 0.747977
-0.106520 -0.461611 0.731613
-0.106524 -0.451357 0.649223
-0.106505 -0.449206 0.632626
-0.106417 -0.447512 0.616109
-0.106407 -0.445768 0.599640
-0.106426 -0.436264 0.501668
-0.106375 -0.435157 0.485166
-0.106381 -0.433400 0.468515
-0.106390 -0.431902 0.451994
-0.106344 -0.431091 0.435777
-0.106315 -0.429932 0.419458
-0.106346 -0.428016 0.402830
-0.106310 -0.420316 0.319730
-0.106278 -0.420028 0.303913
-0.106302 -0.418830 0.287521
-0.106373 -0.416963 0.270646
-0.106372 -0.415562 0.254187
-0.106324 -0.414498 0.238015
-0.106333 -0.412869 0.221657
-0.106388 -0.404711 0.139478
-0.106362 -0.402924 0.123001
-0.106328 -0.401198 0.106438
-0.106308 -0.399584 0.089746
-0.106313 -0.397997 0.073294
-0.106342 -0.396387 0.057219
-0.106347 -0.395076 0.040757
-0.106317 -0.386326 -0.058293
-0.106303 -0.384621 -0.074517
-0.106315 -0.382721 -0.090953
-0.106343 -0.380846 -0.107457
-0.106367 -0.370429 -0.204885
-0.106393 -0.368314 -0.221346
-0.106410 -0.366342 -0.237721
-0.106385 -0.364652 -0.253877
-0.106428 -0.353397 -0.351911
-0.106429 -0.351415 -0.368230
-0.106400 -0.349778 -0.384615
-0.106399 -0.347979 -0.401138
-0.106411 -0.337589 -0.499405
-0.106390 -0.336107 -0.515799
-0.106404 -0.334583 -0.532311
-0.106411 -0.333095 -0.548787
-0.106387 -0.331830 -0.565134
-0.106378 -0.330638 -0.581560
-0.106410 -0.321115 -0.696017
-0.106447 -0.319295 -0.712288
-0.106527 -0.317177 -0.728802
-0.106486 -0.314816 -0.745145
-0.106274 -0.301682 -0.846215
-0.106634 -0.282987 -0.893237
-0.106736 -0.277929 -0.903453
-0.106810 -0.273712 -0.911633
-0.106531 -0.265014 -0.989198
-0.108050 -0.251999 -0.997799
-0.114478 -0.246030 -1.001430
-0.106818 -0.222502 -0.992738
-0.106957 -0.206402 -0.986404
-0.106974 -0.156902 -0.978387
-0.106963 -0.140571 -0.976971
-0.106943 -0.123991 -0.976026
-0.106935 -0.107408 -0.975326
-0.106948 -0.090978 -0.974671
-0.106969 -0.074701 -0.974102
-0.107000 -0.058529 -0.973789
-0.107001 -0.042135 -0.973237
-0.106959 -0.025471 -0.972193
-0.106904 -0.009000 -0.972796
-0.106844 0.007253 -0.975136
-0.106825 0.023625 -0.976736
-0.106839 0.040095 -0.977680
-0.106833 0.056491 -0.977841
-0.106825 0.072845 -0.977408
-0.106849 0.089302 -0.977709
-0.106932 0.105730 -0.978592
-0.107136 0.121906 -0.979819
-0.107348 0.138086 -0.980823
-0.107985 0.154796 -0.981562
-0.113871 0.160335 -0.982635
-0.106774 0.188726 -0.977705
-0.106350 0.205883 -0.976650
-0.106218 0.222650 -0.976432
-0.106260 0.239385 -0.977243
-0.106395 0.256097 -0.978278
-0.106473 0.272594 -0.979701
-0.106451 0.288945 -0.982303
-0.106438 0.305211 -0.983282
-0.106501 0.321279 -0.982447
-0.106558 0.336902 -0.983304
-0.106536 0.351471 -0.985453
-0.106528 0.359277 -0.986464
-0.089634 -0.486342 0.942213
-0.089824 -0.487046 0.927627
-0.089926 -0.485810 0.912071
-0.089953 -0.483558 0.895373
-0.090040 -0.480840 0.879228
-0.090134 -0.478446 0.863185
-0.090236 -0.476838 0.846705
-0.090246 -0.475736 0.829978
-0.090172 -0.468548 0.764250
-0.090068 -0.466507 0.748002
-0.090013 -0.464669 0.731559
-0.090052 -0.463113 0.714777
-0.090039 -0.461820 0.698122
-0.089952 -0.460315 0.681774
-0.089890 -0.451613 0.615993
-0.089879 -0.449760 0.599450
-0.089945 -0.448629 0.583017
-0.089916 -0.447033 0.566710
-0.089849 -0.445230 0.550484
-0.089885 -0.443653 0.534168
-0.089863 -0.437644 0.468385
-0.089871 -0.436138 0.451724
-0.089814 -0.434924 0.435584
-0.089782 -0.433596 0.419341
-0.089836 -0.431870 0.402636
-0.089842 -0.430354 0.386135
-0.089746 -0.429174 0.370056
-0.089718 -0.427642 0.353464
-0.089779 -0.422000 0.287535
-0.089893 -0.420247 0.270734
-0.089888 -0.418924 0.254218
-0.089812 -0.417890 0.237893
-0.089834 -0.416386 0.221466
-0.089893 -0.414629 0.204928
-0.089863 -0.413193 0.188306
-0.089811 -0.411942 0.171681
-0.089806 -0.404411 0.089075
-0.089844 -0.402825 0.072746
-0.089836 -0.401215 0.056412
-0.089847 -0.399711 0.039980
-0.089902 -0.398441 0.023498
-0.089924 -0.397099 0.007159
-0.089897 -0.395641 -0.009050
-0.089924 -0.394260 -0.025348
-0.090081 -0.386242 -0.107064
-0.090077 -0.384214 -0.123177
-0.090034 -0.382331 -0.139287
-0.090073 -0.380384 -0.155635
-0.090130 -0.378662 -0.172026
-0.090083 -0.370723 -0.253726
-0.090053 -0.368789 -0.270090
-0.090084 -0.366846 -0.286850
-0.090095 -0.365096 -0.303337
-0.090049 -0.363471 -0.319407
-0.090038 -0.354266 -0.401129
-0.090077 -0.352200 -0.417779
-0.090054 -0.350271 -0.434128
-0.090009 -0.348513 -0.450318
-0.090028 -0.346886 -0.466759
-0.090006 -0.337737 -0.565255
-0.089987 -0.336307 -0.581657
-0.090016 -0.334928 -0.598322
-0.090016 -0.333699 -0.614849
-0.089970 -0.332409 -0.631118
-0.089964 -0.330986 -0.647590
-0.089989 -0.329724 -0.664294
-0.089965 -0.318021 -0.761362
-0.089971 -0.315747 -0.778194
-0.089994 -0.313952 -0.795361
-0.089954 -0.312358 -0.812028
-0.089900 -0.301791 -0.863024
-0.090208 -0.253633 -0.996151
-0.090354 -0.238230 -0.993800
-0.090514 -0.222516 -0.988811
-0.090614 -0.206530 -0.984629
-0.090563 -0.173246 -0.979839
-0.090534 -0.156743 -0.976586
-0.090532 -0.140404 -0.975025
-0.090528 -0.123911 -0.974792
-0.090528 -0.107372 -0.974547
-0.090532 -0.090864 -0.973657
-0.090530 -0.074541 -0.972864
-0.090527 -0.058431 -0.972649
-0.090528 -0.042050 -0.972307
-0.090522 -0.025299 -0.971569
-0.090498 -0.008861 -0.972390
-0.090463 0.007235 -0.974934
-0.090441 0.023693 -0.976121
-0.090427 0.040437 -0.976147
-0.090396 0.056797 -0.975885
-0.090389 0.072898 -0.975609
-0.090478 0.089368 -0.976275
-0.090618 0.105935 -0.977447
-0.090745 0.122039 -0.978861
-0.090836 0.138142 -0.979994
-0.090846 0.154883 -0.980471
-0.090708 0.172017 -0.979121
-0.090369 0.189075 -0.976339
-0.090058 0.205950 -0.974685
-0.089933 0.222724 -0.974800
-0.089933 0.239465 -0.975512
-0.090025 0.256122 -0.976234
-0.090087 0.272605 -0.977899
-0.090068 0.288989 -0.980755
-0.090054 0.305306 -0.982034
-0.090107 0.321455 -0.981359
-0.090161 0.337251 -0.982306
-0.091170 0.354242 -0.985144
-0.097262 0.360153 -0.986376
-0.091202 0.370229 -0.986421
-0.086357 0.365094 -0.986066
-0.073188 -0.487825 0.942172
-0.073392 -0.488969 0.927580
-0.073515 -0.487699 0.912063
-0.073563 -0.485145 0.895383
-0.073655 -0.482639 0.879246
-0.073737 -0.480582 0.863189
-0.073840 -0.479076 0.846711
-0.073844 -0.477854 0.829988
-0.073675 -0.476801 0.813179
-0.073567 -0.475619 0.796671
-0.073573 -0.474305 0.786128
-0.073658 -0.472237 0.777965
-0.073674 -0.469626 0.764040
-0.073593 -0.467714 0.747773
-0.073550 -0.466367 0.731300
-0.073566 -0.465011 0.714401
-0.073541 -0.463674 0.697663
-0.073477 -0.462051 0.681304
-0.073484 -0.460584 0.665039
-0.073556 -0.459545 0.648819
-0.073534 -0.458110 0.635251
-0.073500 -0.456826 0.626878
-0.073412 -0.454415 0.615631
-0.073404 -0.452448 0.599032
-0.073457 -0.451688 0.582520
-0.073428 -0.450004 0.566231
-0.073364 -0.447835 0.550069
-0.073399 -0.446257 0.533717
-0.073461 -0.445138 0.517315
-0.073433 -0.443724 0.501197
-0.073367 -0.438085 0.435342
-0.073352 -0.436727 0.419190
-0.073415 -0.435063 0.402478
-0.073428 -0.433510 0.386041
-0.073346 -0.432245 0.370087
-0.073344 -0.430746 0.353631
-0.073429 -0.428912 0.336548
-0.073428 -0.427555 0.320029
-0.073385 -0.420166 0.221056
-0.073422 -0.418657 0.204331
-0.073378 -0.417345 0.187654
-0.073333 -0.416040 0.171043
-0.073383 -0.414525 0.154584
-0.073428 -0.412905 0.138139
-0.073380 -0.411299 0.121580
-0.073488 -0.405219 0.056464
-0.073526 -0.403467 0.040188
-0.073639 -0.402039 0.023997
-0.073671 -0.400544 0.007828
-0.073616 -0.398873 -0.008363
-0.073661 -0.397191 -0.024590
-0.073774 -0.395709 -0.040838
-0.073774 -0.394518 -0.057148
-0.073702 -0.393455 -0.073510
-0.073827 -0.388104 -0.122279
-0.073767 -0.385963 -0.138484
-0.073815 -0.383814 -0.154870
-0.073867 -0.381878 -0.171303
-0.073813 -0.380217 -0.187618
-0.073769 -0.378802 -0.204022
-0.073818 -0.377531 -0.220708
-0.073746 -0.372834 -0.269731
-0.073783 -0.371047 -0.286600
-0.073785 -0.369314 -0.303122
-0.073737 -0.367504 -0.319119
-0.073740 -0.365886 -0.335398
-0.073782 -0.364515 -0.351992
-0.073768 -0.362740 -0.368301
-0.073723 -0.354472 -0.434050
-0.073689 -0.352348 -0.450190
-0.073707 -0.350536 -0.466673
-0.073726 -0.348868 -0.483243
-0.073697 -0.347251 -0.499513
-0.073678 -0.345826 -0.515774
-0.073703 -0.344589 -0.532349
-0.073671 -0.339955 -0.581517
-0.073697 -0.338695 -0.598181
-0.073688 -0.337374 -0.614718
-0.073645 -0.335772 -0.630989
-0.073647 -0.334283 -0.647458
-0.073663 -0.332981 -0.664197
-0.073638 -0.331569 -0.680445
-0.073592 -0.330088 -0.696354
-0.073622 -0.328879 -0.712852
-0.073697 -0.327837 -0.729563
-0.073699 -0.326685 -0.741096
-0.073685 -0.324913 -0.748723
-0.073606 -0.322088 -0.761246
-0.073606 -0.319763 -0.777985
-0.073615 -0.317941 -0.795147
-0.073567 -0.315821 -0.811939
-0.073518 -0.313495 -0.828996
-0.073600 -0.298276 -0.878399
-0.073710 -0.293956 -0.887047
-0.073810 -0.290106 -0.894921
-0.073920 -0.282871 -0.909615
-0.073934 -0.277928 -0.920738
-0.073902 -0.274115 -0.930097
-0.073774 -0.278843 -0.990126
-0.073757 -0.269347 -0.996677
-0.073623 -0.267112 -0.945033
-0.073521 -0.267614 -0.961679
-0.073855 -0.253778 -0.994897
-0.074022 -0.238199 -0.990630
-0.074174 -0.222528 -0.986098
-0.074240 -0.206567 -0.983656
-0.074145 -0.173121 -0.978421
-0.074119 -0.156590 -0.975397
-0.074123 -0.140256 -0.973855
-0.074120 -0.123789 -0.973861
-0.074110 -0.107255 -0.973776
-0.074094 -0.090686 -0.972809
-0.074074 -0.074318 -0.971959
-0.074054 -0.058225 -0.971818
-0.074050 -0.041874 -0.971662
-0.074060 -0.025147 -0.971275
-0.074072 -0.008766 -0.972354
-0.074086 0.007253 -0.975012
-0.074066 0.023745 -0.975840
-0.074011 0.040637 -0.974970
-0.073940 0.057049 -0.974037
-0.073898 0.073102 -0.973442
-0.074010 0.089551 -0.974135
-0.074194 0.106123 -0.975670
-0.074274 0.122201 -0.977283
-0.074274 0.138299 -0.978441
-0.074224 0.155188 -0.978887
-0.074093 0.172448 -0.977614
-0.073881 0.189373 -0.974991
-0.073701 0.206097 -0.973366
-0.073613 0.222840 -0.973448
-0.073590 0.239548 -0.973803
-0.073625 0.256149 -0.974189
-0.073654 0.272612 -0.975953
-0.073642 0.289008 -0.979140
-0.073635 0.305359 -0.980913
-0.073679 0.321579 -0.980709
-0.073726 0.337485 -0.981678
-0.073760 0.353117 -0.984114
-0.073752 0.367615 -0.985788
-0.073724 0.376251 -0.986401
-0.057105 -0.488497 0.912057
-0.057113 -0.486331 0.895396
-0.057243 -0.484114 0.879268
-0.057376 -0.482079 0.863198
-0.057465 -0.480561 0.846713
-0.057468 -0.479312 0.830059
-0.057374 -0.477996 0.813473
-0.057305 -0.476500 0.796992
-0.057285 -0.474678 0.783877
-0.057298 -0.472806 0.775445
-0.057265 -0.470584 0.763549
-0.057236 -0.467965 0.747063
-0.057220 -0.465945 0.730584
-0.057183 -0.464607 0.713867
-0.057147 -0.463320 0.697229
-0.057149 -0.461642 0.680818
-0.057155 -0.460189 0.664483
-0.057150 -0.459191 0.648197
-0.057117 -0.457979 0.635310
-0.057119 -0.456905 0.626949
-0.057095 -0.454678 0.615073
-0.057088 -0.452949 0.598505
-0.057108 -0.452308 0.581986
-0.057108 -0.450605 0.565803
-0.057101 -0.448500 0.549798
-0.057121 -0.447002 0.533410
-0.057149 -0.445933 0.516901
-0.057142 -0.444723 0.500792
-0.057129 -0.443489 0.484613
-0.057132 -0.442257 0.467871
-0.057147 -0.438989 0.419086
-0.057184 -0.437259 0.402543
-0.057203 -0.435790 0.386192
-0.057183 -0.434787 0.370131
-0.057195 -0.433554 0.353778
-0.057234 -0.431949 0.337066
-0.057239 -0.430786 0.320667
-0.057220 -0.429986 0.304539
-0.057212 -0.428938 0.287800
-0.057178 -0.427823 0.270601
-0.057131 -0.426807 0.253828
-0.057009 -0.420501 0.170706
-0.057088 -0.418547 0.154351
-0.057168 -0.416605 0.138143
-0.057188 -0.414878 0.122077
-0.057226 -0.413288 0.106029
-0.057322 -0.411765 0.089928
-0.057553 -0.405532 0.025518
-0.057573 -0.403980 0.009324
-0.057520 -0.401788 -0.006837
-0.057542 -0.399974 -0.023163
-0.057626 -0.398636 -0.039583
-0.057616 -0.397001 -0.055953
-0.057557 -0.395200 -0.072304
-0.057580 -0.393773 -0.088727
-0.057554 -0.387710 -0.137901
-0.057577 -0.385616 -0.154305
-0.057596 -0.383778 -0.170729
-0.057546 -0.381820 -0.187141
-0.057507 -0.380095 -0.203594
-0.057538 -0.378749 -0.220156
-0.057548 -0.377398 -0.236614
-0.057482 -0.372674 -0.285960
-0.057477 -0.370964 -0.302421
-0.057458 -0.369088 -0.318574
-0.057464 -0.367422 -0.334898
-0.057471 -0.366011 -0.351391
-0.057466 -0.364182 -0.367752
-0.057468 -0.362136 -0.384067
-0.057464 -0.360385 -0.400645
-0.057451 -0.359314 -0.411717
-0.057473 -0.358178 -0.420042
-0.057443 -0.355843 -0.433748
-0.057449 -0.353270 -0.449927
-0.057456 -0.351674 -0.466324
-0.057451 -0.350220 -0.482806
-0.057438 -0.348282 -0.499166
-0.057441 -0.346614 -0.515520
-0.057450 -0.345543 -0.531975
-0.057444 -0.344326 -0.548416
-0.057425 -0.343055 -0.561025
-0.057463 -0.342030 -0.569267
-0.057433 -0.340914 -0.581204
-0.057454 -0.339898 -0.597666
-0.057447 -0.338487 -0.614114
-0.057421 -0.336391 -0.630525
-0.057427 -0.334968 -0.646990
-0.057439 -0.333959 -0.663500
-0.057435 -0.332448 -0.679818
-0.057429 -0.330642 -0.696087
-0.057432 -0.329429 -0.712800
-0.057427 -0.328590 -0.729589
-0.057389 -0.322133 -0.777899
-0.057342 -0.320195 -0.795049
-0.057317 -0.317920 -0.811741
-0.057291 -0.315487 -0.828859
-0.057137 -0.312694 -0.846445
-0.057009 -0.310502 -0.856975
-0.057108 -0.306907 -0.865138
-0.057220 -0.300085 -0.878447
-0.057369 -0.294770 -0.889080
-0.057456 -0.291117 -0.897034
-0.057488 -0.285358 -0.909967
-0.057427 -0.279390 -0.925207
-0.057396 -0.275864 -0.934340
-0.057369 -0.280022 -0.991265
-0.057369 -0.269466 -0.997496
-0.057190 -0.270802 -0.945114
-0.057479 -0.253731 -0.993411
-0.057639 -0.238026 -0.988160
-0.057768 -0.222466 -0.984513
-0.057745 -0.172866 -0.976850
-0.057732 -0.156393 -0.974611
-0.057733 -0.140110 -0.973360
-0.057720 -0.123582 -0.973052
-0.057692 -0.106991 -0.972808
-0.057654 -0.090446 -0.972198
-0.057627 -0.074069 -0.971684
-0.057620 -0.057898 -0.971583
-0.057614 -0.041582 -0.971487
-0.057601 -0.025074 -0.971226
-0.057632 -0.008749 -0.972642
-0.057706 0.007402 -0.975748
-0.057693 0.023856 -0.976522
-0.057592 0.040580 -0.975103
-0.057455 0.057182 -0.973075
-0.057330 0.073633 -0.971171
-0.057399 0.089978 -0.971163
-0.057591 0.106205 -0.972844
-0.057709 0.122307 -0.975111
-0.057728 0.138561 -0.976465
-0.057636 0.155364 -0.975993
-0.057479 0.172490 -0.974594
-0.057334 0.189504 -0.973774
-0.057238 0.206310 -0.973421
-0.057205 0.222961 -0.972802
-0.057187 0.239593 -0.972234
-0.057162 0.256168 -0.972402
-0.057151 0.272624 -0.974201
-0.053052 0.289029 -0.636402
-0.057152 0.289017 -0.977724
-0.051533 0.300450 -0.572176
-0.054995 0.305271 -0.636093
-0.050077 0.298905 -0.669691
-0.057161 0.305385 -0.980113
-0.052899 0.320380 -0.638404
-0.057197 0.321667 -0.980843
-0.051369 0.335403 -0.639233
-0.057241 0.337618 -0.982043
-0.051827 0.351373 -0.638481
-0.057274 0.353162 -0.983864
-0.054101 0.367442 -0.637048
-0.057279 0.367526 -0.985549
-0.056307 0.383667 -0.636456
-0.057275 0.376139 -0.986492
-0.053082 0.400036 -0.637891
-0.049758 0.408464 -0.639034
-0.040679 -0.487253 0.895326
-0.040830 -0.485230 0.879252
-0.040975 -0.483153 0.863202
-0.041056 -0.481385 0.846714
-0.041062 -0.480018 0.830093
-0.041006 -0.478724 0.813593
-0.040956 -0.477249 0.797108
-0.040844 -0.469729 0.746709
-0.040833 -0.467201 0.730186
-0.040772 -0.465580 0.713538
-0.040741 -0.464187 0.696978
-0.040771 -0.462406 0.680627
-0.040771 -0.460929 0.664225
-0.040726 -0.459872 0.647740
-0.040730 -0.454785 0.598220
-0.040728 -0.454006 0.581655
-0.040751 -0.452115 0.565569
-0.040783 -0.449898 0.549703
-0.040781 -0.448335 0.533212
-0.040776 -0.447187 0.516547
-0.040794 -0.446157 0.500525
-0.040810 -0.445116 0.484476
-0.040791 -0.443889 0.467725
-0.040788 -0.442917 0.451070
-0.040852 -0.438357 0.385935
-0.040869 -0.437673 0.369774
-0.040874 -0.436671 0.353413
-0.040873 -0.435235 0.336795
-0.040883 -0.434148 0.320389
-0.040903 -0.433354 0.304157
-0.040887 -0.432369 0.287471
-0.040829 -0.431287 0.270456
-0.040786 -0.430110 0.253793
-0.040770 -0.428910 0.237328
-0.040739 -0.427797 0.220598
-0.040720 -0.426689 0.203867
-0.040979 -0.419914 0.139238
-0.041025 -0.418060 0.123419
-0.041060 -0.416441 0.107448
-0.041131 -0.414877 0.091189
-0.041207 -0.412981 0.075074
-0.041233 -0.410866 0.059095
-0.041263 -0.404208 -0.006318
-0.041261 -0.402229 -0.022734
-0.041304 -0.400845 -0.039275
-0.041291 -0.398958 -0.055667
-0.041250 -0.396744 -0.071964
-0.041242 -0.395070 -0.088474
-0.041248 -0.393635 -0.105130
-0.041221 -0.392317 -0.118263
-0.041225 -0.391120 -0.126421
-0.041186 -0.389105 -0.137922
-0.041193 -0.386708 -0.154304
-0.041194 -0.384668 -0.170691
-0.041165 -0.382664 -0.187032
-0.041137 -0.380840 -0.203437
-0.041140 -0.379329 -0.220012
-0.041142 -0.378013 -0.236503
-0.041111 -0.376812 -0.252760
-0.041093 -0.371750 -0.302054
-0.041096 -0.369829 -0.318309
-0.041090 -0.368123 -0.334654
-0.041077 -0.366664 -0.351103
-0.041090 -0.364902 -0.367497
-0.041124 -0.362863 -0.383893
-0.041111 -0.360964 -0.400446
-0.041090 -0.359568 -0.413525
-0.041105 -0.358414 -0.421816
-0.041088 -0.356081 -0.433495
-0.041104 -0.353185 -0.449738
-0.041098 -0.351653 -0.466117
-0.041084 -0.350377 -0.482567
-0.041089 -0.348425 -0.498975
-0.041097 -0.346673 -0.515368
-0.041094 -0.345440 -0.531777
-0.041091 -0.344134 -0.548186
-0.041081 -0.342983 -0.560343
-0.041123 -0.342028 -0.568620
-0.041090 -0.340887 -0.581032
-0.041103 -0.339819 -0.597400
-0.041111 -0.338377 -0.613806
-0.041101 -0.336264 -0.630272
-0.041101 -0.334850 -0.646712
-0.041106 -0.334011 -0.663095
-0.041128 -0.332689 -0.679467
-0.041152 -0.330926 -0.695940
-0.041124 -0.329574 -0.712801
-0.041064 -0.328537 -0.729687
-0.041078 -0.327412 -0.745502
-0.040989 -0.322511 -0.794878
-0.040958 -0.319737 -0.811568
-0.040917 -0.316965 -0.828775
-0.040732 -0.314116 -0.846451
-0.040595 -0.311208 -0.858613
-0.040693 -0.307502 -0.866798
-0.040814 -0.301319 -0.878349
-0.040970 -0.295376 -0.890684
-0.041042 -0.291998 -0.898733
-0.041038 -0.287315 -0.910108
-0.040885 -0.281831 -0.976647
-0.041087 -0.253723 -0.992250
-0.041240 -0.237980 -0.986926
-0.041356 -0.222454 -0.983805
-0.041371 -0.189666 -0.978665
-0.041335 -0.172665 -0.975981
-0.041327 -0.156190 -0.974091
-0.041318 -0.139911 -0.972928
-0.041289 -0.123377 -0.972598
-0.041253 -0.106773 -0.972336
-0.041211 -0.090219 -0.971816
-0.041186 -0.073862 -0.971554
-0.041187 -0.057734 -0.971728
-0.041175 -0.041419 -0.971561
-0.041128 -0.024871 -0.970816
-0.041147 -0.008545 -0.972161
-0.041247 0.007570 -0.975652
-0.041252 0.024005 -0.976509
-0.041152 0.040720 -0.974817
-0.041007 0.057382 -0.972364
-0.040861 0.073950 -0.969880
-0.040862 0.090298 -0.969130
-0.040977 0.106446 -0.970163
-0.041098 0.122524 -0.972547
-0.041170 0.138785 -0.974356
-0.041111 0.155548 -0.973898
-0.040990 0.172569 -0.972894
-0.040904 0.189490 -0.973065
-0.040852 0.206297 -0.973190
-0.040818 0.223000 -0.972168
-0.040777 0.239631 -0.971122
-0.040719 0.256177 -0.971087
-0.040692 0.272629 -0.972762
-0.032547 0.280903 -0.326498
-0.040703 0.289039 -0.633132
-0.040702 0.289024 -0.976262
-0.037099 0.298326 -0.456745
-0.033806 0.297497 -0.507049
-0.040820 0.303422 -0.571119
-0.040788 0.305282 -0.632105
-0.040357 0.304742 -0.667277
-0.040718 0.305394 -0.979178
-0.040933 0.320378 -0.635816
-0.034710 0.314683 -0.671210
-0.040752 0.321682 -0.980867
-0.041024 0.335385 -0.637173
-0.040797 0.337637 -0.982288
-0.041048 0.351348 -0.635927
-0.040817 0.353189 -0.983763
-0.041078 0.367418 -0.633255
-0.040816 0.366226 -0.985451
-0.041147 0.383652 -0.632001
-0.040823 0.374862 -0.986661
-0.040795 0.386213 -0.987124
-0.041246 0.400024 -0.635008
-0.036043 0.400030 -0.703115
-0.041302 0.409319 -0.638127
-0.035293 0.408625 -0.703343
-0.024164 -0.491268 0.927308
-0.024251 -0.490824 0.915209
-0.024226 -0.489530 0.906685
-0.024278 -0.487863 0.895120
-0.024424 -0.486158 0.879163
-0.024539 -0.484455 0.863201
-0.024615 -0.482373 0.846723
-0.024620 -0.480587 0.830094
-0.024537 -0.479707 0.813531
-0.024461 -0.478841 0.796979
-0.024421 -0.477039 0.780134
-0.024314 -0.468884 0.713518
-0.024284 -0.467021 0.696899
-0.024308 -0.465306 0.680825
-0.024305 -0.463827 0.664390
-0.024269 -0.462548 0.647553
-0.024262 -0.461197 0.631099
-0.024336 -0.452885 0.549762
-0.024330 -0.451164 0.533077
-0.024320 -0.449866 0.516187
-0.024341 -0.448694 0.500395
-0.024368 -0.447591 0.484593
-0.024349 -0.446306 0.467640
-0.024335 -0.445371 0.450788
-0.024349 -0.444917 0.434969
-0.024366 -0.444134 0.418892
-0.024315 -0.437979 0.319230
-0.024313 -0.437056 0.302951
-0.024361 -0.435950 0.286661
-0.024419 -0.434696 0.270422
-0.024415 -0.433182 0.254223
-0.024392 -0.431537 0.238010
-0.024475 -0.430107 0.221712
-0.024589 -0.428841 0.205388
-0.024612 -0.427648 0.189183
-0.024620 -0.426516 0.173045
-0.024773 -0.419439 0.108325
-0.024821 -0.417527 0.091778
-0.024862 -0.415527 0.075397
-0.024853 -0.413477 0.059240
-0.024840 -0.411599 0.042801
-0.024826 -0.409898 0.025882
-0.024810 -0.408629 0.012851
-0.024851 -0.407691 0.004972
-0.024828 -0.405981 -0.006472
-0.024811 -0.403801 -0.022942
-0.024785 -0.401823 -0.039777
-0.024761 -0.399824 -0.056078
-0.024757 -0.397826 -0.072066
-0.024716 -0.396113 -0.088826
-0.024659 -0.394589 -0.106028
-0.024642 -0.387970 -0.154920
-0.024655 -0.385532 -0.171142
-0.024643 -0.383523 -0.187198
-0.024629 -0.381582 -0.203472
-0.024616 -0.379721 -0.220289
-0.024613 -0.378401 -0.236946
-0.024593 -0.377552 -0.253006
-0.024598 -0.376518 -0.269146
-0.024614 -0.375649 -0.280296
-0.024655 -0.374650 -0.288540
-0.024629 -0.372858 -0.301987
-0.024626 -0.370655 -0.318242
-0.024623 -0.368814 -0.334598
-0.024614 -0.367326 -0.351078
-0.024623 -0.365646 -0.367487
-0.024650 -0.363708 -0.383858
-0.024656 -0.361672 -0.400356
-0.024642 -0.359857 -0.415579
-0.024672 -0.358777 -0.423844
-0.024642 -0.356673 -0.433302
-0.024643 -0.353481 -0.449614
-0.024641 -0.351559 -0.466060
-0.024629 -0.350164 -0.482553
-0.024629 -0.348504 -0.498945
-0.024636 -0.346891 -0.515313
-0.024638 -0.345497 -0.531762
-0.024636 -0.344129 -0.548189
-0.024627 -0.343010 -0.561723
-0.024655 -0.342274 -0.569959
-0.017129 -0.325877 -0.195423
-0.024637 -0.341228 -0.580963
-0.024647 -0.339594 -0.597386
-0.024652 -0.338031 -0.613808
-0.024645 -0.336430 -0.630222
-0.024648 -0.334936 -0.646648
-0.024649 -0.333620 -0.663084
-0.024671 -0.332571 -0.679494
-0.024699 -0.331504 -0.695984
-0.024664 -0.330099 -0.712952
-0.024590 -0.328515 -0.729967
-0.024571 -0.327758 -0.745672
-0.024544 -0.327660 -0.761168
-0.024436 -0.322144 -0.811477
-0.024356 -0.318724 -0.828781
-0.024265 -0.315468 -0.846390
-0.024225 -0.311766 -0.859952
-0.024313 -0.308227 -0.868088
-0.024380 -0.302546 -0.878118
-0.024523 -0.295862 -0.892183
-0.024581 -0.292871 -0.900318
-0.024482 -0.293983 -1.001599
-0.019575 -0.270323 -0.637160
-0.024583 -0.288787 -0.909936
-0.024531 -0.282092 -0.927671
-0.024416 -0.277988 -0.940005
-0.024365 -0.274672 -0.948378
-0.024510 -0.284555 -0.976504
-0.019994 -0.257919 -0.637049
-0.024710 -0.253790 -0.991319
-0.024870 -0.238044 -0.986270
-0.024980 -0.222487 -0.983470
-0.022002 -0.206664 -0.635594
-0.018647 -0.206492 -0.702374
-0.020331 -0.194607 -0.636571
-0.017563 -0.197685 -0.703232
-0.024972 -0.189581 -0.978349
-0.024927 -0.172578 -0.976079
-0.024909 -0.156000 -0.973861
-0.024888 -0.139646 -0.972454
-0.024845 -0.123201 -0.972547
-0.024807 -0.106663 -0.972549
-0.024781 -0.090039 -0.971678
-0.024768 -0.073715 -0.971386
-0.024770 -0.057799 -0.972115
-0.024734 -0.041448 -0.971773
-0.024646 -0.024507 -0.970004
-0.024636 -0.008098 -0.970779
-0.024726 0.007735 -0.974310
-0.024756 0.024172 -0.975469
-0.024715 0.041127 -0.974053
-0.024642 0.057657 -0.971959
-0.024550 0.073865 -0.969860
-0.024469 0.090362 -0.968658
-0.024430 0.106864 -0.968631
-0.024500 0.122849 -0.970464
-0.024618 0.138887 -0.972638
-0.024670 0.155725 -0.973340
-0.024665 0.172770 -0.973160
-0.024646 0.189325 -0.973051
-0.024597 0.205961 -0.972678
-0.024494 0.222911 -0.971661
-0.024390 0.239664 -0.970707
-0.024338 0.256176 -0.970432
-0.024325 0.272619 -0.971775
-0.024246 0.289039 -0.631126
-0.024328 0.289028 -0.974829
-0.024300 0.298059 -0.456989
-0.024344 0.304354 -0.570107
-0.024320 0.305266 -0.629705
-0.023002 0.304204 -0.659005
-0.024341 0.305393 -0.978162
-0.024441 0.320275 -0.632787
-0.022956 0.320153 -0.668904
-0.024390 0.321625 -0.980724
-0.024525 0.335269 -0.634540
-0.018745 0.336061 -0.671054
-0.024430 0.337554 -0.982374
-0.024560 0.351331 -0.633610
-0.021827 0.351569 -0.669176
-0.024430 0.353249 -0.983975
-0.024574 0.367432 -0.630862
-0.022594 0.367481 -0.668755
-0.024416 0.364202 -0.985594
-0.021024 0.377330 -0.572645
-0.024616 0.383655 -0.629681
-0.020610 0.383692 -0.670298
-0.024388 0.372894 -0.986772
-0.024339 0.386321 -0.987316
-0.024722 0.400028 -0.633059
-0.018208 0.395775 -0.672796
-0.024654 0.400029 -0.700994
-0.024804 0.410355 -0.637002
-0.024682 0.409089 -0.702842
-0.007757 -0.491260 0.927201
-0.007846 -0.490813 0.915576
-0.007817 -0.489358 0.906905
-0.007863 -0.487491 0.894704
-0.008007 -0.485798 0.878928
-0.008124 -0.484116 0.863183
-0.008198 -0.481976 0.846712
-0.008199 -0.480075 0.830067
-0.008116 -0.479102 0.813487
-0.008041 -0.478278 0.796943
-0.008024 -0.476583 0.780184
-0.007720 -0.474788 0.764183
-0.013246 -0.474291 0.747210
-0.005094 -0.472588 0.747092
-0.002084 -0.473394 0.759114
-0.015478 -0.473950 0.737775
-0.009215 -0.471731 0.731424
-0.007928 -0.469196 0.713530
-0.007902 -0.467304 0.696879
-0.007904 -0.465676 0.680766
-0.007898 -0.464128 0.664338
-0.007881 -0.462573 0.647548
-0.007876 -0.461203 0.631089
-0.007875 -0.459922 0.614863
-0.007887 -0.458794 0.598306
-0.008024 -0.458041 0.582894
-0.013547 -0.457717 0.571234
-0.008050 -0.456042 0.565932
-0.002666 -0.456947 0.578361
-0.007934 -0.453665 0.549775
-0.007945 -0.452070 0.533152
-0.007948 -0.450830 0.516373
-0.007956 -0.449602 0.500548
-0.007979 -0.448478 0.484698
-0.007979 -0.447252 0.467843
-0.007962 -0.446350 0.451022
-0.007949 -0.445851 0.434989
-0.007946 -0.445085 0.418624
-0.007911 -0.443811 0.401448
-0.007878 -0.442755 0.384566
-0.007863 -0.442151 0.368243
-0.008189 -0.441488 0.353090
-0.013850 -0.441227 0.340801
-0.008211 -0.440118 0.335221
-0.002952 -0.440639 0.348353
-0.007889 -0.438794 0.318800
-0.007909 -0.437603 0.302660
-0.008004 -0.436281 0.286733
-0.008127 -0.434937 0.270921
-0.008151 -0.433460 0.254975
-0.008151 -0.431885 0.238886
-0.008245 -0.430428 0.222758
-0.008361 -0.429161 0.206576
-0.008393 -0.428053 0.190336
-0.008396 -0.427013 0.174019
-0.008434 -0.426007 0.157653
-0.009781 -0.424990 0.141621
-0.016165 -0.424636 0.132797
-0.009769 -0.422965 0.126371
-0.005223 -0.424115 0.136264
-0.008416 -0.420118 0.108489
-0.008423 -0.417981 0.091922
-0.008438 -0.415932 0.075492
-0.008453 -0.413928 0.059248
-0.008445 -0.412017 0.042770
-0.008385 -0.410106 0.025821
-0.008336 -0.408661 0.012337
-0.008406 -0.407781 0.004419
-0.008420 -0.406139 -0.006538
-0.008409 -0.403870 -0.023018
-0.008336 -0.401791 -0.039884
-0.008319 -0.399770 -0.056159
-0.008357 -0.397816 -0.072111
-0.008311 -0.396106 -0.088933
-0.008217 -0.394578 -0.106218
-0.007048 -0.392709 -0.124143
-0.011681 -0.392001 -0.133224
-0.007079 -0.390733 -0.138467
-0.000917 -0.391738 -0.129965
-0.008237 -0.387924 -0.155139
-0.008215 -0.385636 -0.171460
-0.008214 -0.383651 -0.187445
-0.008227 -0.381801 -0.203627
-0.008207 -0.379963 -0.220454
-0.008182 -0.378494 -0.237108
-0.008167 -0.377496 -0.253119
-0.008192 -0.376442 -0.269223
-0.008210 -0.375632 -0.280347
-0.008254 -0.374759 -0.288603
-0.008222 -0.372939 -0.302029
-0.008214 -0.370481 -0.318276
-0.008228 -0.368630 -0.334634
-0.008212 -0.367326 -0.351116
-0.008201 -0.365711 -0.367543
-0.008225 -0.363831 -0.383930
-0.008242 -0.361963 -0.400406
-0.008222 -0.354132 -0.449648
-0.008231 -0.352013 -0.466109
-0.008215 -0.350530 -0.482606
-0.008200 -0.348915 -0.498996
-0.008214 -0.347385 -0.515364
-0.008225 -0.346119 -0.531806
-0.008217 -0.344832 -0.548226
-0.008240 -0.340179 -0.597418
-0.008234 -0.338503 -0.613823
-0.008220 -0.336911 -0.630205
-0.008237 -0.335405 -0.646622
-0.008248 -0.334027 -0.663067
-0.008258 -0.332982 -0.679483
-0.008277 -0.331977 -0.695965
-0.008251 -0.330738 -0.712907
-0.008178 -0.329175 -0.729906
-0.008144 -0.328269 -0.745646
-0.008116 -0.328198 -0.761175
-0.008135 -0.327501 -0.777672
-0.008128 -0.326606 -0.790735
-0.008135 -0.325584 -0.799216
-0.008041 -0.323075 -0.811390
-0.007942 -0.319523 -0.828695
-0.007872 -0.316110 -0.846325
-0.007848 -0.312040 -0.860529
-0.007947 -0.308525 -0.868660
-0.007996 -0.303032 -0.878023
-0.008135 -0.296060 -0.892856
-0.008185 -0.293246 -0.901074
-0.008104 -0.294240 -1.001667
-0.008178 -0.289229 -0.910046
-0.008122 -0.282512 -0.927778
-0.008004 -0.278340 -0.941180
-0.007975 -0.275248 -0.949566
-0.008142 -0.285950 -0.976411
-0.008218 -0.283751 -0.991424
-0.008212 -0.269735 -0.996618
-0.008339 -0.253772 -0.990664
-0.008500 -0.238029 -0.985730
-0.008584 -0.189522 -0.977439
-0.008545 -0.172500 -0.975536
-0.008522 -0.155888 -0.973218
-0.008499 -0.139509 -0.971749
-0.008460 -0.123087 -0.972117
-0.008423 -0.106581 -0.972352
-0.008399 -0.089970 -0.971426
-0.008383 -0.073670 -0.971053
-0.008371 -0.057809 -0.971793
-0.008331 -0.041467 -0.971496
-0.008257 -0.024453 -0.969834
-0.008239 -0.007989 -0.970282
-0.008288 0.007845 -0.973045
-0.008314 0.024282 -0.974198
-0.008306 0.041238 -0.973573
-0.008267 0.057705 -0.972121
-0.008208 0.073813 -0.970450
-0.008129 0.090301 -0.969525
-0.008075 0.106881 -0.969474
-0.008132 0.122934 -0.970871
-0.008246 0.139011 -0.972548
-0.008329 0.155862 -0.973274
-0.008373 0.172862 -0.973330
-0.008388 0.189282 -0.973233
-0.015975 0.180337 -1.000135
-0.008337 0.205867 -0.972712
-0.008180 0.222904 -0.971637
-0.008030 0.239695 -0.970636
-0.007967 0.256183 -0.970224
-0.007951 0.272613 -0.971339
-0.003399 0.288976 -0.326103
-0.007850 0.289035 -0.632725
-0.007951 0.289022 -0.974050
-0.002540 0.299649 -0.326218
-0.001190 0.298991 -0.391768
-0.007922 0.305261 -0.630652
-0.007965 0.305390 -0.977433
-0.008039 0.320292 -0.632344
-0.008017 0.321618 -0.980186
-0.008116 0.335307 -0.633671
-0.008051 0.337555 -0.982058
-0.008141 0.351370 -0.633186
-0.008036 0.353275 -0.984015
-0.008148 0.367459 -0.630931
-0.008023 0.363723 -0.985660
-0.008182 0.383659 -0.630599
-0.007977 0.372423 -0.986728
-0.007921 0.386422 -0.987261
0.008733 -0.490667 0.927267
0.003310 -0.490457 0.918086
0.008682 -0.488903 0.911766
0.014216 -0.489854 0.922633
0.008584 -0.486398 0.894079
0.008440 -0.484209 0.878543
0.008283 -0.481912 0.863149
0.008207 -0.479934 0.846672
0.008196 -0.478411 0.830001
0.008250 -0.476893 0.813491
0.009003 -0.475228 0.797154
0.003667 -0.474540 0.780325
0.011805 -0.472741 0.780289
0.014904 -0.473399 0.791737
0.000948 -0.473981 0.770193
0.007152 -0.471971 0.764074
0.008333 -0.469435 0.746790
0.008347 -0.467355 0.730219
0.008374 -0.465664 0.713442
0.008404 -0.464216 0.696787
0.008424 -0.462801 0.680387
0.008430 -0.461234 0.664025
0.009720 -0.459233 0.646675
0.007005 -0.458698 0.631177
0.015154 -0.457052 0.631199
0.016012 -0.457265 0.640613
0.004667 -0.458164 0.614701
0.012817 -0.456640 0.614608
0.001792 -0.457641 0.598210
0.009932 -0.456044 0.598187
0.000547 -0.457467 0.589346
0.006938 -0.455406 0.583151
0.008395 -0.453298 0.565794
0.008392 -0.451804 0.549758
0.008369 -0.450616 0.533451
0.008334 -0.449603 0.517087
0.008330 -0.448561 0.500963
0.008332 -0.447555 0.484785
0.008317 -0.446451 0.468311
0.008317 -0.445506 0.451738
0.008364 -0.444866 0.435123
0.008424 -0.444061 0.418184
0.008504 -0.442776 0.401004
0.008641 -0.441590 0.384759
0.002744 -0.441254 0.368039
0.010912 -0.440165 0.367895
0.014162 -0.440683 0.379528
0.000622 -0.441057 0.359340
0.007016 -0.439443 0.352954
0.008414 -0.437512 0.335328
0.008348 -0.436128 0.319343
0.008278 -0.434846 0.303663
0.008180 -0.433550 0.287823
0.008085 -0.432284 0.271819
0.008031 -0.431190 0.255741
0.008014 -0.430145 0.239538
0.008010 -0.428951 0.223200
0.008009 -0.427791 0.206792
0.007969 -0.426785 0.190371
0.009506 -0.425589 0.172353
0.005125 -0.425103 0.157499
0.013341 -0.424051 0.157334
0.016007 -0.424586 0.165716
0.001559 -0.424778 0.147124
0.007466 -0.422946 0.141298
0.008023 -0.420173 0.124608
0.008008 -0.417871 0.108241
0.008069 -0.415992 0.091815
0.008073 -0.413983 0.075439
0.007973 -0.411956 0.059139
0.007945 -0.410240 0.042722
0.007367 -0.408807 0.026970
0.001488 -0.408354 0.015991
0.007378 -0.406790 0.010356
0.012422 -0.407648 0.022077
0.007937 -0.404205 -0.006470
0.007937 -0.402151 -0.022890
0.008033 -0.400495 -0.039448
0.008019 -0.398502 -0.055809
0.007929 -0.396439 -0.072068
0.007965 -0.394828 -0.088660
0.008060 -0.393461 -0.105430
0.008079 -0.392269 -0.118201
0.007979 -0.391028 -0.126261
0.007966 -0.388767 -0.138076
0.008024 -0.386379 -0.154759
0.008108 -0.384599 -0.171510
0.008094 -0.382888 -0.187809
0.008058 -0.381375 -0.203987
0.008097 -0.379949 -0.220448
0.008140 -0.378489 -0.236851
0.008139 -0.376875 -0.253030
0.007050 -0.375659 -0.267908
0.000881 -0.375447 -0.278252
0.007022 -0.374303 -0.284569
0.011738 -0.374982 -0.272520
0.008113 -0.372020 -0.302170
0.008109 -0.369315 -0.318442
0.008110 -0.367569 -0.334778
0.008145 -0.366732 -0.351207
0.008152 -0.365234 -0.367658
0.008129 -0.363256 -0.384135
0.008138 -0.361741 -0.400619
0.008164 -0.360520 -0.417069
0.008182 -0.359398 -0.427755
0.008129 -0.357628 -0.435981
0.008154 -0.354783 -0.449873
0.008152 -0.352840 -0.466273
0.008170 -0.351550 -0.482696
0.008174 -0.349734 -0.499128
0.008164 -0.348177 -0.515530
0.008156 -0.347193 -0.531883
0.008158 -0.345987 -0.548253
0.008176 -0.344328 -0.564707
0.008119 -0.339725 -0.613822
0.008143 -0.337713 -0.630215
0.008134 -0.336246 -0.646614
0.008103 -0.335402 -0.663000
0.008089 -0.334258 -0.679392
0.008094 -0.332585 -0.695869
0.008118 -0.331477 -0.712656
0.008166 -0.330293 -0.729462
0.008179 -0.328776 -0.745378
0.008184 -0.327927 -0.761164
0.008512 -0.326847 -0.778295
0.003254 -0.326403 -0.788561
0.008461 -0.324994 -0.794364
0.014134 -0.325911 -0.784270
0.008212 -0.322026 -0.811270
0.008310 -0.318972 -0.828527
0.008455 -0.315914 -0.846299
0.008540 -0.312030 -0.860278
0.008429 -0.308276 -0.868450
0.008334 -0.302739 -0.878090
0.008194 -0.296017 -0.892669
0.008152 -0.293087 -0.900965
0.008283 -0.293792 -1.001416
0.008189 -0.288663 -0.910462
0.008286 -0.282003 -0.928159
0.008393 -0.278237 -0.940929
0.008395 -0.275046 -0.949263
0.008238 -0.285716 -0.976424
0.008169 -0.283527 -0.991296
0.008170 -0.269655 -0.996298
0.015743 -0.263991 0.231233
0.008046 -0.253661 -0.990155
0.007894 -0.237929 -0.985278
0.007789 -0.206329 -0.978572
0.007810 -0.189482 -0.975663
0.007827 -0.172417 -0.974206
0.007845 -0.155851 -0.972146
0.007862 -0.139517 -0.970830
0.007883 -0.123037 -0.971260
0.007911 -0.106511 -0.971613
0.007948 -0.089996 -0.970910
0.007988 -0.073718 -0.970445
0.008026 -0.057738 -0.970678
0.008047 -0.041443 -0.970704
0.008050 -0.024718 -0.970559
0.008058 -0.008252 -0.970834
0.008074 0.007907 -0.971681
0.008085 0.024350 -0.972526
0.008098 0.041030 -0.973044
0.008151 0.057523 -0.972576
0.008212 0.073859 -0.971586
0.008193 0.090170 -0.971689
0.008114 0.106447 -0.972743
0.008031 0.122727 -0.973693
0.007969 0.139170 -0.973887
0.007946 0.155969 -0.973344
0.007940 0.172837 -0.972807
0.007923 0.189410 -0.973055
0.007971 0.206103 -0.972964
0.008143 0.223024 -0.971861
0.008318 0.239721 -0.970740
0.008419 0.256197 -0.970284
0.008454 0.272618 -0.971299
0.015932 0.281523 0.231489
0.008448 0.289011 -0.973828
0.008861 0.304655 -0.391802
0.008432 0.305379 -0.976854
0.014575 0.315156 -0.392709
0.008277 0.320477 -0.634788
0.008392 0.321667 -0.979079
0.016052 0.327900 -0.328107
0.008207 0.335565 -0.634607
0.008364 0.337644 -0.980941
0.008207 0.351495 -0.634799
0.008380 0.353253 -0.983272
0.008187 0.367507 -0.634848
0.013420 0.360063 -0.671868
0.008400 0.365860 -0.985344
0.008423 0.374568 -0.986568
0.008464 0.386490 -0.986973
0.020317 -0.490445 0.931970
0.025416 -0.489054 0.927205
0.024933 -0.486688 0.910939
0.024985 -0.484817 0.893503
0.024839 -0.482548 0.878200
0.024659 -0.480055 0.863122
0.024562 -0.478226 0.846661
0.024539 -0.476874 0.830007
0.025369 -0.474903 0.812388
0.020453 -0.474110 0.802825
0.025367 -0.472896 0.797264
0.031353 -0.473682 0.806263
0.024615 -0.470830 0.780229
0.024627 -0.469134 0.763266
0.024664 -0.467141 0.746774
0.024674 -0.465199 0.730294
0.024691 -0.463548 0.713452
0.024721 -0.462324 0.696762
0.024758 -0.461439 0.680400
0.024761 -0.460192 0.664149
0.024788 -0.454830 0.598413
0.024713 -0.453476 0.582259
0.024705 -0.452128 0.566104
0.024740 -0.451007 0.549942
0.024706 -0.450043 0.533754
0.024641 -0.449169 0.517519
0.024663 -0.448210 0.501151
0.024711 -0.447217 0.484683
0.024701 -0.446085 0.468213
0.024693 -0.444970 0.451635
0.024760 -0.444103 0.434789
0.024828 -0.443163 0.417844
0.024856 -0.441937 0.401038
0.024863 -0.441157 0.390459
0.024830 -0.440414 0.382317
0.024816 -0.438964 0.368461
0.024760 -0.437198 0.352343
0.024659 -0.435498 0.336222
0.024562 -0.434148 0.320330
0.024510 -0.432978 0.304546
0.024461 -0.431497 0.288453
0.024401 -0.429829 0.272140
0.024357 -0.428636 0.255916
0.024348 -0.427678 0.239672
0.025539 -0.426228 0.222888
0.021831 -0.425833 0.206726
0.030085 -0.423546 0.206493
0.031823 -0.424269 0.216990
0.019430 -0.425308 0.190255
0.027717 -0.422601 0.189865
0.017627 -0.424923 0.176725
0.023682 -0.422333 0.171850
0.024527 -0.420328 0.156741
0.024603 -0.418243 0.140274
0.024569 -0.416078 0.123882
0.024543 -0.414183 0.107545
0.024606 -0.412475 0.091257
0.024607 -0.410764 0.074981
0.024619 -0.409231 0.060193
0.018881 -0.408697 0.042569
0.027163 -0.406610 0.042184
0.030193 -0.407440 0.055447
0.016850 -0.408315 0.033133
0.023252 -0.405917 0.026838
0.024524 -0.403549 0.009573
0.024418 -0.401495 -0.006731
0.024409 -0.399773 -0.023108
0.024483 -0.398322 -0.039555
0.024465 -0.396589 -0.055951
0.024384 -0.394873 -0.072310
0.024395 -0.393520 -0.088794
0.024296 -0.392325 -0.105895
0.018730 -0.391894 -0.114247
0.024268 -0.390332 -0.120511
0.029684 -0.391565 -0.111999
0.024373 -0.387281 -0.138038
0.024451 -0.385301 -0.154989
0.024554 -0.383698 -0.172087
0.024545 -0.382101 -0.188658
0.024508 -0.380651 -0.204742
0.024507 -0.379332 -0.220622
0.024514 -0.377865 -0.236647
0.023076 -0.376072 -0.253183
0.016597 -0.375418 -0.261557
0.023064 -0.374278 -0.267914
0.027574 -0.374911 -0.258813
0.024506 -0.372610 -0.285832
0.024504 -0.370748 -0.302234
0.024519 -0.368190 -0.318518
0.024533 -0.366528 -0.334830
0.024545 -0.365773 -0.351206
0.024545 -0.364299 -0.367644
0.024544 -0.362282 -0.384145
0.024556 -0.360848 -0.400616
0.024698 -0.359772 -0.416776
0.019335 -0.359317 -0.427315
0.024704 -0.357374 -0.433033
0.030249 -0.358575 -0.422047
0.024576 -0.354201 -0.449949
0.024574 -0.352356 -0.466341
0.024573 -0.351103 -0.482732
0.024578 -0.349452 -0.499168
0.024583 -0.348034 -0.515583
0.024568 -0.346977 -0.531920
0.024559 -0.345682 -0.548281
0.026065 -0.343755 -0.566265
0.020694 -0.342913 -0.581207
0.028903 -0.342162 -0.581184
0.032535 -0.342548 -0.572782
0.016902 -0.342621 -0.590051
0.023226 -0.341327 -0.596270
0.024521 -0.339317 -0.613831
0.024552 -0.337337 -0.630198
0.024556 -0.335929 -0.646596
0.024515 -0.335125 -0.662997
0.024494 -0.333957 -0.679402
0.024515 -0.332229 -0.695892
0.024544 -0.331184 -0.712629
0.024573 -0.330157 -0.729308
0.024581 -0.328525 -0.745233
0.024600 -0.327412 -0.761123
0.024588 -0.326550 -0.774861
0.024517 -0.325891 -0.783208
0.024517 -0.324307 -0.794494
0.024579 -0.321514 -0.811124
0.024682 -0.318600 -0.828354
0.024835 -0.315622 -0.846207
0.024923 -0.311898 -0.859830
0.024827 -0.308031 -0.867980
0.024720 -0.302286 -0.877984
0.024601 -0.295798 -0.891588
0.024570 -0.292594 -0.899908
0.024667 -0.293910 -1.001446
0.024607 -0.287806 -0.910409
0.024697 -0.281408 -0.928165
0.024787 -0.278000 -0.940217
0.024781 -0.274795 -0.948553
0.024624 -0.285416 -0.976376
0.024553 -0.283357 -0.991244
0.024563 -0.269651 -0.996284
0.024444 -0.253640 -0.990056
0.024296 -0.237878 -0.985038
0.024219 -0.206246 -0.977000
0.024240 -0.189379 -0.974523
0.024254 -0.172283 -0.973439
0.024260 -0.155710 -0.971596
0.024267 -0.139393 -0.970434
0.024276 -0.122956 -0.971021
0.024294 -0.106463 -0.971483
0.024328 -0.089966 -0.970848
0.024381 -0.073683 -0.970441
0.024444 -0.057675 -0.970797
0.024451 -0.041370 -0.970959
0.024399 -0.024667 -0.971008
0.024400 -0.008200 -0.971029
0.024464 0.007998 -0.971097
0.024507 0.024481 -0.971607
0.024539 0.041187 -0.972194
0.024595 0.057651 -0.972275
0.024627 0.073923 -0.972135
0.024532 0.090168 -0.972769
0.024367 0.106375 -0.974145
0.024276 0.122611 -0.974967
0.024261 0.139064 -0.974595
0.024313 0.155944 -0.973376
0.024368 0.172876 -0.972347
0.024357 0.189432 -0.972485
0.024392 0.206106 -0.972497
0.024570 0.223033 -0.971607
0.024747 0.239726 -0.970658
0.024823 0.256196 -0.970157
0.024837 0.272616 -0.971064
0.024829 0.289005 -0.973553
0.024817 0.305364 -0.976228
0.024692 0.320512 -0.635828
0.024777 0.321664 -0.978037
0.024619 0.335623 -0.635208
0.024748 0.337640 -0.979728
0.024620 0.351522 -0.635683
0.024763 0.353184 -0.982107
0.024596 0.367514 -0.637090
0.024789 0.368388 -0.984830
0.024558 0.378372 -0.638850
0.024804 0.377056 -0.986398
0.024840 0.386451 -0.986700
0.041502 -0.488040 0.941939
0.041363 -0.486390 0.927093
0.041323 -0.484168 0.910751
0.041349 -0.482771 0.893162
0.041196 -0.480874 0.878011
0.041014 -0.478611 0.863118
0.040885 -0.476851 0.846693
0.042074 -0.475144 0.828831
0.037499 -0.474393 0.817109
0.042148 -0.473130 0.812496
0.048335 -0.473702 0.822490
0.041005 -0.471096 0.797221
0.040971 -0.469019 0.780256
0.040957 -0.467506 0.763340
0.041015 -0.466073 0.747056
0.041041 -0.464539 0.730645
0.041040 -0.462862 0.713642
0.041061 -0.461815 0.696934
0.041120 -0.461515 0.680790
0.041113 -0.460693 0.664634
0.041024 -0.459179 0.648376
0.040256 -0.457804 0.631371
0.034329 -0.457477 0.622851
0.040344 -0.456349 0.616559
0.045208 -0.457200 0.625586
0.041145 -0.454623 0.598848
0.041025 -0.453562 0.582680
0.041040 -0.452277 0.566503
0.041119 -0.451021 0.550281
0.041082 -0.450095 0.533967
0.041020 -0.449248 0.517563
0.041073 -0.448119 0.501041
0.041155 -0.446951 0.484368
0.041161 -0.445808 0.467617
0.041173 -0.444577 0.450887
0.041253 -0.443362 0.434173
0.041261 -0.442227 0.417759
0.040246 -0.441321 0.403051
0.034103 -0.441094 0.392087
0.040134 -0.439880 0.386605
0.044982 -0.440579 0.399004
0.041063 -0.437922 0.369762
0.041014 -0.436050 0.353651
0.040880 -0.434371 0.337446
0.040821 -0.433023 0.321254
0.040853 -0.431729 0.305006
0.040856 -0.429750 0.288536
0.040836 -0.427526 0.271960
0.042235 -0.425802 0.254483
0.037805 -0.425287 0.239553
0.046071 -0.423776 0.239406
0.048692 -0.424505 0.248201
0.034459 -0.424855 0.228087
0.040362 -0.422556 0.222570
0.040992 -0.419945 0.205924
0.041035 -0.418372 0.189033
0.041058 -0.417096 0.172282
0.041110 -0.415338 0.155789
0.041152 -0.413537 0.139443
0.041143 -0.412038 0.123034
0.041134 -0.410574 0.106639
0.041335 -0.409091 0.091059
0.035261 -0.408524 0.074417
0.043519 -0.406761 0.073867
0.046971 -0.407584 0.085716
0.032949 -0.408224 0.066208
0.039496 -0.405884 0.059364
0.041039 -0.403494 0.041414
0.041065 -0.401795 0.025033
0.041064 -0.400287 0.008746
0.041013 -0.398903 -0.007472
0.040993 -0.397522 -0.023814
0.041011 -0.396187 -0.040309
0.041013 -0.394911 -0.056693
0.040990 -0.393721 -0.072990
0.041730 -0.392473 -0.090332
0.036751 -0.392040 -0.101281
0.041733 -0.390911 -0.106566
0.047764 -0.391610 -0.096793
0.040966 -0.388593 -0.122283
0.040985 -0.386275 -0.138765
0.041034 -0.384237 -0.155866
0.041094 -0.382475 -0.173062
0.041140 -0.380907 -0.189749
0.041114 -0.379437 -0.205656
0.040999 -0.378004 -0.220893
0.041751 -0.376355 -0.237361
0.036826 -0.375739 -0.247895
0.041802 -0.374297 -0.253040
0.047773 -0.375187 -0.243244
0.041024 -0.372184 -0.269233
0.040976 -0.370748 -0.285796
0.040969 -0.369142 -0.302248
0.041017 -0.367120 -0.318545
0.041018 -0.365524 -0.334781
0.040982 -0.364340 -0.351134
0.040992 -0.362821 -0.367539
0.041020 -0.360907 -0.383984
0.040530 -0.359477 -0.399237
0.034692 -0.359207 -0.410989
0.040490 -0.357611 -0.416612
0.045658 -0.358433 -0.403962
0.041013 -0.355068 -0.433380
0.041044 -0.352674 -0.449862
0.041024 -0.350856 -0.466293
0.041002 -0.349478 -0.482709
0.041024 -0.348256 -0.499113
0.041037 -0.347041 -0.515514
0.041011 -0.345569 -0.531914
0.042441 -0.343745 -0.549724
0.037961 -0.343088 -0.561752
0.042475 -0.342205 -0.566264
0.048881 -0.342533 -0.556183
0.041044 -0.340938 -0.581177
0.040998 -0.339106 -0.597553
0.040986 -0.337396 -0.613872
0.041024 -0.335932 -0.630171
0.041026 -0.334599 -0.646579
0.040992 -0.333273 -0.663076
0.040985 -0.332207 -0.679526
0.041003 -0.331106 -0.696012
0.041029 -0.330013 -0.712787
0.041055 -0.328849 -0.729460
0.041079 -0.327526 -0.745262
0.041340 -0.326643 -0.761347
0.035949 -0.326322 -0.772920
0.041255 -0.325719 -0.778081
0.046993 -0.326008 -0.766991
0.040994 -0.324191 -0.794287
0.041062 -0.321439 -0.810928
0.041165 -0.318321 -0.828129
0.041258 -0.315138 -0.846016
0.041314 -0.311585 -0.859024
0.041238 -0.307719 -0.867099
0.041174 -0.301527 -0.877731
0.041075 -0.295368 -0.889714
0.041054 -0.291781 -0.898007
0.041061 -0.294360 -1.001619
0.041071 -0.286530 -0.910017
0.041129 -0.280530 -0.927885
0.041191 -0.277579 -0.938847
0.041180 -0.274467 -0.947212
0.041017 -0.284972 -0.976241
0.040949 -0.283192 -0.991241
0.040973 -0.269688 -0.996402
0.040855 -0.253662 -0.990162
0.040707 -0.237866 -0.984953
0.040668 -0.206111 -0.975996
0.040704 -0.189234 -0.974050
0.040728 -0.172129 -0.973194
0.040723 -0.155511 -0.971526
0.040714 -0.139181 -0.970525
0.040717 -0.122853 -0.971322
0.040730 -0.106434 -0.971843
0.040748 -0.089883 -0.971114
0.040797 -0.073565 -0.970941
0.040880 -0.057611 -0.972033
0.040888 -0.041252 -0.972182
0.040814 -0.024342 -0.971099
0.040810 -0.007879 -0.970887
0.040893 0.008078 -0.971646
0.040970 0.024617 -0.971756
0.041030 0.041628 -0.971179
0.041072 0.058029 -0.971291
0.041046 0.073990 -0.971953
0.040901 0.090246 -0.972574
0.040710 0.106615 -0.973315
0.040627 0.122618 -0.974253
0.040654 0.138781 -0.974408
0.040784 0.155837 -0.973221
0.040910 0.172991 -0.971976
0.040909 0.189392 -0.971714
0.040930 0.205928 -0.971529
0.041113 0.222949 -0.970981
0.041262 0.239712 -0.970418
0.041256 0.256183 -0.969893
0.041217 0.272602 -0.970707
0.041208 0.288993 -0.973249
0.041199 0.305341 -0.975599
0.041205 0.320361 -0.636016
0.041150 0.321593 -0.977044
0.041127 0.335435 -0.635708
0.041117 0.337499 -0.978589
0.041120 0.351425 -0.636266
0.044167 0.351758 -0.671860
0.041130 0.353018 -0.980948
0.044817 0.360714 -0.672196
