0.779708 -0.319629 -0.210020
0.783271 -0.302384 -0.222210
0.768854 -0.285234 0.047778
0.779840 -0.285282 0.042354
0.775956 -0.291071 -0.222212
0.772990 -0.293472 -0.211399
0.780757 -0.285684 -0.234687
0.786947 -0.296834 -0.231537
0.779750 -0.268915 0.039130
0.765300 -0.268801 0.045562
0.779635 -0.252848 0.035943
0.778013 -0.255747 -0.251380
0.782713 -0.266360 -0.248294
0.778186 -0.270830 -0.243003
0.771748 -0.261264 -0.245474
0.779516 -0.237312 0.033919
0.779418 -0.222088 0.034768
0.779351 -0.206566 0.035296
0.779324 -0.196864 0.033885
0.779283 -0.188742 0.026305
0.779235 -0.181315 0.018479
0.779483 -0.190328 -0.240236
0.769703 -0.183396 -0.244900
0.775060 -0.194613 -0.250588
0.775595 -0.156842 0.170543
0.771555 -0.162743 0.174807
0.767052 -0.169441 0.169781
0.771851 -0.163071 0.163681
0.778642 -0.172952 0.008969
0.772742 -0.164521 0.003243
0.775319 -0.177661 -0.222557
0.767575 -0.169399 -0.222503
0.769567 -0.167179 -0.210563
0.778716 -0.174435 -0.204558
0.772650 -0.180437 -0.235175
0.773855 -0.140792 0.253073
0.769744 -0.146149 0.257380
0.765136 -0.154463 0.252428
0.771959 -0.148568 0.247007
0.766451 -0.153590 -0.001821
0.778097 -0.158530 -0.006585
0.772461 -0.148185 -0.012637
0.775726 -0.160067 -0.170973
0.768452 -0.151838 -0.170783
0.770066 -0.150221 -0.158483
0.775645 -0.156540 -0.153497
0.773462 -0.162939 -0.187736
0.765700 -0.154712 -0.187629
0.771576 -0.164994 -0.198793
0.772906 -0.124933 0.267730
0.770033 -0.124953 0.275308
0.767802 -0.140906 0.269842
0.772627 -0.136026 0.265363
0.773501 -0.147188 -0.022988
0.773827 -0.146658 -0.039552
0.773901 -0.146390 -0.056237
0.773819 -0.146283 -0.072896
0.764075 -0.138043 -0.073348
0.764998 -0.138193 -0.089415
0.773496 -0.146419 -0.088978
0.772823 -0.147020 -0.104870
0.765419 -0.138794 -0.105123
0.772190 -0.147736 -0.121118
0.765332 -0.139519 -0.121214
0.764469 -0.140458 -0.137558
0.771442 -0.148666 -0.137512
0.764291 -0.142905 -0.153355
0.770866 -0.149377 -0.147359
0.772059 -0.115319 0.266388
0.775610 -0.123392 0.189656
0.771140 -0.116842 0.173789
0.771099 -0.116854 0.184009
0.776692 -0.124988 0.173713
0.775612 -0.123313 0.158518
0.771238 -0.116785 0.165447
0.771482 -0.116366 0.154286
0.773954 -0.126608 0.108368
0.769901 -0.118429 0.108317
0.770903 -0.117062 0.117986
0.774531 -0.123499 0.123640
0.767986 -0.121920 0.092079
0.772275 -0.130162 0.092117
0.765341 -0.126311 0.076568
0.771181 -0.132664 0.082691
0.772408 -0.114837 0.255097
0.772000 -0.115596 0.239073
0.771495 -0.116324 0.222816
0.771279 -0.116576 0.206411
0.771222 -0.116686 0.194879
0.771527 -0.116259 0.140719
0.771356 -0.116491 0.128819
0.794826 -0.546567 0.022230
0.788598 -0.556743 0.019003
0.786114 -0.538450 0.033862
0.795971 -0.534619 0.030552
0.795990 -0.526473 0.034866
0.795998 -0.514850 0.036841
0.796073 -0.498449 0.039044
0.796139 -0.482042 0.040843
0.796138 -0.465648 0.041654
0.796116 -0.449270 0.041739
0.796098 -0.433002 0.041054
0.796049 -0.417084 0.038474
0.795952 -0.401591 0.034747
0.795987 -0.385861 0.032692
0.794729 -0.402746 -0.251218
0.788650 -0.396642 -0.244040
0.794779 -0.385770 -0.242183
0.799544 -0.390463 -0.247854
0.796161 -0.369542 0.033071
0.796308 -0.352437 0.035020
0.796768 -0.370675 -0.234763
0.791895 -0.365116 -0.225511
0.802820 -0.358144 -0.231662
0.795875 -0.353366 -0.221849
0.796377 -0.334987 0.037909
0.788884 -0.348648 -0.213042
0.790304 -0.335779 -0.212616
0.798532 -0.335786 -0.217814
0.796376 -0.318204 0.038671
0.795405 -0.319694 -0.221320
0.790216 -0.325592 -0.212792
0.796323 -0.301784 0.037305
0.789580 -0.307717 -0.228091
0.800552 -0.313743 -0.232284
0.795540 -0.302507 -0.234265
0.796210 -0.285449 0.036371
0.796056 -0.269319 0.035558
0.795051 -0.271870 -0.250686
0.800187 -0.282107 -0.247593
0.795266 -0.286924 -0.241865
0.789241 -0.277379 -0.244990
0.795964 -0.253723 0.034730
0.795930 -0.238497 0.034562
0.795871 -0.222923 0.035955
0.795790 -0.206875 0.036481
0.795736 -0.196493 0.034738
0.791009 -0.210937 -0.250657
0.779590 -0.206145 -0.254007
0.786302 -0.199667 -0.245034
0.795513 -0.206959 -0.239934
0.794026 -0.189260 0.024181
0.787465 -0.182375 0.017776
0.791477 -0.194461 -0.222746
0.783524 -0.186167 -0.222660
0.785833 -0.183754 -0.210268
0.795023 -0.191063 -0.204320
0.788809 -0.197177 -0.235313
0.790294 -0.179863 0.009705
0.783720 -0.168073 -0.000514
0.795669 -0.174462 -0.005852
0.789187 -0.163493 -0.011339
0.792834 -0.172649 -0.122570
0.786181 -0.167108 -0.137752
0.787186 -0.166123 -0.128920
0.792450 -0.175338 -0.137836
0.785033 -0.168233 -0.154408
0.791811 -0.176482 -0.154533
0.783988 -0.169176 -0.171204
0.791255 -0.177436 -0.171320
0.789470 -0.179749 -0.188106
0.781737 -0.171509 -0.187958
0.787859 -0.181688 -0.198593
0.790088 -0.162302 -0.022927
0.781775 -0.154084 -0.022970
0.789965 -0.162430 -0.039465
0.782089 -0.154203 -0.039509
0.782149 -0.154528 -0.056070
0.789568 -0.162767 -0.055934
0.788994 -0.163318 -0.072290
0.782070 -0.155084 -0.072548
0.781766 -0.155635 -0.088711
0.788603 -0.163859 -0.088539
0.788288 -0.164413 -0.104803
0.781104 -0.156195 -0.104822
0.787841 -0.165141 -0.117903
0.781765 -0.158913 -0.122508
0.804984 -0.540371 0.019129
0.807897 -0.529603 0.025082
0.810715 -0.513598 0.034278
0.804262 -0.523128 0.033912
0.812339 -0.498441 0.036876
0.812389 -0.482042 0.039461
0.812410 -0.465644 0.041059
0.812420 -0.449262 0.041631
0.812416 -0.432868 0.041272
0.812353 -0.416615 0.039880
0.812233 -0.400730 0.036832
0.812214 -0.385092 0.034358
0.812329 -0.369419 0.034480
0.804246 -0.379281 -0.244733
0.810546 -0.385612 -0.251188
0.815134 -0.374562 -0.248142
0.810716 -0.369685 -0.241911
0.812479 -0.352898 0.035126
0.812631 -0.335629 0.035251
0.811255 -0.352899 -0.234918
0.804996 -0.346346 -0.229849
0.815949 -0.339408 -0.233180
0.811450 -0.334426 -0.226959
0.813701 -0.318139 0.033730
0.810167 -0.302096 0.033106
0.812588 -0.287259 0.033578
0.811900 -0.287919 -0.249483
0.817368 -0.298631 -0.246999
0.812203 -0.303532 -0.241918
0.806578 -0.292952 -0.244349
0.812178 -0.270586 0.036006
0.812113 -0.255118 0.036345
0.812098 -0.239457 0.036070
0.812047 -0.223334 0.036837
0.811862 -0.206075 0.035480
0.809010 -0.222713 -0.239416
0.795744 -0.222925 -0.254019
0.802213 -0.216627 -0.244221
0.806254 -0.227902 -0.250319
0.806406 -0.198006 0.034203
0.808713 -0.206405 -0.204689
0.799634 -0.203249 -0.222863
0.802153 -0.200455 -0.210034
0.806722 -0.211541 -0.222887
0.804568 -0.214146 -0.234340
0.808459 -0.196782 0.025826
0.798461 -0.185901 0.009774
0.809957 -0.194158 0.009880
0.802106 -0.183542 -0.000340
0.810185 -0.189675 -0.006062
0.804668 -0.180867 -0.011201
0.808264 -0.189355 -0.104459
0.801999 -0.184053 -0.121297
0.803078 -0.182978 -0.109588
0.808538 -0.192297 -0.121243
0.807921 -0.193577 -0.137809
0.800643 -0.185329 -0.137907
0.807455 -0.194140 -0.154482
0.799993 -0.185885 -0.154612
0.806785 -0.194827 -0.171301
0.799435 -0.186582 -0.171374
0.797672 -0.188545 -0.188195
0.805242 -0.196780 -0.188240
0.804036 -0.198341 -0.198319
0.798330 -0.172034 -0.022952
0.805024 -0.180267 -0.022931
0.804798 -0.180547 -0.039499
0.798195 -0.172311 -0.039510
0.804506 -0.180950 -0.056017
0.797783 -0.172707 -0.055994
0.797214 -0.173355 -0.072361
0.804094 -0.181578 -0.072437
0.796827 -0.173754 -0.088597
0.803862 -0.181966 -0.088641
0.803789 -0.182152 -0.098650
0.797570 -0.175681 -0.104403
0.820973 -0.507285 0.032792
0.824343 -0.498435 0.033815
0.829791 -0.483151 0.035520
0.828690 -0.465642 0.039184
0.828730 -0.449249 0.040693
0.828747 -0.432845 0.040700
0.828700 -0.416470 0.039793
0.828610 -0.400240 0.038102
0.828557 -0.384347 0.036476
0.828579 -0.368962 0.036154
0.828680 -0.353060 0.035448
0.822344 -0.363518 -0.244337
0.827950 -0.369521 -0.250251
0.828184 -0.352380 -0.242957
0.833187 -0.357234 -0.246882
0.829801 -0.334941 0.032804
0.824998 -0.323869 0.031716
0.827649 -0.334986 -0.236544
0.821366 -0.327789 -0.230239
0.821367 -0.327323 -0.230236
0.827996 -0.320697 -0.238955
0.828991 -0.319883 0.030904
0.819713 -0.312471 0.031022
0.818153 -0.302404 0.030839
0.822480 -0.302667 0.030685
0.830588 -0.303315 0.032213
0.832964 -0.316039 0.031565
0.828639 -0.304522 -0.248455
0.834422 -0.314363 -0.246278
0.823578 -0.309631 -0.244216
0.821534 -0.293560 0.030853
0.818144 -0.293374 0.030993
0.827519 -0.288372 0.034130
0.828359 -0.271969 0.038042
0.828318 -0.256032 0.038624
0.828273 -0.239790 0.037803
0.829482 -0.222045 0.035677
0.828801 -0.239284 -0.224429
0.817843 -0.234165 -0.239316
0.819936 -0.231902 -0.230979
0.824980 -0.242516 -0.239284
0.811474 -0.240191 -0.252962
0.821866 -0.245835 -0.249104
0.824852 -0.210989 0.034575
0.825988 -0.222245 -0.188684
0.817805 -0.218087 -0.205394
0.819375 -0.215943 -0.194613
0.824323 -0.226333 -0.205395
0.815796 -0.223656 -0.224334
0.822027 -0.229348 -0.219516
0.827347 -0.208843 0.025614
0.816537 -0.200604 0.025704
0.826798 -0.208532 0.009940
0.818071 -0.200299 0.009904
0.819188 -0.199641 -0.006504
0.825954 -0.207857 -0.006510
0.825527 -0.207810 -0.023047
0.819339 -0.199607 -0.023027
0.818793 -0.200304 -0.039731
0.825031 -0.208528 -0.039764
0.818595 -0.200475 -0.056884
0.824948 -0.208737 -0.057003
0.818664 -0.200251 -0.074050
0.825160 -0.208521 -0.074251
0.824931 -0.208984 -0.089811
0.818279 -0.200732 -0.089688
0.824226 -0.210096 -0.104966
0.817437 -0.201844 -0.104962
0.823422 -0.211048 -0.121203
0.816658 -0.202802 -0.121228
0.822784 -0.211724 -0.137689
0.816019 -0.203477 -0.137747
0.815554 -0.203971 -0.154407
0.822215 -0.212216 -0.154329
0.821501 -0.213040 -0.171190
0.814905 -0.204813 -0.171237
0.814376 -0.208057 -0.188705
0.820684 -0.214201 -0.183394
0.845872 -0.483290 0.026551
0.835972 -0.489332 0.031443
0.832708 -0.499281 0.026291
0.840314 -0.494423 0.022201
0.845699 -0.466125 0.035479
0.840486 -0.478383 0.033704
0.845243 -0.449232 0.038882
0.845300 -0.432822 0.040019
0.845302 -0.416416 0.040046
0.845247 -0.400067 0.039581
0.845189 -0.383868 0.038856
0.845168 -0.368188 0.037349
0.845196 -0.352445 0.035002
0.845813 -0.334942 0.032194
0.837119 -0.345847 -0.245064
0.843531 -0.352544 -0.249516
0.839583 -0.336848 -0.243372
0.847785 -0.337119 -0.248122
0.840721 -0.328725 0.030826
0.835903 -0.328690 0.030844
0.840697 -0.327171 0.030836
0.845746 -0.321227 0.032308
0.845163 -0.320338 -0.248421
0.840151 -0.324960 -0.242962
0.845026 -0.304307 0.034915
0.844900 -0.288459 0.037282
0.844822 -0.272513 0.039585
0.844752 -0.256212 0.039879
0.845573 -0.238767 0.036729
0.840882 -0.259813 -0.239129
0.833086 -0.251401 -0.239170
0.835557 -0.249037 -0.229306
0.844675 -0.256341 -0.223194
0.827418 -0.256775 -0.251621
0.838065 -0.262605 -0.248360
0.840631 -0.226640 0.034779
0.842348 -0.238239 -0.173120
0.835082 -0.233014 -0.188216
0.836261 -0.231654 -0.179764
0.842314 -0.241240 -0.188502
0.839932 -0.244290 -0.205753
0.832526 -0.236033 -0.205512
0.837808 -0.246684 -0.218018
0.843067 -0.224100 0.025661
0.835546 -0.215875 0.025572
0.842472 -0.224800 0.009975
0.835015 -0.216572 0.009950
0.840901 -0.226017 -0.006522
0.834191 -0.217775 -0.006532
0.833763 -0.218421 -0.023085
0.840205 -0.226660 -0.023077
0.833245 -0.218850 -0.039805
0.839981 -0.227102 -0.039778
0.840025 -0.227129 -0.056947
0.833134 -0.218844 -0.057078
0.840202 -0.226807 -0.074184
0.833354 -0.218520 -0.074390
0.833139 -0.218827 -0.089894
0.840062 -0.227085 -0.089775
0.839328 -0.228193 -0.104933
0.832457 -0.219940 -0.104971
0.831673 -0.221235 -0.121227
0.838226 -0.229480 -0.121222
0.837441 -0.230342 -0.137711
0.831036 -0.222101 -0.137716
0.836968 -0.230792 -0.154410
0.830454 -0.222562 -0.154400
0.831042 -0.224799 -0.172971
0.836631 -0.231174 -0.168470
0.856125 -0.477304 0.021527
0.851520 -0.471901 0.030981
0.861691 -0.465854 0.025668
0.861842 -0.449054 0.034488
0.856491 -0.460962 0.033592
0.861781 -0.432800 0.037473
0.861816 -0.416397 0.039012
0.861775 -0.400024 0.039631
0.861747 -0.383711 0.039649
0.861739 -0.367663 0.038287
0.861701 -0.351908 0.035950
0.861642 -0.336334 0.033996
0.861544 -0.320856 0.034815
0.861395 -0.305080 0.037196
0.861272 -0.288949 0.038580
0.861158 -0.272643 0.038590
0.861050 -0.256664 0.035996
0.856500 -0.277072 -0.238820
0.849015 -0.268646 -0.239025
0.851486 -0.266082 -0.228190
0.860594 -0.273265 -0.222157
0.843746 -0.273468 -0.250490
0.853917 -0.279444 -0.247222
0.855651 -0.243585 0.035278
0.859354 -0.256740 -0.154663
0.852506 -0.248479 -0.154657
0.852881 -0.248165 -0.144682
0.858536 -0.254738 -0.138627
0.858918 -0.257393 -0.171636
0.851833 -0.249120 -0.171688
0.850547 -0.250603 -0.188906
0.857696 -0.258898 -0.188948
0.848126 -0.253272 -0.206137
0.855455 -0.261605 -0.206246
0.853723 -0.263605 -0.217085
0.857404 -0.241119 0.025603
0.851338 -0.232859 0.025776
0.850730 -0.233486 0.009984
0.857287 -0.241729 0.009990
0.849162 -0.234908 -0.006555
0.856360 -0.243164 -0.006588
0.848448 -0.235667 -0.023103
0.855867 -0.243921 -0.023121
0.848185 -0.236173 -0.039702
0.855597 -0.244434 -0.039608
0.855533 -0.244520 -0.056637
0.848208 -0.236231 -0.056768
0.855587 -0.244319 -0.073896
0.848420 -0.236037 -0.073995
0.848310 -0.236544 -0.089656
0.855248 -0.244803 -0.089565
0.847573 -0.237730 -0.104889
0.854497 -0.245975 -0.104815
0.846500 -0.238958 -0.121237
0.853670 -0.247178 -0.121204
0.847144 -0.241335 -0.138566
0.853225 -0.247785 -0.133516
0.877059 -0.448453 0.024364
0.867303 -0.454417 0.029344
0.871762 -0.459857 0.020502
0.877490 -0.431756 0.032826
0.871757 -0.443462 0.032095
0.878020 -0.416408 0.035445
0.878007 -0.400049 0.037189
0.878010 -0.383745 0.037817
0.878047 -0.367601 0.037591
0.877986 -0.352019 0.036758
0.877848 -0.336920 0.035794
0.877714 -0.321481 0.036068
0.877555 -0.305413 0.037003
0.877399 -0.289075 0.036084
0.876439 -0.274043 0.033423
0.876973 -0.289582 -0.220897
0.864553 -0.285997 -0.238390
0.867426 -0.282472 -0.227002
0.872261 -0.294393 -0.237626
0.859793 -0.290548 -0.248548
0.869135 -0.296902 -0.244927
0.870441 -0.262538 0.032646
0.877146 -0.272792 -0.104202
0.868471 -0.265433 -0.121229
0.868946 -0.264756 -0.110953
0.875682 -0.273700 -0.121198
0.874856 -0.274596 -0.137976
0.867849 -0.266306 -0.137971
0.867464 -0.266646 -0.154748
0.874891 -0.274963 -0.154755
0.874863 -0.275257 -0.171462
0.867023 -0.266920 -0.171583
0.873658 -0.276514 -0.188435
0.865786 -0.268152 -0.188787
0.863518 -0.270428 -0.206009
0.871388 -0.278800 -0.205564
0.869762 -0.280350 -0.215792
0.871472 -0.261158 0.024876
0.865489 -0.252830 0.025180
0.871632 -0.261090 0.009853
0.865395 -0.252798 0.009912
0.871265 -0.261746 -0.007186
0.864495 -0.253465 -0.006866
0.864010 -0.253853 -0.023445
0.870947 -0.262134 -0.023807
0.870557 -0.262532 -0.039904
0.863724 -0.254234 -0.039757
0.870491 -0.262693 -0.056979
0.863650 -0.254379 -0.056810
0.863701 -0.254440 -0.074122
0.870525 -0.262753 -0.074365
0.870017 -0.263351 -0.089770
0.863360 -0.255089 -0.089668
0.863776 -0.257619 -0.105261
0.869483 -0.264007 -0.100042
0.886692 -0.442580 0.019502
0.882441 -0.436508 0.027989
0.889604 -0.431669 0.024122
0.889259 -0.416416 0.032073
0.886619 -0.425564 0.031156
0.894827 -0.400362 0.033170
0.894269 -0.383742 0.035149
0.894321 -0.367595 0.035577
0.894267 -0.352260 0.035840
0.894121 -0.337378 0.035899
0.893942 -0.321742 0.035493
0.894287 -0.305074 0.033700
0.886386 -0.326685 -0.245218
0.877336 -0.321484 -0.248303
0.883123 -0.315910 -0.242937
0.890103 -0.321458 -0.236957
0.888393 -0.289044 0.032312
0.890011 -0.304639 -0.220014
0.880084 -0.304846 -0.237742
0.884121 -0.298467 -0.225745
0.887868 -0.309637 -0.232092
0.885661 -0.280515 0.031120
0.890250 -0.291280 -0.121189
0.883757 -0.283022 -0.121221
0.884726 -0.281693 -0.108295
0.890221 -0.287982 -0.103631
0.889484 -0.292508 -0.137947
0.882931 -0.284239 -0.138001
0.882982 -0.283998 -0.154751
0.889796 -0.292296 -0.154659
0.882954 -0.283726 -0.171276
0.890046 -0.292053 -0.171121
0.888894 -0.293358 -0.187431
0.881732 -0.285009 -0.187849
0.887107 -0.295289 -0.203764
0.879428 -0.286946 -0.204607
0.885921 -0.296574 -0.214464
0.879550 -0.271612 0.024639
0.886204 -0.279869 0.024550
0.886370 -0.279635 0.009603
0.879714 -0.271397 0.009673
0.879397 -0.271826 -0.007660
0.886085 -0.280051 -0.007984
0.879090 -0.271863 -0.024389
0.886083 -0.280099 -0.024806
0.886123 -0.280024 -0.040560
0.878691 -0.271773 -0.040272
0.878610 -0.271613 -0.057246
0.886172 -0.279891 -0.057397
0.878635 -0.271601 -0.074552
0.886142 -0.279891 -0.074577
0.885780 -0.280378 -0.089794
0.878147 -0.272138 -0.089830
0.885474 -0.280764 -0.097466
0.902649 -0.424621 -0.015057
0.902288 -0.424430 -0.003327
0.896770 -0.431181 -0.008328
0.907960 -0.417890 -0.008278
0.904982 -0.412737 0.021188
0.900550 -0.405948 0.029571
0.897823 -0.417446 0.025125
0.910095 -0.399805 0.024730
0.910232 -0.382644 0.032265
0.904492 -0.395032 0.031693
0.910690 -0.367517 0.033588
0.910651 -0.352416 0.034794
0.910487 -0.337631 0.035109
0.910107 -0.321849 0.033051
0.904360 -0.310383 0.032028
0.902375 -0.326711 -0.213873
0.898801 -0.321531 -0.219791
0.900843 -0.316209 -0.208404
0.903467 -0.321491 -0.202941
0.906266 -0.307322 0.024607
0.900268 -0.298990 0.024550
0.901145 -0.297853 0.009607
0.907199 -0.306113 0.009779
0.900854 -0.298252 -0.007984
0.907955 -0.306511 -0.007816
0.901048 -0.298037 -0.024894
0.908209 -0.306293 -0.024789
0.907673 -0.305957 -0.040616
0.901330 -0.297688 -0.040702
0.901410 -0.297571 -0.057335
0.907218 -0.305856 -0.057227
0.906354 -0.306386 -0.074021
0.901044 -0.298089 -0.074234
0.905447 -0.307500 -0.089352
0.900380 -0.299238 -0.089514
0.899535 -0.300670 -0.104728
0.904748 -0.308908 -0.104674
0.904292 -0.309988 -0.121102
0.898436 -0.301735 -0.121164
0.904078 -0.310416 -0.137726
0.897669 -0.302139 -0.137861
0.904138 -0.310025 -0.154331
0.897975 -0.301731 -0.154510
0.898211 -0.301608 -0.170901
0.903986 -0.309928 -0.170704
0.897066 -0.303116 -0.187150
0.903055 -0.311435 -0.186898
0.902259 -0.312897 -0.197256
0.896063 -0.306644 -0.203295
0.925206 -0.381791 0.023511
0.915326 -0.387313 0.028176
0.920254 -0.393749 0.019713
0.921799 -0.367635 0.031757
0.919539 -0.376417 0.031224
0.925093 -0.352850 0.032661
0.924342 -0.337943 0.032773
0.920884 -0.327483 0.031940
0.923756 -0.325426 0.024600
0.914475 -0.317139 0.024659
0.924943 -0.324598 0.009900
0.915393 -0.316335 0.009949
0.916213 -0.315896 -0.007615
0.924926 -0.324168 -0.007396
0.925565 -0.323870 -0.024637
0.916470 -0.315598 -0.024639
0.915893 -0.316181 -0.040472
0.925460 -0.324488 -0.041127
0.915478 -0.317050 -0.057050
0.924464 -0.325398 -0.057298
0.921679 -0.327257 -0.073105
0.914712 -0.319003 -0.073646
0.914712 -0.322779 -0.090244
0.919366 -0.328922 -0.085718
0.935446 -0.376315 0.018656
0.929677 -0.367906 0.027327
0.937151 -0.368124 0.020545
0.932946 -0.353351 0.029839
0.938772 -0.353587 0.022755
0.937415 -0.341496 0.021604
0.932324 -0.336966 0.025659
0.939088 -0.339649 0.009360
0.933082 -0.331496 0.009762
0.939555 -0.339717 -0.007116
0.933075 -0.331617 -0.007254
0.940602 -0.339138 -0.024627
0.933699 -0.331030 -0.024770
0.933593 -0.330951 -0.042035
0.944009 -0.340508 -0.043576
0.932512 -0.332856 -0.057636
0.941827 -0.341994 -0.056344
0.935719 -0.343645 -0.065276
0.928771 -0.337936 -0.071764
0.951713 -0.359039 -0.032596
0.948280 -0.353800 -0.025570
0.946285 -0.367046 -0.025360
0.951776 -0.361564 -0.032550
0.951710 -0.354002 -0.043772
0.950344 -0.349267 -0.039046
0.951182 -0.346249 -0.050370
0.951172 -0.346255 -0.051221
-0.978596 0.388253 -0.170252
-0.981471 0.390623 -0.179043
-0.911178 0.368008 -0.255751
-0.911303 0.383640 -0.254830
-0.894867 0.367494 -0.259492
-0.882959 0.339111 -0.261082
-0.878379 0.367551 -0.256707
-0.879582 0.383218 -0.256688
-0.885883 0.388204 -0.260875
-0.884723 0.400006 -0.260852
-0.876566 0.400045 -0.257916
-0.860670 0.190651 0.286805
-0.860690 0.191890 0.271154
-0.860701 0.192238 0.255482
-0.860695 0.191793 0.239161
-0.860639 0.191503 0.222333
-0.860905 0.226440 -0.022715
-0.861007 0.225607 -0.039673
-0.866293 0.324065 -0.261039
-0.861782 0.351381 -0.255088
-0.861729 0.367728 -0.250818
-0.861096 0.399214 -0.251219
-0.854716 0.393142 -0.244700
-0.862036 0.413965 -0.258900
-0.862092 0.422042 -0.260853
-0.844519 0.210752 0.008992
-0.844520 0.214990 0.001109
-0.844338 0.223845 -0.007178
-0.844467 0.210056 -0.073280
-0.844405 0.207816 -0.088869
-0.844276 0.206883 -0.104730
-0.838826 0.233965 -0.012307
-0.844473 0.224962 -0.040205
-0.845221 0.303375 -0.263157
-0.845228 0.334733 -0.255425
-0.847706 0.367700 -0.246416
-0.839163 0.367617 -0.243998
-0.844877 0.394387 -0.244063
-0.845148 0.402639 -0.248609
-0.846800 0.418043 -0.256112
-0.853299 0.424195 -0.260722
-0.846921 0.433951 -0.260951
-0.842318 0.429360 -0.258941
-0.827863 0.158638 0.336004
-0.827893 0.174207 0.289095
-0.827957 0.176360 0.272510
-0.832666 0.212377 0.009362
-0.824087 0.222217 0.008210
-0.836237 0.215205 0.001647
-0.832819 0.223462 -0.000752
-0.827794 0.205692 -0.074333
-0.827024 0.235865 -0.006743
-0.820784 0.232443 0.002420
-0.827880 0.228423 -0.040639
-0.828652 0.287475 -0.265384
-0.828247 0.367505 -0.241612
-0.828229 0.383858 -0.242105
-0.826762 0.400008 -0.243916
-0.831461 0.405252 -0.246427
-0.827308 0.415576 -0.249196
-0.820337 0.408893 -0.244990
-0.829725 0.434282 -0.257216
-0.835711 0.440164 -0.260859
-0.829783 0.449132 -0.261688
-0.824772 0.443761 -0.259847
-0.811457 0.163805 0.310136
-0.810297 0.173183 0.301444
-0.811371 0.158970 0.237979
-0.812738 0.177249 0.289043
-0.804635 0.183670 0.288993
-0.804140 0.183513 0.297991
-0.811349 0.193156 -0.105089
-0.811297 0.203794 -0.074666
-0.811678 0.224668 0.010066
-0.811657 0.233039 0.002694
-0.811707 0.236291 -0.006424
-0.812117 0.271681 -0.265871
-0.812323 0.318245 -0.252219
-0.811905 0.350948 -0.240406
-0.811784 0.367418 -0.239044
-0.811775 0.383846 -0.241127
-0.811841 0.400428 -0.243181
-0.811923 0.411202 -0.244851
-0.812085 0.419623 -0.247130
-0.812384 0.433376 -0.252362
-0.812957 0.449365 -0.258110
-0.818619 0.454534 -0.261400
-0.813064 0.466604 -0.261715
-0.807843 0.461926 -0.259531
-0.795016 0.153290 0.316452
-0.795069 0.161504 0.310056
-0.795200 0.190612 0.030117
-0.795732 0.255620 -0.266982
-0.795940 0.302571 -0.255105
-0.795480 0.350895 -0.238660
-0.795381 0.367370 -0.238130
-0.795366 0.383837 -0.240516
-0.795359 0.400389 -0.242547
-0.795378 0.414819 -0.244670
-0.795483 0.423119 -0.246269
-0.795750 0.433351 -0.249239
-0.796159 0.449537 -0.253917
-0.797221 0.466794 -0.258177
-0.803282 0.472739 -0.260868
-0.797309 0.483311 -0.261077
-0.792416 0.478755 -0.259712
-0.778949 0.141371 0.027617
-0.778945 0.157778 0.025555
-0.778929 0.174192 0.024466
-0.779325 0.239417 -0.269690
-0.779372 0.255059 -0.266159
-0.779400 0.286636 -0.256579
-0.779308 0.302416 -0.251336
-0.779102 0.334446 -0.240739
-0.779013 0.350898 -0.238369
-0.773711 0.368659 -0.081551
-0.778967 0.367336 -0.238255
-0.776392 0.385783 -0.089905
-0.773077 0.385265 -0.081545
-0.778960 0.383760 -0.240031
-0.777828 0.402518 -0.090290
-0.773727 0.401984 -0.081910
-0.778941 0.400261 -0.242064
-0.773317 0.418704 -0.082780
-0.778938 0.415085 -0.244415
-0.771555 0.428061 -0.083399
-0.779042 0.423424 -0.245869
-0.779207 0.433198 -0.247890
-0.779505 0.449481 -0.251571
-0.779790 0.465840 -0.255253
-0.781179 0.483474 -0.258775
-0.787454 0.489603 -0.260692
-0.781187 0.499115 -0.260852
-0.776492 0.494229 -0.259934
-0.762671 0.206949 -0.267714
-0.762840 0.223152 -0.270771
-0.762967 0.239082 -0.268514
-0.762837 0.286216 -0.252379
-0.762586 0.334472 -0.239778
-0.762541 0.350933 -0.238780
-0.761752 0.368649 -0.081148
-0.762532 0.367345 -0.238846
-0.761764 0.385111 -0.081201
-0.762551 0.383717 -0.239751
-0.761768 0.401707 -0.081377
-0.762562 0.400168 -0.241382
-0.761775 0.418432 -0.082374
-0.762715 0.417271 -0.243861
-0.761786 0.427889 -0.083392
-0.768363 0.423177 -0.245523
-0.763011 0.433190 -0.246407
-0.757380 0.427537 -0.244783
-0.762911 0.449444 -0.249304
-0.763153 0.465881 -0.252439
-0.763386 0.482346 -0.255371
-0.764520 0.499378 -0.258459
-0.770665 0.505047 -0.260864
-0.767097 0.514922 -0.261151
-0.758956 0.514964 -0.259805
-0.745885 0.077356 0.173982
-0.745798 0.104775 0.334130
-0.746151 0.112648 -0.199510
-0.746105 0.120854 -0.208032
-0.745958 0.129080 -0.216365
-0.745793 0.138076 -0.225834
-0.745797 0.146380 -0.234742
-0.745938 0.153506 -0.242196
-0.746088 0.161894 -0.250082
-0.746204 0.170038 -0.257313
-0.746288 0.178205 -0.263098
-0.746336 0.190562 -0.267890
-0.746396 0.206846 -0.269988
-0.746488 0.223007 -0.267979
-0.746420 0.269794 -0.252171
-0.748599 0.285145 0.304851
-0.748237 0.285148 0.288085
-0.748416 0.285141 0.270910
-0.746794 0.285142 0.254372
-0.746188 0.318172 -0.240692
-0.746143 0.334526 -0.239524
-0.746033 0.351027 -0.239678
-0.746027 0.367440 -0.239771
-0.746107 0.383753 -0.239747
-0.746161 0.400169 -0.240345
-0.746215 0.416669 -0.241698
-0.746713 0.433076 -0.243950
-0.752536 0.438497 -0.245730
-0.749399 0.449532 -0.246843
-0.740920 0.449638 -0.245389
-0.745163 0.467172 -0.247969
-0.738393 0.462342 -0.246123
-0.746608 0.482628 -0.250356
-0.746808 0.498976 -0.253226
-0.747029 0.515186 -0.256281
-0.747811 0.530133 -0.259233
-0.753695 0.534573 -0.260851
-0.747225 0.564061 -0.254672
-0.729669 0.081646 -0.181331
-0.729296 0.090587 0.305151
-0.730035 0.190449 -0.270622
-0.730043 0.206648 -0.267925
-0.729486 0.252325 0.351967
-0.728249 0.252333 0.336788
-0.728778 0.252345 0.321135
-0.730289 0.252344 0.305032
-0.730016 0.252345 0.288319
-0.729981 0.254055 -0.252497
-0.732893 0.268738 0.222616
-0.732040 0.268746 0.204655
-0.730319 0.268749 0.187776
-0.729895 0.269616 -0.248357
-0.729752 0.318170 -0.241178
-0.729688 0.334557 -0.240643
-0.729553 0.351074 -0.241505
-0.729573 0.367469 -0.241515
-0.729726 0.383762 -0.240659
-0.729818 0.400168 -0.240371
-0.729867 0.416656 -0.240729
-0.729923 0.433126 -0.242028
-0.729928 0.449573 -0.243866
-0.731455 0.467164 -0.245307
-0.737911 0.473451 -0.246321
-0.731502 0.483339 -0.246918
-0.726971 0.478044 -0.245669
-0.730159 0.499057 -0.249401
-0.730435 0.515293 -0.252655
-0.730633 0.531556 -0.255956
-0.730810 0.547819 -0.258413
-0.730899 0.564107 -0.258022
-0.730872 0.580464 -0.253484
-0.713070 0.079210 0.271166
-0.713508 0.081242 0.014676
-0.713069 0.119481 -0.012955
-0.713686 0.174003 -0.272952
-0.713677 0.190112 -0.269911
-0.715789 0.235941 0.255407
-0.714269 0.235943 0.239630
-0.713553 0.235947 0.222641
-0.712602 0.235948 0.204538
-0.713489 0.238396 -0.253477
-0.713396 0.253768 -0.249518
-0.713367 0.269393 -0.247680
-0.713399 0.285589 -0.247990
-0.708252 0.361790 -0.083347
-0.713563 0.400129 -0.241894
-0.713587 0.416620 -0.241523
-0.713606 0.433042 -0.241393
-0.713569 0.449433 -0.241823
-0.713504 0.465939 -0.243188
-0.713459 0.479078 -0.244950
-0.713531 0.487493 -0.246365
-0.713666 0.498838 -0.248426
-0.713859 0.515160 -0.251460
-0.714048 0.531585 -0.254209
-0.714246 0.547927 -0.256950
-0.714385 0.564185 -0.258933
-0.714445 0.580517 -0.258396
-0.714392 0.596876 -0.254182
-0.696713 0.041847 0.222372
-0.696570 0.041816 0.204398
-0.696834 0.064217 -0.183485
-0.696778 0.070337 -0.191900
-0.696571 0.087838 0.299804
-0.689837 0.108122 0.269332
-0.689520 0.102407 0.280383
-0.688821 0.116921 0.262469
-0.697009 0.129236 -0.263317
-0.697097 0.141365 -0.269390
-0.697237 0.157674 -0.273466
-0.697329 0.173832 -0.271484
-0.701459 0.203144 0.305400
-0.699580 0.203144 0.288727
-0.695359 0.203125 0.238728
-0.695630 0.203135 0.221648
-0.697036 0.222141 -0.253602
-0.696951 0.238199 -0.249857
-0.696892 0.253640 -0.247412
-0.696893 0.269384 -0.247137
-0.696940 0.285711 -0.249037
-0.696888 0.302010 -0.249265
-0.696778 0.318214 -0.247447
-0.696777 0.334535 -0.246721
-0.696857 0.350955 -0.247035
-0.697271 0.400121 -0.242855
-0.697262 0.416605 -0.242367
-0.697273 0.432994 -0.241288
-0.697247 0.449336 -0.240448
-0.697164 0.465792 -0.241411
-0.697373 0.482365 -0.243664
-0.703137 0.487976 -0.245842
-0.700682 0.498719 -0.246845
-0.692101 0.498763 -0.244379
-0.696424 0.515792 -0.247870
-0.689939 0.510592 -0.244994
-0.697329 0.531620 -0.250511
-0.696416 0.547767 0.041896
-0.697549 0.548015 -0.253813
-0.697762 0.564269 -0.257218
-0.697935 0.580568 -0.259115
-0.698005 0.596911 -0.258723
-0.697899 0.613297 -0.253543
-0.680693 0.031306 0.046768
-0.680693 0.039143 0.038458
-0.680387 0.040913 0.238729
-0.680620 0.047420 0.028193
-0.680492 0.054056 0.018619
-0.687066 0.065939 0.271428
-0.683155 0.075784 0.270829
-0.680543 0.085177 0.297779
-0.680827 0.141317 -0.273382
-0.680886 0.157592 -0.270969
-0.682106 0.203143 0.170339
-0.680605 0.205852 -0.251477
-0.680345 0.219570 0.153953
-0.680509 0.222213 -0.248341
-0.680469 0.238214 -0.246844
-0.680510 0.253676 -0.246009
-0.680494 0.269592 -0.246135
-0.680387 0.286226 -0.247297
-0.680293 0.302533 -0.247970
-0.680241 0.318458 -0.247827
-0.680276 0.334643 -0.247661
-0.680460 0.351040 -0.247463
-0.680875 0.383796 -0.243568
-0.680951 0.400232 -0.242765
-0.680909 0.416658 -0.242666
-0.680928 0.432994 -0.241360
-0.680941 0.449314 -0.239795
-0.680828 0.465731 -0.239708
-0.680642 0.482236 -0.240449
-0.680500 0.498728 -0.240997
-0.681814 0.515719 -0.242419
-0.688300 0.521580 -0.245780
-0.686792 0.531685 -0.246634
-0.678348 0.531725 -0.242507
-0.683369 0.548080 -0.248698
-0.674733 0.548107 -0.244648
-0.679571 0.562957 -0.250989
-0.672465 0.556304 -0.246396
-0.681388 0.580621 -0.255524
-0.681528 0.596987 -0.257890
-0.681554 0.613359 -0.256859
-0.663704 0.011142 0.351975
-0.664139 0.010737 0.075841
-0.664203 0.015864 0.062281
-0.664225 0.021440 0.053950
-0.664090 0.025649 -0.137479
-0.664472 0.141201 -0.271985
-0.664201 0.189732 -0.251199
-0.664086 0.205863 -0.247305
-0.664049 0.222086 -0.246704
-0.664038 0.238016 -0.246873
-0.664073 0.253564 -0.246484
-0.664030 0.269614 -0.246504
-0.663857 0.286393 -0.247241
-0.663783 0.302703 -0.248017
-0.663839 0.318532 -0.248597
-0.663970 0.334708 -0.248552
-0.664226 0.351098 -0.247915
-0.664551 0.400402 -0.242970
-0.664512 0.416778 -0.243334
-0.664506 0.433037 -0.242205
-0.664509 0.449320 -0.240481
-0.664409 0.465726 -0.239788
-0.664213 0.482202 -0.239563
-0.664021 0.498668 -0.239206
-0.663938 0.515098 -0.239567
-0.664879 0.580617 -0.252197
-0.664989 0.597048 -0.255412
-0.665109 0.613429 -0.257302
-0.669490 0.617477 0.058511
-0.665211 0.629735 -0.256396
-0.647728 -0.002211 0.096039
-0.647808 0.003545 0.087732
-0.647755 0.008780 0.075084
-0.648575 0.137568 0.272346
-0.647767 0.173510 -0.251563
-0.647628 0.189575 -0.247540
-0.647583 0.205560 -0.246790
-0.647615 0.221682 -0.248477
-0.647605 0.237652 -0.249526
-0.647538 0.253358 -0.248633
-0.647464 0.269438 -0.248233
-0.647376 0.286028 -0.249078
-0.647419 0.302326 -0.249763
-0.647621 0.318341 -0.249936
-0.647869 0.334615 -0.249528
-0.648150 0.351093 -0.248611
-0.648210 0.367586 -0.246524
-0.647915 0.449346 -0.242433
-0.647869 0.465735 -0.241662
-0.647783 0.482165 -0.241303
-0.647677 0.498563 -0.240978
-0.648354 0.547719 -0.249979
-0.648457 0.564122 -0.249875
-0.648470 0.580546 -0.250431
-0.648509 0.597052 -0.253044
-0.648623 0.613491 -0.256129
-0.648745 0.629798 -0.258483
-0.648780 0.646148 -0.256929
-0.631237 -0.033503 0.256166
-0.631206 -0.025314 0.141279
-0.631174 -0.022111 0.125011
-0.631219 -0.017582 0.108564
-0.631243 -0.014360 0.100124
-0.631209 -0.006190 0.091317
-0.631187 0.002397 0.082238
-0.631087 -0.001530 -0.025962
-0.631214 -0.002956 -0.042228
-0.631312 -0.006671 -0.057848
-0.631093 0.007470 0.073246
-0.631676 0.015692 0.055656
-0.637610 0.017998 0.046870
-0.631691 0.021555 0.040948
-0.626696 0.020130 0.049854
-0.631250 0.011134 -0.154010
-0.631113 0.025277 0.023991
-0.632089 0.106870 0.255150
-0.625834 0.121468 0.313182
-0.636525 0.121933 0.237707
-0.635037 0.122235 0.220222
-0.633525 0.122421 0.203597
-0.631836 0.122167 0.187092
-0.627876 0.121863 0.170907
-0.635850 0.137659 0.219971
-0.634090 0.137735 0.203362
-0.631969 0.137661 0.186932
-0.628299 0.137555 0.170728
-0.631394 0.156877 -0.252551
-0.631280 0.173271 -0.247604
-0.631214 0.189335 -0.245618
-0.631203 0.205348 -0.246290
-0.631186 0.221669 -0.248814
-0.631127 0.237795 -0.250328
-0.631042 0.253467 -0.249695
-0.631012 0.269419 -0.249491
-0.631028 0.285847 -0.250472
-0.631177 0.302166 -0.251061
-0.631479 0.318329 -0.250755
-0.631778 0.334697 -0.249914
-0.632015 0.351304 -0.248633
-0.631973 0.367844 -0.246633
-0.632035 0.372891 0.107460
-0.637661 0.374862 0.099325
-0.631883 0.380802 0.091241
-0.626489 0.376303 0.100626
-0.631595 0.397499 -0.243682
-0.631590 0.405811 -0.244586
-0.631551 0.417180 -0.245363
-0.632041 0.531286 -0.249036
-0.632300 0.547680 -0.250071
-0.632229 0.564096 -0.248285
-0.632090 0.580523 -0.247653
-0.632012 0.597045 -0.249627
-0.632072 0.613512 -0.253057
-0.632221 0.629842 -0.256825
-0.632342 0.646183 -0.258538
-0.632373 0.662547 -0.256742
-0.614769 -0.034720 0.255565
-0.614740 -0.036303 0.239396
-0.614755 -0.036770 0.222994
-0.614795 -0.036632 0.206522
-0.614769 -0.036173 0.189985
-0.614722 -0.034943 0.173510
-0.614588 -0.023501 0.286473
-0.614651 -0.022358 0.124341
-0.614611 -0.016740 0.109918
-0.614559 -0.012580 0.100994
-0.614369 -0.004355 0.089842
-0.614252 0.002558 0.080798
-0.614905 -0.007074 -0.025192
-0.614882 -0.009372 -0.041679
-0.614839 -0.004280 -0.121149
-0.614258 0.008604 0.072017
-0.614293 0.016257 0.060264
-0.614381 0.022566 0.052402
-0.614540 0.023445 0.040720
-0.618124 0.121483 0.321040
-0.615037 0.140384 -0.251763
-0.607065 0.150000 0.123453
-0.607489 0.154262 0.086923
-0.614926 0.156622 -0.248074
-0.610485 0.170805 0.071944
-0.614880 0.172898 -0.246352
-0.613235 0.186787 0.107195
-0.614911 0.189005 -0.245389
-0.614892 0.205260 -0.245864
-0.614701 0.221972 -0.248038
-0.614559 0.238307 -0.249692
-0.614553 0.253774 -0.249894
-0.614598 0.269493 -0.250202
-0.614700 0.285866 -0.251112
-0.614962 0.302217 -0.251397
-0.615376 0.318513 -0.251120
-0.615654 0.335061 -0.249999
-0.615731 0.351920 -0.248147
-0.615640 0.368443 -0.246303
-0.615183 0.373178 0.109452
-0.615034 0.376786 0.100352
-0.614881 0.382056 0.088704
-0.615296 0.395530 -0.243972
-0.614966 0.402540 0.204334
-0.615217 0.403809 -0.244763
-0.615114 0.417389 -0.245747
-0.615021 0.433428 -0.246104
-0.615016 0.449465 -0.246376
-0.615132 0.465763 -0.247972
-0.615298 0.482142 -0.249693
-0.615448 0.498533 -0.250292
-0.615639 0.514904 -0.249944
-0.615896 0.531284 -0.248737
-0.620800 0.564084 -0.245640
-0.612549 0.564100 -0.244104
-0.621844 0.580516 -0.245575
-0.613544 0.580536 -0.244134
-0.618025 0.597020 -0.246405
-0.609568 0.597023 -0.244778
-0.614039 0.612162 -0.247997
-0.607202 0.605498 -0.245221
-0.615661 0.629858 -0.252139
-0.615852 0.646224 -0.255425
-0.615948 0.662622 -0.257366
-0.615965 0.678988 -0.255377
-0.603005 -0.032848 0.254913
-0.594786 -0.026458 0.254282
-0.599937 -0.034218 0.239106
-0.591751 -0.029235 0.238819
-0.596732 -0.033939 0.207018
-0.598822 -0.034315 0.189854
-0.590675 -0.030362 0.189536
-0.590227 -0.030770 0.201855
-0.600341 -0.033558 0.173471
-0.592155 -0.029167 0.173055
-0.603491 -0.032149 0.157088
-0.595272 -0.027046 0.156342
-0.605853 -0.031109 0.147970
-0.599451 -0.024437 0.140763
-0.602801 -0.017458 0.285376
-0.598696 -0.017269 0.124213
-0.604589 -0.015507 0.112577
-0.597615 -0.005926 0.105029
-0.593498 -0.010861 0.119013
-0.598580 -0.021192 -0.072930
-0.598569 -0.019942 -0.088953
-0.601674 -0.000963 0.091846
-0.596746 0.005912 0.087080
-0.590721 0.003304 0.098229
-0.597725 0.011736 0.071922
-0.598696 0.124136 -0.252038
-0.598514 0.140032 -0.247598
-0.597964 0.154218 0.091469
-0.598469 0.156161 -0.246466
-0.598451 0.172450 -0.246579
-0.598446 0.188652 -0.245917
-0.598389 0.205018 -0.246245
-0.598191 0.221774 -0.248507
-0.598074 0.238097 -0.250414
-0.598135 0.253604 -0.250990
-0.598286 0.269373 -0.251403
-0.598503 0.285702 -0.251933
-0.598822 0.302054 -0.251509
-0.599193 0.318427 -0.250631
-0.599310 0.335222 -0.249105
-0.599165 0.352575 -0.247074
-0.599013 0.369176 -0.245631
-0.598380 0.369597 0.122083
-0.598282 0.373404 0.106844
-0.598184 0.376589 0.098243
-0.598103 0.380875 0.088326
-0.598810 0.393965 -0.244152
-0.598555 0.395773 0.252492
-0.598517 0.399037 0.237060
-0.598455 0.399253 0.221111
-0.598441 0.396850 0.204296
-0.598465 0.396656 0.188224
-0.598732 0.402244 -0.245085
-0.598650 0.417536 -0.246633
-0.598608 0.433506 -0.247751
-0.598668 0.449491 -0.248993
-0.598863 0.465763 -0.251145
-0.599108 0.482123 -0.252685
-0.599315 0.498507 -0.252274
-0.599475 0.514891 -0.250438
-0.599591 0.531280 -0.247523
-0.599423 0.564087 -0.241966
-0.599215 0.580518 -0.241492
-0.599037 0.596966 -0.242564
-0.598052 0.611939 -0.244278
-0.603056 0.616519 -0.246191
-0.598410 0.629433 -0.247507
-0.592118 0.623413 -0.244960
-0.599320 0.646234 -0.251399
-0.599427 0.662697 -0.255000
-0.594641 0.675609 0.022765
-0.599524 0.679069 -0.256723
-0.599587 0.695367 -0.255104
-0.590111 -0.030862 0.212974
-0.584417 -0.024167 0.206201
-0.586431 -0.018202 0.253567
-0.583850 -0.020946 0.238262
-0.575657 -0.011009 0.237526
-0.574716 -0.012621 0.221220
-0.574841 -0.012435 0.204266
-0.582998 -0.022093 0.188837
-0.574815 -0.012540 0.187979
-0.583458 -0.020904 0.172430
-0.575263 -0.012006 0.171631
-0.585211 -0.018796 0.155439
-0.576971 -0.009750 0.154694
-0.588073 -0.015968 0.138236
-0.578941 -0.005395 0.137367
-0.589737 -0.014459 0.129592
-0.585590 -0.005686 0.122893
-0.581782 -0.023650 -0.137577
-0.581866 -0.021205 -0.153965
-0.576328 0.006623 0.121165
-0.573957 0.003157 0.131373
-0.587553 0.000173 0.109260
-0.580865 0.010635 0.104817
-0.584933 0.014717 0.088316
-0.576755 0.021425 0.088334
-0.574222 0.019603 0.100450
-0.582318 0.107914 -0.252281
-0.580497 0.138138 -0.245749
-0.573832 0.131603 -0.244773
-0.582011 0.155682 -0.246800
-0.581990 0.172073 -0.247794
-0.581877 0.188371 -0.247162
-0.581764 0.204704 -0.247422
-0.581700 0.221160 -0.250040
-0.581729 0.237324 -0.252258
-0.581867 0.253119 -0.252861
-0.582092 0.269147 -0.252941
-0.582403 0.285486 -0.252864
-0.582690 0.301843 -0.251450
-0.582872 0.318200 -0.248971
-0.582755 0.335173 -0.246715
-0.582419 0.352999 -0.245450
-0.582226 0.369801 -0.244891
-0.581650 0.368722 0.137719
-0.581525 0.368292 0.121151
-0.582176 0.393349 -0.244235
-0.581927 0.397281 0.252421
-0.581851 0.399485 0.236585
-0.581821 0.399011 0.220416
-0.581815 0.395943 0.203717
-0.581798 0.394029 0.187613
-0.582158 0.401626 -0.245445
-0.582173 0.417632 -0.247724
-0.582231 0.433541 -0.249825
-0.582372 0.449490 -0.251909
-0.582636 0.465751 -0.253883
-0.582911 0.482111 -0.254369
-0.583077 0.498488 -0.252174
-0.583155 0.514874 -0.248755
-0.582966 0.564085 -0.239596
-0.582829 0.580501 -0.238769
-0.582716 0.596925 -0.239466
-0.582675 0.613351 -0.241289
-0.582960 0.629237 -0.243836
-0.588710 0.634403 -0.246170
-0.583222 0.646795 -0.247226
-0.577710 0.641472 -0.244594
-0.582905 0.662753 -0.250575
-0.583012 0.679173 -0.254612
-0.586436 0.683840 0.022741
-0.583100 0.695443 -0.257383
-0.583139 0.711793 -0.255029
-0.565675 -0.038055 -0.006665
-0.565657 -0.039715 -0.023017
-0.565732 -0.039140 -0.039374
-0.565716 -0.039031 -0.056138
-0.565606 -0.039042 -0.073322
-0.565587 -0.039718 -0.089761
-0.565586 -0.040315 -0.105488
-0.571793 -0.002768 0.236929
-0.567754 0.010163 0.236351
-0.571218 -0.004371 0.220593
-0.566287 0.010160 0.219901
-0.571033 -0.004183 0.203782
-0.565617 0.010162 0.203329
-0.570820 -0.004285 0.187452
-0.565583 0.010166 0.186954
-0.570895 -0.003753 0.170998
-0.566177 0.010164 0.170498
-0.571648 -0.001500 0.154183
-0.567216 0.010155 0.153972
-0.572559 0.000684 0.142419
-0.570000 0.009268 0.137149
-0.565568 0.026567 0.252462
-0.563860 0.026557 0.236105
-0.562284 0.026550 0.219665
-0.561135 0.026556 0.203197
-0.561268 0.026561 0.186795
-0.562111 0.026564 0.170360
-0.562482 0.026560 0.153932
-0.563674 0.026554 0.137533
-0.571620 0.014891 0.121140
-0.566681 0.026552 0.121144
-0.572785 0.017953 0.111413
-0.569369 0.025693 0.105457
-0.565813 0.015480 -0.265125
-0.565877 0.022250 -0.273159
-0.565332 0.042919 0.268831
-0.562682 0.042933 0.252477
-0.561387 0.042956 0.236108
-0.560089 0.042956 0.219667
-0.558892 0.042954 0.203201
-0.558607 0.042955 0.186769
-0.558904 0.042967 0.170344
-0.559098 0.042953 0.153911
-0.559334 0.042938 0.137541
-0.560344 0.042932 0.121153
-0.565941 0.030423 -0.278756
-0.567551 0.059102 0.285171
-0.563806 0.059124 0.268844
-0.562224 0.059210 0.252547
-0.561805 0.059295 0.236324
-0.560793 0.059316 0.219964
-0.559449 0.059316 0.203457
-0.558991 0.059313 0.186998
-0.558930 0.059308 0.170555
-0.558660 0.059280 0.154124
-0.557250 0.060760 0.122746
-0.571474 0.074480 0.301599
-0.568037 0.074778 0.285155
-0.564632 0.075049 0.268818
-0.564214 0.075275 0.252650
-0.565534 0.075399 0.236823
-0.564965 0.075467 0.220756
-0.563000 0.075493 0.204388
-0.562305 0.075453 0.188312
-0.562004 0.075383 0.172128
-0.560718 0.075341 0.155542
-0.569974 0.075233 -0.264345
-0.561726 0.075205 -0.257983
-0.567746 0.091366 0.189280
-0.566038 0.091315 0.173252
-0.562695 0.091362 0.156259
-0.557383 0.084696 0.121845
-0.565775 0.107611 -0.247094
-0.565524 0.155564 -0.247027
-0.565493 0.171982 -0.248184
-0.565367 0.188267 -0.248115
-0.565286 0.204503 -0.248713
-0.565322 0.220777 -0.251184
-0.565458 0.236941 -0.253184
-0.565655 0.252992 -0.253527
-0.565918 0.269191 -0.253134
-0.566246 0.285587 -0.252528
-0.566427 0.301958 -0.250239
-0.572750 0.335208 -0.244897
-0.564418 0.335367 -0.242423
-0.572764 0.353181 -0.244512
-0.564412 0.353294 -0.242621
-0.572710 0.370085 -0.244442
-0.564380 0.370120 -0.243141
-0.564948 0.368638 0.121135
-0.564922 0.370884 0.104721
-0.565562 0.395298 -0.244090
-0.563987 0.405286 0.251494
-0.566735 0.406131 0.236335
-0.558494 0.412596 0.236207
-0.557581 0.411529 0.245377
-0.565208 0.401345 0.203359
-0.563532 0.403108 0.185403
-0.556907 0.411702 0.178675
-0.565554 0.403574 -0.245291
-0.565610 0.417985 -0.247566
-0.565780 0.433799 -0.250556
-0.566054 0.449591 -0.253262
-0.566343 0.465772 -0.254342
-0.566570 0.482108 -0.253419
-0.566703 0.498478 -0.250427
-0.566537 0.547677 -0.240352
-0.566480 0.564085 -0.238516
-0.566420 0.580499 -0.238007
-0.566336 0.596911 -0.238532
-0.566265 0.613351 -0.239556
-0.566236 0.629779 -0.240900
-0.566563 0.646716 -0.243187
-0.572397 0.652477 -0.245359
-0.566741 0.663608 -0.246278
-0.561226 0.658295 -0.244076
-0.566397 0.679367 -0.251134
-0.566545 0.695518 -0.256175
-0.566655 0.711833 -0.257302
-0.566685 0.728185 -0.253885
-0.557095 0.067228 0.129324
-0.552022 0.091293 -0.246703
-0.543750 0.091230 -0.243603
-0.555806 0.092981 0.121648
-0.554326 0.107437 0.121366
-0.550499 0.107328 0.104881
-0.548692 0.107828 -0.245195
-0.542828 0.102776 -0.244259
-0.553826 0.122903 0.121234
-0.549777 0.123066 0.104849
-0.549167 0.123301 -0.245571
-0.553679 0.138306 0.121198
-0.550178 0.138687 0.104823
-0.549075 0.139288 -0.246799
-0.550993 0.155103 0.104792
-0.549044 0.155592 -0.247883
-0.552344 0.171551 0.104765
-0.548996 0.172033 -0.248718
-0.548920 0.188207 -0.249291
-0.548909 0.204321 -0.250280
-0.549010 0.220588 -0.252080
-0.549212 0.236853 -0.253216
-0.549475 0.253071 -0.253050
-0.549722 0.269444 -0.252339
-0.549931 0.286036 -0.251512
-0.549958 0.302455 -0.248599
-0.549455 0.335678 -0.238947
-0.549031 0.353447 -0.239819
-0.548885 0.370160 -0.241385
-0.553585 0.374086 0.121139
-0.545449 0.384372 0.121146
-0.551670 0.373544 0.104727
-0.543542 0.381235 0.104730
-0.548661 0.370453 0.071942
-0.548970 0.385875 -0.242997
-0.548997 0.396790 -0.244159
-0.555264 0.409407 0.256311
-0.551424 0.417903 0.251508
-0.555395 0.408661 0.203221
-0.548609 0.419844 0.203221
-0.555567 0.408883 0.189563
-0.550948 0.418321 0.185194
-0.549000 0.405082 -0.245278
-0.549075 0.418349 -0.247358
-0.545241 0.434806 0.252407
-0.552041 0.421160 0.236201
-0.545628 0.434922 0.236337
-0.541974 0.429645 0.203337
-0.542295 0.429740 0.186798
-0.542847 0.430216 0.170337
-0.549355 0.434083 -0.250664
-0.549127 0.449917 0.252394
-0.545975 0.449643 0.236344
-0.549740 0.449721 -0.253387
-0.549995 0.465813 -0.253104
-0.550132 0.482123 -0.250631
-0.550216 0.498483 -0.247576
-0.550061 0.531276 -0.241524
-0.549950 0.547679 -0.239367
-0.549980 0.564088 -0.238508
-0.549990 0.580500 -0.238576
-0.549912 0.596918 -0.239077
-0.549802 0.613368 -0.239204
-0.549723 0.629822 -0.238927
-0.549653 0.646365 -0.239932
-0.550073 0.663741 -0.242673
-0.555952 0.669691 -0.244976
-0.550293 0.679502 -0.247201
-0.544869 0.674105 -0.243839
-0.549977 0.695565 -0.252672
-0.543599 0.707791 -0.075723
-0.542080 0.705112 -0.065691
-0.545661 0.712620 -0.091583
-0.550349 0.711816 -0.108098
-0.550133 0.711869 -0.255888
-0.543715 0.723850 0.022900
-0.543507 0.723660 -0.107392
-0.542236 0.721419 -0.096390
-0.542911 0.722696 -0.124125
-0.550209 0.728239 -0.256120
-0.532773 0.123037 -0.247398
-0.532644 0.139042 -0.248776
-0.532632 0.155401 -0.250259
-0.532630 0.171826 -0.251406
-0.532603 0.187942 -0.251878
-0.532638 0.204058 -0.252342
-0.532828 0.220368 -0.253326
-0.533076 0.236680 -0.253582
-0.533284 0.252951 -0.252715
-0.533366 0.269554 -0.251747
-0.533334 0.286706 -0.251062
-0.533183 0.303298 -0.247870
-0.532746 0.335753 -0.237930
-0.532443 0.353304 -0.239723
-0.533869 0.372339 0.071946
-0.525627 0.379669 0.071927
-0.538169 0.392309 0.121147
-0.529925 0.400172 0.121130
-0.532810 0.418109 -0.249302
-0.533149 0.433837 -0.251593
-0.532504 0.436401 0.186914
-0.532472 0.435210 0.170339
-0.533476 0.449607 -0.252927
-0.533634 0.465805 -0.251663
-0.533667 0.482151 -0.248612
-0.533537 0.531283 -0.240119
-0.533475 0.547682 -0.238804
-0.533520 0.564086 -0.238334
-0.533545 0.580500 -0.238478
-0.533492 0.596920 -0.238992
-0.533379 0.613362 -0.238442
-0.533272 0.629800 -0.236736
-0.533169 0.646333 -0.236775
-0.533055 0.663209 -0.239070
-0.533111 0.677196 -0.242755
-0.533258 0.685101 -0.245882
-0.533431 0.695567 -0.249306
-0.537809 0.711075 -0.059873
-0.530339 0.711832 -0.046150
-0.533602 0.711905 -0.253347
-0.527650 0.728232 -0.048854
-0.539233 0.716004 -0.075731
-0.530420 0.729456 -0.074793
-0.540675 0.718622 -0.085916
-0.536847 0.727430 -0.091198
-0.533709 0.728319 -0.255780
-0.537309 0.731997 0.023022
-0.529114 0.740915 0.023088
-0.525410 0.736742 -0.050692
-0.528046 0.738795 -0.091425
-0.526012 0.737289 -0.079630
-0.538803 0.731851 -0.106785
-0.530637 0.740790 -0.106741
-0.539155 0.730876 -0.123782
-0.530968 0.741049 -0.123829
-0.533774 0.744663 -0.255719
-0.516608 0.058625 -0.250667
-0.516617 0.106784 -0.248408
-0.516453 0.122728 -0.249934
-0.516272 0.138736 -0.251151
-0.516281 0.155089 -0.252972
-0.516330 0.171505 -0.254388
-0.516348 0.187696 -0.254310
-0.516437 0.203911 -0.253847
-0.516687 0.220291 -0.254158
-0.516933 0.236601 -0.253988
-0.517020 0.252808 -0.252520
-0.516913 0.269550 -0.251224
-0.516665 0.287166 -0.250876
-0.516424 0.303939 -0.248332
-0.516155 0.335728 -0.239908
-0.516015 0.385656 -0.247967
-0.516284 0.401647 -0.250164
-0.520801 0.408647 0.121110
-0.516717 0.417576 -0.251859
-0.512723 0.430139 0.137509
-0.517049 0.433404 -0.252390
-0.521143 0.442199 0.186995
-0.513050 0.445488 0.187028
-0.517208 0.449438 -0.251681
-0.517230 0.465798 -0.249689
-0.517088 0.514901 -0.240525
-0.517063 0.531296 -0.239256
-0.517065 0.547693 -0.238598
-0.517102 0.564093 -0.238166
-0.517107 0.580501 -0.238161
-0.517066 0.596923 -0.238675
-0.516954 0.613356 -0.237826
-0.516833 0.629768 -0.235428
-0.516724 0.646237 -0.234978
-0.516612 0.662993 -0.237231
-0.517703 0.680886 -0.242333
-0.523930 0.687095 -0.245179
-0.517962 0.695076 -0.246943
-0.512967 0.689039 -0.244792
-0.518749 0.711775 -0.037873
-0.510539 0.711815 -0.033635
-0.517110 0.711954 -0.250699
-0.515972 0.728492 -0.039781
-0.509970 0.723264 -0.033668
-0.517203 0.728459 -0.253537
-0.516761 0.740403 -0.047163
-0.524484 0.735747 -0.068715
-0.518069 0.741740 -0.074819
-0.517281 0.744787 -0.256191
-0.519890 0.749108 0.022973
-0.511694 0.756802 0.022909
-0.515574 0.747600 -0.092070
-0.519139 0.748984 -0.107293
-0.510923 0.754296 -0.107625
-0.509341 0.753336 -0.097725
-0.519057 0.749255 -0.124080
-0.510829 0.754240 -0.124224
-0.517338 0.761047 -0.256429
-0.492474 -0.044622 -0.145636
-0.500174 -0.044108 -0.258474
-0.500296 0.057568 -0.252107
-0.500208 0.073729 -0.249745
-0.500276 0.089870 -0.249450
-0.500395 0.106041 -0.250814
-0.500277 0.122236 -0.251967
-0.500074 0.138489 -0.253101
-0.500011 0.154847 -0.254521
-0.500023 0.171266 -0.255376
-0.500068 0.187744 -0.254708
-0.500188 0.204214 -0.253788
-0.500427 0.220653 -0.253767
-0.500634 0.236906 -0.253456
-0.500676 0.252981 -0.252008
-0.500537 0.269590 -0.250757
-0.500243 0.287036 -0.250562
-0.500003 0.303869 -0.249052
-0.499618 0.369844 -0.248402
-0.499836 0.385537 -0.250899
-0.500191 0.401315 -0.252325
-0.500627 0.417237 -0.252800
-0.500869 0.433273 -0.252097
-0.500219 0.437134 0.153914
