-0.368786 0.829018 -0.501279
-0.361862 0.828878 -0.492357
-0.376090 0.829176 -0.510985
-0.370447 0.845723 -0.501303
-0.363049 0.845590 -0.491066
-0.376646 0.845827 -0.510401
-0.364356 0.861587 -0.489400
-0.374623 0.876936 -0.498583
-0.364690 0.892560 -0.472344
-0.353015 -0.089532 -0.513509
-0.353027 -0.073137 -0.515758
-0.353072 -0.057029 -0.517877
-0.353157 0.008002 -0.525350
-0.353157 0.024214 -0.526699
-0.353152 0.040469 -0.528034
-0.353172 0.056693 -0.529042
-0.353222 0.072913 -0.529431
-0.353262 0.089178 -0.529594
-0.353285 0.105472 -0.529629
-0.354020 0.138161 -0.529266
-0.345720 0.137921 -0.522795
-0.354584 0.154546 -0.529023
-0.346277 0.154359 -0.522102
-0.355264 0.170947 -0.528610
-0.346964 0.170815 -0.521276
-0.356204 0.187350 -0.528046
-0.347928 0.187254 -0.520243
-0.357097 0.203733 -0.527341
-0.348843 0.203671 -0.519370
-0.357880 0.220118 -0.526525
-0.349648 0.220113 -0.518656
-0.358651 0.236579 -0.525728
-0.350445 0.236602 -0.518038
-0.359411 0.253159 -0.525034
-0.351228 0.253144 -0.517379
-0.360195 0.269679 -0.524349
-0.352036 0.269659 -0.516712
-0.360999 0.286060 -0.523664
-0.352874 0.286109 -0.516228
-0.353801 0.335528 -0.514079
-0.345389 0.335384 -0.507239
-0.354001 0.351755 -0.513071
-0.345602 0.351674 -0.506868
-0.354047 0.368090 -0.512559
-0.345683 0.367987 -0.506792
-0.353901 0.384489 -0.512560
-0.345569 0.384302 -0.506993
-0.354074 0.400876 -0.512501
-0.345733 0.400682 -0.506917
-0.354498 0.417239 -0.512311
-0.346140 0.417095 -0.506619
-0.354860 0.433582 -0.512008
-0.346533 0.433454 -0.506356
-0.355165 0.449931 -0.511705
-0.346875 0.449802 -0.506127
-0.355353 0.466329 -0.511612
-0.347057 0.466231 -0.505910
-0.355677 0.482774 -0.511506
-0.347367 0.482725 -0.505562
-0.356530 0.499238 -0.511065
-0.348251 0.499208 -0.504828
-0.357418 0.515674 -0.510589
-0.349174 0.515638 -0.504070
-0.357805 0.532048 -0.510398
-0.349570 0.532008 -0.503766
-0.358164 0.548359 -0.510373
-0.349921 0.548306 -0.503652
-0.358704 0.564643 -0.510434
-0.350470 0.564557 -0.503421
-0.358940 0.580972 -0.510549
-0.350707 0.580894 -0.503028
-0.358903 0.597365 -0.510557
-0.350642 0.597363 -0.502660
-0.359590 0.613798 -0.510014
-0.351352 0.613823 -0.501816
-0.355274 0.646747 -0.500297
-0.346801 0.646688 -0.491047
-0.355054 0.663356 -0.499704
-0.346610 0.663371 -0.490531
-0.355785 0.679885 -0.498717
-0.347388 0.679925 -0.489626
-0.357204 0.696327 -0.497422
-0.348877 0.696319 -0.488598
-0.357857 0.712866 -0.496436
-0.349580 0.712855 -0.487779
-0.358169 0.729462 -0.495613
-0.349919 0.729469 -0.487031
-0.358855 0.745856 -0.494654
-0.350632 0.745807 -0.486537
-0.359616 0.762095 -0.493964
-0.351424 0.761993 -0.486229
-0.360079 0.778432 -0.493807
-0.351903 0.778367 -0.485921
-0.360478 0.794982 -0.493697
-0.352312 0.794967 -0.485475
-0.354833 0.828809 -0.484286
-0.346467 0.828737 -0.474780
-0.356145 0.845599 -0.482949
-0.347830 0.845624 -0.473617
-0.357640 0.861627 -0.481268
-0.349363 0.861729 -0.472425
-0.356326 0.892511 -0.464241
-0.348014 0.892506 -0.458172
-0.336761 -0.188990 -0.509873
-0.336803 -0.172852 -0.510512
-0.336794 -0.156354 -0.511678
-0.336778 -0.139855 -0.512709
-0.336807 -0.123640 -0.512815
-0.336838 -0.107377 -0.513020
-0.336840 -0.090856 -0.514254
-0.336844 -0.074464 -0.515138
-0.336869 -0.058335 -0.514987
-0.338406 -0.041302 -0.516835
-0.344794 -0.035072 -0.523152
-0.344199 -0.025288 -0.523400
-0.336156 -0.025716 -0.515901
-0.343421 -0.009038 -0.523837
-0.335365 -0.009419 -0.515854
-0.343063 0.007153 -0.524194
-0.335270 0.023160 -0.515985
-0.329028 0.022984 -0.507273
-0.342873 0.023411 -0.524462
-0.335098 0.039520 -0.516089
-0.328980 0.039415 -0.507272
-0.342702 0.039734 -0.524742
-0.335413 0.055880 -0.516198
-0.329025 0.055808 -0.506808
-0.342982 0.056054 -0.524693
-0.336317 0.072250 -0.516325
-0.329319 0.072206 -0.504614
-0.343619 0.072377 -0.524360
-0.337025 0.088664 -0.516397
-0.329554 0.088782 -0.502208
-0.344040 0.088743 -0.524157
-0.337499 0.105089 -0.516385
-0.344364 0.105125 -0.523968
-0.329722 0.121384 -0.500384
-0.338847 0.137893 -0.515414
-0.330414 0.137952 -0.502843
-0.339241 0.154346 -0.514568
-0.330817 0.154429 -0.503102
-0.339568 0.170822 -0.513584
-0.331162 0.170959 -0.503112
-0.340178 0.187249 -0.512432
-0.331842 0.187353 -0.503275
-0.340934 0.203670 -0.511520
-0.332645 0.203766 -0.503227
-0.341611 0.220167 -0.510753
-0.333330 0.220380 -0.502765
-0.342186 0.236675 -0.510089
-0.333929 0.236942 -0.502371
-0.342932 0.253158 -0.509441
-0.334728 0.253302 -0.502283
-0.343737 0.269657 -0.508801
-0.335582 0.269748 -0.502196
-0.344279 0.286173 -0.508292
-0.336162 0.286379 -0.501974
-0.344718 0.302645 -0.507886
-0.336620 0.302864 -0.501840
-0.336830 0.335470 -0.501038
-0.336861 0.351868 -0.500453
-0.336859 0.368133 -0.500322
-0.336842 0.384302 -0.500788
-0.336835 0.400660 -0.500611
-0.336831 0.417111 -0.499902
-0.336838 0.433455 -0.499374
-0.336853 0.449776 -0.498951
-0.336857 0.466251 -0.498386
-0.338918 0.499340 -0.496657
-0.330567 0.499359 -0.489576
-0.340495 0.515759 -0.496006
-0.332183 0.515765 -0.488498
-0.340918 0.532109 -0.495699
-0.332610 0.532109 -0.488123
-0.341356 0.548373 -0.495616
-0.333045 0.548358 -0.487967
-0.342408 0.564581 -0.495549
-0.334127 0.564532 -0.487646
-0.343194 0.580930 -0.495225
-0.334942 0.580878 -0.487098
-0.343275 0.597476 -0.494711
-0.335007 0.597471 -0.486469
-0.343872 0.613936 -0.493754
-0.335644 0.613937 -0.485850
-0.337275 0.646647 -0.482879
-0.328856 0.646576 -0.476101
-0.337240 0.663366 -0.482352
-0.328834 0.663297 -0.475418
-0.338362 0.679936 -0.481365
-0.329993 0.679883 -0.474268
-0.340117 0.696304 -0.480247
-0.331796 0.696249 -0.473022
-0.340858 0.712824 -0.479376
-0.332569 0.712778 -0.472152
-0.341231 0.729439 -0.478577
-0.332970 0.729405 -0.471362
-0.341827 0.745754 -0.478077
-0.333580 0.745702 -0.471080
-0.342553 0.761917 -0.477809
-0.334310 0.761857 -0.471173
-0.343204 0.778334 -0.477499
-0.334973 0.778357 -0.470929
-0.343935 0.794973 -0.477028
-0.335728 0.795091 -0.470372
-0.337374 0.845586 -0.465740
-0.329016 0.845570 -0.460343
-0.339349 0.861815 -0.464497
-0.330991 0.861873 -0.459198
-0.320103 -0.368820 -0.480480
-0.320206 -0.352582 -0.485704
-0.320277 -0.342522 -0.489555
-0.320226 -0.334410 -0.492697
-0.320254 -0.320069 -0.496828
-0.320325 -0.304367 -0.500361
-0.321388 -0.287483 -0.503937
-0.327382 -0.281225 -0.506827
-0.325605 -0.271177 -0.507206
-0.317621 -0.271653 -0.504713
-0.324454 -0.254991 -0.507634
-0.316448 -0.255395 -0.504990
-0.324442 -0.239058 -0.507955
-0.316416 -0.239315 -0.504922
-0.323887 -0.222691 -0.508395
-0.315863 -0.222916 -0.505070
-0.323320 -0.206151 -0.508812
-0.315297 -0.206388 -0.505175
-0.323732 -0.189864 -0.508868
-0.315689 -0.190044 -0.504819
-0.324369 -0.173612 -0.508774
-0.316297 -0.173733 -0.504379
-0.324121 -0.157140 -0.509040
-0.316033 -0.157233 -0.504368
-0.323950 -0.140671 -0.509270
-0.315852 -0.140748 -0.504302
-0.324902 -0.124382 -0.508940
-0.316796 -0.124443 -0.503681
-0.325809 -0.108064 -0.508624
-0.317699 -0.108110 -0.503134
-0.325799 -0.091558 -0.508777
-0.317681 -0.091594 -0.503076
-0.326135 -0.075136 -0.508665
-0.318003 -0.075155 -0.502764
-0.327318 -0.058907 -0.507938
-0.319190 -0.058894 -0.502031
-0.327944 -0.042579 -0.507591
-0.319823 -0.042528 -0.501737
-0.327748 -0.026107 -0.507798
-0.319629 -0.026005 -0.501997
-0.328016 -0.009714 -0.507885
-0.319896 -0.009581 -0.502228
-0.320484 0.023145 -0.501607
-0.320485 0.039592 -0.501827
-0.320468 0.055971 -0.500969
-0.320427 0.072331 -0.497918
-0.320391 0.088944 -0.495082
-0.325641 0.126366 -0.494047
-0.324705 0.138098 -0.494673
-0.325067 0.154616 -0.494829
-0.324862 0.171230 -0.494669
-0.316588 0.171336 -0.489891
-0.324922 0.187603 -0.494835
-0.316664 0.187731 -0.489506
-0.325196 0.204004 -0.494815
-0.316945 0.204147 -0.489125
-0.325409 0.220743 -0.494255
-0.317148 0.220886 -0.488633
-0.325686 0.237358 -0.493872
-0.317429 0.237494 -0.488210
-0.326097 0.253566 -0.494040
-0.317860 0.253697 -0.487995
-0.326358 0.269944 -0.494110
-0.318128 0.270067 -0.487815
-0.326374 0.286706 -0.493817
-0.318139 0.286798 -0.487654
-0.326399 0.303205 -0.493653
-0.318166 0.303317 -0.487363
-0.326611 0.319308 -0.493588
-0.318398 0.319497 -0.486910
-0.326673 0.335581 -0.493246
-0.318455 0.335788 -0.486418
-0.326748 0.352067 -0.492645
-0.318523 0.352244 -0.485910
-0.326797 0.368277 -0.492546
-0.318580 0.368416 -0.485986
-0.326598 0.384301 -0.492972
-0.318392 0.384405 -0.486542
-0.326722 0.400624 -0.492916
-0.318525 0.400710 -0.486666
-0.327078 0.417102 -0.492477
-0.318895 0.417181 -0.486373
-0.327399 0.433429 -0.492304
-0.319227 0.433486 -0.485957
-0.327700 0.449721 -0.492199
-0.319533 0.449753 -0.485473
-0.327961 0.466220 -0.491743
-0.319795 0.466248 -0.484999
-0.322971 0.515769 -0.480271
-0.314666 0.515714 -0.473050
-0.323448 0.532115 -0.479892
-0.315129 0.532039 -0.472802
-0.323796 0.548354 -0.479718
-0.315475 0.548263 -0.472914
-0.325095 0.564507 -0.479357
-0.316818 0.564431 -0.472814
-0.326099 0.580853 -0.478793
-0.317869 0.580781 -0.472497
-0.326116 0.597474 -0.478143
-0.317907 0.597368 -0.471966
-0.326624 0.613944 -0.477525
-0.318440 0.613831 -0.471347
-0.320240 0.646494 -0.469576
-0.320252 0.663196 -0.469146
-0.320229 0.679728 -0.467664
-0.320188 0.696032 -0.465581
-0.321877 0.729187 -0.463878
-0.313601 0.728990 -0.458854
-0.322872 0.745543 -0.463596
-0.314612 0.745410 -0.457967
-0.323491 0.761740 -0.463539
-0.315230 0.761683 -0.457459
-0.324204 0.778325 -0.463123
-0.315970 0.778286 -0.456683
-0.325257 0.795143 -0.462410
-0.317065 0.795112 -0.455642
-0.326465 0.811765 -0.461740
-0.318297 0.811808 -0.454297
-0.322141 0.861802 -0.450871
-0.313867 0.861715 -0.441938
-0.324492 0.877063 -0.448547
-0.316237 0.877139 -0.438869
-0.303978 -0.419240 -0.474544
-0.303973 -0.402817 -0.475463
-0.303965 -0.386409 -0.477005
-0.303975 -0.370105 -0.479403
-0.304026 -0.353853 -0.482587
-0.304546 -0.338225 -0.486053
-0.310197 -0.332888 -0.491905
-0.308715 -0.320970 -0.493287
-0.300689 -0.321456 -0.486101
-0.307969 -0.305022 -0.494418
-0.299892 -0.305225 -0.486907
-0.307288 -0.288687 -0.495479
-0.299167 -0.288812 -0.487598
-0.306659 -0.272081 -0.496327
-0.298524 -0.272267 -0.488074
-0.306612 -0.255683 -0.496765
-0.298434 -0.255836 -0.488270
-0.306930 -0.239435 -0.496895
-0.298698 -0.239498 -0.488347
-0.306759 -0.222982 -0.497086
-0.298492 -0.223022 -0.488666
-0.306417 -0.206448 -0.497139
-0.298143 -0.206492 -0.488961
-0.306846 -0.190082 -0.496859
-0.298575 -0.190113 -0.488766
-0.307486 -0.173742 -0.496504
-0.299208 -0.173751 -0.488439
-0.307488 -0.157209 -0.496408
-0.299208 -0.157196 -0.488413
-0.307544 -0.140700 -0.496264
-0.299275 -0.140674 -0.488303
-0.308276 -0.124410 -0.495742
-0.300025 -0.124400 -0.487745
-0.308858 -0.108093 -0.495253
-0.300618 -0.108093 -0.487300
-0.308819 -0.091566 -0.495068
-0.300584 -0.091552 -0.487333
-0.309044 -0.075107 -0.494705
-0.300819 -0.075071 -0.487122
-0.309896 -0.058837 -0.494118
-0.301691 -0.058785 -0.486379
-0.310337 -0.042440 -0.493838
-0.302141 -0.042356 -0.486163
-0.310066 -0.025827 -0.493892
-0.301867 -0.025687 -0.486657
-0.309937 -0.009351 -0.494044
-0.301732 -0.009169 -0.487158
-0.310043 0.006947 -0.494278
-0.301840 0.007159 -0.487460
-0.309763 0.023346 -0.494405
-0.301551 0.023570 -0.487746
-0.309219 0.039822 -0.494352
-0.300986 0.040042 -0.487976
-0.309513 0.056152 -0.494195
-0.301285 0.056354 -0.487657
-0.310462 0.072407 -0.493892
-0.302252 0.072589 -0.487035
-0.310834 0.088945 -0.493360
-0.302625 0.089148 -0.486488
-0.311038 0.105602 -0.492650
-0.302834 0.105841 -0.485887
-0.304000 0.138304 -0.483052
-0.303994 0.154864 -0.481961
-0.303986 0.171511 -0.481588
-0.304907 0.204304 -0.480492
-0.296644 0.204366 -0.474234
-0.305004 0.221024 -0.480046
-0.296767 0.221057 -0.473983
-0.305447 0.237618 -0.479673
-0.297197 0.237618 -0.473666
-0.306585 0.253829 -0.479452
-0.298313 0.253825 -0.473091
-0.307358 0.270198 -0.479206
-0.299082 0.270187 -0.472588
-0.307345 0.286900 -0.478976
-0.299073 0.286861 -0.472259
-0.307524 0.303433 -0.478674
-0.299271 0.303403 -0.471757
-0.308174 0.319679 -0.478259
-0.299947 0.319700 -0.471168
-0.308538 0.335991 -0.477851
-0.300320 0.336023 -0.470858
-0.308489 0.352412 -0.477457
-0.300277 0.352398 -0.470853
-0.308184 0.368536 -0.477604
-0.299977 0.368506 -0.471229
-0.307844 0.384494 -0.478209
-0.299624 0.384483 -0.471850
-0.307847 0.400797 -0.478381
-0.299614 0.400789 -0.472106
-0.308225 0.417280 -0.478132
-0.300002 0.417257 -0.471840
-0.309090 0.433554 -0.477824
-0.300880 0.433514 -0.471243
-0.310041 0.449783 -0.477431
-0.301849 0.449724 -0.470621
-0.310356 0.466279 -0.476964
-0.302179 0.466187 -0.470259
-0.310768 0.482883 -0.476228
-0.302611 0.482757 -0.469748
-0.304986 0.531896 -0.465090
-0.296607 0.531775 -0.458794
-0.304930 0.548143 -0.465190
-0.296506 0.548037 -0.459123
-0.305692 0.564339 -0.464772
-0.297311 0.564286 -0.458611
-0.306387 0.580695 -0.464261
-0.298079 0.580658 -0.457918
-0.306463 0.597235 -0.463851
-0.298224 0.597170 -0.457429
-0.307358 0.613688 -0.463359
-0.299135 0.613636 -0.456280
-0.309253 0.629977 -0.462566
-0.301042 0.629987 -0.454354
-0.310375 0.646404 -0.462041
-0.302172 0.646430 -0.453162
-0.310545 0.663069 -0.461932
-0.302347 0.663043 -0.452915
-0.310882 0.679547 -0.461582
-0.305031 0.695904 -0.452246
-0.297186 0.696048 -0.441481
-0.311564 0.695817 -0.460938
-0.297960 0.712590 -0.440566
-0.306586 0.729027 -0.450567
-0.298339 0.729099 -0.440468
-0.307289 0.745447 -0.449782
-0.299022 0.745499 -0.440055
-0.307914 0.761751 -0.449330
-0.299647 0.761830 -0.439499
-0.308412 0.778351 -0.448456
-0.300174 0.778404 -0.438539
-0.308929 0.795130 -0.447252
-0.300728 0.795160 -0.437065
-0.309885 0.811817 -0.445758
-0.304190 0.828640 -0.434496
-0.296761 0.828727 -0.423939
-0.311129 0.828519 -0.444399
-0.297950 0.845332 -0.422640
-0.307214 0.861615 -0.432714
-0.299014 0.861559 -0.421247
-0.309501 0.877187 -0.429871
-0.299122 0.893137 -0.404984
-0.287326 -0.632174 -0.466186
-0.287369 -0.615948 -0.467947
-0.287419 -0.599702 -0.469303
-0.287461 -0.583439 -0.470354
-0.287487 -0.567089 -0.471133
-0.287512 -0.550699 -0.471853
-0.288503 -0.535057 -0.472742
-0.294497 -0.530046 -0.473971
-0.293273 -0.517943 -0.474150
-0.285242 -0.518177 -0.472662
-0.293134 -0.501570 -0.474220
-0.285072 -0.501803 -0.472430
-0.293723 -0.485147 -0.474161
-0.285653 -0.485376 -0.472201
-0.293124 -0.468818 -0.474270
-0.285082 -0.469013 -0.472299
-0.292895 -0.452517 -0.474341
-0.284847 -0.452685 -0.472226
-0.294518 -0.436168 -0.474099
-0.286435 -0.436329 -0.471527
-0.295449 -0.419786 -0.473978
-0.287373 -0.419944 -0.470897
-0.294659 -0.403394 -0.474237
-0.286606 -0.403542 -0.470787
-0.293624 -0.387037 -0.474741
-0.285567 -0.387185 -0.470744
-0.292899 -0.370749 -0.475573
-0.284812 -0.370874 -0.470737
-0.292577 -0.354435 -0.476588
-0.284453 -0.354524 -0.470612
-0.292503 -0.338072 -0.477465
-0.284332 -0.338135 -0.470104
-0.291910 -0.321717 -0.478276
-0.283672 -0.321748 -0.469849
-0.290806 -0.305343 -0.479103
-0.282484 -0.305343 -0.470091
-0.289891 -0.288886 -0.479789
-0.281526 -0.288889 -0.470943
-0.289129 -0.272362 -0.480289
-0.280755 -0.272396 -0.472483
-0.288466 -0.255935 -0.480434
-0.280111 -0.255979 -0.474076
-0.286279 -0.238202 -0.479465
-0.279735 -0.242800 -0.475172
-0.287683 -0.223074 -0.480754
-0.287674 -0.206542 -0.481207
-0.288335 -0.173807 -0.480272
-0.279991 -0.173860 -0.474780
-0.288359 -0.157245 -0.480245
-0.280007 -0.157322 -0.474592
-0.288636 -0.140722 -0.480175
-0.280293 -0.140810 -0.474176
-0.290037 -0.124437 -0.479673
-0.281709 -0.124491 -0.472874
-0.291130 -0.108115 -0.479268
-0.282809 -0.108154 -0.472051
-0.290969 -0.091560 -0.479279
-0.282651 -0.091615 -0.472151
-0.291310 -0.075059 -0.479010
-0.283019 -0.075113 -0.471739
-0.292848 -0.058750 -0.478232
-0.284600 -0.058774 -0.470502
-0.293365 -0.042287 -0.477973
-0.285130 -0.042315 -0.469991
-0.292448 -0.025581 -0.478411
-0.284208 -0.025640 -0.470432
-0.291851 -0.009049 -0.478770
-0.283612 -0.009122 -0.471097
-0.291943 0.007292 -0.478860
-0.283723 0.007207 -0.471454
-0.291475 0.023696 -0.479049
-0.283264 0.023591 -0.471756
-0.290582 0.040136 -0.479299
-0.282377 0.040021 -0.472174
-0.291061 0.056443 -0.478952
-0.282865 0.056338 -0.471674
-0.292351 0.072691 -0.478303
-0.284150 0.072614 -0.470404
-0.292923 0.089290 -0.477810
-0.284728 0.089208 -0.469686
-0.293180 0.106025 -0.477302
-0.284996 0.105919 -0.469525
-0.294077 0.122290 -0.476548
-0.285897 0.122186 -0.469516
-0.295187 0.138418 -0.475733
-0.287020 0.138327 -0.469596
-0.295446 0.154972 -0.475247
-0.287296 0.154877 -0.469590
-0.295294 0.171617 -0.475035
-0.287158 0.171501 -0.469577
-0.287563 0.204161 -0.468329
-0.287538 0.220837 -0.468136
-0.287513 0.237393 -0.467525
-0.287504 0.253602 -0.465921
-0.288091 0.286640 -0.464036
-0.279856 0.286472 -0.458153
-0.288868 0.303172 -0.463432
-0.280673 0.303007 -0.456881
-0.290017 0.319472 -0.462886
-0.281823 0.319273 -0.455768
-0.290506 0.335804 -0.462695
-0.282304 0.335601 -0.455344
-0.290446 0.352193 -0.462875
-0.282239 0.352005 -0.455593
-0.290120 0.368347 -0.463440
-0.281893 0.368180 -0.456442
-0.289497 0.384375 -0.464253
-0.281205 0.384243 -0.457856
-0.289370 0.400720 -0.464665
-0.281040 0.400628 -0.458343
-0.290229 0.417224 -0.464533
-0.281894 0.417203 -0.457455
-0.291618 0.433488 -0.463889
-0.283311 0.433520 -0.456153
-0.292746 0.449684 -0.463163
-0.284478 0.449725 -0.455119
-0.293149 0.466124 -0.462914
-0.284907 0.466157 -0.454683
-0.293578 0.482653 -0.462543
-0.285368 0.482682 -0.453958
-0.294771 0.499042 -0.461176
-0.282285 0.515893 -0.438938
-0.290853 0.531925 -0.450411
-0.282541 0.532247 -0.438461
-0.290782 0.548152 -0.450789
-0.282440 0.548454 -0.438306
-0.290955 0.564351 -0.450203
-0.282639 0.564601 -0.437922
-0.291084 0.580703 -0.449459
-0.282798 0.580900 -0.437744
-0.291423 0.597227 -0.449025
-0.283152 0.597416 -0.437539
-0.292387 0.613697 -0.447845
-0.284137 0.613939 -0.436206
-0.293967 0.630032 -0.445832
-0.289289 0.646817 -0.434609
-0.281712 0.647224 -0.422669
-0.294969 0.646453 -0.444615
-0.290124 0.663296 -0.434521
-0.282350 0.663621 -0.422016
-0.295167 0.663035 -0.444374
-0.283123 0.680139 -0.420923
-0.292178 0.696363 -0.432283
-0.283950 0.696761 -0.419377
-0.292499 0.712875 -0.431441
-0.284269 0.713256 -0.419109
-0.292383 0.729273 -0.431457
-0.284165 0.729620 -0.419700
-0.292585 0.745612 -0.431271
-0.284352 0.745927 -0.419542
-0.293161 0.761942 -0.430936
-0.286136 0.778754 -0.418665
-0.279831 0.779013 -0.409572
-0.293719 0.778477 -0.429988
-0.287245 0.795465 -0.418298
-0.280296 0.795741 -0.409031
-0.294331 0.795182 -0.428364
-0.281401 0.812416 -0.407130
-0.290876 0.828845 -0.415794
-0.282621 0.829034 -0.405099
-0.291640 0.845479 -0.414388
-0.283402 0.845747 -0.404268
-0.292772 0.861712 -0.412894
-0.284537 0.862087 -0.403403
-0.292459 0.893275 -0.396859
-0.284244 0.893364 -0.388521
-0.271032 -0.730969 -0.461771
-0.271027 -0.714613 -0.463463
-0.271026 -0.698261 -0.464673
-0.271045 -0.681913 -0.465051
-0.271061 -0.665565 -0.465700
-0.271078 -0.649225 -0.466914
-0.271096 -0.632925 -0.467495
-0.271121 -0.616621 -0.467376
-0.271158 -0.600288 -0.467693
-0.271193 -0.583944 -0.468277
-0.271201 -0.567558 -0.468030
-0.271198 -0.551149 -0.467375
-0.271222 -0.534770 -0.467339
-0.271251 -0.518404 -0.467281
-0.271259 -0.502029 -0.466303
-0.271264 -0.485626 -0.465370
-0.271280 -0.469202 -0.465424
-0.271288 -0.452829 -0.465162
-0.272953 -0.420140 -0.463517
-0.264667 -0.420190 -0.457908
-0.273111 -0.403702 -0.463667
-0.264753 -0.403738 -0.458332
-0.272697 -0.387313 -0.463852
-0.264277 -0.387343 -0.459321
-0.270058 -0.371038 -0.463393
-0.263566 -0.376645 -0.460300
-0.271229 -0.354586 -0.463801
-0.272313 -0.321768 -0.462527
-0.263928 -0.321774 -0.460444
-0.269797 -0.306434 -0.462253
-0.263353 -0.312718 -0.460709
-0.271128 -0.288901 -0.463524
-0.271153 -0.272412 -0.465398
-0.271182 -0.255993 -0.467393
-0.272883 -0.238244 -0.470436
-0.279468 -0.231920 -0.475831
-0.279212 -0.223157 -0.475834
-0.271017 -0.223146 -0.469896
-0.278971 -0.206633 -0.475784
-0.270784 -0.206633 -0.469957
-0.271175 -0.173874 -0.468297
-0.271163 -0.157355 -0.468338
-0.271145 -0.140869 -0.468044
-0.271110 -0.124565 -0.466099
-0.271101 -0.108232 -0.464811
-0.271128 -0.091708 -0.465094
-0.271128 -0.075226 -0.464502
-0.275201 -0.042379 -0.462109
-0.266937 -0.042363 -0.457050
-0.273525 -0.025772 -0.462702
-0.265195 -0.025878 -0.458847
-0.272261 -0.009299 -0.463303
-0.263940 -0.009452 -0.459492
-0.272775 0.007042 -0.463349
-0.264528 0.006953 -0.457952
-0.272272 0.023405 -0.463606
-0.264033 0.023302 -0.458077
-0.269610 0.038223 -0.463350
-0.263000 0.031505 -0.459263
-0.275280 0.072489 -0.462477
-0.267087 0.072489 -0.454977
-0.276732 0.089076 -0.461962
-0.268538 0.089093 -0.453146
-0.276789 0.105739 -0.461987
-0.268606 0.105700 -0.453096
-0.276966 0.122014 -0.461989
-0.268776 0.121982 -0.453305
-0.277092 0.138188 -0.462049
-0.268886 0.138208 -0.453706
-0.277024 0.154747 -0.462242
-0.268796 0.154799 -0.454125
-0.276855 0.171342 -0.462432
-0.268610 0.171419 -0.454143
-0.277184 0.187615 -0.462165
-0.268948 0.187699 -0.453384
-0.277627 0.203915 -0.461812
-0.269411 0.203979 -0.452887
-0.277615 0.220568 -0.461757
-0.269423 0.220568 -0.453192
-0.277908 0.237134 -0.461425
-0.269741 0.237109 -0.452999
-0.278753 0.253361 -0.460586
-0.263634 0.269847 -0.442940
-0.271815 0.286462 -0.449760
-0.263649 0.286482 -0.441357
-0.272067 0.302942 -0.448266
-0.263923 0.302898 -0.440247
-0.273253 0.319145 -0.447103
-0.265094 0.319062 -0.439101
-0.274396 0.335447 -0.446930
-0.266205 0.335343 -0.438645
-0.274884 0.351867 -0.447759
-0.266664 0.351721 -0.439592
-0.274993 0.368127 -0.448821
-0.266740 0.368026 -0.440377
-0.274762 0.384296 -0.450043
-0.266468 0.384348 -0.440308
-0.274937 0.400744 -0.450324
-0.266639 0.400950 -0.439098
-0.275714 0.417357 -0.449186
-0.267465 0.417674 -0.437216
-0.276529 0.433654 -0.447702
-0.268313 0.434014 -0.435730
-0.277246 0.449815 -0.446612
-0.271649 0.466646 -0.434975
-0.277668 0.466229 -0.446209
-0.273565 0.483190 -0.435010
-0.278235 0.482763 -0.445507
-0.268025 0.500259 -0.420260
-0.277107 0.516332 -0.430023
-0.268875 0.516681 -0.418981
-0.277224 0.532650 -0.429587
-0.268976 0.533049 -0.418261
-0.277416 0.548839 -0.429415
-0.270545 0.565229 -0.417735
-0.277712 0.564927 -0.429106
-0.271725 0.581430 -0.418145
-0.277858 0.581178 -0.429045
-0.271914 0.597975 -0.418363
-0.264856 0.598244 -0.407230
-0.277853 0.597686 -0.428904
-0.273031 0.614502 -0.418289
-0.265343 0.614824 -0.406751
-0.278426 0.614226 -0.427442
-0.266506 0.631113 -0.405747
-0.275445 0.647388 -0.414645
-0.267169 0.647520 -0.404785
-0.275403 0.663827 -0.413825
-0.267161 0.664095 -0.403938
-0.276132 0.680336 -0.412681
-0.267902 0.680575 -0.402764
-0.277466 0.696904 -0.411160
-0.269944 0.712622 -0.399745
-0.265669 0.706604 -0.389246
-0.277743 0.713401 -0.410850
-0.277449 0.729822 -0.411326
-0.269208 0.730010 -0.402193
-0.278004 0.746143 -0.411020
-0.272709 0.779168 -0.401015
-0.272618 0.795908 -0.400865
-0.264386 0.796055 -0.391302
-0.273979 0.812507 -0.399236
-0.265753 0.812583 -0.389361
-0.275445 0.829090 -0.397262
-0.267229 0.829128 -0.387208
-0.276087 0.845909 -0.396335
-0.267871 0.845963 -0.386506
-0.276984 0.862364 -0.395371
-0.264246 0.878086 -0.375515
-0.275957 0.893375 -0.380308
-0.267800 0.893433 -0.371899
-0.254679 -0.829775 -0.460469
-0.254686 -0.813382 -0.461233
-0.254701 -0.797010 -0.461887
-0.254706 -0.780581 -0.462523
-0.254711 -0.764154 -0.462922
-0.254735 -0.747769 -0.462763
-0.254763 -0.731396 -0.462808
-0.254777 -0.715026 -0.463537
-0.254783 -0.698646 -0.463854
-0.254800 -0.682277 -0.463353
-0.254820 -0.665911 -0.463208
-0.254831 -0.649529 -0.463720
-0.254846 -0.633188 -0.463474
-0.254871 -0.616866 -0.462499
-0.254897 -0.600509 -0.462144
-0.254915 -0.584126 -0.462201
-0.254917 -0.567730 -0.461564
-0.256008 -0.534955 -0.460531
-0.247908 -0.534969 -0.457215
-0.257043 -0.518556 -0.460445
-0.248906 -0.518563 -0.456835
-0.258751 -0.502170 -0.459891
-0.250612 -0.502159 -0.456165
-0.260396 -0.485769 -0.459391
-0.252253 -0.485730 -0.455524
-0.260900 -0.469335 -0.459399
-0.252756 -0.469295 -0.455313
-0.261566 -0.452942 -0.459320
-0.253431 -0.452909 -0.455194
-0.254862 -0.420160 -0.452774
-0.254859 -0.403727 -0.453019
-0.254851 -0.387330 -0.453931
-0.256262 -0.371093 -0.456054
-0.262600 -0.365858 -0.461125
-0.262536 -0.354656 -0.461238
-0.254416 -0.354598 -0.455195
-0.254805 -0.321747 -0.454066
-0.256255 -0.306459 -0.455185
-0.262667 -0.301831 -0.460735
-0.262344 -0.288963 -0.460802
-0.254186 -0.288905 -0.454064
-0.261890 -0.272484 -0.461073
-0.253729 -0.272444 -0.454987
-0.261221 -0.256050 -0.461289
-0.253038 -0.256004 -0.454860
-0.260602 -0.239660 -0.461448
-0.252399 -0.239577 -0.454154
-0.259972 -0.223179 -0.461658
-0.251757 -0.223093 -0.454487
-0.259535 -0.206665 -0.461748
-0.251323 -0.206597 -0.455034
-0.260017 -0.190284 -0.461399
-0.251828 -0.190210 -0.454321
-0.260663 -0.173923 -0.461054
-0.252484 -0.173847 -0.453457
-0.260566 -0.157427 -0.461257
-0.252381 -0.157391 -0.453616
-0.260574 -0.140967 -0.461534
-0.252388 -0.140952 -0.453629
-0.261282 -0.124674 -0.461421
-0.253109 -0.124606 -0.452577
-0.261873 -0.108343 -0.461290
-0.253696 -0.108223 -0.451617
-0.261900 -0.091837 -0.461392
-0.253710 -0.091723 -0.451495
-0.262164 -0.075370 -0.461150
-0.250637 -0.058503 -0.439451
-0.259736 -0.042196 -0.447678
-0.251579 -0.042021 -0.438703
-0.258584 -0.025763 -0.449582
-0.250426 -0.025656 -0.439475
-0.257835 -0.009349 -0.450453
-0.249674 -0.009261 -0.439882
-0.258379 0.007074 -0.449234
-0.250209 0.007227 -0.439064
-0.258219 0.023430 -0.449679
-0.250019 0.023618 -0.439131
-0.258092 0.038147 -0.452705
-0.248832 0.039889 -0.440175
-0.249885 0.056280 -0.438149
-0.262745 0.042420 -0.459425
-0.260729 0.072556 -0.446557
-0.258520 0.089449 -0.435230
-0.262050 0.089124 -0.444834
-0.258328 0.105871 -0.435667
-0.262145 0.105680 -0.444919
-0.257970 0.122136 -0.435425
-0.262034 0.121965 -0.445043
-0.257732 0.138453 -0.435011
-0.261803 0.138222 -0.445289
-0.258224 0.155190 -0.435143
-0.261672 0.154847 -0.445693
-0.258975 0.171970 -0.435407
-0.261818 0.171520 -0.445779
-0.260035 0.188322 -0.435382
-0.262321 0.187804 -0.445070
-0.260290 0.204519 -0.435511
-0.262654 0.204043 -0.444617
-0.259520 0.220904 -0.436050
-0.262547 0.220585 -0.445015
-0.258983 0.237294 -0.436462
-0.262657 0.237109 -0.444953
-0.258770 0.270000 -0.434847
-0.258509 0.286576 -0.433068
-0.250339 0.286655 -0.420920
-0.258636 0.302958 -0.431905
-0.250467 0.302968 -0.419975
-0.259021 0.319071 -0.430701
-0.250859 0.319091 -0.419533
-0.259549 0.335262 -0.430383
-0.251371 0.335274 -0.420354
-0.260059 0.351605 -0.431617
-0.251837 0.351583 -0.422570
-0.260341 0.367989 -0.432474
-0.252097 0.368004 -0.422846
-0.260858 0.384458 -0.432169
-0.252622 0.384546 -0.420958
-0.261517 0.401159 -0.430636
-0.253319 0.401275 -0.419251
-0.262063 0.417947 -0.428374
-0.257166 0.434529 -0.417570
-0.262534 0.434341 -0.426601
-0.259613 0.467294 -0.414806
-0.260015 0.483911 -0.413460
-0.260738 0.500385 -0.411891
-0.261426 0.516764 -0.410767
-0.253945 0.534500 -0.399417
-0.261905 0.533215 -0.410121
-0.257906 0.565331 -0.400205
-0.259219 0.581484 -0.399115
-0.259392 0.598284 -0.398960
-0.259560 0.614919 -0.398644
-0.259922 0.631075 -0.397935
-0.251780 0.630967 -0.388376
-0.260095 0.647475 -0.397020
-0.251982 0.647354 -0.387823
-0.260068 0.664257 -0.395998
-0.251961 0.664153 -0.385980
-0.260869 0.680753 -0.394741
-0.261181 0.712730 -0.384250
-0.258495 0.730244 -0.384465
-0.261972 0.717457 -0.393464
-0.261470 0.730135 -0.393891
-0.259941 0.762744 -0.382371
-0.259950 0.779256 -0.382303
-0.259731 0.795946 -0.383062
-0.255892 0.812487 -0.368812
-0.260368 0.812522 -0.381055
-0.255548 0.829090 -0.368255
-0.261112 0.829121 -0.378859
-0.255965 0.845771 -0.368269
-0.261425 0.845932 -0.378233
-0.258117 0.877981 -0.367140
-0.249966 0.877867 -0.355858
-0.260420 0.893466 -0.363517
-0.249552 0.909227 -0.339885
-0.238210 -0.944250 -0.459051
-0.238303 -0.895411 -0.460462
-0.238319 -0.879045 -0.460675
-0.238358 -0.862778 -0.460418
-0.238376 -0.846386 -0.460557
-0.238383 -0.829937 -0.460811
-0.238398 -0.813558 -0.460562
-0.238423 -0.797182 -0.460230
-0.238441 -0.780736 -0.460227
-0.238457 -0.764309 -0.460184
-0.238971 -0.731617 -0.459395
-0.231006 -0.731711 -0.457148
-0.238909 -0.715214 -0.459631
-0.230940 -0.715298 -0.457169
-0.239529 -0.698811 -0.459677
-0.231544 -0.698884 -0.456803
-0.241075 -0.682435 -0.459350
-0.233032 -0.682494 -0.455941
-0.241862 -0.666050 -0.459207
-0.233797 -0.666098 -0.455472
-0.241927 -0.649642 -0.459323
-0.233863 -0.649681 -0.455395
-0.242544 -0.633283 -0.459136
-0.234460 -0.633309 -0.455000
-0.243694 -0.616949 -0.458641
-0.235580 -0.616960 -0.454372
-0.244346 -0.600584 -0.458402
-0.236223 -0.600575 -0.453948
-0.244699 -0.584194 -0.458333
-0.236571 -0.584172 -0.453580
-0.245661 -0.567789 -0.458010
-0.237524 -0.567758 -0.453130
-0.238523 -0.534930 -0.451697
-0.238504 -0.518524 -0.450696
-0.238487 -0.502108 -0.449102
-0.238879 -0.469258 -0.447068
-0.230547 -0.469245 -0.442140
-0.239594 -0.452883 -0.446903
-0.231262 -0.452866 -0.441694
-0.240733 -0.436540 -0.446545
-0.232437 -0.436514 -0.441132
-0.241591 -0.420177 -0.446320
-0.233306 -0.420145 -0.440953
-0.241699 -0.403768 -0.446541
-0.233387 -0.403741 -0.441378
-0.241907 -0.387356 -0.446829
-0.233615 -0.387327 -0.441607
-0.242675 -0.370972 -0.446810
-0.234444 -0.370917 -0.441205
-0.243282 -0.354570 -0.446668
-0.235073 -0.354505 -0.440593
-0.243484 -0.338150 -0.446512
-0.235290 -0.338104 -0.440100
-0.243737 -0.321738 -0.445882
-0.235561 -0.321680 -0.439271
-0.244019 -0.305314 -0.444864
-0.235866 -0.305216 -0.438180
-0.243703 -0.288878 -0.444909
-0.235562 -0.288795 -0.438071
-0.243064 -0.272439 -0.445849
-0.234921 -0.272411 -0.438625
-0.243371 -0.255987 -0.445950
-0.235227 -0.255942 -0.438053
-0.244097 -0.239518 -0.445550
-0.235946 -0.239391 -0.436861
-0.243710 -0.223013 -0.445932
-0.235549 -0.222852 -0.436672
-0.242996 -0.206523 -0.446343
-0.234846 -0.206382 -0.436801
-0.243264 -0.190144 -0.445476
-0.235127 -0.190007 -0.435960
-0.243788 -0.173793 -0.444495
-0.235658 -0.173668 -0.434867
-0.243799 -0.157378 -0.444598
-0.235672 -0.157332 -0.434677
-0.244115 -0.140958 -0.444547
-0.238293 -0.124352 -0.433289
-0.231414 -0.124130 -0.423358
-0.245291 -0.124557 -0.443393
-0.240687 -0.107719 -0.433270
-0.232840 -0.107304 -0.421792
-0.246242 -0.108128 -0.442317
-0.241008 -0.091226 -0.433206
-0.233041 -0.090846 -0.421694
-0.246360 -0.091631 -0.442096
-0.233271 -0.074453 -0.421484
-0.242081 -0.058193 -0.430678
-0.233928 -0.057949 -0.420664
-0.242284 -0.041765 -0.429867
-0.234144 -0.041581 -0.420405
-0.241835 -0.025530 -0.430558
-0.233701 -0.025426 -0.420983
-0.241820 -0.009191 -0.430934
-0.233685 -0.009100 -0.420907
-0.242934 0.007341 -0.430231
-0.243542 0.023749 -0.430494
-0.243354 0.040002 -0.431726
-0.244595 0.056398 -0.429662
-0.246117 0.096733 -0.411240
-0.245357 0.106160 -0.412429
-0.245239 0.122426 -0.412422
-0.245956 0.138943 -0.411028
-0.246073 0.155712 -0.410676
-0.246053 0.172440 -0.410596
-0.245951 0.225479 -0.411325
-0.245261 0.237650 -0.413025
-0.244665 0.253955 -0.414588
-0.244411 0.270304 -0.414398
-0.244181 0.286675 -0.412881
-0.236010 0.286756 -0.403715
-0.244111 0.302951 -0.411798
-0.235950 0.302998 -0.402555
-0.244232 0.319105 -0.411320
-0.236090 0.319217 -0.401859
-0.244052 0.335295 -0.412140
-0.235895 0.335451 -0.403296
-0.243743 0.351605 -0.414318
-0.235501 0.351789 -0.406238
-0.244166 0.368026 -0.414555
-0.235931 0.368181 -0.406300
-0.245396 0.384548 -0.412590
-0.237203 0.384581 -0.404052
-0.246315 0.401281 -0.410800
-0.238125 0.401276 -0.402550
-0.241078 0.434622 -0.397914
-0.243634 0.450784 -0.395883
-0.243462 0.467253 -0.395601
-0.243379 0.483893 -0.395378
-0.244897 0.500170 -0.393896
-0.244834 0.534430 -0.385018
-0.246397 0.540716 -0.393004
-0.244122 0.565335 -0.380783
-0.244194 0.581492 -0.379653
-0.244517 0.598259 -0.379190
-0.244656 0.614803 -0.379169
-0.237392 0.631156 -0.367239
-0.244462 0.630879 -0.379720
-0.244733 0.647246 -0.379257
-0.239687 0.663912 -0.368491
-0.245553 0.663980 -0.377676
-0.246302 0.736938 -0.360673
-0.246070 0.746264 -0.360800
-0.246063 0.762320 -0.360495
-0.242444 0.795809 -0.351364
-0.242158 0.812455 -0.350077
-0.242001 0.829021 -0.349374
-0.241965 0.845601 -0.348975
-0.242091 0.861924 -0.348717
-0.233926 0.862011 -0.338891
-0.243421 0.877899 -0.347435
-0.235230 0.878081 -0.337472
-0.242581 0.909319 -0.331790
-0.234405 0.909449 -0.322615
-0.221645 -0.988137 -0.417516
-0.221742 -0.987838 -0.433277
-0.221753 -0.986785 -0.449248
-0.221716 -0.986128 -0.457737
-0.221747 -0.977754 -0.458353
-0.220256 -0.945414 -0.458612
-0.213931 -0.951238 -0.457292
-0.221909 -0.928519 -0.459058
-0.221934 -0.912133 -0.459239
-0.221935 -0.895633 -0.459392
-0.224915 -0.862946 -0.458709
-0.216818 -0.863051 -0.455642
-0.225857 -0.846536 -0.458627
-0.217736 -0.846638 -0.454944
-0.226281 -0.830091 -0.458616
-0.218142 -0.830189 -0.454438
-0.227563 -0.813701 -0.458295
-0.219399 -0.813785 -0.453271
-0.228702 -0.797313 -0.457959
-0.220531 -0.797394 -0.452110
-0.228998 -0.780860 -0.457874
-0.220830 -0.780952 -0.451602
-0.229340 -0.764431 -0.457766
-0.221158 -0.764529 -0.451341
-0.222123 -0.731768 -0.450519
-0.222125 -0.715336 -0.450416
-0.222117 -0.698920 -0.449666
-0.222451 -0.666168 -0.447787
-0.214139 -0.666214 -0.442156
-0.222952 -0.649737 -0.447773
-0.214584 -0.649773 -0.441898
-0.223576 -0.633352 -0.447412
-0.215225 -0.633384 -0.441527
-0.224366 -0.616992 -0.446813
-0.216065 -0.617022 -0.440982
-0.225016 -0.600588 -0.446371
-0.216719 -0.600602 -0.440464
-0.225532 -0.584165 -0.445952
-0.217213 -0.584149 -0.440062
-0.226044 -0.567743 -0.445516
-0.217754 -0.567722 -0.439743
-0.226639 -0.551333 -0.445168
-0.218399 -0.551325 -0.439439
-0.227267 -0.534942 -0.444836
-0.219051 -0.534940 -0.439153
-0.227975 -0.518546 -0.444318
-0.219780 -0.518539 -0.438602
-0.228973 -0.502122 -0.443476
-0.220807 -0.502090 -0.437443
-0.222035 -0.469167 -0.435186
-0.223557 -0.436482 -0.432897
-0.215260 -0.436435 -0.425112
-0.224293 -0.420120 -0.432602
-0.216016 -0.420088 -0.424667
-0.224270 -0.403710 -0.432892
-0.216013 -0.403667 -0.424637
-0.224404 -0.387287 -0.432969
-0.216169 -0.387232 -0.424618
-0.225093 -0.370854 -0.432470
-0.216858 -0.370802 -0.424453
-0.225665 -0.354417 -0.431571
-0.217445 -0.354359 -0.423683
-0.225799 -0.338003 -0.430689
-0.217593 -0.337916 -0.422612
-0.225741 -0.321565 -0.429886
-0.217547 -0.321467 -0.422101
-0.225630 -0.305083 -0.429151
-0.217452 -0.304984 -0.421861
-0.225501 -0.288683 -0.429198
-0.217340 -0.288596 -0.421873
-0.225548 -0.272352 -0.429699
-0.217396 -0.272287 -0.422088
-0.226615 -0.255877 -0.429301
-0.218445 -0.255806 -0.421590
-0.228096 -0.239264 -0.428521
-0.219904 -0.239181 -0.420660
-0.228442 -0.222692 -0.428486
-0.220241 -0.222596 -0.420351
-0.228141 -0.206225 -0.428460
-0.219944 -0.206131 -0.420323
-0.228253 -0.189863 -0.427494
-0.220062 -0.189787 -0.419982
-0.228738 -0.173559 -0.426376
-0.220556 -0.173498 -0.419381
-0.228961 -0.157297 -0.426143
-0.220780 -0.157214 -0.418640
-0.223673 -0.107326 -0.413611
-0.215531 -0.107332 -0.406773
-0.222885 -0.090921 -0.413486
-0.214756 -0.090973 -0.407430
-0.222842 -0.074544 -0.413252
-0.214732 -0.074590 -0.407463
-0.224428 -0.058029 -0.412424
-0.216311 -0.058045 -0.406058
-0.224946 -0.041633 -0.412168
-0.216816 -0.041618 -0.405533
-0.224014 -0.025449 -0.412743
-0.215894 -0.025405 -0.406398
-0.224621 -0.009065 -0.412702
-0.216478 -0.008972 -0.405918
-0.227317 0.007651 -0.411452
-0.228370 0.024109 -0.411375
-0.227910 0.040253 -0.412502
-0.230074 0.246385 -0.394310
-0.229444 0.254508 -0.395591
-0.228609 0.270655 -0.396769
-0.228053 0.286828 -0.395923
-0.227952 0.303044 -0.394666
-0.219762 0.303082 -0.385825
-0.228521 0.319321 -0.393762
-0.219497 0.335798 -0.383639
-0.227918 0.335628 -0.395178
-0.226510 0.352031 -0.398050
-0.218262 0.352303 -0.387459
-0.227027 0.368368 -0.397975
-0.223889 0.384881 -0.385714
-0.228801 0.384595 -0.395538
-0.226206 0.401517 -0.385236
-0.229599 0.401256 -0.394052
-0.229969 0.571244 -0.360049
-0.229626 0.607191 -0.342978
-0.227623 0.615379 -0.345736
-0.226057 0.631137 -0.352040
-0.229819 0.636454 -0.360513
-0.225497 0.664010 -0.348978
-0.227437 0.680416 -0.345904
-0.229903 0.720913 -0.342845
-0.229565 0.729915 -0.343208
-0.228774 0.763437 -0.329165
-0.225957 0.779743 -0.332563
-0.224535 0.796418 -0.333343
-0.225572 0.812822 -0.331879
-0.226333 0.829147 -0.330476
-0.226041 0.845758 -0.330522
-0.217809 0.845768 -0.322122
-0.226004 0.862233 -0.330591
-0.217788 0.862271 -0.322370
-0.227946 0.878284 -0.329231
-0.219739 0.878335 -0.321528
-0.226640 0.909483 -0.314207
-0.218436 0.909509 -0.306332
-0.205232 -0.988258 -0.401280
-0.205329 -0.988334 -0.417176
-0.205409 -0.987497 -0.433068
-0.206622 -0.986533 -0.448826
-0.212804 -0.986138 -0.457564
-0.212698 -0.977859 -0.457605
-0.204599 -0.977928 -0.452001
-0.207048 -0.945545 -0.452432
-0.213404 -0.940482 -0.457513
-0.213237 -0.928655 -0.457565
-0.205149 -0.928724 -0.451553
-0.213191 -0.912265 -0.457590
-0.205097 -0.912333 -0.451306
-0.213267 -0.895779 -0.457581
-0.205172 -0.895874 -0.450589
-0.207035 -0.863169 -0.447512
-0.198955 -0.863223 -0.440331
-0.208000 -0.846754 -0.446793
-0.199895 -0.846799 -0.439578
-0.208654 -0.830301 -0.446268
-0.200534 -0.830343 -0.438909
-0.209675 -0.813894 -0.445114
-0.201561 -0.813927 -0.438217
-0.210730 -0.797506 -0.444004
-0.202624 -0.797533 -0.437643
-0.211327 -0.781071 -0.443514
-0.203227 -0.781114 -0.437132
-0.211666 -0.764648 -0.443278
-0.203566 -0.764702 -0.436815
-0.212027 -0.748266 -0.443113
-0.203921 -0.748306 -0.436776
-0.212337 -0.731866 -0.442995
-0.204230 -0.731893 -0.436686
-0.212526 -0.715420 -0.442863
-0.204413 -0.715442 -0.436399
-0.213022 -0.698992 -0.442564
-0.204904 -0.699015 -0.435848
-0.206858 -0.666258 -0.435375
-0.198342 -0.666259 -0.427513
-0.206896 -0.649820 -0.435024
-0.198368 -0.649832 -0.427427
-0.207532 -0.633420 -0.434518
-0.199071 -0.633419 -0.426750
-0.208674 -0.617043 -0.433848
-0.200251 -0.617014 -0.425639
-0.209168 -0.600604 -0.433237
-0.200761 -0.600565 -0.425058
-0.209232 -0.584126 -0.432732
-0.200855 -0.584081 -0.424795
-0.209648 -0.567687 -0.432350
-0.201307 -0.567635 -0.424397
-0.210298 -0.551300 -0.432030
-0.201972 -0.551245 -0.423965
-0.210655 -0.534926 -0.431681
-0.202337 -0.534876 -0.423717
-0.211036 -0.518526 -0.431014
-0.202749 -0.518485 -0.423261
-0.211899 -0.502052 -0.429780
-0.203663 -0.502012 -0.422147
-0.212735 -0.485549 -0.428493
-0.204530 -0.485507 -0.420990
-0.213045 -0.469113 -0.427469
-0.204851 -0.469063 -0.420354
-0.207088 -0.420074 -0.416196
-0.198903 -0.420046 -0.408173
-0.207002 -0.403635 -0.415978
-0.198826 -0.403600 -0.407921
-0.207014 -0.387185 -0.415893
-0.198836 -0.387143 -0.407878
-0.207634 -0.370754 -0.415810
-0.199451 -0.370714 -0.407763
-0.207946 -0.354314 -0.415288
-0.199758 -0.354282 -0.407759
-0.207486 -0.337871 -0.414486
-0.199310 -0.337843 -0.407880
-0.207527 -0.321424 -0.414073
-0.199368 -0.321398 -0.407614
-0.208203 -0.304949 -0.413837
-0.200062 -0.304926 -0.406945
-0.208209 -0.288563 -0.413821
-0.200075 -0.288532 -0.406904
-0.207721 -0.272249 -0.413988
-0.199581 -0.272209 -0.407293
-0.208882 -0.255758 -0.413450
-0.200713 -0.255720 -0.406507
-0.211025 -0.239119 -0.412469
-0.202840 -0.239095 -0.404987
-0.211708 -0.222538 -0.412270
-0.203515 -0.222544 -0.404847
-0.211432 -0.206084 -0.412565
-0.203234 -0.206117 -0.405572
-0.211447 -0.189764 -0.412513
-0.203259 -0.189808 -0.405688
-0.211795 -0.173495 -0.411968
-0.203628 -0.173518 -0.405320
-0.212318 -0.157176 -0.411016
-0.204161 -0.157109 -0.404735
-0.212995 -0.140740 -0.409794
-0.204821 -0.140602 -0.403646
-0.206406 -0.107419 -0.399682
-0.198261 -0.107507 -0.393645
-0.204140 -0.092093 -0.399374
-0.197781 -0.098205 -0.393821
-0.205565 -0.074708 -0.400946
-0.207341 -0.041706 -0.398708
-0.199214 -0.041800 -0.393466
-0.204368 -0.025590 -0.398419
-0.198156 -0.031021 -0.393828
-0.210133 0.007908 -0.396180
-0.201978 0.007848 -0.390370
-0.211230 0.024421 -0.395574
-0.203059 0.024322 -0.389755
-0.210668 0.040605 -0.396335
-0.202486 0.040537 -0.390096
-0.213162 0.290272 -0.378964
-0.213135 0.303074 -0.378314
-0.213267 0.341354 -0.377806
-0.212991 0.352467 -0.379048
-0.213370 0.376159 -0.361859
-0.212953 0.385568 -0.362227
-0.212149 0.401915 -0.362877
-0.211925 0.418471 -0.363658
-0.213466 0.555731 -0.343212
-0.213340 0.565481 -0.343272
-0.208987 0.630961 -0.330564
-0.209635 0.647339 -0.330630
-0.208890 0.664374 -0.330609
-0.210212 0.680782 -0.329076
-0.212770 0.719258 -0.326828
-0.212148 0.730356 -0.327425
-0.211593 0.762918 -0.314526
-0.211059 0.779496 -0.316020
-0.210433 0.796309 -0.317155
-0.210071 0.812712 -0.315801
-0.210304 0.829064 -0.314349
-0.210682 0.845688 -0.314475
-0.202478 0.845615 -0.304945
-0.210794 0.862154 -0.314849
-0.202599 0.862025 -0.305901
-0.211702 0.878286 -0.313774
-0.203544 0.878251 -0.306145
-0.209461 0.909534 -0.298036
-0.201253 0.909573 -0.291471
-0.188922 -0.988218 -0.385074
-0.188990 -0.988156 -0.400700
-0.189065 -0.987413 -0.416764
-0.189557 -0.986636 -0.431511
-0.195252 -0.986405 -0.443146
-0.194770 -0.978052 -0.443721
-0.190188 -0.961642 -0.432935
-0.183728 -0.961681 -0.420148
-0.195680 -0.961572 -0.443075
-0.190328 -0.945226 -0.433557
-0.183777 -0.945250 -0.421385
-0.195785 -0.945162 -0.443047
-0.188653 -0.928865 -0.434544
-0.182350 -0.928844 -0.425896
-0.195451 -0.928832 -0.443319
-0.188602 -0.912470 -0.434987
-0.182100 -0.912440 -0.427187
-0.195594 -0.912431 -0.443095
-0.190174 -0.896037 -0.435016
-0.182989 -0.896022 -0.426308
-0.196270 -0.895994 -0.442412
-0.183775 -0.879604 -0.425535
-0.192777 -0.863234 -0.433805
-0.184439 -0.863198 -0.424850
-0.193401 -0.846816 -0.432915
-0.185084 -0.846786 -0.424218
-0.194042 -0.830365 -0.432148
-0.185761 -0.830344 -0.423448
-0.194710 -0.813945 -0.431378
-0.186466 -0.813923 -0.422401
-0.195300 -0.797559 -0.430763
-0.187075 -0.797533 -0.421465
-0.195772 -0.781160 -0.430215
-0.187571 -0.781139 -0.420956
-0.196010 -0.764753 -0.429877
-0.187823 -0.764738 -0.420598
-0.196028 -0.748344 -0.429785
-0.188141 -0.731910 -0.420202
-0.181212 -0.731906 -0.411594
-0.196093 -0.731927 -0.429626
-0.188215 -0.715473 -0.420024
-0.181134 -0.715480 -0.411568
-0.196242 -0.715476 -0.429257
-0.189090 -0.699046 -0.419938
-0.181491 -0.699057 -0.411071
-0.196747 -0.699045 -0.428709
-0.182164 -0.682669 -0.410118
-0.190520 -0.666287 -0.419083
-0.182256 -0.666283 -0.409874
-0.190220 -0.649857 -0.418941
-0.181971 -0.649870 -0.410172
-0.190883 -0.633432 -0.418234
-0.182654 -0.633446 -0.409314
-0.192330 -0.617022 -0.417142
-0.184091 -0.617019 -0.407443
-0.192682 -0.600574 -0.416540
-0.184460 -0.600586 -0.407004
-0.192333 -0.584099 -0.416274
-0.184141 -0.584139 -0.407560
-0.192874 -0.567646 -0.415848
-0.184692 -0.567691 -0.406853
-0.193794 -0.551247 -0.415385
-0.185607 -0.551274 -0.405704
-0.193872 -0.534878 -0.415084
-0.185674 -0.534899 -0.405872
-0.193703 -0.518482 -0.414602
-0.185511 -0.518515 -0.406290
-0.194371 -0.502026 -0.413556
-0.186200 -0.502073 -0.405287
-0.195224 -0.485530 -0.412538
-0.187059 -0.485592 -0.404218
-0.195273 -0.469064 -0.412163
-0.187097 -0.469117 -0.404611
-0.195958 -0.452695 -0.411420
-0.187794 -0.452731 -0.404260
-0.190506 -0.420077 -0.399589
-0.182375 -0.420089 -0.391433
-0.188119 -0.402638 -0.397910
-0.181919 -0.407463 -0.391450
-0.190366 -0.370738 -0.399132
-0.182224 -0.370775 -0.391499
-0.188174 -0.354129 -0.398398
-0.182011 -0.359468 -0.392109
-0.189321 -0.337906 -0.401366
-0.189325 -0.321477 -0.401373
-0.188359 -0.287723 -0.398734
-0.182289 -0.292578 -0.393396
-0.189324 -0.272280 -0.400372
-0.193317 -0.239139 -0.396663
-0.185184 -0.239243 -0.388841
-0.193851 -0.222629 -0.396581
-0.185718 -0.222768 -0.388678
-0.193042 -0.206242 -0.397725
-0.184902 -0.206394 -0.390203
-0.193588 -0.189931 -0.398149
-0.185426 -0.190023 -0.390338
-0.194509 -0.173585 -0.398008
-0.186324 -0.173594 -0.389862
-0.194590 -0.157076 -0.397582
-0.186402 -0.157017 -0.389582
-0.195015 -0.140518 -0.396581
-0.186869 -0.140443 -0.388756
-0.189190 -0.107662 -0.386356
-0.190234 -0.092239 -0.388800
-0.196332 -0.087409 -0.394517
-0.196430 -0.074856 -0.394654
-0.188351 -0.074922 -0.387877
-0.189697 -0.041904 -0.385295
-0.181391 -0.041986 -0.377942
-0.189135 -0.026575 -0.386031
-0.181141 -0.033216 -0.377979
-0.196839 -0.020297 -0.394122
-0.191371 0.007699 -0.382041
-0.183236 0.007560 -0.375311
-0.192094 0.024110 -0.381421
-0.183964 0.023929 -0.374970
-0.192410 0.040347 -0.381872
-0.184268 0.040168 -0.375304
-0.194101 0.056724 -0.380213
-0.185990 0.056565 -0.373812
-0.189230 0.089906 -0.368764
-0.189218 0.106800 -0.365559
-0.197150 0.409672 -0.342982
-0.197116 0.418593 -0.343147
-0.197061 0.540594 -0.326302
-0.196780 0.549413 -0.326551
-0.196470 0.565324 -0.326794
-0.196468 0.581532 -0.326792
-0.196751 0.598442 -0.326578
-0.196990 0.803212 -0.295468
-0.195518 0.812590 -0.296528
-0.194663 0.829076 -0.297239
-0.186539 0.829009 -0.290583
-0.195617 0.845560 -0.297232
-0.187493 0.845516 -0.290822
-0.195239 0.861874 -0.298084
-0.187103 0.861879 -0.291215
-0.194855 0.878173 -0.298084
-0.186708 0.878220 -0.290250
-0.190860 0.909612 -0.283170
-0.182670 0.909706 -0.276544
-0.172610 -0.988274 -0.369302
-0.172692 -0.988000 -0.384357
-0.171328 -0.987025 -0.401660
-0.176866 -0.986554 -0.416509
-0.166966 -0.978125 -0.406020
-0.180611 -0.986328 -0.425127
-0.178247 -0.961712 -0.411864
-0.170077 -0.961695 -0.402741
-0.177998 -0.945274 -0.412921
-0.169784 -0.945258 -0.403259
-0.175282 -0.928862 -0.417329
-0.167041 -0.928843 -0.407606
-0.174432 -0.912452 -0.418760
-0.166168 -0.912434 -0.409731
-0.175084 -0.896036 -0.417905
-0.166836 -0.896019 -0.409281
-0.175930 -0.879623 -0.417143
-0.167681 -0.879599 -0.408518
-0.176724 -0.863223 -0.416483
-0.168462 -0.863187 -0.407711
-0.177126 -0.846803 -0.415861
-0.168873 -0.846774 -0.407524
-0.177584 -0.830355 -0.415093
-0.169350 -0.830341 -0.407326
-0.178617 -0.813941 -0.414030
-0.170397 -0.813929 -0.405997
-0.179678 -0.797558 -0.413087
-0.171464 -0.797548 -0.404552
-0.180206 -0.781162 -0.412584
-0.172001 -0.781155 -0.404302
-0.180558 -0.764754 -0.412256
-0.172362 -0.764743 -0.404080
-0.171275 -0.733401 -0.400695
-0.164741 -0.739860 -0.393044
-0.172879 -0.715490 -0.403657
-0.172871 -0.699077 -0.403165
-0.173456 -0.666294 -0.400361
-0.165287 -0.666278 -0.391809
-0.171330 -0.650146 -0.399262
-0.164890 -0.655761 -0.392246
-0.175722 -0.617043 -0.398051
-0.167557 -0.617039 -0.390312
-0.175958 -0.600611 -0.397751
-0.167790 -0.600621 -0.390263
-0.174721 -0.584185 -0.398481
-0.166560 -0.584207 -0.391315
-0.175463 -0.567746 -0.397700
-0.167303 -0.567769 -0.390513
-0.177017 -0.551321 -0.396357
-0.168856 -0.551337 -0.388832
-0.176499 -0.534937 -0.396571
-0.168336 -0.534947 -0.389108
-0.175546 -0.518555 -0.397183
-0.167386 -0.518558 -0.389918
-0.176631 -0.502145 -0.396332
-0.168471 -0.502141 -0.389103
-0.178080 -0.485689 -0.395493
-0.169914 -0.485692 -0.388328
-0.177852 -0.469196 -0.396333
-0.169672 -0.469212 -0.389197
-0.178507 -0.452785 -0.396254
-0.170339 -0.452793 -0.388937
-0.174174 -0.420056 -0.383592
-0.166031 -0.419992 -0.375753
-0.175076 -0.402607 -0.385273
-0.165541 -0.403504 -0.375422
-0.165080 -0.387094 -0.375613
-0.180968 -0.396506 -0.392169
-0.171414 -0.370677 -0.381948
-0.164983 -0.375980 -0.375846
-0.174228 -0.354193 -0.386612
-0.180560 -0.348575 -0.393733
-0.179129 -0.337982 -0.394993
-0.170944 -0.338001 -0.387469
-0.179344 -0.321573 -0.395404
-0.171166 -0.321585 -0.387570
-0.173271 -0.286638 -0.385403
-0.165656 -0.291570 -0.376943
-0.180842 -0.281721 -0.394419
-0.180204 -0.272362 -0.394429
-0.172027 -0.272334 -0.385680
-0.176863 -0.239336 -0.380411
-0.168680 -0.239370 -0.372947
-0.177785 -0.222879 -0.380290
-0.169607 -0.222934 -0.372642
-0.177775 -0.206462 -0.381874
-0.169603 -0.206503 -0.373265
-0.178345 -0.190063 -0.382031
-0.170170 -0.190036 -0.373389
-0.178829 -0.173585 -0.381562
-0.170644 -0.173460 -0.372982
-0.179058 -0.156935 -0.381183
-0.170844 -0.156648 -0.372012
-0.179262 -0.140341 -0.380216
-0.171033 -0.140031 -0.371341
-0.179438 -0.124055 -0.378843
-0.171222 -0.123926 -0.371341
-0.179411 -0.107812 -0.378390
-0.171205 -0.107807 -0.371791
-0.178880 -0.091432 -0.379457
-0.170679 -0.091418 -0.372890
-0.179240 -0.074978 -0.379820
-0.171057 -0.074952 -0.373105
