-0.428703 0.542847 -0.374591
-0.442798 0.558443 -0.392323
-0.435580 0.567566 -0.400908
-0.431861 0.561151 -0.389588
-0.439341 0.573837 -0.411490
-0.434291 0.578184 -0.418017
-0.428368 0.575387 -0.409598
-0.435147 0.604843 -0.464094
-0.435121 0.609248 -0.472225
-0.435084 0.613756 -0.482729
-0.418413 -0.266823 -0.285942
-0.418349 -0.267435 -0.302345
-0.418317 -0.268232 -0.318586
-0.418363 -0.265726 -0.334665
-0.418438 -0.262518 -0.348121
-0.418440 -0.259597 -0.356340
-0.418347 -0.233626 -0.184354
-0.418346 -0.224312 -0.192476
-0.418335 -0.216059 -0.200756
-0.418324 -0.208864 -0.208984
-0.418295 -0.204606 -0.219998
-0.418549 -0.203108 -0.465760
-0.418585 -0.202526 -0.482152
-0.418705 -0.120058 -0.596935
-0.418696 -0.116628 -0.608018
-0.418485 0.250712 -0.486313
-0.418476 0.258983 -0.492523
-0.418493 0.271438 -0.498135
-0.418495 0.285178 -0.504187
-0.418495 0.293551 -0.508078
-0.418597 0.320058 -0.498356
-0.417884 0.514548 -0.348107
-0.411865 0.508222 -0.342009
-0.418760 0.526661 -0.356074
-0.418823 0.535206 -0.364357
-0.418892 0.544626 -0.372609
-0.418859 0.553111 -0.379427
-0.418790 0.562263 -0.387943
-0.410377 0.589019 -0.329113
-0.418602 0.585150 -0.434947
-0.418679 0.590393 -0.444973
-0.418710 0.594238 -0.452872
-0.418608 0.615444 -0.498653
-0.418602 0.621289 -0.512404
-0.418600 0.625689 -0.520668
-0.418569 0.633034 -0.528112
-0.401886 -0.264355 -0.286132
-0.401877 -0.265092 -0.302221
-0.401926 -0.266247 -0.318156
-0.401966 -0.263681 -0.334460
-0.401983 -0.261310 -0.346099
-0.401992 -0.259823 -0.354443
-0.401960 -0.252421 -0.154884
-0.401909 -0.246333 -0.169353
-0.401927 -0.243372 -0.177204
-0.401973 -0.253735 -0.367726
-0.401965 -0.246279 -0.379609
-0.401972 -0.240299 -0.387974
-0.401985 -0.235547 -0.400856
-0.402050 -0.232480 -0.416955
-0.401935 -0.207343 -0.208947
-0.403113 -0.198625 -0.219183
-0.398478 -0.186726 -0.224223
-0.395262 -0.174677 -0.227498
-0.402255 -0.183520 -0.543492
-0.402275 -0.172511 -0.551726
-0.402276 -0.164352 -0.557017
-0.402276 -0.154197 -0.563266
-0.402280 -0.143274 -0.570388
-0.402289 -0.119292 -0.611169
-0.402294 -0.106582 -0.614911
-0.402528 0.106289 -0.528139
-0.407627 0.143082 -0.305419
-0.399475 0.149897 -0.305335
-0.402086 0.319888 -0.501725
-0.402053 0.352942 -0.483882
-0.402398 0.511562 -0.340571
-0.402372 0.519846 -0.344260
-0.401515 0.532447 -0.353420
-0.406487 0.538321 -0.361576
-0.401499 0.546121 -0.367377
-0.395428 0.541639 -0.358531
-0.402300 0.555142 -0.378563
-0.402231 0.561434 -0.387216
-0.402166 0.568722 -0.401688
-0.402159 0.573468 -0.413736
-0.402170 0.576605 -0.421802
-0.400903 0.595536 -0.327367
-0.402207 0.581894 -0.434194
-0.385466 -0.264559 -0.286258
-0.385478 -0.266554 -0.302052
-0.385559 -0.267873 -0.318025
-0.385580 -0.266410 -0.334529
-0.390686 -0.227964 -0.195188
-0.385359 -0.221021 -0.199531
-0.379738 -0.227501 -0.194909
-0.385772 -0.235074 -0.432929
-0.385543 -0.206802 -0.208731
-0.385499 -0.198569 -0.214097
-0.385457 -0.186731 -0.220757
-0.385424 -0.174545 -0.227165
-0.385891 -0.106697 -0.617972
-0.385887 0.089990 -0.533633
-0.386138 0.106437 -0.535195
-0.385697 0.287772 -0.514928
-0.386033 0.498957 -0.334508
-0.387137 0.516614 -0.337631
-0.393336 0.522971 -0.342909
-0.387067 0.531409 -0.347746
-0.382430 0.525438 -0.340993
-0.385857 0.543503 -0.357417
-0.385614 0.552371 -0.368947
-0.390903 0.556331 -0.377680
-0.385551 0.561237 -0.384116
-0.380009 0.557848 -0.375120
-0.384188 0.570191 -0.403193
-0.388636 0.573153 -0.413530
-0.384228 0.576022 -0.418224
-0.377723 0.574103 -0.409447
-0.385824 0.581511 -0.433638
-0.385117 0.587853 -0.451329
-0.390105 0.590224 -0.459032
-0.385096 0.593742 -0.465540
-0.379160 0.590704 -0.457834
-0.385760 0.601845 -0.482944
-0.385710 0.606791 -0.494906
-0.385667 0.609608 -0.502938
-0.385661 0.616280 -0.514848
-0.385720 0.622485 -0.524281
-0.385696 0.631064 -0.531069
-0.369194 -0.269606 -0.301894
-0.369212 -0.270642 -0.318068
-0.369197 -0.271566 -0.334889
-0.369094 -0.244772 -0.180665
-0.369132 -0.235964 -0.187747
-0.369277 -0.249986 -0.400559
-0.369170 -0.226506 -0.194695
-0.369148 -0.218267 -0.200627
-0.369141 -0.207183 -0.208797
-0.369103 -0.198950 -0.214693
-0.369711 0.123333 -0.530233
-0.369425 0.336436 -0.497700
-0.369901 0.515261 -0.329812
-0.364651 0.509748 -0.323641
-0.369597 0.528340 -0.338539
-0.369556 0.536556 -0.346491
-0.369512 0.545765 -0.355362
-0.369484 0.554077 -0.364805
-0.369469 0.559932 -0.372847
-0.368175 0.568413 -0.386207
-0.372777 0.571953 -0.398539
-0.368165 0.575502 -0.402621
-0.361900 0.574064 -0.392041
-0.369432 0.579744 -0.417134
-0.369449 0.584797 -0.433522
-0.369460 0.588956 -0.446598
-0.369449 0.591633 -0.454992
-0.369413 0.595452 -0.466930
-0.369349 0.601203 -0.482937
-0.369302 0.606196 -0.496588
-0.369258 0.608913 -0.504613
-0.369279 0.614898 -0.514852
-0.369326 0.621704 -0.525073
-0.369310 0.631081 -0.531461
-0.352824 -0.290156 -0.137748
-0.352796 -0.283003 -0.150517
-0.352726 -0.271443 -0.159201
-0.352729 -0.277913 -0.363631
-0.352746 -0.272704 -0.371083
-0.352671 -0.263215 -0.165304
-0.352664 -0.253901 -0.173777
-0.352792 -0.270481 -0.302136
-0.352771 -0.272086 -0.318737
-0.352662 -0.245677 -0.181593
-0.352699 -0.235973 -0.187871
-0.352731 -0.224958 -0.194125
-0.352701 -0.216711 -0.200300
-0.352696 -0.206054 -0.208444
-0.352655 -0.197825 -0.214040
-0.351601 -0.186490 -0.223277
-0.345376 -0.177317 -0.228066
-0.353021 0.090673 -0.546705
-0.352776 0.310268 -0.053923
-0.353084 0.336477 -0.498912
-0.353079 0.353218 -0.494298
-0.353195 0.482529 -0.333805
-0.353236 0.510173 -0.323732
-0.353215 0.518375 -0.328571
-0.353188 0.530501 -0.337382
-0.353163 0.538672 -0.345221
-0.353140 0.547075 -0.353801
-0.353120 0.555309 -0.362408
-0.353101 0.561623 -0.370388
-0.352998 0.582749 -0.417023
-0.353001 0.586346 -0.433739
-0.353016 0.588973 -0.446666
-0.353010 0.591247 -0.455087
-0.352615 0.605926 -0.213990
-0.352979 0.595065 -0.467179
-0.352936 0.600338 -0.482996
-0.352922 0.621399 -0.524692
-0.352917 0.630837 -0.528463
-0.353012 0.646171 -0.323813
-0.336303 -0.292017 -0.137714
-0.336267 -0.284721 -0.151920
-0.336219 -0.273654 -0.160647
-0.340312 -0.277301 -0.353473
-0.332115 -0.276781 -0.353492
-0.339574 -0.277373 -0.362702
-0.335025 -0.275667 -0.368144
-0.336179 -0.265413 -0.167251
-0.336191 -0.254376 -0.175699
-0.336268 -0.265454 -0.286482
-0.336252 -0.271296 -0.303018
-0.336226 -0.273590 -0.320335
-0.336341 -0.272251 -0.384457
-0.336337 -0.270859 -0.400582
-0.336194 -0.246163 -0.181581
-0.336242 -0.235982 -0.187187
-0.336278 -0.223763 -0.193437
-0.336604 -0.227401 -0.537168
-0.336247 -0.215518 -0.199586
-0.336231 -0.204602 -0.207800
-0.336584 -0.221843 -0.547999
-0.336179 -0.196381 -0.212951
-0.336164 -0.186738 -0.217622
-0.336591 -0.200442 -0.593831
-0.336179 -0.171233 -0.224365
-0.330693 -0.157465 -0.226775
-0.336786 0.106951 -0.544836
-0.336809 0.123004 -0.545296
-0.336678 0.194408 -0.592412
-0.336661 0.201315 -0.600740
-0.336660 0.209404 -0.608140
-0.336606 0.336173 -0.498886
-0.336670 0.482550 -0.336251
-0.336708 0.530703 -0.338800
-0.336717 0.538878 -0.345450
-0.336258 0.549439 -0.354406
-0.341405 0.555838 -0.361091
-0.336220 0.560605 -0.367055
-0.330489 0.556664 -0.359522
-0.336613 0.568678 -0.384248
-0.336564 0.571940 -0.394714
-0.336508 0.577488 -0.403213
-0.336456 0.584492 -0.417538
-0.336473 0.586405 -0.434330
-0.341781 0.605769 -0.213795
-0.336517 0.600149 -0.483241
-0.336468 0.603990 -0.498750
-0.336453 0.606207 -0.508569
-0.337029 0.615751 -0.516709
-0.342886 0.621786 -0.523699
-0.342060 0.630502 -0.524376
-0.336498 0.646165 -0.324281
-0.320232 -0.303961 -0.678453
-0.319842 -0.273914 -0.160733
-0.319810 -0.265677 -0.166998
-0.319822 -0.254121 -0.175398
-0.319841 -0.268325 -0.303585
-0.319833 -0.271224 -0.321021
-0.319814 -0.245898 -0.180899
-0.319859 -0.235978 -0.186563
-0.319882 -0.223474 -0.193258
-0.319850 -0.215224 -0.198965
-0.319746 -0.201812 -0.208083
-0.325137 -0.195449 -0.212349
-0.319701 -0.187956 -0.214272
-0.314226 -0.194241 -0.211856
-0.319716 -0.170325 -0.220347
-0.319722 -0.154989 -0.226803
-0.320258 -0.075066 -0.665427
-0.320337 -0.008921 -0.663005
-0.320416 0.106405 -0.546475
-0.320184 0.155547 -0.565185
-0.320090 0.170840 -0.568812
-0.320072 0.179063 -0.574481
-0.320084 0.183845 -0.582542
-0.320425 0.221145 -0.619085
-0.326047 0.227077 -0.623196
-0.320115 0.335798 -0.498627
-0.320299 0.385201 -0.495015
-0.320271 0.499117 -0.334219
-0.320265 0.515409 -0.333994
-0.320328 0.528741 -0.340347
-0.320347 0.536898 -0.346808
-0.320220 0.565129 -0.383927
-0.320058 0.582739 -0.434582
-0.320133 0.584879 -0.450885
-0.320171 0.587951 -0.461457
-0.320155 0.593855 -0.469794
-0.319856 0.602262 -0.483702
-0.323705 0.604760 -0.498775
-0.322253 0.614010 -0.499070
-0.325352 0.605644 -0.508607
-0.324940 0.614270 -0.510568
-0.320226 0.662850 -0.286596
-0.303889 -0.304217 -0.681260
-0.308992 -0.294418 -0.146385
-0.303582 -0.286101 -0.150109
-0.303574 -0.271382 -0.159103
-0.303534 -0.263148 -0.164364
-0.302447 -0.251357 -0.173754
-0.306609 -0.262748 -0.303435
-0.298449 -0.258183 -0.303490
-0.307156 -0.245181 -0.180010
-0.302446 -0.237394 -0.184396
-0.296276 -0.243816 -0.178642
-0.303527 -0.224126 -0.193259
-0.303490 -0.215874 -0.198620
-0.303455 -0.203135 -0.206438
-0.303427 -0.193699 -0.211558
-0.303380 -0.185477 -0.215511
-0.303374 -0.170323 -0.222674
-0.303371 -0.154394 -0.228395
-0.303876 -0.140870 -0.661802
-0.303833 -0.124570 -0.659988
-0.303816 -0.108226 -0.661732
-0.303899 -0.042256 -0.674436
-0.299050 -0.006690 -0.261544
-0.304045 0.105728 -0.545531
-0.304102 0.117552 -0.550218
-0.303552 0.193539 -0.606995
-0.303596 0.204327 -0.610637
-0.303751 0.220699 -0.613001
-0.303910 0.237168 -0.611956
-0.310142 0.295990 -0.085136
-0.301509 0.304996 -0.077234
-0.300950 0.321184 -0.075608
-0.298743 0.337707 -0.076698
-0.303627 0.335496 -0.496699
-0.296481 0.350842 -0.080419
-0.303670 0.352568 -0.496151
-0.303777 0.369137 -0.497852
-0.303909 0.385306 -0.499763
-0.303739 0.567189 -0.400754
-0.303778 0.581898 -0.450619
-0.303802 0.587050 -0.462790
-0.302373 0.597436 -0.471920
-0.306883 0.603099 -0.478721
-0.295964 0.638073 -0.327414
-0.287155 -0.349482 -0.483724
-0.287163 -0.352566 -0.499765
-0.287186 -0.353538 -0.515701
-0.287235 -0.352240 -0.531964
-0.287268 -0.348867 -0.548355
-0.287294 -0.339659 -0.597957
-0.287236 -0.282765 -0.149355
-0.288216 -0.267315 -0.158116
-0.294363 -0.260824 -0.162566
-0.288180 -0.253209 -0.167866
-0.283400 -0.259234 -0.161848
-0.287130 -0.242214 -0.177354
-0.287123 -0.233983 -0.183689
-0.287138 -0.223614 -0.191775
-0.287106 -0.215365 -0.198054
-0.287065 -0.203138 -0.205852
-0.287030 -0.193719 -0.211389
-0.286974 -0.185499 -0.214868
-0.286945 -0.170323 -0.221496
-0.286925 -0.155068 -0.227780
-0.287395 -0.124655 -0.665172
-0.287368 -0.108234 -0.665146
-0.287377 -0.096804 -0.669865
-0.287404 -0.088484 -0.673373
-0.287418 -0.075039 -0.675799
-0.287418 -0.058552 -0.677163
-0.287474 -0.042067 -0.678574
-0.287035 -0.006590 -0.260279
-0.287422 0.237317 -0.610401
-0.286530 0.261101 -0.059346
-0.287157 0.335379 -0.499589
-0.287221 0.352352 -0.500955
-0.287538 0.531235 -0.352639
-0.287568 0.539387 -0.360315
-0.287528 0.546072 -0.368585
-0.287480 0.554264 -0.380486
-0.287403 0.559307 -0.388897
-0.287347 0.563661 -0.400744
-0.287325 0.567132 -0.417735
-0.287398 0.584585 -0.465202
-0.287410 0.597093 -0.473013
-0.270941 -0.363375 -0.691988
-0.270793 -0.356062 -0.532187
-0.270817 -0.353170 -0.548709
-0.270799 -0.349513 -0.565076
-0.270739 -0.280073 -0.148040
-0.270741 -0.268818 -0.153603
-0.270723 -0.255600 -0.160295
-0.270689 -0.247370 -0.165966
-0.269561 -0.236264 -0.174800
-0.274278 -0.230959 -0.181428
-0.269582 -0.222642 -0.186989
-0.263317 -0.227294 -0.178980
-0.270713 -0.213495 -0.196885
-0.270668 -0.203143 -0.204010
-0.270607 -0.191126 -0.210566
-0.270540 -0.182902 -0.213054
-0.270497 -0.170332 -0.217677
-0.271046 -0.173985 -0.692783
-0.270446 -0.155253 -0.225600
-0.271030 -0.157444 -0.691679
-0.270907 -0.108226 -0.666804
-0.270912 -0.098061 -0.670865
-0.270925 -0.089670 -0.675270
-0.270954 -0.074934 -0.678954
-0.270976 -0.058556 -0.680446
-0.271009 -0.041992 -0.682772
-0.271031 -0.030260 -0.686307
-0.271052 -0.021663 -0.692240
-0.270960 0.253951 -0.609800
-0.270972 0.500391 -0.347411
-0.270982 0.516594 -0.346420
-0.270989 0.531370 -0.353777
-0.271012 0.539509 -0.360684
-0.271011 0.545248 -0.368932
-0.270913 0.564908 -0.417854
-0.270928 0.567690 -0.434535
-0.267344 0.646172 -0.321926
-0.254335 -0.363719 -0.467739
-0.254353 -0.364923 -0.484142
-0.254349 -0.363835 -0.500045
-0.254402 -0.353056 -0.565202
-0.254410 -0.349983 -0.581717
-0.254461 -0.348497 -0.598336
-0.254481 -0.350934 -0.614788
-0.254650 -0.336002 -0.708582
-0.254657 -0.304392 -0.696677
-0.254326 -0.277630 -0.146544
-0.254329 -0.268822 -0.149611
-0.255818 -0.250851 -0.156444
-0.262279 -0.244342 -0.163817
-0.258500 -0.235980 -0.167499
-0.250293 -0.235979 -0.159533
-0.252357 -0.221664 -0.173126
-0.246394 -0.226994 -0.162911
-0.254627 -0.227678 -0.701292
-0.258641 -0.215692 -0.187473
-0.250060 -0.203354 -0.188368
-0.247350 -0.208989 -0.177655
-0.261536 -0.212157 -0.195810
-0.258299 -0.203151 -0.198881
-0.254682 -0.219494 -0.710002
-0.254698 -0.206446 -0.716406
-0.254348 -0.186520 -0.204284
-0.246927 -0.193466 -0.193969
-0.261729 -0.179582 -0.212017
-0.255422 -0.169132 -0.213801
-0.250854 -0.173797 -0.209202
-0.254654 -0.173932 -0.696432
-0.255363 -0.152438 -0.222879
-0.254629 -0.157378 -0.694099
-0.250779 -0.142641 -0.227286
-0.254589 -0.074764 -0.682768
-0.254606 -0.058243 -0.683056
-0.254622 -0.041623 -0.684599
-0.254625 -0.029272 -0.687194
-0.254652 -0.020780 -0.691563
-0.255950 -0.007975 -0.698563
-0.262258 -0.002392 -0.705216
-0.261848 0.007406 -0.705844
-0.253689 0.007330 -0.699456
-0.260608 0.048332 -0.154776
-0.258174 0.046200 -0.189496
-0.254853 0.131086 -0.637551
-0.254822 0.136686 -0.647054
-0.254461 0.171664 -0.677146
-0.246915 0.329668 -0.079252
-0.254530 0.500725 -0.349908
-0.254516 0.517076 -0.350019
-0.254507 0.529180 -0.356164
-0.254526 0.564908 -0.434382
-0.254568 0.567689 -0.450705
-0.259512 0.646184 -0.313817
-0.238079 -0.393802 -0.674573
-0.238097 -0.386221 -0.682293
-0.238147 -0.377971 -0.689660
-0.238144 -0.370206 -0.697898
-0.237981 -0.364692 -0.434918
-0.237972 -0.367246 -0.451208
-0.237988 -0.367220 -0.516173
-0.238035 -0.364420 -0.532355
-0.238070 -0.361224 -0.546447
-0.238069 -0.358588 -0.554657
-0.238171 -0.362308 -0.705072
-0.238212 -0.352106 -0.707239
-0.238035 -0.355155 -0.565231
-0.238039 -0.352028 -0.581819
-0.238091 -0.351858 -0.598278
-0.238110 -0.353994 -0.614689
-0.238077 -0.357218 -0.631036
-0.238275 -0.335995 -0.709807
-0.238261 -0.287920 -0.694294
-0.245624 -0.277233 -0.146200
-0.239285 -0.267999 -0.147109
-0.243223 -0.236002 -0.150852
-0.241019 -0.220752 -0.156469
-0.236131 -0.203163 -0.155597
-0.244179 -0.216018 -0.167051
-0.242077 -0.203375 -0.172380
-0.244322 -0.198022 -0.183855
-0.238194 -0.186251 -0.188042
-0.243076 -0.182510 -0.198413
-0.238648 -0.168928 -0.204011
-0.232085 -0.175018 -0.192455
-0.238285 -0.173803 -0.697160
-0.245172 -0.162837 -0.212921
-0.238959 -0.152688 -0.215360
-0.234267 -0.157327 -0.209502
-0.238260 -0.157277 -0.692567
-0.237813 -0.140320 -0.224153
-0.238121 -0.114642 -0.671983
-0.238131 -0.106365 -0.674647
-0.238216 -0.091301 -0.680330
-0.238269 -0.074537 -0.684017
-0.238262 -0.057739 -0.683006
-0.238275 -0.041100 -0.683088
-0.239535 -0.023768 -0.684602
-0.245831 -0.017656 -0.688387
-0.244194 -0.008558 -0.689736
-0.236005 -0.008640 -0.683904
-0.243073 0.007227 -0.691072
-0.234894 0.007159 -0.683602
-0.238265 0.083401 -0.587690
-0.238073 0.135778 -0.195009
-0.238514 0.145101 -0.673077
-0.238470 0.154960 -0.676867
-0.238345 0.171567 -0.680152
-0.234649 0.303776 -0.057072
-0.237540 0.320045 -0.056257
-0.237455 0.336699 -0.055992
-0.238157 0.500952 -0.352737
-0.238187 0.540323 -0.377402
-0.238172 0.545367 -0.385634
-0.238156 0.551805 -0.400292
-0.238132 0.556039 -0.412847
-0.238113 0.558765 -0.421391
-0.238134 0.561885 -0.434036
-0.238183 0.565676 -0.450554
-0.238183 0.568930 -0.466591
-0.238164 0.571455 -0.479554
-0.238200 0.646445 -0.269261
-0.221606 -0.395939 -0.664773
-0.221671 -0.395393 -0.676891
-0.221688 -0.388306 -0.684512
-0.225962 -0.375861 -0.483666
-0.217741 -0.375098 -0.483868
-0.227374 -0.375766 -0.492767
-0.221769 -0.373786 -0.498995
-0.221730 -0.380073 -0.691575
-0.221724 -0.371605 -0.699859
-0.221566 -0.367760 -0.434842
-0.221563 -0.370557 -0.451067
-0.221564 -0.369863 -0.516212
-0.221604 -0.366016 -0.532439
-0.221639 -0.361705 -0.548410
-0.221637 -0.359300 -0.556659
-0.221746 -0.363740 -0.705347
-0.221783 -0.352096 -0.707652
-0.221607 -0.356467 -0.565425
-0.221607 -0.353700 -0.582051
-0.221657 -0.354490 -0.598535
-0.221670 -0.356729 -0.614979
-0.221848 -0.335952 -0.709892
-0.221874 -0.320021 -0.708218
-0.221834 -0.287811 -0.696939
-0.221651 -0.282208 -0.132308
-0.222857 -0.268078 -0.139526
-0.221824 -0.270983 -0.696890
-0.229136 -0.261965 -0.146223
-0.221796 -0.254589 -0.698407
-0.221768 -0.240198 -0.702530
-0.221785 -0.232104 -0.706393
-0.221811 -0.223899 -0.714159
-0.221882 -0.215798 -0.721804
-0.221898 -0.205959 -0.722181
-0.229090 -0.179029 -0.182051
-0.227465 -0.169869 -0.188206
-0.227409 -0.164052 -0.198940
-0.220767 -0.151779 -0.205820
-0.221833 -0.157112 -0.693972
-0.225163 -0.146389 -0.214332
-0.220368 -0.141189 -0.220805
-0.221736 -0.113910 -0.672283
-0.221750 -0.105613 -0.674071
-0.221821 -0.091108 -0.678298
-0.221859 -0.074297 -0.681271
-0.221841 -0.057594 -0.681161
-0.221841 -0.041003 -0.681392
-0.221847 -0.024569 -0.681196
-0.224882 0.007076 -0.675327
-0.229340 0.114584 -0.184703
-0.227736 0.123943 -0.186947
-0.223412 0.140009 -0.174180
-0.216875 0.152160 -0.174166
-0.222029 0.155137 -0.678604
-0.221954 0.171764 -0.681840
-0.221831 0.188189 -0.679075
-0.224785 0.193423 -0.108571
-0.216495 0.199541 -0.108564
-0.221675 0.500974 -0.353151
-0.220497 0.518295 -0.355414
-0.225230 0.524297 -0.359811
-0.220495 0.529837 -0.366114
-0.214222 0.525911 -0.358973
-0.221768 0.563187 -0.450298
-0.221766 0.566719 -0.466506
-0.205177 -0.399236 -0.664961
-0.205258 -0.396956 -0.678456
-0.205272 -0.389993 -0.685957
-0.205301 -0.381796 -0.692796
-0.205292 -0.372442 -0.701071
-0.205120 -0.363036 -0.418600
-0.205129 -0.368143 -0.434799
-0.205129 -0.371970 -0.450924
-0.205122 -0.371798 -0.516163
-0.205158 -0.367965 -0.532570
-0.205306 -0.364592 -0.705388
-0.205340 -0.352100 -0.707677
-0.205402 -0.335880 -0.709820
-0.205424 -0.319932 -0.708678
-0.205383 -0.287724 -0.698928
-0.205237 -0.269002 -0.134879
-0.205370 -0.270749 -0.699697
-0.205346 -0.225438 -0.715963
-0.205411 -0.217180 -0.723535
-0.205431 -0.205642 -0.726213
-0.212449 -0.146222 -0.201831
-0.204947 -0.136120 -0.222533
-0.205409 -0.090993 -0.676687
-0.205422 -0.074193 -0.679010
-0.205402 -0.057775 -0.679756
-0.205377 -0.041261 -0.680735
-0.205348 -0.024547 -0.681885
-0.205367 0.067939 -0.603259
-0.205522 0.138518 -0.680395
-0.205462 0.155278 -0.683095
-0.205101 0.207850 -0.091855
-0.205052 0.205278 -0.108575
-0.204925 0.533756 -0.025536
-0.205236 0.536583 -0.383718
-0.205290 0.540965 -0.393802
-0.205253 0.545269 -0.402213
-0.205240 0.551440 -0.417168
-0.205337 0.564257 -0.466394
-0.205302 0.567990 -0.482559
-0.188956 -0.367845 -0.122428
-0.188745 -0.378442 -0.483847
-0.188906 -0.373534 -0.702313
-0.188742 -0.365466 -0.418361
-0.188734 -0.370402 -0.434634
-0.188917 -0.365704 -0.705678
-0.188949 -0.352075 -0.708658
-0.188999 -0.335784 -0.711275
-0.188962 -0.318510 -0.132107
-0.189016 -0.319773 -0.711414
-0.188943 -0.302206 -0.133103
-0.188916 -0.285667 -0.134512
-0.188879 -0.269025 -0.136072
-0.195851 -0.130526 -0.222594
-0.189046 -0.091029 -0.681132
-0.189045 -0.074374 -0.681664
-0.189012 -0.058014 -0.680601
-0.188976 -0.041538 -0.680638
-0.188952 -0.024823 -0.682358
-0.188865 0.551837 -0.433493
-0.188896 0.565077 -0.482501
-0.188873 0.569548 -0.498669
-0.188867 0.572392 -0.508183
-0.188855 0.580994 -0.512637
-0.172471 -0.433280 -0.073932
-0.172476 -0.434053 -0.090453
-0.172473 -0.428146 -0.103399
-0.172411 -0.418779 -0.664834
-0.172466 -0.414390 -0.676872
-0.172483 -0.404157 -0.684433
-0.172533 -0.384129 -0.125769
-0.172503 -0.395874 -0.690154
-0.172535 -0.384061 -0.697538
-0.172333 -0.381217 -0.483769
-0.172327 -0.382155 -0.500136
-0.172317 -0.382498 -0.516529
-0.172335 -0.383318 -0.532988
-0.172336 -0.383428 -0.549596
-0.172298 -0.382071 -0.566394
-0.172278 -0.382241 -0.583072
-0.172510 -0.374540 -0.703108
-0.172356 -0.366655 -0.418141
-0.172334 -0.371393 -0.434504
-0.172520 -0.366746 -0.706256
-0.172549 -0.352065 -0.710452
-0.172588 -0.334982 -0.133323
-0.172331 -0.350019 -0.385662
-0.172584 -0.335716 -0.714214
-0.172575 -0.318478 -0.135274
-0.172600 -0.319647 -0.716376
-0.172551 -0.302121 -0.136382
-0.172591 -0.303788 -0.715687
-0.172524 -0.285595 -0.137569
-0.172493 -0.268999 -0.139032
-0.172474 -0.252624 -0.136880
-0.172619 -0.156227 -0.726513
-0.172649 -0.091099 -0.683427
-0.172641 -0.074610 -0.682513
-0.172605 -0.058262 -0.679972
-0.172581 -0.041805 -0.679299
-0.172576 -0.025186 -0.680679
-0.172552 -0.008877 -0.678572
-0.172534 0.269401 -0.090022
-0.172345 0.528735 -0.387421
-0.172392 0.535159 -0.400443
-0.172410 0.540447 -0.411982
-0.172405 0.544172 -0.420327
-0.172427 0.548721 -0.433437
-0.172475 0.553621 -0.449707
-0.172498 0.556723 -0.460679
-0.172493 0.558913 -0.468955
-0.172468 0.562214 -0.482447
-0.172454 0.567404 -0.498684
-0.172444 0.571772 -0.510003
-0.156081 -0.400651 -0.124717
-0.155995 -0.423053 -0.664884
-0.156042 -0.415832 -0.677376
-0.156051 -0.404385 -0.684906
-0.156069 -0.396096 -0.690250
-0.155870 -0.381220 -0.500595
-0.155861 -0.383326 -0.517062
-0.155888 -0.386049 -0.533547
-0.156149 -0.351872 -0.133208
-0.155893 -0.367935 -0.434589
-0.155862 -0.371666 -0.450938
-0.156104 -0.352127 -0.712285
-0.156152 -0.335085 -0.135005
-0.156139 -0.318558 -0.136511
-0.156108 -0.302240 -0.137247
-0.156079 -0.285690 -0.138375
-0.156050 -0.269038 -0.140060
-0.156136 -0.274062 -0.735349
-0.156030 -0.252706 -0.137062
-0.156114 -0.265636 -0.739253
-0.155651 -0.252673 -0.747167
-0.160825 -0.246470 -0.753715
-0.156201 -0.237927 -0.761667
-0.149856 -0.245578 -0.751516
-0.162568 -0.230281 -0.769977
-0.156702 -0.223099 -0.772980
-0.151580 -0.229901 -0.769654
-0.156371 -0.156082 -0.711994
-0.150264 -0.156049 -0.700523
-0.162269 -0.156130 -0.724290
-0.152050 -0.107614 -0.666250
-0.160041 -0.091125 -0.677004
-0.162024 -0.083123 -0.204438
-0.158870 -0.072214 -0.204622
-0.154752 -0.072321 -0.221633
-0.151444 -0.074481 -0.664172
-0.148255 -0.074304 -0.654981
-0.159310 -0.074657 -0.676302
-0.152894 -0.056026 -0.221994
-0.150435 -0.059422 -0.663810
-0.147982 -0.065362 -0.655892
-0.159225 -0.058415 -0.675363
-0.159017 -0.042002 -0.675304
-0.150792 -0.042001 -0.667960
-0.158946 -0.025353 -0.675625
-0.150713 -0.025239 -0.668437
-0.158111 -0.008977 -0.674880
-0.149895 -0.008883 -0.669421
-0.158933 0.007142 -0.673310
-0.150757 0.007080 -0.669883
-0.156354 0.023619 -0.673360
-0.151040 0.017904 -0.669815
-0.156188 0.040660 -0.678227
-0.147790 0.083329 -0.261819
-0.159067 0.076221 -0.689101
-0.154609 0.088147 -0.692160
-0.148064 0.081410 -0.687329
-0.151296 0.104300 -0.221585
-0.155757 0.108095 -0.700834
-0.149975 0.115256 -0.703634
-0.161885 0.127815 -0.189773
-0.163858 0.179286 -0.117049
-0.157355 0.184833 -0.123511
-0.148308 0.214212 -0.092145
-0.156137 0.335169 -0.811962
-0.156147 0.351696 -0.810168
-0.150267 0.365077 -0.637904
-0.156149 0.400539 -0.792261
-0.155849 0.517706 -0.385289
-0.155865 0.527527 -0.390248
-0.155902 0.533519 -0.400696
-0.155928 0.540233 -0.412412
-0.155928 0.545090 -0.420833
-0.155948 0.550097 -0.433748
-0.154502 0.555480 -0.451421
-0.159018 0.557256 -0.460249
-0.154535 0.559333 -0.466032
-0.148050 0.558194 -0.457899
-0.155998 0.562673 -0.482662
-0.155989 0.566876 -0.498845
-0.155981 0.571287 -0.511088
-0.155962 0.577871 -0.519423
-0.155985 0.586012 -0.525713
-0.139631 -0.428377 -0.117513
-0.139636 -0.417438 -0.122531
-0.139620 -0.406233 -0.686086
-0.139438 -0.399927 -0.566710
-0.139637 -0.397972 -0.692091
-0.139664 -0.387457 -0.700137
-0.139689 -0.368448 -0.134672
-0.139429 -0.382877 -0.501002
-0.139651 -0.379355 -0.706283
-0.139703 -0.352063 -0.136328
-0.139450 -0.366940 -0.434856
-0.139707 -0.335199 -0.138395
-0.139692 -0.318635 -0.139581
-0.139659 -0.302332 -0.139404
-0.139630 -0.285769 -0.140136
-0.139602 -0.269088 -0.141646
-0.139581 -0.252793 -0.137368
-0.139635 -0.107373 -0.658885
-0.139655 -0.041942 -0.666648
-0.139638 -0.025076 -0.665200
-0.139649 -0.008721 -0.666073
-0.139416 0.173937 -0.157614
-0.144812 0.192136 -0.124964
-0.138275 0.223082 -0.092550
-0.131388 0.263271 -0.198360
-0.139537 0.366659 -0.636691
-0.139442 0.538581 -0.413895
-0.139456 0.545049 -0.422304
-0.139475 0.549580 -0.434113
-0.139536 0.563448 -0.482984
-0.139538 0.566020 -0.499062
-0.123315 -0.448746 -0.073313
-0.123295 -0.449320 -0.090468
-0.123040 -0.381969 -0.468024
-0.123057 -0.385316 -0.484600
-0.123053 -0.367839 -0.418826
-0.129977 0.178315 -0.157571
-0.127940 0.176819 -0.173303
-0.119755 0.183277 -0.172991
-0.130076 0.228756 -0.087333
-0.115893 0.237492 -0.197159
-0.124178 0.269734 -0.193535
-0.120709 0.287681 -0.191510
-0.118029 0.301418 -0.192864
-0.123146 0.561833 -0.499161
-0.123187 0.563195 -0.515555
-0.123189 0.564119 -0.533100
-0.106961 0.433574 -0.811113
-0.097791 -0.447708 -0.847096
-0.098496 -0.444488 -0.855097
-0.084177 -0.418978 -0.162201
-0.083174 -0.409571 -0.163255
-0.090582 -0.336910 -0.832263
-0.090365 -0.053201 -0.986450
-0.090463 0.086773 -0.862881
-0.090497 0.094909 -0.869468
-0.090531 0.106624 -0.873057
-0.090527 0.122316 -0.876580
-0.090466 0.138144 -0.880871
-0.090152 0.187511 -0.898380
-0.095437 0.192750 -0.903777
-0.093043 0.204142 -0.905561
-0.084843 0.204226 -0.900765
-0.093523 0.220528 -0.906050
-0.085319 0.220706 -0.900117
-0.094022 0.236872 -0.909572
-0.085395 0.237153 -0.899790
-0.085879 0.253754 -0.910269
-0.083575 0.248390 -0.900932
-0.097725 0.242215 -0.917612
-0.094036 0.253537 -0.919871
-0.092893 0.270093 -0.920927
-0.092658 0.286500 -0.910348
-0.096520 0.286327 -0.919228
-0.095720 0.334966 -0.869391
-0.087491 0.335031 -0.867473
-0.090600 0.368044 -0.862038
-0.090504 0.433578 -0.814783
-0.090481 0.449961 -0.813307
-0.090498 0.466513 -0.810816
-0.090495 0.483054 -0.807902
-0.090414 0.516147 -0.796842
-0.078223 -0.498956 -0.123641
-0.073473 -0.484095 -0.123758
-0.068982 -0.483402 -0.109147
-0.080294 -0.497415 -0.138186
-0.076961 -0.484886 -0.138303
-0.081798 -0.495058 -0.149405
-0.080285 -0.486066 -0.155549
-0.073961 -0.485090 -0.189504
-0.072098 -0.467591 -0.123565
-0.068399 -0.467200 -0.110048
-0.074662 -0.468055 -0.138211
-0.076041 -0.468239 -0.155441
-0.075068 -0.468308 -0.173077
-0.071283 -0.468382 -0.188951
-0.071336 -0.451177 -0.123323
-0.067817 -0.451075 -0.111505
-0.074105 -0.451336 -0.138152
-0.074865 -0.451417 -0.155415
-0.073189 -0.451527 -0.172961
-0.070191 -0.451727 -0.188650
-0.079853 -0.462452 -0.813453
-0.077781 -0.451302 -0.814036
-0.071173 -0.451455 -0.800604
-0.080322 -0.461765 -0.826035
-0.080660 -0.451273 -0.825678
-0.071228 -0.435016 -0.123359
-0.067507 -0.434781 -0.111631
-0.075567 -0.435306 -0.138440
-0.073746 -0.435527 -0.188991
-0.070724 -0.435136 -0.801613
-0.070815 -0.418634 -0.123378
-0.067168 -0.418324 -0.112191
-0.076199 -0.419020 -0.138660
-0.080749 -0.419097 -0.153153
-0.075048 -0.419181 -0.189307
-0.078336 -0.419130 -0.807556
-0.070073 -0.418920 -0.802756
-0.069679 -0.401809 -0.123128
-0.066574 -0.401707 -0.113788
-0.074619 -0.401942 -0.138537
-0.079331 -0.403088 -0.156455
-0.073723 -0.402448 -0.808194
-0.067879 -0.407626 -0.804467
-0.067955 -0.384505 -0.121732
-0.066159 -0.389532 -0.115006
-0.072716 -0.385113 -0.138521
-0.076556 -0.385060 -0.155318
-0.076503 -0.385146 -0.172481
-0.074138 -0.386226 -0.811967
-0.070952 -0.368891 -0.138799
-0.067292 -0.368964 -0.125423
-0.076556 -0.368713 -0.155430
-0.078892 -0.368686 -0.172427
-0.073406 -0.369727 -0.818239
-0.074792 -0.352714 -0.091661
-0.069635 -0.352321 -0.138812
-0.066733 -0.352413 -0.126595
-0.075240 -0.352086 -0.155253
-0.078123 -0.351984 -0.172117
-0.078456 -0.364388 -0.824427
-0.073544 -0.352947 -0.825755
-0.067458 -0.358411 -0.820904
-0.074125 -0.335650 -0.091562
-0.068926 -0.335333 -0.138466
-0.072470 -0.335146 -0.154750
-0.073735 -0.335056 -0.171515
-0.074159 -0.336532 -0.827129
-0.069870 -0.319325 -0.108032
-0.067524 -0.319024 -0.123520
-0.068543 -0.318718 -0.138661
-0.070674 -0.318508 -0.154818
-0.071089 -0.318438 -0.171445
-0.068896 -0.302952 -0.124070
-0.068360 -0.302378 -0.139463
-0.069547 -0.302074 -0.155487
-0.069765 -0.302003 -0.171899
-0.078394 -0.303581 -0.821466
-0.070239 -0.303470 -0.817386
-0.070439 -0.286355 -0.124262
-0.068217 -0.285793 -0.139752
-0.068559 -0.285541 -0.155642
-0.068340 -0.285486 -0.171898
-0.075324 -0.285409 -0.823139
-0.070722 -0.290030 -0.817831
-0.072271 -0.269463 -0.124173
-0.068434 -0.269117 -0.139594
-0.068000 -0.268993 -0.155331
-0.073096 -0.270237 -0.833405
-0.074766 -0.253062 -0.124376
-0.069477 -0.252676 -0.139884
-0.067695 -0.252550 -0.155527
-0.077931 -0.264990 -0.840391
-0.074154 -0.254149 -0.845603
-0.066979 -0.260666 -0.837523
-0.071010 -0.236321 -0.140386
-0.067563 -0.236145 -0.155983
-0.081172 -0.247763 -0.853346
-0.080113 -0.238727 -0.853628
-0.071935 -0.238492 -0.850046
-0.072412 -0.219820 -0.140476
-0.067791 -0.219679 -0.155963
-0.073792 -0.203295 -0.140375
-0.068192 -0.203218 -0.155718
-0.075562 -0.186889 -0.140439
-0.068951 -0.186834 -0.155751
-0.079657 -0.189113 -0.839299
-0.071429 -0.188856 -0.835696
-0.071104 -0.170487 -0.155965
-0.074521 -0.154182 -0.156213
-0.078501 -0.137885 -0.140688
-0.076008 -0.137888 -0.156628
-0.079683 -0.133676 -0.107647
-0.073053 -0.121442 -0.107148
-0.071885 -0.121462 -0.124035
-0.073516 -0.121501 -0.140858
-0.072433 -0.121507 -0.157176
-0.069254 -0.121467 -0.173260
-0.073288 -0.117734 -0.057885
-0.077556 -0.116867 -0.073759
-0.069142 -0.105963 -0.073418
-0.067390 -0.112156 -0.063457
-0.069963 -0.105031 -0.089797
-0.067349 -0.105064 -0.106880
-0.067421 -0.105083 -0.124112
-0.068220 -0.105083 -0.141034
-0.066495 -0.110398 -0.173691
-0.066107 -0.111736 -0.189705
-0.076224 -0.104290 -0.776571
-0.070809 -0.109492 -0.766140
-0.066395 -0.091437 -0.089536
-0.066525 -0.092943 -0.078675
-0.065777 -0.093235 -0.106977
-0.065896 -0.094241 -0.124256
-0.065870 -0.095078 -0.141086
-0.081659 -0.099099 -0.788747
-0.075320 -0.096094 -0.794900
-0.070721 -0.096989 -0.782408
-0.073995 -0.094439 -0.811929
-0.073993 -0.093555 -0.827770
-0.074019 -0.090956 -0.844553
-0.074049 -0.086687 -0.861837
-0.074070 -0.082878 -0.873707
-0.074065 -0.078549 -0.881893
-0.069726 -0.055732 -0.090649
-0.067817 -0.055825 -0.107796
-0.067476 -0.055849 -0.124568
-0.074039 -0.072058 -0.894957
-0.073995 -0.066639 -0.908315
-0.073969 -0.062383 -0.916817
-0.068485 -0.039145 -0.073417
-0.066363 -0.044546 -0.064573
-0.070070 -0.039336 -0.091110
-0.067673 -0.039394 -0.107795
-0.067614 -0.039430 -0.124398
-0.067910 -0.039451 -0.140979
-0.073931 -0.057024 -0.928481
-0.073933 -0.053138 -0.944920
-0.073950 -0.052908 -0.961434
-0.073932 -0.054672 -0.978076
-0.073919 -0.052356 -0.986534
-0.066989 -0.025700 -0.090984
-0.066959 -0.026537 -0.078551
-0.065993 -0.028784 -0.107538
-0.065942 -0.029232 -0.124147
-0.066036 -0.028742 -0.140798
-0.067857 0.009792 -0.090606
-0.066967 0.009786 -0.078248
-0.067304 0.022584 -0.090522
-0.066903 0.021275 -0.078370
-0.066699 0.021420 -0.107532
-0.073918 0.011333 -0.975714
-0.073948 0.015282 -0.984652
-0.071621 0.073712 -0.124946
-0.075085 0.073634 -0.141159
-0.073344 0.073523 -0.157072
-0.074006 0.074287 -0.858657
-0.076097 0.089907 -0.108575
-0.077894 0.089672 -0.124654
-0.079853 0.089504 -0.140281
-0.077108 0.089431 -0.156277
-0.070197 0.089395 -0.172552
-0.074015 0.085947 -0.864214
-0.078368 0.105534 -0.155908
-0.071758 0.105565 -0.173325
-0.074039 0.094118 -0.869952
-0.074077 0.106861 -0.873030
-0.072871 0.121689 -0.173980
-0.074077 0.122491 -0.875507
-0.074029 0.138238 -0.879485
-0.074046 0.154651 -0.883462
-0.079499 0.160121 -0.885848
-0.074044 0.171103 -0.888503
-0.068641 0.165482 -0.884829
-0.074012 0.187783 -0.894841
-0.074549 0.203438 -0.141226
-0.074007 0.204145 -0.898200
-0.074027 0.220671 -0.897563
-0.074031 0.237117 -0.896860
-0.074226 0.253572 -0.898862
-0.079816 0.259281 -0.906158
-0.074060 0.302555 -0.876926
-0.074118 0.335041 -0.865521
-0.074158 0.351721 -0.863269
-0.074161 0.368175 -0.860476
-0.074076 0.433623 -0.814996
-0.074062 0.449979 -0.813755
-0.074084 0.466508 -0.811402
-0.074094 0.483025 -0.808085
-0.074027 0.516150 -0.794891
-0.078731 0.537146 -0.026330
-0.074436 0.549496 -0.026246
-0.073284 0.565305 -0.026207
-0.065660 -0.789386 -0.263755
-0.063707 -0.781587 -0.270391
-0.059079 -0.764024 -0.271004
-0.056637 -0.747608 -0.271461
-0.060511 -0.730290 -0.255303
-0.055836 -0.731087 -0.271792
-0.055716 -0.714367 -0.271980
-0.057292 -0.681876 -0.255957
-0.065237 -0.675152 -0.222834
-0.064470 -0.665870 -0.222928
-0.060992 -0.665921 -0.239461
-0.054894 -0.665711 -0.256107
-0.064358 -0.649231 -0.223143
-0.060452 -0.649242 -0.239645
-0.054273 -0.649028 -0.256190
-0.063317 -0.632852 -0.223213
-0.059694 -0.632828 -0.239726
-0.061837 -0.616703 -0.223155
-0.058582 -0.616661 -0.239742
-0.060823 -0.600286 -0.223086
-0.057234 -0.600245 -0.239738
-0.063918 -0.583651 -0.206243
-0.060275 -0.583688 -0.223045
-0.056014 -0.583666 -0.239732
-0.063927 -0.567230 -0.206219
-0.060532 -0.567274 -0.223062
-0.056341 -0.567252 -0.239751
-0.063764 -0.550930 -0.206314
-0.060878 -0.550951 -0.223125
-0.057175 -0.550918 -0.239768
-0.064301 -0.560820 -0.781625
-0.060268 -0.549848 -0.781657
-0.064339 -0.562554 -0.798145
-0.061185 -0.549997 -0.798196
-0.065190 -0.561776 -0.814575
-0.063744 -0.550237 -0.814523
-0.065673 -0.559950 -0.822638
-0.065444 -0.550374 -0.822887
-0.056325 -0.548233 -0.025152
-0.060423 -0.546524 -0.041572
-0.053251 -0.533916 -0.040297
-0.049884 -0.540033 -0.032027
-0.063770 -0.544299 -0.055832
-0.062284 -0.534324 -0.060202
-0.063249 -0.534367 -0.206382
-0.060176 -0.534355 -0.223142
-0.056279 -0.534275 -0.239733
-0.057912 -0.544308 -0.696789
-0.062197 -0.542622 -0.714040
-0.055111 -0.532395 -0.714551
-0.052466 -0.532230 -0.703065
-0.061888 -0.544718 -0.731576
-0.054709 -0.532844 -0.731761
-0.061637 -0.547374 -0.748491
-0.055154 -0.533199 -0.748575
-0.055880 -0.533434 -0.765168
-0.056380 -0.533650 -0.781698
-0.058327 -0.533823 -0.798015
-0.062439 -0.533876 -0.813511
-0.065306 -0.533871 -0.821426
-0.058600 -0.516844 -0.058278
-0.052544 -0.516833 -0.043861
-0.065111 -0.529506 -0.075323
-0.063309 -0.516936 -0.075157
-0.065595 -0.527199 -0.091969
-0.064805 -0.516842 -0.091927
-0.065602 -0.527066 -0.104794
-0.065348 -0.516701 -0.106987
-0.063084 -0.517713 -0.206363
-0.059571 -0.517668 -0.223099
-0.055333 -0.517520 -0.239663
-0.050601 -0.520538 -0.715008
-0.050345 -0.521578 -0.705280
-0.050389 -0.516669 -0.733148
-0.052053 -0.516854 -0.748646
-0.053844 -0.517159 -0.765228
-0.054976 -0.517519 -0.781534
-0.057645 -0.517704 -0.796935
-0.055555 -0.500561 -0.057342
-0.050863 -0.500762 -0.046035
-0.061134 -0.500219 -0.074479
-0.064078 -0.500000 -0.091676
-0.065447 -0.499922 -0.104061
-0.061171 -0.501303 -0.222986
-0.057126 -0.501145 -0.239578
-0.051117 -0.501838 -0.747932
-0.049642 -0.508005 -0.739451
-0.054590 -0.501043 -0.765007
-0.057016 -0.501331 -0.780539
-0.052661 -0.484267 -0.055049
-0.049919 -0.490179 -0.047730
-0.059210 -0.483527 -0.073589
-0.063594 -0.483317 -0.091190
-0.065711 -0.483302 -0.100865
-0.062960 -0.485003 -0.222764
-0.059139 -0.484856 -0.239473
-0.053720 -0.484324 -0.255492
-0.056152 -0.484823 -0.764064
-0.051704 -0.484523 -0.751287
-0.060559 -0.484963 -0.779128
-0.064285 -0.484949 -0.789859
-0.057631 -0.467206 -0.073032
-0.062464 -0.467158 -0.090631
-0.065444 -0.467154 -0.101670
-0.062109 -0.468409 -0.222377
-0.057976 -0.468223 -0.239338
-0.053041 -0.467550 -0.255070
-0.055422 -0.468283 -0.762749
-0.051049 -0.468132 -0.752061
-0.061299 -0.468338 -0.778748
-0.065080 -0.468259 -0.789056
-0.056001 -0.450718 -0.026305
-0.052492 -0.450813 -0.041834
-0.053027 -0.450889 -0.057202
-0.057050 -0.451000 -0.073098
-0.061599 -0.451077 -0.090379
-0.065065 -0.451082 -0.103067
-0.060834 -0.451842 -0.222120
-0.056241 -0.451566 -0.239188
-0.052200 -0.452221 -0.762611
-0.050167 -0.458202 -0.753069
-0.058894 -0.451565 -0.779263
-0.064195 -0.451542 -0.791937
-0.053816 -0.434815 -0.058176
-0.058472 -0.434687 -0.073919
-0.062365 -0.434673 -0.090730
-0.065099 -0.434725 -0.103280
-0.061499 -0.435554 -0.222209
-0.056480 -0.435162 -0.239009
-0.054180 -0.434836 -0.779668
-0.050668 -0.440379 -0.768669
-0.062677 -0.434994 -0.793175
-0.058395 -0.418626 -0.058796
-0.060893 -0.418254 -0.074563
-0.062938 -0.418128 -0.091008
-0.065029 -0.418228 -0.103932
-0.061449 -0.419149 -0.222346
-0.056473 -0.418680 -0.238841
-0.060714 -0.418606 -0.794429
-0.052478 -0.418227 -0.785045
-0.062067 -0.401556 -0.090764
-0.064593 -0.401664 -0.105577
-0.059588 -0.402393 -0.222385
-0.055565 -0.401930 -0.238729
-0.060028 -0.402096 -0.798295
-0.050813 -0.401943 -0.786446
-0.063139 -0.385199 -0.090812
-0.064958 -0.384557 -0.108758
-0.062137 -0.385717 -0.205360
-0.058570 -0.385725 -0.222329
-0.054961 -0.385283 -0.238681
-0.057154 -0.385820 -0.797135
-0.050497 -0.385490 -0.785482
-0.065243 -0.396742 -0.806105
-0.064398 -0.386079 -0.807033
-0.065978 -0.378687 -0.115923
-0.065712 -0.369019 -0.117921
-0.063132 -0.369306 -0.205164
-0.059159 -0.369324 -0.222208
-0.055129 -0.368863 -0.238712
-0.057316 -0.369081 -0.796802
-0.051475 -0.368801 -0.782098
-0.063567 -0.369370 -0.809794
-0.065594 -0.352466 -0.119100
-0.063434 -0.352572 -0.204986
-0.059953 -0.352706 -0.222087
-0.056066 -0.352358 -0.238837
-0.056512 -0.352261 -0.796244
-0.051620 -0.352026 -0.780981
-0.062982 -0.352662 -0.814440
-0.062618 -0.335505 -0.204800
-0.060408 -0.335834 -0.221943
-0.057089 -0.335732 -0.238991
-0.054494 -0.335446 -0.795485
-0.050623 -0.335229 -0.783224
-0.060498 -0.335896 -0.812345
-0.065416 -0.347284 -0.822645
-0.064843 -0.336242 -0.822217
-0.062432 -0.318781 -0.204720
-0.060170 -0.319043 -0.221854
-0.056282 -0.318985 -0.239030
-0.051338 -0.320141 -0.796580
-0.049988 -0.325948 -0.785284
-0.063264 -0.302314 -0.204770
-0.059551 -0.302340 -0.221853
-0.054042 -0.302179 -0.239013
-0.056179 -0.304591 -0.808614
-0.049753 -0.310637 -0.803094
-0.063238 -0.285670 -0.204819
-0.059400 -0.285639 -0.221945
-0.053562 -0.285522 -0.239020
-0.059213 -0.285359 -0.814458
-0.062200 -0.268993 -0.204863
-0.059554 -0.269004 -0.222083
-0.054712 -0.268987 -0.239011
-0.065686 -0.278679 -0.821414
-0.063208 -0.269982 -0.825266
-0.055053 -0.270053 -0.817734
-0.063794 -0.252517 -0.188040
-0.061711 -0.252519 -0.204884
-0.059031 -0.252524 -0.222033
-0.054221 -0.252528 -0.238875
-0.057798 -0.254236 -0.830502
-0.051615 -0.258366 -0.820225
-0.063511 -0.236107 -0.188190
-0.061865 -0.236111 -0.204868
-0.058285 -0.236108 -0.221854
-0.063922 -0.250317 -0.840668
-0.061981 -0.238163 -0.842634
-0.053728 -0.237950 -0.833426
-0.063437 -0.219645 -0.188070
-0.062059 -0.219653 -0.204759
-0.058339 -0.219662 -0.221736
-0.063280 -0.221791 -0.841032
-0.055078 -0.221558 -0.833220
-0.063043 -0.203188 -0.187856
-0.061481 -0.203193 -0.204660
-0.057785 -0.203214 -0.221711
-0.062135 -0.186791 -0.187904
-0.059272 -0.186786 -0.204766
-0.055034 -0.186799 -0.221825
-0.061658 -0.170403 -0.188098
-0.057259 -0.170382 -0.204959
-0.061614 -0.172376 -0.823949
-0.053477 -0.172244 -0.816652
-0.062453 -0.154036 -0.188277
-0.057363 -0.153986 -0.205058
-0.058969 -0.137627 -0.205216
-0.065575 -0.129437 -0.017417
-0.064689 -0.121207 -0.023182
-0.056382 -0.114330 0.008033
-0.054497 -0.104730 -0.005593
-0.050215 -0.109993 0.002547
-0.061462 -0.105148 -0.023672
-0.064798 -0.119097 -0.040662
-0.061700 -0.105477 -0.040264
-0.064947 -0.118613 -0.052722
-0.063593 -0.106256 -0.057356
-0.062127 -0.104810 -0.761320
-0.053091 -0.106212 -0.751371
-0.059267 -0.088635 -0.023362
-0.059800 -0.088933 -0.039926
-0.061830 -0.088868 -0.056272
-0.065041 -0.101092 -0.067927
-0.064739 -0.087916 -0.072864
-0.064576 -0.102182 -0.173775
-0.062115 -0.088631 -0.173768
-0.064245 -0.103537 -0.189785
-0.060980 -0.088611 -0.189783
-0.057083 -0.088600 -0.205818
-0.054672 -0.092208 -0.762832
-0.051054 -0.095341 -0.752805
-0.065714 -0.098290 -0.771096
-0.059194 -0.091983 -0.777971
-0.056642 -0.072191 -0.007261
-0.051720 -0.072537 0.005885
-0.059473 -0.072160 -0.023447
-0.060236 -0.072391 -0.039912
-0.062403 -0.072338 -0.056266
-0.065551 -0.083211 -0.089507
-0.065552 -0.085062 -0.107155
-0.065287 -0.086054 -0.124414
-0.064798 -0.086858 -0.141142
-0.063074 -0.072221 -0.157541
-0.060825 -0.072228 -0.173803
-0.059049 -0.072233 -0.189907
-0.055075 -0.072241 -0.206075
-0.057612 -0.090522 -0.795837
-0.057607 -0.090631 -0.811668
-0.057604 -0.090024 -0.827636
-0.057616 -0.088127 -0.844589
-0.057619 -0.083974 -0.862596
-0.063083 -0.082052 -0.872745
-0.057638 -0.076776 -0.878345
-0.052161 -0.080146 -0.868781
-0.059120 -0.055991 -0.008231
-0.060744 -0.055916 -0.024065
-0.060740 -0.056092 -0.040350
-0.061848 -0.055868 -0.173967
-0.059914 -0.055961 -0.190238
-0.055479 -0.056001 -0.206515
-0.057892 -0.068364 -0.893979
-0.063504 -0.066080 -0.906220
-0.057505 -0.056650 -0.912006
-0.052584 -0.061832 -0.898884
-0.055457 -0.040102 0.007967
-0.051187 -0.040251 0.020864
-0.059691 -0.039669 -0.007858
-0.060974 -0.039614 -0.023966
-0.060450 -0.039821 -0.040592
-0.063375 -0.039414 -0.058385
-0.062719 -0.039573 -0.174051
-0.060587 -0.039691 -0.190418
-0.055712 -0.039709 -0.206749
-0.061908 -0.051721 -0.928450
-0.056922 -0.040256 -0.928336
-0.052138 -0.040238 -0.916925
-0.063039 -0.050147 -0.944838
-0.059191 -0.040298 -0.944286
-0.062807 -0.050111 -0.961365
-0.059863 -0.040433 -0.960810
-0.061009 -0.050532 -0.978015
-0.061576 -0.050214 -0.986392
-0.052342 -0.023585 0.010590
-0.050178 -0.029199 0.019819
-0.057803 -0.023157 -0.006580
-0.059870 -0.023179 -0.023182
-0.059831 -0.023553 -0.040476
-0.061933 -0.023429 -0.057690
-0.065328 -0.033585 -0.067299
-0.064815 -0.021882 -0.073546
-0.062518 -0.023397 -0.174055
-0.060041 -0.023397 -0.190467
-0.054906 -0.023298 -0.206817
-0.056689 -0.024246 -0.928120
-0.052329 -0.024261 -0.916507
-0.060052 -0.024046 -0.943373
-0.056526 -0.006755 -0.006330
-0.051672 -0.007105 0.007767
-0.059018 -0.006819 -0.022991
-0.059079 -0.007216 -0.040298
-0.061234 -0.007088 -0.057525
-0.065221 -0.017517 -0.090857
-0.064955 -0.020620 -0.107244
-0.064781 -0.021067 -0.123841
-0.064576 -0.006706 -0.123729
-0.064701 -0.020585 -0.140622
-0.064245 -0.006756 -0.140577
-0.063612 -0.006932 -0.157466
-0.062130 -0.007108 -0.174100
-0.059768 -0.007087 -0.190519
-0.054557 -0.006967 -0.206865
-0.056846 -0.008035 -0.927739
-0.052947 -0.008039 -0.916527
-0.059766 -0.007780 -0.942631
-0.064065 -0.007619 -0.952668
-0.057118 0.009509 -0.006617
-0.051802 0.009312 0.007746
-0.059409 0.009456 -0.023258
-0.058642 0.009225 -0.040113
-0.061181 0.009393 -0.056980
-0.064730 0.009707 -0.069829
-0.064607 0.009703 -0.140744
-0.063448 0.009549 -0.157583
-0.061698 0.009342 -0.174166
-0.059848 0.009241 -0.190569
-0.054524 0.009255 -0.206896
-0.057876 0.005614 -0.958504
-0.055807 0.025638 -0.007195
-0.051164 0.025385 0.005598
-0.058167 0.025670 -0.023737
-0.057561 0.025466 -0.040254
-0.060135 0.025667 -0.056821
-0.064197 0.026385 -0.073041
-0.063805 0.026000 -0.141053
-0.062962 0.025847 -0.157687
-0.061489 0.025604 -0.174160
-0.059516 0.025450 -0.190455
-0.056976 0.012822 -0.975288
-0.062106 0.014873 -0.984672
-0.052583 0.041679 -0.007916
-0.049924 0.041288 0.001909
-0.054744 0.041814 -0.024283
-0.054995 0.041523 -0.040648
-0.057501 0.041748 -0.057013
-0.061183 0.042199 -0.073524
-0.064855 0.030648 -0.090503
-0.062759 0.042146 -0.090589
-0.064708 0.029419 -0.107639
-0.062868 0.041887 -0.107853
-0.062698 0.041941 -0.124734
-0.062547 0.042091 -0.141312
-0.062740 0.041932 -0.157733
-0.061834 0.041641 -0.174029
-0.059008 0.041499 -0.189823
-0.052815 0.057926 -0.007976
-0.050186 0.057524 0.002734
-0.054449 0.058034 -0.024400
-0.054229 0.057719 -0.040832
-0.056442 0.057897 -0.057223
-0.060174 0.058304 -0.073814
-0.062305 0.058183 -0.091048
-0.060393 0.057319 -0.188958
-0.057580 0.057774 -0.858666
-0.056435 0.074376 -0.007421
-0.057750 0.074350 -0.024101
-0.056470 0.074052 -0.040828
-0.058244 0.074121 -0.057609
-0.062136 0.074362 -0.074559
-0.057643 0.073077 -0.204830
-0.057567 0.074384 -0.858495
-0.057914 0.089663 -0.204921
-0.057570 0.087098 -0.863425
-0.056078 0.106449 -0.205339
-0.057600 0.095333 -0.869457
-0.057630 0.107158 -0.872751
-0.057646 0.122768 -0.875890
-0.057642 0.138376 -0.879255
-0.060397 0.154455 -0.190251
-0.057648 0.154781 -0.881880
-0.057334 0.171147 -0.884435
-0.062538 0.176452 -0.887250
-0.057322 0.186907 -0.890059
-0.051682 0.181038 -0.885840
-0.057633 0.203911 -0.894736
-0.057656 0.220418 -0.894705
-0.057667 0.236846 -0.893312
-0.057649 0.253054 -0.892274
-0.050461 0.269719 -0.197388
-0.050033 0.286487 -0.196367
-0.057704 0.285813 -0.880176
-0.056279 0.303818 -0.141393
-0.049633 0.296040 -0.195930
-0.057728 0.302203 -0.874781
-0.057782 0.336623 -0.124948
-0.057755 0.335002 -0.865559
-0.055811 0.353481 -0.124715
-0.057795 0.351703 -0.862371
-0.051677 0.365700 -0.124458
-0.057782 0.368243 -0.857375
-0.057718 0.433708 -0.813700
-0.057711 0.450033 -0.812352
-0.058049 0.467325 -0.075540
-0.057746 0.466447 -0.809460
-0.051634 0.517189 -0.386791
-0.055948 0.532179 -0.059028
-0.050397 0.527385 -0.389414
-0.050573 0.542452 -0.204204
-0.050285 0.541412 -0.195037
-0.054600 0.564297 -0.272327
-0.052459 0.564260 -0.259164
-0.054139 0.564799 -0.354496
-0.053456 0.565140 -0.370513
-0.056059 0.580700 -0.272219
-0.053567 0.580684 -0.257496
-0.052234 0.580764 -0.321611
-0.050024 0.580730 -0.310133
-0.054699 0.580809 -0.338160
-0.056925 0.580924 -0.354520
-0.056208 0.581163 -0.370792
-0.052526 0.581527 -0.386962
-0.053070 0.582141 -0.645205
-0.049655 0.576492 -0.638108
-0.051155 0.597095 -0.260260
-0.050143 0.590716 -0.321570
-0.049444 0.589069 -0.312958
-0.051446 0.596817 -0.338582
-0.055535 0.597238 -0.354079
-0.055272 0.597433 -0.370210
-0.049434 0.605824 -0.262465
-0.052016 0.614731 -0.352645
-0.050070 0.609914 -0.344213
-0.050477 0.624831 -0.357381
-0.057478 0.680470 -0.676216
-0.048908 -0.871887 -0.354671
-0.047381 -0.862684 -0.354744
-0.047421 -0.874246 -0.371127
-0.044228 -0.862661 -0.371217
-0.043947 -0.876350 -0.387357
-0.046082 -0.846391 -0.338219
-0.044965 -0.846458 -0.354812
-0.041639 -0.846417 -0.370940
-0.041330 -0.859926 -0.501376
-0.041348 -0.857982 -0.517990
-0.041394 -0.856721 -0.534817
-0.046732 -0.829763 -0.321845
-0.044362 -0.829671 -0.338433
-0.042325 -0.829859 -0.354767
-0.039016 -0.829708 -0.370378
-0.045938 -0.812939 -0.321961
-0.042448 -0.812742 -0.338430
-0.039556 -0.812951 -0.354373
-0.041245 -0.812923 -0.562907
-0.045269 -0.796158 -0.322090
-0.041064 -0.795762 -0.338169
-0.037469 -0.795952 -0.353587
-0.041213 -0.796423 -0.566196
-0.043862 -0.779519 -0.322007
-0.040284 -0.779006 -0.337526
-0.036906 -0.779151 -0.352681
-0.042659 -0.778539 -0.568042
-0.045496 -0.763896 -0.305664
-0.042358 -0.762995 -0.321686
-0.038880 -0.762425 -0.336762
-0.049102 -0.772282 -0.573328
-0.042805 -0.761742 -0.579778
-0.038139 -0.766927 -0.569199
-0.045898 -0.747454 -0.305778
-0.041292 -0.746528 -0.321284
-0.047483 -0.756611 -0.591996
-0.045280 -0.746129 -0.598017
-0.036616 -0.746241 -0.586541
-0.047831 -0.757707 -0.673384
-0.046392 -0.747314 -0.675408
-0.045862 -0.730929 -0.305841
-0.040460 -0.729943 -0.320798
-0.038217 -0.730655 -0.598619
-0.034301 -0.736247 -0.589761
-0.048662 -0.740445 -0.609119
-0.046881 -0.729905 -0.615224
-0.046308 -0.730548 -0.676938
-0.044313 -0.714224 -0.305747
-0.039715 -0.713158 -0.320302
-0.041006 -0.714276 -0.616138
-0.035241 -0.714128 -0.605250
-0.048775 -0.724365 -0.625201
-0.047020 -0.714318 -0.627381
-0.047435 -0.714331 -0.676100
-0.041658 -0.697725 -0.305601
-0.037926 -0.696670 -0.319983
-0.036921 -0.697989 -0.615350
-0.033336 -0.703238 -0.608258
-0.045824 -0.698161 -0.628587
-0.042696 -0.681972 -0.289048
-0.037819 -0.681626 -0.305398
-0.046501 -0.681945 -0.627719
-0.038351 -0.682080 -0.617634
-0.034352 -0.668206 -0.305076
-0.047235 -0.665403 -0.626532
-0.048217 -0.675441 -0.714723
-0.046420 -0.664798 -0.714842
