-0.336087 -0.039355 -0.418142
-0.336699 -0.039867 -0.498671
-0.328533 -0.039933 -0.489772
-0.335818 -0.025120 0.891148
-0.343611 -0.022761 0.770605
-0.337571 -0.022718 0.761716
-0.329760 -0.022685 0.750472
-0.336085 -0.023012 -0.417553
-0.337050 -0.023412 -0.498053
-0.328886 -0.023518 -0.488305
-0.335818 -0.008693 0.891218
-0.339576 -0.007232 0.763235
-0.343943 -0.013286 0.770280
-0.330271 -0.006286 0.749753
-0.336081 -0.006616 -0.416326
-0.337313 -0.007023 -0.497767
-0.329159 -0.007129 -0.487074
-0.335836 0.007358 0.889807
-0.338914 0.010014 0.760651
-0.330679 0.010073 0.749444
-0.334934 0.008967 -0.414198
-0.337457 0.009304 -0.497889
-0.329306 0.009239 -0.486231
-0.335816 0.023789 0.889783
-0.331172 0.026483 0.748818
-0.339409 0.026424 0.759925
-0.337336 0.026306 -0.414688
-0.329015 0.026345 -0.409977
-0.328591 0.013892 -0.410244
-0.337766 0.025704 -0.497833
-0.329611 0.025629 -0.484697
-0.335779 0.040562 0.891153
-0.331727 0.042934 0.747908
-0.339992 0.042908 0.759447
-0.337355 0.042731 -0.414459
-0.329044 0.042770 -0.409822
-0.338197 0.042166 -0.497562
-0.329821 0.041572 -0.481492
-0.335785 0.056916 0.891108
-0.340374 0.059297 0.759006
-0.332097 0.059328 0.747449
-0.337912 0.059125 -0.414412
-0.329595 0.059161 -0.409593
-0.330791 0.058403 -0.482899
-0.334808 0.041506 -0.471226
-0.336838 0.058338 -0.470544
-0.338383 0.058504 -0.497488
-0.335800 0.073032 0.890036
-0.340605 0.075621 0.758530
-0.332327 0.075683 0.747265
-0.338709 0.075483 -0.414444
-0.330383 0.075518 -0.409335
-0.337104 0.074622 -0.470433
-0.331036 0.074706 -0.482951
-0.338391 0.074760 -0.497546
-0.335767 0.089633 0.890159
-0.331817 0.092774 0.745205
-0.341044 0.092061 0.757900
-0.339044 0.091838 -0.414284
-0.330721 0.091889 -0.409170
-0.337525 0.091031 -0.470572
-0.331679 0.091111 -0.482938
-0.338601 0.091187 -0.497382
-0.335724 0.106412 0.890812
-0.333917 0.108568 0.746184
-0.341655 0.108546 0.757116
-0.327875 0.098620 0.739241
-0.328315 0.108575 0.738601
-0.339255 0.108186 -0.413999
-0.330939 0.108255 -0.409031
-0.332504 0.107528 -0.482910
-0.337988 0.107464 -0.470839
-0.338935 0.107655 -0.497099
-0.335752 0.122656 0.890215
-0.342171 0.124911 0.756301
-0.334872 0.124947 0.746177
-0.328772 0.124965 0.738026
-0.339823 0.124544 -0.413808
-0.331505 0.124611 -0.408853
-0.332925 0.123741 -0.482992
-0.338267 0.123674 -0.470930
-0.339103 0.123853 -0.497021
-0.335786 0.138755 0.889331
-0.342669 0.141251 0.755448
-0.335728 0.141315 0.746219
-0.329154 0.141346 0.737591
-0.340556 0.140929 -0.413506
-0.332242 0.140983 -0.408619
-0.338464 0.139835 -0.470992
-0.333202 0.139905 -0.483110
-0.339227 0.139985 -0.497000
-0.335750 0.155359 0.889455
-0.337116 0.157734 0.746348
-0.343331 0.157689 0.754556
-0.329882 0.157755 0.736560
-0.340548 0.157331 -0.413122
-0.332250 0.157385 -0.408617
-0.338740 0.156225 -0.471244
-0.333744 0.156277 -0.483143
-0.339480 0.156390 -0.496769
-0.335719 0.171993 0.889877
-0.339475 0.174424 0.747770
-0.343815 0.168969 0.753940
-0.330550 0.174180 0.735630
-0.340055 0.173751 -0.413083
-0.331760 0.173806 -0.408787
-0.334299 0.172705 -0.483135
-0.338981 0.172678 -0.471493
-0.339772 0.172829 -0.496465
-0.335760 0.188143 0.889751
-0.330750 0.190571 0.735436
-0.338831 0.190520 0.746103
-0.339628 0.190169 -0.413380
-0.331313 0.190220 -0.409071
-0.334563 0.188978 -0.483153
-0.339051 0.188973 -0.471540
-0.339989 0.188998 -0.496538
-0.335783 0.204371 0.889671
-0.339147 0.206902 0.745449
-0.331068 0.206962 0.735075
-0.338887 0.206551 -0.413785
-0.330557 0.206614 -0.409592
-0.339182 0.205291 -0.471602
-0.334870 0.205282 -0.483141
-0.340186 0.205218 -0.496616
-0.335730 0.221144 0.890046
-0.339933 0.223358 0.744485
-0.331891 0.223397 0.733998
-0.335342 0.223833 -0.413871
-0.329290 0.219057 -0.410275
-0.339556 0.221782 -0.471839
-0.335539 0.221783 -0.483056
-0.340451 0.221760 -0.496111
-0.335704 0.237802 0.890087
-0.340821 0.239797 0.743535
-0.332784 0.239827 0.732849
-0.334964 0.238871 -0.413982
-0.336055 0.238274 -0.483052
-0.339824 0.238256 -0.472032
-0.340683 0.238262 -0.495620
-0.335752 0.254014 0.889478
-0.332486 0.256920 0.730454
-0.341636 0.256181 0.742709
-0.338697 0.255881 -0.414039
-0.328645 0.244210 -0.410665
-0.330366 0.255970 -0.409606
-0.336148 0.254641 -0.483201
-0.339804 0.254620 -0.472082
-0.340830 0.254544 -0.495527
-0.335771 0.270427 0.889179
-0.342449 0.272584 0.741871
-0.334899 0.272621 0.731886
-0.328337 0.272644 0.722957
-0.327895 0.262887 0.723589
-0.339159 0.272341 -0.414184
-0.330832 0.272428 -0.409203
-0.340207 0.271018 -0.472353
-0.336889 0.271029 -0.483264
-0.341189 0.270894 -0.495190
-0.335745 0.287224 0.889336
-0.343285 0.289014 0.740979
-0.336590 0.289038 0.731937
-0.329169 0.289050 0.721694
-0.335272 0.289840 -0.414518
-0.329252 0.285260 -0.410261
-0.341230 0.287479 -0.472939
-0.338590 0.287477 -0.483163
-0.341834 0.287383 -0.494331
-0.335753 0.303870 0.889400
-0.337756 0.305447 0.731892
-0.343789 0.305440 0.740235
-0.329815 0.305456 0.720599
-0.335969 0.304999 -0.416276
-0.339382 0.304078 -0.483125
-0.341580 0.304054 -0.473208
-0.342248 0.304027 -0.493710
-0.335818 0.320258 0.889096
-0.337764 0.321847 0.731583
-0.343550 0.321839 0.739835
-0.330061 0.321854 0.719480
-0.335964 0.321406 -0.416964
-0.338442 0.320811 -0.483228
-0.340770 0.320721 -0.472903
-0.342130 0.320787 -0.493800
-0.335845 0.336762 0.889110
-0.343501 0.333752 0.739174
-0.339541 0.338800 0.732314
-0.330223 0.338735 0.715272
-0.335943 0.337883 -0.417313
-0.340819 0.337386 -0.472929
-0.338747 0.337481 -0.483226
-0.342378 0.337481 -0.493583
-0.335815 0.353365 0.889909
-0.332957 0.354627 0.715693
-0.339972 0.354655 0.729644
-0.328656 0.355200 0.699336
-0.327899 0.344534 0.704892
-0.330232 0.353825 -0.270521
-0.329120 0.342772 -0.285610
-0.328375 0.344412 -0.274784
-0.333249 0.354605 -0.285515
-0.329373 0.342277 -0.301673
-0.333699 0.354520 -0.301620
-0.329219 0.342222 -0.318840
-0.332843 0.354344 -0.318556
-0.331471 0.354141 -0.335927
-0.328839 0.342652 -0.336140
-0.328333 0.344140 -0.350089
-0.329411 0.352470 -0.354801
-0.334461 0.354925 -0.415814
-0.340899 0.354074 -0.483071
-0.342167 0.354016 -0.473493
-0.343122 0.354091 -0.492717
-0.334528 0.371021 0.887663
-0.341525 0.371053 0.727701
-0.336104 0.371014 0.715697
-0.331332 0.370998 0.699246
-0.329320 0.370995 0.682720
-0.327936 0.360844 0.682708
-0.327871 0.359763 0.664348
-0.329030 0.370928 0.664346
-0.328527 0.370708 0.646133
-0.327508 0.359675 0.646123
-0.327626 0.370674 0.634484
-0.327171 0.361801 0.637592
-0.332196 0.369799 -0.256053
-0.328654 0.358735 -0.260908
-0.337281 0.371031 -0.270994
-0.339420 0.370973 -0.285497
-0.339846 0.370885 -0.301629
-0.338670 0.370680 -0.318436
-0.336925 0.370444 -0.335739
-0.335130 0.370310 -0.353172
-0.331695 0.369867 -0.369712
-0.328558 0.356835 -0.363911
-0.339130 0.370761 -0.415210
-0.330741 0.371414 -0.404823
-0.327919 0.360847 -0.411319
-0.343172 0.365457 -0.482922
-0.343401 0.364739 -0.473999
-0.343726 0.364064 -0.491934
-0.340163 0.385568 0.885742
-0.343215 0.387422 0.725291
-0.339488 0.387360 0.715722
-0.334459 0.387303 0.699260
-0.331787 0.387198 0.682731
-0.330956 0.386993 0.664352
-0.330086 0.386729 0.646130
-0.328252 0.388457 0.628324
-0.328700 0.387204 -0.228481
-0.329473 0.374873 -0.240260
-0.327873 0.378232 -0.230258
-0.332889 0.387230 -0.240063
-0.340195 0.388265 -0.257303
-0.342789 0.383806 -0.270847
-0.343532 0.381422 -0.285582
-0.343741 0.380869 -0.301674
-0.343279 0.381645 -0.318494
-0.342524 0.383149 -0.335629
-0.341808 0.384559 -0.352838
-0.340429 0.387660 -0.368940
-0.330044 0.374873 -0.386624
-0.334864 0.386457 -0.386576
-0.337122 0.386647 -0.403441
-0.343009 0.386888 -0.412861
-0.343789 0.401057 0.884697
-0.344121 0.403310 0.723973
-0.340213 0.403026 0.715752
-0.334046 0.402620 0.699282
-0.331376 0.402286 0.682755
-0.330676 0.402015 0.664378
-0.329799 0.402018 0.646138
-0.328198 0.400750 0.629387
-0.327622 0.395388 0.621286
-0.327613 0.394695 0.621279
-0.328838 0.396633 -0.228646
-0.331123 0.398628 -0.239849
-0.336445 0.400245 -0.257103
-0.332667 0.398832 -0.386779
-0.337791 0.402225 -0.370175
-0.337218 0.400265 -0.405488
-0.344189 0.394952 -0.411787
-0.344269 0.409094 0.934738
-0.344608 0.409880 0.945541
-0.351055 0.404467 0.941020
-0.341572 0.415773 0.940730
-0.343347 0.416656 0.887135
-0.346351 0.416727 0.895373
-0.337208 0.418979 0.729546
-0.333735 0.413746 0.715711
-0.330070 0.411670 0.699297
-0.328899 0.410477 0.682765
-0.328749 0.410376 0.664414
-0.328241 0.410714 0.646122
-0.327716 0.410443 0.635543
-0.335756 0.405581 -0.269927
-0.339987 0.406786 -0.285883
-0.331934 0.409437 -0.286000
-0.330136 0.409081 -0.274231
-0.341520 0.407017 -0.301927
-0.333469 0.410010 -0.301974
-0.342602 0.406383 -0.318699
-0.334570 0.410905 -0.318805
-0.342960 0.405735 -0.335628
-0.334932 0.411298 -0.335790
-0.342964 0.404964 -0.352698
-0.334956 0.411153 -0.352890
-0.332631 0.410157 -0.366465
-0.336162 0.409941 -0.410468
-0.343621 0.408174 -0.493499
-0.343646 0.408019 -0.487240
-0.337521 0.413658 -0.500429
-0.337551 0.411151 -0.482079
-0.336463 0.405418 -0.520804
-0.336398 0.397762 -0.524133
-0.341959 0.420173 0.950790
-0.339136 0.433064 0.951841
-0.335725 0.431792 0.894059
-0.344757 0.425361 0.898692
-0.340848 0.425011 0.737072
-0.335776 0.429832 0.742989
-0.330168 0.425363 0.735866
-0.336283 0.417950 -0.417360
-0.336434 0.432897 -0.424769
-0.336594 0.417986 -0.470515
-0.336343 0.412569 -0.514450
-0.335131 0.448333 0.953253
-0.340150 0.432195 0.925971
-0.346234 0.431266 0.908561
-0.347705 0.437185 0.921749
-0.343440 0.426214 0.913179
-0.339044 0.436280 0.903086
-0.347634 0.449316 0.916548
-0.334677 0.447673 0.907755
-0.336346 0.439137 0.755500
-0.336533 0.443350 -0.427228
-0.337799 0.467278 0.960908
-0.345487 0.458739 0.919229
-0.336327 0.460418 0.916808
-0.336557 0.453642 0.774036
-0.336440 0.445300 0.763820
-0.336607 0.451556 -0.429436
-0.348156 0.454999 -0.428325
-0.348128 0.461521 -0.428406
-0.337544 0.466457 -0.429728
-0.340508 0.482164 0.967232
-0.344315 0.473824 0.966067
-0.336686 0.471251 0.791184
-0.336662 0.462999 0.783530
-0.343700 0.472531 -0.427905
-0.337471 0.481909 -0.427397
-0.334686 0.498223 0.968372
-0.336681 0.478541 0.799773
-0.336654 0.486777 0.809156
-0.336423 0.498501 -0.426544
-0.335265 0.514022 0.968326
-0.336602 0.501825 0.826849
-0.336627 0.493596 0.817326
-0.336378 0.509465 -0.427525
-0.340478 0.531351 0.967477
-0.336543 0.516539 0.843685
-0.336602 0.508311 0.834296
-0.336412 0.516009 -0.436496
-0.336538 0.516653 -0.450711
-0.336654 0.510388 -0.458860
-0.343240 0.540613 0.966442
-0.336502 0.529544 0.861183
-0.336406 0.536993 0.874763
-0.336541 0.523813 0.851995
-0.336883 0.547362 0.956721
-0.341865 0.557924 0.951377
-0.336340 0.546772 0.893653
-0.336491 0.553572 0.911295
-0.336343 0.540936 0.882878
-0.339744 0.558562 0.942392
-0.339863 0.557398 0.927203
-0.342064 0.556340 0.918429
-0.323693 -0.613376 0.954318
-0.327049 -0.622216 0.951638
-0.330717 -0.602576 0.964940
-0.318983 -0.597744 0.958780
-0.325832 -0.591590 0.966716
-0.322169 -0.580673 0.967762
-0.318334 -0.581847 0.879426
-0.311884 -0.588794 0.884601
-0.318255 -0.592274 0.892780
-0.322816 -0.587320 0.887050
-0.320428 -0.564887 0.968051
-0.322362 -0.549584 0.967570
-0.320044 -0.549798 -0.435404
-0.320070 -0.559768 -0.441026
-0.322244 -0.533416 0.967969
-0.320033 -0.534193 -0.432335
-0.318751 -0.515711 0.968602
-0.318910 -0.516539 -0.430864
-0.319656 -0.499944 0.971186
-0.322244 -0.499868 -0.430921
-0.313767 -0.499819 -0.428124
-0.312151 -0.509839 -0.428459
-0.319568 -0.483473 0.972034
-0.326083 -0.487563 0.790164
-0.315252 -0.491964 0.786844
-0.320394 -0.497880 0.795601
-0.318917 -0.480796 0.781018
-0.323551 -0.482689 -0.430705
-0.315262 -0.482680 -0.427479
-0.321233 -0.500265 -0.458840
-0.337318 -0.500319 -0.458432
-0.332212 -0.494188 -0.456760
-0.327099 -0.494136 -0.456797
-0.317589 -0.483615 -0.459135
-0.325641 -0.483503 -0.455303
-0.319616 -0.466826 0.971027
-0.313512 -0.465717 0.767620
-0.311729 -0.473998 0.769693
-0.321719 -0.465746 0.777334
-0.323222 -0.465974 -0.430985
-0.314992 -0.466031 -0.426417
-0.325491 -0.466344 -0.453933
-0.317432 -0.466530 -0.460186
-0.319291 -0.450323 0.968369
-0.324363 -0.449329 0.775505
-0.316125 -0.449363 0.763886
-0.323024 -0.449521 -0.431091
-0.314827 -0.449657 -0.425020
-0.326383 -0.449668 -0.453876
-0.318328 -0.449928 -0.461384
-0.324532 -0.438305 0.967107
-0.325843 -0.432959 0.772914
-0.316579 -0.433114 0.759897
-0.323467 -0.433220 -0.430311
-0.315307 -0.433518 -0.424862
-0.318700 -0.433969 -0.462016
-0.326730 -0.433464 -0.454480
-0.319407 -0.433765 0.962342
-0.319279 -0.417964 0.954588
-0.326505 -0.416571 0.771575
-0.318807 -0.416690 0.761088
-0.312018 -0.416791 0.752142
-0.311817 -0.427707 0.752509
-0.324006 -0.416844 -0.429703
-0.315860 -0.417237 -0.425202
-0.321176 -0.416817 -0.461546
-0.327251 -0.421237 -0.455739
-0.319674 -0.416880 -0.500001
-0.315912 -0.430283 -0.512881
-0.316070 -0.430193 -0.503382
-0.320762 -0.417317 -0.514741
-0.324350 -0.404825 0.951947
-0.326401 -0.400137 0.772255
-0.318819 -0.400208 0.761156
-0.312137 -0.400316 0.751860
-0.324200 -0.400324 -0.429865
-0.316051 -0.400612 -0.424532
-0.320876 -0.400788 -0.498055
-0.312155 -0.411833 -0.490323
-0.312455 -0.401271 -0.489609
-0.323970 -0.403628 0.941812
-0.326228 -0.405794 0.925351
-0.324954 -0.401532 0.907511
-0.326914 -0.390971 0.901023
-0.319010 -0.383821 0.761289
-0.326417 -0.383807 0.772577
-0.312279 -0.383886 0.751743
-0.324849 -0.383823 -0.429915
-0.316694 -0.383972 -0.423479
-0.320917 -0.384224 -0.497624
-0.312486 -0.384524 -0.489473
-0.322700 -0.385215 -0.518359
-0.313195 -0.399198 -0.523242
-0.319084 -0.402957 -0.518580
-0.314926 -0.386352 -0.523636
-0.320721 -0.385396 0.896879
-0.319592 -0.368887 0.892176
-0.326748 -0.367878 0.771728
-0.319539 -0.367721 0.761324
-0.312495 -0.367604 0.751818
-0.326073 -0.367388 -0.429526
-0.317900 -0.367432 -0.422496
-0.318601 -0.366323 -0.497056
-0.312127 -0.371104 -0.490514
-0.317731 -0.369130 -0.524442
-0.325581 -0.368380 -0.519904
-0.319595 -0.352785 0.890103
-0.327249 -0.355133 0.770671
-0.322155 -0.350114 0.763021
-0.313030 -0.351124 0.751444
-0.326358 -0.350971 -0.429501
-0.318180 -0.350961 -0.422218
-0.319026 -0.352874 -0.496789
-0.327542 -0.358103 -0.521853
-0.321458 -0.352787 -0.524958
-0.319551 -0.335932 0.890129
-0.313915 -0.334490 0.750620
-0.322112 -0.334548 0.760927
-0.325655 -0.334548 -0.429956
-0.317483 -0.334541 -0.422540
-0.322803 -0.334751 -0.496125
-0.312860 -0.348408 -0.488390
-0.314077 -0.334578 -0.482889
-0.319546 -0.319727 0.889826
-0.322847 -0.318106 0.760047
-0.314662 -0.318062 0.749927
-0.325983 -0.318159 -0.429782
-0.317827 -0.318176 -0.422577
-0.314771 -0.317084 -0.481735
-0.318413 -0.334624 -0.469156
-0.318406 -0.317122 -0.469768
-0.323605 -0.318345 -0.494929
-0.319570 -0.304073 0.889014
-0.323378 -0.301814 0.759264
-0.315205 -0.301751 0.749259
-0.327160 -0.304931 -0.428958
-0.320940 -0.300464 -0.423285
-0.323350 -0.302026 -0.494672
-0.315083 -0.302211 -0.484745
-0.319555 -0.287771 0.889124
-0.315866 -0.285312 0.748436
-0.324056 -0.285373 0.758451
-0.318183 -0.284009 -0.418288
-0.324368 -0.285624 -0.494028
-0.315443 -0.285651 -0.482866
-0.319527 -0.271021 0.889926
-0.316581 -0.268806 0.747673
-0.324794 -0.268839 0.757729
-0.320390 -0.269134 -0.417974
-0.312137 -0.269232 -0.410190
-0.311606 -0.277523 -0.410856
-0.318970 -0.269301 -0.483583
-0.318429 -0.285739 -0.470218
-0.320869 -0.269383 -0.469963
-0.326133 -0.269166 -0.493012
-0.319516 -0.254706 0.889362
-0.325180 -0.252454 0.757201
-0.316985 -0.252418 0.747450
-0.320669 -0.252755 -0.417904
-0.312429 -0.252859 -0.409972
-0.321548 -0.253040 -0.470494
-0.319970 -0.252947 -0.483621
-0.326431 -0.252801 -0.492886
-0.319509 -0.238635 0.888051
-0.325354 -0.236131 0.756740
-0.317163 -0.236076 0.747425
-0.320269 -0.236354 -0.418596
-0.312015 -0.236444 -0.410675
-0.319942 -0.236681 -0.483725
-0.322083 -0.236809 -0.470997
-0.325888 -0.236488 -0.493325
-0.319488 -0.222117 0.888117
-0.316402 -0.218568 0.745560
-0.325795 -0.219684 0.756110
-0.320379 -0.219904 -0.418494
-0.312108 -0.219977 -0.410463
-0.323000 -0.220408 -0.471603
-0.321084 -0.220274 -0.483640
-0.326115 -0.220083 -0.493073
-0.319471 -0.205454 0.888691
-0.326316 -0.203196 0.755458
-0.318417 -0.203147 0.746599
-0.311813 -0.203164 0.739448
-0.311591 -0.212416 0.739900
-0.321137 -0.203442 -0.417827
-0.312875 -0.203508 -0.409373
-0.322406 -0.203816 -0.483516
-0.323691 -0.203934 -0.472057
-0.326733 -0.203641 -0.492517
-0.319468 -0.189176 0.888014
-0.326455 -0.186831 0.755189
-0.318552 -0.186772 0.746590
-0.311773 -0.186791 0.739512
-0.311517 -0.195063 -0.277356
-0.311517 -0.195067 -0.277357
-0.311517 -0.195067 -0.277356
-0.311517 -0.195063 -0.277357
-0.322335 -0.187021 -0.417123
-0.314094 -0.187099 -0.407971
-0.322439 -0.187475 -0.483646
-0.323633 -0.187586 -0.472111
-0.326820 -0.187296 -0.492549
-0.319458 -0.172938 0.887210
-0.326546 -0.170461 0.754931
-0.318533 -0.170393 0.746512
-0.311669 -0.170413 0.739713
-0.323371 -0.170610 -0.416473
-0.315130 -0.170700 -0.406674
-0.323545 -0.171240 -0.472134
-0.322716 -0.171129 -0.483796
-0.327185 -0.170959 -0.492516
-0.319429 -0.156290 0.887797
-0.319654 -0.153946 0.746520
-0.327072 -0.153998 0.754202
-0.312281 -0.153969 0.738638
-0.323836 -0.154216 -0.415716
-0.315600 -0.154266 -0.405935
-0.324766 -0.155848 -0.484413
-0.324145 -0.154795 -0.472468
-0.327773 -0.161997 -0.492206
-0.319412 -0.139718 0.888467
-0.327533 -0.141419 0.753565
-0.322114 -0.136540 0.747879
-0.312837 -0.137534 0.737685
-0.312104 -0.137630 -0.282635
-0.311846 -0.151248 -0.280645
-0.311802 -0.151227 -0.275102
-0.312026 -0.137641 -0.273130
-0.324091 -0.137819 -0.415119
-0.315868 -0.137846 -0.405583
-0.324735 -0.138276 -0.481033
-0.324754 -0.138355 -0.472757
-0.319422 -0.123594 0.887919
-0.312590 -0.121155 0.738047
-0.322031 -0.121333 0.747840
-0.312006 -0.121283 -0.273330
-0.312090 -0.121242 -0.282439
-0.324217 -0.121385 -0.415160
-0.315990 -0.121457 -0.405478
-0.324563 -0.121907 -0.481513
-0.324584 -0.121992 -0.472623
-0.319417 -0.107409 0.887630
-0.327664 -0.116045 0.753168
-0.327669 -0.112061 0.753126
-0.321962 -0.105811 0.747673
-0.312518 -0.104767 0.738081
-0.312055 -0.104914 -0.272860
-0.312154 -0.104847 -0.282852
-0.324513 -0.104954 -0.414917
-0.316286 -0.105052 -0.405225
-0.324486 -0.105544 -0.481601
-0.324504 -0.105628 -0.472523
-0.319394 -0.090833 0.888575
-0.321355 -0.088346 0.745968
-0.313279 -0.088331 0.736802
-0.312546 -0.088755 -0.286620
-0.312357 -0.088567 -0.268426
-0.325047 -0.088541 -0.413923
-0.316846 -0.088601 -0.404493
-0.325171 -0.089149 -0.479887
-0.325186 -0.089212 -0.472836
-0.319395 -0.074390 0.889092
-0.313910 -0.071915 0.735855
-0.321993 -0.071917 0.745547
-0.312898 -0.072013 -0.269085
-0.311603 -0.083104 -0.260824
-0.311675 -0.072031 -0.260708
-0.313008 -0.071986 -0.285646
-0.311889 -0.071970 -0.295604
-0.311914 -0.083459 -0.295534
-0.325545 -0.072128 -0.413181
-0.317360 -0.072181 -0.403813
-0.325445 -0.072764 -0.479245
-0.325462 -0.072820 -0.472914
-0.319419 -0.058263 0.888355
-0.313979 -0.055555 0.735883
-0.322072 -0.055561 0.745348
-0.312244 -0.056016 -0.268744
-0.311539 -0.061577 -0.260826
-0.312332 -0.056701 -0.286216
-0.311694 -0.062845 -0.294702
-0.325741 -0.055717 -0.413233
-0.317537 -0.055827 -0.403547
-0.324792 -0.056419 -0.480879
-0.324814 -0.056496 -0.472471
-0.319422 -0.041882 0.888202
-0.322590 -0.039162 0.744844
-0.314517 -0.039149 0.735251
-0.312180 -0.038840 -0.268774
-0.312391 -0.039221 -0.283319
-0.325874 -0.039316 -0.413155
-0.317665 -0.039423 -0.403033
-0.324658 -0.040036 -0.481397
-0.324680 -0.040120 -0.472311
-0.319394 -0.025130 0.889171
-0.323792 -0.022700 0.743731
-0.315743 -0.022699 0.733697
-0.311798 -0.022830 -0.260520
-0.311504 -0.033028 -0.260825
-0.313003 -0.022803 -0.269134
-0.312506 -0.021400 -0.286832
-0.326161 -0.022949 -0.412648
-0.316823 -0.023344 -0.400514
-0.325396 -0.023606 -0.479945
-0.325414 -0.023675 -0.472645
-0.319398 -0.008711 0.889228
-0.316387 -0.006294 0.732945
-0.324437 -0.006282 0.743024
-0.313413 -0.006405 -0.269135
-0.311996 -0.006419 -0.260342
-0.313084 -0.006416 -0.285934
-0.311619 -0.014998 -0.294749
-0.311755 -0.006417 -0.295336
-0.319159 -0.006548 -0.402000
-0.311682 -0.018078 -0.392295
-0.311854 -0.006571 -0.391687
-0.326902 -0.006540 -0.411667
-0.326053 -0.007210 -0.478725
-0.326069 -0.007264 -0.473076
-0.319416 0.007335 0.888056
-0.316327 0.010079 0.732978
-0.324398 0.010084 0.742874
-0.313373 0.009905 -0.269271
-0.311839 0.009851 -0.260577
-0.313357 0.009993 -0.285954
-0.311953 0.010035 -0.295823
-0.311856 0.009711 -0.391909
-0.321454 0.008937 -0.403418
-0.327619 0.002943 -0.410800
-0.326546 0.009165 -0.477885
-0.326559 0.009125 -0.473529
-0.319395 0.023758 0.887983
-0.324906 0.026484 0.742235
-0.315900 0.026843 0.730667
-0.311986 0.026238 -0.260447
-0.313777 0.026306 -0.269266
-0.314021 0.026410 -0.285855
-0.312360 0.026453 -0.297223
-0.320230 0.026242 -0.401334
-0.312076 0.026120 -0.391657
-0.327265 0.025566 -0.476346
-0.327272 0.025546 -0.474070
-0.319355 0.040520 0.889009
-0.325976 0.042933 0.741184
-0.318567 0.042928 0.731767
-0.312118 0.042933 0.722389
-0.311689 0.032583 0.723290
-0.312403 0.042756 -0.260008
-0.314558 0.042804 -0.269156
-0.315013 0.042848 -0.285700
-0.312963 0.042867 -0.300216
-0.320723 0.042738 -0.401339
-0.312567 0.042623 -0.390573
-0.327819 0.035722 -0.475035
-0.327822 0.035714 -0.474447
-0.319361 0.056883 0.889045
-0.319428 0.059317 0.731763
-0.326488 0.059341 0.740740
-0.312482 0.059336 0.721723
-0.314781 0.059194 -0.269225
-0.312485 0.059138 -0.259993
-0.315226 0.059257 -0.285792
-0.312894 0.058030 -0.303645
-0.320880 0.059119 -0.401072
-0.312737 0.059001 -0.389478
-0.319380 0.073010 0.888302
-0.326624 0.075708 0.740660
-0.319657 0.075681 0.731777
-0.312629 0.075702 0.721565
-0.314676 0.075519 -0.269440
-0.312369 0.075443 -0.260233
-0.314907 0.075629 -0.286076
-0.313183 0.075661 -0.302580
-0.311856 0.062622 -0.311537
-0.312033 0.075563 -0.315545
-0.320825 0.075413 -0.400651
-0.312703 0.075335 -0.387809
-0.319351 0.089600 0.888364
-0.327075 0.087627 0.740188
-0.322055 0.092691 0.733094
-0.313031 0.092100 0.720918
-0.312652 0.091892 -0.260093
-0.315251 0.091955 -0.269534
-0.315273 0.092022 -0.286192
-0.313791 0.092020 -0.302819
-0.312931 0.090276 -0.320479
-0.312564 0.090685 -0.354274
-0.311661 0.083032 -0.349105
-0.311610 0.082990 -0.339766
-0.312804 0.090248 -0.334556
-0.321092 0.091811 -0.400538
-0.313044 0.090633 -0.384591
-0.319312 0.106361 0.888688
-0.313628 0.108520 0.720057
-0.321699 0.108535 0.730699
-0.313207 0.108406 -0.259750
-0.316256 0.108446 -0.269555
-0.316061 0.108428 -0.286160
-0.314645 0.108389 -0.302793
-0.314891 0.108265 -0.318946
-0.315135 0.108273 -0.335652
-0.314281 0.108407 -0.353142
-0.313703 0.108437 -0.369721
-0.312382 0.093029 -0.370119
-0.314726 0.108323 -0.385691
-0.321625 0.108257 -0.400526
-0.319337 0.122632 0.888337
-0.322276 0.124924 0.730111
-0.314213 0.124924 0.719383
-0.316638 0.124821 -0.269715
-0.313306 0.124763 -0.260043
-0.316578 0.124844 -0.286171
-0.314831 0.124827 -0.302698
-0.314147 0.124728 -0.318854
-0.313945 0.124725 -0.335482
-0.313784 0.124821 -0.352826
-0.313863 0.124836 -0.369462
-0.315147 0.124673 -0.385507
-0.321875 0.124593 -0.400261
-0.319368 0.138763 0.887831
-0.314853 0.141334 0.718639
-0.322912 0.141320 0.729608
-0.317108 0.141188 -0.269870
-0.313364 0.141094 -0.260356
-0.317530 0.141272 -0.286150
-0.315374 0.141290 -0.302545
-0.313192 0.141213 -0.318674
-0.312189 0.141158 -0.335361
-0.312691 0.141190 -0.352803
-0.313544 0.141151 -0.369589
-0.315109 0.140961 -0.385438
-0.321867 0.140909 -0.399890
-0.319336 0.155355 0.887602
-0.315703 0.157753 0.717440
-0.323798 0.157741 0.728519
-0.314213 0.157551 -0.259646
-0.318783 0.157639 -0.269777
-0.319355 0.157690 -0.286014
-0.317401 0.157699 -0.302330
-0.315086 0.157652 -0.318519
-0.313630 0.157539 -0.335180
-0.313249 0.157376 -0.353068
-0.314127 0.157308 -0.370147
-0.315981 0.157327 -0.385717
-0.322207 0.157343 -0.399982
-0.319310 0.171973 0.887686
-0.324531 0.174164 0.727542
-0.316411 0.174177 0.716394
-0.315011 0.174035 -0.258787
-0.320202 0.174096 -0.269677
-0.320705 0.174109 -0.285923
-0.319379 0.174114 -0.302209
-0.317783 0.174061 -0.318489
-0.316155 0.173906 -0.335116
-0.314719 0.173570 -0.353260
-0.315177 0.173529 -0.370461
-0.316975 0.173744 -0.385916
-0.322595 0.173813 -0.400242
-0.319345 0.188152 0.887915
-0.324694 0.190556 0.727324
-0.316605 0.190578 0.716263
-0.319752 0.190452 -0.269904
-0.314645 0.190381 -0.259000
-0.320526 0.190520 -0.286068
-0.319742 0.190542 -0.302342
-0.319272 0.190449 -0.318580
-0.317774 0.190310 -0.335204
-0.315978 0.190122 -0.353092
-0.315895 0.190091 -0.370086
-0.317026 0.190171 -0.385678
-0.322523 0.190199 -0.400396
-0.319363 0.204397 0.888038
-0.324953 0.206948 0.726959
-0.316895 0.206962 0.716067
-0.319563 0.206828 -0.270086
-0.314456 0.206746 -0.259098
-0.320465 0.206914 -0.286220
-0.320061 0.206941 -0.302541
-0.320472 0.206804 -0.318737
-0.319388 0.206702 -0.335351
-0.317724 0.206710 -0.352948
-0.316951 0.206716 -0.369713
-0.317071 0.206620 -0.385549
-0.322431 0.206578 -0.400835
-0.319316 0.221157 0.887938
-0.316750 0.222187 0.713955
-0.325830 0.223378 0.725890
-0.315376 0.223243 -0.258192
-0.321159 0.223308 -0.269950
-0.321783 0.223318 -0.286212
-0.321381 0.223308 -0.302620
-0.322183 0.223153 -0.318815
-0.321579 0.223093 -0.335426
-0.319915 0.223174 -0.353006
-0.318556 0.223206 -0.369796
-0.317837 0.223112 -0.385824
-0.323564 0.223941 -0.403716
-0.319294 0.237817 0.887725
-0.319404 0.239783 0.715509
-0.326842 0.239805 0.724743
-0.311914 0.226869 0.701950
-0.312150 0.238278 0.697484
-0.311880 0.238310 0.684056
-0.311494 0.230276 0.672902
-0.311534 0.230260 0.679523
-0.311752 0.239834 0.670050
-0.315987 0.239726 -0.257627
-0.322198 0.239775 -0.269772
-0.322542 0.239759 -0.286176
-0.321662 0.239744 -0.302545
-0.322103 0.239639 -0.318637
-0.321821 0.239609 -0.335450
-0.320556 0.239675 -0.353270
-0.319623 0.239709 -0.370156
-0.319036 0.239620 -0.386101
-0.323959 0.239024 -0.404006
-0.327605 0.229930 -0.411277
-0.327601 0.233168 -0.411292
-0.319331 0.254082 0.887454
-0.327462 0.251938 0.724063
-0.321645 0.256926 0.717037
-0.312627 0.256223 0.698961
-0.312777 0.256239 0.682568
-0.312193 0.256249 0.666274
-0.321535 0.256193 -0.269699
-0.315630 0.256145 -0.257916
-0.322071 0.256210 -0.286176
-0.320323 0.256230 -0.302464
-0.318955 0.256194 -0.318342
-0.318803 0.256164 -0.335527
-0.319221 0.256175 -0.353616
-0.319688 0.256196 -0.370590
-0.320006 0.256109 -0.386256
-0.323692 0.256007 -0.400956
-0.319341 0.270554 0.887243
-0.313347 0.272643 0.698933
-0.320733 0.272633 0.714653
-0.313255 0.272648 0.682550
-0.312351 0.272651 0.665362
-0.321357 0.272620 -0.269698
-0.315462 0.272564 -0.257933
-0.322250 0.272630 -0.286149
-0.320357 0.272658 -0.302426
-0.318334 0.272656 -0.318268
-0.318160 0.272631 -0.335490
-0.319238 0.272606 -0.353649
-0.320124 0.272610 -0.370752
-0.320778 0.272549 -0.386324
-0.324205 0.272463 -0.400469
-0.319308 0.287393 0.886973
-0.322011 0.289045 0.713419
-0.314968 0.289052 0.699005
-0.312659 0.290396 0.681230
-0.311962 0.285798 0.668807
-0.316057 0.288974 -0.257178
-0.322519 0.289036 -0.269761
-0.323608 0.289025 -0.286097
-0.322455 0.289054 -0.302390
-0.321510 0.289077 -0.318390
-0.321178 0.289058 -0.335273
-0.321125 0.288982 -0.353354
-0.321282 0.288946 -0.370547
-0.321627 0.288931 -0.386209
-0.325201 0.290004 -0.403749
-0.319309 0.304055 0.887106
-0.323343 0.305441 0.712348
-0.317398 0.305454 0.699120
-0.314146 0.303963 0.681268
-0.316797 0.305375 -0.256264
-0.323506 0.305455 -0.270109
-0.324547 0.305430 -0.285915
-0.323990 0.305440 -0.302098
-0.323389 0.305460 -0.318483
-0.322825 0.305436 -0.335348
-0.322330 0.305317 -0.353045
-0.322105 0.305269 -0.369934
-0.321674 0.305277 -0.385811
-0.324214 0.305206 -0.402632
-0.327607 0.296118 -0.411615
-0.327480 0.305132 -0.411876
-0.319363 0.320425 0.887601
-0.320368 0.321835 0.699205
-0.324617 0.321818 0.711206
-0.319137 0.321804 0.682639
-0.318582 0.321754 0.664330
-0.313617 0.306636 0.664404
-0.312843 0.308331 0.646235
-0.317224 0.321620 0.646174
-0.311906 0.310875 0.632972
-0.313344 0.321106 0.628067
-0.323407 0.321850 -0.270707
-0.316307 0.321047 -0.253910
-0.324308 0.321822 -0.285747
-0.324366 0.321808 -0.301819
-0.324239 0.321721 -0.318832
-0.324152 0.321625 -0.335912
-0.323944 0.321583 -0.352691
-0.322842 0.321551 -0.369114
-0.320822 0.321497 -0.385327
-0.323232 0.321490 -0.402549
-0.327281 0.321514 -0.412276
-0.319399 0.336861 0.887663
-0.324836 0.338734 0.699340
-0.326062 0.333589 0.709454
-0.323312 0.338180 0.682655
-0.323397 0.338113 0.664305
-0.322312 0.337925 0.646150
-0.317257 0.337990 0.628918
-0.311606 0.326364 0.619927
-0.312450 0.338236 0.617586
-0.320810 0.338206 -0.255784
-0.312001 0.326008 -0.245120
-0.313969 0.338924 -0.239703
-0.325568 0.338659 -0.270511
-0.325905 0.334592 -0.285700
-0.326191 0.334095 -0.301727
-0.326400 0.334027 -0.319076
-0.326625 0.334479 -0.336275
-0.326825 0.338351 -0.354451
-0.324405 0.337836 -0.369154
-0.320917 0.337831 -0.385509
-0.323070 0.337894 -0.402696
-0.327218 0.337955 -0.412419
-0.319401 0.353367 0.887438
-0.326857 0.350093 0.693935
-0.326562 0.352631 0.682685
-0.326633 0.351539 0.664331
-0.326044 0.351434 0.646147
-0.322002 0.355719 0.630569
-0.313239 0.356318 0.613939
-0.319765 0.354602 -0.240118
-0.311902 0.344947 -0.226909
-0.313789 0.353657 -0.221711
-0.325664 0.353727 -0.256032
-0.327168 0.347792 -0.265634
-0.327930 0.346007 -0.361429
-0.326326 0.352571 -0.369443
-0.322384 0.354320 -0.386234
-0.324797 0.354958 -0.404584
-0.327402 0.349856 -0.412090
-0.319453 0.365584 0.885641
-0.316979 0.370878 0.614502
-0.324097 0.370890 0.626270
-0.311318 0.362500 0.608872
-0.312580 0.370809 0.607412
-0.313062 0.369518 0.466443
-0.312529 0.357166 0.449898
-0.312189 0.359111 0.461945
-0.314370 0.370133 0.449687
-0.312135 0.358582 0.434873
-0.312994 0.370057 0.434661
-0.311671 0.360915 0.426183
-0.311717 0.370018 0.426162
-0.322242 0.371993 -0.223909
-0.312336 0.358471 -0.208751
-0.315245 0.369630 -0.203973
-0.325019 0.366642 -0.240308
-0.326934 0.363634 -0.250223
-0.326838 0.364168 -0.374899
-0.325488 0.366818 -0.386578
-0.325671 0.366524 -0.400094
-0.328219 0.377093 0.883921
-0.319481 0.373232 0.883220
-0.331984 0.385253 0.882961
-0.319588 0.384730 0.880829
-0.321878 0.388133 0.615816
-0.326307 0.384008 0.622878
-0.313870 0.386067 0.606736
-0.312994 0.382218 0.465490
-0.311930 0.374110 0.474838
-0.311976 0.378636 0.474807
-0.313421 0.383980 0.449682
-0.312368 0.380424 0.434645
-0.311592 0.377700 0.427186
-0.316372 0.386700 -0.204906
-0.313127 0.373818 -0.190883
-0.313181 0.381940 -0.191413
-0.324413 0.386784 -0.220136
-0.335668 0.400810 0.881847
-0.319716 0.400421 0.878793
-0.313177 0.395053 0.607995
-0.318778 0.397728 0.615822
-0.319800 0.397505 -0.223148
-0.314212 0.394449 -0.210247
-0.319846 0.416501 0.878874
-0.335238 0.416594 0.881970
-0.319615 0.405139 0.624744
-0.319810 0.402604 -0.239759
-0.319894 0.406360 -0.255792
-0.319967 0.408308 -0.264908
-0.319989 0.408953 -0.272352
-0.326069 0.407968 -0.377758
-0.320282 0.405755 -0.386802
-0.315248 0.408901 -0.381206
-0.320485 0.410695 -0.371379
-0.319807 0.405513 -0.399041
-0.319872 0.412273 -0.407220
-0.319060 0.401357 -0.524518
-0.323591 0.407359 -0.522763
-0.312944 0.408440 -0.523257
-0.318783 0.413315 -0.518233
-0.332446 0.427288 0.882866
-0.319361 0.432797 0.881861
-0.319895 0.418181 0.715615
-0.319999 0.422671 0.727144
-0.319836 0.414146 0.699275
-0.319929 0.412166 0.682772
-0.319910 0.411915 0.664407
-0.319585 0.411770 0.646152
-0.319435 0.410318 0.632837
-0.320105 0.409418 -0.286005
-0.320154 0.410324 -0.302052
-0.320145 0.412265 -0.318932
-0.320159 0.413338 -0.335966
-0.320190 0.413406 -0.353063
-0.319979 0.420349 -0.416524
-0.320082 0.432863 -0.423630
-0.320172 0.415208 -0.482702
-0.320219 0.419103 -0.470161
-0.320114 0.419900 -0.500922
-0.319099 0.447525 0.893613
-0.328132 0.441126 0.900381
-0.324440 0.438221 0.889409
-0.324567 0.440101 0.754281
-0.319425 0.435003 0.745841
-0.319611 0.445849 0.760368
-0.313846 0.441358 0.752548
-0.319943 0.426282 0.733711
-0.320167 0.444003 -0.426743
-0.324601 0.465693 0.953478
-0.326836 0.453137 0.951133
-0.320302 0.466417 0.908333
-0.324660 0.452046 0.904275
-0.320302 0.455205 0.772381
-0.320216 0.452175 -0.429333
-0.319233 0.466343 -0.429614
-0.332317 0.482190 0.964511
-0.321872 0.482117 0.956281
-0.320350 0.463464 0.781791
-0.320352 0.471716 0.790714
-0.332666 0.476287 -0.428809
-0.323966 0.476301 -0.428729
-0.319125 0.481881 -0.427242
-0.313037 0.472351 -0.427692
-0.328462 0.492573 0.965780
-0.319849 0.498807 0.957632
-0.320302 0.486728 0.808993
-0.320328 0.478480 0.799308
-0.320039 0.498501 -0.426284
-0.327624 0.507802 0.966181
-0.327638 0.503505 0.966194
-0.320244 0.502213 0.826118
-0.320264 0.493988 0.817129
-0.320003 0.509983 -0.427378
-0.319743 0.513543 0.957031
-0.329406 0.518805 0.964711
-0.332204 0.531350 0.962380
-0.322613 0.531299 0.954271
-0.320183 0.517396 0.842806
-0.320232 0.509160 0.833617
-0.320028 0.516558 -0.436502
-0.320148 0.516360 -0.450761
-0.320255 0.510006 -0.458715
-0.325719 0.542791 0.951805
-0.320115 0.531672 0.861314
-0.320034 0.538333 0.872153
-0.320171 0.524552 0.851183
-0.323408 0.545465 0.941719
-0.331477 0.553710 0.941867
-0.319176 0.545628 0.924703
-0.331618 0.554873 0.926126
-0.319945 0.549816 0.909380
-0.319970 0.549255 0.893271
-0.319997 0.543027 0.880117
-0.308455 -0.592787 0.953022
-0.314079 -0.580644 0.963869
-0.303084 -0.579928 0.955413
-0.312459 -0.565034 0.965426
-0.303271 -0.565131 0.959310
-0.303408 -0.550193 0.958274
-0.314314 -0.549901 0.964447
-0.304098 -0.550090 -0.431276
-0.303677 -0.560492 -0.439109
-0.303532 -0.534210 0.957674
-0.314224 -0.533802 0.964404
-0.303388 -0.549780 0.908477
-0.313196 -0.544890 0.915360
-0.313197 -0.544944 0.919723
-0.307194 -0.549967 0.925485
-0.314829 -0.533837 0.913599
-0.305971 -0.533748 0.905307
-0.309169 -0.534246 -0.429394
-0.298758 -0.545102 -0.428163
-0.300883 -0.534220 -0.428009
-0.305054 -0.516388 0.960170
-0.312800 -0.521059 0.965271
-0.307027 -0.516815 0.903929
-0.316026 -0.516879 0.912149
-0.310253 -0.521510 -0.428918
-0.304333 -0.516301 -0.427816
-0.311457 -0.509810 0.966159
-0.310265 -0.500435 0.966843
-0.315937 -0.499664 0.911084
-0.308880 -0.499793 0.902642
-0.303537 -0.499896 -0.426118
-0.309029 -0.484102 0.967548
-0.310328 -0.483027 0.901511
-0.315851 -0.482734 0.910193
-0.303451 -0.482760 -0.423383
-0.309303 -0.467556 0.967381
-0.310047 -0.466761 0.901242
-0.317222 -0.466400 0.909731
-0.297632 -0.465777 0.749197
-0.295325 -0.473968 0.752880
-0.301809 -0.476646 0.762820
-0.305864 -0.465746 0.759065
-0.302344 -0.465472 -0.418281
-0.310388 -0.456466 0.966786
-0.309852 -0.450588 0.901434
-0.317611 -0.450181 0.909696
-0.300164 -0.449790 0.743273
-0.309598 -0.449394 0.755408
-0.305637 -0.449841 -0.417237
-0.297360 -0.450008 -0.408953
-0.296027 -0.459462 -0.411110
-0.298961 -0.451053 -0.482084
-0.296146 -0.458771 -0.476517
-0.302482 -0.465332 -0.467710
-0.305782 -0.450254 -0.469644
-0.303395 -0.451505 0.958392
-0.313757 -0.445519 0.964933
-0.307644 -0.435337 0.954226
-0.315772 -0.434015 0.907584
-0.310639 -0.439929 0.901131
-0.311136 -0.438623 0.753558
-0.305090 -0.433510 0.746125
-0.295798 -0.434024 0.735531
-0.295553 -0.444742 0.735647
-0.295741 -0.438229 -0.270548
-0.295728 -0.442886 -0.270695
-0.295467 -0.441749 -0.262926
-0.295475 -0.439984 -0.262827
-0.295922 -0.443333 -0.285638
-0.295940 -0.437098 -0.285587
-0.295963 -0.437191 -0.301790
-0.295944 -0.443047 -0.301813
-0.296056 -0.437481 -0.318636
-0.296034 -0.443532 -0.318777
-0.296052 -0.443600 -0.336454
-0.296077 -0.437895 -0.336149
-0.295967 -0.443150 -0.354156
-0.295996 -0.438312 -0.353848
-0.295712 -0.442456 -0.371080
-0.295738 -0.439480 -0.370782
-0.295439 -0.441828 -0.380208
-0.295447 -0.440812 -0.380052
-0.305344 -0.434159 -0.416968
-0.297116 -0.434714 -0.408542
-0.304479 -0.434399 -0.482380
-0.306768 -0.434621 -0.470385
-0.309799 -0.434919 -0.498194
-0.301466 -0.447813 -0.499354
-0.307875 -0.435104 -0.517019
-0.300512 -0.445468 -0.516210
-0.297419 -0.443007 -0.524526
-0.299380 -0.434714 -0.524524
-0.310801 -0.424464 0.951296
-0.307915 -0.435727 0.942274
-0.316251 -0.434697 0.926532
-0.312935 -0.430163 0.936880
-0.310772 -0.441182 0.932682
-0.304435 -0.434932 0.895971
-0.312100 -0.428927 0.899977
-0.303308 -0.418522 0.892862
-0.313501 -0.417565 0.899086
-0.304143 -0.417357 0.744226
-0.296044 -0.417934 0.735587
-0.304789 -0.418181 -0.417141
-0.296607 -0.419045 -0.408550
-0.306953 -0.418665 -0.470844
-0.307627 -0.418001 -0.483901
-0.311396 -0.422788 -0.491259
-0.309764 -0.419317 -0.522066
-0.301774 -0.419871 -0.523822
-0.315815 -0.418028 0.942211
-0.310769 -0.424293 0.947850
-0.303262 -0.401897 0.892466
-0.316460 -0.400834 0.898109
-0.296545 -0.401350 0.734710
-0.304636 -0.400786 0.743920
-0.306485 -0.401269 -0.416351
-0.297953 -0.401648 -0.402810
-0.307851 -0.401663 -0.481312
-0.307848 -0.401735 -0.471292
-0.311468 -0.410213 -0.522909
-0.305365 -0.404502 -0.523627
-0.303215 -0.385488 0.891372
-0.296976 -0.384513 0.734326
-0.305088 -0.384140 0.743953
-0.295833 -0.385063 -0.391417
-0.295673 -0.395824 -0.392253
-0.300469 -0.384766 -0.402611
-0.308044 -0.384288 -0.415174
-0.308755 -0.384726 -0.481171
-0.308762 -0.384746 -0.471943
-0.303194 -0.369417 0.888960
-0.305207 -0.367617 0.744546
-0.297039 -0.367641 0.735124
-0.299812 -0.366678 -0.400592
-0.295587 -0.371669 -0.392293
-0.308878 -0.367557 -0.414042
-0.309716 -0.366589 -0.484393
-0.309247 -0.368065 -0.472772
-0.303175 -0.352975 0.887548
-0.305630 -0.351069 0.744542
-0.297449 -0.350987 0.735091
-0.309221 -0.351002 -0.413654
-0.301043 -0.351093 -0.402427
-0.310345 -0.352937 -0.483112
-0.310028 -0.351444 -0.473725
-0.311669 -0.360047 -0.491991
-0.311668 -0.359435 -0.492014
-0.303145 -0.336071 0.887279
-0.298450 -0.334485 0.733634
-0.306609 -0.334488 0.743738
-0.309140 -0.334549 -0.413955
-0.300971 -0.334573 -0.402971
-0.311016 -0.339966 -0.477051
-0.311018 -0.339967 -0.474412
-0.303145 -0.319916 0.886861
-0.307438 -0.318081 0.743158
-0.299274 -0.318096 0.733046
-0.309140 -0.318201 -0.414030
-0.300967 -0.318237 -0.403386
-0.303159 -0.304326 0.886218
-0.299942 -0.301772 0.733328
-0.308107 -0.301770 0.742746
-0.309429 -0.301944 -0.413646
-0.301238 -0.302072 -0.404371
-0.311622 -0.310814 -0.475161
-0.311623 -0.310813 -0.475005
-0.311119 -0.302326 -0.476383
-0.311117 -0.302350 -0.474839
-0.303142 -0.288019 0.886184
-0.300049 -0.284953 0.730877
-0.309154 -0.285328 0.741993
-0.298496 -0.287381 -0.303179
-0.295719 -0.294885 -0.298166
-0.295717 -0.294927 -0.292306
-0.298204 -0.286852 -0.286390
-0.298344 -0.285795 -0.351584
-0.295680 -0.295203 -0.351415
-0.295402 -0.294380 -0.342424
-0.297370 -0.286788 -0.335894
-0.295714 -0.295298 -0.361439
-0.296985 -0.285425 -0.367932
-0.310269 -0.288464 -0.412540
-0.302853 -0.283581 -0.403395
-0.310983 -0.291173 -0.476803
-0.310983 -0.291186 -0.474895
-0.303127 -0.271269 0.886632
-0.303165 -0.268831 0.731929
-0.310289 -0.268814 0.741109
-0.295493 -0.279160 0.722946
-0.296123 -0.268815 0.721466
-0.304818 -0.269311 -0.286009
-0.297115 -0.282201 -0.273062
-0.299190 -0.270038 -0.268178
-0.305008 -0.269373 -0.302399
-0.298147 -0.284846 -0.318372
-0.302541 -0.269512 -0.318059
-0.301552 -0.269445 -0.334481
-0.301508 -0.269238 -0.352197
-0.299976 -0.269253 -0.369614
-0.295951 -0.279987 -0.385582
-0.298365 -0.269409 -0.385936
-0.304743 -0.269372 -0.401865
-0.303105 -0.254910 0.886126
-0.310526 -0.252428 0.740891
-0.303653 -0.252445 0.731920
-0.296396 -0.252427 0.720988
-0.302596 -0.252960 -0.269254
-0.296317 -0.264953 -0.260088
-0.297061 -0.253230 -0.259849
-0.307180 -0.252783 -0.286088
-0.306141 -0.252877 -0.302384
-0.301736 -0.253100 -0.318083
-0.299310 -0.253034 -0.334689
-0.298976 -0.252778 -0.352586
-0.298230 -0.252767 -0.370115
-0.298287 -0.253015 -0.386313
-0.305100 -0.253014 -0.401750
-0.302092 -0.239210 0.884999
-0.310323 -0.236082 0.741004
-0.303184 -0.236091 0.731907
-0.296196 -0.236062 0.721721
-0.303340 -0.236732 -0.269595
-0.297560 -0.237175 -0.260080
-0.306792 -0.236324 -0.285945
-0.304367 -0.236363 -0.302268
-0.297997 -0.237874 -0.318713
-0.295492 -0.243646 -0.334966
-0.295350 -0.243788 -0.352704
-0.295289 -0.243747 -0.370122
-0.295963 -0.237743 -0.387205
-0.304260 -0.236654 -0.402441
-0.302057 -0.222395 0.885056
-0.305723 -0.218608 0.733427
-0.310722 -0.223455 0.740670
-0.296673 -0.219616 0.720936
-0.298838 -0.220523 -0.259436
-0.305543 -0.220102 -0.269557
-0.308144 -0.219806 -0.285765
-0.305286 -0.219860 -0.302073
-0.298840 -0.219927 -0.318696
-0.304724 -0.220134 -0.402217
-0.296551 -0.219942 -0.387338
-0.303044 -0.205580 0.885686
-0.305645 -0.203170 0.731243
-0.297426 -0.203157 0.719535
-0.300191 -0.203716 -0.258409
-0.308656 -0.201751 -0.270916
-0.310336 -0.201657 -0.283989
-0.307488 -0.203379 -0.301917
-0.302579 -0.203526 -0.318102
-0.296429 -0.215319 -0.335100
-0.298961 -0.203761 -0.334946
-0.297037 -0.204854 -0.353965
-0.295959 -0.214061 -0.348267
-0.296662 -0.204831 -0.370519
-0.295707 -0.214141 -0.375532
-0.298956 -0.203758 -0.386495
-0.305976 -0.203589 -0.401055
-0.302484 -0.189538 0.885012
-0.297451 -0.186783 0.719306
-0.305662 -0.186796 0.731310
-0.308764 -0.188684 -0.270996
-0.300146 -0.187470 -0.258517
-0.307725 -0.186929 -0.302182
-0.310381 -0.188538 -0.284139
-0.303531 -0.187024 -0.318271
-0.300260 -0.187178 -0.335156
-0.299142 -0.187348 -0.353201
-0.298646 -0.187380 -0.370454
-0.300681 -0.187317 -0.386126
-0.307014 -0.187213 -0.399476
-0.305946 -0.173034 0.884789
-0.297327 -0.170409 0.719368
-0.305518 -0.170420 0.731511
-0.307796 -0.170799 -0.269565
-0.299864 -0.171234 -0.258966
-0.309754 -0.170504 -0.286064
-0.307359 -0.170481 -0.302607
-0.303569 -0.170561 -0.318756
-0.300724 -0.170601 -0.335525
-0.300190 -0.170561 -0.353014
-0.299907 -0.170616 -0.369793
-0.302229 -0.170821 -0.385766
-0.307945 -0.170842 -0.398052
-0.302591 -0.155536 0.884881
-0.306096 -0.153982 0.730423
-0.297892 -0.153984 0.718639
-0.300991 -0.154501 -0.258450
-0.309549 -0.155775 -0.269652
-0.310628 -0.155684 -0.286198
-0.308391 -0.154056 -0.302576
-0.305001 -0.154089 -0.318821
-0.302482 -0.154093 -0.335363
-0.301910 -0.154041 -0.352503
-0.301615 -0.154077 -0.369228
-0.303876 -0.154251 -0.385555
-0.308714 -0.154338 -0.397305
-0.302980 -0.139831 0.885475
-0.298450 -0.137560 0.717852
-0.306669 -0.137551 0.729463
-0.310285 -0.137656 -0.265054
-0.302228 -0.137813 -0.257693
-0.310965 -0.137646 -0.291075
-0.309110 -0.137663 -0.302342
-0.305293 -0.137680 -0.318545
-0.302936 -0.137673 -0.335113
-0.302666 -0.137623 -0.352413
-0.302500 -0.137647 -0.369241
-0.304723 -0.137773 -0.385551
-0.309067 -0.137865 -0.396980
-0.302015 -0.123958 0.884970
-0.298426 -0.121169 0.717452
-0.306620 -0.121168 0.729850
-0.310141 -0.121366 -0.265260
-0.302082 -0.121565 -0.257582
-0.307994 -0.121263 -0.302425
-0.310847 -0.121239 -0.290896
-0.302286 -0.121331 -0.318548
-0.299506 -0.121327 -0.335490
-0.300123 -0.121265 -0.353167
-0.300773 -0.121277 -0.369941
-0.303942 -0.121468 -0.385760
-0.308862 -0.121544 -0.396840
-0.301993 -0.105985 0.884827
-0.306753 -0.104775 0.729900
-0.298566 -0.104761 0.716653
-0.310240 -0.105018 -0.264771
-0.302210 -0.105251 -0.257396
-0.307604 -0.104847 -0.302388
-0.310918 -0.104820 -0.291307
-0.300716 -0.104948 -0.318464
-0.297432 -0.104985 -0.335687
-0.298503 -0.104942 -0.353691
-0.299748 -0.104983 -0.370579
-0.303603 -0.105136 -0.385994
-0.308893 -0.105184 -0.396557
-0.302963 -0.090946 0.885628
-0.307553 -0.088335 0.728614
-0.298579 -0.088352 0.713911
-0.310946 -0.094199 -0.262604
-0.304681 -0.088772 -0.257468
-0.311334 -0.094447 -0.292944
-0.309573 -0.088740 -0.301441
-0.303241 -0.088456 -0.318255
-0.299952 -0.088551 -0.335326
-0.299976 -0.088691 -0.353585
-0.301084 -0.088748 -0.370809
-0.305190 -0.088690 -0.386125
-0.309673 -0.088671 -0.395873
-0.302956 -0.074500 0.885944
-0.308185 -0.071918 0.727652
-0.300506 -0.071911 0.715286
-0.295766 -0.071906 0.698791
-0.295180 -0.083018 0.698864
-0.295729 -0.071898 0.682636
-0.295296 -0.083430 0.682671
-0.295344 -0.083433 0.672518
-0.295518 -0.071896 0.670923
-0.303248 -0.072162 -0.255895
-0.305594 -0.072007 -0.318207
-0.310098 -0.071991 -0.303621
-0.302746 -0.072123 -0.335196
-0.302062 -0.072363 -0.353429
-0.302683 -0.072412 -0.370667
-0.306586 -0.072274 -0.386018
-0.310293 -0.072224 -0.395209
-0.301908 -0.058092 0.885124
-0.300981 -0.055549 0.715196
-0.308223 -0.055556 0.727678
-0.296415 -0.055534 0.698499
-0.295837 -0.055524 0.682216
-0.295391 -0.055509 0.670007
-0.304547 -0.056145 -0.257053
-0.310040 -0.056668 -0.301147
-0.306208 -0.055651 -0.318613
-0.304133 -0.055748 -0.335652
-0.303911 -0.055848 -0.353481
-0.304047 -0.055894 -0.370224
-0.306981 -0.055941 -0.385713
-0.310367 -0.055935 -0.394861
-0.301901 -0.041685 0.885011
-0.308608 -0.039156 0.727073
-0.301648 -0.039162 0.715121
-0.296989 -0.039155 0.698215
-0.296246 -0.039136 0.681663
-0.295508 -0.039117 0.668138
-0.310751 -0.050894 -0.263064
-0.310744 -0.044131 -0.263087
-0.304559 -0.039082 -0.256897
-0.311016 -0.051958 -0.292300
-0.309434 -0.039215 -0.302870
-0.310861 -0.039197 -0.291939
-0.306902 -0.039332 -0.319230
-0.305505 -0.039388 -0.336107
-0.305696 -0.039350 -0.353355
-0.305615 -0.039375 -0.369731
-0.307900 -0.039491 -0.385481
-0.310725 -0.039536 -0.394323
-0.302976 -0.025270 0.885938
-0.302895 -0.022765 0.715099
-0.309660 -0.022716 0.725587
-0.297521 -0.022790 0.698117
-0.297093 -0.022744 0.681295
-0.296031 -0.022715 0.665894
-0.303257 -0.022981 -0.254936
-0.310452 -0.021443 -0.301469
-0.311210 -0.025892 -0.293211
-0.307883 -0.022998 -0.319735
-0.306908 -0.023017 -0.336300
-0.307427 -0.022931 -0.352934
-0.307614 -0.022910 -0.369205
-0.309835 -0.023310 -0.386199
-0.311223 -0.029111 -0.393717
-0.302979 -0.008845 0.885944
-0.303815 -0.006369 0.715201
-0.310321 -0.006312 0.724860
-0.298065 -0.006396 0.698343
-0.297733 -0.006351 0.681566
-0.296280 -0.007344 0.663402
-0.303258 -0.006563 -0.254514
-0.307090 -0.006549 -0.319322
-0.310197 -0.006475 -0.303635
-0.306066 -0.006551 -0.336104
-0.306992 -0.006511 -0.353151
-0.307819 -0.006505 -0.369506
-0.309914 -0.006514 -0.383632
-0.302383 0.006312 0.884949
-0.304326 0.010047 0.715385
-0.310424 0.010073 0.724869
-0.298782 0.010046 0.698760
-0.298171 0.010072 0.682232
-0.297045 0.010077 0.665197
-0.295239 -0.002541 0.654388
-0.295454 0.010082 0.652428
-0.303265 0.009708 -0.254832
-0.304707 0.009998 -0.318470
-0.309476 0.010009 -0.303819
-0.302815 0.009978 -0.335802
-0.303666 0.009921 -0.353801
-0.305380 0.009886 -0.370438
-0.309191 0.009777 -0.384323
-0.302334 0.024626 0.884920
-0.310803 0.021616 0.724482
-0.306624 0.026861 0.716834
-0.299734 0.026478 0.698937
-0.298864 0.026495 0.682567
-0.297535 0.026475 0.665536
-0.295690 0.026449 0.651547
-0.303271 0.026073 -0.254588
-0.305126 0.026452 -0.318175
-0.309773 0.026441 -0.305152
-0.302591 0.026367 -0.335604
-0.302521 0.026145 -0.353824
-0.304465 0.026079 -0.370896
-0.309051 0.026133 -0.384239
-0.302929 0.040351 0.885689
-0.306505 0.042918 0.714095
-0.300868 0.042910 0.698974
-0.299912 0.042928 0.682701
-0.298340 0.042888 0.665810
-0.296009 0.042826 0.651655
-0.303264 0.042547 -0.253784
-0.311032 0.042857 -0.308198
-0.307921 0.042866 -0.318106
-0.305158 0.042647 -0.335301
-0.304001 0.042135 -0.353566
-0.305599 0.042134 -0.370944
-0.309707 0.042530 -0.383056
-0.302934 0.056743 0.885700
-0.301729 0.059310 0.698886
-0.307048 0.059320 0.713395
-0.300415 0.059327 0.682561
-0.298777 0.059297 0.665613
-0.296071 0.060359 0.647674
-0.303258 0.058919 -0.253811
-0.311642 0.051694 -0.309849
-0.310113 0.057986 -0.317400
-0.307434 0.059007 -0.335431
-0.305853 0.058552 -0.353637
-0.306954 0.058578 -0.370754
-0.310296 0.058921 -0.381857
-0.301687 0.072039 0.885045
-0.302384 0.075680 0.698616
-0.307578 0.075690 0.713168
-0.300457 0.075695 0.681910
-0.298886 0.075692 0.664866
-0.296842 0.075660 0.647838
-0.295097 0.066606 0.638081
-0.295379 0.075650 0.635450
-0.303257 0.075231 -0.254345
-0.310363 0.076657 -0.334482
-0.310844 0.075486 -0.323623
-0.309798 0.076625 -0.354440
-0.309529 0.075363 -0.370481
-0.310923 0.075370 -0.380159
-0.303508 0.089460 0.885314
-0.307927 0.092072 0.712504
-0.303059 0.092051 0.698398
-0.301068 0.092074 0.681272
-0.299489 0.092093 0.664295
