0.129313 0.585815 -0.086690
0.134763 0.580427 -0.091615
0.132009 0.590579 -0.097457
0.126686 0.596403 -0.091973
0.128621 0.600699 0.245329
0.135052 0.595906 0.239832
0.132856 0.607788 0.234452
0.129207 0.601499 -0.103168
0.134075 0.596389 -0.107695
0.131739 0.606025 -0.112957
0.128315 0.618447 0.222512
0.134690 0.610248 0.222113
0.135297 0.611420 0.204194
0.129412 0.619613 0.204894
0.133227 0.608853 0.189086
0.128303 0.617072 0.189373
0.124716 0.612125 0.175370
0.131176 0.605859 0.181654
0.127880 0.616972 -0.119017
0.133983 0.612224 -0.123305
0.131322 0.621806 -0.129342
0.131605 0.607345 -0.228549
0.123647 0.613168 -0.233238
0.129653 0.618316 -0.226631
0.138370 0.612055 -0.219165
0.127423 0.632924 -0.138129
0.133510 0.624718 -0.138042
0.129983 0.636441 -0.150241
0.136338 0.630483 -0.155993
0.126616 0.645338 -0.155991
0.131882 0.639334 -0.162237
0.133184 0.642112 -0.172772
0.129071 0.650300 -0.173154
0.134038 0.647032 -0.189645
0.130492 0.653058 -0.185588
0.131322 0.654660 -0.195401
0.127107 0.661096 -0.190302
0.133020 0.645080 -0.202436
0.124305 0.645154 -0.218269
0.129013 0.649867 -0.206724
0.131465 0.638927 -0.211967
0.125702 0.661090 -0.202848
0.131319 0.654653 -0.196576
0.156414 -0.983074 0.123335
0.151129 -0.980834 0.129001
0.154906 -0.975171 0.140820
0.162151 -0.982714 0.132626
0.156383 -0.957754 0.173127
0.159558 -0.969059 0.157088
0.163387 -0.966673 0.167248
0.151272 -0.962974 0.157428
0.147592 -0.966086 0.148948
0.153442 -0.942402 0.203674
0.161585 -0.952048 0.204307
0.163127 -0.950568 0.215898
0.157054 -0.943405 0.220667
0.151354 -0.944202 0.188625
0.159505 -0.954242 0.189417
0.149321 -0.947096 0.178720
0.157277 -0.926887 0.352754
0.162766 -0.934210 0.336236
0.163845 -0.933392 0.346167
0.154446 -0.927840 0.336947
0.160902 -0.935649 0.319634
0.152571 -0.929435 0.320424
0.150896 -0.930936 0.304476
0.159129 -0.936862 0.304574
0.158226 -0.937531 0.288231
0.149989 -0.931598 0.288116
0.149708 -0.931587 0.271567
0.158034 -0.937820 0.270882
0.148770 -0.932350 0.254420
0.157108 -0.938538 0.253532
0.147921 -0.933101 0.243606
0.154521 -0.938911 0.237133
0.156521 -0.920400 0.369105
0.151527 -0.913462 0.373391
0.155873 -0.908575 0.385915
0.162544 -0.918231 0.380482
0.149093 -0.898906 0.391839
0.160269 -0.903713 0.396942
0.154698 -0.893210 0.403257
0.149104 -0.881992 0.409118
0.160253 -0.887543 0.414298
0.155780 -0.876224 0.419147
0.151311 -0.863049 0.423822
0.162336 -0.870487 0.429314
0.156403 -0.858456 0.431036
0.156059 -0.843654 0.437879
0.150682 -0.830622 0.440589
0.161853 -0.838291 0.443743
0.156086 -0.825875 0.445789
0.157156 -0.809676 0.452720
0.153587 -0.794479 0.455038
0.161900 -0.794341 0.460655
0.163636 -0.803400 0.459399
0.149864 -0.778259 0.457574
0.158244 -0.778172 0.462759
0.147587 -0.769483 0.458819
0.154208 -0.763098 0.464880
0.156741 -0.745196 0.471907
0.152332 -0.728893 0.473516
0.160603 -0.729048 0.478997
0.162907 -0.739712 0.477991
0.149502 -0.717945 0.475382
0.155426 -0.712512 0.479923
0.156012 -0.696288 0.483733
0.157119 -0.680088 0.488344
0.154023 -0.664282 0.489579
0.163299 -0.674859 0.494185
0.162232 -0.664611 0.494254
0.151951 -0.648222 0.491465
0.160205 -0.648528 0.494173
0.150791 -0.632333 0.491837
0.159043 -0.632568 0.494716
0.150404 -0.616451 0.491807
0.158620 -0.616577 0.495644
0.148858 -0.604163 0.492516
0.154803 -0.599263 0.495786
0.155561 -0.583616 0.497604
0.155608 -0.567229 0.500041
0.155628 -0.550932 0.502285
0.155616 -0.534599 0.502458
0.155581 -0.518266 0.501285
0.155558 -0.501935 0.499369
0.155577 -0.485546 0.497834
0.155673 -0.469104 0.498515
0.155759 -0.452736 0.498112
0.155765 -0.439982 0.495395
0.155777 -0.431835 0.492191
0.155699 -0.420130 0.488206
0.155504 -0.403788 0.487225
0.155328 -0.387442 0.485119
0.156194 -0.372042 0.479756
0.151255 -0.367251 0.476093
0.152330 -0.354644 0.475468
0.160710 -0.354642 0.478915
0.149909 -0.343777 0.476141
0.155579 -0.338251 0.479660
0.155681 -0.323528 0.479403
0.155701 -0.315313 0.476505
0.155722 -0.305379 0.474831
0.155762 -0.288966 0.473658
0.155799 -0.272595 0.473355
0.155806 -0.256207 0.469270
0.155761 -0.239803 0.464434
0.155595 -0.223397 0.462615
0.155418 -0.206991 0.461129
0.155459 -0.190591 0.460177
0.155634 -0.174183 0.459627
0.155808 -0.157768 0.459755
0.155845 -0.141367 0.459726
0.155701 -0.127977 0.458778
0.155566 -0.119806 0.457068
0.155497 -0.108582 0.454549
0.155530 -0.092175 0.452274
0.155558 -0.075768 0.449911
0.155478 -0.059365 0.446833
0.155467 -0.042955 0.445057
0.155563 -0.026548 0.445438
0.155484 -0.010684 0.444040
0.155370 -0.002485 0.441728
0.155263 0.006259 0.437691
0.155170 0.022668 0.432735
0.151518 0.005579 -0.262037
0.139858 0.010403 -0.264271
0.145863 0.016235 -0.260201
0.156383 0.010383 -0.259166
0.155203 0.039074 0.430815
0.155251 0.050118 0.428856
0.155334 0.058313 0.423366
0.155457 0.071886 0.416669
0.155516 0.088295 0.413915
0.148331 0.069889 -0.261146
0.140364 0.075419 -0.263381
0.146508 0.080885 -0.260468
0.154620 0.075280 -0.257713
0.155493 0.104703 0.412769
0.155461 0.114467 0.411095
0.155452 0.122670 0.406843
0.155507 0.137518 0.402056
0.150306 0.120480 -0.262053
0.140194 0.125448 -0.264738
0.146240 0.131292 -0.260156
0.155774 0.125319 -0.257235
0.155625 0.153910 0.399966
0.155696 0.170313 0.398168
0.155589 0.186729 0.396140
0.155468 0.196465 0.394832
0.155417 0.204665 0.391874
0.155399 0.219543 0.387043
0.155359 0.235951 0.383705
0.155279 0.252359 0.381842
0.155231 0.265136 0.379825
0.148130 0.248476 -0.261129
0.138564 0.254498 -0.262919
0.143676 0.259064 -0.259331
0.154377 0.254215 -0.256651
0.155263 0.273321 0.377338
0.145136 0.275214 0.377957
0.155370 0.285163 0.373914
0.141641 0.285166 0.376371
0.155420 0.301567 0.369843
0.155144 0.318209 0.364858
0.149546 0.328266 0.362570
0.155165 0.333997 0.358525
0.143873 0.339195 0.360719
0.155465 0.350792 0.351888
0.155417 0.362871 0.347263
0.155322 0.371068 0.343054
0.145847 0.374458 0.345671
0.155304 0.383606 0.337254
0.154944 0.398889 0.330999
0.151809 0.383832 0.088838
0.146080 0.389393 0.075737
0.146094 0.389397 0.083436
0.150980 0.383841 0.071440
0.142260 0.398610 0.071329
0.147716 0.392138 0.065345
0.149189 0.411324 0.328685
0.153603 0.400549 0.104332
0.143793 0.400563 0.088907
0.147019 0.406353 0.097945
0.148742 0.395419 0.094501
0.149944 0.398603 0.056336
0.144448 0.403079 0.060196
0.147629 0.408416 0.050624
0.154965 0.416631 0.323488
0.144950 0.422255 0.326036
0.154661 0.432689 0.316727
0.153528 0.413848 0.039947
0.143516 0.419363 0.046009
0.148479 0.425669 0.034975
0.148709 0.442770 0.314317
0.149204 0.426917 0.112656
0.145329 0.437879 0.117349
0.155561 0.432860 0.122956
0.143054 0.436625 0.029207
0.153836 0.430889 0.023063
0.148215 0.442078 0.017952
0.143500 0.453699 0.311457
0.154639 0.448635 0.308438
0.155996 0.465709 0.300999
0.143395 0.453020 0.014075
0.154707 0.448066 0.007723
0.150202 0.462356 0.003059
0.147749 0.443549 -0.244653
0.140129 0.449624 -0.247253
0.146276 0.454478 -0.243820
0.154166 0.449267 -0.239753
0.150995 0.478161 0.299191
0.155655 0.466955 -0.004168
0.147043 0.473268 0.000605
0.155098 0.480629 -0.011304
0.143600 0.482071 -0.002183
0.146211 0.489090 0.296499
0.156021 0.482996 0.293710
0.154805 0.498168 0.285073
0.154612 0.480120 0.140711
0.139760 0.481179 0.126621
0.145584 0.486072 0.133687
0.147748 0.475110 0.131239
0.149291 0.492274 -0.014191
0.148921 0.509006 0.281817
0.150532 0.494842 0.145093
0.142514 0.499569 0.140299
0.146460 0.505780 0.150280
0.156332 0.499738 0.156332
0.144071 0.503209 -0.021981
0.151354 0.498044 -0.026153
0.147497 0.506683 -0.033048
0.144697 0.519936 0.279054
0.154769 0.514631 0.274766
0.155450 0.529646 0.266664
0.141462 0.531266 0.276368
0.149845 0.510626 -0.041077
0.144737 0.518816 -0.040795
0.156221 0.515701 -0.055957
0.147354 0.522840 -0.048843
0.150728 0.531291 -0.059317
0.145167 0.531286 -0.051470
0.150045 0.543184 0.264487
0.148428 0.540928 -0.062558
0.155637 0.548017 0.255320
0.145617 0.554106 0.261711
0.150167 0.559434 0.251473
0.147855 0.540761 0.165017
0.145031 0.551728 0.169043
0.151752 0.546827 0.174406
0.144697 0.551868 -0.068510
0.150977 0.546923 -0.073158
0.148056 0.556574 -0.079538
0.154315 0.549467 -0.223541
0.140751 0.549439 -0.233810
0.147433 0.556008 -0.228177
0.147964 0.545027 -0.229165
0.155250 0.563622 0.239224
0.145364 0.570362 0.245796
0.142610 0.581340 0.240073
0.149286 0.576420 0.234684
0.148927 0.558617 0.180021
0.141801 0.564095 0.174386
0.145538 0.569589 0.185587
0.154109 0.562829 0.191866
0.143210 0.567410 -0.090466
0.150063 0.559189 -0.089743
0.153103 0.564683 -0.107429
0.145999 0.570542 -0.101978
0.142633 0.580165 -0.107290
0.148698 0.574453 -0.112776
0.146274 0.587167 0.222867
0.150451 0.578995 0.222914
0.149743 0.577896 0.206573
0.145962 0.586076 0.206211
0.143265 0.580454 0.190608
0.148358 0.574943 0.196365
0.151578 0.580153 -0.123093
0.145515 0.585378 -0.117902
0.142488 0.596812 -0.122469
0.148836 0.591264 -0.127896
0.146017 0.602190 -0.132629
0.151489 0.596797 -0.138219
0.148741 0.606996 -0.143592
0.141952 0.612819 -0.138047
0.150860 0.610133 -0.155717
0.145300 0.618347 -0.155645
0.152287 0.614565 -0.173075
0.147073 0.620871 -0.167357
0.142306 0.628639 -0.172617
0.148163 0.622403 -0.178082
0.147665 0.605786 -0.211694
0.145139 0.616722 -0.207487
0.150107 0.612074 -0.202586
0.148585 0.623350 -0.188347
0.142835 0.631594 -0.188325
0.141336 0.629066 -0.202702
0.148312 0.623076 -0.196681
0.174007 -0.982887 0.138291
0.169564 -0.980397 0.143594
0.180495 -0.982480 0.147329
0.173904 -0.977075 0.154789
0.173181 -0.960991 0.205633
0.177235 -0.968379 0.190444
0.179140 -0.967135 0.201401
0.169089 -0.962423 0.190079
0.166492 -0.964436 0.178236
0.172088 -0.969721 0.173315
0.173354 -0.945737 0.304833
0.178365 -0.950573 0.288175
0.179505 -0.950027 0.300008
0.170180 -0.945735 0.288238
0.169108 -0.946001 0.270282
0.177293 -0.951349 0.270230
0.176194 -0.952190 0.252781
0.168005 -0.946725 0.252781
0.174403 -0.953156 0.236191
0.166204 -0.948213 0.236151
0.164840 -0.949303 0.226620
0.171138 -0.954682 0.221059
0.172463 -0.935055 0.352769
0.167129 -0.932167 0.357653
0.178045 -0.934029 0.364646
0.172431 -0.929180 0.370157
0.173202 -0.920321 0.385648
0.168447 -0.914625 0.390222
0.173490 -0.907991 0.401371
0.179318 -0.917430 0.394116
0.167614 -0.898486 0.408741
0.172955 -0.891945 0.418893
0.178478 -0.901387 0.412210
0.167333 -0.881377 0.425768
0.172555 -0.875994 0.431678
0.178241 -0.885401 0.428852
0.171748 -0.860226 0.439756
0.166027 -0.849208 0.442138
0.176889 -0.855072 0.445189
0.171827 -0.843553 0.447262
0.172109 -0.827618 0.454058
0.166465 -0.814312 0.456690
0.177375 -0.822596 0.459414
0.172024 -0.809576 0.461534
0.172171 -0.794425 0.466573
0.172958 -0.778131 0.472112
0.168208 -0.761871 0.474195
0.176397 -0.761967 0.478717
0.178929 -0.772657 0.477602
0.165590 -0.750653 0.476208
0.171438 -0.745523 0.480511
0.172129 -0.729430 0.484936
0.174023 -0.711476 0.488750
0.170125 -0.696463 0.489965
0.180669 -0.705110 0.492784
0.178330 -0.696618 0.493809
0.166651 -0.685412 0.492090
0.172310 -0.680364 0.495877
0.172491 -0.664728 0.497621
0.172404 -0.648810 0.497532
0.172209 -0.632829 0.498757
0.171934 -0.616678 0.500618
0.170663 -0.631932 -0.160673
0.156359 -0.631940 -0.164625
0.162283 -0.627406 -0.162100
0.164403 -0.637818 -0.163004
0.171926 -0.600273 0.501663
0.172118 -0.583770 0.502486
0.172135 -0.567400 0.504772
0.173423 -0.550447 0.507642
0.171342 -0.534773 0.506441
0.179548 -0.534813 0.508686
0.179798 -0.544592 0.509874
0.171661 -0.518409 0.504489
0.179880 -0.518469 0.507185
0.173674 -0.503341 0.504984
0.180263 -0.509679 0.507106
0.172050 -0.485712 0.504386
0.172184 -0.469314 0.503371
0.172233 -0.452953 0.500995
0.172066 -0.438322 0.496694
0.171937 -0.430137 0.492926
0.171811 -0.420217 0.489519
0.173096 -0.402362 0.490514
0.173054 -0.388972 0.489978
0.179462 -0.395474 0.494144
0.179463 -0.395898 0.494143
0.171697 -0.371046 0.484467
0.171922 -0.354629 0.482293
0.172239 -0.338236 0.482078
0.170929 -0.320235 0.479439
0.164444 -0.313668 0.477207
0.170803 -0.305224 0.477028
0.175381 -0.310581 0.477268
0.172143 -0.289016 0.475828
0.172118 -0.272627 0.474568
0.172158 -0.256230 0.470058
0.172236 -0.239825 0.464834
0.172207 -0.223414 0.462522
0.172088 -0.207005 0.460844
0.171970 -0.190601 0.459794
0.171911 -0.174191 0.458970
0.171984 -0.157778 0.459165
0.172027 -0.141376 0.459008
0.171972 -0.130223 0.458054
0.171891 -0.122049 0.455902
0.171848 -0.108580 0.452998
0.171207 -0.121140 -0.258637
0.156999 -0.120920 -0.263651
0.163076 -0.115326 -0.260784
0.165351 -0.126040 -0.261670
0.171954 -0.092175 0.450930
0.172005 -0.075768 0.448519
0.171896 -0.059366 0.445557
0.171874 -0.042959 0.443862
0.170579 -0.057637 -0.257035
0.154650 -0.057466 -0.262187
0.159374 -0.053193 -0.259373
0.164080 -0.063980 -0.261063
0.171992 -0.026553 0.443979
0.171984 -0.012523 0.442889
0.171902 -0.004335 0.440351
0.171798 0.006255 0.436822
0.171843 -0.005914 -0.258291
0.156587 -0.005855 -0.263572
0.162636 -0.000099 -0.260511
0.166159 -0.010895 -0.261741
0.171732 0.022664 0.432468
0.171793 0.039063 0.429769
0.171825 0.048475 0.428440
0.171815 0.056681 0.423010
0.171830 0.071883 0.416204
0.171851 0.088293 0.413138
0.170653 0.103462 0.411100
0.164395 0.113196 0.410470
0.170654 0.119656 0.406262
0.171912 0.137516 0.400759
0.172056 0.153904 0.397804
0.172132 0.170310 0.394802
0.171028 0.185241 0.393532
0.164775 0.195593 0.394152
0.170831 0.201897 0.391046
0.171796 0.219539 0.385269
0.171784 0.235947 0.381562
0.172187 0.252732 0.379847
0.166999 0.262923 0.379470
0.172169 0.268541 0.376260
0.171834 0.285159 0.370566
0.172065 0.301901 0.365524
0.166630 0.312884 0.363816
0.160403 0.323809 0.361244
0.171941 0.318207 0.359060
0.173179 0.335799 0.350967
0.171242 0.321294 -0.241273
0.157055 0.321802 -0.247828
0.163412 0.327645 -0.244020
0.165247 0.316621 -0.245003
0.167976 0.350793 0.347402
0.164348 0.359623 0.345603
0.170454 0.351938 0.087740
0.163461 0.358100 0.079661
0.163466 0.358101 0.081690
0.172513 0.351446 0.073463
0.160406 0.367644 0.073815
0.166956 0.362390 0.069449
0.170604 0.365942 0.338386
0.170509 0.382464 0.330025
0.166743 0.362830 0.092522
0.160634 0.367907 0.087740
0.162862 0.373737 0.098490
0.172183 0.366989 0.105319
0.162442 0.373282 0.063436
0.172607 0.367943 0.058567
0.158774 0.384209 0.058241
0.167308 0.379090 0.053812
0.164188 0.392674 0.329060
0.166677 0.380291 0.109754
0.160445 0.384921 0.104695
0.163596 0.391203 0.114420
0.173236 0.385705 0.121464
0.172925 0.384526 0.043074
0.162146 0.389996 0.048948
0.166720 0.400050 0.036755
0.158583 0.400041 0.045130
0.170503 0.398886 0.323279
0.160230 0.403620 0.325909
0.171887 0.416172 0.316207
0.163934 0.408314 0.033886
0.166490 0.427126 0.314539
0.159424 0.419257 0.028518
0.167077 0.414857 0.023491
0.164373 0.425135 0.016662
0.171871 0.432684 0.308744
0.159700 0.438066 0.311568
0.171134 0.448554 0.300395
0.172086 0.433069 0.139198
0.161960 0.438787 0.133567
0.166123 0.427832 0.127990
0.159212 0.436089 0.012381
0.170411 0.431141 0.006527
0.165502 0.443086 0.001298
0.165266 0.460275 0.298150
0.171716 0.448729 -0.008537
0.161190 0.454021 -0.002359
0.166342 0.465665 -0.013352
0.161931 0.471194 0.296132
0.171157 0.465692 0.292130
0.171538 0.481313 0.284467
0.164055 0.474178 -0.015161
0.165899 0.492494 0.281952
0.163746 0.474171 0.147715
0.161503 0.485137 0.150852
0.167707 0.480611 0.156794
0.166264 0.477344 -0.024136
0.160516 0.485554 -0.024159
0.163038 0.489109 -0.034458
0.170010 0.483014 -0.040672
0.158711 0.498327 -0.040576
0.165691 0.492740 -0.045747
0.165186 0.479469 -0.229477
0.157125 0.484006 -0.233845
0.163769 0.490448 -0.228618
0.171219 0.483911 -0.224494
0.172199 0.498898 0.272140
0.159920 0.503425 0.278039
0.166554 0.514878 0.265994
0.165800 0.493697 0.162792
0.162134 0.504658 0.167608
0.171732 0.498344 0.174321
0.161575 0.503675 -0.052955
0.168448 0.498316 -0.057533
0.164970 0.508530 -0.062871
0.163561 0.523093 0.263546
0.167564 0.514356 -0.072802
0.161813 0.519460 -0.067697
0.159227 0.531333 -0.072581
0.165022 0.525882 -0.078303
0.161063 0.534037 0.259493
0.167365 0.529645 0.255062
0.165576 0.541917 0.249495
0.164391 0.527208 0.181370
0.158206 0.532106 0.175207
0.163278 0.538142 0.182763
0.168983 0.532114 0.188985
0.167525 0.531314 -0.088947
0.162716 0.536804 -0.082872
0.158673 0.547140 -0.089191
0.165164 0.541291 -0.094916
0.168168 0.547494 0.238785
0.161243 0.552844 0.243670
0.164625 0.556851 0.232935
0.167637 0.544801 -0.107280
0.161792 0.552998 -0.107387
0.163678 0.555696 -0.116469
0.172576 0.548217 -0.123674
0.160510 0.564750 -0.122212
0.166661 0.559697 -0.126941
0.165211 0.557733 0.222826
0.158708 0.565949 0.222853
0.164547 0.557147 0.206270
0.157949 0.565361 0.206531
0.163681 0.556069 0.197999
0.169962 0.564730 -0.139397
0.162786 0.570643 -0.133243
0.165840 0.575371 -0.143787
0.159916 0.580713 -0.138356
0.164717 0.558254 -0.212290
0.156416 0.563946 -0.217950
0.162358 0.569189 -0.209703
0.169131 0.563890 -0.203762
0.167465 0.580709 -0.156899
0.162607 0.586296 -0.151340
0.164451 0.589558 -0.163650
0.159222 0.595785 -0.156778
0.161216 0.599451 -0.173393
0.165218 0.591234 -0.173151
0.161326 0.599434 -0.188498
0.165056 0.591192 -0.188323
0.157498 0.595844 -0.201983
0.164255 0.589582 -0.195596
0.188749 -0.982564 0.149882
0.188709 -0.980506 0.158827
0.185346 -0.963486 0.221230
0.193425 -0.967939 0.222028
0.196535 -0.966284 0.231515
0.190209 -0.962047 0.236662
0.181723 -0.965421 0.211537
0.187717 -0.970377 0.206676
0.187589 -0.951810 0.304710
0.181502 -0.949242 0.309931
0.187539 -0.947969 0.320434
0.192231 -0.950626 0.315903
0.188456 -0.931237 0.373774
0.188503 -0.934576 0.365760
0.188395 -0.910779 0.404221
0.188364 -0.918553 0.395729
0.188415 -0.902603 0.413720
0.188449 -0.895392 0.421919
0.188455 -0.887166 0.430421
0.188051 -0.875681 0.438616
0.182415 -0.866035 0.442286
0.188019 -0.860289 0.447727
0.193134 -0.869946 0.444854
0.187645 -0.843566 0.455726
0.181875 -0.833567 0.457212
0.192442 -0.838323 0.460911
0.187698 -0.827792 0.462727
0.188495 -0.810752 0.469501
0.188018 -0.795880 0.474454
0.182255 -0.783575 0.476089
0.188063 -0.778193 0.479743
0.193110 -0.791379 0.477955
0.188500 -0.762135 0.483989
0.189570 -0.745413 0.488922
0.184928 -0.729853 0.491196
0.195729 -0.739716 0.493253
0.192998 -0.730043 0.494137
0.181972 -0.716391 0.492507
0.187895 -0.711917 0.494835
0.188812 -0.696865 0.497155
0.188952 -0.680568 0.499855
0.188906 -0.664555 0.501630
0.188670 -0.648812 0.502744
0.188415 -0.632873 0.504035
0.188175 -0.616695 0.504836
0.189574 -0.598874 0.506230
0.187685 -0.583907 0.506258
0.195906 -0.592430 0.508499
0.195662 -0.583961 0.507873
0.185616 -0.567500 0.507457
0.193636 -0.567551 0.508567
0.182496 -0.555479 0.508941
0.188060 -0.550477 0.510274
0.188336 -0.534809 0.510491
0.188330 -0.518483 0.509688
0.187345 -0.503430 0.509443
0.181325 -0.498800 0.508545
0.183653 -0.485800 0.508803
0.191689 -0.485838 0.510340
0.185527 -0.469423 0.507223
0.193517 -0.469459 0.509058
0.188807 -0.453559 0.505247
0.194453 -0.459384 0.507985
0.188097 -0.435536 0.497945
0.182534 -0.429299 0.493376
0.184891 -0.420256 0.492337
0.193076 -0.420263 0.494543
0.183897 -0.406845 0.492469
0.188781 -0.402364 0.494722
0.189287 -0.388993 0.494598
0.184702 -0.384537 0.492054
0.189504 -0.372412 0.489034
0.195765 -0.378833 0.493992
0.188494 -0.354623 0.483432
0.188694 -0.338241 0.481784
0.188728 -0.320718 0.478618
0.183217 -0.310606 0.477053
0.188577 -0.305248 0.475842
0.188568 -0.288048 0.475618
0.183578 -0.272639 0.475845
0.194043 -0.281890 0.476409
0.191655 -0.272638 0.476726
0.187607 -0.257230 0.472241
0.192418 -0.263380 0.476586
0.188534 -0.239833 0.465866
0.188681 -0.223423 0.464752
0.188692 -0.207009 0.464790
0.188464 -0.190610 0.463171
0.188205 -0.174200 0.461100
0.188151 -0.157789 0.460366
0.188140 -0.141389 0.459392
0.188093 -0.130377 0.458486
0.188041 -0.122188 0.456562
0.188028 -0.108581 0.453540
0.188145 -0.092173 0.451089
0.188235 -0.075766 0.448858
0.188220 -0.059365 0.446124
0.188242 -0.042959 0.444038
0.188320 -0.026556 0.443259
0.188321 -0.015541 0.442230
0.188268 -0.007355 0.439123
0.188159 0.006252 0.433813
0.188162 0.022655 0.430125
0.189087 0.040425 0.428504
0.184146 0.047576 0.428005
0.189110 0.054026 0.423211
0.188507 0.072578 0.413736
0.183794 0.088288 0.411540
0.181893 0.097175 0.410698
0.187639 0.103477 0.408584
0.175303 0.108117 0.409225
0.188107 0.121112 0.402844
0.188141 0.137510 0.398376
0.185039 0.120235 -0.246120
0.172914 0.125183 -0.248790
0.178875 0.130952 -0.243731
0.189611 0.125141 -0.242453
0.188250 0.153901 0.395684
0.186936 0.170222 0.393057
0.180680 0.178780 0.392032
0.175732 0.189720 0.392542
0.186857 0.185255 0.390543
0.188080 0.203137 0.386831
0.188105 0.219542 0.382725
0.188036 0.236094 0.379331
0.182511 0.247515 0.378647
0.187984 0.252731 0.376244
0.177930 0.258436 0.378355
0.188097 0.268752 0.371402
0.180911 0.251317 -0.244782
0.173548 0.255873 -0.247877
0.180020 0.261558 -0.244259
0.187160 0.255585 -0.241192
0.189216 0.286096 0.365712
0.184409 0.296651 0.363919
0.189193 0.301901 0.359307
0.177622 0.307586 0.361512
0.188733 0.318455 0.350800
0.183681 0.331275 0.347996
0.179607 0.342202 0.345639
0.188696 0.335809 0.343498
0.188179 0.350787 0.336994
0.176170 0.350801 0.343365
0.184830 0.335439 0.103820
0.178301 0.339327 0.088682
0.180046 0.341559 0.097589
0.182883 0.331126 0.088634
0.187475 0.332933 0.071357
0.178071 0.339311 0.077393
0.182096 0.344743 0.067269
0.187111 0.366445 0.329781
0.177879 0.355693 0.063429
0.188556 0.350781 0.057733
0.184121 0.362572 0.053456
0.180903 0.376219 0.327596
0.187503 0.365657 0.122953
0.177605 0.371146 0.116303
0.181215 0.360214 0.112017
0.189324 0.367858 0.042787
0.178267 0.373474 0.048490
0.183609 0.379030 0.037175
0.175127 0.387161 0.325882
0.187039 0.382464 0.322334
0.187592 0.398475 0.315563
0.182978 0.380171 0.128443
0.179837 0.391100 0.132492
0.189330 0.385301 0.139436
0.189259 0.384440 0.025731
0.178599 0.389951 0.031688
0.183970 0.396373 0.019958
0.175620 0.401123 0.025383
0.181810 0.410551 0.314143
0.189058 0.401116 0.011582
0.179623 0.407286 0.015346
0.176040 0.416439 0.012431
0.187729 0.414812 0.003343
0.187625 0.416178 0.309023
0.177424 0.421489 0.312056
0.187459 0.432420 0.300918
0.181731 0.426168 0.000872
0.180930 0.412116 -0.229278
0.173302 0.417397 -0.233231
0.179804 0.423083 -0.228776
0.187206 0.417344 -0.224565
0.181484 0.442617 0.298042
0.187791 0.431905 0.157748
0.178073 0.438299 0.151021
0.181964 0.427332 0.145048
0.176460 0.437122 -0.003970
0.187423 0.431704 -0.009864
0.182174 0.443411 -0.014784
0.176216 0.453543 0.294641
0.188299 0.449317 0.288910
0.184016 0.465636 0.283294
0.184555 0.449038 -0.026161
0.177946 0.454341 -0.020820
0.174255 0.464648 -0.025607
0.180962 0.458492 -0.032446
0.181111 0.475347 0.281071
0.184597 0.464450 0.173230
0.173461 0.464438 0.158914
0.179027 0.469126 0.167142
0.180083 0.458172 0.165808
0.183272 0.462284 -0.041971
0.178436 0.470469 -0.041670
0.188656 0.465689 -0.057617
0.180276 0.473766 -0.050165
0.177632 0.483012 -0.055674
0.182724 0.478157 -0.059607
0.188026 0.481828 0.271054
0.176838 0.486289 0.277599
0.184047 0.494364 0.265849
0.179547 0.489095 -0.065513
0.185764 0.483013 -0.071437
0.176266 0.498658 -0.071508
0.182126 0.493299 -0.076237
0.178521 0.505277 0.261515
0.188604 0.498515 0.255537
0.175177 0.515468 0.255896
0.182284 0.510393 0.250870
0.180995 0.492051 0.181011
0.177697 0.503012 0.185657
0.184655 0.497914 0.190825
0.184926 0.498652 -0.089182
0.178739 0.504222 -0.083571
0.181417 0.508784 -0.095123
0.175669 0.514508 -0.089259
0.178924 0.521306 0.245096
0.185035 0.515475 0.239675
0.181619 0.526720 0.234566
0.176774 0.531831 0.239713
0.181502 0.510256 0.196598
0.175350 0.515385 0.190902
0.179236 0.521186 0.201249
0.183518 0.515389 0.206811
0.178447 0.519710 -0.101905
0.183734 0.514495 -0.107310
0.181020 0.524806 -0.113914
0.175625 0.530674 -0.107673
0.180908 0.509207 -0.212034
0.173069 0.514833 -0.216502
0.179206 0.520188 -0.210566
0.188050 0.514566 -0.203252
0.179084 0.536849 0.222980
0.181871 0.528673 0.223129
0.180928 0.526878 0.212000
0.178083 0.531906 0.206364
0.183324 0.530653 -0.124891
0.178517 0.535718 -0.119847
0.181074 0.540732 -0.131007
0.178246 0.552605 -0.140588
0.183224 0.544387 -0.140810
0.186003 0.549219 -0.155094
0.180303 0.555724 -0.148844
0.176977 0.563981 -0.154873
0.182074 0.558394 -0.159435
0.182367 0.544392 -0.197398
0.175476 0.549065 -0.203003
0.179945 0.555308 -0.194157
0.185246 0.548994 -0.188163
0.182969 0.560190 -0.171940
0.177880 0.568433 -0.172212
0.177635 0.564405 -0.188508
0.182098 0.559109 -0.183800
0.205137 -0.981922 0.162449
0.205128 -0.982623 0.153935
0.206545 -0.963601 0.269840
0.210115 -0.966828 0.255095
0.213088 -0.966090 0.263286
0.201923 -0.965180 0.254745
0.198262 -0.965675 0.242565
0.204295 -0.967956 0.237970
0.204841 -0.951343 0.318377
0.204790 -0.948827 0.326404
0.204793 -0.931479 0.374059
0.204914 -0.934743 0.365867
0.204633 -0.911731 0.405256
0.204587 -0.919285 0.396998
0.204708 -0.896855 0.423235
0.204656 -0.903547 0.415108
0.204661 -0.879939 0.439766
0.204692 -0.888633 0.431949
0.204640 -0.871738 0.445872
0.206028 -0.858346 0.454696
0.201472 -0.849219 0.458978
0.205998 -0.843737 0.462597
0.212424 -0.851820 0.460571
0.205910 -0.825784 0.471132
0.200470 -0.810773 0.475087
0.212310 -0.819184 0.476859
0.208718 -0.810686 0.477743
0.197007 -0.802175 0.476399
0.203483 -0.795820 0.480071
0.206196 -0.776937 0.487408
0.201638 -0.762165 0.490052
0.212504 -0.770607 0.492619
0.209849 -0.762104 0.493529
0.198290 -0.750303 0.491746
0.204095 -0.745467 0.495039
0.204596 -0.730141 0.498097
0.204710 -0.713833 0.500702
0.204939 -0.697343 0.502721
0.206555 -0.680500 0.505156
0.203298 -0.664437 0.505696
0.211516 -0.664583 0.508732
0.212990 -0.674920 0.508817
0.199551 -0.648718 0.506454
0.207838 -0.648773 0.508918
0.198197 -0.632814 0.507436
0.206486 -0.632798 0.509913
0.200358 -0.616653 0.508071
0.208634 -0.616605 0.510635
0.199675 -0.603351 0.508257
0.204886 -0.598839 0.510187
0.204496 -0.583963 0.509952
0.204592 -0.567592 0.510721
0.204659 -0.551217 0.512567
0.204646 -0.534863 0.513505
0.204584 -0.518539 0.513449
0.204550 -0.502224 0.512919
0.204529 -0.485867 0.512042
0.204517 -0.469474 0.510399
0.205270 -0.453606 0.508723
0.200306 -0.448480 0.507264
0.205226 -0.437990 0.503563
0.211238 -0.444351 0.508461
0.204418 -0.420268 0.497080
0.204393 -0.403863 0.497009
0.204504 -0.387463 0.496275
0.204652 -0.377569 0.494289
0.204832 -0.369334 0.489087
0.204976 -0.354619 0.483315
0.205004 -0.338241 0.481672
0.204771 -0.320715 0.478442
0.199204 -0.314491 0.476007
0.194116 -0.314481 0.476087
0.204617 -0.306417 0.475313
0.209978 -0.312546 0.476681
0.204625 -0.291411 0.475227
0.204515 -0.272638 0.477440
0.204575 -0.283179 0.476712
0.204494 -0.262565 0.476945
0.204585 -0.254366 0.472193
0.204765 -0.239832 0.467354
0.204998 -0.223424 0.467178
0.205131 -0.207015 0.468377
0.204934 -0.190616 0.466113
0.204621 -0.174202 0.462769
0.204492 -0.157789 0.461363
0.204440 -0.141390 0.459935
0.204383 -0.129826 0.458884
0.204343 -0.121641 0.457084
0.204347 -0.108582 0.453925
0.204446 -0.092173 0.451403
0.204541 -0.075767 0.449052
0.204575 -0.059366 0.446045
0.205474 -0.042201 0.443403
0.201796 -0.026555 0.442350
0.199414 -0.017533 0.441720
0.204804 -0.011295 0.438442
0.204538 0.006252 0.431154
0.205668 0.022497 0.427767
0.199425 0.006327 -0.245294
0.189931 0.010874 -0.247891
0.196339 0.017078 -0.244154
0.204933 0.010879 -0.241957
0.201085 0.035873 0.427917
0.205881 0.040447 0.426620
0.195148 0.046819 0.427487
0.204784 0.055467 0.420189
0.204675 0.068989 0.412797
0.194102 0.078517 0.410075
0.204597 0.077183 0.409729
0.191962 0.088300 0.409917
0.204550 0.088295 0.408317
0.197452 0.070267 -0.244654
0.189887 0.075454 -0.246288
0.196187 0.081010 -0.244202
0.203781 0.075421 -0.241192
0.204451 0.104707 0.406312
0.204389 0.121112 0.401177
0.197226 0.103215 -0.244730
0.189656 0.108498 -0.246806
0.195797 0.114156 -0.244253
0.203461 0.108432 -0.241566
0.203793 0.138315 0.396266
0.199632 0.153914 0.394277
0.199050 0.164697 0.393008
0.191356 0.175646 0.391919
0.204492 0.170236 0.390914
0.204433 0.186734 0.387368
0.204393 0.203136 0.383672
0.205384 0.220592 0.379751
0.200539 0.230731 0.378407
0.205407 0.236098 0.375871
0.193386 0.241655 0.377340
0.204466 0.252349 0.371075
0.205361 0.269705 0.365664
0.200572 0.281258 0.363757
0.205487 0.286099 0.359815
0.195371 0.292175 0.362161
0.205372 0.302566 0.351278
0.200320 0.313298 0.347626
0.200993 0.299911 0.088918
0.195697 0.308119 0.088802
0.195913 0.308529 0.098611
0.202618 0.302482 0.104380
0.205750 0.303226 0.074589
0.196282 0.308850 0.080429
0.193402 0.318068 0.076623
0.200266 0.318051 0.068911
0.194513 0.324232 0.345237
0.205219 0.318461 0.343400
0.204425 0.334378 0.336750
0.204444 0.317375 0.122756
0.192663 0.317597 0.104453
0.194587 0.322709 0.115776
0.198205 0.311772 0.109565
0.197008 0.326506 0.065251
0.203923 0.349859 0.329841
0.203431 0.332205 0.056123
0.192937 0.337453 0.062068
0.198953 0.345847 0.052004
0.197704 0.332193 -0.228429
0.189920 0.337225 -0.231023
0.196327 0.343192 -0.227755
0.203784 0.336603 -0.224107
0.198153 0.360466 0.327493
0.195037 0.356788 0.048247
0.204699 0.350665 0.041707
0.199520 0.362214 0.037232
0.203968 0.366445 0.322169
0.191765 0.371404 0.325441
0.202886 0.382009 0.315228
0.197318 0.360148 0.129195
0.193838 0.371090 0.134234
0.203482 0.365265 0.140753
0.194566 0.373134 0.031233
0.204866 0.366861 0.024904
0.199245 0.378900 0.019936
0.196354 0.391970 0.313548
0.198683 0.379499 0.146608
0.195719 0.390436 0.150302
0.204845 0.383985 0.157278
0.205026 0.383888 0.008697
0.194907 0.389828 0.014929
0.199064 0.400047 0.002741
0.202943 0.398476 0.307395
0.192679 0.402918 0.311575
0.204270 0.415225 0.300313
0.196722 0.408244 -0.000258
0.198600 0.426675 0.298501
0.192678 0.419178 -0.004536
0.200269 0.414807 -0.009654
0.198048 0.426264 -0.015892
0.204408 0.432552 0.288632
0.192424 0.437610 0.294222
0.199253 0.445079 0.283187
0.200527 0.431746 0.174683
0.193599 0.436492 0.169538
0.197072 0.425522 0.165156
0.193373 0.437371 -0.025461
0.200121 0.429158 -0.025625
0.202435 0.433844 -0.041494
0.195880 0.439972 -0.035805
0.192013 0.449073 -0.041655
0.198201 0.443464 -0.046840
0.195071 0.455999 0.279595
0.205345 0.450393 0.273331
0.201058 0.465646 0.268358
0.192170 0.465639 0.276889
0.197779 0.444226 0.180506
0.190836 0.449516 0.174676
0.195342 0.455181 0.183769
0.204022 0.448206 0.191177
0.199627 0.449063 -0.059303
0.194602 0.454392 -0.055310
0.196819 0.457579 -0.065329
0.198440 0.477365 0.264672
0.193964 0.469118 -0.072616
0.198282 0.460923 -0.073073
0.196057 0.472869 -0.081241
0.201923 0.466714 -0.087858
0.198875 0.478125 -0.092788
0.193722 0.482989 -0.087794
0.204262 0.464720 -0.203381
0.189291 0.464671 -0.215432
0.195337 0.469320 -0.210653
0.196774 0.458356 -0.211733
0.200779 0.482527 0.255128
0.194951 0.488298 0.259751
0.197434 0.491724 0.250315
0.198254 0.478884 0.195835
0.192251 0.483422 0.190478
0.196217 0.489811 0.198886
0.201011 0.483438 0.205261
0.202025 0.482973 -0.105809
0.195984 0.489053 -0.099158
0.198586 0.493381 -0.111173
0.192695 0.498699 -0.105662
0.193298 0.502641 0.239609
0.199090 0.494443 0.239787
0.199567 0.495305 0.223316
0.194192 0.503494 0.223299
0.192684 0.498386 0.205460
0.198093 0.492861 0.209984
0.201164 0.498678 -0.124462
0.195077 0.504300 -0.118660
0.191745 0.514454 -0.124287
0.197836 0.508691 -0.130211
0.199465 0.514457 -0.142144
0.194819 0.519625 -0.137513
0.191328 0.529959 -0.142156
0.197070 0.523584 -0.148443
0.197500 0.508932 -0.195956
0.195208 0.519921 -0.192289
0.200161 0.514648 -0.186908
0.198209 0.526260 -0.156414
0.194367 0.534457 -0.156499
0.195401 0.536654 -0.171410
0.198979 0.528454 -0.171323
0.193161 0.531746 -0.186967
0.198061 0.526516 -0.181533
0.221632 -0.982297 0.163209
0.221629 -0.982564 0.154667
0.213264 -0.966090 0.263275
0.219902 -0.964162 0.269545
0.221449 -0.948551 0.325211
0.221472 -0.951370 0.317469
0.221332 -0.930899 0.372890
0.221368 -0.934423 0.365107
0.221209 -0.918451 0.395419
0.221251 -0.911491 0.404302
0.221273 -0.903345 0.415179
0.221317 -0.896678 0.423440
0.221308 -0.880144 0.439158
0.221318 -0.888486 0.431819
0.221205 -0.860209 0.454131
0.221248 -0.871915 0.445719
0.221167 -0.851984 0.459897
0.221202 -0.843492 0.464138
0.221278 -0.828936 0.472468
0.221388 -0.810665 0.480798
0.221322 -0.820627 0.477556
0.222907 -0.792896 0.488056
0.218349 -0.781441 0.490844
0.229390 -0.786475 0.493662
0.222868 -0.776878 0.494078
0.221315 -0.762068 0.497185
0.222611 -0.744738 0.502906
0.219086 -0.730008 0.504594
0.227421 -0.729871 0.508537
0.229073 -0.738369 0.508357
0.215963 -0.714024 0.505546
0.224334 -0.714131 0.508769
0.214294 -0.697662 0.506399
0.222656 -0.697927 0.509124
0.214004 -0.686175 0.507263
0.220490 -0.681002 0.509915
0.221829 -0.664927 0.511403
0.221719 -0.648831 0.512936
0.221485 -0.632717 0.514094
0.221171 -0.616519 0.514099
0.221078 -0.600207 0.514234
0.221191 -0.583870 0.514464
0.221258 -0.567605 0.515069
0.221284 -0.551340 0.515872
0.221298 -0.563404 -0.143572
0.206162 -0.563404 -0.149256
0.212695 -0.557116 -0.146057
0.215685 -0.567830 -0.147228
0.221287 -0.534980 0.516151
0.221244 -0.518617 0.515525
0.221147 -0.502273 0.515102
0.221066 -0.485893 0.514056
0.221066 -0.469488 0.511707
0.221060 -0.453102 0.509396
0.221004 -0.441645 0.508610
0.220979 -0.433440 0.506305
0.220963 -0.420271 0.501943
0.221031 -0.403872 0.499629
0.221163 -0.387477 0.497423
0.221274 -0.376107 0.494608
0.221404 -0.367887 0.490770
0.221414 -0.354629 0.485719
0.221315 -0.338243 0.483487
0.221148 -0.321864 0.480650
0.220339 -0.306424 0.478179
0.214473 -0.301633 0.476112
0.221111 -0.287577 0.476512
0.225276 -0.292218 0.478604
0.221830 -0.273468 0.477540
0.216862 -0.282918 0.477039
0.221036 -0.262591 0.477287
0.221001 -0.254395 0.472696
0.221017 -0.239826 0.468129
0.221182 -0.223422 0.468510
0.221376 -0.207021 0.469438
0.221359 -0.190621 0.466649
0.221210 -0.174203 0.462882
0.221155 -0.157791 0.460931
0.221137 -0.141392 0.459303
0.221100 -0.130213 0.458171
0.221077 -0.122036 0.456872
0.221078 -0.108591 0.453909
0.219786 -0.122909 -0.241166
0.205627 -0.123090 -0.246364
0.211861 -0.118421 -0.243859
0.213050 -0.129081 -0.244365
0.221144 -0.092182 0.450563
0.221161 -0.075774 0.447519
0.221083 -0.059370 0.444791
0.221040 -0.046557 0.442805
0.214632 -0.060623 -0.244981
0.205952 -0.055464 -0.246776
0.212114 -0.049765 -0.244184
0.220683 -0.055645 -0.242026
0.211533 -0.036232 0.441747
0.221083 -0.038360 0.441103
0.221182 -0.026550 0.439566
0.210022 -0.026538 0.441182
0.221187 -0.010155 0.436112
0.221067 0.006250 0.430581
0.221028 0.016688 0.427645
0.221128 0.024882 0.426259
0.211969 0.027852 0.427149
0.221239 0.039065 0.423347
0.221195 0.055473 0.417796
0.221060 0.068984 0.412514
0.220982 0.077157 0.409924
0.220973 0.088302 0.407015
0.220943 0.104707 0.403742
0.220909 0.121114 0.399693
0.220711 0.138319 0.395532
0.208858 0.144302 0.394605
0.215017 0.144291 0.394282
0.220739 0.153053 0.391828
0.207809 0.153917 0.393021
0.226148 0.147001 0.393699
0.221291 0.142297 -0.225782
0.206369 0.142378 -0.231512
0.212806 0.148820 -0.227965
0.215924 0.137849 -0.229269
0.220981 0.170317 0.387589
0.220936 0.186732 0.385106
0.220901 0.203134 0.382146
0.220913 0.215361 0.378968
0.211496 0.226750 0.377408
0.220966 0.223574 0.376008
0.221030 0.235950 0.371456
0.221592 0.252900 0.365817
0.216472 0.264866 0.363712
0.221571 0.269707 0.359209
0.211435 0.275783 0.361671
0.221006 0.285155 0.352478
0.219717 0.269370 -0.223299
0.206083 0.269659 -0.231470
0.212394 0.274795 -0.227675
0.213275 0.263867 -0.228140
0.220973 0.296660 0.347237
0.215003 0.281379 0.104810
0.211229 0.289598 0.104822
0.213002 0.292852 0.113172
0.220846 0.286519 0.118221
0.209178 0.287404 0.088934
0.214700 0.279183 0.088786
0.210264 0.289931 0.078995
0.220956 0.284639 0.073051
0.216283 0.297573 0.068792
0.220924 0.304872 0.342338
0.211261 0.308699 0.345288
0.221829 0.318586 0.334716
0.222734 0.303528 0.059472
0.212113 0.308500 0.064803
0.208409 0.318034 0.061177
0.217364 0.318031 0.053635
0.216376 0.334402 0.330980
0.220513 0.316938 0.141046
0.210760 0.322987 0.134867
0.214616 0.312031 0.129223
0.213617 0.326923 0.050256
0.213443 0.343764 0.328355
0.217308 0.333218 0.040998
0.209864 0.337862 0.046130
0.214484 0.344515 0.035219
0.219801 0.349851 0.322132
0.209054 0.354724 0.325328
0.219364 0.365947 0.315196
0.210465 0.355467 0.029798
0.217705 0.350338 0.024365
0.214299 0.360562 0.018576
0.212760 0.375458 0.313460
0.213318 0.359432 0.147265
0.209659 0.370389 0.152737
0.216948 0.365840 0.157678
0.210219 0.371499 0.013607
0.220113 0.365800 0.007392
0.214974 0.377921 0.002436
0.207350 0.386408 0.310289
0.220080 0.382600 0.304735
0.215848 0.400021 0.299140
0.220527 0.382330 0.174859
0.210999 0.388502 0.167907
0.214145 0.377536 0.164377
0.220515 0.382550 -0.009285
0.210827 0.388858 -0.003043
0.207938 0.400720 -0.008822
0.215111 0.395698 -0.014380
0.219898 0.383317 -0.206247
0.205744 0.383483 -0.216552
0.211847 0.388372 -0.211112
0.213480 0.377411 -0.212147
0.213283 0.408958 0.297535
0.217178 0.400717 -0.025500
0.212270 0.406605 -0.019871
0.214149 0.409867 -0.031004
0.208766 0.415785 -0.025528
0.209516 0.419899 0.294198
0.219867 0.414770 0.287654
0.215441 0.427465 0.282906
0.214262 0.411950 0.180738
0.207720 0.417015 0.174821
0.212280 0.422893 0.182981
0.221134 0.416210 0.189335
0.215888 0.412817 -0.042074
0.211023 0.421010 -0.041835
0.212603 0.423637 -0.050938
0.218961 0.417486 -0.056397
0.215006 0.427162 -0.060648
0.209074 0.432733 -0.056630
0.220973 0.432882 0.271721
0.210203 0.438403 0.277943
0.215486 0.444761 0.267003
0.210975 0.438112 -0.070098
0.216714 0.432730 -0.074021
0.206521 0.447638 -0.074560
0.213126 0.441078 -0.080615
0.217861 0.449844 0.255959
0.211451 0.455675 0.261389
0.213849 0.460123 0.250638
0.209207 0.465624 0.255678
0.218747 0.450904 0.221708
0.210919 0.453477 0.206927
0.212856 0.457426 0.215188
0.215033 0.445305 0.206908
0.212953 0.441236 0.198565
0.214935 0.444069 -0.089084
0.209813 0.452263 -0.089078
0.212131 0.455965 -0.099244
0.218587 0.450001 -0.105440
0.214785 0.461408 -0.110895
0.210146 0.466384 -0.105808
0.211786 0.471692 0.239788
0.215046 0.463511 0.239788
0.214740 0.462852 0.226144
0.212003 0.467230 0.221701
0.212392 0.472323 -0.117030
0.217980 0.466362 -0.123028
0.209915 0.482526 -0.123511
0.214985 0.477333 -0.128666
0.218156 0.465686 -0.187725
0.211827 0.471134 -0.193772
0.213880 0.460148 -0.196068
0.212094 0.488301 -0.135876
0.217107 0.482535 -0.141202
0.214123 0.491830 -0.146598
0.208506 0.497798 -0.141060
0.210615 0.502359 -0.156058
0.215477 0.494129 -0.155955
0.210963 0.502469 -0.170862
0.215190 0.494220 -0.170704
0.213704 0.491957 -0.179734
0.207376 0.497926 -0.185899
0.231358 -0.982500 0.151920
0.237319 -0.981334 0.157356
0.237994 -0.967752 0.252633
0.224392 -0.965921 0.262148
0.219879 -0.967616 0.256532
0.238000 -0.965221 0.260066
0.238009 -0.950804 0.315161
0.237987 -0.947582 0.322723
0.232518 -0.933889 0.363875
0.237912 -0.929921 0.369498
0.237624 -0.911078 0.401157
0.232120 -0.917470 0.393782
0.237795 -0.902136 0.413636
0.237830 -0.895505 0.421950
0.237850 -0.887315 0.430733
0.237829 -0.878710 0.438020
0.237843 -0.858342 0.454188
0.237735 -0.870465 0.444958
0.237858 -0.844751 0.463037
0.232502 -0.851888 0.459264
0.237807 -0.829904 0.472581
0.237848 -0.821634 0.478133
0.237884 -0.810612 0.482482
0.237902 -0.794633 0.489535
0.237873 -0.778149 0.495729
0.237890 -0.786487 0.493562
0.237789 -0.762013 0.500210
0.237679 -0.747742 0.505357
0.237606 -0.729932 0.509819
0.237588 -0.739655 0.508686
0.237697 -0.714243 0.511198
0.237848 -0.698201 0.512162
0.238050 -0.681807 0.513130
0.238209 -0.665398 0.514158
0.238278 -0.648965 0.515992
0.238144 -0.632630 0.517228
0.237848 -0.616360 0.517494
0.237773 -0.600037 0.517834
0.236366 -0.614867 -0.142964
0.221933 -0.615091 -0.147954
0.227882 -0.610168 -0.145506
0.230030 -0.620801 -0.146308
0.237881 -0.583749 0.518113
0.237854 -0.567598 0.518650
0.237764 -0.551417 0.518841
0.237731 -0.535060 0.518193
0.237707 -0.518669 0.516803
0.237628 -0.502290 0.516366
0.237567 -0.485895 0.515394
0.237575 -0.469490 0.512489
0.237569 -0.453102 0.509902
0.237147 -0.436067 0.509507
0.231442 -0.430177 0.508748
0.237144 -0.420469 0.506708
0.242351 -0.426067 0.509795
0.237611 -0.403880 0.502043
0.237742 -0.387482 0.498160
0.237791 -0.375618 0.494775
0.237850 -0.367410 0.491874
0.237792 -0.354651 0.487925
0.237624 -0.338252 0.486196
0.237425 -0.321865 0.482727
0.237679 -0.305930 0.478883
0.232459 -0.292237 0.478795
0.237768 -0.287659 0.475897
0.227819 -0.279515 0.476878
0.237498 -0.277032 0.476034
0.237634 -0.268801 0.477161
0.237653 -0.263068 0.477071
0.237515 -0.254866 0.473119
0.237365 -0.239828 0.469099
0.237399 -0.223429 0.469242
0.237546 -0.207021 0.468981
0.237627 -0.190622 0.465812
0.237636 -0.174210 0.462231
0.237668 -0.157799 0.459965
0.237578 -0.140723 0.458162
0.232075 -0.131375 0.457595
0.237598 -0.125548 0.456340
0.237723 -0.108599 0.453029
0.237745 -0.092188 0.449092
0.237697 -0.075778 0.445841
0.237343 -0.058984 0.443277
0.231691 -0.049021 0.442356
0.237298 -0.043312 0.440026
0.237616 -0.026553 0.437182
0.237644 -0.010159 0.434157
0.236258 0.006317 0.429513
0.229884 0.014951 0.427979
0.236294 0.021318 0.424222
0.237654 0.039058 0.419489
0.238469 0.056628 0.414405
0.229834 0.034796 -0.228355
0.222880 0.041270 -0.232242
0.229276 0.045786 -0.228143
0.236351 0.041181 -0.225589
0.233521 0.067561 0.412246
0.238293 0.072580 0.408962
0.237366 0.088296 0.404204
0.237403 0.104699 0.400423
0.237381 0.121108 0.397480
0.236566 0.136926 0.394696
0.236073 0.122935 -0.223529
0.221309 0.123057 -0.230794
0.226843 0.127542 -0.227017
0.229632 0.116636 -0.228674
0.230637 0.146999 0.393439
0.236620 0.153041 0.389545
0.237459 0.170312 0.383998
0.238896 0.188149 0.381157
0.233706 0.203142 0.379968
0.230011 0.212217 0.378477
0.236291 0.218433 0.373006
0.237625 0.236023 0.365926
0.232184 0.247791 0.364071
0.227453 0.258716 0.361532
0.237525 0.252900 0.358633
0.238109 0.269285 0.350650
0.233610 0.249843 0.104873
0.227172 0.258039 0.104830
0.228207 0.259131 0.114252
0.238071 0.252630 0.121422
0.228192 0.258989 0.088584
0.234592 0.250808 0.088755
0.229575 0.260406 0.080427
0.238647 0.253952 0.077151
0.237233 0.267512 0.069388
0.226535 0.268825 0.077890
0.232171 0.285152 0.347006
0.231310 0.279317 0.067082
0.229225 0.293352 0.345197
0.237906 0.285334 0.058180
0.227217 0.290250 0.064227
0.233571 0.298548 0.053981
0.237351 0.301515 0.335793
0.234542 0.313519 0.329883
0.232984 0.300316 0.140001
0.220611 0.300332 0.125424
0.225585 0.304950 0.135246
0.229961 0.294001 0.128993
0.238904 0.303144 0.043663
0.229195 0.309467 0.050183
0.226160 0.319423 0.043268
0.233323 0.314887 0.038690
0.238970 0.318585 0.325363
0.227949 0.324441 0.327933
0.238417 0.335196 0.318060
0.224707 0.334390 0.325581
0.236489 0.315935 0.158672
0.226443 0.321857 0.151940
0.230181 0.310904 0.147578
0.229229 0.325804 0.032785
0.238523 0.319000 0.025752
0.232774 0.331167 0.021066
0.226694 0.335753 0.026033
0.236003 0.316902 -0.206913
0.222139 0.317097 -0.215290
0.228238 0.321465 -0.210869
0.229473 0.310595 -0.211606
0.233057 0.350790 0.314883
0.229269 0.342082 0.015425
0.238460 0.335327 0.008643
0.232882 0.350832 0.004520
0.226068 0.350837 0.012614
0.229938 0.359632 0.313409
0.235099 0.351647 0.172757
0.223681 0.351618 0.158120
0.229088 0.357673 0.166418
0.230334 0.346708 0.164743
0.230372 0.360084 0.001231
0.236664 0.366506 0.304726
0.223775 0.370574 0.309910
0.232407 0.378771 0.299255
0.233051 0.366230 -0.009004
0.225929 0.371026 -0.004489
0.230112 0.376218 -0.015352
0.227349 0.389687 0.295134
0.238137 0.384327 0.289481
0.224083 0.400013 0.292113
0.232643 0.400021 0.283787
0.233110 0.382440 0.190558
0.226963 0.387137 0.185464
0.229771 0.376178 0.181792
0.231527 0.378460 -0.025075
0.225691 0.386670 -0.025375
0.227967 0.389628 -0.038563
0.233144 0.383957 -0.043393
0.230097 0.392605 -0.049709
0.224202 0.398867 -0.043393
0.230073 0.409626 0.281185
0.227256 0.404273 -0.057532
0.231490 0.396084 -0.057934
0.229289 0.407660 -0.064991
0.234159 0.401340 -0.071357
0.231255 0.411631 -0.075536
0.226382 0.416845 -0.071016
0.230077 0.395807 -0.195814
0.222701 0.400968 -0.200624
0.229148 0.406761 -0.194839
0.236406 0.400865 -0.189670
0.236359 0.414501 0.269648
0.226444 0.420555 0.277010
0.231725 0.427334 0.264816
0.232403 0.415558 0.204755
0.228012 0.420469 0.198539
0.229740 0.409528 0.195949
0.228165 0.422553 -0.083067
0.233574 0.416826 -0.089256
0.223612 0.432193 -0.089073
0.230668 0.426269 -0.095031
0.226610 0.438223 0.255520
0.233560 0.430018 0.254882
0.233984 0.431714 0.239809
0.228387 0.439903 0.239780
0.232685 0.429879 0.222574
0.227032 0.438078 0.222997
0.223689 0.432409 0.205388
0.230827 0.426643 0.210229
0.233058 0.429549 -0.106868
0.226891 0.437755 -0.106367
0.238064 0.433160 -0.123303
0.229049 0.440493 -0.115665
0.232132 0.445077 -0.127267
0.226451 0.450036 -0.122245
0.228682 0.456027 -0.134951
0.234377 0.450047 -0.140176
0.225856 0.465250 -0.140646
0.230724 0.459460 -0.145758
0.234209 0.450317 -0.171133
0.224297 0.450365 -0.186510
0.229021 0.456432 -0.177123
0.231262 0.445484 -0.180738
0.231584 0.461901 -0.155476
0.227762 0.470104 -0.155620
0.227161 0.466444 -0.171209
0.231154 0.461411 -0.166264
0.253968 -0.963671 0.255137
0.248353 -0.966727 0.249724
0.250160 -0.950176 0.313626
0.254957 -0.946866 0.319616
0.254145 -0.931579 0.357776
0.243460 -0.932797 0.361235
0.237978 -0.936006 0.354850
0.254122 -0.934752 0.349443
0.253883 -0.914426 0.390606
0.242921 -0.916113 0.392617
0.237631 -0.920730 0.386537
0.253911 -0.919423 0.382556
0.253232 -0.894482 0.418552
0.247367 -0.901109 0.412175
0.254023 -0.885623 0.429202
0.255005 -0.875274 0.438393
0.250250 -0.869113 0.444612
0.254897 -0.861335 0.449951
0.253830 -0.849899 0.458799
0.243324 -0.851096 0.459249
0.253833 -0.841765 0.463760
0.253932 -0.828852 0.472012
0.254112 -0.810576 0.480944
0.253992 -0.820508 0.477611
0.252874 -0.792733 0.488517
0.252790 -0.778378 0.494529
0.246528 -0.786294 0.493355
0.254006 -0.761977 0.499642
0.254782 -0.745412 0.506365
0.254693 -0.731221 0.510499
0.249944 -0.739702 0.509187
0.253804 -0.713992 0.512330
0.253896 -0.697957 0.513521
0.254057 -0.681871 0.514222
0.254229 -0.665611 0.514745
0.254360 -0.649124 0.515989
0.254368 -0.632630 0.517702
0.254267 -0.616174 0.518873
0.254249 -0.599835 0.519250
0.254274 -0.583670 0.519404
0.254123 -0.567608 0.520292
0.253885 -0.551455 0.521255
0.253739 -0.535098 0.520243
0.253694 -0.518694 0.518025
0.253768 -0.502285 0.516982
0.253847 -0.485869 0.516041
0.253820 -0.469470 0.513467
0.253762 -0.453089 0.511423
0.253750 -0.436693 0.511114
0.254622 -0.420486 0.509926
0.249775 -0.415151 0.507689
0.254752 -0.405017 0.505447
0.260660 -0.411251 0.508966
0.254099 -0.387478 0.500045
0.254171 -0.374305 0.495552
0.254221 -0.366097 0.491453
0.255680 -0.353128 0.490549
0.252934 -0.338250 0.490638
0.261144 -0.338240 0.493530
0.262126 -0.346603 0.493177
0.254720 -0.323135 0.487657
0.260808 -0.329470 0.493754
0.253834 -0.308664 0.479248
0.253837 -0.300448 0.476123
0.243434 -0.300787 0.476412
0.255377 -0.287887 0.475258
0.250917 -0.277087 0.475525
0.255600 -0.272012 0.476224
0.261991 -0.281629 0.476062
0.254205 -0.263770 0.476057
0.254060 -0.255564 0.473382
0.253818 -0.239838 0.470185
0.253700 -0.223435 0.469276
0.253696 -0.207026 0.467944
0.253720 -0.190622 0.464892
0.253755 -0.174212 0.461838
0.253829 -0.157803 0.459557
0.253872 -0.146047 0.458055
0.242949 -0.134809 0.457183
0.253912 -0.137852 0.456578
0.253966 -0.124999 0.454014
0.254005 -0.108600 0.450925
0.254005 -0.092192 0.447736
0.253948 -0.075780 0.444860
0.253851 -0.064147 0.442886
0.242596 -0.053262 0.441520
0.253786 -0.055961 0.440381
0.253832 -0.042963 0.437101
0.253973 -0.026553 0.434822
0.254063 -0.010159 0.431488
0.254070 0.000373 0.428138
0.248043 -0.011046 -0.229042
0.239080 -0.006109 -0.231676
0.245265 -0.000122 -0.227832
0.253808 -0.006016 -0.225550
0.240872 0.011832 0.426147
0.254042 0.008583 0.423687
0.254029 0.022647 0.418847
0.253973 0.039056 0.415911
0.253850 0.051709 0.412569
0.253732 0.059922 0.409282
0.244419 0.062865 0.410556
0.253650 0.071882 0.405195
0.253627 0.088289 0.400895
0.253670 0.104697 0.397406
0.252669 0.120037 0.394756
0.246551 0.131057 0.394265
0.252646 0.136929 0.389894
0.241477 0.141997 0.392504
