-0.189566 0.104973 0.223308
-0.181479 0.104875 0.228010
-0.181093 0.095792 0.227927
-0.188687 0.095534 -0.309571
-0.189743 0.105142 -0.309847
-0.183900 0.098151 -0.343786
-0.183874 0.096413 -0.343783
-0.188979 0.105619 -0.338538
-0.187345 0.116965 0.219083
-0.181072 0.113153 0.227919
-0.187952 0.111505 -0.190278
-0.197265 0.113532 -0.196607
-0.188925 0.107762 -0.204914
-0.188882 0.105212 -0.221292
-0.188860 0.103947 -0.237955
-0.187543 0.102305 -0.255859
-0.191941 0.101765 -0.271926
-0.195090 0.099674 -0.282133
-0.195937 0.113638 -0.312457
-0.188735 0.125935 0.207351
-0.188828 0.135024 0.199912
-0.188677 0.123395 0.039835
-0.201341 0.127440 0.039675
-0.198353 0.128673 0.052381
-0.189923 0.127049 0.057344
-0.188576 0.118544 0.023001
-0.188537 0.115784 0.006468
-0.188577 0.115884 -0.009830
-0.188673 0.117084 -0.025685
-0.188809 0.119033 -0.041085
-0.188843 0.119886 -0.057386
-0.188804 0.119870 -0.074424
-0.188827 0.119902 -0.090675
-0.188882 0.119794 -0.106384
-0.188903 0.119165 -0.122329
-0.188907 0.118128 -0.138721
-0.188905 0.116753 -0.155697
-0.187914 0.114624 -0.173603
-0.192663 0.113984 -0.185928
-0.192544 0.114570 -0.320525
-0.192745 0.114704 -0.335523
-0.196158 0.113859 -0.344378
-0.198066 0.142071 0.188195
-0.188300 0.142346 0.187827
-0.197558 0.143970 0.171627
-0.193783 0.143948 0.171741
-0.193810 0.146057 0.171831
-0.188333 0.148073 0.188152
-0.196375 0.145601 0.162906
-0.196966 0.145603 0.162886
-0.196967 0.145740 0.162894
-0.196378 0.145740 0.162916
-0.189131 0.143107 0.138626
-0.198675 0.143040 0.122497
-0.197351 0.145082 0.132843
-0.187445 0.135181 0.121131
-0.200120 0.140992 0.106328
-0.190260 0.132775 0.106340
-0.200163 0.140998 0.089617
-0.191262 0.132784 0.089580
-0.193445 0.131600 0.072788
-0.201110 0.139804 0.072843
-0.196129 0.129840 0.063284
-0.203194 0.136214 0.057241
-0.188876 0.156558 0.200934
-0.197893 0.163581 0.211812
-0.201136 0.152569 0.205627
-0.189061 0.169580 0.207838
-0.194584 0.174557 0.215017
-0.200118 0.186831 0.225438
-0.191442 0.186836 0.218282
-0.197156 0.195358 0.227551
-0.187154 0.201129 0.221978
-0.192695 0.203567 -0.029001
-0.201627 0.203445 -0.021682
-0.196017 0.193927 -0.031302
-0.189264 0.220402 0.235828
-0.193215 0.206282 0.231129
-0.188083 0.218853 -0.024692
-0.198575 0.214027 -0.019206
-0.194100 0.235995 0.245404
-0.196319 0.226809 0.244581
-0.193941 0.236067 0.007633
-0.196007 0.226697 0.005042
-0.188606 0.252775 0.246152
-0.193841 0.247486 0.005783
-0.194744 0.242317 -0.127393
-0.190426 0.235145 -0.136789
-0.183243 0.252387 -0.131687
-0.191037 0.251891 -0.122274
-0.196995 0.227889 -0.145922
-0.193302 0.239168 -0.259295
-0.193362 0.246184 -0.259125
-0.188004 0.268067 0.245977
-0.196962 0.260168 0.165489
-0.196617 0.259663 0.155382
-0.190154 0.268770 0.155353
-0.192807 0.267859 0.171953
-0.196393 0.259354 0.138226
-0.189575 0.268770 0.138214
-0.196169 0.259118 0.122082
-0.189163 0.268768 0.121998
-0.196226 0.259196 0.106297
-0.189364 0.268773 0.106187
-0.196890 0.259980 0.090599
-0.190736 0.268771 0.090581
-0.197058 0.260206 0.073734
-0.190990 0.268767 0.073791
-0.196453 0.259637 0.056045
-0.189446 0.268768 0.056090
-0.194362 0.257169 0.039755
-0.185330 0.269117 0.040551
-0.188636 0.251817 0.027210
-0.183149 0.263909 0.028984
-0.186900 0.252712 -0.005854
-0.189118 0.267921 -0.008297
-0.181556 0.259683 0.002390
-0.181398 0.268807 0.002323
-0.195418 0.258297 -0.090902
-0.196401 0.259675 -0.080279
-0.192356 0.267929 -0.074052
-0.188356 0.268784 -0.090969
-0.194081 0.256288 -0.106940
-0.185113 0.270212 -0.107461
-0.183140 0.264655 -0.121900
-0.181000 0.260902 -0.129664
-0.193347 0.246184 -0.265890
-0.193731 0.273828 0.236323
-0.185416 0.285015 0.236931
-0.181896 0.279428 0.245153
-0.196428 0.275966 0.221233
-0.190135 0.285173 0.221168
-0.195545 0.274510 0.206404
-0.188606 0.285180 0.206350
-0.193870 0.272085 0.190123
-0.185027 0.285961 0.190056
-0.183716 0.281515 0.172907
-0.182569 0.279570 0.155346
-0.182206 0.278981 0.138249
-0.182036 0.278699 0.121968
-0.182253 0.279040 0.106133
-0.183020 0.280381 0.090612
-0.183068 0.280609 0.073901
-0.181953 0.278927 0.056169
-0.181064 0.277602 0.046157
-0.182357 0.279662 -0.008168
-0.180676 0.277075 0.001377
-0.193276 0.271834 -0.024415
-0.184379 0.285603 -0.025687
-0.194795 0.273427 -0.039405
-0.187217 0.285161 -0.039465
-0.193973 0.272314 -0.055984
-0.185250 0.286096 -0.056212
-0.183563 0.281564 -0.073804
-0.181895 0.278903 -0.091052
-0.181162 0.277681 -0.102720
-0.181139 0.277310 -0.260329
-0.181128 0.272482 -0.262864
-0.181122 0.272507 -0.260394
-0.181141 0.277300 -0.262811
-0.182224 0.295132 0.232162
-0.182778 0.296159 0.221195
-0.182129 0.295581 0.206327
-0.181374 0.294348 0.195698
-0.181053 0.293504 -0.031154
-0.181517 0.294269 -0.039496
-0.181607 0.294411 -0.050503
-0.175105 -0.893420 0.072787
-0.180834 -0.899677 0.078351
-0.185959 -0.907490 0.072701
-0.179562 -0.901184 0.067653
-0.179426 -0.884904 0.232227
-0.183064 -0.883487 0.242895
-0.188517 -0.886272 0.236830
-0.175051 -0.877159 0.236801
-0.178966 -0.868411 0.279270
-0.172836 -0.862204 0.284711
-0.172278 -0.847765 0.320630
-0.172129 -0.852339 0.312385
-0.171508 -0.827305 0.336419
-0.172409 -0.839989 0.329533
-0.178871 -0.841702 -0.323282
-0.173068 -0.846807 -0.332421
-0.167947 -0.833293 -0.329959
-0.173313 -0.829598 -0.319478
-0.175129 -0.813154 0.336318
-0.166799 -0.812802 0.343896
-0.165316 -0.821228 0.343085
-0.180181 -0.822377 0.161176
-0.180188 -0.822353 0.165347
-0.177326 -0.813768 0.157817
-0.176342 -0.815097 0.170649
-0.178765 -0.825727 -0.306092
-0.172920 -0.813872 -0.302206
-0.167854 -0.817503 -0.315618
-0.176052 -0.796669 0.333451
-0.166634 -0.797357 0.343844
-0.180250 -0.806690 0.313204
-0.179011 -0.808114 0.302218
-0.173465 -0.797459 0.303509
-0.178959 -0.796735 0.319070
-0.177499 -0.809220 0.286910
-0.168540 -0.796742 0.289103
-0.176173 -0.809680 0.271990
-0.167921 -0.800782 0.272523
-0.175762 -0.809905 0.255860
-0.167472 -0.800599 0.255490
-0.176641 -0.809652 0.238710
-0.168078 -0.796534 0.237078
-0.178246 -0.808196 0.224767
-0.175825 -0.798442 0.219258
-0.177792 -0.810658 0.183138
-0.167263 -0.798447 0.170393
-0.173369 -0.795751 0.186623
-0.172672 -0.796600 0.153933
-0.177953 -0.810196 -0.291052
-0.167089 -0.801711 -0.298383
-0.173894 -0.795817 -0.286701
-0.165178 -0.785144 0.343116
-0.170229 -0.780326 0.336666
-0.173931 -0.781214 0.320326
-0.166913 -0.782383 0.306101
-0.164588 -0.788570 0.295700
-0.171321 -0.781083 0.219508
-0.165423 -0.780948 0.230150
-0.179303 -0.793968 0.203881
-0.175988 -0.781189 0.203319
-0.170211 -0.781154 0.188606
-0.179830 -0.791945 0.144826
-0.178129 -0.781214 0.142914
-0.169860 -0.781114 0.152030
-0.180739 -0.789927 -0.277350
-0.170369 -0.781289 -0.282388
-0.178523 -0.781252 -0.274929
-0.167262 -0.765769 0.322045
-0.167349 -0.764845 0.331632
-0.165283 -0.771792 0.312547
-0.164958 -0.771990 0.228613
-0.167266 -0.769809 0.219366
-0.169026 -0.767859 0.203156
-0.167380 -0.769432 0.191559
-0.173788 -0.762635 0.138503
-0.167015 -0.768471 0.149356
-0.173311 -0.764572 -0.269348
-0.167106 -0.770344 -0.279155
-0.164798 -0.756420 0.327748
-0.164797 -0.756420 0.327348
-0.180541 -0.756767 0.129264
-0.176664 -0.748440 0.125995
-0.168387 -0.748371 0.132998
-0.177645 -0.760347 0.002977
-0.174856 -0.762552 -0.009610
-0.166697 -0.755153 -0.009589
-0.172321 -0.751843 0.007822
-0.175998 -0.760818 -0.021392
-0.171353 -0.753110 -0.026257
-0.180799 -0.756768 -0.114255
-0.180798 -0.756761 -0.112620
-0.175260 -0.749811 -0.120339
-0.175037 -0.749316 -0.106262
-0.180681 -0.757100 -0.143909
-0.179501 -0.759700 -0.155368
-0.172493 -0.748459 -0.155351
-0.175788 -0.749829 -0.138193
-0.178592 -0.762060 -0.172631
-0.170835 -0.748464 -0.172472
-0.179475 -0.760275 -0.183982
-0.174996 -0.749055 -0.188954
-0.179550 -0.758756 -0.259742
-0.168674 -0.753107 -0.264448
-0.173623 -0.747953 -0.256520
-0.170925 -0.731707 0.124790
-0.164413 -0.736937 0.129458
-0.172484 -0.743661 0.018462
-0.173590 -0.744015 -0.041121
-0.178345 -0.742143 -0.058071
-0.174382 -0.732049 -0.057983
-0.170204 -0.732026 -0.045311
-0.176197 -0.743637 -0.074368
-0.168687 -0.730993 -0.075395
-0.174457 -0.745580 -0.089575
-0.166293 -0.734772 -0.089533
-0.165418 -0.737150 -0.104869
-0.165677 -0.735655 -0.121311
-0.166443 -0.733351 -0.138174
-0.165633 -0.736286 -0.155356
-0.164858 -0.738114 -0.172343
-0.166145 -0.732538 -0.189661
-0.177649 -0.744039 -0.199597
-0.174559 -0.732047 -0.200542
-0.172932 -0.716960 0.127135
-0.170097 -0.715622 -0.045575
-0.174391 -0.715650 -0.057420
-0.168234 -0.716028 -0.075106
-0.173358 -0.715647 -0.198778
-0.184414 -0.715652 -0.198998
-0.165180 -0.715627 -0.195581
-0.182267 -0.704846 0.128887
-0.178724 -0.704888 0.128902
-0.167815 -0.712371 0.130366
-0.172948 -0.699320 0.131647
-0.168616 -0.701958 -0.046393
-0.170173 -0.701124 -0.057354
-0.167496 -0.704773 -0.073825
-0.165017 -0.706818 -0.082561
-0.165000 -0.710835 -0.082612
-0.171434 -0.700460 -0.197345
-0.181841 -0.699225 -0.197313
-0.165166 -0.706720 -0.196141
-0.174542 -0.714062 -0.247270
-0.181085 -0.707546 -0.244632
-0.181085 -0.707332 -0.244631
-0.174554 -0.700840 -0.246399
-0.172494 -0.682754 0.135879
-0.181100 -0.682800 -0.197015
-0.172639 -0.682775 -0.198162
-0.172509 -0.670438 0.142477
-0.184694 -0.671971 0.143742
-0.172594 -0.673404 -0.197794
-0.180980 -0.674418 -0.197026
-0.172535 -0.662234 0.148800
-0.172598 -0.649960 0.155214
-0.177939 -0.659145 -0.126432
-0.182228 -0.656745 -0.115350
-0.186780 -0.665307 -0.121073
-0.171385 -0.651473 -0.119810
-0.172537 -0.633558 0.160148
-0.172385 -0.617141 0.160941
-0.172373 -0.629774 -0.026063
-0.182810 -0.626355 -0.021089
-0.182791 -0.626352 -0.017032
-0.172517 -0.629409 -0.014805
-0.177686 -0.624445 -0.031548
-0.171565 -0.633463 -0.105530
-0.171315 -0.628666 -0.090516
-0.178330 -0.624397 -0.110082
-0.172071 -0.600712 0.161764
-0.172392 -0.618243 -0.039887
-0.172563 -0.600629 -0.043413
-0.172466 -0.611830 -0.060940
-0.183175 -0.610285 -0.063050
-0.171187 -0.619919 -0.076029
-0.175846 -0.623331 -0.086288
-0.172668 -0.618107 -0.116975
-0.172431 -0.600382 -0.120165
-0.175412 -0.584249 0.161940
-0.167241 -0.584238 0.163429
-0.166470 -0.595229 0.163180
-0.172364 -0.604951 -0.002476
-0.187662 -0.599933 -0.005070
-0.181626 -0.593976 -0.000604
-0.172371 -0.596683 -0.000050
-0.172548 -0.584001 -0.038383
-0.173564 -0.585399 -0.084908
-0.168795 -0.592470 -0.083373
-0.173500 -0.596743 -0.076444
-0.179703 -0.591925 -0.082996
-0.172525 -0.583794 -0.118633
-0.177309 -0.567716 0.162202
-0.169096 -0.567678 0.164154
-0.172540 -0.567477 -0.038825
-0.172450 -0.567054 -0.120185
-0.179896 -0.554466 0.162684
-0.173552 -0.549776 0.164512
-0.172554 -0.551105 -0.042065
-0.172439 -0.570273 -0.085119
-0.189062 -0.567271 -0.084999
-0.183797 -0.561651 -0.080187
-0.172369 -0.561931 -0.079638
-0.172350 -0.550363 -0.122355
-0.179285 -0.562964 -0.244086
-0.173376 -0.568079 -0.245455
-0.173368 -0.549487 -0.243691
-0.168293 -0.554011 -0.244893
-0.172425 -0.534611 0.165616
-0.180057 -0.542098 0.034100
-0.180798 -0.542063 0.032930
-0.180795 -0.542115 0.034105
-0.180063 -0.542046 0.032921
-0.180073 -0.541207 0.032916
-0.180810 -0.541220 0.032923
-0.180068 -0.541259 0.034091
-0.172672 -0.536877 -0.046095
-0.172390 -0.550877 -0.071302
-0.185402 -0.549382 -0.074506
-0.180829 -0.542894 -0.065978
-0.172423 -0.542758 -0.066211
-0.172529 -0.534134 -0.122380
-0.172597 -0.518212 0.167702
-0.172594 -0.536720 -0.057156
-0.172602 -0.534352 -0.060929
-0.172789 -0.518185 -0.056345
-0.172765 -0.518071 -0.121177
-0.172551 -0.501782 0.170192
-0.172712 -0.505100 -0.061741
-0.172423 -0.500625 -0.125613
-0.172408 -0.485212 0.171455
-0.173673 -0.499998 0.012542
-0.182482 -0.500154 0.008908
-0.180881 -0.493791 0.018779
-0.179909 -0.493785 0.018805
-0.178007 -0.484459 0.019901
-0.169819 -0.484508 0.014188
-0.172633 -0.503412 -0.074548
-0.185311 -0.497314 -0.074744
-0.172667 -0.508298 -0.083749
-0.190002 -0.502391 -0.085293
-0.177625 -0.491759 -0.128832
-0.172318 -0.468295 0.171167
-0.176663 -0.468041 0.019609
-0.168498 -0.468078 0.014992
-0.182465 -0.480819 -0.131176
-0.172252 -0.485887 -0.132332
-0.172456 -0.468864 -0.135140
-0.184792 -0.468947 -0.132024
-0.172214 -0.451628 0.170767
-0.172474 -0.452832 0.010839
-0.178062 -0.458839 0.018301
-0.172436 -0.455389 -0.140931
-0.172363 -0.461563 -0.164008
-0.172358 -0.461583 -0.165454
-0.172300 -0.452770 -0.169850
-0.172047 -0.435646 0.171291
-0.172369 -0.455584 -0.155079
-0.189839 -0.451886 -0.155060
-0.173057 -0.435490 -0.178644
-0.171987 -0.419452 0.171326
-0.177670 -0.426590 -0.048535
-0.187834 -0.431239 -0.042743
-0.177672 -0.428647 -0.048474
-0.179047 -0.427437 -0.181934
-0.172127 -0.402535 0.170598
-0.177669 -0.426581 -0.051339
-0.173073 -0.421149 -0.184435
-0.172380 -0.403485 -0.189361
-0.172442 -0.423861 -0.229857
-0.172487 -0.415705 -0.226578
-0.172224 -0.385611 0.170813
-0.173467 -0.408181 0.007700
-0.186337 -0.399813 0.006920
-0.182971 -0.396510 0.016528
-0.172339 -0.399580 0.018307
-0.179694 -0.410994 -0.001696
-0.172523 -0.387067 -0.193914
-0.172178 -0.369016 0.172140
-0.172586 -0.383214 -0.204222
-0.172637 -0.391335 -0.213933
-0.172080 -0.352071 0.172243
-0.165297 -0.359315 -0.049857
-0.165303 -0.360632 -0.049856
-0.165303 -0.360649 -0.048857
-0.165288 -0.359335 -0.048858
-0.171960 -0.334912 0.170690
-0.172320 -0.359035 -0.000331
-0.172280 -0.350453 0.007000
-0.172820 -0.317035 0.166199
-0.170801 -0.334090 0.026644
-0.175355 -0.329492 0.036007
-0.164308 -0.326318 0.032609
-0.170668 -0.322084 0.041160
-0.172255 -0.342188 0.015462
-0.178938 -0.310812 0.162575
-0.172711 -0.302731 0.159617
-0.167875 -0.308629 0.163786
-0.171504 -0.313147 0.057559
-0.172822 -0.284961 0.150363
-0.173486 -0.299267 0.092121
-0.182484 -0.295568 0.088302
-0.171477 -0.306696 0.073670
-0.176726 -0.308964 0.063394
-0.179079 -0.277140 0.147225
-0.171785 -0.286586 0.123212
-0.184935 -0.278139 0.135377
-0.172858 -0.280327 0.139905
-0.173431 -0.292951 0.108132
-0.180049 -0.294319 0.099222
-0.179079 -0.277145 0.145826
-0.170273 -0.253462 0.052859
-0.163813 -0.261315 0.050941
-0.163813 -0.261317 0.051030
-0.170279 -0.253398 0.046623
-0.171410 -0.235083 0.060708
-0.177221 -0.223680 0.143354
-0.171775 -0.232622 0.138419
-0.166302 -0.230852 0.147568
-0.171857 -0.219161 0.147596
-0.176624 -0.228563 0.064920
-0.181655 -0.219972 0.076387
-0.187539 -0.232346 0.071426
-0.174105 -0.219975 0.068165
-0.166913 -0.224071 0.029802
-0.166875 -0.232682 0.030180
-0.172078 -0.237442 0.036033
-0.172154 -0.219114 0.032416
-0.171983 -0.210825 0.147111
-0.175516 -0.209910 0.068663
-0.171999 -0.204343 0.138082
-0.172973 -0.197516 0.120260
-0.179080 -0.195494 0.113938
-0.172919 -0.199988 0.106285
-0.171847 -0.208561 0.091263
-0.170794 -0.204139 0.060958
-0.171860 -0.191464 0.052165
-0.179074 -0.195471 0.112723
-0.171877 -0.191532 0.043295
-0.172470 0.062428 0.204097
-0.178486 0.066926 0.209997
-0.171632 0.073211 0.219872
-0.167602 0.063874 0.213816
-0.177634 0.068386 0.039962
-0.169481 0.064907 0.039936
-0.173104 0.064512 0.056381
-0.179394 0.067494 0.050940
-0.174351 0.070063 0.023012
-0.166210 0.066201 0.023014
-0.164693 0.066835 0.006458
-0.172840 0.070808 0.006458
-0.164758 0.066889 -0.009833
-0.172919 0.070658 -0.009797
-0.165984 0.066521 -0.025595
-0.174152 0.070120 -0.025516
-0.176031 0.069412 -0.040752
-0.167856 0.065856 -0.040821
-0.175906 0.069490 -0.057144
-0.167725 0.065859 -0.057222
-0.166697 0.066225 -0.074516
-0.174873 0.069877 -0.074396
-0.174257 0.070131 -0.090523
-0.166079 0.066449 -0.090619
-0.165712 0.066569 -0.106080
-0.173899 0.070291 -0.106024
-0.173547 0.070423 -0.122110
-0.165349 0.066614 -0.122156
-0.164890 0.066691 -0.138888
-0.173082 0.070583 -0.138818
-0.172562 0.070873 -0.156171
-0.164382 0.066897 -0.156237
-0.164066 0.067058 -0.165838
-0.170533 0.071280 -0.172053
-0.175623 0.085044 0.226005
-0.170979 0.089588 0.228436
-0.164729 0.079685 0.227969
-0.170067 0.085213 -0.237426
-0.169993 0.080767 -0.237453
-0.173691 0.080956 -0.219200
-0.173707 0.088926 -0.222017
-0.166785 0.081159 -0.250249
-0.166802 0.083405 -0.250242
-0.172260 0.080701 -0.321420
-0.172607 0.089483 -0.317090
-0.166715 0.083749 -0.311026
-0.166607 0.080892 -0.310993
-0.164886 0.082161 -0.343700
-0.164869 0.081141 -0.343715
-0.171050 0.080872 -0.333809
-0.172091 0.089351 -0.339064
-0.173291 0.104715 0.228417
-0.178515 0.098903 -0.311224
-0.178408 0.094793 -0.311339
-0.179553 0.113142 0.227922
-0.172935 0.109879 -0.173548
-0.181829 0.112665 -0.179781
-0.171589 0.102905 -0.189682
-0.175527 0.100381 -0.204649
-0.177155 0.099556 -0.220892
-0.177957 0.099253 -0.237558
-0.179206 0.098516 -0.250702
-0.184312 0.110405 -0.320676
-0.172920 0.101694 -0.320909
-0.173481 0.100908 -0.334790
-0.179332 0.097685 -0.343795
-0.173506 0.118089 0.220510
-0.172544 0.127374 0.209565
-0.172612 0.135769 0.202302
-0.172773 0.128765 0.117510
-0.182174 0.129028 0.106472
-0.181030 0.129289 0.114927
-0.172808 0.127496 0.106663
-0.183154 0.128746 0.089665
-0.172798 0.126450 0.089815
-0.172719 0.124768 0.073073
-0.185326 0.128094 0.072893
-0.172568 0.122399 0.056764
-0.172446 0.118786 0.040116
-0.173714 0.114310 0.024540
-0.179687 0.113174 0.006502
-0.179414 0.113287 -0.009846
-0.176762 0.114060 -0.025690
-0.171662 0.114913 -0.041816
-0.172588 0.115950 -0.057303
-0.172559 0.115759 -0.074290
-0.172571 0.115851 -0.090437
-0.172619 0.115955 -0.106067
-0.171280 0.115012 -0.121359
-0.174082 0.114874 -0.138453
-0.176190 0.114198 -0.155529
-0.178597 0.113517 -0.168619
-0.173118 0.143919 0.188337
-0.173502 0.153262 0.189202
-0.172731 0.138746 0.139349
-0.183829 0.145049 0.150541
-0.172421 0.144291 0.156215
-0.172774 0.132070 0.125577
-0.179051 0.159692 0.198266
-0.176425 0.170370 0.199914
-0.173563 0.186822 0.203295
-0.183352 0.186791 0.210747
-0.170981 0.201047 0.206980
-0.181109 0.195945 0.213189
-0.177667 0.206897 0.216593
-0.182342 0.213971 0.225762
-0.172584 0.220933 0.219924
-0.172412 0.219585 -0.039554
-0.181410 0.212742 -0.033342
-0.185076 0.203381 -0.039063
-0.178146 0.208743 -0.043708
-0.179619 0.210388 -0.094487
-0.180560 0.211725 -0.083340
-0.184471 0.204330 -0.089943
-0.175475 0.218448 -0.090041
-0.178470 0.224964 0.229836
-0.185860 0.236014 0.240905
-0.175615 0.236076 0.232751
-0.172212 0.237349 -0.028214
-0.183507 0.236194 -0.020311
-0.177572 0.223710 -0.030157
-0.172509 0.252743 0.236163
-0.182873 0.247563 0.243352
-0.172656 0.251562 -0.022151
-0.181052 0.245350 -0.018400
-0.180038 0.258510 0.244759
-0.178419 0.268782 0.245247
-0.180019 0.259691 0.002357
-0.179844 0.268820 0.002286
-0.178368 0.279411 0.245128
-0.171524 0.268139 0.034023
-0.175720 0.263968 0.028817
-0.174198 0.283919 0.040630
-0.167298 0.272297 0.029793
-0.166782 0.285182 0.029903
-0.180142 0.277076 0.001366
-0.180458 0.276609 -0.112827
-0.174904 0.268796 -0.123040
-0.169758 0.285200 -0.121005
-0.176780 0.283985 -0.107379
-0.180343 0.260909 -0.129669
-0.178407 0.277312 -0.260417
-0.178347 0.272498 -0.260447
-0.172274 0.285468 0.243041
-0.171801 0.300291 0.237181
-0.166225 0.294476 0.244797
-0.166196 0.291553 0.244759
-0.178394 0.289710 0.172866
-0.179899 0.291931 0.184417
-0.173061 0.301926 0.188802
-0.170175 0.299992 0.172687
-0.176967 0.287786 0.155338
-0.168756 0.298567 0.155350
-0.176381 0.287208 0.138252
-0.168189 0.298187 0.138421
-0.175980 0.286924 0.121924
-0.167788 0.297994 0.122024
-0.176306 0.287242 0.106110
-0.168078 0.298428 0.106066
-0.177610 0.288581 0.090672
-0.169362 0.299484 0.090424
-0.177927 0.288809 0.074015
-0.169699 0.299511 0.073731
-0.176589 0.287135 0.056226
-0.168376 0.298150 0.056132
-0.166089 0.295675 0.039964
-0.164486 0.293820 0.031463
-0.172876 0.284302 -0.006455
-0.166960 0.300774 -0.009809
-0.165248 0.290463 0.003639
-0.165271 0.294796 0.003723
-0.178507 0.291383 -0.021877
-0.173865 0.300014 -0.025748
-0.180211 0.292160 -0.062119
-0.178735 0.289772 -0.073917
-0.175331 0.300555 -0.056285
-0.169548 0.302411 -0.073294
-0.177022 0.287127 -0.091155
-0.168826 0.298969 -0.091219
-0.167821 0.297891 -0.106670
-0.166389 0.296062 -0.118493
-0.165010 0.294193 -0.209410
-0.165414 0.291871 -0.219876
-0.165001 0.292631 -0.209462
-0.165427 0.295143 -0.219827
-0.166030 0.296277 -0.236367
-0.166003 0.290458 -0.236464
-0.166906 0.297112 -0.253309
-0.166866 0.287828 -0.253469
-0.178389 0.277313 -0.262899
-0.166238 0.288644 -0.270732
-0.166268 0.295929 -0.270584
-0.164940 0.291782 -0.281632
-0.164947 0.294101 -0.281506
-0.175991 0.304386 0.221193
-0.166400 0.311988 0.231714
-0.167810 0.313701 0.221234
-0.175855 0.303801 0.206237
-0.167673 0.313795 0.206136
-0.166228 0.312090 0.193232
-0.165618 0.311368 -0.024569
-0.164565 0.310041 -0.017099
-0.175230 0.302454 -0.039485
-0.166986 0.313111 -0.039503
-0.166237 0.312114 -0.056281
-0.164862 0.310309 -0.066803
-0.159416 -0.876850 0.055182
-0.164433 -0.883015 0.059719
-0.169831 -0.890620 0.055356
-0.163585 -0.884064 0.049309
-0.163843 -0.867745 0.197416
-0.164327 -0.867202 0.208270
-0.169214 -0.874267 0.203148
-0.160617 -0.860813 0.203180
-0.157631 -0.843786 0.317610
-0.163285 -0.851803 0.311980
-0.154697 -0.828933 0.334689
-0.159499 -0.838936 0.329511
-0.155857 -0.811827 0.345103
-0.155864 -0.820160 0.342987
-0.164324 -0.822351 -0.326656
-0.157638 -0.828389 -0.333579
-0.153378 -0.813879 -0.331461
-0.161937 -0.812880 -0.320306
-0.155906 -0.796665 0.347090
-0.164062 -0.806506 -0.309398
-0.161445 -0.796788 -0.303203
-0.153170 -0.797317 -0.318868
-0.149936 -0.802528 -0.328886
-0.157652 -0.780095 0.346042
-0.162653 -0.790733 0.284790
-0.161019 -0.792471 0.272624
-0.155779 -0.781049 0.289739
-0.152794 -0.782903 0.272402
-0.161288 -0.792340 0.254894
-0.153326 -0.780290 0.254026
-0.162982 -0.790536 0.241882
-0.160836 -0.780911 0.238573
-0.163537 -0.790256 0.170393
-0.163820 -0.789458 0.178822
-0.161737 -0.781059 0.170455
-0.162942 -0.781099 0.180295
-0.163524 -0.790399 0.161476
-0.162777 -0.781077 0.160297
-0.163749 -0.790705 -0.293075
-0.160409 -0.781222 -0.290481
-0.152375 -0.781512 -0.301165
-0.149727 -0.787179 -0.313404
-0.164315 -0.774249 0.342695
-0.161675 -0.764863 0.339050
-0.153339 -0.764776 0.345321
-0.159939 -0.777630 0.301583
-0.155136 -0.766176 0.306487
-0.148922 -0.771303 0.294628
-0.154930 -0.765188 0.234933
-0.149757 -0.769423 0.247097
-0.155048 -0.764683 0.170485
-0.159358 -0.764237 0.186398
-0.160314 -0.763655 0.154536
-0.155757 -0.765799 -0.285083
-0.148904 -0.772176 -0.294919
-0.155557 -0.749436 0.334025
-0.149840 -0.753379 0.343736
-0.161370 -0.760868 0.317935
-0.150266 -0.753518 0.310989
-0.155771 -0.749557 0.320905
-0.159894 -0.761500 0.219328
-0.151604 -0.753408 0.219550
-0.149064 -0.754971 0.230500
-0.161728 -0.759611 0.203125
-0.153514 -0.752307 0.203228
-0.150933 -0.753961 0.186888
-0.148592 -0.755166 0.170446
-0.151918 -0.749162 0.153186
-0.163542 -0.757531 0.145036
-0.160578 -0.748358 0.141231
-0.162619 -0.759345 -0.275228
-0.157370 -0.747478 -0.270279
-0.151707 -0.752803 -0.280219
-0.150142 -0.735238 0.323551
-0.150178 -0.735263 0.329713
-0.158654 -0.731621 0.135970
-0.149018 -0.731822 0.147179
-0.164260 -0.740348 0.015210
-0.162441 -0.743145 0.006803
-0.159158 -0.732046 0.006866
-0.163731 -0.732028 0.016546
-0.158780 -0.746945 -0.009611
-0.151158 -0.732658 -0.010012
-0.160087 -0.744754 -0.025859
-0.153120 -0.732663 -0.025178
-0.163633 -0.741115 -0.035516
-0.162275 -0.732035 -0.037403
-0.163066 -0.742114 -0.259529
-0.152450 -0.732063 -0.265330
-0.160638 -0.732027 -0.257682
-0.148633 -0.715456 0.146514
-0.158331 -0.716946 0.136501
-0.164130 -0.726025 0.129205
-0.164140 -0.723344 0.129214
-0.156049 -0.715649 0.007071
-0.162334 -0.715632 0.018880
-0.149922 -0.715636 -0.004683
-0.160745 -0.715641 -0.037871
-0.152518 -0.715617 -0.029281
-0.163877 -0.726546 -0.089530
-0.164197 -0.724760 -0.081437
-0.164206 -0.721764 -0.081384
-0.162875 -0.716056 -0.088392
-0.163514 -0.728947 -0.104889
-0.160257 -0.715652 -0.104979
-0.163848 -0.727465 -0.121322
-0.161523 -0.715647 -0.121382
-0.164240 -0.725134 -0.138190
-0.163625 -0.715643 -0.138206
-0.163628 -0.728075 -0.155353
-0.161986 -0.715645 -0.155344
-0.163507 -0.729909 -0.172295
-0.160819 -0.715647 -0.172269
-0.164112 -0.727392 -0.184970
-0.163017 -0.715645 -0.187590
-0.155840 -0.714506 -0.256826
-0.149950 -0.719213 -0.262563
-0.157834 -0.699182 0.139773
-0.149592 -0.699100 0.146994
-0.160957 -0.699223 0.020885
-0.153649 -0.699235 0.007009
-0.148891 -0.699222 -0.002618
-0.160642 -0.697585 -0.041484
-0.151499 -0.699205 -0.031216
-0.156539 -0.699235 -0.105026
-0.160075 -0.700492 -0.088434
-0.157964 -0.699228 -0.121430
-0.159777 -0.699230 -0.138265
-0.157640 -0.699234 -0.155358
-0.157315 -0.699238 -0.172246
-0.161861 -0.700432 -0.189928
-0.159143 -0.682787 0.141417
-0.150939 -0.682741 0.147738
-0.159938 -0.683132 0.024496
-0.152714 -0.682811 0.006699
-0.148343 -0.682804 -0.002039
-0.149999 -0.688050 -0.032704
-0.152720 -0.682701 -0.043003
-0.163455 -0.692869 -0.057792
-0.154033 -0.681502 -0.058018
-0.161635 -0.696551 -0.074136
-0.153413 -0.684019 -0.074501
-0.152153 -0.684619 -0.089728
-0.151585 -0.684582 -0.105014
-0.152070 -0.685176 -0.121458
-0.152148 -0.687122 -0.138364
-0.151081 -0.688310 -0.155390
-0.151822 -0.686632 -0.172203
-0.155136 -0.682000 -0.187846
-0.163875 -0.695803 -0.197076
-0.162591 -0.682794 -0.197955
-0.161203 -0.671686 0.143818
-0.155881 -0.666270 0.149261
-0.163510 -0.675369 0.082549
-0.168432 -0.676610 0.072975
-0.165394 -0.675368 0.082569
-0.161915 -0.676617 0.072921
-0.163508 -0.673873 0.082611
-0.161911 -0.673008 0.072958
-0.161899 -0.676521 0.061150
-0.168697 -0.676494 0.061215
-0.168711 -0.673177 0.061246
-0.161909 -0.673196 0.061178
-0.173380 -0.683111 0.026480
-0.168515 -0.677850 0.036382
-0.162060 -0.677858 0.036289
-0.160695 -0.671114 0.023294
-0.162032 -0.672896 0.036117
-0.158318 -0.668353 0.006591
-0.154498 -0.664790 -0.003042
-0.150050 -0.666389 -0.047001
-0.151530 -0.667143 -0.058105
-0.162542 -0.673184 -0.197986
-0.156748 -0.669381 -0.188026
-0.156122 -0.649967 0.154358
-0.160389 -0.655819 -0.057939
-0.156012 -0.652851 -0.041401
-0.159932 -0.656114 -0.074411
-0.151685 -0.663071 -0.074638
-0.149719 -0.660704 -0.084656
-0.156483 -0.649539 -0.089883
-0.155777 -0.650980 -0.123161
-0.149884 -0.659693 -0.131818
-0.149891 -0.659684 -0.128220
-0.155753 -0.656001 -0.137721
-0.156295 -0.654789 -0.168474
-0.165667 -0.657037 -0.165576
-0.171722 -0.662491 -0.171616
-0.156246 -0.660912 -0.176728
-0.156078 -0.633571 0.158931
-0.156255 -0.633545 -0.116520
-0.166922 -0.633523 -0.113650
-0.155975 -0.617146 0.161404
-0.156449 -0.637999 -0.026484
-0.156406 -0.634569 -0.013336
-0.166822 -0.627315 -0.034738
-0.156222 -0.629676 -0.036271
-0.156188 -0.617140 -0.043460
-0.157040 -0.635256 -0.090296
-0.164944 -0.625557 -0.082242
-0.156011 -0.626107 -0.081302
-0.163250 -0.640829 -0.100960
-0.156073 -0.617023 -0.120313
-0.155945 -0.606494 0.162232
-0.156141 -0.600658 -0.042777
-0.156073 -0.613159 -0.060515
-0.156018 -0.621357 -0.073158
-0.156026 -0.600470 -0.120707
-0.156018 -0.584237 0.165592
-0.155977 -0.598280 0.163911
-0.161901 -0.596528 -0.000346
-0.156274 -0.601513 -0.002924
-0.160153 -0.584099 0.001549
-0.151927 -0.584164 -0.003251
-0.155787 -0.584261 -0.035726
-0.156109 -0.583914 -0.117763
-0.155947 -0.567716 0.166898
-0.151830 -0.567648 -0.003374
-0.160047 -0.567418 0.002251
-0.155750 -0.567019 -0.035809
-0.150041 -0.572119 -0.032719
-0.150064 -0.578867 -0.032736
-0.155997 -0.567251 -0.119344
-0.155826 -0.551166 0.168014
-0.152507 -0.551167 -0.003464
-0.160705 -0.550689 0.001805
-0.156034 -0.551225 -0.039861
-0.154715 -0.566593 -0.086344
-0.159318 -0.560370 -0.081429
-0.156197 -0.550653 -0.075405
-0.148278 -0.558802 -0.083541
-0.155838 -0.550632 -0.122968
-0.155887 -0.534644 0.167946
-0.159396 -0.534068 0.002663
-0.151152 -0.534563 -0.002662
-0.156727 -0.533748 -0.045532
-0.164146 -0.542519 -0.066530
-0.163443 -0.535010 -0.058850
-0.157132 -0.535187 -0.074594
-0.155966 -0.534306 -0.124676
-0.164084 -0.542938 -0.244324
-0.157626 -0.549576 -0.245770
-0.153077 -0.540717 -0.245002
-0.157660 -0.534907 -0.243265
-0.156016 -0.518135 0.168518
-0.158072 -0.517621 0.003343
-0.149754 -0.517928 -0.001815
-0.159374 -0.518120 -0.053422
-0.151035 -0.518143 -0.048482
-0.155846 -0.517207 -0.083661
-0.150050 -0.527748 -0.083827
-0.161251 -0.522058 -0.079685
-0.156174 -0.518070 -0.124326
-0.155997 -0.501660 0.170510
-0.150613 -0.501616 -0.002190
-0.158932 -0.501316 0.004000
-0.154345 -0.501535 -0.057693
-0.149317 -0.501679 -0.049202
-0.156877 -0.500550 -0.126702
-0.164042 -0.510532 -0.165087
-0.164714 -0.510535 -0.165158
-0.164714 -0.510534 -0.165074
-0.164043 -0.510533 -0.165171
-0.164045 -0.510330 -0.165169
-0.164715 -0.510332 -0.165156
-0.164042 -0.510329 -0.165085
-0.155908 -0.485076 0.172116
-0.151453 -0.485394 -0.002892
-0.159741 -0.484974 0.005365
-0.149231 -0.485184 -0.049472
-0.149223 -0.485178 -0.051514
-0.156076 -0.504757 -0.074854
-0.156076 -0.509083 -0.083459
-0.166697 -0.494363 -0.130156
-0.162866 -0.494340 -0.130164
-0.159496 -0.485310 -0.131949
-0.151164 -0.485255 -0.128813
-0.155842 -0.468112 0.172129
-0.158077 -0.468435 0.006103
-0.149811 -0.468763 -0.002061
-0.148164 -0.476566 -0.049865
-0.148162 -0.476560 -0.050533
-0.154669 -0.469614 -0.135050
-0.148247 -0.475682 -0.129644
-0.155775 -0.451472 0.172253
-0.158164 -0.452016 0.004319
-0.149916 -0.452199 -0.001964
-0.148629 -0.459123 -0.068253
-0.148631 -0.460859 -0.068225
-0.148642 -0.460853 -0.066546
-0.148636 -0.459115 -0.066574
-0.155964 -0.457871 -0.143285
-0.155905 -0.462523 -0.160564
-0.155888 -0.462627 -0.166576
-0.155863 -0.452708 -0.172449
-0.155680 -0.435606 0.172803
-0.161325 -0.438740 0.001271
-0.155838 -0.434461 -0.003127
-0.155925 -0.457995 -0.151680
-0.155799 -0.440450 -0.179383
-0.155651 -0.419376 0.172764
-0.155784 -0.432203 -0.183129
-0.168164 -0.429479 -0.182518
-0.155834 -0.419735 -0.186675
-0.155754 -0.402128 0.172155
-0.155825 -0.424003 -0.002755
-0.173357 -0.421037 -0.003205
-0.168775 -0.416608 0.002738
-0.155882 -0.415778 0.002008
-0.155995 -0.403178 -0.190970
-0.154853 -0.419492 -0.225974
-0.159408 -0.424771 -0.229481
-0.155781 -0.384999 0.172174
-0.155920 -0.406855 0.010171
-0.156007 -0.398666 0.017380
-0.156057 -0.387479 -0.194729
-0.155675 -0.368480 0.173281
-0.155113 -0.387177 -0.205539
-0.159982 -0.392170 -0.213412
-0.155531 -0.351690 0.173569
-0.161856 -0.359255 -0.048924
-0.161868 -0.360569 -0.048928
-0.155373 -0.334724 0.172671
-0.161075 -0.347125 0.003659
-0.155641 -0.352464 -0.003231
-0.155543 -0.337889 0.008574
-0.149931 -0.340484 -0.001778
-0.161864 -0.359238 -0.049928
-0.155260 -0.318198 0.168630
-0.155591 -0.330267 0.021268
-0.155197 -0.307468 0.163906
-0.155104 -0.312098 0.072807
-0.165707 -0.311467 0.067812
-0.154468 -0.312089 0.055379
-0.154510 -0.315245 0.041843
-0.148347 -0.310182 0.047803
-0.148339 -0.310180 0.048833
-0.155516 -0.324009 0.029255
-0.155194 -0.299352 0.158942
-0.155243 -0.287257 0.150959
-0.155268 -0.297504 0.103895
-0.169037 -0.296568 0.102954
-0.155089 -0.306222 0.088342
-0.160434 -0.309920 0.078455
-0.155323 -0.281655 0.138783
-0.155305 -0.286543 0.122929
-0.155269 -0.292279 0.112410
-0.154311 -0.252164 0.058438
-0.155388 -0.264798 0.051846
-0.159260 -0.241105 0.138926
-0.151074 -0.248614 0.138932
-0.149076 -0.247085 0.147684
-0.154924 -0.236759 0.148544
-0.160521 -0.242687 0.122724
-0.152331 -0.249035 0.122968
-0.151191 -0.247692 0.106251
-0.159381 -0.241418 0.105933
-0.149026 -0.246158 0.095626
-0.153926 -0.235454 0.089628
-0.159990 -0.236760 0.062376
-0.148131 -0.246185 0.065694
-0.151304 -0.235610 0.071421
-0.156614 -0.237720 0.028499
-0.151873 -0.248577 0.029469
-0.156557 -0.253582 0.039050
-0.162742 -0.243699 0.033285
-0.155562 -0.220884 0.149376
-0.154193 -0.221423 0.086037
-0.151647 -0.224239 0.072110
-0.165942 -0.220037 0.063757
-0.156929 -0.218752 0.063614
-0.155626 -0.210123 0.147613
-0.155483 -0.203760 0.058308
-0.155534 -0.223902 0.029253
-0.155558 -0.215625 0.032504
-0.155626 -0.204317 0.137984
-0.155570 -0.199434 0.121384
-0.155493 -0.202348 0.104839
-0.155452 -0.209159 0.093003
-0.155507 -0.193463 0.050382
-0.155518 -0.193546 0.044934
-0.154544 0.054106 0.203990
-0.149810 0.049173 0.187131
-0.148621 0.049840 0.199069
-0.158022 0.053620 0.187194
-0.149905 0.049053 0.171070
-0.158122 0.053944 0.171180
-0.149157 0.049406 0.154896
-0.157377 0.054650 0.154918
-0.148887 0.049530 0.138686
-0.157119 0.055150 0.138574
-0.149258 0.049401 0.122485
-0.157519 0.055087 0.122425
-0.157302 0.054970 0.106089
-0.149025 0.049676 0.106043
-0.154368 0.054200 0.087752
-0.148153 0.050252 0.092278
-0.154011 0.061020 0.219399
-0.158673 0.069222 0.224725
-0.154224 0.073440 0.228751
-0.147800 0.063834 0.227953
-0.161783 0.067931 -0.176659
-0.150898 0.064999 -0.186042
-0.156017 0.064530 -0.171959
-0.156130 0.068850 -0.190209
-0.155730 0.088390 0.229583
-0.159727 0.083099 -0.311039
-0.159670 0.080292 -0.311051
-0.155880 0.098911 0.228487
-0.156036 0.087007 -0.204669
-0.167276 0.094279 -0.204662
-0.165409 0.095809 -0.195559
-0.156020 0.092456 -0.189717
-0.154761 0.083963 -0.220577
-0.158022 0.084115 -0.237427
-0.160713 0.082854 -0.250233
-0.155957 0.088389 -0.320065
-0.163156 0.097729 -0.325659
-0.156087 0.081367 -0.343751
-0.157066 0.088993 -0.334989
-0.155984 0.107063 0.223746
-0.168700 0.110068 0.226293
-0.156102 0.117735 0.215846
-0.157415 0.106480 0.024565
-0.171539 0.109035 0.006519
-0.169141 0.110165 0.019878
-0.155993 0.100973 0.006531
-0.155996 0.101393 -0.009761
-0.171254 0.109470 -0.009825
-0.156044 0.103212 -0.025614
-0.168587 0.110777 -0.025675
-0.157656 0.107137 -0.041798
-0.165594 0.112235 -0.037230
-0.164193 0.113051 -0.047404
-0.156253 0.104382 -0.138552
-0.165906 0.112121 -0.138403
-0.164913 0.112677 -0.126284
-0.157840 0.107002 -0.121356
-0.168009 0.111005 -0.155506
-0.155122 0.101598 -0.154434
-0.158780 0.101115 -0.172639
-0.161452 0.098948 -0.185035
-0.163183 0.097688 -0.329079
-0.156182 0.125876 0.208779
-0.156223 0.134885 0.201606
-0.156388 0.124858 0.106969
-0.156334 0.127852 0.120517
-0.156402 0.121973 0.090006
-0.156364 0.119218 0.073215
-0.156265 0.116940 0.056888
-0.157542 0.114249 0.041871
-0.163820 0.113047 0.031175
-0.164143 0.113072 -0.057251
-0.164235 0.113006 -0.074230
-0.164232 0.113020 -0.090319
-0.164270 0.113028 -0.105904
-0.164399 0.112970 -0.115411
-0.156624 0.143204 0.189010
-0.162384 0.145010 0.172723
-0.168812 0.145019 0.172546
-0.162385 0.146830 0.172777
-0.155841 0.153837 0.189832
-0.161819 0.144427 0.156252
-0.161827 0.147128 0.156319
-0.156216 0.140312 0.140001
-0.156211 0.150327 0.140169
-0.156340 0.131793 0.128707
-0.155285 0.169679 0.195631
-0.168238 0.170361 0.195749
-0.149275 0.163709 0.198701
-0.149294 0.160884 0.198646
-0.155972 0.186882 0.192759
-0.165391 0.186822 0.197506
-0.149374 0.179323 0.114312
-0.149394 0.176249 0.114417
-0.155437 0.170572 0.119006
-0.155296 0.185641 0.117358
-0.156428 0.201778 0.192686
-0.164255 0.195181 0.198623
-0.160538 0.221390 0.206055
-0.166731 0.216881 0.210932
-0.162266 0.206153 0.200681
-0.162165 0.236168 0.216298
-0.167388 0.236094 0.223185
-0.163988 0.227842 0.214096
-0.162537 0.226491 -0.045657
-0.166675 0.232721 -0.035537
-0.159934 0.237819 -0.040328
-0.159204 0.252576 0.221134
-0.165018 0.246941 0.226263
-0.161136 0.252864 -0.030080
-0.163573 0.243552 -0.031933
-0.162826 0.257870 0.229022
-0.170150 0.268790 0.240223
-0.159398 0.268891 0.232016
-0.156787 0.270557 -0.025579
-0.167378 0.265669 -0.020145
-0.155546 0.284653 0.237173
-0.163778 0.276557 -0.016788
-0.172075 0.270188 -0.009662
-0.160175 0.285179 -0.009653
-0.163153 0.294466 0.244785
-0.163103 0.291529 0.244760
-0.162035 0.290500 0.003606
-0.162068 0.294822 0.003674
-0.163592 0.292651 -0.209447
-0.163611 0.294213 -0.209429
-0.156977 0.300630 0.241254
-0.155964 0.317669 0.234924
-0.162834 0.308194 0.172492
-0.164093 0.309477 0.181814
-0.153408 0.319134 0.172639
-0.159402 0.317763 0.188156
-0.161630 0.306787 0.155333
-0.153389 0.317007 0.155286
-0.161550 0.306428 0.138557
-0.153316 0.317556 0.138819
-0.161659 0.306241 0.122133
-0.152447 0.319568 0.123441
-0.162029 0.306655 0.106016
-0.152707 0.319606 0.104698
-0.162681 0.307700 0.090050
-0.154367 0.317353 0.089575
-0.162526 0.307727 0.073273
-0.154245 0.317059 0.072772
-0.161341 0.306389 0.055937
-0.153097 0.316925 0.055766
-0.159173 0.303926 0.039823
-0.150982 0.314397 0.039697
-0.154978 0.300244 0.029310
-0.148912 0.311475 0.030113
-0.154782 0.301283 -0.006833
-0.154535 0.316123 -0.009090
-0.148419 0.308754 0.002205
-0.148426 0.311285 0.002194
-0.162017 0.307209 -0.091337
-0.163161 0.308452 -0.078913
-0.158270 0.316691 -0.073491
-0.152783 0.319444 -0.091920
-0.160888 0.306141 -0.106716
-0.152641 0.316620 -0.106727
-0.156117 0.301672 -0.121198
-0.150648 0.313788 -0.117704
-0.162981 0.295183 -0.219830
-0.148360 0.318061 -0.210096
-0.148095 0.309805 -0.219918
-0.148046 0.309835 -0.211671
-0.149118 0.318054 -0.219898
-0.161641 0.296339 -0.236404
-0.150471 0.318030 -0.236371
-0.149324 0.308351 -0.236463
-0.155783 0.301784 -0.251398
-0.151760 0.318012 -0.253066
-0.155456 0.301629 -0.272701
-0.149810 0.316694 -0.268756
-0.162486 0.294141 -0.281606
-0.148250 0.309079 -0.279556
-0.148254 0.310360 -0.279477
-0.160467 0.321917 0.221194
-0.150387 0.329366 0.231729
-0.152254 0.331440 0.221248
-0.160681 0.322002 0.205978
-0.152451 0.331447 0.205948
-0.150143 0.328864 0.189143
-0.148161 0.326598 0.178453
-0.148080 0.326533 0.109455
-0.148090 0.326543 0.118807
-0.159559 0.319568 -0.024523
-0.149598 0.328942 -0.013393
-0.151303 0.331100 -0.024458
-0.160701 0.321316 -0.039490
-0.152460 0.332202 -0.039457
-0.159845 0.320328 -0.056344
-0.151590 0.331211 -0.056380
-0.149377 0.328556 -0.074375
-0.148195 0.326869 -0.086907
-0.149054 0.327051 -0.219890
-0.148448 0.326583 -0.209584
-0.149190 0.327208 -0.236339
-0.148573 0.326706 -0.252949
-0.148172 0.326275 -0.261774
-0.147123 -0.851524 0.147276
-0.148578 -0.849832 0.158156
-0.153736 -0.857993 0.153297
-0.143772 -0.843794 0.153199
-0.147049 -0.834931 0.296542
-0.147418 -0.834639 0.307490
-0.152856 -0.841426 0.301773
-0.142276 -0.828168 0.301685
-0.147526 -0.834880 0.251251
-0.147620 -0.834767 0.261867
-0.151660 -0.841420 0.254804
-0.143622 -0.828252 0.256392
-0.147377 -0.818588 0.342666
-0.144326 -0.810666 0.343868
-0.138436 -0.795796 0.346526
-0.139412 -0.779936 0.351232
-0.146771 -0.791550 -0.324502
-0.140644 -0.797037 -0.333244
-0.142818 -0.781541 -0.319019
-0.135086 -0.781175 -0.329902
-0.139573 -0.764402 0.350768
-0.145728 -0.774606 0.272087
-0.146799 -0.773468 0.283593
-0.142787 -0.765222 0.289172
-0.138388 -0.764142 0.271983
-0.145889 -0.774401 0.259869
-0.142157 -0.763921 0.253541
-0.145758 -0.776140 -0.306107
-0.139743 -0.765066 -0.301760
-0.134318 -0.769465 -0.318827
-0.132029 -0.772325 -0.327516
-0.140372 -0.748028 0.346139
-0.144760 -0.760472 0.300350
-0.134001 -0.752255 0.289108
-0.139908 -0.747839 0.304752
-0.132083 -0.754519 0.272101
-0.133857 -0.753327 0.253916
-0.145690 -0.758435 0.241289
-0.139814 -0.750068 0.236138
-0.144638 -0.761198 -0.291039
-0.140259 -0.747943 -0.286110
-0.133746 -0.754059 -0.297493
-0.146328 -0.742423 0.340645
-0.143810 -0.730687 0.334918
-0.134760 -0.731988 0.344008
-0.146011 -0.742594 0.314504
-0.143956 -0.730725 0.318709
-0.134949 -0.731978 0.308188
-0.139005 -0.743897 0.220932
-0.143457 -0.743962 0.203263
-0.135255 -0.733899 0.203436
-0.133401 -0.736557 0.216632
-0.142609 -0.745633 0.186867
-0.134440 -0.732756 0.186879
-0.141905 -0.746849 0.170405
-0.134015 -0.730584 0.171467
-0.144246 -0.744208 0.158136
-0.142013 -0.731761 0.155414
-0.146786 -0.741799 -0.276170
-0.143884 -0.732025 -0.273455
-0.135748 -0.732062 -0.280882
-0.135859 -0.716837 0.333741
-0.131962 -0.723110 0.342871
-0.136192 -0.716036 0.318608
-0.132496 -0.721762 0.309673
-0.141322 -0.715353 0.154714
-0.133069 -0.715219 0.167196
-0.146531 -0.727604 -0.019365
-0.146533 -0.727564 -0.015755
-0.144737 -0.715643 -0.021391
-0.144743 -0.715638 -0.012978
-0.132955 -0.721777 -0.278276
-0.140396 -0.715020 -0.269075
-0.133108 -0.704847 0.327811
-0.133111 -0.704874 0.323872
-0.141117 -0.699025 0.155168
-0.132867 -0.698901 0.164694
-0.143126 -0.699229 -0.023312
-0.143141 -0.699223 -0.010894
-0.147846 -0.708246 -0.260760
-0.136913 -0.699247 -0.264500
-0.145058 -0.699211 -0.259237
-0.140457 -0.682751 0.155802
-0.132235 -0.682680 0.163309
-0.141931 -0.682680 -0.026838
-0.141375 -0.682795 -0.010217
-0.139340 -0.683350 -0.256523
-0.133472 -0.689201 -0.261967
-0.139919 -0.666401 0.156849
-0.131730 -0.666365 0.162681
-0.138533 -0.666413 -0.026003
-0.139997 -0.666388 -0.011451
-0.146668 -0.677142 -0.038448
-0.146441 -0.666391 -0.038964
-0.146806 -0.675790 -0.074758
-0.147445 -0.675123 -0.063577
-0.147444 -0.673124 -0.063580
-0.146815 -0.671320 -0.074738
-0.146578 -0.676405 -0.089818
-0.146241 -0.666288 -0.089603
-0.147007 -0.676366 -0.104996
-0.145369 -0.666400 -0.105010
-0.146563 -0.676973 -0.121447
-0.146149 -0.665655 -0.122182
-0.144810 -0.678933 -0.138366
-0.144672 -0.665679 -0.137833
-0.144382 -0.680119 -0.155309
-0.141919 -0.666414 -0.155337
-0.145990 -0.678436 -0.172090
-0.145220 -0.666063 -0.173159
-0.147323 -0.675970 -0.181815
-0.147333 -0.671314 -0.181886
-0.138092 -0.648809 0.159494
-0.131631 -0.653472 0.162887
-0.138198 -0.651214 -0.014577
-0.139482 -0.650877 -0.025480
-0.147226 -0.655191 -0.036145
-0.142927 -0.650003 -0.105076
-0.145295 -0.649969 -0.093643
-0.145618 -0.649991 -0.117271
-0.146698 -0.655873 -0.143115
-0.145570 -0.653939 -0.155510
-0.146084 -0.654830 -0.168446
-0.139632 -0.633573 0.160550
-0.139807 -0.637757 -0.029221
-0.156451 -0.644828 -0.026498
-0.139195 -0.633274 -0.089223
-0.136400 -0.639179 -0.105086
-0.140228 -0.633955 -0.116904
-0.139599 -0.617155 0.161544
-0.139818 -0.629591 -0.038293
-0.141050 -0.618188 -0.046687
-0.143825 -0.626124 -0.081447
-0.138875 -0.623076 -0.075555
-0.132933 -0.625188 -0.083134
-0.139666 -0.617087 -0.122976
-0.139582 -0.607399 0.161913
-0.140988 -0.600640 -0.045016
-0.140971 -0.616005 -0.057365
-0.139624 -0.600596 -0.122094
-0.139598 -0.599169 0.164430
-0.139600 -0.584273 0.167557
-0.139665 -0.587563 -0.036203
-0.139683 -0.584105 -0.117243
-0.139525 -0.567811 0.169331
-0.139643 -0.579277 -0.032601
-0.139623 -0.571134 -0.032581
-0.139574 -0.567558 -0.118148
-0.139416 -0.551345 0.170396
-0.139592 -0.562998 -0.034828
-0.139582 -0.551419 -0.038214
-0.139401 -0.551009 -0.121917
-0.139399 -0.534786 0.170254
-0.139590 -0.534865 -0.043594
-0.139350 -0.557019 -0.084037
-0.139333 -0.548826 -0.079742
-0.139454 -0.534559 -0.123656
-0.139438 -0.518128 0.170106
-0.139612 -0.518181 -0.047785
-0.139587 -0.518134 -0.123658
-0.139715 -0.531019 -0.243206
-0.139710 -0.539293 -0.245380
-0.139422 -0.501585 0.171417
-0.139587 -0.501672 -0.048755
-0.139535 -0.501660 -0.124053
-0.139370 -0.485020 0.172838
-0.139880 -0.484528 -0.049505
-0.137816 -0.498786 -0.073617
-0.142292 -0.495487 -0.062931
-0.138421 -0.485973 -0.056831
-0.131225 -0.493393 -0.067082
-0.139437 -0.506772 -0.084500
-0.139422 -0.485187 -0.125971
-0.139343 -0.468091 0.173091
-0.145605 -0.476565 -0.049921
-0.139198 -0.469578 -0.128757
-0.139339 -0.451492 0.173650
-0.145599 -0.476562 -0.050590
-0.139332 -0.459076 -0.066439
-0.139333 -0.461707 -0.066408
-0.144530 -0.464646 -0.134285
-0.139235 -0.456895 -0.139657
-0.133625 -0.459744 -0.129772
-0.144111 -0.462311 -0.160520
-0.144109 -0.462430 -0.166702
-0.138957 -0.453785 -0.171028
-0.138976 -0.456994 -0.155344
-0.139348 -0.435655 0.174222
-0.139332 -0.459086 -0.068840
-0.139440 -0.441169 -0.179645
-0.139357 -0.419323 0.174382
-0.139489 -0.432935 -0.183133
-0.139530 -0.419648 -0.186798
-0.140329 -0.436681 -0.227694
-0.154782 -0.436668 -0.229916
-0.148525 -0.431726 -0.228312
-0.146114 -0.442447 -0.228529
-0.139368 -0.401781 0.173971
-0.140374 -0.418451 -0.003796
-0.146365 -0.412030 -0.000866
-0.135498 -0.409985 -0.001462
-0.141416 -0.402565 0.005712
-0.139589 -0.402816 -0.191192
-0.139301 -0.384509 0.173430
-0.147380 -0.395205 0.015248
-0.147383 -0.394663 0.015262
-0.140990 -0.391298 0.006988
-0.139558 -0.387324 -0.195013
-0.139705 -0.394921 -0.211010
-0.155120 -0.401532 -0.217127
-0.148980 -0.394633 -0.211771
-0.139725 -0.403607 -0.216019
-0.139128 -0.368153 0.173535
-0.139595 -0.387139 -0.203120
-0.138958 -0.351524 0.173871
-0.138830 -0.334651 0.173728
-0.132472 -0.340359 -0.051421
-0.132520 -0.344865 -0.051376
-0.132519 -0.344900 -0.046853
-0.132461 -0.340403 -0.046897
-0.138759 -0.318184 0.170421
-0.143485 -0.329311 0.007475
-0.145594 -0.327461 0.017071
-0.138544 -0.317942 0.024104
-0.135222 -0.322754 0.007646
-0.138668 -0.334914 -0.004860
-0.132865 -0.325143 -0.002749
-0.137625 -0.302390 0.164731
-0.139836 -0.311773 0.072506
-0.149424 -0.311044 0.081651
-0.141898 -0.310970 0.081544
-0.137391 -0.306094 0.088030
-0.131611 -0.310178 0.072505
-0.142583 -0.311735 0.059541
-0.137776 -0.307997 0.055065
-0.142417 -0.312852 0.037043
-0.131522 -0.310366 0.030936
-0.137683 -0.308023 0.041623
-0.142313 -0.297265 0.160533
-0.139074 -0.284963 0.155767
-0.131479 -0.292026 0.162716
-0.138800 -0.296913 0.102159
-0.145790 -0.278636 0.138647
-0.136681 -0.269248 0.151684
-0.141406 -0.269276 0.138636
-0.142219 -0.281066 0.122845
-0.136217 -0.269259 0.123015
-0.137444 -0.286344 0.111387
-0.131509 -0.269276 0.113071
-0.138862 -0.269565 0.057280
-0.134885 -0.281948 0.041671
-0.135486 -0.282271 0.052376
-0.142905 -0.270742 0.042359
-0.133974 -0.269465 0.025166
-0.131614 -0.279067 0.031445
-0.142874 -0.256507 0.138796
-0.139139 -0.252740 0.150209
-0.141214 -0.256957 0.123144
-0.137831 -0.256444 0.106863
-0.142228 -0.256945 0.061548
-0.131341 -0.262128 0.065636
-0.137446 -0.252003 0.070869
-0.140683 -0.253732 0.023979
-0.145498 -0.259491 0.036790
-0.131618 -0.263718 0.015220
-0.132212 -0.253278 0.014306
-0.139146 -0.237628 0.152036
-0.143576 -0.240348 0.076205
-0.143602 -0.240330 0.084105
-0.138534 -0.249762 0.089673
-0.138123 -0.238561 0.022172
-0.131992 -0.244883 0.014117
-0.139203 -0.221282 0.150868
-0.139267 -0.210831 0.147890
-0.139058 -0.219552 0.072029
-0.139035 -0.218326 0.084368
-0.139082 -0.213128 0.063036
-0.139326 -0.204010 0.054079
-0.139190 -0.219191 0.034718
-0.139175 -0.227514 0.030152
-0.139248 -0.206115 0.137910
-0.139143 -0.202199 0.121369
-0.139042 -0.203990 0.104834
-0.139018 -0.209380 0.092550
-0.144934 -0.195254 0.048609
-0.144926 -0.195312 0.046354
-0.139839 0.040841 0.187155
-0.131654 0.033548 0.187184
-0.131227 0.033685 0.199235
-0.138742 0.042111 0.204568
-0.131297 0.033882 0.171135
-0.139493 0.040752 0.171105
-0.130758 0.034253 0.162122
-0.137281 0.040184 0.155950
-0.146218 0.051166 0.209872
-0.135345 0.045172 0.216151
-0.140053 0.053502 0.220771
-0.146851 0.051082 0.072661
-0.138651 0.045560 0.072722
-0.140582 0.045880 0.087751
-0.147171 0.050873 0.081055
-0.146409 0.051405 0.056176
-0.138215 0.045835 0.056244
-0.145598 0.052111 0.039655
-0.137402 0.046326 0.039730
-0.144248 0.053437 0.023077
-0.136049 0.047117 0.023181
-0.134980 0.047911 0.006648
-0.143184 0.054292 0.006547
-0.134031 0.048754 -0.009880
-0.142230 0.054681 -0.009919
-0.142380 0.054424 -0.025752
-0.134181 0.048823 -0.025764
-0.143422 0.053722 -0.040879
-0.135215 0.048271 -0.040902
-0.135319 0.048252 -0.057374
-0.143527 0.053664 -0.057339
-0.134897 0.048482 -0.074856
-0.143103 0.053916 -0.074819
-0.134438 0.048731 -0.090982
-0.142657 0.054231 -0.090940
-0.142256 0.054539 -0.106283
-0.134035 0.048962 -0.106320
-0.133838 0.049108 -0.122520
-0.142064 0.054714 -0.122446
-0.141890 0.054891 -0.139351
-0.133670 0.049238 -0.139463
-0.141622 0.055181 -0.156449
-0.133404 0.049410 -0.156522
-0.132390 0.050089 -0.172994
-0.140619 0.055952 -0.173037
-0.131347 0.050765 -0.181685
-0.139364 0.059550 -0.188872
-0.139012 0.060739 0.228778
-0.139272 0.072047 0.230076
-0.136480 0.066100 -0.198353
-0.136464 0.063786 -0.198293
-0.139863 0.072289 -0.191805
-0.135702 0.066848 -0.326135
-0.135584 0.063343 -0.332218
-0.135597 0.063366 -0.326254
-0.135639 0.066710 -0.332074
-0.140645 0.087625 0.228920
-0.144172 0.075822 -0.323283
-0.154881 0.076451 -0.319488
-0.144308 0.082803 -0.323244
-0.146901 0.097069 0.227973
-0.138254 0.085805 -0.173938
-0.150549 0.094681 -0.172709
-0.148866 0.095866 -0.159530
-0.141307 0.091146 -0.154541
-0.142507 0.083810 -0.188796
-0.146162 0.081295 -0.204633
-0.147521 0.080438 -0.214947
-0.145245 0.082110 -0.335464
-0.147887 0.080242 -0.343627
-0.139779 0.104694 0.219254
