-0.008353 0.007407 0.271468
-0.000430 0.001746 0.254833
-0.008534 0.007321 0.255117
-0.008527 0.007390 0.238947
-0.000437 0.001748 0.238686
-0.008542 0.007202 0.222451
-0.000447 0.001738 0.222257
-0.000480 0.001718 0.205708
-0.008583 0.006991 0.205856
-0.000316 0.001782 0.189410
-0.008411 0.007153 0.189576
-0.006535 0.006376 0.171820
-0.000109 0.001865 0.176129
-0.007651 0.019249 0.582646
-0.005431 0.017869 0.565953
-0.002051 0.018200 0.577662
-0.013512 0.018770 0.565874
-0.009504 0.017491 0.550979
-0.015871 0.018405 0.557111
-0.015998 0.018506 0.035934
-0.007263 0.011523 0.026010
-0.009569 0.012436 0.041723
-0.015358 0.019481 0.026226
-0.006303 0.011915 0.009641
-0.014404 0.021059 0.009790
-0.005584 0.012333 -0.006687
-0.013670 0.022729 -0.006599
-0.013137 0.024174 -0.023033
-0.005030 0.012649 -0.023099
-0.013384 0.027272 -0.040734
-0.004577 0.012914 -0.039612
-0.004087 0.013204 -0.056025
-0.011182 0.026238 -0.056011
-0.003592 0.013502 -0.072349
-0.009347 0.026141 -0.072369
-0.008207 0.026073 -0.088777
-0.003168 0.013850 -0.088798
-0.002627 0.014489 -0.105304
-0.006812 0.025982 -0.105259
-0.001778 0.015444 -0.121618
-0.004721 0.025802 -0.121631
-0.002776 0.025585 -0.137949
-0.000910 0.016439 -0.137881
-0.000353 0.017214 -0.150737
-0.001204 0.024186 -0.155567
-0.014851 0.034553 0.738427
-0.008913 0.037528 0.744572
-0.015259 0.041115 -0.056925
-0.016265 0.035155 -0.047121
-0.012474 0.041994 -0.072723
-0.010344 0.041755 -0.089015
-0.008332 0.041448 -0.105387
-0.005800 0.041123 -0.121792
-0.003480 0.040829 -0.138150
-0.001496 0.041319 -0.155447
-0.000712 0.028302 -0.166220
-0.000758 0.036659 -0.166257
-0.009370 0.054851 0.860347
-0.015599 0.051025 0.853886
-0.006060 0.058172 -0.074033
-0.011692 0.056275 -0.057117
-0.005445 0.055097 -0.089179
-0.004277 0.052920 -0.105458
-0.002984 0.051303 -0.121818
-0.001734 0.049914 -0.138157
-0.000861 0.048831 -0.150595
-0.015425 0.067437 0.952645
-0.009191 0.069737 0.958394
-0.015284 0.063249 -0.028705
-0.013331 0.060537 -0.040056
-0.005264 0.066312 -0.040159
-0.009264 0.067041 -0.023518
-0.002764 0.065284 -0.056570
-0.001154 0.064473 -0.069263
-0.007852 0.079897 0.983329
-0.007923 0.091884 0.986948
-0.011755 0.078654 0.041744
-0.015142 0.080189 0.052634
-0.009228 0.081923 0.058017
-0.003710 0.080918 0.041623
-0.007073 0.076614 0.026408
-0.000779 0.080352 0.032571
-0.008405 0.072367 0.008896
-0.008334 0.069568 -0.007431
-0.008007 0.107718 0.990260
-0.008448 0.094701 0.156420
-0.008467 0.096490 0.167537
-0.008440 0.092174 0.140010
-0.008427 0.090103 0.123604
-0.008425 0.088067 0.107237
-0.008438 0.085941 0.090896
-0.008433 0.083925 0.074513
-0.008025 0.123517 0.990405
-0.009916 0.110163 0.305741
-0.008457 0.107504 0.288075
-0.008482 0.106017 0.271632
-0.008481 0.104172 0.255188
-0.008462 0.102347 0.238746
-0.008459 0.100929 0.222267
-0.008468 0.099606 0.205788
-0.008470 0.098270 0.189346
-0.008455 0.097246 0.175868
-0.008024 0.139404 0.988565
-0.008499 0.122494 0.435709
-0.018799 0.128749 0.447518
-0.009949 0.125549 0.452619
-0.008491 0.120694 0.419492
-0.008519 0.119462 0.403034
-0.008527 0.118106 0.386602
-0.008492 0.116594 0.370299
-0.008488 0.115390 0.353891
-0.007962 0.114216 0.338690
-0.013658 0.113713 0.320821
-0.016299 0.113265 0.311972
-0.008044 0.155304 0.986315
-0.009755 0.141377 0.615326
-0.019099 0.144904 0.599751
-0.017035 0.145666 0.608937
-0.008493 0.138722 0.599930
-0.008511 0.136921 0.583327
-0.008508 0.135242 0.566909
-0.008492 0.133740 0.550653
-0.007378 0.131997 0.535119
-0.010659 0.131856 0.517740
-0.012409 0.131148 0.501431
-0.014041 0.130498 0.485099
-0.015473 0.129920 0.468476
-0.016303 0.129588 0.458480
-0.008080 0.171151 0.984713
-0.008512 0.152397 0.715073
-0.022078 0.159829 0.715022
-0.019110 0.161213 0.727972
-0.010033 0.156439 0.732757
-0.007338 0.149642 0.698825
-0.010394 0.149800 0.682170
-0.012013 0.148889 0.665705
-0.013684 0.147709 0.649138
-0.015112 0.146784 0.632634
-0.016019 0.146209 0.619951
-0.008118 0.183227 0.983162
-0.010111 0.172204 0.831514
-0.022679 0.175690 0.813630
-0.019425 0.177128 0.826851
-0.007416 0.166658 0.813798
-0.010728 0.166252 0.797280
-0.012731 0.164894 0.780780
-0.014576 0.163654 0.764294
-0.015874 0.162816 0.747889
-0.016502 0.162388 0.738946
-0.008345 0.191060 0.974842
-0.013898 0.196139 0.969725
-0.008655 0.186124 0.896123
-0.020512 0.194259 0.906457
-0.009590 0.190622 0.912244
-0.007793 0.182111 0.879727
-0.012336 0.181056 0.863222
-0.015337 0.179538 0.846669
-0.016624 0.178765 0.837914
-0.012117 0.197002 0.960174
-0.012366 0.197016 0.945131
-0.014164 0.196209 0.928904
-0.015723 0.195495 0.917541
0.009046 0.004451 0.402108
0.013384 0.001408 0.385260
0.015025 0.001681 0.396471
0.005251 0.004047 0.385415
0.011771 0.001067 0.369304
0.003658 0.003688 0.369512
0.002525 0.003291 0.353277
0.010637 0.000729 0.353068
0.001691 0.002885 0.336554
0.009814 0.000393 0.336387
0.009083 0.000025 0.320013
0.000970 0.002510 0.320187
0.008457 -0.000395 0.303966
0.000358 0.002147 0.304201
0.006583 -0.000250 0.288315
0.000102 0.001970 0.294526
0.000117 0.001978 0.156720
0.008232 -0.001988 0.156625
0.006529 -0.001296 0.171591
0.000029 0.001921 0.165214
0.008413 -0.001955 0.140124
0.000292 0.002107 0.140227
0.008566 -0.002104 0.123820
0.000456 0.002268 0.123985
0.000643 0.002455 0.107721
0.008756 -0.002230 0.107502
0.000900 0.002663 0.091246
0.009037 -0.002156 0.090988
0.009178 -0.002230 0.074473
0.001039 0.002799 0.074780
0.009113 -0.002604 0.058087
0.000992 0.002824 0.058437
0.001096 0.002970 0.042050
0.009223 -0.002743 0.041653
0.001421 0.003296 0.025579
0.009578 -0.002486 0.025118
0.009946 -0.002273 0.008738
0.001792 0.003703 0.009220
0.010281 -0.002186 -0.007455
0.002158 0.004145 -0.007030
0.002495 0.004477 -0.023430
0.010624 -0.001943 -0.023808
0.002850 0.004730 -0.039972
0.011006 -0.001532 -0.040354
0.011345 -0.001284 -0.056729
0.003197 0.005020 -0.056361
0.011619 -0.001184 -0.072964
0.003499 0.005341 -0.072632
0.003808 0.005710 -0.089098
0.011937 -0.000949 -0.089419
0.004268 0.006352 -0.105644
0.012419 -0.000610 -0.105990
0.013004 -0.000376 -0.122281
0.004861 0.007355 -0.121938
0.013596 -0.000173 -0.138491
0.005472 0.008438 -0.138168
0.005009 0.011078 -0.155790
0.014275 0.000228 -0.155027
0.014927 0.000670 -0.171548
0.007926 0.009774 -0.171239
0.015437 0.001035 -0.187659
0.010132 0.009590 -0.187419
0.012883 0.007942 -0.205220
0.015871 0.001442 -0.200961
0.000719 0.018184 0.577670
0.006909 0.021754 0.582983
0.000181 0.018229 -0.161884
0.001428 0.023933 -0.171430
0.005467 0.024758 -0.187218
0.008777 0.024433 -0.203493
0.010974 0.024342 -0.219970
0.013523 0.010567 -0.220018
0.014460 0.012235 -0.236337
0.012696 0.024190 -0.236311
0.014981 0.012819 -0.252494
0.013872 0.023883 -0.252486
0.015555 0.014409 -0.268809
0.015099 0.023771 -0.268822
0.015940 0.023840 -0.277698
0.015990 0.016046 -0.277647
0.000573 0.034486 0.706635
-0.001470 0.035255 0.717545
-0.007328 0.033865 0.712124
0.006824 0.039047 0.713050
0.002503 0.040976 -0.171472
0.007924 0.039906 -0.187321
0.011424 0.039692 -0.203582
0.013815 0.040506 -0.220057
0.014329 0.036812 -0.236291
0.014956 0.034784 -0.252504
0.015579 0.032693 -0.268844
0.015943 0.031446 -0.277308
0.006712 0.057614 0.827325
-0.002545 0.052474 0.831140
-0.008012 0.050058 0.826202
0.000345 0.051057 0.820045
0.000434 0.046682 -0.161630
0.010535 0.050632 -0.171107
0.006645 0.051390 -0.155642
0.013290 0.049486 -0.187376
0.014848 0.048491 -0.203646
0.015590 0.047849 -0.214658
0.001553 0.066999 0.924317
-0.000061 0.067607 0.934971
-0.006529 0.065166 0.928551
0.007453 0.070869 0.929002
0.002773 0.062322 -0.089296
0.000276 0.063704 -0.080182
0.010810 0.065001 -0.089436
0.006531 0.065690 -0.074172
0.006179 0.060292 -0.105676
0.014235 0.064325 -0.105807
0.009304 0.058971 -0.121018
0.015614 0.063893 -0.114966
0.007905 0.054665 -0.138394
0.008362 0.091751 0.986121
0.008420 0.081908 0.983015
0.007833 0.079243 0.021073
0.007852 0.076545 0.008498
0.007862 0.073464 -0.007836
0.007865 0.071386 -0.024159
0.007862 0.069898 -0.040520
0.007866 0.068044 -0.056843
0.008287 0.107487 0.988875
0.007811 0.091630 0.156748
0.006446 0.093557 0.173227
0.007820 0.090182 0.140317
0.007811 0.088795 0.123842
0.007809 0.087472 0.107373
0.007821 0.086244 0.090930
0.007827 0.084827 0.074448
0.007829 0.083107 0.057904
0.007834 0.081471 0.041409
0.007852 0.080454 0.029338
0.008259 0.123207 0.988972
0.007791 0.103549 0.321036
-0.005554 0.111338 0.320909
-0.002170 0.112370 0.334137
0.006175 0.106665 0.338865
0.009004 0.100756 0.305656
0.006693 0.100937 0.288210
0.006333 0.100334 0.271805
0.005443 0.099534 0.255384
0.004313 0.098712 0.238956
0.003337 0.098165 0.222520
0.002368 0.097686 0.206076
0.001100 0.097122 0.189614
0.000144 0.096764 0.178745
0.008245 0.138926 0.988698
0.005471 0.122484 0.535404
-0.002545 0.128108 0.517900
-0.001218 0.128846 0.530273
0.006687 0.119841 0.518097
0.005927 0.118904 0.501854
-0.004292 0.127175 0.501608
0.005134 0.118100 0.485561
-0.005920 0.126353 0.485284
-0.007353 0.125748 0.468610
0.004600 0.117468 0.468816
0.003962 0.116813 0.452083
0.003143 0.116040 0.435860
0.002475 0.115417 0.419671
0.001996 0.114933 0.403203
0.001364 0.114363 0.386759
0.000559 0.113719 0.370435
-0.000082 0.113213 0.354013
-0.000321 0.113012 0.345235
0.008233 0.154815 0.987115
0.004480 0.136081 0.682280
-0.002258 0.144326 0.682273
-0.001113 0.145267 0.693526
0.004220 0.138896 0.698791
-0.003874 0.143146 0.665815
0.003894 0.134896 0.665913
-0.005546 0.142252 0.649253
0.003438 0.133980 0.649372
-0.006985 0.141354 0.632789
0.002868 0.133071 0.632978
0.002141 0.132127 0.616705
0.001577 0.131423 0.600188
0.001152 0.130891 0.583483
0.000581 0.130284 0.567056
0.000016 0.129729 0.550835
-0.000264 0.129459 0.541367
0.008212 0.170858 0.984542
0.004299 0.155361 0.813924
-0.002572 0.160803 0.797376
-0.001227 0.161713 0.808449
0.004365 0.152562 0.797451
0.003405 0.151170 0.780955
-0.004569 0.159416 0.780872
-0.006415 0.158018 0.764387
0.002485 0.149766 0.764473
0.001721 0.148571 0.748117
-0.007717 0.156832 0.747996
0.000998 0.147532 0.731726
0.000303 0.146617 0.715204
-0.000140 0.146062 0.704565
0.008191 0.180865 0.982854
0.003347 0.167606 0.863227
-0.004144 0.175782 0.863225
-0.001733 0.177724 0.874211
0.004098 0.171571 0.879672
-0.007151 0.173394 0.846699
0.001877 0.165194 0.846750
0.000668 0.163541 0.830236
-0.000048 0.162626 0.819432
0.008083 0.184565 0.975195
0.007946 0.186042 0.960813
-0.003982 0.192911 0.960435
0.009040 0.183647 0.945183
-0.004199 0.192597 0.945240
-0.005971 0.191479 0.928929
0.005624 0.183358 0.928953
0.003328 0.181966 0.912542
0.001228 0.180256 0.896109
0.000062 0.179156 0.885216
0.017981 0.008083 0.402679
0.016671 0.001667 0.396457
0.017169 0.003014 -0.220260
0.025399 -0.002597 -0.221029
0.022870 -0.002114 -0.206034
0.016300 0.001894 -0.211856
0.026647 -0.002287 -0.237496
0.018379 0.004687 -0.236677
0.018991 0.005478 -0.252890
0.027295 -0.001764 -0.253649
0.019922 0.007152 -0.269167
0.028242 -0.001265 -0.269823
0.029477 -0.000801 -0.286186
0.021338 0.010352 -0.284313
0.030418 -0.000214 -0.302503
0.025587 0.008937 -0.302130
0.027137 0.008636 -0.318486
0.031129 0.000412 -0.318700
0.029258 0.008553 -0.334893
0.031891 0.001075 -0.335006
0.031751 0.009561 -0.350848
0.032448 0.001563 -0.345057
0.018002 0.023951 0.533417
0.015328 0.018440 0.538325
0.009263 0.016903 0.532942
0.016356 0.017745 0.527213
0.019053 0.023836 -0.286040
0.023289 0.023632 -0.301953
0.025379 0.023265 -0.318430
0.028177 0.023164 -0.334941
0.031450 0.022334 -0.351493
0.032357 0.014484 -0.367831
0.032339 0.016488 -0.367839
0.032347 0.015777 -0.384164
0.032360 0.014439 -0.384143
0.032402 0.015465 -0.393333
0.032411 0.014571 -0.393298
0.016861 0.039718 0.648972
0.016000 0.034252 0.653903
0.009659 0.031117 0.647936
0.016293 0.033433 0.642856
0.023754 0.035884 -0.284193
0.027917 0.035208 -0.302227
0.029190 0.033835 -0.318686
0.030657 0.032534 -0.335153
0.031872 0.031513 -0.346205
0.017218 0.057006 0.764279
0.015852 0.051332 0.769388
0.009554 0.047205 0.763089
0.016448 0.050068 0.758366
0.017883 0.046301 -0.225771
0.020344 0.044650 -0.236615
0.028466 0.048022 -0.237012
0.023669 0.048528 -0.220523
0.022757 0.042705 -0.253065
0.030909 0.047618 -0.253494
0.025622 0.041393 -0.268606
0.032044 0.047404 -0.262967
0.016371 0.066915 0.839510
0.015896 0.067933 0.850642
0.009574 0.062800 0.844935
0.017412 0.073508 0.845837
0.024208 0.055711 -0.138963
0.022826 0.059166 -0.121513
0.024204 0.053958 -0.155290
0.024202 0.052514 -0.171628
0.024205 0.051168 -0.187939
0.024201 0.049937 -0.204205
0.019802 0.091854 0.983929
0.017103 0.083338 0.982722
0.024294 0.071881 0.024204
0.024025 0.070829 0.007990
0.025830 0.068217 -0.009378
0.025482 0.067455 -0.023135
0.022784 0.067733 -0.041052
0.021905 0.066734 -0.057337
0.020838 0.065646 -0.073500
0.019399 0.064910 -0.089713
0.017659 0.064289 -0.105943
0.016482 0.063884 -0.115007
0.025345 0.108493 0.984721
0.020282 0.087379 0.287937
0.014826 0.095607 0.288207
0.015232 0.095932 0.300842
0.019420 0.089616 0.305541
0.014471 0.095383 0.271799
0.020318 0.087146 0.271417
0.013571 0.094899 0.255380
0.020353 0.086640 0.254996
0.012436 0.094408 0.238968
0.020397 0.086129 0.238679
0.020270 0.085709 0.222359
0.011467 0.093991 0.222571
0.010498 0.093616 0.206157
0.020071 0.085333 0.205996
0.009215 0.093314 0.189687
0.020014 0.085017 0.189555
0.019971 0.084722 0.173085
0.019779 0.084361 0.156676
0.019544 0.083968 0.140270
0.019300 0.083532 0.123805
0.018992 0.083116 0.107328
0.018664 0.082766 0.090859
0.018257 0.082273 0.074347
0.017610 0.081533 0.057775
0.016862 0.080817 0.041234
0.016343 0.080379 0.028701
0.024657 0.123180 0.985565
0.017667 0.103589 0.551228
0.015273 0.111766 0.551172
0.015720 0.112582 0.561804
0.017534 0.106175 0.567268
0.014988 0.111305 0.534739
0.017777 0.103114 0.534757
0.014815 0.111130 0.518241
0.017958 0.102914 0.518222
0.017835 0.101907 0.501969
0.014062 0.110132 0.501992
0.017676 0.100973 0.485695
0.013277 0.109190 0.485694
0.012752 0.108685 0.468959
0.017656 0.100455 0.469063
0.012110 0.108072 0.452260
0.017536 0.099829 0.452456
0.011292 0.107037 0.436016
0.017089 0.098796 0.436169
0.016751 0.098060 0.419850
0.010631 0.106290 0.419774
0.010154 0.106335 0.403255
0.016830 0.098097 0.403276
0.009513 0.106203 0.386781
0.016812 0.097956 0.386775
0.008706 0.105611 0.370457
0.016502 0.097364 0.370470
0.016377 0.097123 0.354084
0.008068 0.105365 0.354046
0.016522 0.097310 0.337563
0.016336 0.097040 0.321091
0.016038 0.096629 0.311870
0.024643 0.138715 0.985983
0.018128 0.122763 0.762619
0.015356 0.128289 0.748009
0.015897 0.129263 0.756635
0.018235 0.120092 0.747727
0.018002 0.118640 0.731380
0.014559 0.126831 0.731589
0.013991 0.125751 0.714715
0.017655 0.117510 0.714243
0.013328 0.124824 0.698165
0.017458 0.116564 0.697709
0.012595 0.124208 0.682215
0.017420 0.115988 0.682109
0.017283 0.115526 0.666048
0.012017 0.123721 0.665990
0.011573 0.123265 0.649462
0.017047 0.115036 0.649528
0.010999 0.122777 0.633130
0.016804 0.114548 0.633243
0.016514 0.114013 0.617078
0.010268 0.122199 0.616911
0.009708 0.121785 0.600362
0.016279 0.113596 0.600523
0.009277 0.121523 0.583545
0.016123 0.113289 0.583608
0.010026 0.119619 0.567071
0.015995 0.113072 0.572391
0.025829 0.155037 0.984663
0.017997 0.139180 0.862283
0.015227 0.144497 0.846713
0.015807 0.145528 0.856213
0.017863 0.136304 0.846680
0.014297 0.142968 0.830226
0.017623 0.134747 0.830153
0.013393 0.141457 0.813845
0.017323 0.133231 0.813806
0.012520 0.140042 0.797466
0.016922 0.131826 0.797463
0.016549 0.130767 0.780847
0.011562 0.138987 0.780906
0.011661 0.136359 0.763061
0.016249 0.130024 0.767576
0.020421 0.170724 0.983414
0.017716 0.154475 0.896927
0.013069 0.157371 0.879548
0.014518 0.160058 0.892089
0.017104 0.149181 0.879456
0.016443 0.147099 0.867164
0.012300 0.153223 0.862314
0.017005 0.179411 0.982615
0.019492 0.171670 0.945257
0.013840 0.175819 0.928968
0.015308 0.177853 0.939617
0.018653 0.167725 0.928979
0.017103 0.164501 0.912535
0.011565 0.172633 0.912534
0.009863 0.169126 0.897053
0.016222 0.162743 0.903180
0.017456 0.180065 0.975440
0.017109 0.179971 0.961098
0.016438 0.179241 0.950592
0.042715 -0.010317 -0.272696
0.048986 -0.014541 -0.288716
0.049220 -0.014482 -0.279330
0.040740 -0.008987 -0.287738
0.042498 -0.009402 -0.304168
0.048952 -0.014544 -0.299426
0.032722 0.001386 0.215702
0.028887 0.006965 0.222064
0.025978 -0.001609 0.221450
0.032724 0.001124 0.215558
0.034194 0.007603 -0.368230
0.042514 -0.003261 -0.369105
0.039716 -0.003046 -0.351891
0.033394 0.005532 -0.356183
0.035209 0.007722 -0.384753
0.043570 -0.002234 -0.385615
0.037046 0.009486 -0.400091
0.044761 -0.001417 -0.401835
0.045936 -0.000671 -0.418137
0.042351 0.008454 -0.417750
0.047093 0.000220 -0.435144
0.044311 0.008367 -0.434568
0.048141 0.000980 -0.452127
0.045147 0.008275 -0.451245
0.048639 0.001259 -0.467948
0.046700 0.008296 -0.467226
0.048142 0.008426 -0.482943
0.048815 0.001358 -0.483267
0.048873 0.008557 -0.492668
0.048998 0.001512 -0.492541
0.028816 0.008927 0.206207
0.032923 0.001880 0.205694
0.029363 0.010062 0.189979
0.033292 0.003018 0.189533
0.033648 0.004221 0.173412
0.029966 0.011220 0.173768
0.033900 0.005056 0.156925
0.030724 0.012121 0.157295
0.031508 0.013224 0.140833
0.034184 0.006087 0.140440
0.032099 0.014307 0.128393
0.034262 0.008941 0.123373
0.032085 0.017280 0.128248
0.033055 0.022851 0.123134
0.045461 0.023982 -0.419337
0.038469 0.021653 -0.400395
0.046277 0.020035 -0.434728
0.046151 0.018274 -0.451130
0.047173 0.017416 -0.467129
0.048391 0.016978 -0.483111
0.048871 0.016563 -0.491858
0.032546 0.030623 0.168305
0.032307 0.032091 0.179168
0.030318 0.024401 0.173854
0.032987 0.038250 0.173315
0.034800 0.024278 -0.368428
0.033473 0.026890 -0.357321
0.039563 0.034155 -0.352544
0.042848 0.033862 -0.369354
0.036439 0.023709 -0.385078
0.044494 0.033066 -0.386102
0.046295 0.032139 -0.402406
0.047777 0.031402 -0.415124
0.048767 0.032291 -0.510113
0.048781 0.029505 -0.509481
0.048759 0.029415 -0.506662
0.048744 0.032222 -0.507228
0.032489 0.048054 0.198191
0.031753 0.054353 0.204207
0.031224 0.040577 0.204437
0.032489 0.046894 0.198191
0.039371 0.044271 -0.270080
0.040625 0.041623 -0.287287
0.040618 0.039807 -0.303654
0.040683 0.038433 -0.320139
0.040679 0.036748 -0.336388
0.031980 0.059366 0.188651
0.032744 0.051158 0.188482
0.032301 0.062681 0.172694
0.033052 0.054487 0.172733
0.033018 0.053819 0.155826
0.032211 0.062027 0.155958
0.032123 0.061471 0.139193
0.033021 0.053243 0.138850
0.032283 0.062670 0.128871
0.033299 0.056567 0.123065
0.032576 0.064014 0.118275
0.028415 0.070465 0.123649
0.033555 0.057049 0.074322
0.032405 0.063509 0.080615
0.032405 0.063513 0.082612
0.033476 0.057061 0.088768
0.032531 0.063870 0.069828
0.027644 0.070378 0.074853
0.034165 0.056843 0.024702
0.032212 0.063145 0.007642
0.032235 0.063166 0.019638
0.034810 0.054927 0.007431
0.034812 0.057086 -0.009785
0.032351 0.063516 -0.004934
0.032472 0.063744 -0.015640
0.034974 0.056625 -0.023495
0.030979 0.061759 -0.041468
0.031777 0.062771 -0.027840
0.035505 0.053535 -0.041731
0.030094 0.061153 -0.057782
0.035795 0.052913 -0.058098
0.036295 0.052623 -0.074216
0.029036 0.060852 -0.073889
0.027595 0.060259 -0.090090
0.036371 0.052026 -0.090483
0.036217 0.051331 -0.106897
0.025832 0.059583 -0.106370
0.036417 0.050833 -0.123247
0.036694 0.050448 -0.139554
0.036337 0.049945 -0.155857
0.036021 0.049449 -0.172236
0.036482 0.049152 -0.188711
0.036788 0.048874 -0.205111
0.036135 0.048461 -0.221332
0.035107 0.047995 -0.237552
0.034015 0.047605 -0.253813
0.033074 0.047400 -0.263109
0.032628 0.064109 0.106774
0.027217 0.072330 0.106990
0.032562 0.063958 0.093825
0.027977 0.070427 0.089211
0.032634 0.064039 0.057456
0.025808 0.072272 0.057571
0.025062 0.072215 0.041090
0.032611 0.063989 0.041033
0.032500 0.063803 0.030931
0.032472 0.063744 -0.016753
0.033691 0.123276 0.982945
0.033260 0.114429 0.982763
0.033972 0.138708 0.982981
0.033625 0.149922 0.982779
0.030924 0.157550 0.975793
0.033492 0.149472 0.975959
0.032987 0.146956 0.961683
0.029623 0.154977 0.961588
0.032931 0.146450 0.953316
0.028129 0.152882 0.946893
0.049362 -0.014483 -0.279331
0.054214 -0.008378 -0.273444
0.058754 -0.008110 -0.468552
0.064206 -0.015909 -0.485590
0.065051 -0.014985 -0.474040
0.055916 -0.006737 -0.484425
0.054431 -0.004877 -0.499155
0.063588 -0.017230 -0.500794
0.060190 -0.006583 -0.515068
0.064197 -0.016908 -0.515465
0.064809 -0.006648 -0.523699
0.065101 -0.015533 -0.523564
0.049153 0.000913 -0.046353
0.044664 0.006709 -0.040651
0.042385 -0.004619 -0.041198
0.049160 0.000100 -0.046398
0.060143 0.009187 -0.516183
0.050952 0.008691 -0.501011
0.064985 0.004484 -0.523411
0.044432 0.009200 -0.057402
0.049345 0.001815 -0.057781
0.049589 0.003258 -0.073673
0.045582 0.010515 -0.073384
0.046081 0.011373 -0.089996
0.049849 0.004093 -0.090270
0.046278 0.011962 -0.106916
0.050158 0.004582 -0.107204
0.050437 0.006211 -0.123400
0.047645 0.013513 -0.123192
0.050491 0.009098 -0.138403
0.048837 0.014753 -0.132204
0.048329 0.024288 -0.138509
0.049226 0.019749 -0.143186
0.057197 0.023430 -0.515961
0.050881 0.022942 -0.499881
0.048595 0.028556 -0.156174
0.049245 0.020497 -0.156019
0.048537 0.028253 -0.166562
0.049492 0.022940 -0.172417
0.049130 0.031695 -0.177668
0.044948 0.037967 -0.172286
0.056786 0.025731 -0.420326
0.057126 0.022523 -0.435686
0.057197 0.021244 -0.452134
0.057182 0.021235 -0.468319
0.056643 0.024746 -0.484780
0.058094 0.037624 -0.504049
0.061759 0.031619 -0.490952
0.054874 0.038291 -0.516660
0.063263 0.027387 -0.525244
0.060592 0.039662 -0.528546
0.044699 0.041717 -0.189360
0.049773 0.033465 -0.189469
0.050509 0.035201 -0.205926
0.045007 0.043444 -0.205838
0.050792 0.035405 -0.222449
0.044326 0.043622 -0.222115
0.043290 0.043702 -0.238474
0.051112 0.035469 -0.239027
0.042220 0.044133 -0.254939
0.051597 0.035869 -0.255594
0.051950 0.036002 -0.272021
0.052179 0.035809 -0.288370
0.052586 0.035646 -0.304815
0.053238 0.035528 -0.321228
0.053527 0.035163 -0.337436
0.053397 0.034528 -0.353659
0.053727 0.033823 -0.370198
0.054350 0.033032 -0.386760
0.053502 0.032122 -0.402889
0.051232 0.031395 -0.415369
0.061931 0.049943 -0.518891
0.065472 0.047364 -0.510539
0.061229 0.050613 -0.529509
0.073823 -0.025560 -0.501549
0.078774 -0.036615 -0.517272
0.079389 -0.034675 -0.506957
0.070475 -0.025204 -0.516303
0.074273 -0.021945 -0.525648
0.080231 -0.034984 -0.525426
0.075520 -0.008825 -0.470325
0.073862 -0.015057 -0.474664
0.065449 0.000212 -0.296729
0.061609 0.006125 -0.290241
0.058709 -0.005716 -0.290423
0.065451 0.000035 -0.296737
0.061803 0.008833 -0.305196
0.065745 0.001441 -0.305243
0.062452 0.010666 -0.321311
0.066301 0.003410 -0.321202
0.066766 0.004562 -0.337454
0.062737 0.011754 -0.337506
0.067171 0.005237 -0.354190
0.062758 0.012487 -0.353994
0.063638 0.013536 -0.370490
0.067768 0.006354 -0.370605
0.064752 0.014341 -0.381679
0.068002 0.008927 -0.386890
0.065603 0.015978 -0.392163
0.062771 0.021950 -0.387051
0.066860 0.014588 -0.522439
0.072787 0.009194 -0.524360
0.066883 0.017316 -0.522532
0.072821 0.023078 -0.528258
0.065785 0.016798 -0.402863
0.061687 0.024922 -0.403096
0.066046 0.017077 -0.419388
0.066504 0.017295 -0.435784
0.067026 0.017660 -0.452075
0.067510 0.018601 -0.468658
0.070387 0.023110 -0.485514
0.068493 0.031636 -0.491095
0.072529 0.038684 -0.503941
0.065484 0.047364 -0.510539
0.073400 0.056890 -0.533605
0.078991 0.043126 -0.541930
0.073649 0.038645 -0.536689
0.077269 0.055926 -0.544741
0.072403 0.052564 -0.518890
0.078703 0.066584 -0.545175
0.078675 0.066543 -0.537762
0.089382 -0.044070 -0.517669
0.094424 -0.052078 -0.528468
0.094378 -0.052056 -0.522902
0.089352 -0.040254 -0.529307
0.090191 -0.023770 -0.501274
0.090323 -0.036125 -0.507613
0.082210 -0.014757 -0.477206
0.082195 -0.013621 -0.477198
0.083741 -0.008125 -0.486769
0.081053 -0.003726 -0.481680
0.077910 0.006915 -0.486356
0.082404 0.001585 -0.492187
0.085751 0.007044 -0.501619
0.079981 0.011614 -0.495878
0.078754 0.022848 -0.497491
0.085150 0.022999 -0.505457
0.084185 0.034218 -0.507567
0.089996 0.039703 -0.519028
0.076724 0.045250 -0.513041
0.087476 0.052371 -0.523882
0.091817 0.057035 -0.530431
0.090135 0.067175 -0.538843
0.089884 0.071582 -0.551677
0.094305 0.060658 -0.561177
0.089387 0.055471 -0.552201
0.093783 0.071066 -0.566399
0.095547 0.081914 -0.566432
0.096340 0.080743 -0.558052
0.096599 0.075561 -0.576908
0.096592 0.082182 -0.577698
0.105871 -0.057054 -0.524004
0.111283 -0.066174 -0.534216
0.110977 -0.065044 -0.526600
0.106990 -0.056084 -0.534620
0.113568 -0.059804 -0.541318
0.113605 -0.065869 -0.541853
0.106416 -0.040273 -0.517078
0.100369 -0.034248 -0.509970
0.100840 -0.023609 -0.509241
0.099733 -0.013490 -0.509137
0.092632 -0.007926 -0.503359
0.112784 -0.008259 -0.582219
0.113769 -0.016803 -0.577719
0.113788 -0.016963 -0.571123
0.112807 -0.007032 -0.570019
0.099386 -0.013781 -0.517498
0.095248 -0.005704 -0.517040
0.090416 -0.008857 -0.524942
0.098423 -0.015361 -0.524341
0.112120 0.009712 -0.580688
0.113421 0.009558 -0.571011
0.114094 -0.003686 -0.590995
0.113477 0.009804 -0.592266
0.113862 0.021528 -0.580632
0.114664 0.017936 -0.572363
0.113704 0.022796 -0.591405
0.106484 0.042393 -0.536965
0.092530 0.037396 -0.533322
0.107724 0.055882 -0.538685
0.100198 0.049844 -0.553863
0.111061 0.045311 -0.557624
0.106004 0.041967 -0.548182
0.104722 0.056226 -0.564906
0.103016 0.065513 -0.542047
0.098339 0.065195 -0.572240
0.108699 0.061587 -0.580385
0.100392 0.071703 -0.581636
0.112140 0.061412 -0.597084
0.106910 0.073952 -0.597004
0.113951 0.062526 -0.613798
0.111743 0.074153 -0.613651
0.114588 0.064900 -0.623451
0.113972 0.073836 -0.627110
0.107304 0.072242 -0.551237
0.100668 0.080725 -0.558328
0.105154 0.084863 -0.583334
0.109553 0.087658 -0.598386
0.112564 0.086967 -0.614480
0.113924 0.083516 -0.627569
0.106408 0.082823 -0.566502
0.123269 -0.071979 -0.535965
0.128326 -0.082796 -0.550231
0.128510 -0.082264 -0.542517
0.120467 -0.072127 -0.548283
0.127930 -0.073257 -0.564688
0.129887 -0.082238 -0.560358
0.123248 -0.056879 -0.525633
0.118002 -0.065367 -0.526593
0.126056 -0.056912 -0.563992
0.123671 -0.056084 -0.547835
0.129897 -0.068351 -0.580347
0.127282 -0.056283 -0.580476
0.130542 -0.065659 -0.596946
0.128574 -0.056131 -0.597000
0.131044 -0.064363 -0.606372
0.129946 -0.056507 -0.612507
0.122972 -0.041156 -0.524208
0.125294 -0.056184 -0.534604
0.130273 -0.046262 -0.554452
0.127905 -0.040600 -0.562741
0.124169 -0.040042 -0.580713
0.124947 -0.039917 -0.597148
0.126586 -0.039869 -0.613578
0.127947 -0.039674 -0.630017
0.130162 -0.051837 -0.629997
0.129833 -0.039725 -0.646802
0.130648 -0.049557 -0.641488
0.107058 -0.024519 -0.519165
0.122905 -0.030427 -0.525069
0.123843 -0.024993 -0.563834
0.117841 -0.022844 -0.582300
0.120373 -0.023619 -0.597371
0.123501 -0.023792 -0.613747
0.125521 -0.023604 -0.630040
0.127712 -0.023500 -0.646445
0.129986 -0.023590 -0.660533
0.130655 -0.034465 -0.657265
0.122878 -0.030655 -0.527595
0.104954 -0.024771 -0.527944
0.121490 -0.008055 -0.561916
0.129984 -0.022072 -0.555488
0.129571 -0.009051 -0.554458
0.114713 -0.014768 -0.588817
0.116623 -0.008453 -0.596949
0.120867 -0.007255 -0.613832
0.123635 -0.007176 -0.630035
0.126253 -0.007149 -0.646410
0.129416 -0.008688 -0.664430
0.121708 0.008809 -0.562769
0.129775 0.007854 -0.551500
0.116389 0.009743 -0.600762
0.119879 0.009661 -0.613887
0.123074 0.009611 -0.630032
0.125661 0.009608 -0.646430
0.128143 0.009584 -0.663136
0.130715 -0.004089 -0.675702
0.130333 0.008736 -0.680974
0.120921 0.023805 -0.565678
0.126479 0.022813 -0.546807
0.119461 0.026213 -0.614051
0.116136 0.027452 -0.597193
0.123018 0.026125 -0.630047
0.125699 0.026064 -0.646437
0.127632 0.025978 -0.663348
0.129236 0.025866 -0.680283
0.131041 0.013723 -0.692984
0.130565 0.024751 -0.697873
0.122686 0.039784 -0.537376
0.128159 0.026546 -0.535936
0.117743 0.036184 -0.548119
0.119750 0.040665 -0.563482
0.118153 0.029569 -0.580523
0.122109 0.042029 -0.580407
0.117963 0.042471 -0.597328
0.118358 0.042538 -0.614131
0.121870 0.042426 -0.630084
0.124963 0.042199 -0.646443
0.127219 0.041823 -0.663507
0.128599 0.041626 -0.680209
0.129247 0.041663 -0.696248
0.130993 0.030131 -0.713020
0.129964 0.041632 -0.712538
0.130627 0.040566 -0.728767
0.131191 0.033252 -0.723204
0.122893 0.051059 -0.540801
0.117597 0.051958 -0.568701
0.118788 0.053849 -0.580414
0.117163 0.053529 -0.597286
0.116397 0.054589 -0.614028
0.118003 0.059037 -0.629479
0.121690 0.057888 -0.646603
0.124460 0.057379 -0.663393
0.126471 0.057066 -0.679885
0.127385 0.057001 -0.695917
0.128382 0.056903 -0.712183
0.129359 0.056768 -0.728668
0.129920 0.056657 -0.745106
0.130505 0.042966 -0.745520
0.130349 0.043391 -0.761956
0.130307 0.056797 -0.761257
0.130566 0.045178 -0.778442
0.130524 0.051681 -0.778179
0.130933 0.047373 -0.790002
0.130918 0.049621 -0.789849
0.122886 0.059203 -0.545589
0.113833 0.061331 -0.543372
0.122900 0.068072 -0.553908
0.118383 0.073253 -0.646911
0.115890 0.073561 -0.635617
0.121565 0.072912 -0.663089
0.124725 0.072595 -0.679409
0.128256 0.072934 -0.696372
0.129272 0.068429 -0.712043
0.129985 0.066198 -0.728424
0.130546 0.064905 -0.744779
0.130833 0.064308 -0.755287
0.122872 0.076313 -0.563698
0.111635 0.078622 -0.560469
0.122869 0.081934 -0.571668
0.121428 0.086753 -0.632432
0.124310 0.086162 -0.646872
0.126137 0.086122 -0.662819
0.127974 0.084300 -0.679111
0.129722 0.081839 -0.691221
0.122861 0.086400 -0.583125
0.122845 0.092131 -0.599389
0.122879 0.092772 -0.615274
0.140674 -0.089009 -0.580565
0.146911 -0.097664 -0.581044
0.146998 -0.097591 -0.571986
0.139389 -0.088674 -0.566480
0.142440 -0.089130 -0.597141
0.147259 -0.097543 -0.597330
0.144178 -0.090313 -0.613096
0.147497 -0.097367 -0.607108
0.133499 -0.082784 -0.542599
0.134851 -0.074205 -0.540036
0.133077 -0.076607 -0.580358
0.131746 -0.078881 -0.570703
0.134524 -0.074119 -0.597015
0.134762 -0.071010 -0.612694
0.137143 -0.072354 -0.630114
0.143885 -0.087077 -0.630072
0.138990 -0.072231 -0.646475
0.144608 -0.085153 -0.646375
0.145699 -0.083173 -0.662844
0.141386 -0.072182 -0.662951
0.146435 -0.081936 -0.679339
0.143072 -0.072192 -0.679482
0.143981 -0.072276 -0.695980
0.146808 -0.081305 -0.695766
0.147174 -0.080729 -0.705832
0.145567 -0.072862 -0.711849
0.133694 -0.062799 -0.538406
0.132537 -0.060028 -0.630073
0.131744 -0.062230 -0.617410
0.133507 -0.055366 -0.646848
0.137000 -0.055803 -0.663098
0.139523 -0.055896 -0.679851
0.140717 -0.056157 -0.696619
0.141903 -0.056231 -0.713109
0.146120 -0.068315 -0.728821
0.143198 -0.056126 -0.729438
0.146637 -0.066659 -0.745284
0.144057 -0.056112 -0.745796
0.144798 -0.056156 -0.762278
0.146983 -0.065674 -0.761762
0.147311 -0.064711 -0.771820
0.146278 -0.056361 -0.778346
0.132180 -0.041866 -0.526046
0.132262 -0.052446 -0.526366
0.139093 -0.057514 -0.549142
0.133692 -0.046457 -0.554476
0.131718 -0.045231 -0.652604
0.133333 -0.039728 -0.662988
0.136674 -0.039712 -0.679942
0.138448 -0.040121 -0.696818
0.139955 -0.040252 -0.713432
0.141316 -0.040117 -0.729856
0.142519 -0.040110 -0.746228
0.143735 -0.040177 -0.762748
0.145430 -0.040140 -0.779463
0.146909 -0.051238 -0.795955
0.146956 -0.039546 -0.795859
0.147167 -0.043213 -0.812560
0.147178 -0.049713 -0.812458
0.147331 -0.049151 -0.825903
0.147319 -0.045218 -0.825966
0.131400 -0.032280 -0.525991
0.138254 -0.042169 -0.556500
0.131902 -0.032974 -0.556443
0.138129 -0.027041 -0.554764
0.142879 -0.037930 -0.555409
0.131929 -0.023662 -0.668853
0.133628 -0.023857 -0.679611
0.136559 -0.024209 -0.696297
0.139978 -0.024270 -0.712985
0.142598 -0.024098 -0.729615
0.145220 -0.023230 -0.745948
0.145911 -0.027467 -0.762694
0.146852 -0.030175 -0.779415
0.147437 -0.031629 -0.790075
0.131389 -0.032350 -0.526961
0.139285 -0.009391 -0.552610
0.131190 -0.015365 -0.670921
0.131700 -0.008920 -0.680603
0.134554 -0.007767 -0.696283
0.138279 -0.007766 -0.712936
0.141095 -0.007562 -0.729520
0.143921 -0.008570 -0.745862
0.139331 0.007421 -0.548861
0.131419 0.002515 -0.687108
0.132187 0.008538 -0.697893
0.134556 0.009237 -0.713420
0.136823 0.009427 -0.729712
0.137890 0.009439 -0.746035
0.144302 -0.004503 -0.762511
0.138730 0.009376 -0.762510
0.140705 0.009463 -0.779165
0.145454 -0.002146 -0.779166
0.143016 0.009582 -0.795858
0.146541 -0.000493 -0.795811
0.147076 0.000226 -0.812220
0.144153 0.009545 -0.812257
0.147271 0.000508 -0.823261
0.145389 0.008183 -0.828759
0.139971 0.022267 -0.543531
0.131520 0.018655 -0.704402
0.132289 0.022130 -0.713485
0.133142 0.027118 -0.729235
0.134123 0.025818 -0.745957
0.134346 0.025770 -0.762420
0.135794 0.025819 -0.779057
0.137988 0.025887 -0.795744
0.139425 0.025842 -0.812161
0.140658 0.025797 -0.828516
0.146170 0.012668 -0.845342
0.142830 0.025860 -0.845120
0.144835 0.025873 -0.861797
0.147215 0.016041 -0.862100
0.145753 0.025735 -0.878265
0.147580 0.017403 -0.878645
0.147669 0.017731 -0.887196
0.146707 0.025831 -0.893131
0.134962 0.026458 -0.536270
0.135688 0.039164 -0.537508
0.131575 0.035215 -0.745779
0.131452 0.034717 -0.734240
0.131768 0.035657 -0.762225
0.132355 0.037515 -0.778759
0.133066 0.041951 -0.795634
0.135299 0.041320 -0.811714
0.137483 0.041250 -0.828029
0.140050 0.041239 -0.844426
0.142254 0.041144 -0.860838
0.143546 0.040882 -0.877109
0.145137 0.040732 -0.893269
0.147143 0.031082 -0.905455
0.146894 0.040764 -0.905020
0.147701 0.032924 -0.952998
0.147703 0.032854 -0.953316
0.147702 0.032859 -0.953010
0.147702 0.032919 -0.953309
0.133295 0.049114 -0.541179
0.134756 0.055331 -0.794928
0.138334 0.056398 -0.810857
0.142361 0.057383 -0.827740
0.143256 0.053890 -0.843613
0.144488 0.051849 -0.859997
0.145207 0.050612 -0.876256
0.146175 0.049377 -0.892576
0.147066 0.048471 -0.902432
0.138808 0.054615 -0.551003
0.133211 0.065549 -0.556781
0.133209 0.059116 -0.777897
0.131686 0.061892 -0.766451
0.141303 0.067714 -0.777485
0.137948 0.068272 -0.760882
0.143475 0.066475 -0.793875
0.145247 0.065298 -0.810216
0.146465 0.064448 -0.822166
0.137774 0.070550 -0.568174
0.131312 0.080363 -0.574169
0.133604 0.078574 -0.702321
0.136247 0.076364 -0.712006
0.144385 0.081053 -0.711915
0.139095 0.082584 -0.696262
0.140206 0.075179 -0.729140
0.146298 0.080606 -0.724066
0.139208 0.071621 -0.744748
0.133230 0.082116 -0.582509
0.136582 0.085362 -0.598472
0.140527 0.085692 -0.615168
0.139295 0.087161 -0.631069
0.139277 0.088035 -0.646971
0.139251 0.089478 -0.662857
0.139223 0.087556 -0.679135
0.155599 -0.090790 -0.567320
0.150706 -0.097866 -0.572170
0.149042 -0.095294 -0.630093
0.157212 -0.102386 -0.630113
0.154437 -0.101687 -0.613371
0.148100 -0.096516 -0.618089
0.158600 -0.101669 -0.646330
0.150417 -0.093424 -0.646388
0.151727 -0.091446 -0.662848
0.159888 -0.101149 -0.662751
0.152841 -0.090205 -0.679373
0.161013 -0.100042 -0.679267
0.162096 -0.098671 -0.695801
0.153897 -0.089573 -0.695860
0.153812 -0.087147 -0.711772
0.163081 -0.097573 -0.712242
0.163637 -0.096947 -0.722598
0.158490 -0.089776 -0.728352
0.149729 -0.075301 -0.553570
0.142972 -0.074985 -0.546345
0.139214 -0.085251 -0.550868
0.149449 -0.085847 -0.555521
0.148195 -0.078665 -0.716825
0.149163 -0.076500 -0.728658
0.158069 -0.087480 -0.745106
0.149887 -0.074875 -0.745136
0.158552 -0.087005 -0.761553
0.150351 -0.073888 -0.761609
0.150914 -0.071019 -0.777640
0.159489 -0.085835 -0.777980
0.160601 -0.084396 -0.794441
0.153860 -0.072295 -0.794691
0.161508 -0.083320 -0.810853
0.155680 -0.072373 -0.811114
0.157448 -0.072447 -0.827520
0.162411 -0.082260 -0.827241
0.160383 -0.073968 -0.845542
0.163236 -0.081221 -0.840772
0.148501 -0.062771 -0.554091
0.148169 -0.061857 -0.783094
0.149011 -0.059307 -0.795310
0.149930 -0.057782 -0.811816
0.150188 -0.055260 -0.829954
0.153371 -0.056335 -0.845065
0.161171 -0.070996 -0.860668
0.156414 -0.056352 -0.861669
0.162207 -0.068605 -0.877168
0.158264 -0.056439 -0.877941
0.160281 -0.056470 -0.894337
0.163239 -0.066143 -0.893704
0.162471 -0.056602 -0.909996
0.163859 -0.064642 -0.903100
0.144598 -0.051733 -0.556560
0.152112 -0.057929 -0.562984
0.151701 -0.042976 -0.563287
0.150426 -0.040123 -0.830524
0.153458 -0.040333 -0.845742
0.156511 -0.040334 -0.862385
0.158848 -0.040439 -0.878653
0.161501 -0.039029 -0.895337
0.162221 -0.041191 -0.911734
0.163232 -0.043765 -0.923041
0.163221 -0.051334 -0.922730
0.147814 -0.038032 -0.555542
0.148240 -0.026159 -0.555543
0.149742 -0.033886 -0.801188
0.150753 -0.035299 -0.812577
0.158963 -0.030924 -0.812661
0.155437 -0.031320 -0.795903
0.159289 -0.030481 -0.829102
0.160140 -0.029453 -0.845771
0.161323 -0.029166 -0.862394
0.162833 -0.030665 -0.878748
0.163785 -0.031986 -0.890085
0.148714 -0.009493 -0.555055
0.154578 -0.027717 -0.762729
0.156486 -0.023965 -0.746758
0.156780 -0.030697 -0.780159
0.148990 0.007397 -0.553728
0.152562 0.004198 -0.845510
0.160770 -0.000398 -0.845607
0.156119 0.000254 -0.828912
0.150841 0.001654 -0.834462
0.152899 0.007587 -0.862267
0.161085 -0.001323 -0.862301
0.153212 0.008963 -0.878822
0.161387 -0.001423 -0.878789
0.161745 -0.001411 -0.895284
0.153118 0.011131 -0.893867
0.156867 0.009638 -0.911861
0.162249 -0.001466 -0.911884
0.163102 -0.000408 -0.928610
0.159095 0.009688 -0.928670
0.163901 0.000939 -0.938344
0.161739 0.009258 -0.944661
0.149445 0.023589 -0.551741
0.148885 0.020762 -0.898062
0.150306 0.025946 -0.911427
0.152805 0.025673 -0.928062
0.152288 0.026932 -0.946726
0.162884 0.014491 -0.958864
0.156667 0.025512 -0.961646
0.149458 0.039350 -0.552062
0.143821 0.039229 -0.544764
0.149111 0.040791 -0.913367
0.151048 0.040672 -0.926555
0.150816 0.038965 -0.945607
0.155870 0.039642 -0.959963
0.161429 0.028397 -0.974372
0.161217 0.036506 -0.973511
0.148549 0.049050 -0.554948
0.158184 0.050298 -0.925535
0.154864 0.050785 -0.908259
0.159218 0.049422 -0.942728
0.161204 0.048549 -0.955282
0.149602 0.055114 -0.565579
0.144127 0.059922 -0.561668
0.147910 0.064473 -0.571731
0.156035 0.061619 -0.843110
0.150757 0.063085 -0.833334
0.155990 0.064581 -0.827219
0.161698 0.063932 -0.837220
0.155675 0.058011 -0.859796
0.155653 0.055532 -0.876168
0.155634 0.053334 -0.892525
0.149006 0.066266 -0.580881
0.141415 0.074429 -0.581525
0.144815 0.077463 -0.597612
0.150761 0.069334 -0.597588
0.146826 0.079443 -0.609321
0.151523 0.073286 -0.614868
0.147728 0.080601 -0.620585
0.154408 0.075263 -0.729149
0.155616 0.073094 -0.744742
0.155622 0.071394 -0.761088
0.155627 0.069710 -0.777485
0.155629 0.068012 -0.793879
0.155629 0.066323 -0.810221
0.148167 0.081293 -0.631164
0.148961 0.082461 -0.647326
0.149938 0.083832 -0.663086
0.150134 0.083587 -0.679235
0.149329 0.081961 -0.695579
0.148667 0.081039 -0.711912
0.148110 0.080599 -0.724075
0.165579 -0.091061 -0.579774
0.161541 -0.095778 -0.573952
0.156011 -0.099167 -0.580426
0.165111 -0.100103 -0.585107
0.165422 -0.095681 -0.745183
0.173610 -0.101863 -0.745189
0.171017 -0.100952 -0.728386
0.164821 -0.096089 -0.733596
0.165949 -0.095200 -0.761644
0.174148 -0.101795 -0.761592
0.175159 -0.101346 -0.778055
0.166958 -0.094040 -0.778079
0.168014 -0.092621 -0.794543
0.176221 -0.100567 -0.794539
0.168748 -0.091533 -0.810938
0.176965 -0.099962 -0.810862
0.177686 -0.099362 -0.827183
0.169463 -0.090443 -0.827312
0.178578 -0.098445 -0.843724
0.169067 -0.087401 -0.845347
0.171942 -0.088558 -0.860353
0.179428 -0.097571 -0.860279
0.173763 -0.088618 -0.876766
0.180044 -0.097008 -0.876649
0.180347 -0.096741 -0.885486
0.176201 -0.089607 -0.891941
0.163975 -0.082017 -0.571764
0.158009 -0.076059 -0.565683
0.163985 -0.085912 -0.572054
0.163918 -0.080341 -0.851710
0.164651 -0.079079 -0.860246
0.165880 -0.076751 -0.876781
0.166976 -0.074320 -0.893334
0.167960 -0.071050 -0.909105
0.176327 -0.086105 -0.909734
0.172191 -0.072483 -0.927137
0.177677 -0.084235 -0.926839
0.175625 -0.072411 -0.944624
0.179128 -0.082322 -0.944416
0.180045 -0.081020 -0.955376
0.179277 -0.070795 -0.961167
0.162202 -0.071139 -0.574195
0.165488 -0.076169 -0.580025
0.165315 -0.058942 -0.584619
0.160708 -0.058826 -0.576239
0.165124 -0.062078 -0.914420
0.168948 -0.056718 -0.928030
0.177204 -0.055798 -0.944363
0.179334 -0.061225 -0.961503
0.180561 -0.064610 -0.969196
0.180562 -0.064166 -0.969196
0.165402 -0.042420 -0.585204
0.160745 -0.042329 -0.576893
0.173413 -0.045129 -0.928589
0.179642 -0.048423 -0.938487
0.162467 -0.025694 -0.575664
0.165814 -0.025818 -0.583828
0.168150 -0.041668 -0.762850
0.162837 -0.033199 -0.762845
0.163507 -0.033029 -0.753207
0.167480 -0.039720 -0.747167
0.162938 -0.033031 -0.775075
0.167677 -0.039644 -0.780243
0.164139 -0.032335 -0.786293
0.172316 -0.040464 -0.911774
0.170849 -0.038872 -0.895404
0.163136 -0.008982 -0.575017
0.166065 -0.009152 -0.583225
0.165083 -0.025680 -0.696520
0.160902 -0.021673 -0.712997
0.162058 -0.020509 -0.701961
0.164579 -0.029991 -0.713216
0.159645 -0.021110 -0.729671
0.164800 -0.029456 -0.729787
0.164571 -0.030620 -0.742202
0.164530 -0.031691 -0.796246
0.165078 -0.031128 -0.812699
0.165598 -0.030697 -0.829155
0.166185 -0.029677 -0.845796
0.166218 -0.029363 -0.862385
0.165226 -0.030760 -0.878743
0.164351 -0.032011 -0.890094
0.166055 0.007532 -0.583944
0.162483 0.007709 -0.575567
0.161116 0.024118 -0.578129
0.165010 0.023989 -0.586579
0.165232 0.018099 -0.969470
0.176330 0.015329 -0.973721
0.171429 0.011828 -0.963517
0.170860 0.023762 -0.979237
0.164069 0.032407 -0.588850
0.159421 0.038773 -0.582127
0.176065 0.033103 -0.984326
0.176214 0.028753 -0.984875
0.171218 0.036619 -0.977696
0.162470 0.043129 -0.592063
0.165647 0.038614 -0.598380
0.164713 0.049370 -0.604551
0.159089 0.055251 -0.597943
0.173078 0.044691 -0.960888
0.160625 0.059073 -0.615029
0.165481 0.051055 -0.615411
0.166287 0.053069 -0.630904
0.162017 0.061034 -0.631066
0.166215 0.056769 -0.648338
0.163114 0.062597 -0.643902
0.158048 0.070517 -0.648678
0.164055 0.063982 -0.654883
0.172101 0.056500 -0.859898
0.170651 0.058855 -0.843281
0.172085 0.054713 -0.876274
0.172071 0.053260 -0.892624
0.172068 0.051916 -0.908979
0.172082 0.050498 -0.925610
0.173167 0.048945 -0.942262
0.168446 0.048450 -0.955306
0.164297 0.064378 -0.663696
0.158199 0.072581 -0.663528
0.158381 0.073147 -0.679684
0.164669 0.064938 -0.679825
0.165105 0.065459 -0.695840
0.157578 0.073637 -0.695809
0.165545 0.065889 -0.712089
0.156920 0.074044 -0.712047
0.165877 0.066105 -0.728458
0.166255 0.066231 -0.744791
0.166508 0.066180 -0.761113
0.166437 0.065901 -0.777499
0.166117 0.065438 -0.793890
0.165585 0.064871 -0.810228
0.164818 0.064289 -0.826595
0.164216 0.063924 -0.837240
0.180446 -0.099830 -0.635942
0.178410 -0.092053 -0.630723
0.173306 -0.103095 -0.630444
0.180432 -0.097622 -0.636002
0.183598 -0.094219 -0.909835
0.191759 -0.099259 -0.909745
0.187896 -0.098969 -0.891794
0.181990 -0.095645 -0.896572
0.192864 -0.099066 -0.927062
0.184684 -0.092390 -0.927064
0.185207 -0.090511 -0.944638
0.193398 -0.098980 -0.944601
0.186267 -0.087350 -0.961257
0.194764 -0.098212 -0.961559
0.193822 -0.088656 -0.977490
0.196192 -0.097252 -0.972518
0.180668 -0.091927 -0.648009
0.179444 -0.087007 -0.643627
0.178392 -0.076788 -0.648227
0.180187 -0.083357 -0.654700
0.186951 -0.071110 -0.965742
0.193467 -0.077570 -0.976703
0.196169 -0.083853 -0.984230
0.196137 -0.080674 -0.984004
0.178764 -0.072883 -0.663313
0.180674 -0.081243 -0.663242
0.179218 -0.069718 -0.679860
0.181629 -0.078081 -0.679729
0.182596 -0.076394 -0.696127
0.179738 -0.068111 -0.696337
0.183106 -0.073761 -0.712234
0.180037 -0.067390 -0.706671
0.175750 -0.059706 -0.712743
0.180581 -0.066249 -0.717655
0.175553 -0.056705 -0.729675
0.181043 -0.065224 -0.729290
0.181457 -0.064382 -0.745723
0.176099 -0.055878 -0.746095
0.181864 -0.063811 -0.762177
0.176355 -0.055308 -0.762591
0.176705 -0.054247 -0.779366
0.182598 -0.062762 -0.778868
0.177205 -0.053181 -0.796175
0.183423 -0.061704 -0.795615
0.184107 -0.061090 -0.812039
0.177589 -0.052572 -0.812624
0.177941 -0.052065 -0.829068
0.184730 -0.060584 -0.828447
0.178489 -0.051275 -0.845811
0.185494 -0.059832 -0.845167
0.186195 -0.059058 -0.861786
0.179351 -0.050497 -0.862457
0.180103 -0.050086 -0.873237
0.185562 -0.056835 -0.878086
0.180778 -0.049569 -0.883990
0.174640 -0.042726 -0.878706
0.187360 -0.062484 -0.960878
0.188768 -0.058197 -0.944239
0.181016 -0.064227 -0.969185
0.181073 -0.049035 -0.895013
0.181351 -0.048371 -0.911639
0.181312 -0.048143 -0.928386
0.181027 -0.048525 -0.938446
0.180686 0.016486 -0.785679
0.180276 0.018098 -0.774520
0.175057 0.010112 -0.779807
0.181398 0.023709 -0.779708
0.180439 0.031954 -0.754138
0.179439 0.039880 -0.745026
0.179175 0.025824 -0.747812
0.180435 0.039860 -0.753109
0.180390 0.047832 -0.752605
0.175252 0.054238 -0.746288
0.184151 0.040532 -0.943271
0.179377 0.046700 -0.948134
0.184482 0.036796 -0.960843
0.182973 0.034260 -0.976473
0.181552 0.032701 -0.984200
0.180731 0.048315 -0.761882
0.174723 0.056359 -0.761598
0.174656 0.057122 -0.778009
0.181378 0.049073 -0.778369
0.181928 0.049559 -0.794909
0.174336 0.057635 -0.794454
0.182177 0.049679 -0.811319
0.173794 0.057748 -0.810835
0.182348 0.049708 -0.827653
0.173016 0.057763 -0.827172
0.182664 0.049871 -0.843985
0.182819 0.049807 -0.860268
0.182633 0.049382 -0.876500
0.182298 0.048953 -0.892769
0.181764 0.048505 -0.909090
0.181005 0.047917 -0.925744
0.180511 0.047547 -0.936242
0.196962 -0.099197 -0.765369
0.194852 -0.091755 -0.760683
0.190086 -0.102271 -0.760584
0.196955 -0.097298 -0.765368
0.195489 -0.087360 -0.778311
0.197200 -0.094921 -0.778348
0.196279 -0.085099 -0.790277
0.197408 -0.090393 -0.795448
0.196796 -0.083262 -0.801127
0.192347 -0.076599 -0.795548
0.192231 -0.074387 -0.811426
0.196948 -0.082829 -0.811071
0.192848 -0.073674 -0.827766
0.197229 -0.082060 -0.827392
0.193626 -0.072498 -0.844439
0.197700 -0.080843 -0.844009
0.198309 -0.079426 -0.860577
0.194332 -0.071112 -0.861045
0.199047 -0.078130 -0.876780
0.194768 -0.069849 -0.877216
0.195156 -0.068938 -0.893505
0.199662 -0.077169 -0.893087
0.195484 -0.068448 -0.910274
0.199974 -0.076653 -0.909834
0.200681 -0.075989 -0.927100
0.195887 -0.067798 -0.927452
0.201106 -0.073411 -0.944460
0.196424 -0.067120 -0.938775
0.197202 -0.066172 -0.950018
0.200993 -0.073579 -0.960830
0.199533 -0.078122 -0.976650
0.197715 -0.080826 -0.983997
0.197212 -0.066106 -0.954977
-0.040894 0.043670 0.681889
-0.024372 0.030388 0.647903
-0.024368 0.028950 0.631601
-0.024371 0.027260 0.615446
-0.024363 0.025909 0.599051
-0.024352 0.024976 0.582534
-0.024354 0.023856 0.566344
-0.024408 0.046678 0.794927
-0.024410 0.045110 0.778635
-0.024405 0.043434 0.762266
-0.024506 0.062252 0.894171
-0.024506 0.059972 0.877926
-0.024254 0.075526 0.974600
-0.008009 0.016642 0.533367
-0.008021 0.015982 0.516857
-0.008025 0.015245 0.500697
-0.008028 0.014441 0.484512
-0.008041 0.013604 0.467962
-0.008044 0.012851 0.451515
-0.008033 0.012377 0.435423
-0.008034 0.011862 0.419178
-0.008046 0.011137 0.402506
-0.008052 0.010578 0.386062
-0.008052 0.010192 0.370046
-0.008056 0.009615 0.353738
-0.008067 0.008874 0.337015
-0.008067 0.008391 0.320631
-0.008054 0.008139 0.304572
-0.008078 0.007690 0.156857
-0.008082 0.008020 0.140389
-0.008075 0.008573 0.124187
-0.008076 0.009116 0.107953
-0.008098 0.009580 0.091518
-0.008097 0.010008 0.075103
-0.008053 0.010423 0.058779
-0.012247 0.034206 0.728720
-0.004147 0.036204 0.728990
-0.008049 0.032476 0.696231
-0.008026 0.030498 0.680140
-0.008021 0.028744 0.663926
-0.008025 0.027345 0.647484
-0.008015 0.025395 0.631147
-0.007997 0.022845 0.614934
-0.007987 0.020684 0.598550
-0.013632 0.050635 0.844038
-0.005497 0.053830 0.844440
-0.008055 0.047896 0.810991
-0.008051 0.045469 0.794691
-0.008067 0.043445 0.778370
-0.008066 0.041056 0.761913
-0.011655 0.066461 0.942929
-0.003508 0.068614 0.943181
-0.008159 0.062709 0.910829
-0.008188 0.060987 0.894457
-0.008166 0.058559 0.877947
-0.007901 0.073496 0.974652
0.008213 -0.001175 0.271015
0.008205 -0.001624 0.254690
0.008187 -0.001972 0.238544
0.008192 -0.002103 0.222149
0.008205 -0.002155 0.205635
0.008190 -0.002157 0.189349
0.002515 0.017805 0.566012
0.010567 0.021237 0.566352
0.005410 0.017233 0.549993
0.013448 0.019553 0.550363
0.008180 0.015876 0.517039
0.008173 0.014744 0.500817
0.008166 0.013546 0.484555
0.008167 0.012471 0.467960
0.008172 0.011194 0.451435
0.008174 0.009512 0.435209
0.008185 0.007274 0.418786
0.002264 0.033819 0.696443
0.010313 0.038456 0.697344
0.005132 0.032609 0.680553
0.013149 0.037108 0.681339
0.007210 0.031505 0.664458
0.015243 0.035526 0.665188
0.008175 0.028622 0.631731
0.008185 0.025984 0.615491
0.008193 0.023884 0.599047
