0.597866 -0.596784 0.485083
0.599339 -0.581868 0.502090
0.588034 -0.587411 0.507130
0.593255 -0.591235 0.496802
0.594316 -0.576567 0.513130
0.588757 -0.571430 0.524477
0.599453 -0.565809 0.518294
0.598189 -0.548132 0.534359
0.587043 -0.553000 0.540197
0.593440 -0.560490 0.528987
0.591845 -0.542143 0.544669
0.586309 -0.537029 0.555529
0.597787 -0.531651 0.550664
0.598257 -0.515842 0.566402
0.587570 -0.521636 0.571664
0.592704 -0.526223 0.562047
0.597493 -0.498298 0.581873
0.587207 -0.503759 0.588537
0.592740 -0.510818 0.576407
0.597437 -0.481649 0.595826
0.586808 -0.482837 0.604892
0.591147 -0.492822 0.592926
0.590359 -0.474495 0.608599
0.598592 -0.470776 0.604547
0.598146 -0.450726 0.619669
0.589142 -0.456480 0.624025
0.598542 -0.462535 0.612334
0.594527 -0.433879 0.628358
0.584981 -0.434086 0.636040
0.592377 -0.445672 0.626400
0.587817 -0.422586 0.638922
0.598319 -0.417464 0.632526
0.591738 -0.411856 0.642411
0.586479 -0.405360 0.653504
0.597228 -0.399703 0.646201
0.591559 -0.394319 0.658463
0.586026 -0.384235 0.669144
0.593062 -0.384664 0.660489
0.595006 -0.368084 0.662755
0.587456 -0.367766 0.670833
0.588822 -0.355549 0.672293
0.598039 -0.350470 0.665532
0.590890 -0.344590 0.674938
0.586250 -0.335426 0.686240
0.593606 -0.335138 0.678353
0.595348 -0.318726 0.683639
0.589674 -0.324273 0.689565
0.590893 -0.313222 0.690912
0.585641 -0.302758 0.700942
0.592430 -0.302603 0.692941
0.588041 -0.290984 0.703760
0.595225 -0.285909 0.697738
0.593243 -0.270354 0.707326
0.591373 -0.280448 0.705615
0.586634 -0.253416 0.719488
0.595192 -0.253886 0.710227
0.599188 -0.235998 0.711773
0.588134 -0.237097 0.721352
0.589588 -0.227590 0.722753
0.598400 -0.221785 0.717679
0.592614 -0.216718 0.725214
0.594904 -0.204448 0.726745
0.595097 -0.187903 0.726703
0.594198 -0.171293 0.726126
0.598592 -0.154029 0.726983
0.585716 -0.138268 0.737526
0.598699 -0.138606 0.730092
0.600231 -0.120908 0.728803
0.586848 -0.121898 0.737742
0.600258 -0.107158 0.729197
0.588309 -0.105611 0.738162
0.589769 -0.094506 0.739154
0.597349 -0.089568 0.734159
0.590944 -0.073288 0.740705
0.586365 -0.073739 0.747831
0.585449 -0.089649 0.746131
0.590887 -0.083837 0.740581
0.585813 -0.058029 0.746434
0.590709 -0.063685 0.740233
0.597253 -0.057737 0.734031
0.589796 -0.052660 0.739330
0.589788 -0.043568 0.739432
0.597172 -0.039209 0.734333
0.590561 -0.032819 0.740277
0.586146 -0.025058 0.748859
0.585430 -0.039540 0.746642
0.591117 -0.024517 0.741296
0.591604 -0.008264 0.742178
0.586553 -0.008801 0.749602
0.591918 0.008431 0.741772
0.584986 0.007896 0.749816
0.584497 0.024199 0.749601
0.592165 0.024707 0.741699
0.585524 0.040162 0.749367
0.592234 0.040623 0.742317
0.593330 0.056857 0.743426
0.585989 0.056446 0.750733
0.594604 0.073378 0.744006
0.585810 0.072973 0.752097
0.593893 0.089657 0.743889
0.586211 0.089238 0.751871
0.586431 0.105428 0.750544
0.592224 0.105868 0.742952
0.591379 0.122396 0.741384
0.584316 0.121986 0.749155
0.590905 0.134259 0.740419
0.591682 0.117745 -0.754360
0.583350 0.122728 -0.759236
0.589746 0.128870 -0.752830
0.597691 0.122658 -0.748449
0.590103 0.145147 0.739273
0.598476 0.137834 0.731435
0.588339 0.155041 0.737892
0.596611 0.154816 0.729604
0.585410 0.171161 0.735574
0.594666 0.170925 0.727087
0.592063 0.187358 0.724593
0.583308 0.187540 0.732922
0.590626 0.196038 0.723201
0.588345 0.206895 0.721162
0.596100 0.202327 0.714677
0.595543 0.219900 0.709843
0.586436 0.220017 0.719322
0.593474 0.236222 0.707300
0.584386 0.236349 0.716983
0.598761 0.220857 -0.728851
0.582949 0.219747 -0.742181
0.589078 0.225051 -0.736091
0.590985 0.214123 -0.737431
0.591576 0.246852 0.705918
0.588829 0.258023 0.705059
0.598790 0.252844 0.697430
0.586994 0.269261 0.703570
0.596215 0.269269 0.695457
0.594293 0.285458 0.693677
0.585272 0.285443 0.701011
0.598037 0.270724 -0.716505
0.590118 0.277174 -0.720466
0.592293 0.266246 -0.722179
0.592442 0.297858 0.691974
0.599088 0.303078 0.682732
0.589702 0.308954 0.689502
0.595496 0.318628 0.679137
0.587304 0.318590 0.687385
0.592217 0.335090 0.675681
0.592593 0.313691 -0.705849
0.582730 0.318941 -0.710139
0.588700 0.324745 -0.703576
0.598222 0.318858 -0.699625
0.590396 0.343276 0.674398
0.588478 0.354109 0.672600
0.595706 0.349606 0.666155
0.593065 0.367469 0.660022
0.590599 0.375978 0.657305
0.598283 0.367111 -0.679606
0.581912 0.366682 -0.692318
0.587287 0.371559 -0.685673
0.591164 0.360574 -0.688681
0.597123 0.381586 0.646717
0.587002 0.387015 0.653999
0.592169 0.400278 0.641523
0.590635 0.408738 0.638756
0.597703 0.399032 -0.662357
0.581901 0.399457 -0.675768
0.587263 0.404317 -0.668862
0.591214 0.393405 -0.671998
0.594336 0.415141 0.631675
0.588354 0.419680 0.636023
0.592229 0.427603 0.627034
0.598655 0.417998 -0.650626
0.590021 0.424375 -0.654708
0.593258 0.413424 -0.657749
0.588505 0.438668 0.622723
0.598763 0.433143 0.616467
0.594258 0.449546 0.611650
0.591453 0.459437 0.609095
0.593350 0.445521 -0.640828
0.589363 0.456498 -0.637720
0.599845 0.451266 -0.631342
0.587547 0.470301 0.606207
0.597936 0.464602 0.599073
0.593399 0.478716 0.594456
0.599807 0.483981 0.583011
0.589752 0.489635 0.590487
0.595147 0.495160 0.578999
0.591359 0.475416 -0.623212
0.586867 0.486367 -0.618953
0.597345 0.480650 -0.613003
0.600716 0.500667 0.568311
0.589513 0.506131 0.574643
0.594421 0.515008 0.563239
0.585888 0.515012 0.571352
0.598606 0.498934 -0.597754
0.588368 0.504379 -0.603852
0.592400 0.493364 -0.608232
0.590796 0.523918 0.559846
0.599830 0.516729 -0.582344
0.589526 0.522320 -0.588467
0.593887 0.511338 -0.592857
0.586429 0.534833 0.555907
0.596940 0.529715 0.550092
0.592181 0.541408 0.545179
0.586371 0.552316 0.539138
0.597598 0.546712 0.532804
0.592016 0.557459 0.527087
0.598785 0.547957 -0.548894
0.585321 0.551116 -0.564666
0.588957 0.554506 -0.554921
0.593244 0.542883 -0.564635
0.590708 0.540048 -0.572998
0.596908 0.562653 0.515043
0.585288 0.568422 0.521099
0.590748 0.572926 0.510419
0.598026 0.563713 -0.531205
0.588005 0.569861 -0.537128
0.592831 0.558865 -0.543954
0.585364 0.583853 0.505454
0.596547 0.578584 0.500045
0.591383 0.589902 0.494775
0.597335 0.579316 -0.513773
0.587350 0.585566 -0.519650
0.592314 0.574621 -0.526123
0.586295 0.600838 0.489712
0.596987 0.595344 0.484141
0.591647 0.606143 0.478839
0.599440 0.598198 -0.484480
0.587582 0.602043 -0.499035
0.590257 0.605078 -0.491004
0.594437 0.593811 -0.498993
0.591438 0.590122 -0.508657
0.597743 0.608603 0.466409
0.598804 0.616450 0.451969
0.589254 0.620561 0.458201
0.593400 0.623986 0.447746
0.598268 0.613151 -0.465873
0.588398 0.619516 -0.471985
0.593289 0.608537 -0.479891
0.597616 0.629017 0.434893
0.586375 0.634909 0.439463
0.590895 0.638415 0.428817
0.592352 0.623650 -0.460830
0.586698 0.634599 -0.453509
0.597232 0.628335 -0.447638
0.594512 0.641262 0.419898
0.599609 0.646906 0.404143
0.588623 0.652810 0.409431
0.592864 0.656539 0.397570
0.600002 0.647420 -0.419004
0.585843 0.650272 -0.433272
0.589434 0.653589 -0.423990
0.595008 0.642048 -0.433359
0.591200 0.638728 -0.442595
0.598481 0.659169 0.384883
0.587605 0.668197 0.386234
0.599014 0.666703 0.372002
0.590165 0.670614 0.378260
0.593828 0.673170 0.367837
0.597881 0.662018 -0.399545
0.587344 0.668202 -0.404851
0.593342 0.657263 -0.412965
0.586217 0.684205 0.354151
0.599010 0.675253 0.353437
0.589165 0.686258 0.343808
0.597963 0.681853 0.337121
0.592017 0.688553 0.332012
0.598961 0.675330 -0.366508
0.586549 0.684522 -0.367686
0.589215 0.686410 -0.358015
0.598085 0.681936 -0.351969
0.593798 0.673437 -0.383796
0.591486 0.671642 -0.393797
0.595420 0.691118 0.320570
0.584683 0.699319 0.320934
0.598894 0.695838 0.305783
0.588011 0.701951 0.309563
0.591445 0.704308 0.298885
0.595837 0.691185 -0.334560
0.584665 0.699389 -0.334697
0.588062 0.701876 -0.322760
0.598937 0.695402 -0.318993
0.592310 0.688734 -0.346829
0.594431 0.706479 0.288565
0.587788 0.718168 0.271900
0.599521 0.709431 0.271795
0.598498 0.716188 0.256784
0.590148 0.719898 0.263451
0.592932 0.721953 0.252890
0.597901 0.715388 -0.269798
0.586807 0.717384 -0.285546
0.589510 0.719440 -0.275877
0.598932 0.708651 -0.285425
0.593675 0.706029 -0.302088
0.591267 0.704300 -0.311887
0.598449 0.723688 0.238246
0.585071 0.732680 0.239560
0.588255 0.734914 0.228005
0.597469 0.730146 0.222587
0.591251 0.737093 0.216849
0.598805 0.728562 -0.220783
0.586519 0.733417 -0.236376
0.588770 0.735114 -0.225167
0.596634 0.725216 -0.236377
0.594200 0.723040 -0.252607
0.583489 0.731245 -0.252647
0.592056 0.721282 -0.264851
0.593689 0.738812 0.206353
0.598966 0.740691 0.189565
0.585263 0.749485 0.190243
0.588022 0.751328 0.177468
0.596994 0.747064 0.172853
0.590505 0.752963 0.166565
0.597329 0.747899 -0.154627
0.587870 0.751035 -0.170705
0.589634 0.752292 -0.160463
0.599779 0.742127 -0.171437
0.596443 0.740694 -0.186945
0.584450 0.748900 -0.187018
0.593554 0.738524 -0.203243
0.591300 0.737084 -0.213992
0.592188 0.754228 0.157441
0.594560 0.756021 0.140819
0.583318 0.764217 0.141011
0.596284 0.756876 0.124562
0.584183 0.765074 0.124692
0.584802 0.765659 0.108349
0.597571 0.757458 0.108304
0.586274 0.766483 0.091807
0.599921 0.757339 0.091990
0.598433 0.759525 0.075209
0.587402 0.767147 0.075376
0.587631 0.767349 0.059143
0.598398 0.760453 0.059166
0.587694 0.767460 0.042745
0.598381 0.760910 0.042786
0.598403 0.760715 0.025892
0.587821 0.767548 0.026064
0.598401 0.761162 0.009403
0.588306 0.767862 0.009616
0.598384 0.762333 -0.006557
0.589086 0.768400 -0.006539
0.589367 0.768594 -0.022980
0.598395 0.762613 -0.023003
0.589224 0.768515 -0.039670
0.598416 0.762180 -0.039813
0.588961 0.768318 -0.055958
0.598433 0.761799 -0.056041
0.598433 0.761024 -0.071982
0.588539 0.767934 -0.072033
0.599928 0.758226 -0.089467
0.587551 0.767257 -0.088463
0.585840 0.766133 -0.105001
0.597086 0.757932 -0.105270
0.595013 0.756265 -0.121578
0.592702 0.754474 -0.137682
0.591058 0.753339 -0.149368
0.607553 -0.736533 0.134437
0.606721 -0.735925 0.145456
0.600241 -0.741248 0.140430
0.613917 -0.731616 0.140335
0.614194 -0.715287 0.223182
0.606321 -0.719454 0.228988
0.600041 -0.725052 0.223208
0.608091 -0.720549 0.217485
0.609202 -0.704752 0.266834
0.606750 -0.703169 0.278934
0.614875 -0.699174 0.272561
0.614199 -0.681506 0.319928
0.605183 -0.685244 0.323931
0.608080 -0.687969 0.314614
0.609292 -0.672248 0.349119
0.605442 -0.669959 0.360288
0.614875 -0.666842 0.354623
0.615122 -0.650307 0.385681
0.605144 -0.653055 0.390295
0.599209 -0.660308 0.385978
0.609652 -0.655914 0.380601
0.616176 -0.630769 0.421181
0.604764 -0.636082 0.425431
0.599009 -0.643639 0.419978
0.609597 -0.639550 0.414391
0.611857 -0.625091 0.432854
0.606456 -0.621197 0.443098
0.616451 -0.619187 0.437311
0.615800 -0.597526 0.469076
0.602480 -0.602260 0.472897
0.609011 -0.606420 0.460992
0.616311 -0.584773 0.486003
0.604307 -0.587213 0.491645
0.611674 -0.591466 0.480691
0.616520 -0.565203 0.505474
0.605447 -0.571136 0.507030
0.615070 -0.575806 0.496959
0.616961 -0.549577 0.519159
0.604531 -0.554021 0.523775
0.611996 -0.560147 0.512485
0.611009 -0.543144 0.528480
0.602857 -0.537060 0.539761
0.616320 -0.532704 0.535309
0.615839 -0.516261 0.551923
0.603727 -0.520874 0.556621
0.610670 -0.526165 0.545768
0.614627 -0.498929 0.566668
0.603808 -0.503703 0.570861
0.610050 -0.509953 0.561450
0.613116 -0.481470 0.581755
0.602213 -0.486203 0.587087
0.608257 -0.492687 0.575564
0.607050 -0.475260 0.591848
0.612533 -0.464945 0.597978
0.610457 -0.450134 0.611044
0.607065 -0.458603 0.609146
0.602747 -0.433765 0.621795
0.616131 -0.434281 0.613562
0.604853 -0.423044 0.623526
0.615472 -0.417373 0.620985
0.614483 -0.400852 0.631279
0.602815 -0.404716 0.635907
0.610282 -0.412253 0.626543
0.610938 -0.385290 0.640234
0.601346 -0.385024 0.649670
0.607777 -0.393987 0.638364
0.616244 -0.369042 0.643730
0.603260 -0.368342 0.652955
0.605156 -0.356217 0.655619
0.614382 -0.351260 0.651999
0.614339 -0.334730 0.660627
0.601863 -0.335264 0.669368
0.608361 -0.345448 0.658281
0.615143 -0.319031 0.665110
0.604463 -0.318846 0.672084
0.605722 -0.302296 0.673385
0.615148 -0.302363 0.667664
0.606890 -0.294006 0.674314
0.615486 -0.287360 0.671766
0.615020 -0.269689 0.682102
0.606313 -0.275755 0.688159
0.604531 -0.287637 0.682842
0.610197 -0.283081 0.678051
0.608775 -0.265019 0.690366
0.603464 -0.253962 0.700180
0.602208 -0.270484 0.695895
0.612296 -0.253697 0.692831
0.615333 -0.237472 0.698969
0.604990 -0.240690 0.703892
0.613796 -0.220442 0.707636
0.607432 -0.229664 0.707126
0.615165 -0.205019 0.712005
0.603164 -0.204772 0.719593
0.603332 -0.188152 0.720604
0.615124 -0.188333 0.714393
0.615104 -0.171619 0.714360
0.602427 -0.171445 0.720236
0.614241 -0.154307 0.718817
0.604006 -0.158945 0.721460
0.609676 -0.138865 0.724461
0.608186 -0.148185 0.724032
0.609343 -0.125720 0.724327
0.614926 -0.121115 0.721282
0.606766 -0.114670 0.723475
0.614657 -0.107349 0.721025
0.606766 -0.113524 0.723462
0.611522 -0.090164 0.724663
0.608832 -0.102828 0.724136
0.612941 -0.073954 0.724903
0.599214 -0.073574 0.733616
0.610695 -0.057180 0.724539
0.609972 -0.040788 0.725015
0.611570 -0.024992 0.726117
0.599386 -0.024670 0.734335
0.611576 -0.008652 0.726084
0.599864 -0.008354 0.734292
0.600185 0.008472 0.733003
0.609646 0.008327 0.724930
0.600411 0.024735 0.733015
0.610281 0.024569 0.724899
0.612965 0.040230 0.725700
0.600461 0.040539 0.734203
0.614004 0.056560 0.726670
0.601552 0.056840 0.735171
0.602819 0.073452 0.736054
0.613964 0.073242 0.727819
0.602116 0.089704 0.735703
0.613687 0.089485 0.727498
0.612820 0.105530 0.726601
0.600469 0.105801 0.734841
0.599652 0.122232 0.733095
0.609329 0.121976 0.724862
0.607027 0.130498 0.723515
0.613585 0.136831 0.716995
0.606053 0.141396 0.722011
0.615180 0.154477 0.712376
0.604875 0.154641 0.720807
0.602911 0.170793 0.719049
0.615939 0.169965 0.708587
0.613734 0.154342 -0.731607
0.599528 0.154445 -0.742099
0.605739 0.159712 -0.736314
0.607480 0.148904 -0.737453
0.601563 0.188753 0.713749
0.611059 0.184152 0.707116
0.606889 0.195246 0.704905
0.615984 0.188676 0.701610
0.605672 0.203627 0.703702
0.615213 0.203645 0.697382
0.603802 0.219864 0.701146
0.615886 0.218844 0.692864
0.610965 0.236195 0.691368
0.601717 0.236204 0.698941
0.614295 0.221272 -0.716100
0.606521 0.227566 -0.720286
0.608413 0.216664 -0.721728
0.608375 0.247675 0.690334
0.605999 0.258830 0.689441
0.614316 0.253171 0.684883
0.604421 0.269290 0.687930
0.616099 0.269976 0.679367
0.612293 0.285747 0.677770
0.602494 0.285559 0.685548
0.609573 0.297274 0.676067
0.614290 0.287100 -0.698818
0.600095 0.287125 -0.710361
0.606686 0.293610 -0.703806
0.608399 0.282717 -0.705361
0.605699 0.308227 0.673470
0.615054 0.302496 0.670064
0.603704 0.318602 0.670432
0.615125 0.318025 0.661898
0.609706 0.331995 0.659060
0.601721 0.336449 0.664781
0.615181 0.336344 0.653124
0.606856 0.342710 0.656769
0.615149 0.351035 0.647245
0.605269 0.351014 0.654944
0.615465 0.335826 -0.679985
0.599008 0.334618 -0.692897
0.604882 0.339888 -0.686505
0.607902 0.328963 -0.688955
0.601337 0.367417 0.650664
0.613812 0.366042 0.640907
0.607477 0.376124 0.638732
0.615463 0.368447 -0.664069
0.605401 0.373631 -0.670434
0.608885 0.362640 -0.673735
0.603603 0.387168 0.636672
0.613896 0.382233 0.630813
0.609418 0.395965 0.626695
0.601083 0.400929 0.631972
0.605854 0.406783 0.623667
0.616111 0.402051 0.617462
0.603312 0.416557 0.620924
0.611710 0.416596 0.612993
0.607736 0.393740 -0.656086
0.604192 0.404646 -0.652710
0.614581 0.399498 -0.646135
0.608147 0.427648 0.610188
0.605315 0.438645 0.607446
0.614977 0.433465 0.600473
0.602468 0.449487 0.603994
0.610428 0.449435 0.595500
0.614071 0.431641 -0.629180
0.598715 0.432626 -0.643445
0.604312 0.437816 -0.635783
0.607929 0.426814 -0.639093
0.607659 0.458911 0.592393
0.615993 0.451450 -0.615042
0.606361 0.456977 -0.621797
0.609300 0.446006 -0.625059
0.614272 0.464083 0.581376
0.604437 0.469778 0.588017
0.609914 0.478332 0.575654
0.615656 0.483124 0.566595
0.606212 0.489292 0.571640
0.610472 0.495209 0.563062
0.613831 0.480658 -0.596575
0.603338 0.485871 -0.602853
0.607572 0.474903 -0.607122
0.606253 0.506163 0.559013
0.616755 0.500992 0.552930
0.602638 0.514998 0.555818
0.611622 0.514994 0.547720
0.614964 0.498760 -0.581088
0.604832 0.504487 -0.587238
0.609165 0.493470 -0.591414
0.607790 0.524583 0.544312
0.614895 0.515229 -0.564612
0.605800 0.522077 -0.571119
0.609857 0.511114 -0.576249
0.613630 0.529396 0.532312
0.603124 0.535500 0.538917
0.608490 0.541090 0.526257
0.614232 0.530507 -0.547382
0.601914 0.531463 -0.565280
0.604763 0.536864 -0.553693
0.609035 0.525961 -0.560239
0.613727 0.546528 0.514559
0.603049 0.552024 0.520009
0.608013 0.556879 0.508744
0.608507 0.541385 -0.542900
0.603755 0.552340 -0.536488
0.613825 0.546505 -0.530478
0.601800 0.567840 0.504559
0.613290 0.562528 0.499471
0.607653 0.573312 0.494701
0.613259 0.562399 -0.512966
0.603252 0.568538 -0.518832
0.608227 0.557570 -0.525061
0.602330 0.584236 0.489466
0.613237 0.578900 0.483988
0.607853 0.589860 0.478589
0.610491 0.575982 -0.498856
0.602625 0.584208 -0.498906
0.605613 0.587443 -0.489016
0.615793 0.581492 -0.483659
0.607379 0.573059 -0.507893
0.613039 0.595100 0.465839
0.602647 0.600783 0.471556
0.607300 0.605401 0.458574
0.609587 0.591305 -0.478011
0.604204 0.602239 -0.470998
0.614596 0.596591 -0.465584
0.610880 0.607707 0.450719
0.604428 0.619234 0.440591
0.615787 0.613717 0.436813
0.608866 0.623133 0.430652
0.613422 0.611903 -0.447582
0.603278 0.617749 -0.452722
0.608692 0.606786 -0.459761
0.614542 0.626178 0.419500
0.602724 0.634753 0.420022
0.615684 0.634386 0.404345
0.606301 0.637573 0.411212
0.610793 0.641000 0.398971
0.616686 0.631789 -0.419280
0.603198 0.634143 -0.433349
0.606672 0.637832 -0.425113
0.610686 0.625896 -0.433319
0.607249 0.622055 -0.441835
0.603966 0.651917 0.388930
0.614611 0.645891 0.385400
0.607552 0.654833 0.378863
0.610972 0.641236 -0.413990
0.604300 0.652154 -0.405360
0.615309 0.646442 -0.400717
0.611170 0.657581 0.370407
0.615231 0.662908 0.354802
0.604814 0.669091 0.358619
0.607719 0.671223 0.347227
0.613518 0.664459 -0.366471
0.602020 0.666479 -0.383763
0.604754 0.669031 -0.371006
0.614494 0.657502 -0.382207
0.608735 0.655825 -0.394250
0.611550 0.672989 0.336299
0.603745 0.684638 0.320139
0.616580 0.676529 0.321455
0.615532 0.684144 0.306472
0.606383 0.686765 0.312638
0.610472 0.689731 0.302012
0.615966 0.676678 -0.335352
0.604067 0.685087 -0.334508
0.606591 0.687081 -0.326101
0.614833 0.683756 -0.319660
0.610408 0.672988 -0.351279
0.607105 0.670953 -0.360477
0.615531 0.692084 0.288661
0.602721 0.700701 0.288561
0.614633 0.699104 0.271766
0.605704 0.702627 0.277780
0.609014 0.704793 0.265833
0.614882 0.690615 -0.300967
0.601926 0.699518 -0.302170
0.604781 0.701842 -0.291053
0.614222 0.697652 -0.285543
0.609359 0.688928 -0.315308
0.614623 0.706497 0.253700
0.613457 0.713604 0.238212
0.603976 0.717957 0.242733
0.607032 0.720129 0.231991
0.615307 0.716835 -0.221147
0.604900 0.718336 -0.236406
0.606331 0.719525 -0.227607
0.614901 0.712173 -0.236397
0.615763 0.707892 -0.252423
0.602438 0.716706 -0.252600
0.611026 0.706433 -0.268976
0.608282 0.704527 -0.279705
0.609506 0.721470 0.222910
0.615344 0.723832 0.205822
0.602029 0.732412 0.206065
0.604890 0.734729 0.194204
0.613970 0.730829 0.189475
0.607840 0.737001 0.183939
0.614278 0.732273 -0.171409
0.604719 0.734507 -0.186947
0.606200 0.735738 -0.177416
0.614878 0.727866 -0.186933
0.615264 0.723584 -0.202387
0.601816 0.732408 -0.203239
0.610116 0.722007 -0.216368
0.610247 0.738503 0.174083
0.615440 0.739599 0.156133
0.600506 0.748511 0.157332
0.602894 0.749702 0.140565
0.614940 0.742304 0.140639
0.604592 0.751012 0.124420
0.614890 0.744585 0.124489
0.614840 0.746446 0.108319
0.605856 0.752086 0.108268
0.613495 0.748688 0.091990
0.606421 0.752524 0.097839
0.607169 0.753021 0.086432
0.613886 0.748750 -0.089511
0.605375 0.751416 -0.105590
0.606459 0.752469 -0.095802
0.614916 0.745386 -0.105463
0.603293 0.749875 -0.121828
0.614908 0.742515 -0.121727
0.615557 0.739714 -0.136551
0.600973 0.748644 -0.137683
0.610882 0.738830 -0.154145
0.608418 0.737326 -0.166479
0.607682 0.753332 0.075059
0.608696 0.754055 0.059168
0.609295 0.754399 0.042813
0.609094 0.754120 0.025777
0.609367 0.754251 0.009264
0.610231 0.754881 -0.006559
0.610300 0.754972 -0.022995
0.609755 0.754620 -0.039879
0.609416 0.754432 -0.056085
0.608703 0.754042 -0.071954
0.607736 0.753460 -0.084517
0.624436 -0.720628 0.169424
0.622778 -0.719520 0.180347
0.616505 -0.724797 0.174588
0.630543 -0.715738 0.174559
0.625559 -0.704814 0.236351
0.623146 -0.703428 0.247185
0.616731 -0.709042 0.240902
0.631206 -0.699638 0.240921
0.625138 -0.688399 0.283713
0.622093 -0.686321 0.294800
0.616098 -0.692933 0.289027
0.630937 -0.682747 0.289089
0.624964 -0.671697 0.330777
0.620150 -0.669107 0.342209
0.614936 -0.674237 0.336440
0.630769 -0.666127 0.337158
0.631500 -0.650595 0.370684
0.620489 -0.653136 0.375846
0.615097 -0.658912 0.370576
0.626143 -0.656033 0.365376
0.631311 -0.632977 0.403265
0.620490 -0.636373 0.408826
0.615111 -0.642179 0.402541
0.625886 -0.639612 0.397003
0.631378 -0.624606 0.415720
0.622755 -0.621534 0.427954
0.631415 -0.618786 0.423927
0.626834 -0.607373 0.447070
0.619866 -0.603602 0.457415
0.614721 -0.610152 0.451981
0.631902 -0.601498 0.452375
0.631408 -0.586480 0.474119
0.622601 -0.588726 0.476988
0.631377 -0.593117 0.465562
0.630332 -0.564072 0.498242
0.624192 -0.573285 0.494513
0.622876 -0.556059 0.509705
0.631374 -0.552938 0.507079
0.631362 -0.536374 0.522296
0.621909 -0.539254 0.525370
0.631344 -0.544813 0.514357
0.631388 -0.519294 0.538995
0.621616 -0.522591 0.542095
0.631355 -0.528271 0.530441
0.631936 -0.499310 0.555030
0.620970 -0.505121 0.558053
0.631382 -0.511003 0.546707
0.626826 -0.494131 0.561845
0.619155 -0.487552 0.572258
0.631472 -0.483045 0.567470
0.630661 -0.466450 0.582259
0.617974 -0.471160 0.587341
0.625203 -0.476771 0.576759
0.630943 -0.449349 0.595681
0.618697 -0.450100 0.604884
0.625218 -0.460238 0.592358
0.622345 -0.440166 0.608089
0.631312 -0.434171 0.603687
0.625773 -0.429080 0.610004
0.631339 -0.416744 0.612905
0.631428 -0.404353 0.621280
0.621200 -0.407673 0.623910
0.631472 -0.384716 0.631874
0.619098 -0.385160 0.636578
0.631441 -0.396377 0.627210
0.631469 -0.371931 0.637501
0.622404 -0.375103 0.638640
0.631477 -0.351898 0.644866
0.631461 -0.363567 0.642009
0.630600 -0.334797 0.649597
0.619263 -0.339654 0.654881
0.626249 -0.319055 0.659083
0.624504 -0.328714 0.658140
0.628641 -0.302405 0.660447
0.632562 -0.286740 0.663224
0.632015 -0.269005 0.671318
0.621228 -0.274484 0.673459
0.626757 -0.263491 0.676261
0.620528 -0.253389 0.687348
0.629610 -0.252925 0.679676
0.633753 -0.238912 0.684286
0.623218 -0.245168 0.690445
0.628136 -0.234331 0.693726
0.618336 -0.225230 0.703804
0.632075 -0.221528 0.698431
0.630889 -0.204130 0.706107
0.625115 -0.214702 0.705138
0.631421 -0.188492 0.708797
0.631404 -0.171841 0.709881
0.631413 -0.155499 0.711970
0.631431 -0.139140 0.715206
0.617845 -0.138936 0.721202
0.631460 -0.122548 0.715639
0.631498 -0.106152 0.715780
0.631536 -0.090137 0.716817
0.619709 -0.090144 0.721237
0.631556 -0.074024 0.717073
0.621112 -0.073974 0.721415
0.631525 -0.057685 0.715013
0.618858 -0.057335 0.720510
0.618160 -0.041004 0.720320
0.631517 -0.041459 0.714111
0.631533 -0.025369 0.714421
0.619732 -0.025125 0.721387
0.631526 -0.008981 0.714806
0.619740 -0.008767 0.721555
0.617818 0.008161 0.720755
0.631525 0.007813 0.715608
0.631508 0.024113 0.716044
0.618478 0.024425 0.720954
0.621136 0.040155 0.721791
0.631477 0.040013 0.716105
0.631455 0.056388 0.716533
0.622194 0.056503 0.722300
0.622177 0.073154 0.722396
0.631458 0.072966 0.716604
0.621901 0.089417 0.722427
0.631473 0.089239 0.715804
0.633000 0.106677 0.711855
0.621020 0.105483 0.721948
0.629057 0.121653 0.710187
0.617519 0.121858 0.719214
0.625349 0.138075 0.708150
0.624049 0.154322 0.705823
0.623974 0.163972 0.704238
0.630261 0.169967 0.698532
0.621917 0.174931 0.702575
0.631499 0.185810 0.693253
0.630529 0.172257 -0.715915
0.616508 0.172249 -0.726178
0.623043 0.178709 -0.720373
0.624525 0.167736 -0.721443
0.625650 0.203644 0.691258
0.623718 0.212773 0.689890
0.621806 0.223612 0.687749
0.630153 0.219128 0.684343
0.633006 0.238108 0.678451
0.619134 0.236299 0.685849
0.628624 0.253166 0.676274
0.625186 0.264992 0.674937
0.630520 0.251377 -0.694986
0.615179 0.251415 -0.708177
0.620838 0.255978 -0.701810
0.623235 0.244985 -0.703897
0.622277 0.275883 0.673881
0.630982 0.270129 0.670382
0.631486 0.285780 0.666189
0.620486 0.285850 0.672836
0.630719 0.300816 0.660728
0.624757 0.312131 0.658422
0.623612 0.294772 -0.688092
0.615343 0.300934 -0.693022
0.621103 0.305763 -0.685939
0.631475 0.302225 -0.679332
0.630749 0.318023 0.651939
0.620685 0.323235 0.655322
0.631428 0.334555 0.643991
0.625573 0.351015 0.639908
0.626227 0.331751 -0.673352
0.623023 0.342668 -0.671511
0.631541 0.336268 -0.666626
0.623754 0.359672 0.638239
0.629582 0.365295 0.630027
0.618348 0.370601 0.634806
0.624513 0.377333 0.625892
0.625909 0.363232 -0.657488
0.622053 0.374242 -0.653847
0.632239 0.368935 -0.647494
0.620326 0.388338 0.621848
0.631040 0.383651 0.615739
0.626606 0.397352 0.610784
0.622858 0.408136 0.608662
0.631807 0.401860 0.603503
0.631456 0.415272 0.596010
0.619936 0.416643 0.605982
0.630784 0.400042 -0.630019
0.621435 0.405204 -0.636436
0.624065 0.394378 -0.639730
0.626051 0.428261 0.593150
0.632297 0.434196 0.583754
0.621838 0.439263 0.589784
0.618707 0.449452 0.586513
0.626877 0.449461 0.578436
0.630249 0.431214 -0.612991
0.620227 0.436445 -0.619236
0.623568 0.425462 -0.622713
0.623737 0.458396 0.575394
0.626039 0.445885 -0.608310
0.622702 0.456859 -0.605400
0.632222 0.451061 -0.598900
0.630047 0.463826 0.565610
0.620825 0.469245 0.570888
0.625441 0.477003 0.561490
0.621362 0.487929 0.557806
0.631627 0.482597 0.551612
0.626890 0.495838 0.546878
0.624264 0.475448 -0.590278
0.620098 0.486399 -0.585947
0.630302 0.480777 -0.579701
0.623093 0.506779 0.542993
0.632759 0.500859 0.536564
0.619870 0.515015 0.538932
0.626657 0.515012 0.530601
0.630368 0.497427 -0.563025
0.620787 0.504012 -0.569077
0.625438 0.493033 -0.574940
0.623295 0.523310 0.526423
0.624409 0.508365 -0.558079
0.619967 0.519296 -0.551968
0.629658 0.513179 -0.545979
0.619439 0.534190 0.521074
0.629567 0.528837 0.515671
0.624973 0.541048 0.509417
0.624012 0.524146 -0.541003
0.619439 0.535052 -0.535778
0.627411 0.530344 -0.530661
0.630275 0.546663 0.499966
0.618910 0.551990 0.504236
0.624649 0.557241 0.495179
0.629265 0.545718 -0.512536
0.619158 0.551608 -0.518094
0.624192 0.540678 -0.524444
0.618618 0.568179 0.489468
0.629979 0.562919 0.484244
0.624376 0.573573 0.478356
0.626744 0.559473 -0.498776
0.618662 0.567718 -0.498780
0.622017 0.571330 -0.489346
0.632578 0.565485 -0.484020
0.623435 0.556258 -0.507153
0.618831 0.584485 0.472415
0.629560 0.578942 0.466972
0.623907 0.589422 0.460827
0.626624 0.575537 -0.478338
0.620507 0.586468 -0.471355
0.631460 0.580674 -0.466099
0.627756 0.593015 0.452026
0.619036 0.601193 0.451269
0.633601 0.599081 0.438566
0.622682 0.604672 0.443101
0.627713 0.608227 0.433047
0.630285 0.596078 -0.448227
0.619627 0.601877 -0.453408
0.625405 0.590944 -0.460303
0.631537 0.613395 0.420479
0.619758 0.619149 0.424620
0.624460 0.622580 0.413555
0.627754 0.609288 -0.433329
0.618830 0.617531 -0.433358
0.622398 0.620730 -0.424652
0.633265 0.615141 -0.419170
0.624278 0.606053 -0.442482
0.630449 0.625023 0.401719
0.631197 0.632971 0.386874
0.621672 0.636799 0.392175
0.625726 0.639861 0.381913
0.627508 0.625729 -0.413371
0.621885 0.636688 -0.407161
0.632445 0.630934 -0.401823
0.619329 0.651479 0.370523
0.631229 0.643067 0.370219
0.631764 0.651002 0.355639
0.622789 0.654075 0.362267
0.626632 0.656728 0.351097
0.626507 0.640723 -0.396145
0.619664 0.651658 -0.386627
0.630292 0.645452 -0.382343
0.619690 0.668385 0.336545
0.631740 0.660138 0.337723
0.631926 0.667878 0.322060
0.623107 0.670678 0.327192
0.626900 0.672789 0.317861
0.631506 0.659086 -0.350558
0.618598 0.667760 -0.351207
0.622187 0.670097 -0.341449
0.631742 0.666784 -0.335391
0.625470 0.655976 -0.367553
0.623200 0.654386 -0.375731
0.631944 0.675381 0.305641
0.630690 0.682689 0.288685
0.621374 0.685917 0.294333
0.624830 0.688229 0.283058
0.631709 0.674180 -0.317455
0.620296 0.685331 -0.305448
0.629877 0.680988 -0.300905
0.626553 0.672430 -0.330451
0.630649 0.689948 0.270623
0.629796 0.697061 0.254265
0.619824 0.701426 0.258148
0.623368 0.703733 0.248086
0.630212 0.698071 -0.252479
0.619229 0.700635 -0.269023
0.621823 0.702548 -0.257740
0.631766 0.691736 -0.268517
0.626053 0.689251 -0.285732
0.623495 0.687385 -0.294862
0.625880 0.705308 0.239462
0.617658 0.716543 0.222964
0.631661 0.708062 0.222930
0.630470 0.715246 0.206147
0.621004 0.718717 0.211258
0.624553 0.720724 0.200354
0.631610 0.707550 -0.219186
0.621012 0.718571 -0.207342
0.629955 0.714189 -0.202498
0.626334 0.705582 -0.236384
0.624055 0.704182 -0.246936
0.627328 0.722469 0.190151
0.618421 0.733253 0.174065
0.632119 0.724519 0.174057
0.621225 0.735096 0.160964
0.629770 0.731030 0.156220
0.623384 0.736483 0.149758
0.629780 0.730935 -0.136569
0.619055 0.733624 -0.154130
0.621483 0.735129 -0.141290
0.632477 0.724923 -0.154840
0.628653 0.723508 -0.170590
0.625477 0.721501 -0.186925
0.623643 0.720318 -0.196373
0.624709 0.737149 0.140857
0.626557 0.738118 0.124639
0.627908 0.738895 0.108382
0.629655 0.739628 0.091862
0.632614 0.739617 0.075889
0.615832 0.748495 0.075219
0.616877 0.749073 0.059190
0.631181 0.741484 0.059207
0.631190 0.742188 0.042814
0.617491 0.749452 0.042811
0.617268 0.749587 0.025951
0.631188 0.742429 0.026200
0.631195 0.742860 0.009764
0.617532 0.749763 0.009475
0.618426 0.750040 -0.006514
0.631226 0.743519 -0.006452
0.618500 0.750003 -0.022948
0.631232 0.743281 -0.022868
0.631211 0.742189 -0.039454
0.617932 0.749723 -0.039704
0.631225 0.741582 -0.055793
0.617590 0.749497 -0.055953
0.616903 0.748959 -0.071965
0.632863 0.739983 -0.073435
0.629680 0.739750 -0.088491
0.626930 0.738514 -0.105213
0.624616 0.737201 -0.121525
0.623366 0.736503 -0.130372
0.640870 -0.721065 0.089069
0.639581 -0.719927 0.100038
0.633111 -0.724961 0.093486
0.647012 -0.715047 0.093519
0.640956 -0.704737 0.203240
0.639142 -0.703354 0.214165
0.632875 -0.708018 0.207806
0.647058 -0.697733 0.207886
0.639588 -0.687323 0.264320
0.635925 -0.684828 0.275196
0.630928 -0.689664 0.270619
0.646930 -0.678036 0.270312
0.641201 -0.672208 0.300675
0.638396 -0.670210 0.311641
0.632416 -0.675874 0.305812
0.647140 -0.665366 0.305822
0.640805 -0.655701 0.348772
0.637002 -0.653341 0.359715
0.631505 -0.658306 0.354353
0.648390 -0.646879 0.355618
0.641271 -0.639883 0.381774
0.636643 -0.636778 0.392399
0.631313 -0.642391 0.386625
0.647603 -0.629986 0.386674
0.643420 -0.613074 0.418446
0.639555 -0.621972 0.411934
0.641053 -0.607121 0.431583
0.637661 -0.604515 0.442420
0.631931 -0.610724 0.436729
0.648160 -0.597849 0.437394
0.641003 -0.590810 0.462183
0.646912 -0.580264 0.467572
0.646875 -0.563329 0.484518
0.635080 -0.569212 0.490919
0.630349 -0.577464 0.485581
0.641833 -0.575033 0.479909
0.646173 -0.546154 0.500287
0.640940 -0.558205 0.495370
0.646115 -0.530406 0.515981
0.640422 -0.541235 0.511421
0.646025 -0.513594 0.532317
0.640819 -0.525196 0.527126
0.640261 -0.507856 0.543912
0.643322 -0.498928 0.546835
0.648596 -0.483825 0.552053
0.637732 -0.489279 0.558237
0.647565 -0.466782 0.566720
0.636054 -0.472531 0.572905
0.642291 -0.478494 0.562504
0.644450 -0.449615 0.582422
0.636091 -0.454381 0.588201
0.641860 -0.461810 0.576616
0.641675 -0.433600 0.594756
0.640179 -0.443216 0.592513
0.646900 -0.415664 0.599173
0.636723 -0.422038 0.605767
0.641087 -0.411022 0.610208
0.646150 -0.398210 0.615082
0.641410 -0.384329 0.626971
0.640186 -0.393290 0.625540
0.642480 -0.366993 0.632958
0.640434 -0.351960 0.642152
0.640114 -0.360941 0.642132
0.640565 -0.335782 0.640592
0.643044 -0.319300 0.643042
0.634431 -0.319057 0.652364
0.636798 -0.302404 0.656500
0.646302 -0.302660 0.647968
0.648769 -0.287572 0.650084
0.638602 -0.292980 0.657509
0.641920 -0.281929 0.660041
0.644702 -0.269273 0.662849
0.637838 -0.252626 0.673684
0.649010 -0.252749 0.664136
0.646812 -0.237541 0.668787
0.639369 -0.243360 0.674252
0.643549 -0.221780 0.683124
0.639042 -0.228266 0.689025
0.640471 -0.232724 0.677982
0.643461 -0.203874 0.697977
0.635936 -0.208876 0.702934
0.641872 -0.217654 0.693846
0.639988 -0.188613 0.706118
0.639808 -0.198004 0.704602
0.640084 -0.172013 0.707582
0.641430 -0.155741 0.707365
0.643329 -0.139466 0.707989
0.643737 -0.122798 0.709638
0.644191 -0.106332 0.710619
0.645950 -0.090359 0.709637
0.646687 -0.074325 0.708824
0.643962 -0.058064 0.708788
0.642828 -0.041838 0.708739
0.643383 -0.025654 0.707288
0.643315 -0.009248 0.707727
0.643959 0.007502 0.710195
0.644199 0.023829 0.710150
0.639466 0.000518 -0.720205
0.632861 0.006512 -0.725232
0.639379 0.011580 -0.720106
0.646039 0.006558 -0.714337
0.644772 0.039783 0.708219
0.644281 0.056160 0.708250
0.642266 0.072696 0.709344
0.641533 0.089012 0.708195
0.641191 0.102051 0.706505
0.647172 0.106587 0.699325
0.639470 0.112899 0.703926
0.637201 0.121572 0.703885
0.648406 0.120867 0.695143
0.633488 0.138026 0.703299
0.644169 0.138100 0.695218
0.642696 0.154400 0.693468
0.632206 0.154338 0.700813
0.641012 0.170728 0.691441
0.639826 0.179388 0.690479
0.645024 0.186163 0.683009
0.636937 0.190493 0.688790
0.644469 0.204097 0.678057
0.633826 0.203818 0.686186
0.640959 0.182680 -0.705081
0.632349 0.187781 -0.710263
0.638495 0.193665 -0.703097
0.648373 0.188902 -0.695986
0.642603 0.220524 0.676221
0.641387 0.233796 0.675500
0.639450 0.244790 0.673943
0.647291 0.238185 0.668182
0.648507 0.251769 0.662309
0.636841 0.253345 0.672238
0.643864 0.269465 0.661502
0.646531 0.252441 -0.680968
0.637801 0.257752 -0.686264
0.640313 0.246771 -0.688293
0.641406 0.285640 0.659323
0.640139 0.294487 0.657845
0.635664 0.305445 0.654576
0.646940 0.300439 0.647121
0.642886 0.318465 0.643709
0.647915 0.303414 -0.663810
0.639341 0.309669 -0.671310
0.640826 0.298643 -0.672919
0.640879 0.329070 0.642489
0.644717 0.334618 0.633150
0.636792 0.339732 0.637968
0.641879 0.351089 0.627473
0.633709 0.351050 0.634292
0.640142 0.359962 0.625457
0.646643 0.348722 -0.645188
0.631344 0.349697 -0.659829
0.636828 0.354245 -0.652114
0.639699 0.343343 -0.655068
0.643937 0.366481 0.616268
0.635444 0.371045 0.621190
0.641268 0.378984 0.610018
0.642647 0.363572 -0.641059
0.638572 0.374628 -0.637550
0.649067 0.369318 -0.631141
0.637590 0.389913 0.605332
0.647206 0.383444 0.599261
0.641720 0.400393 0.594188
0.639872 0.408927 0.591584
0.647646 0.400480 -0.613908
0.637514 0.405682 -0.620398
0.640997 0.394842 -0.623385
0.636972 0.419805 0.588508
0.647034 0.414448 0.581091
0.643227 0.429120 0.577154
0.648948 0.434347 0.567712
0.638532 0.440141 0.574314
0.642968 0.449578 0.562690
0.635038 0.449514 0.570756
0.646438 0.431317 -0.596675
0.636936 0.436952 -0.603561
0.640095 0.425949 -0.606934
0.639959 0.458431 0.559254
0.647899 0.450068 -0.581397
0.638429 0.456229 -0.588206
0.641882 0.445234 -0.592321
0.646241 0.463752 0.549406
0.636368 0.469271 0.556068
0.641584 0.477255 0.545448
0.637844 0.488160 0.541303
0.647843 0.482267 0.533790
0.643140 0.494870 0.529420
0.642447 0.481231 -0.563384
0.636351 0.486052 -0.567875
0.640235 0.475155 -0.573486
0.648869 0.500073 0.518750
0.638627 0.505818 0.525520
0.634841 0.515016 0.521853
0.642736 0.515017 0.513748
0.641958 0.497223 -0.546765
0.635317 0.501785 -0.551149
0.639888 0.490826 -0.557199
0.639691 0.523482 0.510368
0.648556 0.516422 -0.516488
0.635878 0.519090 -0.531604
0.639284 0.522985 -0.523092
0.642308 0.510890 -0.531579
0.639721 0.507050 -0.539990
0.645917 0.529003 0.500210
0.635845 0.534388 0.505560
0.641215 0.541362 0.495583
0.635593 0.552272 0.490186
0.646628 0.546479 0.484430
0.641154 0.557651 0.479066
0.648232 0.548549 -0.483576
0.634905 0.551293 -0.498809
0.638554 0.554952 -0.489786
0.642257 0.543071 -0.498837
0.639685 0.539820 -0.507001
0.635271 0.568587 0.472720
0.646198 0.562640 0.466576
0.640291 0.573393 0.461885
0.647443 0.564136 -0.465910
0.637530 0.570605 -0.471855
0.642550 0.559609 -0.478712
0.643385 0.577192 0.452680
0.635884 0.585374 0.452480
0.648998 0.582291 0.438412
0.639410 0.588686 0.444405
0.643220 0.593471 0.433663
0.644425 0.580441 -0.448951
0.636313 0.585806 -0.454044
0.641437 0.574878 -0.460958
0.638648 0.604410 0.427392
0.648140 0.597540 0.420879
0.642158 0.607628 0.416360
0.648562 0.598094 -0.418233
0.635913 0.601850 -0.433326
0.639048 0.604686 -0.424987
0.643147 0.593636 -0.433212
0.640549 0.590283 -0.443062
0.635381 0.618549 0.406729
0.646487 0.612206 0.400664
0.639860 0.621965 0.395031
0.642886 0.609530 -0.413698
0.638385 0.620497 -0.407451
0.648244 0.614213 -0.401145
0.642472 0.624388 0.386502
0.647468 0.629520 0.370433
0.636589 0.635827 0.375526
0.640991 0.639349 0.364437
0.642705 0.625184 -0.396437
0.637401 0.636121 -0.388987
0.647173 0.628975 -0.382477
0.643969 0.642160 0.354094
0.637498 0.653080 0.344002
0.648102 0.646494 0.338730
0.641301 0.656191 0.332965
0.647274 0.645683 -0.350171
0.633638 0.649847 -0.367508
0.637093 0.652518 -0.355675
0.643196 0.641637 -0.367502
0.640733 0.639243 -0.378037
0.644312 0.659007 0.321379
0.648216 0.662990 0.306227
0.637806 0.669629 0.311343
0.641467 0.672163 0.300556
0.646799 0.662061 -0.316741
0.637481 0.669324 -0.322430
0.642615 0.658084 -0.334552
0.640393 0.655287 -0.344649
0.644505 0.674289 0.288682
0.635698 0.684968 0.275424
0.647438 0.678643 0.271583
0.639685 0.687354 0.264517
0.647736 0.678946 -0.269161
0.634229 0.683666 -0.285702
0.637567 0.685866 -0.273682
0.644959 0.675459 -0.285648
0.641611 0.672598 -0.302077
0.639898 0.671121 -0.311616
0.641799 0.688829 0.255825
0.647732 0.690899 0.238130
0.634069 0.699974 0.239451
0.637430 0.702223 0.228373
0.646867 0.697603 0.222945
0.640833 0.704663 0.217399
0.644252 0.691810 -0.236335
0.634497 0.700026 -0.236366
0.637318 0.702124 -0.224252
0.647224 0.695111 -0.219088
0.641751 0.689241 -0.252669
0.640188 0.687751 -0.262698
0.643396 0.706795 0.206541
0.648312 0.708420 0.189218
0.635484 0.717627 0.190211
0.638172 0.719111 0.179519
0.646567 0.714084 0.173996
0.640370 0.720751 0.168595
0.648571 0.709046 -0.170194
0.636813 0.718243 -0.170577
0.638763 0.719518 -0.160851
0.646668 0.714499 -0.154856
0.644596 0.707919 -0.187019
0.633647 0.716126 -0.186969
0.641784 0.705583 -0.203439
0.639997 0.704039 -0.213240
0.642289 0.722434 0.157472
0.632837 0.732562 0.140996
0.644547 0.724369 0.141051
0.645865 0.725388 0.124758
0.634719 0.733581 0.124721
0.636090 0.734312 0.108409
0.646937 0.726117 0.108427
0.637810 0.735379 0.091966
0.649193 0.726062 0.093386
0.639009 0.736163 0.081679
0.646103 0.730685 0.075922
0.639623 0.736539 0.070807
0.646200 0.730839 -0.073446
0.637863 0.735331 -0.088478
0.639409 0.736316 -0.079869
0.648937 0.726072 -0.088651
0.645757 0.725369 -0.104970
0.635085 0.733564 -0.105070
0.643956 0.723865 -0.121338
0.632768 0.732069 -0.121422
0.642140 0.722298 -0.137660
0.640548 0.720935 -0.149841
0.640312 0.736957 0.059213
0.640870 0.737279 0.042808
0.641050 0.737387 0.026312
0.641476 0.737643 0.009909
0.642144 0.738025 -0.006407
0.641813 0.737823 -0.022824
0.640454 0.737011 -0.039330
0.639846 0.736634 -0.055710
0.639726 0.736539 -0.068953
0.664655 -0.695312 0.141697
0.655567 -0.702922 0.145575
0.649202 -0.708737 0.140598
0.656513 -0.703812 0.134691
0.664474 -0.678399 0.223095
0.654140 -0.685277 0.226453
0.648349 -0.692289 0.221828
0.656380 -0.687322 0.215366
0.656635 -0.671176 0.265291
0.654281 -0.669215 0.276355
0.664540 -0.662298 0.272030
0.664370 -0.646481 0.320704
0.654652 -0.653327 0.325337
0.648614 -0.659873 0.320759
0.656684 -0.654998 0.314883
0.658570 -0.640389 0.351440
0.655930 -0.638186 0.362561
0.664954 -0.630968 0.355971
0.663541 -0.612853 0.385795
0.653921 -0.619569 0.391526
0.656992 -0.623118 0.380674
0.664452 -0.600587 0.404363
0.655438 -0.604998 0.411072
0.651159 -0.613948 0.404731
0.659033 -0.608563 0.399838
0.665058 -0.582061 0.437714
0.655287 -0.588588 0.443004
0.658355 -0.591149 0.432532
0.657324 -0.574555 0.461465
0.652783 -0.568509 0.473266
0.660412 -0.563762 0.467988
0.656756 -0.557457 0.478255
0.651897 -0.551123 0.489156
0.659440 -0.546685 0.484508
0.662015 -0.529734 0.499129
0.651418 -0.535492 0.504647
0.656232 -0.540187 0.494166
0.656835 -0.524873 0.509662
0.651790 -0.519171 0.520784
0.660022 -0.514620 0.515662
0.658977 -0.499310 0.529381
0.651551 -0.499057 0.537996
0.656506 -0.508320 0.525738
0.664627 -0.483416 0.535252
0.654851 -0.489300 0.541606
0.664003 -0.466331 0.551335
0.653257 -0.471663 0.556882
0.658807 -0.478376 0.545958
0.663906 -0.448875 0.563482
0.653404 -0.450646 0.571132
0.658218 -0.461003 0.561437
0.663395 -0.434974 0.569544
0.655696 -0.441620 0.573497
0.659591 -0.415865 0.583206
0.652701 -0.420218 0.588414
0.650946 -0.435013 0.582481
0.657346 -0.430225 0.576919
0.658580 -0.399224 0.598628
0.652031 -0.403372 0.603476
0.656179 -0.409348 0.592360
0.657205 -0.384020 0.610069
0.649689 -0.384125 0.618115
0.656254 -0.392290 0.609059
0.659331 -0.367646 0.611723
0.651069 -0.367732 0.619967
0.664450 -0.349989 0.613574
0.653719 -0.351413 0.622824
0.664285 -0.336652 0.620242
0.655973 -0.343056 0.624878
0.658786 -0.332381 0.626657
0.651260 -0.319352 0.635497
0.650161 -0.336965 0.631789
0.660522 -0.319120 0.628490
0.654505 -0.302778 0.638706
0.661660 -0.302558 0.630822
0.664717 -0.286956 0.632860
0.655597 -0.293031 0.640606
0.660980 -0.270066 0.644070
0.652844 -0.269601 0.653715
0.658101 -0.282370 0.641732
0.655073 -0.258286 0.656372
0.664293 -0.252714 0.648121
0.658040 -0.236939 0.659406
0.656927 -0.247439 0.658487
0.651097 -0.220320 0.669980
0.661104 -0.220711 0.661745
0.664129 -0.203557 0.665756
0.654181 -0.206743 0.672867
0.656769 -0.187323 0.676378
0.654127 -0.187675 0.684409
0.652077 -0.202509 0.681127
0.656279 -0.195676 0.674812
0.658475 -0.170987 0.679593
0.654968 -0.171269 0.687700
0.655698 -0.162409 0.689767
0.661175 -0.156022 0.683373
0.659278 -0.139108 0.692516
0.651591 -0.139415 0.699885
0.650756 -0.156621 0.697317
0.657925 -0.151821 0.691408
0.651981 -0.122775 0.700849
0.658808 -0.122539 0.693015
0.652427 -0.106325 0.702226
0.658825 -0.106123 0.694038
0.661300 -0.090272 0.695770
0.654190 -0.090476 0.703073
0.654921 -0.074488 0.702665
0.662140 -0.074270 0.695985
0.652198 -0.058061 0.701923
0.660076 -0.057821 0.694311
0.659220 -0.041613 0.693078
0.651074 -0.041780 0.701428
0.651603 -0.025708 0.700947
0.660547 -0.025702 0.692826
0.660856 -0.009307 0.693487
0.651543 -0.009305 0.701611
0.652184 0.007531 0.702389
0.659305 0.007667 0.694107
0.659583 0.024058 0.694501
0.652428 0.023880 0.702444
0.661678 0.039903 0.695433
0.652996 0.039772 0.702525
0.661062 0.056272 0.694854
0.652502 0.056154 0.702094
0.650494 0.072739 0.701315
0.658763 0.072891 0.693179
0.658133 0.089169 0.691941
0.649769 0.089062 0.699879
0.655930 0.065204 -0.703822
0.648817 0.071480 -0.709451
0.655086 0.076023 -0.703236
0.662459 0.071449 -0.697642
0.657686 0.105301 0.690842
0.656694 0.114882 0.689974
0.660308 0.121303 0.682306
0.654250 0.126040 0.687920
0.659223 0.138758 0.678306
0.652403 0.138395 0.686428
0.657779 0.155168 0.676559
0.650934 0.154775 0.684593
0.650101 0.170636 0.681247
0.656550 0.165107 0.675141
0.655263 0.176018 0.673844
0.662991 0.170722 0.669042
0.665941 0.188995 0.663808
0.654474 0.187864 0.672804
0.662577 0.203951 0.662793
0.652676 0.204142 0.670801
0.663419 0.188600 -0.682035
0.655777 0.195112 -0.687340
0.657513 0.184118 -0.688961
0.650784 0.220425 0.668865
0.660141 0.220146 0.660329
0.657865 0.236417 0.657770
0.656330 0.245176 0.656357
0.663762 0.251712 0.647382
0.654377 0.256235 0.655220
0.660784 0.269242 0.644022
0.652082 0.269298 0.653022
0.658548 0.285471 0.640851
0.649621 0.285541 0.650351
0.660639 0.267658 -0.663096
0.647984 0.267676 -0.675334
0.653689 0.272070 -0.668774
0.655933 0.261152 -0.671103
0.657239 0.295478 0.639226
0.653737 0.306402 0.635873
0.660242 0.301313 0.630690
0.651667 0.319197 0.631991
0.657781 0.314146 0.626125
0.664428 0.303092 -0.646881
0.655018 0.308166 -0.653930
0.657164 0.297110 -0.656155
0.664444 0.318046 0.615873
0.655414 0.325295 0.623661
0.660352 0.335019 0.613044
0.653296 0.334959 0.621347
0.657638 0.347501 0.610615
0.651016 0.352231 0.616350
0.655653 0.358443 0.608495
0.664919 0.352922 0.600465
0.660550 0.367514 0.596047
0.652847 0.367743 0.604880
0.656002 0.343175 -0.638322
0.653572 0.354022 -0.635677
0.662811 0.348654 -0.628942
0.656890 0.376870 0.592597
0.658714 0.363994 -0.624880
0.655475 0.374991 -0.621605
0.665418 0.369676 -0.615100
0.662987 0.382152 0.581705
0.653171 0.387914 0.588532
0.649948 0.400325 0.584851
0.657802 0.400288 0.576287
0.656388 0.409068 0.573619
0.664204 0.400145 -0.597182
0.654304 0.406132 -0.604165
0.658010 0.395221 -0.607310
0.663172 0.414661 0.565646
0.654171 0.420011 0.571078
0.659061 0.428534 0.562160
0.654683 0.439594 0.557960
0.665194 0.434245 0.552149
0.651173 0.449597 0.554093
0.659525 0.449578 0.545982
0.662508 0.431003 -0.579094
0.652803 0.436665 -0.585484
0.656477 0.425641 -0.589528
0.656271 0.458169 0.542685
0.657614 0.443881 -0.574558
0.653931 0.454832 -0.569809
0.660966 0.449378 -0.564293
0.659855 0.464474 0.533070
0.652539 0.469013 0.538532
0.657606 0.476345 0.526278
0.661040 0.465812 -0.548306
0.650860 0.465919 -0.564488
0.654304 0.471297 -0.553944
0.657591 0.460409 -0.558792
0.664127 0.481959 0.515822
0.654121 0.487278 0.522436
0.659682 0.494311 0.511808
0.657572 0.476453 -0.543113
0.650695 0.482052 -0.548539
0.654002 0.487425 -0.537694
0.663264 0.481133 -0.530847
0.654616 0.505302 0.508694
0.665550 0.499993 0.502391
0.650971 0.515022 0.505311
0.659562 0.515036 0.497147
0.663537 0.497964 -0.514412
0.650410 0.498696 -0.531838
0.653992 0.504270 -0.520824
0.658048 0.493239 -0.526293
0.656209 0.523594 0.493968
0.663667 0.514424 -0.498138
0.654064 0.520773 -0.504545
0.658115 0.509846 -0.509896
0.652107 0.534499 0.489564
0.659588 0.529974 0.484688
0.656946 0.540661 0.478741
0.658309 0.526242 -0.493680
0.650409 0.531618 -0.499030
0.653926 0.537139 -0.488371
0.663626 0.530731 -0.481854
0.662319 0.545715 0.465327
0.652073 0.551582 0.472126
0.656720 0.556661 0.459524
0.663200 0.546807 -0.464830
0.653467 0.553082 -0.471016
0.658028 0.542123 -0.477373
0.659853 0.559830 0.451157
0.651625 0.568059 0.452113
0.665176 0.565152 0.437374
0.654827 0.571349 0.443133
0.659044 0.575878 0.432407
0.660735 0.561139 -0.449379
0.653080 0.569385 -0.449496
0.655692 0.572141 -0.440902
0.665234 0.565233 -0.435045
0.657463 0.557664 -0.459815
0.654115 0.586793 0.425343
0.663697 0.580198 0.419510
0.657424 0.590671 0.414423
0.658760 0.575759 -0.429933
0.652104 0.580988 -0.434488
0.654244 0.586694 -0.422619
0.663870 0.580259 -0.416438
0.660249 0.596440 0.401482
0.653079 0.601583 0.406928
0.656778 0.605857 0.393997
0.663629 0.596158 -0.399425
0.653801 0.602421 -0.405925
0.658042 0.591492 -0.411654
0.659814 0.608546 0.385563
0.650712 0.616754 0.386036
0.664514 0.613761 0.371399
0.653994 0.619889 0.376152
0.657850 0.623219 0.365585
0.660220 0.613386 -0.382330
0.653629 0.618874 -0.386895
0.658271 0.607931 -0.394841
0.652161 0.634423 0.354291
0.661379 0.626224 0.354495
0.654900 0.637038 0.344548
0.665195 0.630582 0.339358
0.658136 0.639910 0.333391
0.661109 0.629942 -0.350721
0.651386 0.632255 -0.367520
0.654164 0.635550 -0.355786
0.657795 0.624024 -0.367624
0.656143 0.621817 -0.376033
0.663837 0.641943 0.319990
0.652542 0.651019 0.321420
0.663846 0.649030 0.306034
0.655005 0.653415 0.311898
0.658195 0.656343 0.301110
0.659515 0.641150 -0.334607
0.650828 0.649350 -0.334588
0.653718 0.652274 -0.321935
0.663526 0.645530 -0.317023
0.656921 0.638834 -0.344745
0.652707 0.667602 0.288727
0.661564 0.659407 0.288781
0.655182 0.670009 0.278990
0.665109 0.663283 0.273503
0.658022 0.672315 0.267257
0.664538 0.662897 -0.270148
0.653166 0.668084 -0.285606
0.655302 0.670137 -0.275665
0.661521 0.659883 -0.285542
0.658181 0.656568 -0.301998
0.649822 0.664780 -0.302057
0.656378 0.654795 -0.311050
0.661256 0.674580 0.255282
0.650051 0.682778 0.255613
0.663949 0.678849 0.239461
0.653271 0.685202 0.242667
0.656011 0.687219 0.231828
0.663649 0.678869 -0.219362
0.652490 0.683886 -0.236310
0.654480 0.685708 -0.225007
0.660348 0.675679 -0.236270
0.649955 0.681826 -0.252592
0.658719 0.673622 -0.252511
0.657314 0.672029 -0.264656
0.658130 0.688899 0.223024
