0.297096 0.246949 0.344325
0.293408 0.269532 0.357937
0.302437 0.274064 0.354300
0.295985 0.281581 0.359390
0.295987 0.280480 0.359400
0.302420 0.287845 0.357388
0.293754 0.292558 0.358562
0.303556 0.304126 0.358311
0.298190 0.292015 0.035205
0.287810 0.287398 0.032111
0.293841 0.291992 0.035179
0.303566 0.287487 0.033964
0.303620 0.306673 0.033889
0.298214 0.302163 0.035151
0.300003 0.321795 0.357128
0.308740 0.308703 0.359583
0.308161 0.321779 0.359763
0.301699 0.338186 0.354857
0.309844 0.338166 0.359696
0.302666 0.354621 0.354018
0.310752 0.354611 0.359492
0.305174 0.370070 0.354852
0.311406 0.364118 0.359315
0.303862 0.386979 0.353100
0.303832 0.403306 0.352239
0.303842 0.419851 0.351276
0.290038 0.435586 0.354244
0.303828 0.435941 0.352414
0.295359 0.427007 0.034093
0.288529 0.420301 0.030416
0.295107 0.427001 0.034092
0.301829 0.420663 0.030433
0.305958 0.435434 0.031824
0.297826 0.435365 0.035016
0.303797 0.451644 0.355339
0.309442 0.447590 0.033496
0.303762 0.452293 0.036157
0.304324 0.467758 0.357434
0.302331 0.483659 0.354898
0.310116 0.473377 0.359177
0.310429 0.483881 0.359170
0.310129 0.483384 0.033266
0.310213 0.471687 0.033424
0.304259 0.466748 0.036705
0.302024 0.483273 0.037988
0.306118 0.497304 0.349134
0.311721 0.491898 0.359113
0.304711 0.497645 0.042620
0.310963 0.491687 0.033701
0.299259 0.503778 0.335080
0.308250 0.513871 0.333554
0.311358 0.507663 0.343427
0.295462 0.506888 0.327192
0.299574 0.515810 0.320692
0.298472 0.503627 0.052832
0.303147 0.514967 0.057544
0.309317 0.509306 0.048059
0.309300 0.529873 0.317602
0.311720 0.523339 0.327352
0.296894 0.521671 0.309290
0.300075 0.532478 0.303547
0.297009 0.520626 0.067697
0.302134 0.532967 0.071933
0.307816 0.528549 0.062414
0.311756 0.539729 0.311206
0.308332 0.543269 0.302932
0.296343 0.538587 0.292185
0.303131 0.547938 0.287014
0.296466 0.537405 0.082939
0.298995 0.549237 0.089385
0.308039 0.547675 0.077112
0.298474 0.552099 0.269144
0.309918 0.557809 0.281912
0.306663 0.561114 0.269137
0.295942 0.555267 0.260061
0.301844 0.565998 0.254599
0.295168 0.555738 0.099064
0.301720 0.565686 0.101983
0.307127 0.560269 0.090006
0.311011 0.556303 0.080942
0.296789 0.571036 0.242949
0.303141 0.580980 0.236592
0.307761 0.575508 0.249176
0.303430 0.573910 -0.260524
0.302763 0.581419 -0.259714
0.298470 0.586385 0.219776
0.306657 0.593022 0.219845
0.309480 0.590335 0.230267
0.296238 0.587811 0.210191
0.302805 0.597343 0.204624
0.300139 0.582907 0.122844
0.296795 0.586424 0.132939
0.308269 0.593093 0.122920
0.302601 0.598086 0.137467
0.304665 0.578852 0.111477
0.311021 0.589185 0.114643
0.302759 0.581645 -0.261969
0.307729 0.598802 -0.262758
0.307729 0.598525 -0.259622
0.298388 0.601889 0.193594
0.303899 0.612963 0.188565
0.309365 0.607107 0.199071
0.297561 0.602125 0.150298
0.303126 0.613938 0.156320
0.308454 0.608800 0.142085
0.310245 0.607486 -0.260770
0.310250 0.607589 -0.262012
0.299732 0.617685 0.173813
0.307934 0.623888 0.173655
0.309404 0.622786 0.183436
0.308740 0.623390 0.162097
0.313978 0.099017 0.198089
0.319607 0.108930 0.204406
0.314395 0.115343 0.213266
0.320051 0.124812 0.215784
0.310353 0.135951 0.227414
0.319851 0.141423 0.223680
0.319871 0.154882 0.237608
0.311380 0.150291 0.243814
0.314094 0.146872 0.232775
0.319461 0.171251 0.269405
0.307286 0.168364 0.274715
0.302681 0.162389 0.269567
0.313455 0.165336 0.262822
0.315120 0.180727 0.297987
0.320471 0.190496 0.300789
0.310391 0.200134 0.311951
0.320286 0.203136 0.308989
0.320803 0.224419 0.324321
0.320251 0.211347 0.315311
0.320770 0.238521 0.333141
0.315772 0.230540 0.329751
0.307930 0.251275 0.342651
0.319568 0.256554 0.340681
0.313736 0.262200 0.344328
0.319609 0.272875 0.346338
0.320253 0.289035 0.353779
0.320258 0.300120 0.358681
0.320306 0.308299 0.359618
0.320396 0.321788 0.360240
0.320366 0.338156 0.360899
0.320194 0.354597 0.361002
0.319935 0.370099 0.360048
0.314431 0.374960 0.357830
0.316972 0.387146 0.356918
0.325074 0.387192 0.359571
0.317553 0.403499 0.356942
0.325674 0.403562 0.359448
0.316034 0.419976 0.357219
0.324141 0.419997 0.359758
0.319797 0.437027 0.357416
0.324995 0.432417 0.359668
0.320076 0.451814 0.357056
0.320049 0.462937 0.358245
0.312104 0.458229 0.034487
0.318400 0.452370 0.030187
0.318336 0.466807 0.030277
0.312090 0.461000 0.034480
0.319959 0.484108 0.360034
0.320003 0.471151 0.359510
0.321168 0.498307 0.359630
0.316595 0.502358 0.354234
0.321942 0.513454 0.348975
0.327375 0.508353 0.359271
0.316145 0.502367 0.037399
0.320770 0.498136 0.031194
0.326995 0.508630 0.033195
0.320745 0.514398 0.042440
0.316498 0.518565 0.337700
0.322023 0.529386 0.332947
0.327337 0.524592 0.343768
0.314518 0.520189 0.052075
0.318386 0.533046 0.056944
0.325349 0.526651 0.047551
0.316706 0.534290 0.322072
0.322319 0.545465 0.316688
0.327573 0.540331 0.328280
0.311450 0.539441 0.065713
0.323580 0.547748 0.062849
0.315449 0.547704 0.069373
0.316366 0.551449 0.302826
0.327924 0.556181 0.311197
0.324503 0.558550 0.302725
0.312628 0.555302 0.293304
0.320039 0.563975 0.285872
0.321871 0.561625 0.075868
0.327602 0.555982 0.065932
0.315724 0.569329 0.269103
0.327453 0.573048 0.278532
0.323885 0.576198 0.269127
0.312297 0.571916 0.260094
0.319061 0.581599 0.253909
0.315051 0.568484 0.089961
0.311576 0.572242 0.098291
0.315318 0.580483 0.102132
0.323853 0.579401 0.091438
0.327011 0.573195 0.081280
0.311939 0.574759 -0.260636
0.318378 0.583675 -0.258778
0.314886 0.586432 0.241188
0.320143 0.593725 0.236016
0.325830 0.590533 0.247759
0.327389 0.589205 0.097725
0.321455 0.594675 0.108444
0.319826 0.598842 -0.256624
0.319833 0.600659 0.219877
0.319784 0.603928 0.209984
0.319704 0.610423 0.201931
0.311442 0.604990 0.130934
0.314525 0.601302 0.122944
0.323448 0.612380 0.124341
0.315541 0.613892 0.137744
0.326411 0.606273 0.113468
0.319795 0.610701 -0.259312
0.319639 0.618614 0.193026
0.319595 0.624682 0.185876
0.313206 0.619769 0.150242
0.324699 0.624253 0.139529
0.318997 0.627127 0.156275
0.327308 0.621867 0.130712
0.319788 0.611081 -0.263620
0.319541 0.629213 0.173189
0.336398 0.108690 0.188841
0.324869 0.102481 0.193146
0.319715 0.095962 0.188634
0.329499 0.099727 0.183192
0.332363 0.113389 0.199994
0.325283 0.119242 0.210800
0.337109 0.124470 0.204562
0.336569 0.141597 0.215055
0.330907 0.130157 0.213008
0.336817 0.155276 0.223351
0.324921 0.152786 0.226261
0.329293 0.165484 0.246196
0.324368 0.168064 0.257332
0.319516 0.162424 0.252465
0.335759 0.174892 0.251334
0.329339 0.181289 0.282318
0.326034 0.184944 0.293961
0.320469 0.178852 0.288163
0.332696 0.190482 0.288002
0.335134 0.208617 0.303122
0.329935 0.195870 0.297890
0.335458 0.225014 0.316484
0.329295 0.214213 0.313559
0.326580 0.232166 0.328864
0.336450 0.238521 0.323668
0.336501 0.257443 0.332541
0.330883 0.243102 0.331290
0.336238 0.272903 0.338916
0.324595 0.267572 0.342363
0.330470 0.278507 0.344673
0.336245 0.289894 0.347680
0.335573 0.305798 0.354658
0.331503 0.321790 0.359729
0.329373 0.311441 0.359395
0.336904 0.338437 0.360452
0.336543 0.354621 0.361298
0.336488 0.370997 0.360600
0.336019 0.386813 0.359614
0.331711 0.403627 0.359463
0.332976 0.420062 0.359780
0.331815 0.432460 0.359682
0.337026 0.437158 0.356961
0.336476 0.452078 0.354700
0.337084 0.467583 0.356508
0.331947 0.472391 0.359588
0.334946 0.484583 0.359983
0.337918 0.499233 0.359783
0.337924 0.514825 0.359386
0.333458 0.519287 0.354604
0.338722 0.529968 0.349152
0.344481 0.524364 0.359157
0.336034 0.514909 0.037508
0.330515 0.508770 0.033216
0.332976 0.535519 0.338498
0.337631 0.543002 0.334184
0.343996 0.540904 0.343733
0.335962 0.532154 0.045528
0.330391 0.537548 0.051511
0.341381 0.541854 0.048369
0.335915 0.547435 0.055620
0.336337 0.551297 0.322281
0.336353 0.558458 0.314017
0.336978 0.566404 0.302121
0.331857 0.570135 0.289814
0.337005 0.576931 0.284911
0.342913 0.574098 0.296241
0.336005 0.558750 0.063760
0.336007 0.566928 0.070425
0.335658 0.585127 0.270577
0.329613 0.587695 0.258633
0.336262 0.596658 0.252622
0.340628 0.591858 0.266011
0.337511 0.579421 0.078879
0.333019 0.584155 0.086746
0.343975 0.588931 0.081240
0.338172 0.594546 0.092016
0.328639 0.590004 -0.259199
0.329933 0.599481 -0.258117
0.331280 0.601968 0.236402
0.339511 0.609476 0.236352
0.342902 0.606311 0.246595
0.328574 0.604518 0.219879
0.337483 0.614442 0.220194
0.328257 0.604864 0.211314
0.330777 0.614720 0.204932
0.332389 0.600152 0.102329
0.343321 0.605854 0.097535
0.338017 0.611557 0.108161
0.329960 0.611712 -0.259110
0.339504 0.625496 0.203445
0.343022 0.622728 0.214882
0.328267 0.621128 0.195037
0.335042 0.630500 0.189450
0.332680 0.617242 0.119731
0.337282 0.625165 0.124053
0.343671 0.622065 0.113840
0.329954 0.612124 -0.263594
0.331168 0.635042 0.172756
0.341793 0.641062 0.184018
0.339384 0.644188 0.172899
0.330700 0.635312 0.156330
0.338923 0.643716 0.156225
0.335795 0.633383 0.137765
0.341155 0.640403 0.142213
0.352836 0.124951 0.189087
0.343339 0.118743 0.194176
0.347110 0.114871 0.184840
0.352931 0.141634 0.203540
0.341897 0.136292 0.209120
0.347685 0.129657 0.198365
0.347260 0.147193 0.212816
0.352493 0.159039 0.218427
0.346787 0.164889 0.229377
0.340290 0.170770 0.240395
0.335609 0.163646 0.235639
0.351758 0.175936 0.234599
0.349125 0.191205 0.251782
0.342212 0.186120 0.256591
0.345719 0.181723 0.245304
0.346776 0.197046 0.265543
0.344208 0.199823 0.277298
0.340074 0.191197 0.270959
0.353213 0.207431 0.269738
0.346412 0.213962 0.297647
0.340263 0.220589 0.308446
0.348997 0.225010 0.303827
0.346735 0.239853 0.314510
0.344873 0.231538 0.313132
0.351933 0.258387 0.319151
0.341921 0.252773 0.325342
0.345466 0.263710 0.328846
0.348595 0.272652 0.331108
0.341463 0.284984 0.341748
0.353358 0.289247 0.336564
0.349162 0.305453 0.346366
0.346482 0.295920 0.344852
0.353976 0.321104 0.348795
0.339704 0.321809 0.356233
0.342551 0.333169 0.358094
0.352498 0.338490 0.355375
0.346551 0.344107 0.359692
0.348137 0.354642 0.359869
0.348865 0.371033 0.359693
0.347496 0.381137 0.359425
0.353107 0.386917 0.357960
0.341225 0.391977 0.358349
0.340017 0.403698 0.357649
0.353212 0.403768 0.355536
0.341289 0.420125 0.357504
0.353193 0.420163 0.353614
0.353115 0.436376 0.350606
0.353023 0.452450 0.347969
0.354424 0.467756 0.347627
0.343274 0.484920 0.358206
0.352585 0.485182 0.350299
0.344492 0.493659 0.358952
0.352018 0.499931 0.352740
0.346421 0.516326 0.359338
0.346212 0.503912 0.359367
0.348145 0.495952 0.032729
0.336000 0.500465 0.030626
0.341522 0.506282 0.034961
0.353243 0.501082 0.036671
0.345488 0.524411 0.359163
0.351793 0.531220 0.352044
0.352954 0.544238 0.345364
0.352937 0.551959 0.336581
0.347377 0.554728 0.325918
0.353487 0.564153 0.319295
0.358419 0.558356 0.332313
0.353898 0.547852 0.047540
0.349278 0.552674 0.052828
0.360276 0.556758 0.050053
0.353699 0.563624 0.058550
0.348604 0.570025 0.307383
0.354335 0.579412 0.301535
0.359596 0.573805 0.312737
0.347159 0.570544 0.067154
0.358152 0.574418 0.064182
0.352587 0.580141 0.071098
0.348352 0.585771 0.286072
0.356614 0.591413 0.286215
0.360064 0.589827 0.295785
0.345235 0.588489 0.277096
0.351603 0.594946 0.270659
0.352903 0.602822 0.257815
0.352843 0.610037 0.249584
0.352473 0.599624 0.086171
0.352519 0.591417 0.079166
0.351699 0.618390 0.237818
0.345435 0.620676 0.225926
0.351618 0.627571 0.220109
0.356443 0.625494 0.233362
0.353845 0.612125 0.095051
0.349287 0.616813 0.102900
0.354713 0.627479 0.108110
0.360265 0.621944 0.097474
0.352229 0.634230 0.204560
0.346388 0.636542 0.193667
0.351910 0.646118 0.188553
0.357407 0.640286 0.199955
0.344650 0.637609 0.130792
0.348251 0.634015 0.122255
0.352487 0.646042 0.138502
0.356477 0.640497 0.122023
0.360142 0.638543 0.113323
0.346047 0.652378 0.173157
0.357416 0.656991 0.183651
0.354293 0.659138 0.173316
0.348208 0.651903 0.156086
0.356458 0.657282 0.155981
0.360309 0.654516 0.146185
0.363055 0.131090 0.184230
0.358627 0.136030 0.193125
0.369237 0.142249 0.188685
0.364593 0.146921 0.198127
0.358214 0.153177 0.208759
0.370633 0.157682 0.204853
0.369927 0.173846 0.219313
0.357775 0.170152 0.223989
0.365863 0.164071 0.213181
0.367766 0.170728 0.123502
0.361002 0.166402 0.128113
0.357544 0.159340 0.123597
0.361278 0.165818 0.117828
0.364194 0.190624 0.231495
0.357118 0.190632 0.239737
0.363212 0.181077 0.228872
0.360496 0.200154 0.242766
0.370158 0.206939 0.237520
0.368117 0.222398 0.269255
0.359620 0.219392 0.274010
0.361733 0.215041 0.262185
0.369469 0.234240 0.292120
0.361135 0.231976 0.295509
0.357785 0.224297 0.289090
0.369508 0.230497 0.283588
0.368467 0.257611 0.306804
0.358364 0.253056 0.309833
0.356163 0.238412 0.304698
0.369497 0.242452 0.299228
0.362293 0.263991 0.313051
0.356863 0.272657 0.323878
0.368455 0.272366 0.316991
0.369552 0.283988 0.325805
0.360233 0.282550 0.327373
0.369561 0.305454 0.338264
0.357385 0.305452 0.341583
0.369547 0.292177 0.332271
0.359977 0.315184 0.343323
0.370720 0.321139 0.342536
0.366057 0.326092 0.345824
0.370717 0.336962 0.348228
0.369574 0.354669 0.354596
0.356396 0.354653 0.357001
0.370510 0.371880 0.358170
0.357166 0.371049 0.358172
0.366993 0.387427 0.358315
0.376559 0.377856 0.359342
0.375131 0.387412 0.359476
0.366108 0.403807 0.357133
0.374224 0.403788 0.359707
0.366581 0.420212 0.355346
0.374661 0.420196 0.359736
0.370144 0.436429 0.353448
0.375991 0.430976 0.359510
0.369432 0.452689 0.349113
0.363032 0.442569 0.034867
0.353666 0.436643 0.030552
0.359776 0.442519 0.034850
0.368702 0.436834 0.031911
0.372559 0.452293 0.033243
0.364427 0.452117 0.035232
0.367980 0.467982 0.348200
0.363392 0.468427 0.035112
0.371516 0.468582 0.032090
0.361609 0.472734 0.343095
0.360904 0.472727 0.343092
0.361684 0.485416 0.342899
0.360877 0.485403 0.342894
0.369799 0.485469 0.350053
0.370289 0.484901 0.030819
0.362197 0.484809 0.035110
0.361014 0.501512 0.343080
0.361593 0.501531 0.343084
0.369720 0.501533 0.349537
0.373418 0.501034 0.032372
0.365304 0.500948 0.036750
0.361088 0.510795 0.343282
0.361487 0.510808 0.343284
0.367903 0.516586 0.349181
0.376635 0.511803 0.034109
0.370325 0.516984 0.038053
0.369421 0.532392 0.354621
0.355874 0.516218 0.350385
0.368168 0.550509 0.352052
0.374855 0.537233 0.359394
0.374823 0.545459 0.359376
0.369939 0.548599 0.039726
0.376016 0.537274 0.033384
0.369991 0.532264 0.038309
0.376003 0.543326 0.033347
0.361518 0.555516 0.342541
0.368238 0.564867 0.336780
0.372322 0.560718 0.347956
0.364133 0.569130 0.323708
0.369952 0.580019 0.318487
0.374958 0.575385 0.331013
0.368992 0.567953 0.053630
0.368988 0.559991 0.046864
0.364952 0.584707 0.306722
0.370275 0.595991 0.301969
0.375755 0.591188 0.313313
0.363720 0.585338 0.068171
0.369073 0.580239 0.061071
0.368414 0.597471 0.072929
0.374511 0.591878 0.063984
0.365597 0.599664 0.286301
0.373703 0.609417 0.286287
0.375585 0.607043 0.297264
0.363232 0.602394 0.269318
0.371893 0.614026 0.269144
0.361622 0.604414 0.260203
0.364014 0.614914 0.253884
0.362341 0.603028 0.082809
0.368193 0.614689 0.085624
0.373156 0.610124 0.077766
0.376289 0.622664 0.263445
0.372543 0.625126 0.252686
0.361145 0.621405 0.244296
0.368056 0.630790 0.237099
0.363703 0.636388 0.219714
0.371880 0.641684 0.219804
0.374978 0.639217 0.229944
0.361492 0.637383 0.210769
0.368420 0.646406 0.204488
0.368928 0.633825 0.101642
0.368918 0.625619 0.093691
0.364420 0.651200 0.192959
0.369654 0.662008 0.188123
0.375325 0.656139 0.198253
0.368728 0.649767 0.120543
0.363166 0.651658 0.135045
0.374010 0.657725 0.125040
0.369608 0.661608 0.139979
0.368925 0.642400 0.109791
0.364583 0.667325 0.173410
0.374916 0.672066 0.183109
0.372773 0.673389 0.173089
0.365497 0.665482 0.156134
0.373669 0.673037 0.156040
0.376093 0.671588 0.144894
0.384737 0.156249 0.189321
0.375423 0.151239 0.193328
0.378579 0.148428 0.184201
0.385840 0.162984 0.200696
0.376680 0.166558 0.211440
0.387381 0.172931 0.209009
0.387479 0.189561 0.215858
0.372278 0.190645 0.224091
0.382979 0.177502 0.214869
0.374323 0.202798 0.225561
0.385340 0.207785 0.222732
0.379452 0.213714 0.232333
0.376819 0.215798 0.243313
0.385336 0.219302 0.237769
0.384486 0.240694 0.286834
0.378122 0.231428 0.280531
0.382343 0.256255 0.299497
0.379929 0.245714 0.297665
0.373171 0.266713 0.310230
0.386664 0.269392 0.304745
0.385911 0.278027 0.315269
0.385859 0.286059 0.323337
0.385826 0.294259 0.331039
0.385837 0.305463 0.335390
0.385872 0.321874 0.339360
0.385907 0.333152 0.342410
0.376923 0.330650 0.343646
0.385908 0.354680 0.353508
0.385902 0.341352 0.346470
0.384828 0.371892 0.358352
0.391333 0.365613 0.034191
0.391300 0.361710 0.034201
0.385718 0.355580 0.037015
0.385749 0.371019 0.036000
0.378675 0.377852 0.359333
0.380671 0.387425 0.359444
0.386038 0.402737 0.360030
0.385808 0.420206 0.360721
0.385941 0.436459 0.359862
0.380621 0.441832 0.357840
0.385907 0.453030 0.356772
0.391470 0.447765 0.359402
0.385497 0.468973 0.357086
0.380678 0.485560 0.357995
0.388827 0.485574 0.359613
0.390796 0.474322 0.359421
0.385155 0.502187 0.357386
0.390209 0.497336 0.359501
0.386185 0.518492 0.357580
0.381082 0.526381 0.358762
0.391949 0.524550 0.359174
0.386154 0.532631 0.359684
0.377831 0.522443 0.034707
0.384097 0.517198 0.031279
0.377810 0.526576 0.034699
0.384025 0.532476 0.030375
0.384408 0.550391 0.359991
0.378165 0.555848 0.358699
0.384078 0.566138 0.352834
0.389007 0.560962 0.359677
0.384673 0.548981 0.030045
0.378904 0.553928 0.035334
0.384321 0.565847 0.041213
0.389774 0.560086 0.031532
0.379124 0.571387 0.341243
0.385112 0.581458 0.336014
0.390001 0.576761 0.346959
0.378875 0.571548 0.050907
0.389755 0.576577 0.047093
0.384693 0.581428 0.053096
0.380202 0.586222 0.324239
0.385568 0.596834 0.318977
0.391102 0.591622 0.330832
0.380011 0.602122 0.308164
0.386669 0.612687 0.301629
0.390904 0.607496 0.313782
0.384950 0.597302 0.060852
0.379299 0.602810 0.067474
0.390166 0.607929 0.063881
0.383787 0.614518 0.072863
0.382580 0.617581 0.286170
0.390729 0.623724 0.286104
0.393333 0.621884 0.295069
0.379278 0.619924 0.274591
0.385069 0.626876 0.269095
0.377432 0.621078 0.081771
0.382987 0.631741 0.087745
0.388322 0.625975 0.078389
0.385606 0.634080 0.253911
0.380109 0.636123 0.240895
0.386590 0.645269 0.234989
0.391049 0.640413 0.249324
0.377666 0.637493 0.098119
0.382894 0.648494 0.103742
0.388531 0.642773 0.093675
0.382994 0.649892 0.219890
0.393087 0.654848 0.229122
0.391161 0.655930 0.219984
0.379970 0.652575 0.209060
0.386364 0.661492 0.202642
0.377227 0.654199 0.114317
0.381785 0.662945 0.120838
0.389446 0.662510 0.110696
0.381813 0.667053 0.192621
0.387460 0.677171 0.186567
0.392765 0.671349 0.196231
0.379342 0.668687 0.133777
0.391050 0.672678 0.122464
0.384967 0.676019 0.138896
0.393448 0.670735 0.114504
0.391981 0.680347 -0.260412
0.393191 0.672006 -0.262588
0.393189 0.671883 -0.261327
0.391988 0.680613 -0.265083
0.384056 0.681581 0.172131
0.392267 0.687941 0.171396
0.393124 0.687360 0.180033
0.386142 0.682337 0.153806
0.392216 0.687956 0.158130
0.391877 0.695760 -0.261236
0.391819 0.696138 -0.270749
0.392674 0.709323 -0.270851
0.393046 0.705919 -0.262921
0.392999 0.701608 -0.278433
0.393000 0.709193 -0.278718
0.394135 0.165842 0.197849
0.397193 0.174220 0.201424
0.393835 0.183396 0.212201
0.402264 0.189686 0.205956
0.401592 0.207705 0.215253
0.395521 0.194326 0.212999
0.390283 0.217486 0.226743
0.402450 0.220100 0.223964
0.396175 0.230164 0.250848
0.393640 0.232009 0.261905
0.387351 0.226074 0.255313
0.402168 0.239402 0.254526
0.394860 0.246627 0.281846
0.390526 0.256259 0.292881
0.397341 0.256251 0.284437
0.403979 0.271662 0.289983
0.392599 0.265549 0.295122
0.397724 0.290107 0.319770
0.394612 0.280299 0.313408
0.394711 0.296254 0.329829
0.396925 0.305463 0.331248
0.402541 0.322589 0.332592
0.402190 0.338760 0.339337
0.396598 0.344517 0.344989
0.402200 0.354895 0.348277
0.402359 0.371086 0.353583
0.402351 0.387454 0.354983
0.388800 0.387444 0.358487
0.401080 0.371032 0.038035
0.394973 0.365642 0.034200
0.402338 0.400346 0.357595
0.391584 0.396579 0.358831
0.402284 0.408528 0.359883
0.402239 0.420236 0.360314
0.402250 0.435123 0.359755
0.396734 0.447804 0.359421
0.402247 0.453134 0.356763
0.402316 0.469091 0.356376
0.396815 0.474357 0.359430
0.398527 0.485645 0.359629
0.397127 0.497391 0.359511
0.402469 0.502352 0.355910
0.400702 0.518764 0.354924
0.394223 0.524592 0.359174
0.398048 0.533958 0.359636
0.403602 0.549752 0.359919
0.402077 0.563653 0.359621
0.402100 0.571391 0.358016
0.401847 0.582142 0.350778
0.401764 0.568549 0.038245
0.401727 0.560636 0.031542
0.396183 0.587632 0.341092
0.402488 0.597739 0.335667
0.407223 0.593072 0.346792
0.401683 0.582011 0.046210
0.396128 0.587410 0.050938
0.401616 0.597643 0.053143
0.407088 0.592607 0.048978
0.397732 0.602501 0.324634
0.403975 0.612453 0.317984
0.408760 0.606621 0.330235
0.399187 0.618352 0.306129
0.403630 0.624220 0.301577
0.410234 0.621781 0.311374
0.401926 0.613521 0.061157
0.396596 0.618873 0.067789
0.407616 0.623415 0.064216
0.401125 0.630179 0.073417
0.402828 0.632214 0.285898
0.397056 0.635581 0.269220
0.405311 0.642278 0.269241
0.408852 0.639325 0.280055
0.394107 0.637656 0.260173
0.400749 0.646845 0.254274
0.394677 0.636927 0.083015
0.405659 0.642015 0.079009
0.399783 0.647886 0.088100
0.396369 0.651339 0.240004
0.402909 0.661340 0.234579
0.407386 0.656904 0.248418
0.393940 0.653726 0.098473
0.404876 0.659284 0.093503
0.400322 0.663863 0.101969
0.399975 0.664145 0.219981
0.408174 0.673019 0.219970
0.409428 0.671404 0.229166
0.397198 0.666877 0.207015
0.403331 0.677686 0.201543
0.401982 0.679737 -0.259085
0.396520 0.672107 -0.261329
0.398466 0.682277 0.190572
0.404173 0.692924 0.184833
0.409465 0.687535 0.196023
0.393655 0.686972 0.146727
0.396356 0.684876 0.138102
0.401593 0.694578 0.154134
0.404603 0.690576 0.137843
0.400247 0.680915 0.122150
0.408471 0.688310 0.121883
0.403273 0.677291 0.111334
0.409807 0.687234 0.113975
0.401947 0.695978 -0.257192
0.401360 0.696152 0.171070
0.409572 0.703995 0.170813
0.409873 0.703574 0.179091
0.409505 0.704094 0.161504
0.401373 0.711712 -0.260842
0.401072 0.712605 -0.273885
0.403475 0.726448 -0.271377
0.406455 0.724510 -0.262477
0.397753 0.709365 -0.278678
0.404982 0.724506 -0.278878
0.404983 0.716707 -0.278623
0.417886 0.191761 0.189059
0.409038 0.185017 0.195236
0.404176 0.174912 0.190158
0.411846 0.180833 0.185039
0.413033 0.195935 0.199451
0.406472 0.202723 0.209393
0.418080 0.207797 0.204267
0.417737 0.224391 0.219419
0.412282 0.213624 0.213272
0.417484 0.241749 0.235627
0.407176 0.235863 0.242048
0.401987 0.228058 0.236990
0.412321 0.230374 0.230991
0.411699 0.246803 0.247043
0.408169 0.251591 0.258251
0.417529 0.257820 0.252073
0.412338 0.262516 0.265324
0.408639 0.266867 0.276686
0.405118 0.256730 0.271058
0.418197 0.273734 0.269658
0.413099 0.277784 0.284770
0.410227 0.281156 0.296192
0.419684 0.288408 0.289850
0.419609 0.303917 0.306016
0.409859 0.298763 0.312336
0.406989 0.287600 0.306071
0.415352 0.292102 0.301524
0.418019 0.322733 0.319820
0.408188 0.317598 0.325353
0.405881 0.304734 0.320583
0.412975 0.309721 0.314888
0.412034 0.328532 0.329318
0.418033 0.339264 0.331606
0.407593 0.349560 0.342379
0.419447 0.354914 0.339970
0.419438 0.371808 0.346497
0.414395 0.360510 0.345543
0.418799 0.387471 0.350050
0.417262 0.405410 0.355557
0.410762 0.411890 0.359406
0.410974 0.420250 0.359384
0.410900 0.428728 0.359345
0.417364 0.435163 0.357830
0.407808 0.439611 0.358452
0.418796 0.452985 0.354561
0.418802 0.469376 0.353690
0.406840 0.485715 0.357099
0.418797 0.485765 0.353722
0.418723 0.501977 0.349607
0.418655 0.518137 0.346964
0.418756 0.502505 0.036333
0.403119 0.502373 0.029645
0.409490 0.508382 0.034760
0.413590 0.497844 0.033023
0.406358 0.534229 0.356759
0.418678 0.534516 0.350758
0.410163 0.544326 0.358925
0.417705 0.550253 0.355503
0.411554 0.554989 0.359238
0.411530 0.562545 0.359233
0.417672 0.567437 0.355365
0.418629 0.582377 0.354409
0.414083 0.559246 0.033362
0.419053 0.565360 0.038468
0.418308 0.598676 0.350741
0.412599 0.603924 0.340521
0.418268 0.610594 0.335372
0.423584 0.608494 0.347923
0.412180 0.603466 0.051261
0.417877 0.598251 0.047054
0.417855 0.613561 0.054080
0.423108 0.608270 0.048060
0.418528 0.618063 0.323172
0.418541 0.624418 0.315052
0.418093 0.632691 0.303579
0.412305 0.636450 0.291529
0.418084 0.643652 0.285983
0.423278 0.641222 0.298456
0.419478 0.629342 0.062309
0.414833 0.634348 0.068249
0.418734 0.645803 0.073674
0.425797 0.638633 0.064885
0.418169 0.650912 0.270133
0.412420 0.653280 0.259221
0.419460 0.661851 0.251976
0.423405 0.655879 0.265161
0.411697 0.652973 0.082267
0.416607 0.663589 0.088552
0.422637 0.656908 0.079099
0.415519 0.667843 0.240057
0.420756 0.676582 0.234355
0.426502 0.670825 0.244742
0.410604 0.670230 0.098685
0.422389 0.678903 0.095456
0.414207 0.678930 0.102396
0.416343 0.681229 0.219850
0.424526 0.688543 0.219798
0.425990 0.687487 0.228633
0.413399 0.684033 0.206952
0.418620 0.690836 0.202172
0.420119 0.692931 0.107884
0.425882 0.687651 0.097619
0.418391 0.696579 -0.255126
0.418373 0.685415 -0.258728
0.418193 0.698828 0.190543
0.419671 0.710118 0.182037
0.413097 0.701199 0.150306
0.415701 0.698803 0.137656
0.423924 0.705806 0.137611
0.419228 0.710353 0.155623
0.416669 0.696560 0.121706
0.424854 0.705003 0.121605
0.425301 0.704575 0.112499
0.418372 0.712409 -0.256565
0.417227 0.712194 0.170886
0.426171 0.720119 0.179466
0.425456 0.720808 0.170963
0.425379 0.720896 0.161024
0.417580 0.729537 -0.260931
0.417362 0.730214 -0.272238
0.422503 0.738999 -0.262697
0.422475 0.739072 -0.267892
0.412144 0.724751 -0.278679
0.427194 0.198460 0.183053
0.423947 0.201933 0.192913
0.431635 0.207268 0.188687
0.429705 0.212826 0.199170
0.423172 0.218385 0.209204
0.435626 0.223089 0.205390
0.434564 0.240437 0.219948
0.423258 0.236690 0.225440
0.430742 0.229288 0.214354
0.427575 0.247612 0.229147
0.422692 0.253118 0.240280
0.429626 0.257646 0.235531
0.427589 0.264050 0.245778
0.423300 0.269679 0.257127
0.433071 0.274941 0.251970
0.433890 0.287222 0.269298
0.424015 0.284728 0.274104
0.427618 0.280612 0.262496
0.435049 0.300249 0.292286
0.426238 0.298106 0.294995
0.435095 0.295693 0.283695
0.435109 0.308471 0.299694
0.423979 0.316919 0.310315
0.435922 0.322177 0.307929
0.430957 0.327850 0.314227
0.423007 0.334453 0.324901
0.435895 0.336395 0.319977
0.435162 0.354685 0.335259
0.435140 0.345594 0.329332
0.434419 0.371826 0.342390
0.425321 0.366817 0.343320
0.428504 0.377751 0.344399
0.434416 0.387427 0.345838
0.435178 0.403882 0.351057
0.436329 0.421808 0.356878
0.419202 0.420263 0.357727
0.433003 0.436674 0.358086
0.441141 0.436652 0.359450
0.442507 0.428281 0.359341
0.432760 0.453024 0.357105
0.440896 0.453009 0.359472
0.431569 0.469414 0.356688
0.439690 0.469395 0.359792
0.429811 0.485816 0.355855
0.437907 0.485794 0.360141
0.430777 0.485516 0.035590
0.440691 0.476527 0.033997
0.435118 0.470312 0.038158
0.438845 0.485549 0.033390
0.434633 0.502819 0.353770
0.439757 0.497888 0.359809
0.439644 0.496054 0.033567
0.434416 0.501511 0.036990
0.435046 0.518357 0.350201
0.435433 0.534873 0.353795
0.431831 0.551081 0.354814
0.439938 0.551125 0.359496
0.441115 0.540460 0.359413
0.427588 0.550534 0.034964
0.438163 0.538231 0.032165
0.433522 0.533316 0.036308
0.435682 0.550641 0.031204
0.435329 0.567664 0.355120
0.440923 0.562739 0.359370
0.437965 0.562766 0.032446
0.433412 0.567540 0.037286
0.434419 0.582427 0.356028
0.428437 0.598773 0.357944
0.439455 0.587416 0.359352
0.436537 0.599066 0.359790
0.433979 0.614549 0.352365
0.438010 0.610205 0.359774
0.434872 0.614399 0.042161
0.440285 0.602166 0.031345
0.434800 0.597478 0.038415
0.440277 0.609793 0.031275
0.429354 0.619210 0.335366
0.437452 0.626822 0.335404
0.440746 0.623961 0.346142
0.427043 0.621300 0.327110
0.433267 0.631391 0.321378
0.429482 0.618942 0.052003
0.440325 0.623996 0.047099
0.434791 0.629547 0.055306
0.428679 0.636070 0.309472
0.434457 0.646795 0.303614
0.439491 0.641471 0.315569
0.429162 0.652274 0.286270
0.437283 0.659879 0.286251
0.440229 0.657102 0.297834
0.427332 0.653776 0.276333
0.434705 0.662915 0.270094
0.431262 0.649556 0.068719
0.435876 0.645011 0.063222
0.435763 0.661416 0.074211
0.442084 0.654946 0.065268
0.431181 0.666810 0.255561
0.435887 0.674294 0.251147
0.442095 0.671898 0.263894
0.429479 0.667874 0.083611
0.434721 0.678603 0.087437
0.440299 0.672860 0.079779
0.434770 0.682524 0.239706
0.434698 0.689152 0.231484
0.427233 0.689117 -0.260175
0.429527 0.697380 -0.258662
0.436200 0.696241 0.218257
0.431263 0.699668 0.203217
0.439454 0.706688 0.203243
0.442639 0.703745 0.211737
0.427593 0.702315 0.194286
0.433681 0.712480 0.190784
0.434524 0.699730 0.101079
0.434534 0.691508 0.095475
0.435046 0.714691 -0.259256
0.434607 0.723434 0.182364
0.429123 0.716617 0.149742
0.431349 0.714033 0.137619
0.439494 0.725412 0.137657
0.435654 0.728089 0.154889
0.433069 0.713245 0.121565
0.441234 0.722548 0.121578
0.435921 0.710736 0.109421
0.442326 0.720533 0.112937
0.434700 0.729354 -0.259797
0.435920 0.729877 0.170831
0.442249 0.736742 0.159996
0.442258 0.736745 0.165259
0.434687 0.739696 -0.261846
0.434661 0.739788 -0.266508
0.448356 0.227743 0.201649
0.441589 0.233241 0.211621
0.452953 0.238158 0.206382
0.446732 0.244149 0.214559
0.438084 0.256269 0.224258
0.452024 0.256785 0.215640
0.441375 0.266681 0.225975
0.452954 0.272378 0.223823
0.444428 0.280214 0.246950
0.438554 0.282633 0.258154
0.452047 0.288727 0.254392
0.449976 0.306510 0.286662
0.444098 0.296766 0.281193
0.450932 0.322966 0.299878
0.444905 0.311350 0.297657
0.451628 0.333763 0.308013
0.441855 0.330858 0.311462
0.449872 0.355273 0.331890
0.443421 0.346386 0.328965
0.451450 0.371100 0.337680
0.439337 0.381931 0.343526
0.450700 0.387462 0.341224
0.450727 0.403812 0.347238
0.444732 0.392859 0.344429
0.450336 0.421824 0.355865
0.444092 0.428281 0.359339
0.446743 0.436671 0.359431
0.452159 0.452389 0.359510
0.451478 0.469422 0.360488
0.451416 0.485831 0.361247
0.452895 0.502885 0.360008
0.448440 0.508773 0.358156
0.452893 0.517037 0.357461
0.459359 0.510654 0.359221
0.447389 0.496096 0.033628
0.452110 0.501677 0.036776
0.451396 0.530484 0.357814
0.451381 0.551226 0.359910
0.451381 0.538688 0.359585
0.451387 0.564319 0.359502
0.451394 0.572334 0.358057
0.451378 0.578707 0.358038
0.451009 0.564903 0.031278
0.451061 0.572949 0.036017
0.451332 0.599571 0.360454
0.451363 0.586704 0.359412
0.449720 0.597951 0.029378
0.454426 0.587835 0.033058
0.449830 0.582674 0.035836
0.443508 0.591613 0.034669
0.451242 0.615621 0.360263
0.445742 0.620617 0.356890
0.451184 0.627338 0.351291
0.456625 0.624463 0.359627
0.451547 0.615430 0.029317
0.446553 0.620533 0.036359
0.451609 0.627124 0.041878
0.457458 0.624073 0.032946
0.450225 0.635457 0.336485
0.444060 0.637550 0.326587
0.450126 0.647216 0.320652
0.455000 0.642185 0.332168
0.451020 0.635364 0.052045
0.445263 0.652367 0.308785
0.451067 0.662858 0.303204
0.456167 0.657686 0.314802
0.446051 0.668116 0.286261
0.456875 0.672675 0.297634
0.454223 0.674862 0.286234
0.444129 0.669961 0.275064
0.451480 0.678598 0.268469
0.450892 0.658844 0.063228
0.450827 0.666940 0.068594
0.447489 0.683318 0.252628
0.458830 0.687626 0.261901
0.455669 0.689701 0.252579
0.444084 0.686353 0.243023
0.450923 0.695227 0.236317
0.451162 0.678619 0.076847
0.445969 0.683838 0.084064
0.449842 0.696389 0.089528
0.456831 0.689327 0.080631
0.446800 0.700414 0.222774
0.452903 0.709903 0.217316
0.457773 0.705122 0.229639
0.442853 0.703395 0.098165
0.454100 0.711749 0.094824
0.445980 0.711760 0.101464
0.447820 0.714903 0.203256
0.456021 0.723358 0.203319
0.459010 0.720235 0.211900
0.444273 0.718453 0.193778
0.449508 0.729782 0.188601
0.457812 0.721953 0.096937
0.452318 0.726752 0.106782
0.443529 0.729912 -0.261574
0.443020 0.721601 -0.261593
0.443800 0.735345 0.176268
0.449948 0.741095 0.170791
0.454738 0.739128 0.183445
0.443622 0.735286 0.148801
0.444902 0.733638 0.137634
0.453103 0.743255 0.137599
0.449842 0.742202 0.154284
0.447292 0.730812 0.121537
0.455467 0.741689 0.121532
0.457715 0.738873 0.111163
0.443574 0.738781 -0.261960
0.443572 0.738829 -0.263027
0.459872 0.231387 0.185126
0.459182 0.232090 0.195254
0.452801 0.226215 0.190081
0.464699 0.238504 0.190064
0.463071 0.243025 0.201058
0.457646 0.251711 0.210885
0.467515 0.257202 0.204617
0.467176 0.273461 0.216084
0.461049 0.262616 0.212683
0.468140 0.284290 0.224935
0.459203 0.281236 0.228067
0.462568 0.294822 0.250668
0.459664 0.297318 0.261771
0.468213 0.305199 0.253777
0.462990 0.322955 0.286850
0.455896 0.318226 0.291998
0.460368 0.312638 0.280732
0.466263 0.340020 0.302344
0.460425 0.329161 0.296562
0.461144 0.345158 0.314454
0.454309 0.350180 0.325243
0.449955 0.342822 0.320147
0.466546 0.356463 0.319267
0.461007 0.361131 0.330417
0.463076 0.371101 0.331766
0.468164 0.388399 0.332821
0.468976 0.403842 0.340087
0.455639 0.398297 0.342499
0.464158 0.409224 0.345782
0.468989 0.419256 0.349523
0.467984 0.436690 0.355581
0.454911 0.436690 0.358694
0.467263 0.452431 0.357249
0.458027 0.446534 0.358985
0.467241 0.470510 0.359895
0.461292 0.457413 0.359417
0.469580 0.487462 0.360220
0.463820 0.502205 0.359788
0.459695 0.510658 0.359222
0.466294 0.517121 0.353780
0.467929 0.532460 0.354873
0.467915 0.540652 0.359444
0.468489 0.550067 0.359542
0.463302 0.562593 0.359425
0.468451 0.567803 0.356060
0.467178 0.583775 0.355098
0.461982 0.563044 0.032194
0.467516 0.567940 0.038819
0.461232 0.589057 0.359293
0.467188 0.601073 0.359698
0.467810 0.615975 0.360256
0.467756 0.626455 0.359659
0.466931 0.634764 0.351921
0.460871 0.638219 0.342332
0.467028 0.648201 0.337178
0.471895 0.643476 0.347222
0.461252 0.638409 0.050494
0.468061 0.631691 0.041726
0.464396 0.647089 0.052147
0.472643 0.647505 0.048855
0.463896 0.624392 0.032949
0.462138 0.652974 0.325758
0.468156 0.662696 0.319270
0.473176 0.656869 0.331985
0.475087 0.656309 0.049578
0.467250 0.663403 0.057568
0.463138 0.668618 0.308653
0.468992 0.677887 0.302468
0.474180 0.672293 0.312892
0.459367 0.670609 0.065882
0.470405 0.675173 0.062612
0.465859 0.679941 0.068836
0.464566 0.683031 0.286205
0.472828 0.690266 0.286251
0.474865 0.688403 0.296321
0.461876 0.685295 0.273061
0.467489 0.692385 0.268136
0.467227 0.698967 0.254134
0.461404 0.701003 0.240575
0.467346 0.711653 0.235701
0.472428 0.707250 0.249756
0.467766 0.695082 0.077828
0.462573 0.700326 0.084128
0.467747 0.712933 0.085886
0.473549 0.708205 0.080721
0.462276 0.716079 0.222868
0.467682 0.724144 0.218313
0.473292 0.722554 0.230850
0.467174 0.731715 0.203867
0.461417 0.735134 0.194136
0.467020 0.744400 0.188643
0.472421 0.738753 0.198827
0.467128 0.727744 0.092821
0.461554 0.732922 0.100647
0.464338 0.744469 0.105915
0.472740 0.744575 0.095873
0.461493 0.750184 0.170949
0.472597 0.756787 0.183470
0.470499 0.761736 0.170955
0.460849 0.751587 0.154113
0.470025 0.761644 0.153982
0.461072 0.751483 0.137531
0.470256 0.761666 0.137567
0.460977 0.749918 0.121480
0.467642 0.761018 0.121470
0.471909 0.760127 0.106247
0.474925 0.754049 0.097673
0.474990 0.770378 0.159620
0.474956 0.770384 0.165172
0.475106 0.770310 0.132110
0.474130 0.772018 0.121362
0.474232 0.771771 0.111455
0.477959 0.262661 0.198288
0.471970 0.268573 0.208355
0.483591 0.273612 0.204007
0.483823 0.289524 0.219795
0.478398 0.279466 0.213141
0.483098 0.307778 0.235136
0.473572 0.302121 0.241377
0.468104 0.291976 0.236289
0.478402 0.295959 0.230394
0.480593 0.322426 0.252414
0.473872 0.317309 0.257017
0.476883 0.313082 0.245729
0.478020 0.328232 0.265440
0.474917 0.331873 0.276785
0.471074 0.322407 0.270931
0.484344 0.338485 0.270907
0.482190 0.356590 0.303050
0.472099 0.351764 0.308088
0.477192 0.345827 0.297263
0.478311 0.371107 0.314482
0.471321 0.371104 0.322509
0.476308 0.362725 0.313233
0.473821 0.383538 0.325366
0.483428 0.388726 0.319522
0.477021 0.394473 0.329385
0.483257 0.404529 0.332868
0.484439 0.416392 0.341041
0.475152 0.413096 0.343443
0.484449 0.436698 0.350254
0.484455 0.424594 0.346676
0.484416 0.453088 0.352596
0.484023 0.429368 0.050669
0.467730 0.435199 0.047648
0.473325 0.439688 0.052080
0.484010 0.437528 0.053583
0.472271 0.465753 0.358058
0.484436 0.467953 0.356629
0.484451 0.476151 0.359590
0.482863 0.487481 0.359596
0.476244 0.494009 0.359293
0.476306 0.494009 0.359293
0.482851 0.501209 0.355935
0.472122 0.502235 0.356795
0.487277 0.495045 0.359479
0.484460 0.518649 0.348573
0.479334 0.499061 0.050093
0.469110 0.503464 0.045310
0.475725 0.509857 0.051082
0.484528 0.503525 0.052542
0.483822 0.536648 0.353953
0.477925 0.543841 0.359231
0.477931 0.543137 0.359232
0.483811 0.550138 0.357769
0.474390 0.554712 0.358310
0.484395 0.567678 0.352072
0.484347 0.583958 0.349702
0.472264 0.596418 0.356694
0.484570 0.601459 0.355668
0.482589 0.616467 0.359344
0.479261 0.607540 0.359222
0.481587 0.626666 0.359338
0.484311 0.617485 0.034507
0.468610 0.616904 0.030799
0.474943 0.623156 0.034349
0.479511 0.612552 0.033842
0.483779 0.630949 0.038675
0.489078 0.622471 0.034130
0.489109 0.624890 0.034123
0.485941 0.631990 0.358045
0.484604 0.648982 0.352835
0.489318 0.662416 0.350217
0.492226 0.654280 0.359207
0.492223 0.656399 0.359190
0.477002 0.654190 0.342202
0.481783 0.662804 0.336421
0.490643 0.672996 0.335482
0.491950 0.672095 0.344360
0.479588 0.667688 0.323715
0.485251 0.677983 0.318419
0.484054 0.662782 0.045228
0.478709 0.667050 0.052420
0.483565 0.679743 0.058123
0.489592 0.673618 0.046210
0.480015 0.683067 0.307394
0.485634 0.693951 0.301777
0.490913 0.688596 0.313155
0.477507 0.686082 0.066614
0.483300 0.695422 0.070280
0.488439 0.689931 0.064065
0.481093 0.698470 0.286293
0.491291 0.704543 0.296202
0.489301 0.705826 0.286402
0.477887 0.701558 0.269124
0.486115 0.707329 0.269248
0.476066 0.703444 0.260636
0.482870 0.712388 0.253716
0.478671 0.718197 0.241831
0.484474 0.727978 0.235940
0.489679 0.722455 0.246793
0.476759 0.719162 0.081933
0.482877 0.712983 0.078610
0.487694 0.723659 0.080633
0.482839 0.728785 0.084074
0.480754 0.733224 0.219691
0.488952 0.742234 0.219860
0.490254 0.739618 0.230212
0.478889 0.735021 0.209675
0.484351 0.745318 0.204997
0.478837 0.749665 0.193733
0.483517 0.761580 0.188752
0.489790 0.755477 0.200305
0.477232 0.767695 0.176741
0.484601 0.777305 0.169977
0.488221 0.773286 0.183831
0.478646 0.767611 0.143051
0.478636 0.767585 0.148222
0.484765 0.776187 0.137356
0.485287 0.776192 0.155308
0.484089 0.760132 0.095398
0.478827 0.765021 0.101332
0.483871 0.777843 0.105124
0.489742 0.772844 0.096837
0.491982 0.785664 0.162369
0.491979 0.785664 0.163201
0.480405 0.780305 0.121175
0.488605 0.788418 0.121176
0.490838 0.786592 0.131678
0.488846 0.788301 0.109267
0.494876 0.278612 0.199861
0.489265 0.283049 0.209704
0.501812 0.288595 0.206307
0.497956 0.293943 0.215658
0.489315 0.302467 0.226410
0.500877 0.305525 0.220699
0.493035 0.313407 0.228861
0.488614 0.321889 0.240730
0.495359 0.321880 0.232502
0.492201 0.330693 0.244659
0.501225 0.333848 0.238664
0.501499 0.350225 0.271061
0.490640 0.348413 0.276379
0.496581 0.345099 0.265078
0.500707 0.371101 0.300625
0.486513 0.371106 0.308234
0.500629 0.361743 0.297704
0.489821 0.382967 0.310840
0.500398 0.388059 0.307718
0.501337 0.403677 0.321299
0.487985 0.399485 0.324349
0.494697 0.393899 0.313678
0.500980 0.420130 0.336893
0.497168 0.410422 0.330705
0.494031 0.427758 0.344830
0.499979 0.438130 0.345617
0.500793 0.453114 0.348540
0.500370 0.435519 0.053672
0.494922 0.429299 0.050677
0.500745 0.470507 0.355417
0.500752 0.485338 0.359894
0.495303 0.476616 0.359606
0.505826 0.485836 0.050432
0.507280 0.477255 0.050729
0.501293 0.470841 0.053775
0.497717 0.485811 0.052032
0.501602 0.501227 0.359920
0.506166 0.494984 0.050553
0.500653 0.501112 0.053392
0.496692 0.505985 0.357044
0.498354 0.518678 0.354842
0.506489 0.518660 0.359907
0.495515 0.535078 0.356385
0.503600 0.535054 0.360374
0.493928 0.551461 0.358107
0.501979 0.551439 0.360381
0.497263 0.551270 0.037458
0.506134 0.542377 0.033431
0.500640 0.536771 0.042102
0.505312 0.551312 0.032555
0.499994 0.568161 0.355516
0.504889 0.562953 0.359791
0.506556 0.561880 0.033041
0.500864 0.567400 0.039988
0.500725 0.584158 0.352545
0.499655 0.600594 0.356524
0.496059 0.600320 0.037265
0.508016 0.591287 0.034010
0.501719 0.585021 0.040642
0.504173 0.600442 0.030228
0.493320 0.616729 0.358838
0.490778 0.616691 0.358827
0.501412 0.616820 0.359469
0.504370 0.606086 0.359493
0.500023 0.616359 0.026251
0.492392 0.611692 0.034665
0.507996 0.610298 0.000431
0.507988 0.608289 0.000464
0.507981 0.608234 0.005246
0.507982 0.610245 0.005218
0.499051 0.631668 0.357984
0.503393 0.625959 0.359275
0.501529 0.628780 0.027682
0.507675 0.621093 0.016385
0.507716 0.626281 0.016387
0.500615 0.645496 0.357654
0.500408 0.636833 0.037014
0.500486 0.663197 0.359633
0.500627 0.653463 0.359369
0.502932 0.664196 0.024608
0.505423 0.652525 0.029875
0.500195 0.647717 0.037463
0.494567 0.664429 0.036342
0.494988 0.667249 0.355134
0.500389 0.676036 0.350282
0.505777 0.674506 0.359679
0.499106 0.679244 0.041139
0.503794 0.678119 0.025210
0.506820 0.669456 0.011792
0.506807 0.675728 0.011616
0.500846 0.681959 0.336326
0.495669 0.683738 0.324141
0.500808 0.692450 0.319289
0.506451 0.689632 0.331994
0.500199 0.685249 0.053025
0.500452 0.700321 0.307841
0.500496 0.707554 0.299652
0.497470 0.701029 0.068324
0.501842 0.695919 0.061956
0.508328 0.705414 0.066253
0.501784 0.711249 0.070126
0.501171 0.714619 0.287347
0.497118 0.715680 0.269533
0.507022 0.722284 0.282366
0.505230 0.724459 0.269951
0.494872 0.717600 0.257849
0.500208 0.728650 0.253240
0.494684 0.733434 0.241134
0.499810 0.745432 0.236643
0.505516 0.740414 0.248677
0.493085 0.734638 0.082374
0.499152 0.728898 0.076816
0.503909 0.739790 0.079882
0.499155 0.745064 0.084830
0.493814 0.750418 0.220049
0.504967 0.755345 0.232162
0.502685 0.760896 0.219601
0.492419 0.751877 0.211248
0.496553 0.760958 0.204904
0.505605 0.772147 0.203704
0.507498 0.770330 0.213615
0.494730 0.766376 0.193879
0.500193 0.776283 0.188271
0.500254 0.784159 0.174515
0.500288 0.786497 0.165935
0.495837 0.782040 0.151012
0.495824 0.782105 0.142615
0.500891 0.789473 0.137287
0.500847 0.787051 0.155643
0.500896 0.778144 0.095718
0.495963 0.783981 0.098994
0.506797 0.786554 0.097359
0.502227 0.792876 0.106085
0.501956 0.797063 0.120093
0.508443 0.802349 0.114280
0.508445 0.802352 0.113531
0.512582 0.294088 0.202824
0.508747 0.297612 0.212809
0.517375 0.304437 0.206668
0.517041 0.323308 0.216333
0.503453 0.321898 0.224939
0.511367 0.308559 0.215044
0.517288 0.334727 0.223980
0.506832 0.331788 0.227118
0.511911 0.344977 0.250778
0.507448 0.347073 0.261737
0.501595 0.341850 0.255321
0.518304 0.353122 0.256700
0.508841 0.362854 0.296866
0.509700 0.371103 0.297240
0.513618 0.387508 0.299812
0.518615 0.399103 0.305310
0.505548 0.396908 0.311111
0.517056 0.408021 0.317876
0.507964 0.412462 0.329035
0.517003 0.415900 0.326074
0.517000 0.424107 0.332688
0.504823 0.433597 0.342949
0.515570 0.438144 0.339404
0.509151 0.444553 0.344390
0.512771 0.453129 0.345386
0.518444 0.468096 0.349642
0.506098 0.479509 0.358807
0.517142 0.482709 0.357547
0.518441 0.503197 0.359949
0.517132 0.490899 0.359878
0.518454 0.517486 0.359990
0.516244 0.501155 0.054035
0.510369 0.494993 0.050558
0.517088 0.535094 0.361266
0.517024 0.551490 0.361530
0.517064 0.564813 0.360137
0.517101 0.573030 0.357635
0.517111 0.584270 0.355396
0.511553 0.561902 0.033060
0.516941 0.567533 0.038534
0.517097 0.597952 0.357030
0.517077 0.606127 0.359509
0.517321 0.617569 0.359492
0.517869 0.608001 0.010371
0.517889 0.610864 0.010333
0.517388 0.615030 0.018982
0.517910 0.600734 0.026153
0.511995 0.626100 0.359282
0.516697 0.611339 -0.000062
0.517284 0.632067 0.357323
0.516991 0.646323 0.356956
0.516829 0.639619 0.036774
0.516426 0.630988 0.025560
0.510679 0.626303 0.016428
0.516996 0.654408 0.359463
0.516977 0.665381 0.360352
0.516919 0.677543 0.360039
0.524721 0.674570 -0.017036
0.524721 0.674449 -0.017031
0.524724 0.674446 -0.016563
0.524722 0.674568 -0.016569
0.516450 0.685089 0.351897
0.510644 0.687096 0.341839
0.517550 0.695508 0.335542
0.521610 0.690658 0.347131
0.509403 0.688034 0.041939
0.508776 0.688294 0.050389
0.517650 0.693172 0.041762
0.515228 0.696877 0.055031
0.511659 0.686514 0.025433
0.519906 0.692598 0.025340
0.516995 0.681717 0.010500
0.522761 0.691391 0.014820
0.512735 0.701090 0.320160
0.524439 0.704942 0.329299
0.521130 0.711071 0.319454
0.509146 0.703457 0.311030
0.512310 0.713019 0.304859
0.523962 0.721948 0.313457
0.521244 0.728024 0.303122
0.509776 0.719047 0.293703
0.513999 0.728271 0.287910
0.508620 0.716120 0.066396
0.515149 0.711751 0.063122
0.519541 0.725529 0.063823
0.515037 0.729906 0.068412
0.524064 0.738331 0.297380
0.522643 0.740105 0.287670
0.512706 0.732861 0.270454
0.521572 0.745113 0.269532
0.510785 0.734917 0.260007
0.514088 0.745524 0.254392
0.524736 0.753193 0.263217
0.522181 0.759592 0.253343
0.510235 0.751221 0.243237
0.513870 0.760903 0.237915
0.516481 0.742877 0.076937
0.516483 0.751136 0.083761
0.524212 0.770433 0.247355
0.521741 0.776548 0.237812
0.510861 0.766283 0.225193
0.514044 0.776472 0.220296
0.523338 0.788148 0.232277
0.521806 0.789795 0.221651
0.512069 0.780378 0.204056
0.520247 0.790367 0.204631
0.510346 0.783203 0.187485
0.518543 0.791340 0.187864
0.509086 0.785063 0.177697
0.516924 0.793855 0.170481
0.515958 0.795589 0.154118
0.524736 0.802239 0.163256
0.524149 0.802916 0.154246
0.512985 0.797989 0.137524
0.521162 0.805491 0.137828
0.509873 0.800973 0.124649
0.515861 0.806640 0.120769
0.516679 0.789423 0.096372
0.516718 0.797552 0.102754
0.516717 0.805177 0.110997
0.531591 0.324274 0.204451
0.522296 0.318835 0.210414
0.526630 0.311224 0.200448
0.531868 0.339925 0.219845
0.525683 0.329742 0.213236
0.527177 0.345452 0.232530
0.522795 0.348212 0.243548
0.517332 0.342708 0.237942
0.533650 0.354220 0.238849
0.533725 0.371003 0.254902
0.524712 0.363804 0.262524
0.529234 0.359156 0.251677
0.533141 0.387899 0.271189
0.524685 0.380198 0.278936
0.522481 0.370008 0.272681
0.527277 0.374737 0.267832
0.533580 0.400217 0.289614
0.525104 0.395887 0.296010
0.522127 0.386397 0.289603
0.528079 0.391128 0.284964
0.526858 0.410924 0.314462
0.531855 0.422570 0.319344
0.525885 0.427744 0.330169
0.528645 0.436715 0.331761
0.534217 0.452764 0.334786
0.520959 0.453124 0.342186
0.524779 0.461680 0.343973
0.533643 0.464548 0.341752
0.533659 0.472744 0.347692
0.532909 0.487222 0.355582
0.526905 0.498333 0.359570
0.526900 0.493509 0.359568
0.532900 0.503202 0.357608
0.524768 0.509256 0.359372
0.532741 0.517517 0.357085
0.524768 0.511236 0.359371
0.526654 0.522154 0.359710
0.532732 0.535916 0.360249
0.534531 0.551809 0.360393
0.529607 0.563253 0.359939
0.534549 0.568402 0.355229
0.534937 0.583369 0.348391
0.534489 0.600779 0.352588
0.527621 0.607986 0.359300
0.527610 0.612606 0.359302
0.533337 0.617663 0.357240
0.522943 0.623442 0.359040
0.533548 0.633235 0.354981
0.525983 0.610371 0.009588
0.531790 0.615196 0.026249
0.526305 0.610773 0.000292
0.533239 0.650279 0.356510
0.527547 0.628820 0.030618
0.533132 0.633988 0.042833
0.527569 0.656111 0.359361
0.533290 0.665756 0.359798
0.532779 0.682505 0.359915
0.524962 0.674570 -0.016569
0.524963 0.674448 -0.016558
0.526748 0.687769 0.357761
0.533405 0.696840 0.351746
0.537788 0.692385 0.359596
0.524963 0.674572 -0.017033
0.529042 0.701370 0.339160
0.533985 0.708013 0.334987
0.540076 0.706870 0.345850
0.528512 0.702864 0.052662
0.533705 0.702373 0.040562
0.539067 0.713972 0.043965
0.530798 0.713476 0.054137
0.534130 0.695482 0.023971
0.529223 0.691698 0.014735
0.533222 0.715512 0.322924
0.533300 0.723357 0.314612
0.540165 0.723589 0.046577
0.534021 0.727387 0.058026
0.533302 0.731668 0.306551
0.534422 0.744414 0.298798
0.532997 0.735611 0.067632
0.531075 0.748110 0.287886
0.539215 0.761235 0.287878
0.540757 0.761190 0.297066
0.528417 0.750549 0.274429
0.532844 0.759711 0.269848
0.533008 0.753086 0.082937
0.533002 0.744820 0.075787
0.541349 0.769565 0.287666
0.541357 0.769587 0.296037
0.540433 0.770914 0.271218
0.529100 0.764056 0.258312
0.533903 0.776413 0.253805
0.527668 0.781426 0.243086
0.532797 0.794916 0.239147
0.538720 0.790789 0.249283
0.528545 0.797981 0.221921
0.537899 0.803999 0.235419
0.536789 0.804574 0.222156
0.529111 0.798556 0.205171
0.537350 0.804965 0.205637
0.527610 0.799541 0.188372
0.535993 0.810055 0.189189
0.525751 0.800952 0.174783
0.529126 0.808698 0.170603
0.526208 0.800930 0.099553
0.532295 0.795291 0.094216
