-0.027953 -0.235126 -0.346666
-0.025128 -0.222005 -0.351806
-0.017019 -0.230209 -0.344056
-0.033195 -0.213825 -0.360052
-0.030644 -0.205679 -0.361250
-0.022439 -0.205852 -0.356852
-0.024691 -0.188565 -0.362894
-0.018900 -0.193485 -0.358976
-0.025072 -0.173039 -0.366762
-0.026134 -0.155708 -0.371643
-0.032315 -0.149527 -0.377031
-0.030991 -0.139279 -0.377663
-0.022800 -0.139523 -0.372793
-0.029280 -0.122907 -0.378110
-0.021046 -0.123076 -0.374118
-0.024664 -0.104874 -0.378758
-0.019025 -0.109459 -0.375272
-0.024872 -0.089646 -0.383295
-0.025717 -0.073581 -0.388620
-0.031796 -0.068415 -0.393537
-0.029774 -0.057239 -0.394612
-0.021544 -0.057376 -0.390057
-0.024697 -0.040001 -0.395757
-0.019035 -0.044758 -0.391768
-0.024967 -0.024750 -0.399480
-0.025003 -0.008379 -0.401603
-0.024989 0.007803 -0.401807
-0.025010 0.024379 -0.402871
-0.025058 0.041238 -0.404416
-0.025081 0.057534 -0.405313
-0.026274 0.072944 -0.406665
-0.032509 0.077910 -0.409693
-0.030375 0.089917 -0.410768
-0.022246 0.089842 -0.407215
-0.024821 0.108010 -0.412010
-0.019273 0.103342 -0.408525
-0.024812 0.122860 -0.415101
-0.024646 0.139276 -0.417384
-0.024557 0.156356 -0.418296
-0.024560 0.173368 -0.419451
-0.025836 0.189982 -0.422221
-0.032225 0.195460 -0.425463
-0.030966 0.205746 -0.425926
-0.022651 0.205863 -0.422809
-0.029525 0.222420 -0.426634
-0.021235 0.222520 -0.423117
-0.029109 0.238959 -0.426960
-0.020859 0.239049 -0.423076
-0.029165 0.255042 -0.426896
-0.020959 0.255176 -0.423108
-0.027618 0.271258 -0.427657
-0.019436 0.271367 -0.424003
-0.023780 0.287377 -0.429201
-0.017522 0.281633 -0.425038
-0.024849 0.303863 -0.431325
-0.024869 0.319599 -0.430530
-0.024842 0.369156 -0.415175
-0.024927 0.417350 -0.401724
-0.008529 -0.740847 0.375025
-0.008523 -0.732499 0.366678
-0.008498 -0.724440 0.359773
-0.008492 -0.714893 0.351471
-0.008491 -0.706603 0.344272
-0.008433 -0.665012 0.317182
-0.008468 -0.656838 0.312664
-0.008507 -0.646593 0.307017
-0.008521 -0.634656 0.299748
-0.008436 -0.626335 0.293629
-0.008305 -0.615014 0.284568
-0.008211 -0.606752 0.277667
-0.008171 -0.596984 0.269241
-0.008149 -0.587966 0.261611
-0.008163 -0.580342 0.253810
-0.008192 -0.573144 0.245420
-0.008244 -0.569515 0.237638
-0.008296 -0.565312 0.223527
-0.008323 -0.561925 0.207102
-0.008310 -0.557901 0.194413
-0.008309 -0.554056 0.186085
-0.008265 -0.548969 0.174018
-0.008283 -0.543411 0.157494
-0.008312 -0.540310 0.146877
-0.008331 -0.537439 0.138622
-0.008273 -0.532630 0.124608
-0.008256 -0.527263 0.108120
-0.008258 -0.523873 0.097676
-0.008299 -0.520558 0.089416
-0.008288 -0.515197 0.075058
-0.007905 -0.509136 0.056957
-0.013083 -0.507014 0.048997
-0.007897 -0.503943 0.042784
-0.002207 -0.506460 0.050471
-0.008288 -0.497400 0.025187
-0.009633 -0.492157 0.008274
-0.015970 -0.490506 -0.000782
-0.009539 -0.486972 -0.007745
-0.005075 -0.489276 0.002325
-0.008180 -0.480837 -0.025573
-0.009087 -0.476066 -0.040178
-0.015069 -0.474620 -0.050042
-0.009189 -0.470902 -0.055431
-0.004204 -0.472944 -0.044577
-0.008511 -0.465089 -0.072144
-0.009709 -0.459990 -0.087215
-0.015967 -0.458436 -0.097479
-0.009740 -0.452244 -0.103770
-0.005034 -0.455807 -0.092016
-0.009252 -0.444339 -0.120364
-0.015127 -0.442647 -0.131435
-0.007836 -0.433771 -0.138876
-0.004195 -0.439138 -0.125352
-0.012506 -0.427614 -0.155028
-0.004322 -0.422583 -0.155058
-0.000535 -0.425038 -0.146396
-0.016345 -0.425184 -0.163968
-0.009013 -0.416335 -0.171426
-0.012551 -0.410906 -0.184568
-0.007641 -0.405149 -0.189614
-0.001679 -0.407730 -0.178923
-0.009355 -0.396344 -0.205072
-0.015414 -0.393192 -0.214645
-0.009693 -0.383271 -0.221030
-0.004512 -0.389107 -0.210400
-0.014849 -0.377481 -0.231602
-0.009656 -0.367011 -0.237340
-0.003897 -0.373094 -0.227263
-0.015365 -0.360976 -0.247089
-0.010488 -0.349942 -0.252395
-0.004467 -0.356152 -0.242892
-0.016487 -0.343715 -0.261870
-0.010078 -0.334674 -0.264554
-0.005651 -0.339644 -0.257719
-0.008318 -0.318814 -0.273730
-0.013574 -0.313238 -0.280066
-0.008276 -0.303113 -0.283990
-0.002724 -0.308842 -0.276685
-0.008410 -0.290625 -0.293346
-0.008376 -0.282122 -0.299477
-0.007084 -0.270020 -0.308317
-0.011750 -0.264852 -0.316721
-0.006877 -0.255381 -0.321992
-0.000785 -0.261060 -0.312090
-0.012753 -0.249877 -0.330246
-0.007879 -0.238853 -0.333382
-0.001874 -0.244477 -0.326993
-0.007895 -0.223539 -0.341364
-0.012893 -0.219197 -0.346237
-0.007943 -0.205992 -0.348466
-0.001941 -0.211431 -0.343184
-0.010051 -0.188549 -0.354903
-0.016431 -0.182642 -0.360292
-0.014647 -0.173212 -0.361120
-0.006450 -0.173075 -0.356255
-0.011527 -0.156402 -0.362732
-0.003340 -0.156256 -0.358204
-0.007467 -0.139548 -0.363670
-0.001315 -0.144941 -0.359382
-0.008487 -0.123112 -0.366974
-0.010061 -0.104975 -0.371343
-0.016540 -0.098356 -0.376404
-0.014293 -0.089750 -0.377563
-0.006162 -0.089678 -0.373235
-0.008279 -0.072391 -0.379272
-0.002728 -0.077075 -0.375195
-0.008470 -0.057510 -0.383052
-0.009916 -0.040181 -0.388405
-0.016311 -0.033790 -0.393440
-0.012939 -0.024815 -0.394620
-0.004751 -0.024798 -0.391059
-0.009534 -0.008356 -0.395783
-0.001358 -0.008331 -0.392683
-0.009209 0.007890 -0.396111
-0.001028 0.007879 -0.392755
-0.007109 0.023277 -0.396555
-0.000686 0.016802 -0.392865
-0.008569 0.041333 -0.399339
-0.008643 0.057603 -0.399833
-0.008719 0.073509 -0.399746
-0.008755 0.089837 -0.401596
-0.010257 0.107847 -0.405767
-0.016649 0.114250 -0.409659
-0.014241 0.122536 -0.410648
-0.006148 0.122603 -0.407121
-0.010757 0.138896 -0.412073
-0.002618 0.138895 -0.408352
-0.007096 0.157201 -0.412037
-0.000966 0.152039 -0.409098
-0.008102 0.173233 -0.413564
-0.008111 0.189652 -0.415260
-0.008195 0.205954 -0.416738
-0.008299 0.222580 -0.417552
-0.008360 0.239082 -0.417712
-0.008340 0.255215 -0.417644
-0.008341 0.271405 -0.419122
-0.008871 0.287471 -0.422727
-0.014651 0.292610 -0.426289
-0.013470 0.303887 -0.426681
-0.005315 0.303961 -0.423577
-0.012993 0.319588 -0.426796
-0.004850 0.319520 -0.423705
-0.008485 0.352355 -0.417193
-0.008408 0.401332 -0.400398
0.008051 -0.763322 0.402883
0.007895 -0.716684 0.349543
0.007915 -0.708490 0.342959
0.007951 -0.697317 0.334688
0.007975 -0.689111 0.329095
0.007943 -0.679247 0.323302
0.007896 -0.667139 0.315993
0.007873 -0.658987 0.311487
0.007825 -0.646542 0.304239
0.007801 -0.636863 0.298168
0.007895 -0.628578 0.292081
0.008023 -0.616700 0.283267
0.008120 -0.608448 0.276798
0.004232 -0.572693 0.246610
0.009056 -0.568877 0.240666
0.015076 -0.572207 0.247331
0.008083 -0.562395 0.223518
0.009456 -0.558558 0.205710
0.004978 -0.556882 0.196405
0.009512 -0.553859 0.190813
0.015881 -0.555823 0.199180
0.008071 -0.547770 0.173962
0.007957 -0.541747 0.156360
0.002438 -0.539788 0.148334
0.007965 -0.537086 0.142091
0.013325 -0.539147 0.150092
0.008067 -0.531668 0.124438
0.009211 -0.525819 0.106433
0.004565 -0.523423 0.098949
0.009251 -0.520056 0.092774
0.015427 -0.523008 0.099859
0.008081 -0.512828 0.075132
0.008077 -0.508404 0.060711
0.008059 -0.505946 0.052142
0.008112 -0.501280 0.041039
0.008711 -0.493683 0.022725
0.003583 -0.491235 0.012974
0.008697 -0.488041 0.007057
0.014595 -0.489900 0.015946
0.008169 -0.482386 -0.009027
0.007618 -0.476711 -0.024447
0.001856 -0.474832 -0.033887
0.007484 -0.470969 -0.039088
0.012697 -0.473235 -0.029154
0.009283 -0.463323 -0.057078
0.004023 -0.460056 -0.072009
0.012169 -0.455753 -0.071983
0.015723 -0.458046 -0.063567
0.000215 -0.458338 -0.080997
0.008046 -0.449963 -0.088889
0.004301 -0.444400 -0.105222
0.012516 -0.439404 -0.105490
0.015950 -0.441640 -0.097036
0.000462 -0.442128 -0.114415
0.007407 -0.433401 -0.121528
0.003423 -0.428102 -0.135481
0.008505 -0.421947 -0.140166
0.014352 -0.423859 -0.128693
0.008623 -0.414143 -0.155641
0.003678 -0.410839 -0.167534
0.008649 -0.405041 -0.172577
0.014576 -0.407634 -0.161449
0.007724 -0.396573 -0.188746
0.002170 -0.393571 -0.199538
0.007806 -0.383974 -0.205838
0.013055 -0.389813 -0.194577
0.002561 -0.378126 -0.216504
0.008156 -0.367855 -0.222482
0.013480 -0.373605 -0.212083
0.002855 -0.362172 -0.232513
0.007832 -0.351390 -0.237927
0.013807 -0.357684 -0.228280
0.001905 -0.345166 -0.247111
0.007291 -0.334822 -0.252745
0.012813 -0.340895 -0.243154
0.001794 -0.328673 -0.262332
0.007419 -0.318407 -0.264688
0.012642 -0.323279 -0.258539
0.008082 -0.303334 -0.272991
0.002913 -0.298122 -0.280086
0.007245 -0.285772 -0.286461
0.013731 -0.293015 -0.275839
0.000766 -0.278590 -0.296870
0.006836 -0.269045 -0.300421
0.011592 -0.274278 -0.292884
0.007919 -0.257492 -0.309008
0.007850 -0.249624 -0.315614
0.008158 -0.238489 -0.323440
0.002916 -0.233839 -0.329657
0.008122 -0.221957 -0.332444
0.013820 -0.227537 -0.326380
0.007424 -0.205462 -0.339948
0.001726 -0.200424 -0.344956
0.004168 -0.189162 -0.346243
0.012382 -0.188914 -0.341736
0.008490 -0.171992 -0.347208
0.014489 -0.176778 -0.342739
0.007726 -0.156066 -0.351162
0.006563 -0.139250 -0.355320
0.000367 -0.133829 -0.360149
0.001966 -0.122998 -0.360933
0.010088 -0.122882 -0.355934
0.005247 -0.106479 -0.362475
0.013365 -0.106399 -0.357870
0.009254 -0.090960 -0.364702
0.015607 -0.097478 -0.359288
0.006615 -0.072281 -0.371852
0.000364 -0.066429 -0.376695
0.002421 -0.057533 -0.377749
0.010565 -0.057537 -0.373570
0.007976 -0.041033 -0.379452
0.013534 -0.046273 -0.374977
0.007811 -0.024809 -0.385072
0.007809 -0.008319 -0.388462
0.007848 0.007836 -0.388479
0.007672 0.023140 -0.390206
0.002068 0.028027 -0.393816
0.005247 0.041145 -0.394662
0.013423 0.041011 -0.391495
0.006401 0.057412 -0.394832
0.014569 0.057297 -0.392009
0.005534 0.073387 -0.394533
0.013686 0.073320 -0.391553
0.008369 0.089601 -0.395086
0.014332 0.083794 -0.391769
0.007559 0.106570 -0.398571
0.007628 0.122732 -0.401460
0.007762 0.138875 -0.404130
0.006514 0.157010 -0.406894
0.000225 0.163733 -0.409550
0.001633 0.173072 -0.409974
0.009769 0.172904 -0.407359
0.003473 0.189548 -0.410695
0.011668 0.189458 -0.407613
0.004802 0.205946 -0.411222
0.013046 0.205939 -0.407810
0.008693 0.224017 -0.411048
0.014640 0.219400 -0.408301
0.008023 0.239067 -0.411753
0.009474 0.270262 -0.412043
0.015878 0.263939 -0.408736
0.008008 0.288057 -0.416003
0.007946 0.304084 -0.418212
0.007834 0.319411 -0.418485
0.007782 0.335360 -0.416801
0.007787 0.352066 -0.413150
0.007916 0.384817 -0.401306
0.004863 0.466208 -0.362527
0.012994 0.466328 -0.358364
0.024275 -0.754481 0.378050
0.024272 -0.745775 0.369744
0.024279 -0.737654 0.362056
0.024314 -0.728543 0.355337
0.024336 -0.718560 0.347843
0.024347 -0.710409 0.341765
0.024379 -0.699129 0.333497
0.024382 -0.690956 0.328131
0.024342 -0.679286 0.321192
0.024298 -0.669127 0.314862
0.024271 -0.660997 0.310447
0.024405 -0.618052 0.282484
0.024494 -0.609803 0.276235
0.024565 -0.597678 0.267078
0.024600 -0.589454 0.261239
0.024577 -0.580570 0.254475
0.024569 -0.571772 0.247694
0.024530 -0.566121 0.239445
0.024491 -0.559679 0.223513
0.024501 -0.557197 0.210284
0.024470 -0.555009 0.201968
0.024468 -0.551042 0.190634
0.024464 -0.544881 0.173972
0.024476 -0.540663 0.162222
0.024441 -0.537956 0.153963
0.024446 -0.533878 0.140941
0.024455 -0.529103 0.124456
0.024474 -0.525001 0.111185
0.024456 -0.521733 0.102933
0.024475 -0.516623 0.091676
0.024675 -0.509622 0.074274
0.019343 -0.507456 0.063474
0.024704 -0.504064 0.057555
0.030303 -0.505985 0.067821
0.025866 -0.495823 0.038951
0.021307 -0.492230 0.027239
0.025888 -0.488622 0.022407
0.032229 -0.490269 0.032337
0.024551 -0.483169 0.007328
0.024215 -0.477279 -0.007491
0.018605 -0.475302 -0.018421
0.024112 -0.470616 -0.023244
0.029463 -0.472877 -0.011905
0.025240 -0.463191 -0.040079
0.020493 -0.460418 -0.052534
0.025268 -0.455687 -0.057072
0.031396 -0.457614 -0.046199
0.025113 -0.447679 -0.072919
0.020314 -0.444158 -0.085820
0.025219 -0.439015 -0.090422
0.031270 -0.441011 -0.079170
0.024760 -0.431032 -0.105922
0.019604 -0.427658 -0.117720
0.024791 -0.420822 -0.122875
0.030563 -0.423704 -0.111704
0.024143 -0.412729 -0.138418
0.018539 -0.410217 -0.150717
0.024147 -0.403836 -0.155825
0.029514 -0.406524 -0.143649
0.023934 -0.396046 -0.170885
0.018231 -0.393500 -0.182840
0.024597 -0.384065 -0.189370
0.029170 -0.389145 -0.175972
0.019998 -0.378965 -0.201169
0.025658 -0.368654 -0.207175
0.030987 -0.374537 -0.195827
0.020314 -0.362764 -0.217634
0.026073 -0.352737 -0.223632
0.031317 -0.358856 -0.213172
0.020887 -0.346729 -0.233035
0.025931 -0.336378 -0.238471
0.031832 -0.342748 -0.229466
0.020060 -0.330037 -0.247960
0.024071 -0.319036 -0.252713
0.030989 -0.325407 -0.243998
0.017083 -0.312654 -0.261516
0.023194 -0.301767 -0.263694
0.028084 -0.306231 -0.257616
0.024742 -0.286985 -0.272498
0.019704 -0.281596 -0.280437
0.024289 -0.269715 -0.286525
0.030654 -0.276236 -0.276163
0.017908 -0.263175 -0.297327
0.022617 -0.251715 -0.302552
0.028820 -0.257561 -0.292592
0.016457 -0.245958 -0.312270
0.019895 -0.237537 -0.315097
0.028148 -0.237421 -0.308356
0.025187 -0.222400 -0.320682
0.031790 -0.228469 -0.311340
0.018667 -0.216326 -0.329245
0.024190 -0.203798 -0.330970
0.029653 -0.208463 -0.325580
0.024228 -0.188826 -0.334744
0.022805 -0.171842 -0.338602
0.016361 -0.165786 -0.343716
0.018062 -0.155933 -0.344705
0.026301 -0.155978 -0.339680
0.020669 -0.139153 -0.346330
0.028897 -0.139213 -0.341210
0.024875 -0.121256 -0.346858
0.030814 -0.125597 -0.342350
0.024198 -0.106389 -0.350999
0.024287 -0.090942 -0.356055
0.018840 -0.086157 -0.361224
0.022030 -0.073138 -0.363287
0.030242 -0.073192 -0.358119
0.025711 -0.058512 -0.364770
0.032156 -0.064313 -0.359600
0.023235 -0.041013 -0.371016
0.017036 -0.035145 -0.376904
0.020053 -0.024806 -0.378846
0.028265 -0.024812 -0.373580
0.023126 -0.008339 -0.380556
0.031330 -0.008352 -0.375665
0.025678 0.007958 -0.379818
0.032085 0.002703 -0.376238
0.024291 0.024268 -0.382450
0.024317 0.041005 -0.385897
0.024256 0.057378 -0.387040
0.024141 0.073524 -0.386641
0.023306 0.089847 -0.388984
0.017206 0.095151 -0.392952
0.019655 0.106762 -0.394089
0.027979 0.107000 -0.390316
0.022135 0.122998 -0.395503
0.030392 0.123240 -0.391612
0.025275 0.139208 -0.396215
0.031522 0.134070 -0.392341
0.024223 0.155695 -0.399323
0.024413 0.172510 -0.401469
0.024608 0.189004 -0.402491
0.024695 0.205553 -0.403207
0.023026 0.223874 -0.405285
0.016368 0.230538 -0.408850
0.016382 0.239056 -0.408855
0.024696 0.239033 -0.405021
0.023585 0.270359 -0.405813
0.017450 0.275076 -0.409605
0.019924 0.288233 -0.411021
0.028176 0.288327 -0.406680
0.021831 0.304260 -0.412120
0.030059 0.304356 -0.407808
0.021821 0.319418 -0.412203
0.030047 0.319466 -0.408097
0.020640 0.335264 -0.411618
0.028841 0.335249 -0.407584
0.017924 0.351951 -0.410179
0.026111 0.351935 -0.406213
0.024138 0.466467 -0.353411
0.040898 -0.779179 0.417962
0.040746 -0.778264 0.403501
0.040661 -0.772688 0.391996
0.040623 -0.765166 0.383681
0.040639 -0.757101 0.376070
0.040698 -0.747705 0.367730
0.040757 -0.739655 0.360743
0.040812 -0.700847 0.332320
0.040816 -0.692719 0.327165
0.040702 -0.647834 0.301375
0.040676 -0.639616 0.296455
0.040741 -0.630101 0.290055
0.040833 -0.618839 0.282190
0.040901 -0.610595 0.276071
0.040962 -0.597941 0.266990
0.040989 -0.589717 0.261398
0.040998 -0.580590 0.255122
0.041010 -0.570831 0.248308
0.042470 -0.562009 0.237835
0.038758 -0.557163 0.223503
0.047006 -0.555456 0.223459
0.048945 -0.555863 0.231560
0.035534 -0.556401 0.213624
0.040982 -0.553413 0.207786
0.040895 -0.546943 0.190654
0.039289 -0.541076 0.174927
0.032700 -0.539508 0.165593
0.039267 -0.535710 0.159081
0.043634 -0.537984 0.169876
0.040871 -0.529820 0.141021
0.040458 -0.525115 0.124844
0.034739 -0.523626 0.114924
0.040504 -0.519639 0.108999
0.045673 -0.522024 0.119484
0.040897 -0.512859 0.091696
0.040900 -0.508201 0.079454
0.040933 -0.504502 0.070636
0.041009 -0.498415 0.056839
0.041050 -0.492561 0.043736
0.041009 -0.488889 0.035825
0.040903 -0.484087 0.024313
0.040309 -0.477501 0.009052
0.034552 -0.475189 -0.000994
0.040240 -0.469679 -0.006233
0.045394 -0.472697 0.004317
0.040780 -0.462109 -0.022065
0.035438 -0.459980 -0.035189
0.040785 -0.454192 -0.040088
0.046358 -0.456514 -0.027169
0.041022 -0.446677 -0.055810
0.035880 -0.443938 -0.068188
0.041144 -0.438163 -0.073279
0.046841 -0.440413 -0.061526
0.040873 -0.430155 -0.089084
0.035472 -0.427030 -0.100513
0.040905 -0.420373 -0.105917
0.046457 -0.423409 -0.094723
0.040096 -0.412164 -0.121392
0.034173 -0.409699 -0.132557
0.041474 -0.400769 -0.139892
0.045127 -0.406022 -0.126396
0.037161 -0.395136 -0.155503
0.045365 -0.389148 -0.155592
0.048771 -0.391986 -0.147302
0.033397 -0.392736 -0.164821
0.039981 -0.383298 -0.171094
0.035615 -0.378336 -0.184173
0.042087 -0.368851 -0.190580
0.046574 -0.373913 -0.177353
0.037560 -0.363761 -0.202143
0.042162 -0.356053 -0.206930
0.048572 -0.359444 -0.197037
0.040810 -0.347160 -0.218123
0.040780 -0.339360 -0.225909
0.040718 -0.331218 -0.233115
0.040962 -0.319657 -0.240692
0.035669 -0.314729 -0.247111
0.039773 -0.302063 -0.252120
0.046629 -0.308616 -0.243546
0.032832 -0.295509 -0.260956
0.039254 -0.285526 -0.263948
0.043840 -0.290540 -0.257258
0.041501 -0.270280 -0.273324
0.036628 -0.265137 -0.280365
0.040857 -0.253457 -0.286300
0.047578 -0.259972 -0.276594
0.034096 -0.246939 -0.296924
0.040046 -0.236210 -0.299634
0.045074 -0.240788 -0.292268
0.041269 -0.222166 -0.307705
0.036093 -0.217439 -0.314922
0.039993 -0.203721 -0.319483
0.047086 -0.209930 -0.310372
0.033048 -0.197599 -0.328169
0.034390 -0.188838 -0.328752
0.042609 -0.188795 -0.322880
0.036885 -0.172722 -0.329969
0.045133 -0.172693 -0.324792
0.041389 -0.154731 -0.331011
0.047367 -0.159497 -0.326432
0.040694 -0.139295 -0.334152
0.039058 -0.121281 -0.338192
0.032455 -0.114811 -0.343347
0.034477 -0.106425 -0.344613
0.042731 -0.106407 -0.339628
0.038552 -0.089653 -0.347414
0.046783 -0.089685 -0.342284
0.042353 -0.074714 -0.349640
0.048890 -0.081012 -0.343772
0.040095 -0.058468 -0.355620
0.034148 -0.053952 -0.360955
0.037223 -0.041462 -0.362642
0.045467 -0.041412 -0.357536
0.041856 -0.025695 -0.365150
0.048147 -0.031836 -0.359493
0.040691 -0.008377 -0.370133
0.039274 0.007993 -0.373016
0.032848 0.013482 -0.376686
0.034583 0.024296 -0.377543
0.042809 0.024327 -0.373521
0.037805 0.041060 -0.379082
0.046060 0.041093 -0.374875
0.039977 0.057537 -0.379635
0.048263 0.057619 -0.376075
0.042340 0.072744 -0.379269
0.048904 0.066617 -0.376449
0.040768 0.090531 -0.381891
0.040711 0.107285 -0.384593
0.040623 0.123498 -0.386333
0.039257 0.139585 -0.388662
0.032913 0.144895 -0.393138
0.034598 0.155696 -0.394081
0.042751 0.155746 -0.389375
0.037425 0.172186 -0.395433
0.045560 0.172024 -0.391355
0.041667 0.188533 -0.395809
0.047662 0.183092 -0.392623
0.040977 0.204851 -0.397453
0.041097 0.222030 -0.398289
0.041140 0.238952 -0.398369
0.041093 0.255203 -0.397710
0.041055 0.271619 -0.398207
0.041053 0.288369 -0.400780
0.040957 0.304395 -0.402730
0.040769 0.319476 -0.402942
0.040649 0.335223 -0.401925
0.040615 0.351876 -0.399688
0.057048 -0.775343 0.389637
0.057018 -0.767259 0.381283
0.057042 -0.759240 0.374510
0.057099 -0.749220 0.366149
0.057160 -0.741194 0.359582
0.057198 -0.730474 0.351301
0.057215 -0.722251 0.345198
0.057215 -0.712159 0.338131
0.057214 -0.702450 0.331109
0.057216 -0.694356 0.326150
0.057181 -0.680854 0.317881
0.057170 -0.672730 0.312828
0.057139 -0.663032 0.307901
0.057093 -0.649377 0.300445
0.057084 -0.641180 0.295573
0.057137 -0.630119 0.288455
0.057210 -0.619962 0.281621
0.057273 -0.611731 0.275877
0.057338 -0.598456 0.267020
0.057380 -0.590229 0.261823
0.057402 -0.580596 0.255896
0.057430 -0.569804 0.248960
0.057404 -0.561629 0.240581
0.057363 -0.554949 0.232660
0.057339 -0.552405 0.223438
0.057319 -0.548226 0.207128
0.057496 -0.542249 0.189838
0.052206 -0.539982 0.181038
0.057553 -0.536938 0.174911
0.063099 -0.539132 0.183665
0.057311 -0.531036 0.157439
0.057715 -0.525678 0.140245
0.052593 -0.523817 0.130486
0.057766 -0.520906 0.124880
0.063484 -0.522649 0.134152
0.057314 -0.515249 0.108190
0.056831 -0.509187 0.091265
0.051030 -0.507151 0.082132
0.056862 -0.502474 0.075394
0.061979 -0.505721 0.085230
0.056513 -0.493441 0.056232
0.050549 -0.490812 0.047198
0.056469 -0.486605 0.041687
0.061365 -0.489660 0.050584
0.057464 -0.478269 0.025054
0.052154 -0.475729 0.015327
0.057379 -0.470208 0.010045
0.063037 -0.473367 0.019925
0.056206 -0.461598 -0.005853
0.050183 -0.459051 -0.016099
0.056210 -0.452747 -0.022062
0.061104 -0.455865 -0.011136
0.056671 -0.445015 -0.038423
0.050989 -0.443038 -0.050462
0.056759 -0.436644 -0.056030
0.061931 -0.439546 -0.043454
0.057018 -0.429071 -0.071782
0.051499 -0.426955 -0.083781
0.057048 -0.420039 -0.089227
0.062376 -0.423117 -0.076785
0.056352 -0.411810 -0.104823
0.050351 -0.409381 -0.115138
0.056349 -0.402522 -0.121375
0.061237 -0.406209 -0.109778
0.057157 -0.394582 -0.135433
0.057171 -0.389712 -0.143815
0.057835 -0.381382 -0.156235
0.052850 -0.377436 -0.166103
0.057861 -0.371171 -0.171378
0.063746 -0.375102 -0.161853
0.057194 -0.362528 -0.183853
0.057214 -0.356156 -0.192600
0.055920 -0.347370 -0.204515
0.049611 -0.343970 -0.214595
0.055075 -0.333544 -0.220320
0.060483 -0.339472 -0.209276
0.049699 -0.327764 -0.230049
0.055946 -0.317780 -0.232523
0.060630 -0.322315 -0.226228
0.057329 -0.302970 -0.240655
0.052026 -0.297789 -0.246814
0.056627 -0.286005 -0.252370
0.062904 -0.292660 -0.243894
0.050292 -0.279248 -0.261564
0.056262 -0.269043 -0.264776
0.061180 -0.274190 -0.257963
0.057634 -0.254080 -0.273493
0.052622 -0.249284 -0.280119
0.056696 -0.236616 -0.285897
0.063498 -0.243164 -0.276104
0.049883 -0.230080 -0.296194
0.056038 -0.219881 -0.298341
0.060733 -0.224624 -0.291455
0.056794 -0.204431 -0.306680
0.051126 -0.199066 -0.313109
0.056759 -0.187455 -0.314059
0.061986 -0.191811 -0.309538
0.057123 -0.172611 -0.317808
0.055633 -0.154691 -0.323072
0.049224 -0.148223 -0.327848
0.050897 -0.139332 -0.328440
0.059025 -0.139262 -0.324541
0.053669 -0.122859 -0.329608
0.061790 -0.122805 -0.325260
0.057868 -0.106255 -0.330983
0.063762 -0.111712 -0.326001
0.057137 -0.089598 -0.336674
0.056881 -0.074649 -0.341031
0.051274 -0.070335 -0.345040
0.053557 -0.057488 -0.346597
0.061697 -0.057453 -0.341400
0.057800 -0.041557 -0.348868
0.063690 -0.047195 -0.342371
0.057092 -0.025578 -0.355950
0.051577 -0.020672 -0.361256
0.054177 -0.008333 -0.362548
0.062338 -0.008243 -0.357841
0.058048 0.008428 -0.363255
0.064142 0.003519 -0.359021
0.057112 0.024319 -0.366190
0.057220 0.041171 -0.369086
0.057282 0.057678 -0.371342
0.056263 0.072829 -0.373200
0.050117 0.077569 -0.376967
0.051767 0.090623 -0.377714
0.059930 0.090517 -0.373397
0.053840 0.107356 -0.378699
0.061979 0.107210 -0.374322
0.054912 0.123644 -0.379126
0.063056 0.123542 -0.374745
0.055756 0.139737 -0.379498
0.063913 0.139752 -0.375192
0.058336 0.155006 -0.380149
0.064753 0.148974 -0.375660
0.056876 0.172234 -0.384138
0.055746 0.188373 -0.387946
0.049644 0.193708 -0.393422
0.050780 0.204510 -0.393894
0.058785 0.204537 -0.388604
0.052362 0.221810 -0.394438
0.060410 0.221751 -0.390645
0.052809 0.238888 -0.394490
0.060892 0.238806 -0.391554
0.051719 0.255203 -0.394050
0.059856 0.255158 -0.390703
0.052411 0.271631 -0.394155
0.060600 0.271588 -0.390835
0.057669 0.288656 -0.395078
0.063240 0.283262 -0.392185
0.057412 0.304311 -0.396474
0.055250 0.335199 -0.395594
0.063445 0.335165 -0.392287
0.052615 0.351850 -0.394738
0.060757 0.351839 -0.391209
0.057241 0.417351 -0.367537
0.073597 -0.793932 0.418822
0.073510 -0.750536 0.364786
0.073537 -0.742499 0.358415
0.073567 -0.731829 0.350135
0.073581 -0.723664 0.344228
0.073541 -0.682051 0.317005
0.073516 -0.673908 0.312102
0.073477 -0.662976 0.306154
0.073440 -0.651059 0.299419
0.073447 -0.642882 0.294523
0.073703 -0.599118 0.266971
0.073767 -0.590874 0.262372
0.073801 -0.580583 0.256759
0.073828 -0.568755 0.249636
0.073804 -0.560567 0.242686
0.073748 -0.552872 0.234674
0.073732 -0.547204 0.223356
0.073807 -0.542217 0.207538
0.068437 -0.540625 0.194749
0.073839 -0.537428 0.189814
0.079366 -0.538543 0.202205
0.073706 -0.533010 0.173941
0.075251 -0.526697 0.155783
0.070870 -0.524313 0.145137
0.075283 -0.521644 0.140207
0.081760 -0.523108 0.149200
0.073675 -0.516780 0.124596
0.074944 -0.510408 0.106646
0.070369 -0.507903 0.096405
0.075013 -0.504197 0.090828
0.081267 -0.506528 0.100031
0.075043 -0.495471 0.072786
0.070398 -0.492032 0.062177
0.074980 -0.487901 0.057227
0.081331 -0.490285 0.066462
0.074297 -0.479361 0.041098
0.069270 -0.476108 0.030672
0.074204 -0.471148 0.025848
0.080147 -0.473671 0.035665
0.073204 -0.462544 0.009944
0.067620 -0.459336 -0.000196
0.074562 -0.450562 -0.007404
0.078523 -0.456277 0.004278
0.069960 -0.444434 -0.022944
0.078176 -0.439365 -0.023067
0.081542 -0.441643 -0.014834
0.066170 -0.442289 -0.032375
0.073587 -0.433587 -0.039639
0.069594 -0.428139 -0.056134
0.077797 -0.422479 -0.056195
0.081028 -0.424645 -0.046978
0.066266 -0.425871 -0.065714
0.072471 -0.418880 -0.071875
0.072706 -0.411274 -0.087844
0.066673 -0.409437 -0.098767
0.072707 -0.402283 -0.104733
0.077586 -0.405882 -0.092365
0.072338 -0.394264 -0.120757
0.066068 -0.392534 -0.131737
0.072992 -0.383507 -0.138694
0.076981 -0.388739 -0.125555
0.069010 -0.378232 -0.151454
0.074089 -0.371901 -0.155972
0.079915 -0.374704 -0.145640
0.072100 -0.363178 -0.169720
0.065683 -0.360055 -0.179547
0.071526 -0.350101 -0.185786
0.076559 -0.355869 -0.174328
0.066459 -0.344366 -0.197808
0.072232 -0.333991 -0.203725
0.077338 -0.339570 -0.192106
0.067106 -0.328409 -0.215441
0.071950 -0.316914 -0.220439
0.078008 -0.322445 -0.209769
0.065947 -0.311407 -0.230552
0.072235 -0.301279 -0.232951
0.076847 -0.305762 -0.225598
0.074152 -0.286680 -0.241119
0.069116 -0.281473 -0.247702
0.073584 -0.269721 -0.252971
0.080036 -0.276265 -0.244424
0.067080 -0.263082 -0.261965
0.072900 -0.252035 -0.264216
0.078002 -0.256597 -0.258293
0.073515 -0.237432 -0.272231
0.068150 -0.232332 -0.279611
0.072734 -0.219965 -0.285412
0.079036 -0.226412 -0.275336
0.066414 -0.213504 -0.295457
0.072505 -0.203257 -0.297507
0.077295 -0.207880 -0.291114
0.072092 -0.187187 -0.305248
0.065706 -0.181259 -0.311307
0.068056 -0.172497 -0.312298
0.076217 -0.172407 -0.308020
0.073776 -0.155513 -0.313919
0.079460 -0.160821 -0.309810
0.073429 -0.139176 -0.317390
0.073435 -0.122759 -0.319067
0.072661 -0.106176 -0.322657
0.066685 -0.100558 -0.327762
0.072661 -0.087911 -0.329309
0.077571 -0.092476 -0.324782
0.073471 -0.073087 -0.332720
0.073520 -0.057426 -0.334299
0.073103 -0.041510 -0.338633
0.067348 -0.036072 -0.344778
0.073084 -0.023260 -0.346444
0.078247 -0.027975 -0.341151
0.073476 -0.008152 -0.350560
0.072008 0.008418 -0.354422
0.065603 0.014181 -0.360035
0.067479 0.024321 -0.360814
0.075644 0.024326 -0.355586
0.070939 0.041332 -0.362254
0.079055 0.041396 -0.358012
0.074872 0.058276 -0.362665
0.081118 0.053334 -0.359225
0.073639 0.073889 -0.364658
0.073619 0.090356 -0.366559
0.073530 0.107059 -0.368332
0.073441 0.123502 -0.369071
0.073354 0.139835 -0.369763
0.072315 0.155343 -0.371940
0.066161 0.160051 -0.376553
0.067548 0.172597 -0.377459
0.075741 0.172857 -0.372117
0.069483 0.188477 -0.378452
0.077601 0.188689 -0.373658
0.071961 0.204622 -0.379875
0.080022 0.204725 -0.375356
0.075040 0.219956 -0.381692
0.081393 0.213048 -0.376108
0.073681 0.238651 -0.385478
0.073825 0.255077 -0.384519
0.073883 0.271517 -0.384977
0.073103 0.288491 -0.389427
0.067119 0.294355 -0.393617
0.066951 0.304195 -0.393558
0.075104 0.304089 -0.389941
0.073432 0.335151 -0.387081
0.073381 0.351824 -0.384974
0.073518 0.400832 -0.368471
0.089980 -0.788118 0.393423
0.089977 -0.779528 0.385141
0.089976 -0.771318 0.377669
0.090028 -0.733504 0.348771
0.090027 -0.725382 0.343283
0.090045 -0.713203 0.335030
0.090040 -0.704992 0.329423
0.090004 -0.695713 0.323861
0.089954 -0.683642 0.316217
0.089921 -0.675540 0.311079
0.089885 -0.663047 0.304087
0.089854 -0.652846 0.298425
0.089857 -0.644710 0.293671
0.089908 -0.631010 0.285373
0.089957 -0.622703 0.280191
0.090016 -0.613603 0.274565
0.090088 -0.600078 0.266567
0.090142 -0.591842 0.262470
0.090187 -0.580610 0.257145
0.090223 -0.566991 0.250107
0.090225 -0.558781 0.244873
0.091811 -0.547683 0.235731
0.087471 -0.542074 0.223295
0.095713 -0.538542 0.223248
0.098384 -0.539521 0.231118
0.083841 -0.540254 0.213212
0.089670 -0.536272 0.207543
0.090120 -0.531330 0.190646
0.090740 -0.526605 0.174027
0.085732 -0.524811 0.160178
0.090777 -0.520788 0.155817
0.096667 -0.522176 0.168429
0.090095 -0.515905 0.140970
0.090722 -0.510278 0.124524
0.085706 -0.508366 0.111228
0.090790 -0.503702 0.106577
0.096662 -0.505708 0.118916
0.091157 -0.496049 0.090429
0.086383 -0.492906 0.077502
0.091125 -0.487804 0.073264
0.097279 -0.490001 0.084475
0.090401 -0.479705 0.058450
0.085184 -0.476498 0.046586
0.090352 -0.470727 0.041853
0.096092 -0.473186 0.053213
0.090003 -0.462799 0.026480
0.084616 -0.459926 0.015251
0.090042 -0.452621 0.009703
0.095590 -0.456227 0.020924
0.089905 -0.444503 -0.002660
0.089925 -0.438951 -0.010929
0.090431 -0.431040 -0.023396
0.085271 -0.427611 -0.035906
0.090496 -0.421232 -0.040717
0.096263 -0.423712 -0.029133
0.090704 -0.413643 -0.056161
0.084937 -0.410601 -0.072819
0.093168 -0.404928 -0.072846
0.096666 -0.407423 -0.061704
0.082058 -0.408845 -0.081561
0.089354 -0.399892 -0.088363
0.084834 -0.394259 -0.105490
0.093040 -0.387530 -0.105616
0.096640 -0.390828 -0.095271
0.081905 -0.392232 -0.113991
0.088409 -0.382609 -0.120281
0.083933 -0.377947 -0.134681
0.090396 -0.368415 -0.140273
0.094920 -0.372842 -0.126603
0.085335 -0.363515 -0.155001
0.093551 -0.355031 -0.155009
0.096871 -0.358720 -0.145756
0.082374 -0.360616 -0.163290
0.088171 -0.349767 -0.168371
0.083023 -0.344859 -0.180334
0.088626 -0.333478 -0.185610
0.093937 -0.338382 -0.173587
0.083310 -0.328525 -0.198244
0.088338 -0.316611 -0.202999
0.094233 -0.321597 -0.190957
0.082405 -0.311632 -0.214359
0.085239 -0.301201 -0.220889
0.094095 -0.302552 -0.208672
0.094084 -0.287235 -0.222978
0.097569 -0.293569 -0.212793
0.082100 -0.294919 -0.230827
0.085313 -0.286123 -0.233676
0.090893 -0.270723 -0.238873
0.097157 -0.276288 -0.229134
0.084713 -0.265227 -0.248137
0.088902 -0.251828 -0.252639
0.095691 -0.257865 -0.243364
0.082048 -0.245808 -0.261206
0.085405 -0.236958 -0.263709
0.093677 -0.236868 -0.257630
0.090774 -0.221544 -0.269733
0.097266 -0.227756 -0.260470
0.084268 -0.215267 -0.279742
0.088851 -0.202791 -0.284909
0.095276 -0.208558 -0.275236
0.082418 -0.196992 -0.294891
0.085216 -0.188225 -0.296791
0.093446 -0.188171 -0.290202
0.090634 -0.172126 -0.299179
0.096647 -0.177305 -0.293274
0.088699 -0.155490 -0.305246
0.082419 -0.149568 -0.311300
0.083738 -0.139176 -0.312066
0.091950 -0.139277 -0.306171
0.085199 -0.122789 -0.312698
0.093417 -0.122888 -0.307253
0.087660 -0.106306 -0.314072
0.095884 -0.106410 -0.309032
0.089859 -0.089463 -0.318674
0.097916 -0.097699 -0.310432
0.081761 -0.081211 -0.327285
0.082679 -0.073057 -0.327850
0.090931 -0.073144 -0.322371
0.083608 -0.057424 -0.328399
0.091842 -0.057418 -0.322974
0.086271 -0.041339 -0.330199
0.094497 -0.041306 -0.324699
0.089801 -0.024256 -0.335049
0.097466 -0.031778 -0.326705
0.082082 -0.016659 -0.343530
0.083109 -0.008110 -0.344264
0.091371 -0.008108 -0.338551
0.084884 0.007789 -0.345406
0.093169 0.007873 -0.339971
0.089911 0.026017 -0.346638
0.095450 0.021505 -0.341688
0.089892 0.041385 -0.351056
0.088477 0.058277 -0.354989
0.082044 0.063986 -0.359781
0.083142 0.073893 -0.360320
0.091352 0.073807 -0.355261
0.085049 0.090319 -0.361234
0.093278 0.090291 -0.356490
0.086617 0.107014 -0.361946
0.094882 0.107060 -0.357316
0.086959 0.123526 -0.362073
0.095247 0.123590 -0.357405
0.087200 0.139987 -0.362193
0.095509 0.140064 -0.357523
0.088731 0.156655 -0.362866
0.097062 0.156741 -0.358677
0.091410 0.171681 -0.363268
0.098103 0.165313 -0.359466
0.089659 0.189123 -0.366287
0.089630 0.205143 -0.368870
0.089392 0.220050 -0.372454
0.083768 0.224539 -0.377725
0.085546 0.238532 -0.378905
0.093678 0.238449 -0.373354
0.085756 0.254998 -0.378809
0.093912 0.254909 -0.374047
0.086855 0.271473 -0.379122
0.095048 0.271417 -0.374931
0.091131 0.288277 -0.380433
0.097191 0.282867 -0.376003
0.089108 0.319227 -0.380626
0.097375 0.319207 -0.376248
0.087726 0.335158 -0.379717
0.095967 0.335132 -0.375500
0.086006 0.351824 -0.378850
0.094231 0.351809 -0.374474
0.085888 0.400908 -0.362533
0.094107 0.400902 -0.357752
0.085651 0.483348 -0.313843
0.093900 0.483437 -0.307989
0.085671 0.515818 -0.297944
0.093927 0.515865 -0.290745
0.106477 -0.808574 0.419313
0.106438 -0.804929 0.408161
0.106445 -0.798686 0.399922
0.106441 -0.790623 0.391355
0.106452 -0.781801 0.383021
0.106460 -0.773617 0.375858
0.106464 -0.763443 0.367550
0.106480 -0.755256 0.361232
0.106489 -0.744862 0.353882
0.106505 -0.735562 0.347252
0.106495 -0.727491 0.342331
0.106484 -0.714575 0.334047
0.106448 -0.706383 0.328662
0.106406 -0.695756 0.322129
0.106367 -0.685240 0.315266
0.106342 -0.677217 0.309992
0.106314 -0.632414 0.284532
0.106363 -0.624101 0.279543
0.106422 -0.613648 0.273363
0.106473 -0.601124 0.266108
0.106505 -0.592917 0.262309
0.106549 -0.580651 0.257212
0.106963 -0.563184 0.249949
0.101809 -0.557027 0.246409
0.107018 -0.549074 0.241595
0.112721 -0.555339 0.247392
0.106616 -0.538156 0.232604
0.106584 -0.534508 0.223233
0.106542 -0.529567 0.207132
0.105932 -0.525124 0.192026
0.100088 -0.523896 0.179663
0.105962 -0.519025 0.174114
0.110995 -0.521196 0.187340
0.107874 -0.511935 0.156215
0.103316 -0.509259 0.140934
0.111523 -0.504816 0.140875
0.114257 -0.506546 0.149792
0.099981 -0.507554 0.129915
0.105915 -0.501971 0.124436
0.106734 -0.494633 0.108372
0.101362 -0.492157 0.095723
0.106681 -0.487099 0.090781
0.112300 -0.489338 0.103102
0.106413 -0.479105 0.075340
0.100968 -0.475983 0.064190
0.106375 -0.470052 0.058984
0.111853 -0.472941 0.070079
0.105980 -0.461985 0.043405
0.100332 -0.459432 0.031948
0.106036 -0.452327 0.026181
0.111248 -0.455915 0.038217
0.104837 -0.443910 0.010892
0.098342 -0.441872 0.001145
0.105355 -0.432625 -0.005736
0.109302 -0.438059 0.006383
0.101406 -0.427123 -0.018130
0.106746 -0.420440 -0.023476
0.112374 -0.423677 -0.012676
0.105739 -0.411984 -0.038711
0.099775 -0.409568 -0.050603
0.105734 -0.402931 -0.056192
0.110694 -0.405446 -0.043635
0.106458 -0.396026 -0.071838
0.101002 -0.393906 -0.084413
0.107794 -0.385098 -0.090853
0.111937 -0.390208 -0.076727
0.102845 -0.379399 -0.105687
0.111047 -0.372932 -0.105804
0.114591 -0.375837 -0.097381
0.098943 -0.376468 -0.115050
0.105292 -0.367009 -0.121553
0.100691 -0.362123 -0.134949
0.106791 -0.352293 -0.140229
0.111639 -0.356899 -0.128041
0.101116 -0.346767 -0.154992
0.109926 -0.335787 -0.155985
0.112911 -0.341628 -0.145500
0.098267 -0.343588 -0.162661
0.101353 -0.333827 -0.169055
0.110936 -0.319997 -0.171984
0.113854 -0.326202 -0.161582
0.098496 -0.327390 -0.179321
0.101581 -0.317233 -0.185997
0.110590 -0.303938 -0.188493
0.114284 -0.310249 -0.178434
0.098251 -0.310767 -0.196286
0.101597 -0.302533 -0.199943
0.107850 -0.287846 -0.206515
0.113606 -0.293184 -0.195073
0.102053 -0.282459 -0.217951
0.107188 -0.270509 -0.223094
0.113006 -0.275833 -0.212040
0.101428 -0.265244 -0.233172
0.106089 -0.252654 -0.237964
0.112392 -0.258456 -0.228037
0.099860 -0.246953 -0.247144
0.105794 -0.235710 -0.249776
0.110830 -0.240423 -0.242843
0.107440 -0.221396 -0.257717
0.102616 -0.216658 -0.264282
0.106688 -0.204258 -0.269676
0.113571 -0.210784 -0.260640
0.099788 -0.197710 -0.279009
0.105711 -0.186875 -0.281355
0.110748 -0.191168 -0.275069
0.105500 -0.172071 -0.288868
0.099425 -0.166596 -0.295348
0.101715 -0.155973 -0.296521
0.109927 -0.155970 -0.291240
0.104607 -0.139403 -0.297946
0.112795 -0.139448 -0.293139
0.107781 -0.124043 -0.298448
0.114172 -0.130154 -0.294020
0.106342 -0.106528 -0.302742
0.106415 -0.091199 -0.307357
0.101001 -0.086470 -0.312600
0.103415 -0.073252 -0.314188
0.111584 -0.073322 -0.308837
0.104925 -0.057401 -0.314810
0.113089 -0.057390 -0.309971
0.107673 -0.042177 -0.316205
0.113958 -0.048320 -0.310602
0.106585 -0.025447 -0.323353
0.101194 -0.020523 -0.329142
0.103759 -0.008106 -0.330596
0.111959 -0.008054 -0.325336
0.107467 0.008025 -0.331298
0.113606 0.002793 -0.326485
0.104787 0.026106 -0.337345
0.098174 0.032868 -0.343512
0.099821 0.041357 -0.344597
0.108043 0.041349 -0.339171
0.102457 0.057693 -0.345998
0.110643 0.057674 -0.340900
0.106909 0.074850 -0.346397
0.112641 0.070258 -0.342196
0.106507 0.090216 -0.348924
0.106539 0.107056 -0.350462
0.106526 0.123561 -0.350636
0.106489 0.140013 -0.350877
0.106447 0.156721 -0.352956
0.105253 0.171805 -0.355795
0.098939 0.176226 -0.359994
0.099679 0.189481 -0.360482
0.107955 0.189580 -0.355751
0.101031 0.205623 -0.361406
0.109277 0.205788 -0.356590
0.103523 0.222001 -0.363225
0.111689 0.222107 -0.358010
0.107380 0.238630 -0.364112
0.113526 0.233329 -0.359224
0.106438 0.254866 -0.366577
0.106618 0.271379 -0.368555
0.105598 0.288258 -0.372450
0.099432 0.293985 -0.377137
0.106448 0.319205 -0.371724
0.106325 0.335138 -0.370066
0.106264 0.351785 -0.367822
0.122827 -0.783832 0.381031
0.122847 -0.775714 0.374577
0.122852 -0.764951 0.366240
0.122865 -0.756810 0.360182
0.122865 -0.716189 0.332936
0.122837 -0.708040 0.327699
0.122765 -0.695722 0.320163
0.122724 -0.686543 0.314307
0.122699 -0.678515 0.309352
0.122652 -0.664436 0.301064
0.122646 -0.656270 0.296522
0.122664 -0.646718 0.291170
0.122706 -0.633570 0.283574
0.122752 -0.625299 0.279044
0.122809 -0.613647 0.272797
0.122856 -0.601504 0.266108
0.122891 -0.593292 0.262295
0.122931 -0.580661 0.257283
0.122985 -0.564202 0.251224
0.123015 -0.554594 0.247740
0.123020 -0.546458 0.243074
0.123003 -0.535579 0.234922
0.123777 -0.527724 0.222490
0.118097 -0.524734 0.207133
0.126270 -0.520354 0.207111
0.129816 -0.522478 0.216633
0.114999 -0.523336 0.198369
0.121447 -0.517510 0.192025
0.123776 -0.510467 0.173304
0.118959 -0.508329 0.160882
0.123832 -0.504274 0.156114
0.129853 -0.506229 0.167113
0.122927 -0.498232 0.140736
0.122405 -0.492900 0.125731
0.116636 -0.491405 0.114103
0.122393 -0.486512 0.108486
0.127478 -0.488987 0.121228
0.122897 -0.478577 0.091665
0.117465 -0.475785 0.080976
0.122861 -0.470315 0.075509
0.128389 -0.473192 0.086101
0.122135 -0.461806 0.059289
0.116274 -0.459094 0.049325
0.123557 -0.450452 0.041812
0.127216 -0.455956 0.053755
0.118707 -0.444084 0.025759
0.126900 -0.438632 0.025902
0.130863 -0.441605 0.034283
0.114714 -0.441696 0.017063
0.121525 -0.432343 0.010843
0.117470 -0.427030 -0.001900
0.122917 -0.420058 -0.007143
0.128324 -0.423142 0.004380
0.121860 -0.411724 -0.022344
0.115734 -0.409236 -0.032627
0.121824 -0.401844 -0.038759
0.126597 -0.405820 -0.027203
0.121662 -0.393873 -0.054881
0.115457 -0.392560 -0.065672
0.123134 -0.384254 -0.073198
0.126320 -0.389164 -0.059569
0.119939 -0.379310 -0.086432
0.124388 -0.373039 -0.090814
0.130820 -0.375698 -0.080795
0.122281 -0.364294 -0.104905
0.116449 -0.361156 -0.116521
0.122198 -0.351095 -0.122444
0.127350 -0.356348 -0.109887
0.117060 -0.345908 -0.134707
0.123211 -0.335521 -0.140475
0.127958 -0.340510 -0.128422
0.118488 -0.330594 -0.151742
0.123458 -0.322241 -0.156013
0.129413 -0.325156 -0.146213
0.122712 -0.314146 -0.166278
0.122710 -0.306268 -0.174473
0.122748 -0.298155 -0.182281
0.124032 -0.286912 -0.191774
0.119449 -0.282079 -0.200230
0.124557 -0.270909 -0.206476
0.130326 -0.277038 -0.195692
0.118742 -0.264746 -0.216932
0.123647 -0.253636 -0.222641
0.129669 -0.259776 -0.212684
0.117680 -0.247489 -0.232357
0.122086 -0.235958 -0.237673
0.128583 -0.242521 -0.228275
0.115679 -0.229451 -0.246915
0.121794 -0.219386 -0.249555
0.126527 -0.224348 -0.242871
0.123904 -0.204692 -0.258062
0.119174 -0.199903 -0.264136
0.122597 -0.187686 -0.269424
0.130037 -0.194567 -0.260992
0.115129 -0.180797 -0.278437
0.118097 -0.172226 -0.280170
0.126267 -0.172105 -0.274887
0.123601 -0.156393 -0.282722
0.129649 -0.162206 -0.277168
0.122701 -0.139336 -0.287682
0.121913 -0.124078 -0.290681
0.115961 -0.119310 -0.294824
0.118866 -0.106660 -0.295998
0.126995 -0.106712 -0.291662
0.123650 -0.090797 -0.298190
0.129722 -0.097081 -0.293300
0.122685 -0.073296 -0.303018
0.122743 -0.057291 -0.304930
0.122745 -0.041959 -0.307920
0.117290 -0.037131 -0.312225
0.122753 -0.024056 -0.314289
0.128138 -0.029394 -0.309392
0.122820 -0.007898 -0.318872
0.121745 0.008080 -0.322273
0.115574 0.013468 -0.327753
0.117618 0.024453 -0.329013
0.125770 0.024428 -0.323129
0.120802 0.041390 -0.331044
0.128958 0.041434 -0.325649
0.124250 0.056503 -0.332432
0.130666 0.050452 -0.327029
0.121343 0.074931 -0.338469
0.114955 0.081015 -0.343483
0.115882 0.090222 -0.343926
0.123988 0.090328 -0.339441
0.117148 0.107085 -0.344530
0.125217 0.107127 -0.339893
0.117298 0.123541 -0.344523
0.125368 0.123509 -0.339727
0.117469 0.139925 -0.344567
0.125559 0.139816 -0.339706
0.119087 0.156620 -0.345485
0.127179 0.156486 -0.340657
0.120898 0.173265 -0.346609
0.129007 0.173145 -0.341790
0.121863 0.189548 -0.347435
0.130021 0.189428 -0.342433
0.124045 0.204961 -0.347542
0.130485 0.198828 -0.342763
0.122529 0.222275 -0.351413
0.121237 0.238860 -0.355271
0.114936 0.244301 -0.360219
0.115881 0.254939 -0.360919
0.124036 0.255058 -0.355477
0.117826 0.271437 -0.362033
0.125957 0.271480 -0.356827
0.123081 0.289283 -0.362877
0.128550 0.284626 -0.358458
0.121710 0.319302 -0.363874
0.129935 0.319362 -0.359573
0.119716 0.335209 -0.362981
0.127932 0.335257 -0.358474
0.117265 0.351801 -0.361726
0.125449 0.351790 -0.356810
0.139213 -0.803286 0.394418
0.139236 -0.766141 0.365146
0.139245 -0.758025 0.359379
0.139239 -0.746777 0.351091
0.139236 -0.738649 0.345060
0.139245 -0.728441 0.338564
0.139252 -0.717851 0.331714
0.139220 -0.709732 0.326727
0.139029 -0.665747 0.300454
0.139033 -0.657577 0.295761
0.139072 -0.646591 0.289498
0.139124 -0.634688 0.282702
0.139157 -0.626461 0.278630
0.139202 -0.613653 0.272331
0.139244 -0.601725 0.266089
0.139282 -0.593501 0.262359
0.139322 -0.580674 0.257340
0.139372 -0.564203 0.251715
0.139395 -0.553136 0.248199
0.139409 -0.544969 0.244757
0.140878 -0.530923 0.235436
0.136455 -0.525190 0.227150
0.140909 -0.520539 0.222375
0.147341 -0.523050 0.230789
0.140027 -0.512192 0.206727
0.135628 -0.509389 0.190657
0.143837 -0.504442 0.190645
0.146021 -0.505824 0.200851
0.133164 -0.507910 0.178322
0.138914 -0.502737 0.173265
0.139762 -0.495483 0.156980
0.133867 -0.492098 0.140583
0.142041 -0.487011 0.140526
0.145538 -0.489247 0.151117
0.131289 -0.490606 0.131984
0.137748 -0.484627 0.125743
0.138994 -0.477838 0.109059
0.133401 -0.475758 0.097153
0.138994 -0.469862 0.091771
0.144295 -0.472452 0.104113
0.138763 -0.462014 0.075940
0.133030 -0.459382 0.064681
0.139763 -0.450241 0.057962
0.143964 -0.455533 0.070752
0.135579 -0.444933 0.045104
0.140331 -0.438097 0.040693
0.146521 -0.440842 0.051081
0.138648 -0.429582 0.027320
0.132843 -0.426630 0.015517
0.139844 -0.417200 0.008836
0.143753 -0.422236 0.022726
0.135240 -0.411680 -0.006996
0.143417 -0.405357 -0.007154
0.146843 -0.408201 0.001999
0.131721 -0.409208 -0.016400
0.138989 -0.399747 -0.023390
0.134489 -0.394243 -0.039753
0.142664 -0.387735 -0.039850
0.146269 -0.391064 -0.030338
0.131260 -0.392281 -0.048410
0.137812 -0.382779 -0.054224
0.133442 -0.378267 -0.069751
0.139963 -0.368713 -0.074352
0.144357 -0.372522 -0.060033
0.135061 -0.364233 -0.089132
0.143252 -0.355574 -0.089042
0.146471 -0.358680 -0.078964
0.131893 -0.360500 -0.098636
0.138049 -0.350228 -0.104322
0.133282 -0.345334 -0.116718
0.139053 -0.334714 -0.122759
0.144210 -0.339999 -0.110041
0.133908 -0.329447 -0.135452
0.139459 -0.318889 -0.140294
0.144841 -0.323551 -0.128840
0.133392 -0.313407 -0.155066
0.142382 -0.302358 -0.156021
0.145051 -0.307844 -0.145047
0.131016 -0.310538 -0.162433
0.134016 -0.300731 -0.168832
0.142900 -0.289704 -0.170379
0.146779 -0.293574 -0.161428
0.131009 -0.294243 -0.178723
0.137552 -0.284267 -0.181974
0.140509 -0.270604 -0.192244
0.135991 -0.265971 -0.200975
0.140768 -0.254695 -0.206372
0.146899 -0.260460 -0.195841
0.134604 -0.248893 -0.217059
0.139695 -0.237175 -0.222265
0.145516 -0.242754 -0.211646
0.133875 -0.231589 -0.232239
0.138532 -0.219472 -0.237292
0.144788 -0.225721 -0.227445
0.132342 -0.213269 -0.246837
0.138346 -0.202753 -0.249517
0.143237 -0.207531 -0.242343
0.139327 -0.188675 -0.257368
0.133936 -0.184133 -0.263797
0.139291 -0.171309 -0.266163
0.144840 -0.176154 -0.259892
0.138652 -0.156170 -0.273111
0.132849 -0.151048 -0.279249
0.135206 -0.139201 -0.280589
0.143381 -0.139131 -0.274979
0.136758 -0.123088 -0.281614
0.144933 -0.123059 -0.275726
0.139828 -0.106460 -0.282502
0.145804 -0.111823 -0.276184
0.138840 -0.090793 -0.289169
0.133251 -0.085722 -0.295170
0.135646 -0.073236 -0.296531
0.143824 -0.073219 -0.291290
0.137283 -0.057152 -0.297511
0.145449 -0.057098 -0.292770
0.140205 -0.041547 -0.298839
0.146369 -0.047590 -0.293589
0.138469 -0.023755 -0.305833
0.132572 -0.018056 -0.311604
0.134227 -0.007731 -0.312572
0.142378 -0.007654 -0.307493
0.135555 0.008014 -0.313367
0.143714 0.008057 -0.308279
0.139558 0.025986 -0.314035
0.145259 0.021335 -0.309311
0.139150 0.041472 -0.318440
0.138893 0.056646 -0.323252
0.133263 0.061072 -0.328432
0.136262 0.073925 -0.329928
0.144419 0.073976 -0.324959
0.140341 0.090949 -0.330381
0.146582 0.085692 -0.326350
0.139094 0.107165 -0.332085
0.139092 0.123424 -0.331945
0.139090 0.139620 -0.331846
0.139069 0.156289 -0.333444
0.139043 0.172996 -0.335459
0.139043 0.189296 -0.336578
0.137957 0.204854 -0.338831
0.131726 0.209868 -0.343590
0.133645 0.222439 -0.344798
0.141899 0.222493 -0.339676
0.135916 0.239013 -0.346217
0.144156 0.239121 -0.341215
0.136866 0.255229 -0.347113
0.145062 0.255309 -0.341878
0.139978 0.272038 -0.347746
0.145923 0.266937 -0.342525
0.137839 0.289289 -0.354209
0.131455 0.295666 -0.360093
0.139263 0.319340 -0.353923
0.139184 0.335236 -0.351683
0.135287 0.368089 -0.346491
0.143473 0.368058 -0.341470
0.155616 -0.826942 0.435026
0.155572 -0.825762 0.419886
0.155550 -0.820514 0.409710
0.155601 -0.813083 0.401430
0.155661 -0.804953 0.393063
0.155676 -0.795706 0.384736
0.155688 -0.787555 0.377990
0.155670 -0.748489 0.349795
0.155652 -0.740412 0.344062
0.155654 -0.728476 0.336635
0.155654 -0.719148 0.330817
0.155614 -0.711069 0.326051
0.155565 -0.697547 0.317782
0.155553 -0.689352 0.312513
0.155550 -0.679353 0.306156
0.155542 -0.668076 0.299038
0.155538 -0.659937 0.294883
0.155560 -0.646621 0.287891
0.155572 -0.636108 0.281982
0.155580 -0.627949 0.278150
0.155590 -0.613748 0.271456
0.155602 -0.602426 0.265757
0.155625 -0.594222 0.262390
0.155673 -0.580755 0.257704
0.155740 -0.564254 0.252885
0.157229 -0.547868 0.248701
0.152778 -0.542469 0.246136
0.157288 -0.532977 0.241493
0.163699 -0.539424 0.247265
0.155804 -0.520437 0.232487
0.156059 -0.512306 0.222994
0.150823 -0.508642 0.211869
0.156091 -0.502836 0.206717
0.161741 -0.505436 0.217701
0.156691 -0.495834 0.190415
0.152165 -0.493986 0.174038
0.160404 -0.487486 0.174052
0.162869 -0.489611 0.184634
0.149336 -0.491881 0.162452
0.156358 -0.482874 0.156154
0.153041 -0.478832 0.140543
0.161244 -0.471991 0.140576
0.163369 -0.473687 0.149761
0.149885 -0.476169 0.124356
0.158075 -0.469562 0.124344
0.148172 -0.474853 0.115063
0.155514 -0.466066 0.108452
0.151710 -0.461502 0.091840
0.159917 -0.454409 0.091807
0.162889 -0.457165 0.101689
0.148577 -0.459079 0.081816
0.155087 -0.449336 0.075983
0.150677 -0.444579 0.062300
0.156776 -0.434617 0.056977
0.161630 -0.439360 0.070086
0.151116 -0.429016 0.042294
0.159365 -0.421050 0.042347
0.162896 -0.424163 0.051677
0.147857 -0.425589 0.033556
0.154632 -0.415957 0.027651
0.150437 -0.411224 0.013199
0.157145 -0.401693 0.007173
0.161391 -0.406125 0.021628
0.152844 -0.397104 -0.007371
0.161068 -0.388866 -0.007592
0.163832 -0.392161 0.001029
0.149166 -0.393662 -0.019762
0.155371 -0.383961 -0.024091
0.150139 -0.379543 -0.039931
0.158950 -0.367468 -0.040849
0.161588 -0.372899 -0.028449
0.147866 -0.376380 -0.049006
0.151447 -0.367272 -0.055160
0.160347 -0.355704 -0.056252
0.163028 -0.358447 -0.046763
0.149064 -0.361692 -0.067985
0.155921 -0.351553 -0.073053
0.151423 -0.347283 -0.088934
0.159628 -0.338084 -0.088870
0.162765 -0.341715 -0.078181
0.148376 -0.344086 -0.098798
0.154368 -0.333383 -0.103716
0.149412 -0.328986 -0.117020
0.154742 -0.317309 -0.122040
0.160357 -0.322041 -0.108720
0.149133 -0.312667 -0.134349
0.155015 -0.301391 -0.139258
0.160111 -0.305895 -0.127035
0.149925 -0.296946 -0.151855
0.156208 -0.286679 -0.156049
0.160919 -0.290796 -0.144149
0.150596 -0.281404 -0.170355
0.159152 -0.270060 -0.171206
0.162483 -0.276008 -0.160258
0.147454 -0.277651 -0.178783
