0.156660 -0.336090 0.336873
0.151800 -0.331162 0.345229
0.155824 -0.322072 0.351892
0.162787 -0.329549 0.343143
0.155697 -0.344956 0.325479
0.150526 -0.316836 0.525477
0.143314 -0.309718 0.536811
0.141500 -0.322130 0.531369
0.155989 -0.307085 0.531254
0.148824 -0.314562 0.360580
0.154884 -0.305806 0.365239
0.159830 -0.311658 0.358670
0.156592 -0.288546 0.541876
0.155892 -0.298642 0.541345
0.151510 -0.277388 0.541895
0.155642 -0.283799 0.379257
0.155678 -0.292010 0.374856
0.146361 -0.266449 0.541773
0.156516 -0.272204 0.539981
0.155739 -0.256254 0.533556
0.155772 -0.245504 0.525749
0.155769 -0.237299 0.518915
0.154811 -0.224384 0.510404
0.151180 -0.233798 0.394726
0.156193 -0.239372 0.393024
0.162054 -0.230428 0.394011
0.156148 -0.224207 0.396619
0.148646 -0.213744 0.507802
0.154742 -0.207772 0.503749
0.155600 -0.190599 0.497280
0.155611 -0.177471 0.492282
0.155619 -0.169259 0.490001
0.154131 -0.156575 0.490289
0.147585 -0.149352 0.492164
0.147591 -0.150359 0.492120
0.154099 -0.142820 0.489258
0.157137 -0.123291 0.481353
0.153125 -0.108494 0.478184
0.149601 -0.097002 0.476704
0.155228 -0.091695 0.472696
0.156598 -0.074505 0.465606
0.151720 -0.059151 0.462510
0.148532 -0.047902 0.460604
0.154554 -0.042441 0.453549
0.155386 -0.026173 0.448182
0.155407 -0.013768 0.444005
0.155415 -0.005588 0.439945
0.155779 0.007651 0.431201
0.150504 0.016623 0.426832
0.155780 0.022812 0.420627
0.155467 0.035442 0.412359
0.155451 0.043883 0.406424
0.155157 0.056868 0.398695
0.149435 0.065911 0.395971
0.149155 0.072007 0.385908
0.147833 0.081514 0.379522
0.147835 0.081527 0.378693
0.158954 0.270791 0.287189
0.158758 0.255491 0.285824
0.160266 0.255847 0.298993
0.160249 0.266229 0.299216
0.159235 0.258309 0.270295
0.159310 0.270719 0.269585
0.159403 0.259711 0.254621
0.158106 0.271054 0.255755
0.151799 0.270055 0.238933
0.159645 0.261264 0.238659
0.161180 0.262279 0.230329
0.155505 0.270758 0.226451
0.162169 0.281284 0.283109
0.162118 0.281335 0.274654
0.148866 0.281835 0.244699
0.155071 0.285930 0.254784
0.155623 0.299689 0.253900
0.161421 0.290471 0.266624
0.161487 0.297058 0.266676
0.155235 0.308347 0.242574
0.155328 0.314556 0.234486
0.155422 0.319716 0.222214
0.155627 0.326032 0.204890
0.150175 0.327962 0.194079
0.152074 0.337951 0.192479
0.160399 0.338021 0.200328
0.153262 0.354592 0.191465
0.161623 0.354610 0.199671
0.153824 0.372286 0.187866
0.163338 0.371067 0.197324
0.164240 0.379357 0.195440
0.158963 0.385878 0.189333
0.148134 0.378578 0.180781
0.149405 0.387485 0.179417
0.149610 0.397795 0.178867
0.154884 0.402257 0.188822
0.151952 0.420784 0.221161
0.161236 0.408182 0.219722
0.162631 0.409654 0.231175
0.157478 0.418276 0.237300
0.151115 0.416604 0.203244
0.159348 0.405821 0.203284
0.149216 0.413859 0.192498
0.154108 0.435088 0.301853
0.162799 0.424347 0.304793
0.163683 0.425227 0.313987
0.160504 0.433046 0.318214
0.161656 0.423398 0.288879
0.153470 0.432296 0.287849
0.152529 0.430515 0.272317
0.160690 0.422861 0.272340
0.150908 0.429438 0.255694
0.159064 0.421477 0.255104
0.148757 0.428458 0.237759
0.147685 0.427806 0.227778
0.155781 0.450433 0.317202
0.162554 0.437989 0.327744
0.162548 0.444254 0.327599
0.149172 0.445706 0.305059
0.155921 0.459611 0.313013
0.149188 0.449502 -0.105686
0.141821 0.449980 -0.120705
0.145944 0.454197 -0.110947
0.147686 0.444168 -0.113943
0.155364 0.467798 0.300517
0.149608 0.474969 0.294888
0.150577 0.466650 -0.074157
0.145148 0.470234 -0.090194
0.146712 0.472760 -0.078952
0.149128 0.462001 -0.090413
0.142937 0.465241 -0.106271
0.147947 0.459290 -0.100510
0.152052 0.476550 0.284925
0.154499 0.478972 0.268845
0.145488 0.489051 0.252118
0.155062 0.480758 0.253272
0.154623 0.481464 0.238176
0.146746 0.489711 0.236762
0.155490 0.482058 0.222828
0.147195 0.490041 0.228188
0.147845 0.490693 0.218267
0.152307 0.483329 -0.006056
0.146063 0.488306 -0.023283
0.147022 0.489670 -0.010962
0.151778 0.480052 -0.023500
0.150118 0.477927 -0.041295
0.144599 0.486216 -0.040870
0.142823 0.484083 -0.057867
0.148666 0.475772 -0.058187
0.147801 0.474449 -0.068271
0.141980 0.480831 -0.073742
0.148671 0.491460 0.206952
0.139862 0.499648 0.205912
0.149679 0.492283 0.190632
0.140345 0.500464 0.190442
0.140538 0.500834 0.174189
0.150265 0.492648 0.174195
0.150761 0.492946 0.157072
0.140792 0.501152 0.157492
0.141119 0.501630 0.140482
0.151257 0.493413 0.139239
0.142053 0.502255 0.122748
0.151745 0.494021 0.121743
0.142921 0.502782 0.104987
0.152202 0.494510 0.104819
0.152434 0.494923 0.088382
0.143549 0.503251 0.088234
0.152362 0.495233 0.072909
0.144213 0.503577 0.072089
0.152051 0.495308 0.058281
0.144645 0.503608 0.057384
0.143929 0.502575 0.042541
0.151067 0.494338 0.042816
0.149564 0.492498 0.026217
0.141988 0.500737 0.026282
0.140776 0.499381 0.009805
0.148345 0.491149 0.009729
0.147736 0.490520 -0.000100
0.141431 0.497008 -0.006174
0.171270 -0.714070 0.661016
0.176497 -0.722421 0.647761
0.175963 -0.723094 0.656852
0.168290 -0.717718 0.647736
0.179557 -0.720595 0.641089
0.172894 -0.711381 0.634121
0.172684 -0.696983 0.666371
0.170917 -0.696422 0.615762
0.177208 -0.705239 0.622010
0.166309 -0.701902 0.627015
0.172595 -0.681384 0.662312
0.166482 -0.684956 0.600652
0.174685 -0.691329 0.600696
0.164645 -0.686620 0.609449
0.177660 -0.688992 0.586743
0.172236 -0.683238 0.582112
0.171368 -0.665896 0.656443
0.172159 -0.662395 0.532756
0.178181 -0.672250 0.539633
0.172550 -0.674316 0.551273
0.167188 -0.668134 0.546399
0.165056 -0.656660 0.654580
0.170837 -0.646977 0.514290
0.177085 -0.656640 0.521050
0.166148 -0.652937 0.525853
0.172344 -0.649028 0.647234
0.168623 -0.638114 0.642785
0.164587 -0.637765 0.507459
0.175442 -0.640957 0.503747
0.169942 -0.631535 0.497599
0.172050 -0.632605 0.634011
0.160523 -0.627422 0.637545
0.164650 -0.624252 0.626484
0.164415 -0.621412 0.491351
0.175294 -0.625321 0.487502
0.170711 -0.618034 0.482807
0.158881 -0.613504 0.620193
0.170122 -0.617759 0.615944
0.164684 -0.605290 0.608935
0.168621 -0.602279 0.464593
0.179493 -0.605926 0.459991
0.173268 -0.608729 0.469092
0.174041 -0.595775 0.453774
0.169203 -0.600091 0.600431
0.163256 -0.594379 0.607185
0.167072 -0.586976 0.595291
0.161339 -0.582602 0.600326
0.168603 -0.586109 0.447464
0.179549 -0.589177 0.444246
0.173180 -0.580724 0.440498
0.170040 -0.582494 0.583128
0.163761 -0.576055 0.589876
0.165922 -0.574534 0.578434
0.159170 -0.563774 0.569784
0.171804 -0.568615 0.567543
0.172337 -0.550571 0.558387
0.172286 -0.535986 0.557346
0.167109 -0.538853 0.412263
0.178060 -0.540824 0.410696
0.172369 -0.547055 0.416746
0.172303 -0.532806 0.407423
0.172161 -0.518768 0.557979
0.172081 -0.509133 0.556641
0.172044 -0.500970 0.551846
0.171967 -0.485943 0.545321
0.171881 -0.469529 0.543003
0.171846 -0.458329 0.541356
0.171768 -0.457963 0.532206
0.171315 -0.454108 0.513874
0.165483 -0.444162 0.507886
0.171490 -0.437731 0.503202
0.172360 -0.419857 0.501983
0.172426 -0.409596 0.505558
0.172432 -0.401522 0.512616
0.172436 -0.389285 0.512640
0.159473 -0.380229 0.506136
0.172497 -0.381173 0.505596
0.172407 -0.371069 0.498130
0.172407 -0.354700 0.494685
0.165263 -0.364070 0.297931
0.171015 -0.369301 0.295095
0.176098 -0.361180 0.296123
0.172275 -0.354994 0.305063
0.171368 -0.337035 0.501989
0.168404 -0.348524 0.315128
0.179267 -0.345898 0.312553
0.173178 -0.342451 0.320477
0.165095 -0.330715 0.507015
0.168654 -0.321911 0.509521
0.172208 -0.333426 0.333039
0.174622 -0.306967 0.516177
0.161608 -0.311747 0.521143
0.172251 -0.327565 0.340890
0.172252 -0.319317 0.348992
0.164706 -0.293672 0.540280
0.164725 -0.297609 0.540186
0.172187 -0.301804 0.364372
0.172215 -0.310077 0.357254
0.162610 -0.282730 0.539973
0.172299 -0.289235 0.532606
0.172300 -0.272655 0.535325
0.172119 -0.281153 0.377911
0.172139 -0.289376 0.373044
0.170716 -0.255285 0.528369
0.164189 -0.248002 0.523398
0.171832 -0.239908 0.514957
0.168482 -0.230468 0.507637
0.159723 -0.219534 0.505500
0.173246 -0.224375 0.505078
0.172143 -0.206999 0.500913
0.171902 -0.227748 0.393485
0.171905 -0.219460 0.395747
0.172131 -0.190576 0.495378
0.172127 -0.180761 0.491183
0.172118 -0.172543 0.488656
0.172093 -0.157651 0.487542
0.172059 -0.141220 0.485913
0.172007 -0.126683 0.479452
0.163678 -0.116747 0.475444
0.171966 -0.118497 0.474178
0.171951 -0.108366 0.470237
0.161357 -0.108457 0.474263
0.171970 -0.091859 0.465955
0.171981 -0.079339 0.461553
0.162901 -0.068236 0.458530
0.171950 -0.071088 0.457068
0.171898 -0.058794 0.450628
0.159993 -0.059025 0.455925
0.172999 -0.041363 0.444458
0.169480 -0.025901 0.443271
0.166834 -0.016781 0.442536
0.172168 -0.010516 0.438553
0.171958 0.005225 0.429770
0.171953 0.013511 0.424291
0.161516 0.013927 0.424628
0.171976 0.023925 0.418226
0.172000 0.036050 0.411725
0.171368 0.040844 0.402725
0.167317 0.052205 0.397235
0.167325 0.052357 0.394401
0.154008 0.058246 0.388144
0.175598 0.235178 0.318105
0.177934 0.227485 0.317919
0.179095 0.227567 0.327657
0.179075 0.228727 0.327724
0.170517 0.236633 0.302285
0.177615 0.227881 0.302825
0.175228 0.238036 0.288620
0.178580 0.228387 0.295177
0.164273 0.251341 0.303489
0.172360 0.252676 0.313949
0.166841 0.247466 0.286446
0.178488 0.244266 0.278435
0.172355 0.250889 0.272134
0.169034 0.271391 0.304416
0.174311 0.265204 0.312435
0.163700 0.277495 0.293613
0.166805 0.287183 0.288143
0.174940 0.287136 0.299642
0.163801 0.277357 0.264251
0.163797 0.277406 0.262269
0.163811 0.278826 0.262243
0.164280 0.286040 0.270887
0.178564 0.297490 0.297707
0.175772 0.298996 0.287875
0.170878 0.301348 0.272115
0.170731 0.309570 0.256724
0.164563 0.312167 0.246566
0.171581 0.321372 0.239910
0.175608 0.316142 0.252252
0.167499 0.326711 0.221621
0.171090 0.338076 0.221791
0.177485 0.338119 0.235581
0.165069 0.328842 0.210069
0.165786 0.338056 0.208706
0.178172 0.356045 0.239935
0.171454 0.354630 0.222199
0.166031 0.354622 0.208226
0.173191 0.350161 0.059895
0.179190 0.346348 0.066340
0.173131 0.344511 0.074138
0.168224 0.347331 0.068241
0.178310 0.370479 0.239737
0.180358 0.362449 0.247439
0.180371 0.364693 0.247130
0.172330 0.371051 0.221560
0.166839 0.371062 0.205806
0.164794 0.363130 0.034230
0.175781 0.361836 0.031213
0.171136 0.358862 0.040601
0.171173 0.365822 0.025388
0.171829 0.387321 0.220283
0.177188 0.385908 0.238088
0.166888 0.385857 0.201932
0.168913 0.403699 0.236594
0.179900 0.390200 0.245274
0.175664 0.402545 0.252200
0.167552 0.400051 0.219736
0.165927 0.397687 0.203339
0.164470 0.390288 0.194901
0.164498 0.395855 0.194793
0.175094 0.416003 0.336035
0.178989 0.408089 0.321649
0.179941 0.408891 0.332449
0.169842 0.418917 0.319946
0.177380 0.406578 0.305112
0.169138 0.416376 0.305078
0.168423 0.415380 0.288800
0.176668 0.405970 0.288183
0.168485 0.414796 0.271893
0.176695 0.406144 0.271035
0.166731 0.413391 0.254276
0.164766 0.411958 0.242718
0.175869 0.433244 0.349570
0.176113 0.418846 0.350743
0.178350 0.421634 0.361023
0.178301 0.427729 0.360999
0.167711 0.432842 0.333624
0.164735 0.427319 0.323348
0.172825 0.445091 0.333450
0.178723 0.442188 0.343981
0.167556 0.434726 -0.074157
0.159526 0.435447 -0.089488
0.163181 0.440492 -0.080296
0.165349 0.430716 -0.083105
0.172738 0.453290 0.318525
0.167557 0.459645 0.313757
0.168420 0.447583 -0.042053
0.162742 0.455828 -0.042253
0.163844 0.457308 -0.033262
0.169906 0.450825 -0.026782
0.161060 0.453513 -0.058684
0.166317 0.445237 -0.058382
0.159802 0.449187 -0.075251
0.164882 0.443394 -0.069805
0.169833 0.461433 0.301336
0.160145 0.471176 0.284850
0.170315 0.462862 0.285550
0.162562 0.472654 0.269118
0.170410 0.464427 0.270548
0.170648 0.464924 0.255400
0.163199 0.473124 0.254407
0.170816 0.464447 0.239769
0.162809 0.472651 0.239575
0.163114 0.473020 0.227738
0.169975 0.466786 0.222718
0.164125 0.474102 0.216732
0.168539 0.467064 0.024231
0.162933 0.472063 0.008526
0.163763 0.473439 0.017857
0.167567 0.463829 0.008086
0.161569 0.469984 -0.007375
0.166282 0.461691 -0.008261
0.165114 0.459670 -0.021622
0.160691 0.465402 -0.025870
0.164859 0.474811 0.207042
0.156905 0.482999 0.207043
0.165999 0.475835 0.190590
0.157909 0.484040 0.190620
0.158508 0.484925 0.173957
0.167095 0.476698 0.173668
0.167672 0.477340 0.155665
0.158998 0.485565 0.156446
0.159457 0.485826 0.138463
0.167826 0.477593 0.137897
0.168354 0.477903 0.121139
0.159884 0.486190 0.121174
0.168596 0.478197 0.104684
0.160333 0.486533 0.104577
0.168089 0.478175 0.089478
0.160551 0.486498 0.088756
0.167336 0.477843 0.074808
0.160496 0.486132 0.073950
0.160212 0.485538 0.059017
0.166652 0.477272 0.059261
0.165690 0.476084 0.042849
0.159260 0.484324 0.042867
0.158884 0.480972 0.024827
0.164682 0.474748 0.029977
0.189998 -0.730641 0.648458
0.196389 -0.737191 0.653316
0.196411 -0.737253 0.654745
0.190168 -0.728911 0.658512
0.189090 -0.713098 0.665282
0.189016 -0.697261 0.663865
0.184873 -0.699547 0.600684
0.192964 -0.705722 0.600713
0.187993 -0.708890 0.616808
0.182253 -0.701826 0.611051
0.195385 -0.704380 0.590375
0.187981 -0.695314 0.582873
0.188892 -0.681074 0.657584
0.180562 -0.687106 0.575323
0.190163 -0.691456 0.566901
0.182048 -0.685905 0.566881
0.185891 -0.682970 0.550028
0.194013 -0.688996 0.549868
0.190511 -0.677589 0.534239
0.196603 -0.687378 0.540907
0.183335 -0.671912 0.655052
0.189376 -0.661929 0.516027
0.195282 -0.671960 0.522146
0.184402 -0.667597 0.527424
0.175978 -0.660902 0.651796
0.188653 -0.666231 0.649612
0.188440 -0.652567 0.643284
0.183464 -0.651933 0.509871
0.194259 -0.656221 0.505056
0.188333 -0.646182 0.499215
0.188347 -0.644484 0.639410
0.179483 -0.641624 0.641423
0.188298 -0.637527 0.631182
0.182400 -0.636209 0.493258
0.193167 -0.640427 0.488586
0.187446 -0.630815 0.483050
0.175536 -0.626900 0.622895
0.189839 -0.628648 0.617148
0.185503 -0.622149 0.611691
0.187541 -0.617267 0.467987
0.192530 -0.625465 0.473166
0.181722 -0.620618 0.477522
0.189866 -0.619004 0.601179
0.176322 -0.610854 0.599316
0.188611 -0.611620 0.582657
0.179634 -0.609074 0.588994
0.178306 -0.599418 0.582574
0.183416 -0.604244 0.577443
0.188721 -0.599529 0.570808
0.179878 -0.593205 0.572621
0.177432 -0.583997 0.571773
0.188603 -0.584158 0.567943
0.188664 -0.567862 0.562634
0.182367 -0.571179 0.428955
0.193368 -0.573870 0.427006
0.188040 -0.579962 0.433855
0.188101 -0.565326 0.424096
0.188622 -0.553352 0.557526
0.177846 -0.544477 0.555851
0.188579 -0.545179 0.555756
0.189427 -0.536017 0.555678
0.177805 -0.542010 0.555834
0.184660 -0.531078 0.556725
0.183610 -0.518772 0.556594
0.180354 -0.510454 0.556114
0.187727 -0.502672 0.548101
0.183655 -0.485951 0.541524
0.180974 -0.469535 0.540139
0.188532 -0.486188 0.514527
0.178824 -0.478987 0.521616
0.178795 -0.478988 0.525992
0.184834 -0.485075 0.531496
0.183711 -0.469486 0.511365
0.176891 -0.469497 0.519553
0.180745 -0.460665 0.539940
0.182004 -0.459458 0.508926
0.180748 -0.460671 0.538315
0.176373 -0.448508 0.505670
0.187822 -0.453562 0.504327
0.188527 -0.436354 0.500318
0.188686 -0.419722 0.500202
0.188754 -0.407269 0.504482
0.188763 -0.399173 0.510543
0.188778 -0.390890 0.510556
0.188865 -0.382851 0.504960
0.188827 -0.371005 0.497037
0.188861 -0.354677 0.492502
0.188983 -0.338280 0.496575
0.188286 -0.349658 0.301186
0.188146 -0.357757 0.295012
0.188991 -0.321884 0.499628
0.176938 -0.321866 0.505124
0.181664 -0.330894 0.330237
0.187725 -0.334284 0.320162
0.189079 -0.321952 0.337565
0.192594 -0.327718 0.325129
0.188423 -0.342786 0.309253
0.180312 -0.313143 0.506439
0.188982 -0.306783 0.502498
0.185584 -0.316125 0.347212
0.190078 -0.310237 0.352714
0.196473 -0.313312 0.344987
0.183575 -0.302202 0.511216
0.179920 -0.295745 0.522188
0.188995 -0.289816 0.516402
0.188654 -0.301288 0.365970
0.188850 -0.272927 0.528428
0.183548 -0.284808 0.525534
0.188596 -0.291287 0.374489
0.188553 -0.283055 0.378084
0.188680 -0.259175 0.528030
0.175178 -0.249158 0.522257
0.188705 -0.250975 0.520919
0.189003 -0.238315 0.511592
0.179450 -0.231817 0.506703
0.183759 -0.231818 0.506705
0.186442 -0.223437 0.505675
0.194630 -0.223422 0.507326
0.189742 -0.207860 0.503885
0.195992 -0.213880 0.507369
0.182312 -0.216396 0.394900
0.187989 -0.222357 0.392317
0.187978 -0.206329 0.396494
0.193202 -0.211775 0.393846
0.188515 -0.190575 0.496389
0.188504 -0.181930 0.491017
0.188483 -0.173697 0.488321
0.188403 -0.157660 0.486716
0.188330 -0.141229 0.484697
0.188303 -0.129047 0.478948
0.188303 -0.120803 0.472958
0.188303 -0.108257 0.467271
0.188983 -0.090414 0.462000
0.184032 -0.082298 0.459814
0.188969 -0.076140 0.457347
0.188286 -0.058626 0.451406
0.186898 -0.041227 0.445952
0.180546 -0.035161 0.442490
0.179244 -0.035175 0.442493
0.186909 -0.024668 0.442087
0.177706 -0.025762 0.441954
0.191401 -0.029422 0.444414
0.188304 -0.009298 0.438458
0.187872 0.008135 0.430618
0.182153 0.014263 0.424872
0.187918 0.023750 0.421628
0.193024 0.017792 0.427316
0.189517 0.041369 0.412684
0.189497 0.041693 0.406959
0.195702 0.050492 0.409020
0.195703 0.050442 0.409951
0.195288 0.139317 0.394199
0.195262 0.127668 0.383958
0.195810 0.127026 0.393566
0.193473 0.139622 0.383728
0.195938 0.130960 0.375606
0.195255 0.139955 0.374893
0.193232 0.155533 0.383493
0.195976 0.155169 0.393221
0.194269 0.156050 0.371072
0.195048 0.170122 0.382098
0.196689 0.163505 0.392141
0.193554 0.170767 0.365743
0.194252 0.183333 0.366881
0.196392 0.179829 0.375900
0.193872 0.184183 0.356745
0.193975 0.175393 0.357061
0.189212 0.219961 0.334745
0.195831 0.211311 0.341548
0.195843 0.211304 0.343006
0.193912 0.219842 0.344278
0.188853 0.235453 0.333826
0.193406 0.231180 0.344634
0.184247 0.239687 0.324079
0.188977 0.251647 0.320510
0.195061 0.245410 0.328987
0.188342 0.270649 0.313208
0.183120 0.276802 0.309708
0.186170 0.287312 0.307998
0.194358 0.287408 0.312983
0.180427 0.280688 0.213041
0.191468 0.278799 0.209136
0.186744 0.272613 0.219307
0.186923 0.283341 0.203772
0.190496 0.302724 0.302892
0.195912 0.296635 0.313132
0.180855 0.297407 0.179431
0.191664 0.295419 0.176377
0.187098 0.292123 0.186037
0.187221 0.300029 0.170927
0.186107 0.307566 0.288137
0.194384 0.315307 0.288240
0.195996 0.313702 0.297042
0.182982 0.310291 0.271909
0.192403 0.321315 0.270467
0.180838 0.312324 0.263117
0.185269 0.321706 0.256945
0.181350 0.313907 0.146863
0.192190 0.312843 0.144932
0.187523 0.309293 0.153462
0.187550 0.316232 0.139357
0.194843 0.338860 0.269410
0.188819 0.338153 0.255504
0.182520 0.327408 0.244406
0.182540 0.338137 0.243873
0.189639 0.354449 0.269613
0.196151 0.344729 0.280437
0.194010 0.353775 0.285293
0.183564 0.355954 0.253298
0.181102 0.351491 0.245736
0.190928 0.370467 0.285183
0.195383 0.358681 0.295895
0.194407 0.370358 0.299380
0.188347 0.370521 0.268905
0.183033 0.370298 0.252101
0.192465 0.384410 0.304785
0.189369 0.385996 0.285915
0.188653 0.386142 0.268799
0.183488 0.385428 0.251453
0.180574 0.375525 0.245009
0.180597 0.379680 0.244419
0.195780 0.400663 0.393854
0.196531 0.391752 0.384421
0.196872 0.392332 0.392154
0.192888 0.400661 0.383768
0.190155 0.400706 0.368217
0.196172 0.391057 0.369694
0.195779 0.390565 0.354440
0.188378 0.400894 0.352929
0.194897 0.389806 0.338069
0.185617 0.402583 0.337620
0.185659 0.400107 0.321776
0.193885 0.387710 0.321026
0.184509 0.398415 0.304862
0.184087 0.397785 0.287109
0.184170 0.398053 0.269640
0.182831 0.396902 0.256500
0.192293 0.417074 0.383441
0.195524 0.411555 0.394284
0.183700 0.416380 0.366426
0.181283 0.410652 0.351137
0.180744 0.409633 0.341681
0.188604 0.429031 0.366465
0.194148 0.426241 0.378382
0.188282 0.437058 0.349643
0.182518 0.442117 0.344018
0.185860 0.434212 -0.009309
0.178696 0.439218 -0.025744
0.180009 0.440637 -0.015333
0.184243 0.430901 -0.025281
0.182128 0.428270 -0.041361
0.176511 0.436571 -0.041812
0.174593 0.432456 -0.057327
0.180813 0.426261 -0.051020
0.185371 0.443743 0.334241
0.187193 0.445847 0.318146
0.177957 0.455360 0.301527
0.187151 0.447115 0.302786
0.178468 0.455648 0.286501
0.187067 0.447431 0.287867
0.187274 0.447567 0.272386
0.178616 0.455748 0.271944
0.189720 0.446576 0.255522
0.178885 0.456041 0.256282
0.179062 0.456243 0.239909
0.188523 0.448363 0.239871
0.179537 0.456753 0.223356
0.188551 0.449145 0.222993
0.187121 0.451690 0.205978
0.180064 0.457293 0.212766
0.174378 0.464264 0.206963
0.180678 0.457869 0.200931
0.186162 0.450789 0.058333
0.179297 0.456074 0.041997
0.180312 0.457274 0.052666
0.186018 0.447831 0.041543
0.184061 0.445542 0.024361
0.177393 0.453815 0.024570
0.175742 0.451573 0.007594
0.182042 0.443264 0.007392
0.180927 0.441840 -0.004123
0.175396 0.448154 -0.009327
0.174247 0.467041 0.189550
0.181725 0.458853 0.188354
0.182785 0.460009 0.171101
0.175349 0.468218 0.172551
0.183140 0.460473 0.154265
0.175901 0.468670 0.154952
0.175997 0.468963 0.137611
0.183510 0.460728 0.137593
0.183941 0.461131 0.121447
0.176496 0.469427 0.121104
0.183649 0.461040 0.106382
0.176741 0.469337 0.105323
0.182473 0.460061 0.091530
0.176288 0.468289 0.090562
0.175557 0.466964 0.075421
0.181335 0.458775 0.075684
0.175896 0.464316 0.058710
0.180753 0.457931 0.063934
0.205359 -0.739365 0.656496
0.205466 -0.729406 0.662234
0.199910 -0.734625 0.644772
0.210714 -0.737804 0.639696
0.205392 -0.739214 0.648435
0.204023 -0.728598 0.632829
0.205476 -0.713390 0.664812
0.197361 -0.719653 0.625841
0.208277 -0.722504 0.621071
0.203605 -0.717328 0.616253
0.205313 -0.697551 0.660492
0.202533 -0.699673 0.566792
0.210744 -0.705091 0.566727
0.204881 -0.707249 0.584417
0.199425 -0.701611 0.579057
0.212799 -0.703843 0.557175
0.206467 -0.696970 0.550804
0.205165 -0.687005 0.655648
0.205041 -0.679118 0.650175
0.194145 -0.675693 0.652799
0.204280 -0.666547 0.643560
0.202087 -0.667192 0.511102
0.212959 -0.671074 0.506738
0.206666 -0.674603 0.516129
0.206986 -0.661216 0.500912
0.198299 -0.656095 0.641924
0.200999 -0.651403 0.495028
0.211816 -0.655243 0.491267
0.205415 -0.645585 0.484979
0.204153 -0.650326 0.633243
0.199247 -0.639813 0.627982
0.199019 -0.636196 0.478749
0.209878 -0.639709 0.475527
0.204563 -0.629746 0.469081
0.204624 -0.635240 0.617812
0.196257 -0.625281 0.608369
0.204855 -0.626915 0.601315
0.199544 -0.622944 0.596428
0.199289 -0.620404 0.462667
0.210223 -0.623152 0.460050
0.205615 -0.613370 0.453256
0.204948 -0.620939 0.580962
0.204760 -0.613434 0.569232
0.194228 -0.610009 0.571761
0.204857 -0.600687 0.564298
0.201066 -0.603564 0.446473
0.212017 -0.606218 0.444145
0.205834 -0.597852 0.441017
0.205011 -0.584293 0.562112
0.204927 -0.567985 0.558646
0.199341 -0.555553 0.557005
0.204750 -0.550692 0.554390
0.204664 -0.535158 0.553125
0.191660 -0.518772 0.554659
0.204539 -0.518760 0.551294
0.204474 -0.504415 0.544618
0.204529 -0.500682 0.531521
0.193699 -0.496078 0.531467
0.203354 -0.499009 0.513727
0.194022 -0.495999 0.518342
0.197046 -0.493366 0.507429
0.203310 -0.487084 0.504739
0.193817 -0.482443 0.505643
0.191795 -0.469460 0.505029
0.204608 -0.469385 0.503914
0.204776 -0.452850 0.504043
0.204929 -0.436216 0.501464
0.205031 -0.419559 0.500888
0.205087 -0.406461 0.504456
0.205136 -0.390131 0.509598
0.205097 -0.398282 0.509597
0.205232 -0.382176 0.505425
0.205257 -0.370878 0.499705
0.205320 -0.354623 0.495146
0.205408 -0.338259 0.495992
0.203609 -0.352748 0.294748
0.197712 -0.346804 0.297771
0.203673 -0.337739 0.304454
0.208549 -0.344224 0.296448
0.205926 -0.320937 0.493824
0.198735 -0.331018 0.314718
0.204536 -0.325572 0.320607
0.209550 -0.328564 0.311165
0.201794 -0.305487 0.493434
0.205107 -0.317172 0.335640
0.194414 -0.294825 0.503962
0.205967 -0.289666 0.499515
0.205117 -0.307842 0.352757
0.205181 -0.300578 0.367754
0.205086 -0.312449 0.343500
0.201300 -0.283883 0.510594
0.194407 -0.278584 0.521618
0.206306 -0.273801 0.516408
0.198927 -0.283803 0.378263
0.204728 -0.289090 0.376043
0.209870 -0.278924 0.376843
0.204551 -0.273016 0.381162
0.200287 -0.261767 0.525854
0.200301 -0.267644 0.525808
0.205527 -0.256274 0.518631
0.203717 -0.239853 0.509484
0.199629 -0.223437 0.507333
0.200049 -0.213886 0.507376
0.205300 -0.207847 0.505300
0.204896 -0.190576 0.497391
0.201396 -0.200781 0.395526
0.206002 -0.206355 0.393427
0.212337 -0.197954 0.394871
0.206013 -0.191464 0.397298
0.204869 -0.181709 0.491247
0.204842 -0.173477 0.488626
0.204726 -0.157651 0.486720
0.204635 -0.141214 0.484216
0.204636 -0.129656 0.478896
0.204683 -0.121363 0.473119
0.204698 -0.108094 0.467355
0.205098 -0.090239 0.462068
0.194836 -0.084019 0.459606
0.199872 -0.083954 0.459717
0.205084 -0.075981 0.458688
0.210854 -0.082019 0.460088
0.204681 -0.058466 0.455280
0.204694 -0.041986 0.451599
0.203515 -0.024571 0.446540
0.197248 -0.018486 0.442470
0.199538 -0.009320 0.441030
0.207759 -0.009240 0.443977
0.205049 0.006915 0.437935
0.210712 0.001215 0.442379
0.204835 0.023779 0.429944
0.199419 0.029260 0.423367
0.204883 0.042353 0.420635
0.210414 0.037388 0.426837
0.205172 0.056594 0.413397
0.205151 0.056869 0.407247
0.210992 0.068541 0.408488
0.210995 0.068396 0.410917
0.201705 0.139070 0.402207
0.205656 0.123637 0.399416
0.211351 0.126762 0.410144
0.209854 0.138766 0.411883
0.201903 0.154965 0.401303
0.210018 0.154733 0.412219
0.205555 0.169703 0.398817
0.211434 0.165061 0.410630
0.197781 0.164713 0.359949
0.208429 0.163036 0.359920
0.203948 0.157085 0.365404
0.203684 0.170597 0.356014
0.199645 0.174342 0.386727
0.204856 0.183810 0.382127
0.210389 0.181416 0.394757
0.203373 0.191468 0.368053
0.203159 0.188157 0.351115
0.199102 0.204921 0.349505
0.206669 0.203524 0.364250
0.208935 0.192417 0.340393
0.203177 0.204861 0.335791
0.199162 0.219863 0.352624
0.207435 0.220014 0.362925
0.197408 0.212422 0.331283
0.208287 0.209328 0.325164
0.203344 0.213998 0.319839
0.200731 0.236656 0.350473
0.209418 0.236690 0.361364
0.208848 0.247923 0.351108
0.212026 0.245555 0.359651
0.197036 0.242239 0.339876
0.203329 0.250103 0.334591
0.204423 0.257274 0.322076
0.204521 0.270317 0.319010
0.204565 0.287636 0.320113
0.201432 0.281901 0.197853
0.212468 0.280704 0.195467
0.206058 0.277688 0.203676
0.206135 0.285279 0.189225
0.205516 0.303343 0.315868
0.200619 0.307982 0.307442
0.206885 0.319849 0.301398
0.211756 0.314859 0.312451
0.203023 0.323714 0.287864
0.210320 0.339311 0.300949
0.202526 0.338836 0.286460
0.199919 0.326750 0.274700
0.200001 0.333903 0.274123
0.201759 0.330916 0.101177
0.212726 0.329983 0.099378
0.206410 0.327424 0.107030
0.206425 0.334334 0.092768
0.202054 0.353557 0.301412
0.213039 0.345404 0.310256
0.210813 0.353939 0.312704
0.197951 0.347825 0.290689
0.198841 0.370136 0.307852
0.206298 0.368804 0.319392
0.205620 0.384668 0.400537
0.210862 0.374392 0.387143
0.212197 0.375630 0.398927
0.202646 0.383971 0.385816
0.209578 0.372094 0.370953
0.201387 0.383258 0.370389
0.200698 0.382680 0.354487
0.208884 0.370689 0.353965
0.200337 0.381756 0.337775
0.208559 0.370996 0.336582
0.198617 0.379707 0.320114
0.197001 0.378130 0.310552
0.209378 0.399055 0.415705
0.210789 0.388344 0.416456
0.213350 0.392022 0.424663
0.213349 0.392455 0.424665
0.200364 0.400530 0.401958
0.205077 0.413188 0.399784
0.210353 0.409909 0.410332
0.205975 0.421664 0.383473
0.200927 0.426078 0.378426
0.201145 0.418058 0.006630
0.194886 0.421507 -0.008350
0.196586 0.424535 0.000122
0.198749 0.413318 -0.007735
0.192121 0.416011 -0.023751
0.197132 0.409862 -0.016879
0.203920 0.427854 0.366825
0.204840 0.429824 0.350633
0.204696 0.431325 0.335382
0.193500 0.439587 0.334266
0.204161 0.431886 0.320341
0.195325 0.440106 0.318708
0.203226 0.431494 0.304878
0.195334 0.439694 0.304068
0.195277 0.439585 0.288932
0.203232 0.431405 0.289043
0.195512 0.439981 0.272683
0.204104 0.431793 0.272687
0.204831 0.432912 0.256544
0.196064 0.440517 0.260474
0.196807 0.441181 0.249501
0.202328 0.431393 0.058166
0.195495 0.439690 0.058368
0.196283 0.440599 0.070390
0.202813 0.434197 0.075468
0.194129 0.438174 0.041115
0.200609 0.429833 0.041180
0.198968 0.427990 0.024361
0.192157 0.436361 0.024317
0.197718 0.426205 0.010848
0.191390 0.432220 0.006145
0.197075 0.441400 0.239844
0.197425 0.441704 0.222640
0.197969 0.442211 0.204637
0.189911 0.451355 0.187749
0.198930 0.443125 0.187202
0.190931 0.452201 0.170587
0.199813 0.443951 0.170483
0.191273 0.452518 0.153944
0.200055 0.444242 0.153968
0.199886 0.444283 0.137848
0.191637 0.452588 0.137617
0.199684 0.444341 0.123070
0.192049 0.452640 0.122229
0.191791 0.452040 0.107515
0.199010 0.443798 0.108284
0.197852 0.442448 0.092149
0.190651 0.450653 0.091990
0.197120 0.441501 0.081573
0.190678 0.447907 0.075883
0.223204 -0.745394 0.657695
0.229588 -0.753222 0.653572
0.229598 -0.753247 0.654467
0.223038 -0.747917 0.648615
0.221916 -0.729833 0.663175
0.221813 -0.713741 0.661766
0.217833 -0.718035 0.600691
0.226135 -0.721244 0.600708
0.221003 -0.725363 0.616270
0.215212 -0.719307 0.610124
0.228377 -0.720531 0.588157
0.222290 -0.716445 0.583012
0.220193 -0.698130 0.656545
0.221823 -0.695132 0.532211
0.229113 -0.703953 0.539644
0.222774 -0.705700 0.550389
0.218022 -0.701044 0.545579
0.213634 -0.689854 0.654391
0.214567 -0.686511 0.524526
0.225512 -0.689165 0.521039
0.220681 -0.682284 0.515528
0.219449 -0.683695 0.646250
0.214195 -0.672467 0.641605
0.209170 -0.661567 0.638349
0.219676 -0.667817 0.631858
0.214294 -0.655354 0.627586
0.210136 -0.644438 0.623963
0.221431 -0.648812 0.617768
0.217638 -0.637965 0.612960
0.222370 -0.635554 0.600734
0.210601 -0.625995 0.586279
0.219937 -0.629250 0.581077
0.213571 -0.624587 0.574516
0.220962 -0.616937 0.564533
0.218771 -0.600692 0.558469
0.217387 -0.584327 0.557609
0.215398 -0.573473 0.557002
0.220967 -0.568026 0.553107
0.210272 -0.562565 0.555387
0.221116 -0.551549 0.548689
0.221007 -0.535148 0.548144
0.220972 -0.518745 0.547718
0.221019 -0.504883 0.543164
0.221149 -0.505182 0.530866
0.221131 -0.506655 0.514490
0.208010 -0.496302 0.505820
0.221069 -0.498528 0.505661
0.221116 -0.485737 0.504244
0.219842 -0.470172 0.505520
0.224221 -0.453005 0.541380
0.224987 -0.465005 0.531371
0.225206 -0.464905 0.541017
0.222175 -0.452931 0.531350
0.220507 -0.452795 0.514908
0.224505 -0.465316 0.514915
0.214163 -0.452783 0.506230
0.226988 -0.441345 0.531293
0.226939 -0.441310 0.540520
0.226425 -0.437227 0.513409
0.217902 -0.436137 0.505150
0.220972 -0.419437 0.504736
0.229271 -0.419358 0.507078
0.218333 -0.408578 0.505689
0.222949 -0.402877 0.509027
0.220505 -0.385625 0.510247
0.214273 -0.379799 0.506380
0.217963 -0.370779 0.504566
0.226204 -0.370690 0.508563
0.223225 -0.355900 0.502431
0.229626 -0.362172 0.506883
0.221834 -0.338215 0.499219
0.221848 -0.323318 0.494467
0.222187 -0.338271 0.296252
0.217680 -0.333345 0.300284
0.222479 -0.326985 0.305591
0.228541 -0.329322 0.296891
0.211759 -0.314809 0.489311
0.221850 -0.315125 0.488666
0.223163 -0.304037 0.480791
0.210053 -0.305445 0.487524
0.222108 -0.318347 0.322310
0.217071 -0.315026 0.332685
0.222210 -0.310334 0.337524
0.228040 -0.312496 0.328207
0.223130 -0.293830 0.482088
0.210638 -0.295433 0.487610
0.221727 -0.303675 0.352472
0.221824 -0.298592 0.364519
0.221734 -0.276269 0.503412
0.212280 -0.279939 0.505955
0.221778 -0.284932 0.495189
0.220806 -0.257516 0.510163
0.221711 -0.268059 0.510255
0.222232 -0.272783 0.375284
0.217178 -0.267852 0.379877
0.222100 -0.256233 0.381347
0.228160 -0.261894 0.377911
0.214667 -0.245307 0.507739
0.220730 -0.239827 0.504491
0.208307 -0.234384 0.506190
0.207875 -0.223410 0.506220
0.221514 -0.223393 0.503337
0.221473 -0.206971 0.502047
0.221640 -0.189018 0.495038
0.216242 -0.181727 0.491272
0.221148 -0.197652 0.394909
0.221137 -0.189435 0.397559
0.221567 -0.175339 0.489083
0.221255 -0.157525 0.486383
0.221205 -0.141024 0.483716
0.221202 -0.128811 0.478735
0.221222 -0.120512 0.473627
0.221227 -0.107789 0.468405
0.221132 -0.119526 0.412759
0.204807 -0.122882 0.409261
0.210428 -0.116647 0.411994
0.221124 -0.127776 0.410400
0.221211 -0.091110 0.463769
0.221206 -0.079510 0.460537
0.221206 -0.071273 0.458819
0.221211 -0.058044 0.456396
0.221215 -0.041628 0.453715
0.221225 -0.025242 0.451454
0.221232 -0.008903 0.448020
0.221673 0.007150 0.443490
0.216454 0.012334 0.440242
0.221764 0.024529 0.438180
0.227532 0.019159 0.441817
0.220395 0.009722 0.414463
0.205799 0.009589 0.409178
0.212021 0.015684 0.411869
0.214311 0.004713 0.410923
0.219910 0.042285 0.431520
0.213415 0.048676 0.424376
0.220200 0.060876 0.416809
0.223152 0.057403 0.430918
0.216244 0.068581 0.410881
0.225332 0.073240 0.429744
0.225366 0.073761 0.419709
0.228047 0.089649 0.422848
0.228013 0.089472 0.426667
0.216215 0.068734 0.408485
0.229724 0.097680 0.424592
0.229724 0.097680 0.424606
0.221120 0.119013 0.400907
0.226258 0.112246 0.407032
0.226260 0.112158 0.411138
0.221449 0.121100 0.415892
0.217171 0.138473 0.419970
0.227655 0.126334 0.426566
0.225249 0.138150 0.429286
0.215679 0.154546 0.420445
0.224554 0.154876 0.433725
0.225408 0.170080 0.433628
0.228776 0.160562 0.441883
0.228749 0.164227 0.441888
0.216826 0.170539 0.416251
0.225194 0.187528 0.415879
0.227149 0.182239 0.428711
0.214342 0.175871 0.405683
0.218147 0.187016 0.400174
0.219461 0.188084 0.336618
0.224717 0.176694 0.342941
0.219973 0.171412 0.350066
0.213959 0.181893 0.346059
0.226758 0.203890 0.399641
0.228691 0.197892 0.410090
0.215117 0.192691 0.383572
0.220161 0.203958 0.383641
0.213299 0.194759 0.374524
0.214606 0.203670 0.372629
0.219608 0.204801 0.320912
0.225099 0.194541 0.327180
0.214195 0.198517 0.330355
0.225396 0.220739 0.383911
0.228726 0.214925 0.393941
0.216470 0.220454 0.371199
0.220083 0.218261 0.305167
0.225174 0.211385 0.310745
0.214063 0.213414 0.314955
0.221258 0.239138 0.370891
0.227065 0.235284 0.378655
0.222555 0.252694 0.363910
0.218456 0.256705 0.351923
0.225350 0.271738 0.354304
0.229135 0.266552 0.361916
0.215972 0.259676 0.334814
0.217909 0.270826 0.335155
0.214653 0.261015 0.324982
0.214496 0.270705 0.325409
0.217326 0.287988 0.335948
0.225117 0.287159 0.354172
0.213808 0.287818 0.326929
0.228643 0.297741 0.360788
0.228614 0.292158 0.361207
0.226632 0.299760 0.352121
0.223864 0.302832 0.335715
0.220206 0.306332 0.324433
0.222937 0.320870 0.314514
0.220721 0.316834 0.124236
0.225565 0.313128 0.130015
0.220661 0.310877 0.138394
0.214564 0.314023 0.132502
0.218477 0.325935 0.305726
0.218521 0.334634 0.305352
0.223040 0.338997 0.313274
0.221368 0.352062 0.321629
0.217734 0.364278 0.371065
0.225967 0.357463 0.370544
0.228976 0.360342 0.381742
0.222730 0.365726 0.387313
0.215404 0.362806 0.353369
0.223652 0.354527 0.352553
0.224580 0.353973 0.334707
0.216346 0.362798 0.335242
0.215780 0.362338 0.324487
0.221285 0.385588 0.428035
0.223510 0.369844 0.418429
0.226595 0.371915 0.428999
0.215267 0.380383 0.416776
0.220164 0.370416 0.403742
0.213677 0.376903 0.408306
0.221675 0.394663 0.426634
0.222823 0.403765 0.415722
0.218052 0.409764 0.410343
0.215315 0.400360 0.025830
0.209471 0.400551 0.008591
0.211718 0.405904 0.020917
0.213922 0.395091 0.014427
0.222678 0.411941 0.400949
0.221461 0.415876 0.383392
0.212015 0.424051 0.366743
0.221310 0.416418 0.367281
0.222484 0.414728 0.353678
0.212952 0.424550 0.350908
0.219956 0.416299 0.337298
0.212864 0.424477 0.336445
0.212357 0.423961 0.321696
0.219515 0.415783 0.321804
0.211449 0.423047 0.305495
0.218994 0.414859 0.305501
0.218989 0.414865 0.289022
0.211469 0.423051 0.289083
0.212337 0.423911 0.272647
0.219878 0.415723 0.272129
0.221424 0.416810 0.256567
0.212863 0.424444 0.263653
0.213859 0.425306 0.252457
0.217412 0.414970 0.073601
0.212249 0.423248 0.074626
0.213213 0.424650 0.083282
0.218289 0.418073 0.089494
0.210453 0.420670 0.057720
0.215578 0.412322 0.057061
0.214155 0.410078 0.041005
0.208708 0.418415 0.041139
0.213353 0.408774 0.031732
0.207492 0.415174 0.025421
0.215003 0.426126 0.238282
0.205282 0.434354 0.239135
0.205646 0.434995 0.221670
0.215860 0.426749 0.220398
0.206168 0.435393 0.204117
0.216087 0.427107 0.203497
0.216846 0.427798 0.186873
0.207082 0.436119 0.186918
0.207945 0.436776 0.170336
0.217600 0.428441 0.170481
0.217225 0.428402 0.154641
0.208190 0.436735 0.154149
0.216326 0.427900 0.139628
0.208040 0.436218 0.138601
0.207850 0.435534 0.123869
0.215429 0.427256 0.124576
0.214491 0.426310 0.108584
0.207186 0.434544 0.108506
0.207486 0.431660 0.090247
0.213747 0.425357 0.094728
0.238292 -0.745706 0.660267
0.238199 -0.755056 0.655768
0.236539 -0.745479 0.632497
0.243033 -0.754237 0.639294
0.237924 -0.755202 0.648595
0.232246 -0.751498 0.645117
0.238304 -0.730186 0.662262
0.230057 -0.736246 0.625582
0.240960 -0.739363 0.621236
0.236439 -0.733072 0.616340
0.239088 -0.712844 0.657630
0.233037 -0.717821 0.566356
0.241196 -0.722625 0.566229
0.236500 -0.724205 0.582861
0.230126 -0.719699 0.576656
0.244694 -0.720779 0.555263
0.238822 -0.714359 0.549349
0.234086 -0.703886 0.655290
0.234172 -0.700146 0.528724
0.245009 -0.704304 0.522794
0.239035 -0.706533 0.533416
0.238809 -0.694611 0.516598
0.224629 -0.693284 0.650914
0.238698 -0.697639 0.647888
0.232405 -0.688333 0.642493
0.232591 -0.684779 0.510316
0.243435 -0.689054 0.505949
0.237602 -0.678931 0.499928
0.236416 -0.682742 0.632745
0.225088 -0.677676 0.636216
0.229594 -0.673980 0.625398
0.231769 -0.669349 0.494118
0.242596 -0.673129 0.490507
0.236729 -0.663056 0.484187
0.236607 -0.667707 0.616187
0.225285 -0.663073 0.622493
0.232738 -0.653119 0.611542
0.230883 -0.653672 0.477961
0.241773 -0.656666 0.475761
0.236488 -0.646641 0.468994
0.238043 -0.648747 0.600165
0.228678 -0.642160 0.607344
0.232384 -0.639625 0.595527
0.231248 -0.636716 0.462107
0.242174 -0.639467 0.459964
0.237052 -0.630831 0.456299
0.237854 -0.637505 0.581916
0.224670 -0.627325 0.570887
0.237846 -0.629705 0.569034
0.237896 -0.618408 0.560741
0.237967 -0.610294 0.554822
0.228407 -0.609262 0.555919
0.237860 -0.600657 0.552525
0.227104 -0.600657 0.555559
0.225592 -0.584317 0.554970
0.237683 -0.584327 0.550383
0.231564 -0.589053 0.428362
0.242291 -0.590539 0.427863
0.237206 -0.596552 0.432585
0.236957 -0.583117 0.424517
0.237529 -0.567947 0.546413
0.237435 -0.551537 0.542906
0.237437 -0.535123 0.543557
0.237065 -0.551734 0.529744
0.227658 -0.546441 0.521230
0.227656 -0.546419 0.524658
0.237372 -0.552009 0.515087
0.227617 -0.538361 0.521273
0.237777 -0.536375 0.515601
0.237519 -0.518706 0.545026
0.238959 -0.501452 0.541892
0.231866 -0.515544 0.524916
0.226700 -0.515570 0.519593
0.226699 -0.515577 0.524899
0.231851 -0.515537 0.519617
0.236970 -0.502303 0.515421
0.238657 -0.501194 0.531980
0.245132 -0.485801 0.539770
0.245125 -0.485779 0.536943
0.231019 -0.497702 0.506247
0.231831 -0.485628 0.505964
0.240092 -0.485587 0.513955
0.239169 -0.469956 0.541054
0.239152 -0.473790 0.531281
0.231074 -0.476151 0.506245
0.237101 -0.474002 0.516428
0.237962 -0.452979 0.542629
0.238666 -0.436096 0.540740
0.235542 -0.433095 0.531286
0.243496 -0.420194 0.531445
0.244565 -0.426120 0.539779
0.233629 -0.432470 0.517890
0.235875 -0.419525 0.515285
0.238964 -0.401090 0.517453
0.245010 -0.405772 0.526080
0.238055 -0.386452 0.515184
0.238805 -0.369080 0.509557
0.233888 -0.362136 0.506883
0.238850 -0.355768 0.505162
0.238213 -0.338137 0.501631
0.237772 -0.320629 0.494920
0.231990 -0.314426 0.489095
0.236728 -0.304145 0.483498
0.242920 -0.310671 0.491332
0.239265 -0.320029 0.306850
0.235029 -0.315608 0.317518
0.239494 -0.310399 0.322282
0.245875 -0.313025 0.313373
0.237529 -0.327903 0.296197
0.230529 -0.297578 0.473261
0.229616 -0.297575 0.473271
0.230525 -0.296949 0.473272
0.229610 -0.296949 0.473278
0.236931 -0.293853 0.482834
0.233513 -0.298962 0.352222
0.230750 -0.297208 0.360920
0.232239 -0.288486 0.363097
0.240682 -0.288825 0.352876
0.238883 -0.302089 0.337364
0.244852 -0.294517 0.342820
0.238328 -0.284969 0.493122
0.236995 -0.271127 0.501603
0.237716 -0.271603 0.366815
0.243090 -0.276878 0.358854
0.230636 -0.263787 0.507066
0.230637 -0.264683 0.507058
0.236903 -0.257474 0.503681
0.225757 -0.252878 0.505318
0.238012 -0.239802 0.500603
0.231893 -0.251073 0.379569
0.237532 -0.256225 0.374998
0.242783 -0.245123 0.377360
0.237456 -0.239526 0.381513
0.237955 -0.223385 0.500019
0.237929 -0.206956 0.499425
0.236583 -0.188987 0.494723
0.227283 -0.182490 0.490943
0.230215 -0.182482 0.490946
0.234022 -0.174003 0.489822
0.242257 -0.174012 0.491994
0.237559 -0.197343 0.394970
0.237550 -0.189125 0.397755
0.239335 -0.157493 0.489562
0.245871 -0.163014 0.491691
0.237755 -0.140942 0.486818
0.237943 -0.124210 0.480072
0.232597 -0.118517 0.474727
0.237914 -0.106158 0.473399
0.243526 -0.110700 0.477084
0.237581 -0.129626 0.411100
0.237568 -0.121389 0.413481
0.239126 -0.092670 0.471661
0.237888 -0.075236 0.467684
0.245490 -0.088414 0.476619
0.245460 -0.082223 0.476678
0.230300 -0.068262 0.458751
0.232266 -0.057806 0.457665
0.240414 -0.058098 0.463749
0.234195 -0.041476 0.456430
0.242342 -0.041663 0.461279
0.234667 -0.025086 0.455732
0.242794 -0.025283 0.460378
0.236180 -0.008826 0.454093
0.244297 -0.009056 0.458943
0.239279 0.006035 0.452321
0.245740 -0.000406 0.457780
0.236529 0.024371 0.446065
0.230350 0.030478 0.440784
0.232028 0.041023 0.439913
0.240136 0.040704 0.444668
0.233282 0.057093 0.439042
0.241395 0.056770 0.444043
0.234416 0.072883 0.437824
0.242585 0.072604 0.443380
0.238922 0.059230 0.411485
0.221603 0.059339 0.407193
0.234212 0.054688 0.409270
0.238523 0.088529 0.434553
0.244559 0.082326 0.442112
0.236886 0.103924 0.427716
0.234911 0.104166 0.416681
0.230976 0.115551 0.422003
0.236875 0.121076 0.428618
0.237633 0.137859 0.434118
0.237499 0.150780 0.438818
0.237419 0.158974 0.443178
0.238727 0.170201 0.442902
0.234127 0.175297 0.439684
0.238782 0.184020 0.433754
0.245050 0.179289 0.441359
0.237588 0.193485 0.420906
0.237661 0.201840 0.412828
0.237719 0.210586 0.405956
0.237742 0.217962 0.397823
0.237790 0.226609 0.389786
0.236206 0.240172 0.382678
0.229662 0.246417 0.375822
0.236138 0.256254 0.373654
0.240596 0.251898 0.380222
0.236750 0.249284 0.252525
0.241499 0.246585 0.257581
0.236658 0.242959 0.268890
0.230489 0.248467 0.262289
0.237330 0.271512 0.369314
0.234276 0.287223 0.367345
0.245149 0.276189 0.377577
0.243649 0.288272 0.379571
0.229547 0.278058 0.361274
0.229552 0.280839 0.361188
0.235969 0.303884 0.366439
0.244348 0.304759 0.378435
0.230798 0.297649 0.164034
0.241746 0.295934 0.160993
0.236958 0.292491 0.170497
0.236991 0.300295 0.155520
0.246151 0.313072 0.375442
0.243564 0.319582 0.366422
0.231809 0.308054 0.351391
0.237851 0.321355 0.350901
0.230479 0.311220 0.334744
0.235242 0.321419 0.334486
0.229804 0.312954 0.326134
0.232124 0.321506 0.322306
0.236450 0.337266 0.351210
0.241605 0.337144 0.367536
0.234896 0.337298 0.334408
0.232271 0.337384 0.321975
0.238014 0.353143 0.403798
0.245588 0.344227 0.403516
0.245898 0.344307 0.415528
0.239991 0.351372 0.420806
0.235038 0.354291 0.387030
0.244284 0.342597 0.386310
0.232827 0.349433 0.369681
0.230520 0.346534 0.351730
0.230235 0.346123 0.334465
0.230080 0.345744 0.325619
0.244108 0.363507 0.465335
0.244122 0.357104 0.465891
0.245394 0.358793 0.474666
0.245360 0.360631 0.474608
0.240581 0.368770 0.450603
0.242195 0.355224 0.450864
0.239935 0.353772 0.436003
0.232237 0.367404 0.434870
0.230511 0.362353 0.420078
0.230461 0.362077 0.403880
0.230199 0.361661 0.392791
0.237255 0.384439 0.435673
0.242200 0.379275 0.445527
0.238006 0.394944 0.428095
0.235288 0.385148 0.071452
0.228559 0.390661 0.055603
0.229279 0.391477 0.065566
0.233909 0.382611 0.056178
0.226635 0.387414 0.040447
0.231212 0.379569 0.041200
0.222860 0.383388 0.026968
0.229697 0.377074 0.033915
0.237897 0.399554 0.416145
0.228859 0.407881 0.407092
0.237143 0.402774 0.401162
0.231231 0.409381 0.396228
0.237418 0.399852 0.354829
0.228190 0.406630 0.338156
0.228789 0.407441 0.350739
0.236084 0.398467 0.338258
0.234957 0.397922 0.321891
0.227764 0.406095 0.321877
0.227270 0.405713 0.305396
0.234724 0.397516 0.305255
0.235022 0.397633 0.287645
0.227273 0.405832 0.288630
0.228127 0.406746 0.271326
0.235810 0.398559 0.269968
0.237842 0.399970 0.253170
0.228941 0.407582 0.260671
0.230641 0.409182 0.249205
0.233365 0.398563 0.106832
0.228732 0.406813 0.107868
0.229516 0.408092 0.117284
0.233838 0.401596 0.123157
0.227341 0.403940 0.089849
0.231718 0.395666 0.089079
0.226166 0.399324 0.071694
0.230391 0.393283 0.076589
0.231514 0.409738 0.383536
0.230218 0.408859 0.367789
0.229448 0.408237 0.360358
0.223259 0.418539 0.237404
0.231868 0.410295 0.236622
0.232464 0.410950 0.219812
0.224078 0.419210 0.219938
0.224269 0.419353 0.203264
0.232573 0.411098 0.203318
0.233114 0.411677 0.187066
0.225010 0.419974 0.186824
0.225754 0.420353 0.170814
0.233218 0.412043 0.171395
0.232284 0.411287 0.156224
0.225407 0.419571 0.155436
0.224520 0.418193 0.140363
0.231009 0.409959 0.140787
0.224784 0.415244 0.123561
0.230173 0.408960 0.128203
0.254741 -0.746014 0.661909
0.254657 -0.758755 0.657672
0.249581 -0.750247 0.628387
0.260436 -0.753854 0.622916
0.254677 -0.756680 0.633728
0.253993 -0.744949 0.616593
0.254648 -0.730468 0.660532
0.247581 -0.735346 0.610223
0.257077 -0.740293 0.600573
0.248905 -0.734322 0.600592
0.250611 -0.733051 0.583384
0.258778 -0.738611 0.583234
0.254955 -0.731578 0.565149
0.260760 -0.737282 0.570280
0.254456 -0.717489 0.656333
0.248529 -0.718271 0.543862
0.259347 -0.721858 0.536786
0.254133 -0.724543 0.549189
0.254155 -0.715448 0.531712
0.244903 -0.706910 0.653503
0.254295 -0.709403 0.651486
0.254159 -0.701312 0.645055
0.250277 -0.700052 0.512382
0.261079 -0.704414 0.507567
0.255219 -0.707124 0.517118
0.255929 -0.693843 0.501615
0.255541 -0.692927 0.633921
0.243270 -0.691497 0.640020
0.251125 -0.687789 0.629035
0.256343 -0.677725 0.486358
0.261531 -0.687703 0.492707
0.250731 -0.684010 0.495859
0.240495 -0.676999 0.620884
0.254551 -0.682161 0.617317
0.247125 -0.672357 0.609831
0.255532 -0.662760 0.474147
0.261973 -0.671537 0.477037
0.251182 -0.667825 0.480112
0.243717 -0.661322 0.604894
0.253085 -0.667018 0.598082
0.248198 -0.655317 0.592836
0.243415 -0.644390 0.587773
0.253913 -0.649801 0.584215
0.254256 -0.639801 0.575466
0.254270 -0.631748 0.567716
0.254207 -0.620312 0.559482
0.254805 -0.615146 0.441202
0.260939 -0.622945 0.444438
0.254908 -0.628959 0.449697
0.250123 -0.620586 0.445783
0.254197 -0.612177 0.553102
0.254015 -0.600671 0.547725
0.253772 -0.584322 0.545689
0.252321 -0.568476 0.542610
0.246032 -0.551531 0.540180
0.253045 -0.563288 0.514831
0.242247 -0.562181 0.519750
0.242247 -0.562182 0.527255
0.252346 -0.564976 0.532455
0.247187 -0.557546 0.508965
0.252378 -0.534010 0.540831
0.243397 -0.546660 0.506539
0.253051 -0.551727 0.506073
0.253779 -0.540602 0.506551
0.243399 -0.541280 0.506564
0.254088 -0.518515 0.543579
0.254764 -0.516566 0.392112
0.261114 -0.523690 0.395606
0.254710 -0.530665 0.399839
0.250112 -0.522957 0.396367
0.254190 -0.502135 0.543716
0.254215 -0.485772 0.541764
0.246807 -0.495886 0.522110
0.246812 -0.495932 0.528043
0.246821 -0.485634 0.522148
0.246826 -0.485692 0.528741
0.254994 -0.468743 0.540732
0.246293 -0.476990 0.522891
0.246295 -0.477019 0.525749
0.251589 -0.452939 0.540817
0.254597 -0.436732 0.540712
0.254296 -0.423065 0.540424
0.254304 -0.414747 0.537448
0.252679 -0.401309 0.529084
0.246216 -0.394456 0.523065
0.252656 -0.387297 0.519192
0.256962 -0.393268 0.524882
0.254245 -0.372378 0.510019
0.254267 -0.364376 0.505633
0.244720 -0.362693 0.506604
0.254338 -0.354217 0.503706
0.254504 -0.337987 0.502099
0.254641 -0.321701 0.499450
0.253724 -0.305234 0.495738
0.253819 -0.325282 0.295712
0.253988 -0.317545 0.302316
0.247636 -0.299742 0.488778
0.247627 -0.295461 0.488803
0.253737 -0.289580 0.496097
0.253716 -0.301918 0.320855
0.248025 -0.298450 0.332499
0.253724 -0.288619 0.337799
0.258741 -0.293590 0.325885
0.254111 -0.309981 0.310511
0.254671 -0.272604 0.499709
0.248582 -0.283575 0.348139
0.254202 -0.272164 0.354345
0.259406 -0.278273 0.343178
0.254529 -0.256209 0.500029
0.248905 -0.266003 0.363115
0.254250 -0.256712 0.366651
0.259853 -0.262759 0.360334
0.254333 -0.239814 0.498629
0.254213 -0.223405 0.499120
0.253952 -0.234557 0.380459
0.254022 -0.242748 0.375342
0.254180 -0.206984 0.499977
0.254237 -0.190527 0.497866
0.254293 -0.174023 0.494943
0.253912 -0.189625 0.397281
0.253850 -0.197911 0.395215
0.252650 -0.157559 0.494398
0.246088 -0.152048 0.492202
0.247965 -0.141048 0.491336
0.256159 -0.141135 0.495226
0.254037 -0.124859 0.487440
0.259418 -0.130651 0.493844
0.252454 -0.106397 0.480007
0.253893 -0.128829 0.410775
0.253897 -0.120511 0.413634
0.245906 -0.099712 0.476238
0.245904 -0.099408 0.476243
0.252354 -0.093076 0.479890
0.253184 -0.076247 0.479680
0.247314 -0.071321 0.474847
0.250400 -0.058548 0.472017
0.258530 -0.058818 0.477545
0.255115 -0.041988 0.470282
0.261292 -0.047590 0.475529
