-0.401194 0.089596 -0.582209
-0.397067 0.075461 -0.597273
-0.394812 0.078671 -0.586969
-0.405281 0.085861 -0.597243
-0.408061 0.082552 -0.609078
-0.408276 0.106740 0.967256
-0.409328 0.102012 0.839216
-0.402030 0.107499 0.830336
-0.406782 0.107433 0.704390
-0.398502 0.107602 0.710606
-0.407560 0.101157 -0.577499
-0.402164 0.105003 -0.563862
-0.396595 0.093568 -0.567858
-0.409183 0.119424 0.966745
-0.404307 0.123808 0.828288
-0.394731 0.112969 0.820264
-0.396104 0.123696 0.817458
-0.408899 0.117791 0.705739
-0.402831 0.123417 0.712457
-0.401666 0.121621 -0.547797
-0.396129 0.109773 -0.547756
-0.393945 0.113167 -0.536122
-0.396567 0.120080 -0.531080
-0.408134 0.121603 -0.559231
-0.410240 0.129995 0.966023
-0.401803 0.123794 0.958461
-0.403390 0.138895 0.957441
-0.410739 0.138950 0.965574
-0.406336 0.140373 0.826523
-0.398039 0.139402 0.812829
-0.401215 0.139147 0.718288
-0.409581 0.129776 -0.015292
-0.403304 0.123224 -0.021579
-0.398798 0.138497 -0.017987
-0.406956 0.138691 -0.013900
-0.404220 0.138018 -0.531481
-0.396090 0.124468 -0.520121
-0.398735 0.137956 -0.514890
-0.407644 0.136730 -0.546990
-0.409942 0.130356 -0.556434
-0.410753 0.155443 0.965614
-0.403321 0.155400 0.957523
-0.408370 0.152465 0.824336
-0.405416 0.157230 0.814610
-0.397693 0.154750 0.796245
-0.395079 0.144177 0.800786
-0.405620 0.156252 0.719473
-0.397319 0.156231 0.726307
-0.395123 0.144215 0.724561
-0.396938 0.155037 -0.016358
-0.405131 0.155173 -0.012695
-0.397227 0.154219 -0.505302
-0.395051 0.143398 -0.506562
-0.405875 0.153968 -0.515735
-0.409078 0.148908 -0.531441
-0.409518 0.147646 -0.540961
-0.410994 0.171932 0.965495
-0.403264 0.171904 0.957435
-0.403272 0.172347 0.797605
-0.408265 0.172760 0.809635
-0.396510 0.171793 0.779079
-0.395507 0.158959 0.783974
-0.408246 0.172586 0.721767
-0.399973 0.172428 0.728207
-0.401882 0.171295 -0.011300
-0.396202 0.165727 -0.015773
-0.408331 0.170620 -0.510231
-0.400209 0.170572 -0.503503
-0.412953 0.187972 0.963722
-0.404888 0.187933 0.955596
-0.409431 0.189273 0.807153
-0.404954 0.188945 0.797543
-0.398165 0.188259 0.780680
-0.394068 0.176949 0.770829
-0.394449 0.187863 0.769741
-0.409729 0.188488 0.723225
-0.401453 0.188357 0.728244
-0.409934 0.179828 -0.507692
-0.402062 0.187332 -0.500553
-0.406023 0.204048 0.954267
-0.414360 0.204109 0.962449
-0.409075 0.205513 0.807405
-0.403865 0.205301 0.797343
-0.396618 0.205527 0.779370
-0.394441 0.200283 0.770161
-0.409658 0.204506 0.723319
-0.401359 0.204458 0.727693
-0.404209 0.203324 -0.497551
-0.395931 0.203322 -0.492587
-0.393989 0.194991 -0.493691
-0.413750 0.220757 0.963116
-0.405203 0.220694 0.954965
-0.401890 0.221004 0.796923
-0.407984 0.220995 0.809229
-0.395951 0.220871 0.782674
-0.409264 0.220904 0.723087
-0.400972 0.220902 0.728470
-0.408518 0.208351 0.002516
-0.402724 0.203243 -0.000458
-0.405830 0.220268 0.003708
-0.397620 0.220236 0.000442
-0.407337 0.219709 -0.495692
-0.399123 0.219704 -0.490491
-0.413720 0.237218 0.963240
-0.404962 0.237179 0.955095
-0.399223 0.236843 0.796967
-0.406287 0.236710 0.811870
-0.394967 0.236961 0.785710
-0.409315 0.237152 0.723128
-0.401028 0.237166 0.728799
-0.401390 0.236568 0.005274
-0.395281 0.231101 0.001153
-0.409161 0.231565 -0.494400
-0.403100 0.236649 -0.489220
-0.415473 0.253206 0.961720
-0.406457 0.253205 0.953516
-0.395682 0.252429 0.797763
-0.405341 0.254051 0.815413
-0.394131 0.246510 0.788087
-0.409257 0.253114 0.722970
-0.400949 0.253123 0.727992
-0.400746 0.253309 -0.483577
-0.406811 0.269501 0.953131
-0.415920 0.269476 0.961360
-0.410246 0.260234 0.822292
-0.402579 0.269735 0.814034
-0.409916 0.269816 0.822652
-0.394733 0.269618 0.803161
-0.409627 0.269350 0.723082
-0.401324 0.269347 0.727864
-0.403017 0.268909 -0.483281
-0.394733 0.268929 -0.476849
-0.394268 0.259351 -0.477222
-0.414176 0.286245 0.962877
-0.405317 0.286311 0.954682
-0.401361 0.286175 0.814048
-0.409016 0.286244 0.823669
-0.394360 0.286040 0.804395
-0.410158 0.278554 0.723434
-0.403544 0.284861 0.727903
-0.409012 0.273142 0.018593
-0.403051 0.268254 0.015436
-0.399308 0.285556 0.016190
-0.407493 0.285619 0.019411
-0.403173 0.285302 -0.483142
-0.394888 0.285317 -0.476597
-0.413759 0.302661 0.963208
-0.404944 0.302741 0.955025
-0.407659 0.302699 0.825226
-0.398453 0.301763 0.813115
-0.394020 0.295577 0.805289
-0.402802 0.302072 0.727278
-0.397075 0.297152 0.017028
-0.402454 0.302458 0.021155
-0.402880 0.301688 -0.483599
-0.394610 0.301705 -0.476800
-0.406155 0.318690 0.953658
-0.415222 0.318628 0.961882
-0.397719 0.319187 0.816818
-0.405932 0.319268 0.826623
-0.408926 0.307278 0.722775
-0.406404 0.318861 0.721303
-0.398088 0.318778 0.725719
-0.402580 0.318077 -0.484733
-0.394308 0.318102 -0.477171
-0.414587 0.335009 0.962404
-0.405727 0.335068 0.954177
-0.402810 0.337275 0.828988
-0.395803 0.332068 0.818924
-0.404002 0.335152 0.719718
-0.395684 0.335103 0.724643
-0.402157 0.333453 -0.485675
-0.394071 0.327472 -0.477397
-0.403749 0.351888 0.956494
-0.411905 0.351798 0.964665
-0.409842 0.342427 0.838585
-0.408160 0.351447 0.840014
-0.399971 0.351434 0.831866
-0.400911 0.352434 0.719360
-0.394678 0.347696 0.724187
-0.410065 0.339309 -0.493237
-0.409450 0.350906 -0.493476
-0.401268 0.350919 -0.486373
-0.411335 0.368143 0.965073
-0.403578 0.368241 0.956909
-0.402288 0.369219 0.842357
-0.396972 0.364644 0.835148
-0.402011 0.367804 0.715746
-0.407830 0.354526 0.035369
-0.402302 0.350007 0.032585
-0.396884 0.364024 0.033183
-0.402284 0.368930 0.036499
-0.407205 0.367321 -0.496247
-0.398964 0.367334 -0.488119
-0.412118 0.384158 0.964301
-0.404454 0.384250 0.956082
-0.402133 0.384343 0.713449
-0.403864 0.382400 -0.500718
-0.395649 0.383728 -0.490966
-0.402419 0.401569 0.957599
-0.411516 0.395553 0.964772
-0.402472 0.383865 0.849450
-0.408213 0.389024 0.856535
-0.397498 0.400575 0.851834
-0.405719 0.400491 0.858004
-0.402095 0.400742 0.711486
-0.394039 0.392806 -0.492309
-0.396810 0.399027 -0.498881
-0.408179 0.386932 -0.512094
-0.405265 0.398515 -0.516504
-0.409323 0.406637 0.966544
-0.407843 0.417076 0.967434
-0.395292 0.411752 0.853563
-0.401272 0.417031 0.859363
-0.402056 0.416142 0.708765
-0.395377 0.411961 -0.503159
-0.397121 0.417121 -0.514972
-0.407653 0.402397 -0.531453
-0.401019 0.416587 -0.531412
-0.408983 0.405841 -0.544011
-0.405555 0.415359 -0.549036
-0.406171 0.433339 0.968067
-0.407606 0.420988 0.704969
-0.402125 0.434185 0.702286
-0.396618 0.429204 0.707800
-0.395534 0.427636 -0.531484
-0.394613 0.425987 -0.520524
-0.397170 0.430329 -0.548398
-0.407972 0.420460 -0.564811
-0.399353 0.434188 -0.564137
-0.409765 0.423752 -0.574660
-0.405917 0.432292 -0.580585
-0.404704 0.449535 0.968104
-0.401947 0.432769 0.866525
-0.407364 0.437932 0.872526
-0.396430 0.444906 0.869316
-0.401985 0.449988 0.874502
-0.401747 0.449017 0.694447
-0.397032 0.446119 -0.581297
-0.395192 0.443210 -0.568923
-0.407839 0.437543 -0.597909
-0.399263 0.450405 -0.597629
-0.409627 0.440119 -0.607716
-0.406561 0.449582 -0.613876
-0.400945 0.465572 0.968572
-0.407002 0.453840 0.687446
-0.401679 0.466354 0.684664
-0.395975 0.461315 0.691725
-0.395207 0.460077 -0.602994
-0.397796 0.465619 -0.614610
-0.408941 0.455189 -0.625490
-0.405764 0.465257 -0.630535
-0.401820 0.482291 0.970185
-0.401412 0.480917 0.677333
-0.402937 0.466221 0.046392
-0.408901 0.471871 0.051612
-0.406140 0.482447 0.052798
-0.397928 0.482426 0.048349
-0.395023 0.475688 -0.619572
-0.396858 0.481574 -0.631485
-0.408433 0.470410 -0.643306
-0.404029 0.480667 -0.647847
-0.402782 0.464912 -0.964745
-0.408583 0.458891 -0.966321
-0.401856 0.498614 0.968891
-0.401459 0.480946 0.883807
-0.406560 0.485485 0.889311
-0.395661 0.492372 0.885031
-0.402179 0.498660 0.894564
-0.406525 0.485546 0.671149
-0.401479 0.498006 0.667268
-0.395591 0.492147 0.675106
-0.401326 0.498951 0.054122
-0.395248 0.493624 0.050036
-0.395676 0.492678 -0.646451
-0.394123 0.490638 -0.637716
-0.406484 0.484504 -0.662916
-0.398299 0.496009 -0.663192
-0.408546 0.487724 -0.673759
-0.403005 0.499515 -0.678697
-0.400312 0.515440 0.966708
-0.408709 0.504893 0.905008
-0.397786 0.511372 0.899800
-0.403435 0.516504 0.910031
-0.400954 0.513809 0.658461
-0.408433 0.503875 -0.691068
-0.402596 0.515265 -0.695266
-0.397438 0.511393 -0.683295
-0.404724 0.521225 0.965142
-0.400311 0.529746 0.961325
-0.393796 0.523204 0.966090
-0.409086 0.521611 0.921948
-0.402841 0.532483 0.925982
-0.398109 0.528364 0.915114
-0.405717 0.518507 0.653372
-0.402155 0.531507 0.647743
-0.394709 0.524009 0.656602
-0.407743 0.519132 -0.708304
-0.401994 0.531247 -0.712163
-0.396754 0.527590 -0.699332
-0.401914 0.543435 0.952635
-0.407509 0.536573 0.939463
-0.401988 0.544408 0.943575
-0.396620 0.542513 0.930070
-0.409589 0.538994 0.638697
-0.404084 0.549429 0.633466
-0.398606 0.543733 0.642043
-0.407172 0.534875 -0.725360
-0.401179 0.546524 -0.730247
-0.396227 0.542275 -0.715946
-0.409587 0.555096 0.623685
-0.403994 0.566083 0.618522
-0.398597 0.561265 0.628161
-0.402592 0.547238 0.064724
-0.408339 0.552262 0.068039
-0.402627 0.565505 0.069405
-0.397413 0.560855 0.066013
-0.406200 0.550748 -0.741707
-0.400701 0.562298 -0.746928
-0.395219 0.557291 -0.735318
-0.409396 0.570879 0.607183
-0.403281 0.581524 0.603726
-0.398375 0.576753 0.613580
-0.406161 0.567270 -0.756999
-0.401122 0.579374 -0.762504
-0.395167 0.573424 -0.751976
-0.402317 0.591149 0.594897
-0.407067 0.585277 -0.771280
-0.401894 0.596733 -0.773373
-0.396111 0.591159 -0.767879
-0.402507 0.599632 0.582673
-0.408150 0.603659 0.573781
-0.402530 0.613159 0.570791
-0.397150 0.607584 0.576653
-0.401816 0.613716 -0.781881
-0.401883 0.629539 0.562963
-0.402285 0.615665 0.087255
-0.402290 0.607432 0.082503
-0.406942 0.619411 -0.788092
-0.402723 0.630350 -0.794486
-0.396001 0.623364 -0.785554
-0.402435 0.613583 -0.950491
-0.407973 0.619196 -0.949323
-0.397011 0.625392 -0.950166
-0.402388 0.630429 -0.948726
-0.407067 0.634847 0.556218
-0.401855 0.642639 0.550929
-0.396075 0.639072 0.560488
-0.409414 0.637285 -0.804133
-0.403288 0.647564 -0.805764
-0.398484 0.643065 -0.800548
-0.402433 0.650668 0.535032
-0.407958 0.652483 0.519553
-0.401063 0.661487 0.513818
-0.397020 0.657075 0.529943
-0.402227 0.639068 0.099375
-0.402241 0.647280 0.104980
-0.403252 0.663287 -0.812637
-0.404637 0.665109 0.499683
-0.396450 0.672232 0.499872
-0.394207 0.670953 0.508013
-0.407313 0.667503 0.484589
-0.399104 0.673753 0.484749
-0.408729 0.669137 0.474230
-0.402824 0.674856 0.468956
-0.402204 0.667386 0.120137
-0.402212 0.659185 0.113281
-0.409340 0.669212 -0.818877
-0.403241 0.678981 -0.822130
-0.398381 0.673579 -0.815381
-0.401095 0.681688 0.451111
-0.406126 0.684477 0.433909
-0.397942 0.690358 0.434333
-0.394915 0.687867 0.444802
-0.409279 0.686332 0.422870
-0.402159 0.695150 0.417175
-0.401053 0.681210 0.140502
-0.405750 0.684975 0.151762
-0.401071 0.689647 0.156987
-0.394878 0.687559 0.146431
-0.402169 0.673169 0.127711
-0.402259 0.695345 -0.830945
-0.402174 0.683735 -0.931387
-0.402201 0.675577 -0.935764
-0.405562 0.699124 0.400490
-0.395073 0.704340 0.411324
-0.397369 0.705988 0.400790
-0.407946 0.701217 0.384325
-0.399759 0.707803 0.384563
-0.408973 0.702132 0.368910
-0.400786 0.708985 0.369054
-0.409750 0.702822 0.358664
-0.403503 0.709513 0.353177
-0.410243 0.703490 0.197980
-0.406979 0.701470 0.189787
-0.398835 0.707269 0.190001
-0.403023 0.712005 0.204653
-0.401200 0.697639 0.174394
-0.395076 0.704335 0.180814
-0.407696 0.700767 -0.836216
-0.402251 0.711658 -0.838941
-0.396745 0.706186 -0.833557
-0.409752 0.703245 -0.917695
-0.403466 0.696821 -0.923728
-0.398890 0.706906 -0.919703
-0.403427 0.712170 -0.914453
-0.401436 0.714703 0.338066
-0.404558 0.714509 0.320382
-0.395414 0.721037 0.333748
-0.396417 0.721920 0.320640
-0.405193 0.714824 0.304414
-0.397035 0.722492 0.304520
-0.405945 0.715530 0.288232
-0.397777 0.723142 0.288311
-0.406917 0.716544 0.271884
-0.398759 0.723982 0.272026
-0.407832 0.717427 0.255378
-0.399680 0.724891 0.255556
-0.408159 0.717682 0.238765
-0.400004 0.725366 0.238972
-0.406426 0.715969 0.222307
-0.398294 0.723731 0.222597
-0.395821 0.721388 0.211426
-0.401622 0.727800 -0.847482
-0.406625 0.732992 -0.855576
-0.401615 0.740109 -0.860519
-0.395720 0.737456 -0.850428
-0.401603 0.728460 -0.904669
-0.406709 0.734114 -0.897844
-0.401652 0.741405 -0.892455
-0.395788 0.737449 -0.901261
-0.402279 0.745693 -0.876113
-0.383797 -0.897335 -0.436704
-0.377924 -0.900756 -0.451266
-0.377379 -0.900617 -0.442562
-0.386023 -0.897711 -0.451424
-0.378153 -0.900853 -0.467235
-0.386231 -0.897905 -0.467416
-0.384022 -0.898000 -0.483216
-0.377718 -0.900775 -0.477576
-0.385558 -0.887052 -0.387287
-0.391197 -0.882783 -0.381732
-0.380321 -0.885393 -0.375770
-0.385542 -0.880313 -0.370708
-0.390777 -0.882751 -0.564556
-0.382692 -0.886016 -0.564479
-0.386870 -0.887485 -0.549383
-0.393188 -0.883933 -0.555706
-0.385082 -0.880600 -0.580859
-0.379409 -0.884852 -0.575398
-0.391679 -0.866913 -0.348272
-0.385858 -0.872367 -0.354182
-0.380795 -0.869661 -0.342222
-0.385763 -0.864519 -0.337391
-0.384452 -0.863795 -0.628788
-0.378379 -0.868543 -0.622563
-0.384498 -0.870167 -0.612545
-0.389157 -0.866429 -0.617368
-0.389801 -0.849747 -0.317193
-0.384653 -0.855984 -0.322299
-0.378944 -0.852821 -0.311910
-0.384685 -0.845984 -0.306230
-0.386033 -0.848910 -0.662579
-0.380906 -0.853207 -0.656865
-0.385951 -0.855650 -0.647166
-0.391682 -0.851025 -0.653234
-0.385112 -0.831263 -0.286220
-0.385166 -0.837815 -0.294255
-0.383547 -0.822187 -0.273870
-0.387866 -0.814962 -0.269013
-0.376907 -0.818946 -0.264421
-0.382848 -0.809073 -0.258303
-0.388751 -0.798514 -0.252037
-0.377885 -0.803164 -0.247422
-0.383373 -0.792859 -0.241732
-0.388879 -0.781533 -0.235991
-0.377970 -0.787110 -0.230971
-0.384057 -0.777013 -0.227963
-0.384325 -0.777471 -0.774091
-0.378201 -0.786051 -0.769580
-0.384368 -0.790845 -0.761358
-0.388947 -0.782904 -0.767180
-0.385084 -0.766704 -0.219373
-0.384033 -0.757733 -0.208278
-0.388625 -0.750802 -0.203218
-0.384680 -0.744825 -0.191378
-0.377693 -0.753962 -0.198379
-0.391693 -0.735449 -0.183909
-0.386046 -0.729339 -0.174322
-0.380788 -0.738625 -0.180135
-0.391246 -0.718681 -0.168080
-0.385553 -0.712768 -0.158572
-0.380249 -0.722936 -0.164081
-0.392162 -0.717792 -0.817664
-0.381344 -0.723758 -0.820578
-0.386253 -0.728975 -0.814688
-0.384916 -0.710860 -0.825844
-0.390717 -0.702532 -0.152470
-0.385486 -0.696239 -0.142072
-0.379695 -0.706407 -0.148140
-0.385721 -0.708313 -0.570562
-0.385751 -0.708324 -0.580889
-0.385765 -0.706952 -0.589190
-0.388931 -0.695495 -0.831985
-0.377592 -0.703837 -0.834988
-0.380856 -0.695435 -0.838032
-0.391138 -0.686332 -0.135275
-0.386610 -0.679925 -0.124724
-0.380179 -0.689648 -0.131696
-0.391204 -0.691570 -0.456660
-0.385817 -0.693797 -0.465130
-0.385810 -0.687874 -0.450386
-0.380353 -0.690571 -0.458887
-0.385828 -0.698794 -0.482573
-0.385790 -0.701217 -0.499428
-0.385758 -0.702839 -0.516595
-0.385751 -0.704409 -0.533524
-0.385751 -0.705918 -0.550454
-0.385752 -0.707026 -0.562094
-0.385808 -0.705031 -0.600714
-0.385820 -0.701695 -0.617167
-0.385743 -0.696477 -0.633679
-0.385678 -0.692001 -0.643776
-0.385693 -0.687094 -0.651850
-0.386390 -0.680081 -0.844651
-0.392681 -0.685976 -0.835628
-0.392997 -0.670454 -0.117346
-0.386561 -0.663793 -0.108993
-0.382080 -0.673255 -0.114681
-0.393827 -0.674638 -0.424560
-0.387423 -0.678297 -0.431880
-0.387404 -0.669843 -0.417962
-0.382983 -0.673978 -0.425621
-0.385682 -0.678857 -0.665124
-0.385620 -0.673807 -0.673229
-0.391029 -0.666303 -0.850266
-0.380141 -0.674161 -0.853166
-0.385614 -0.661642 -0.856198
-0.390875 -0.652469 -0.102939
-0.385230 -0.646473 -0.093418
-0.379847 -0.656663 -0.098992
-0.385942 -0.660930 -0.403851
-0.385668 -0.668047 -0.683016
-0.385727 -0.660618 -0.694806
-0.385680 -0.654470 -0.703048
-0.391088 -0.630923 -0.086932
-0.379468 -0.640067 -0.082571
-0.381999 -0.629191 -0.076931
-0.387645 -0.643568 -0.368576
-0.394158 -0.641813 -0.358959
-0.387609 -0.636541 -0.352428
-0.383299 -0.639708 -0.363955
-0.385946 -0.649709 -0.383525
-0.385944 -0.655674 -0.395512
-0.385671 -0.646082 -0.713112
-0.385691 -0.639188 -0.721115
-0.381366 -0.629923 -0.872518
-0.379229 -0.641488 -0.869286
-0.385045 -0.646828 -0.863159
-0.389561 -0.630088 -0.866114
-0.389462 -0.616093 -0.076248
-0.377518 -0.622324 -0.067436
-0.379843 -0.612709 -0.061176
-0.393444 -0.622369 -0.084439
-0.393062 -0.626181 -0.324935
-0.386984 -0.628446 -0.335877
-0.382257 -0.622860 -0.330897
-0.386976 -0.620357 -0.319258
-0.385894 -0.630345 -0.733248
-0.391467 -0.626247 -0.741764
-0.384777 -0.617637 -0.749410
-0.380488 -0.624293 -0.739193
-0.382956 -0.613690 -0.876954
-0.391327 -0.613922 -0.868294
-0.386392 -0.597564 0.369630
-0.381354 -0.607397 0.353157
-0.379240 -0.606127 0.363461
-0.389516 -0.601404 0.353752
-0.383581 -0.608961 0.336809
-0.391788 -0.603191 0.337698
-0.392251 -0.603463 0.321425
-0.384040 -0.609445 0.320653
-0.390796 -0.601645 0.304936
-0.382636 -0.608609 0.304739
-0.380346 -0.607076 0.292793
-0.386061 -0.597582 0.287581
-0.386373 -0.598499 -0.059717
-0.377638 -0.605751 -0.050882
-0.379686 -0.597818 -0.048549
-0.392204 -0.599185 -0.070619
-0.385933 -0.613472 -0.305014
-0.391388 -0.611338 -0.291628
-0.384982 -0.602255 -0.285881
-0.380546 -0.606670 -0.300116
-0.389044 -0.611381 -0.760593
-0.383953 -0.602506 -0.766759
-0.377965 -0.608678 -0.756528
-0.382768 -0.598062 -0.880962
-0.391934 -0.597790 -0.867814
-0.393648 -0.589041 0.376128
-0.388148 -0.584497 0.386305
-0.382641 -0.592940 0.380949
-0.391778 -0.585123 0.281928
-0.380844 -0.593104 0.273570
-0.386131 -0.581690 0.269255
-0.391425 -0.583786 -0.060474
-0.382425 -0.582202 -0.042943
-0.393516 -0.589656 -0.068489
-0.392384 -0.594623 -0.254301
-0.393831 -0.592961 -0.243941
-0.383480 -0.583502 -0.254910
-0.389681 -0.585025 -0.238391
-0.389089 -0.598327 -0.271635
-0.380959 -0.588809 -0.271010
-0.378587 -0.591720 -0.279788
-0.390380 -0.596381 -0.780062
-0.382325 -0.585186 -0.782076
-0.378632 -0.591648 -0.772642
-0.393508 -0.593356 -0.788737
-0.390609 -0.584191 -0.794719
-0.384788 -0.581051 -0.879965
-0.391734 -0.581583 -0.862822
-0.379017 -0.580760 -0.889496
-0.378341 -0.592844 -0.888162
-0.393627 -0.573948 0.392136
-0.385786 -0.566465 0.399567
-0.382575 -0.579409 0.394896
-0.390009 -0.565108 0.268261
-0.380437 -0.578068 0.257923
-0.381821 -0.564900 0.255863
-0.379257 -0.565989 -0.031506
-0.378551 -0.576281 -0.033042
-0.385128 -0.566592 -0.043341
-0.391559 -0.567255 -0.060373
-0.391798 -0.579706 -0.220177
-0.393545 -0.577045 -0.208962
-0.388423 -0.569099 -0.203700
-0.382625 -0.567731 -0.219844
-0.380631 -0.573192 -0.238455
-0.378662 -0.575270 -0.249854
-0.381989 -0.570780 -0.796769
-0.379300 -0.574111 -0.788233
-0.392584 -0.578624 -0.806352
-0.386127 -0.567392 -0.811056
-0.393419 -0.576552 -0.849158
-0.390241 -0.567666 -0.843488
-0.386819 -0.565438 -0.863014
-0.381190 -0.563612 -0.881279
-0.378665 -0.567918 -0.889334
-0.387585 -0.550808 0.403042
-0.379082 -0.550497 0.409029
-0.377281 -0.558336 0.408204
-0.390018 -0.548930 0.269047
-0.381127 -0.547703 0.253211
-0.379223 -0.550155 -0.029492
-0.383540 -0.550517 -0.043352
-0.387718 -0.550943 -0.059281
-0.393240 -0.562103 -0.071000
-0.391072 -0.552354 -0.074426
-0.392001 -0.562798 -0.154216
-0.393233 -0.560860 -0.141304
-0.385030 -0.551495 -0.154091
-0.389181 -0.552963 -0.136522
-0.390428 -0.565052 -0.170482
-0.381561 -0.550588 -0.169862
-0.389083 -0.566377 -0.186907
-0.380941 -0.554480 -0.187284
-0.379239 -0.557468 -0.204363
-0.377985 -0.559390 -0.213629
-0.389493 -0.566175 -0.826474
-0.381405 -0.552082 -0.826537
-0.379733 -0.555900 -0.814901
-0.381623 -0.549553 -0.844857
-0.380472 -0.549933 -0.863256
-0.378985 -0.552807 -0.876676
-0.390111 -0.534752 0.404366
-0.381758 -0.534558 0.410414
-0.384278 -0.532111 0.255084
-0.391239 -0.532291 0.267815
-0.377673 -0.541364 0.245576
-0.378647 -0.531932 0.244719
-0.378743 -0.533529 -0.025773
-0.381936 -0.534565 -0.042839
-0.384501 -0.534757 -0.057854
-0.386020 -0.534839 -0.072378
-0.391143 -0.549655 -0.088444
-0.385659 -0.534918 -0.088223
-0.390735 -0.549368 -0.104652
-0.384119 -0.534989 -0.104673
-0.389879 -0.550315 -0.121144
-0.382517 -0.535040 -0.121135
-0.380049 -0.534503 -0.137134
-0.378911 -0.539922 -0.154070
-0.378025 -0.542498 -0.164020
-0.390515 -0.518440 0.404671
-0.382170 -0.518239 0.410845
-0.386943 -0.515411 0.255924
-0.392675 -0.515440 0.266073
-0.379890 -0.515451 0.243528
-0.377588 -0.525729 -0.018172
-0.377575 -0.527334 -0.018172
-0.378316 -0.522192 -0.026556
-0.379419 -0.517089 -0.040624
-0.381098 -0.518527 -0.056306
-0.381487 -0.518490 -0.071799
-0.380004 -0.518130 -0.087389
-0.379307 -0.522849 -0.104734
-0.378533 -0.524954 -0.121167
-0.377971 -0.526177 -0.131270
-0.385760 -0.500533 0.403540
-0.380223 -0.504947 0.409946
-0.393015 -0.498869 0.265660
-0.387443 -0.498862 0.256127
-0.379968 -0.498860 0.243571
-0.378301 -0.509000 -0.055864
-0.378102 -0.509347 -0.044143
-0.378158 -0.509359 -0.071808
-0.377903 -0.509834 -0.081346
-0.386089 -0.486228 0.396626
-0.392521 -0.482576 0.266855
-0.386300 -0.482477 0.256069
-0.379284 -0.482324 0.244339
-0.391899 -0.481250 0.388800
-0.386762 -0.467757 0.384192
-0.380837 -0.472961 0.394095
-0.391408 -0.465323 0.271689
-0.383917 -0.466362 0.254709
-0.378552 -0.466008 0.244131
-0.392599 -0.462331 0.373520
-0.387289 -0.449436 0.367932
-0.381578 -0.456109 0.379768
-0.393661 -0.459040 0.281173
-0.392578 -0.450066 0.283629
-0.387743 -0.450406 0.270913
-0.381302 -0.450201 0.253523
-0.377925 -0.449739 0.244505
-0.392788 -0.443246 0.355888
-0.386701 -0.433440 0.351350
-0.381846 -0.437721 0.363016
-0.385188 -0.433864 0.271589
-0.391398 -0.432517 0.289253
-0.379947 -0.433638 0.254731
-0.377565 -0.433315 0.246275
-0.391500 -0.429364 0.338625
-0.385543 -0.417779 0.333758
-0.380504 -0.422181 0.346917
-0.393481 -0.426282 0.298812
-0.389070 -0.417191 0.288723
-0.391481 -0.418355 0.303411
-0.384277 -0.417222 0.272349
-0.380295 -0.417052 0.255922
-0.378089 -0.416871 0.244677
-0.389718 -0.415783 0.318079
-0.381503 -0.403959 0.318499
-0.379568 -0.407360 0.328900
-0.383918 -0.399432 0.305310
-0.387441 -0.400686 0.288688
-0.384098 -0.400725 0.272276
-0.381592 -0.400667 0.255959
-0.379609 -0.401388 0.239030
-0.380881 -0.388294 0.301438
-0.383084 -0.383576 0.289633
-0.385924 -0.384468 0.272141
-0.384994 -0.384428 0.255883
-0.383761 -0.384453 0.239673
-0.378669 -0.396603 0.227570
-0.380403 -0.385267 0.222434
-0.390154 -0.368396 0.272126
-0.382358 -0.368868 0.284611
-0.391192 -0.368259 0.254800
-0.388363 -0.368533 0.239560
-0.385214 -0.368671 0.223071
-0.380871 -0.369837 0.205463
-0.378633 -0.380516 0.210209
-0.389336 -0.351752 0.272211
-0.380415 -0.352993 0.281448
-0.393290 -0.351466 0.254838
-0.392010 -0.352430 0.239500
-0.389661 -0.352494 0.223056
-0.386645 -0.352489 0.206608
-0.379070 -0.364979 0.190084
-0.383284 -0.352390 0.190214
-0.379434 -0.351228 0.174744
-0.378007 -0.361818 0.180724
-0.382238 -0.337870 0.271968
-0.378046 -0.344203 0.280474
-0.390894 -0.336211 0.255987
-0.393400 -0.336785 0.240392
-0.392838 -0.340462 0.223047
-0.391770 -0.335510 0.205926
-0.388584 -0.335905 0.190291
-0.384165 -0.335895 0.173956
-0.377852 -0.345044 0.164840
-0.379091 -0.334536 0.158568
-0.388920 -0.319966 0.255952
-0.381031 -0.320321 0.268596
-0.393534 -0.319704 0.246661
-0.392547 -0.323794 0.190286
-0.393578 -0.326909 0.199975
-0.390025 -0.318404 0.174924
-0.383198 -0.319541 0.157366
-0.377595 -0.328168 0.148780
-0.378677 -0.319673 0.145911
-0.389772 -0.304448 0.254371
-0.380833 -0.303912 0.272697
-0.393735 -0.310401 0.247514
-0.387706 -0.302943 0.157297
-0.392519 -0.302841 0.168942
-0.380694 -0.303280 0.140089
-0.387679 -0.287077 0.354423
-0.380133 -0.298726 0.354492
-0.379166 -0.297245 0.367198
-0.383230 -0.287800 0.371896
-0.387171 -0.287370 0.337476
-0.380099 -0.298986 0.337406
-0.379920 -0.298787 0.320603
-0.387105 -0.287519 0.320711
-0.379784 -0.298299 0.304462
-0.388897 -0.286080 0.304194
-0.379622 -0.299022 0.288268
-0.387797 -0.288095 0.288187
-0.388074 -0.287564 0.272036
-0.390225 -0.289750 0.258815
-0.391871 -0.290620 0.157269
-0.393717 -0.294439 0.165586
-0.388254 -0.284906 0.142294
-0.378366 -0.297859 0.129921
-0.380745 -0.286538 0.124474
-0.385477 -0.269137 0.418665
-0.378601 -0.279341 0.402630
-0.378359 -0.278772 0.413313
-0.387892 -0.268296 0.401949
-0.388986 -0.269012 0.387337
-0.379970 -0.282235 0.386670
-0.391597 -0.275054 0.370758
-0.393163 -0.277640 0.354370
-0.392678 -0.277142 0.337542
-0.392787 -0.277518 0.320810
-0.393406 -0.278555 0.309523
-0.391595 -0.273492 0.137810
-0.388949 -0.268701 0.125456
-0.378785 -0.281165 0.113788
-0.380809 -0.269081 0.108304
-0.389173 -0.252839 0.454014
-0.379983 -0.264008 0.452654
-0.377647 -0.261383 0.461442
-0.382179 -0.252696 0.467680
-0.383037 -0.266948 0.435823
-0.391231 -0.257964 0.435787
-0.392613 -0.259747 0.424089
-0.393170 -0.260733 0.393063
-0.393167 -0.260704 0.396031
-0.392040 -0.257246 0.120666
-0.388054 -0.252593 0.109276
-0.378028 -0.263206 0.099265
-0.379792 -0.253761 0.096526
-0.387835 -0.239761 0.484962
-0.379692 -0.246892 0.484778
-0.377961 -0.245076 0.494196
-0.384197 -0.239141 0.499639
-0.391385 -0.242523 0.469005
-0.393616 -0.244477 0.460479
-0.382811 -0.237985 0.091024
-0.391125 -0.237349 0.104123
-0.391251 -0.226800 0.522436
-0.385647 -0.232413 0.516450
-0.386907 -0.221043 0.535332
-0.380375 -0.229490 0.527676
-0.390145 -0.222176 0.091297
-0.393181 -0.228032 0.100785
-0.379026 -0.232969 0.081972
-0.381004 -0.220085 0.076045
-0.393461 -0.211669 0.542930
-0.387008 -0.207204 0.551672
-0.382542 -0.215227 0.546505
-0.388392 -0.204275 0.076107
-0.392300 -0.209200 0.085501
-0.380031 -0.204856 0.063775
-0.377913 -0.213663 0.066769
-0.386376 -0.187146 0.570419
-0.385510 -0.197946 0.561762
-0.382785 -0.188557 0.057876
-0.391607 -0.188749 0.070278
-0.392436 -0.177790 0.574647
-0.385814 -0.170838 0.583808
-0.381508 -0.181680 0.577861
-0.393372 -0.179900 0.066801
-0.389679 -0.173493 0.057851
-0.380849 -0.172265 0.048801
-0.378357 -0.183082 0.050116
-0.390090 -0.159421 0.589659
-0.384979 -0.154073 0.596431
-0.379192 -0.163878 0.593079
-0.386193 -0.156514 0.045357
-0.391976 -0.162352 0.052242
-0.386070 -0.138923 0.605127
-0.384053 -0.136717 -0.959225
-0.377767 -0.146657 -0.954128
-0.377789 -0.146673 -0.951285
-0.384063 -0.139395 -0.945121
-0.391918 -0.126656 0.607454
-0.385042 -0.120316 0.616519
-0.380977 -0.134082 0.611881
-0.378334 -0.123923 0.032013
-0.378232 -0.133856 0.032820
-0.384462 -0.139263 0.038083
-0.386475 -0.123607 0.038591
-0.385446 -0.125231 -0.922315
-0.385409 -0.132790 -0.931108
-0.389107 -0.108259 0.620942
-0.378214 -0.114009 0.625570
-0.384400 -0.103579 0.627239
-0.388306 -0.107400 0.037584
-0.380138 -0.107758 0.028900
-0.385505 -0.108450 -0.905646
-0.385510 -0.117093 -0.914376
-0.385351 -0.088621 0.943102
-0.377946 -0.097141 0.928417
-0.377627 -0.096949 0.936784
-0.386103 -0.091031 0.928443
-0.377877 -0.097033 0.920245
-0.383211 -0.086764 0.913993
-0.384340 -0.087113 0.635483
-0.385686 -0.091250 0.022916
-0.391546 -0.096347 0.034658
-0.386825 -0.087730 -0.889031
-0.385519 -0.100318 -0.898450
-0.393100 -0.079647 0.949491
-0.382184 -0.084548 0.954314
-0.386374 -0.073280 0.959488
-0.388546 -0.075745 0.907703
-0.377619 -0.080376 0.904015
-0.384105 -0.070996 0.901502
-0.388998 -0.077184 0.638855
-0.378124 -0.080795 0.641234
-0.384332 -0.071845 0.643028
-0.390806 -0.077927 0.017917
-0.379834 -0.086046 0.011725
-0.384429 -0.072765 0.007598
-0.393154 -0.080106 -0.884249
-0.386862 -0.073912 -0.878883
-0.382250 -0.081695 -0.882985
-0.390539 -0.060495 0.964418
-0.385181 -0.055515 0.968222
-0.379661 -0.066909 0.967238
-0.385499 -0.055648 0.649250
-0.380546 -0.058212 -0.005022
-0.378229 -0.067606 -0.002422
-0.388812 -0.058162 0.003601
-0.385638 -0.061092 -0.870237
-0.385280 -0.039676 0.970996
-0.390832 -0.044726 0.889387
-0.379916 -0.050075 0.886601
-0.385483 -0.055640 0.892734
-0.385461 -0.039250 0.884166
-0.386215 -0.040382 0.654921
-0.391860 -0.046646 0.000541
-0.385127 -0.041147 -0.009381
-0.384420 -0.052686 -0.860647
-0.390236 -0.040438 -0.854779
-0.381304 -0.039358 -0.844459
-0.378156 -0.049550 -0.850866
-0.385300 -0.023102 0.972950
-0.392111 -0.028826 0.656569
-0.386186 -0.023158 0.662007
-0.381235 -0.035644 0.659242
-0.390299 -0.025348 -0.013930
-0.378539 -0.035766 -0.019223
-0.382052 -0.025541 -0.021859
-0.384979 -0.024209 -0.827911
-0.377755 -0.033250 -0.834484
-0.389975 -0.029426 -0.843092
-0.393898 -0.032282 -0.851369
-0.385317 -0.006841 0.972978
-0.381851 -0.006528 0.868357
-0.378407 -0.015916 0.870284
-0.384571 -0.022017 0.876126
-0.390025 -0.006563 0.872798
-0.384656 -0.006812 0.669546
-0.393456 -0.016130 -0.016842
-0.385890 -0.009637 -0.025263
-0.380919 -0.008529 -0.697485
-0.377860 -0.017144 -0.707110
-0.377853 -0.017130 -0.703952
-0.381916 -0.009702 -0.712249
-0.383297 -0.009258 -0.744033
-0.381875 -0.020501 -0.761039
-0.379784 -0.018858 -0.749210
-0.389053 -0.008564 -0.761029
-0.387946 -0.008705 -0.777514
-0.380994 -0.020133 -0.777528
-0.386348 -0.008854 -0.793922
-0.379498 -0.019633 -0.793944
-0.381477 -0.020712 -0.810260
-0.390161 -0.008592 -0.809666
-0.392223 -0.013519 -0.821336
-0.385320 0.008926 0.971137
-0.386894 0.008555 0.865255
-0.393217 0.002279 0.871072
-0.389278 0.009454 0.671685
-0.378656 -0.001547 0.675761
-0.381102 0.009576 0.679148
-0.388770 0.006920 -0.027371
-0.378385 -0.003141 -0.033658
-0.380648 0.006794 -0.034633
-0.390232 0.007127 -0.695175
-0.379019 -0.003107 -0.685876
-0.382611 0.007671 -0.679987
-0.390862 0.003494 -0.712426
-0.382010 -0.006806 -0.728222
-0.390192 0.004428 -0.728219
-0.391194 0.003130 -0.744568
-0.392815 0.001009 -0.761031
-0.392616 0.001057 -0.777492
-0.392540 0.001034 -0.793895
-0.393292 -0.000008 -0.803832
-0.385335 0.025189 0.968877
-0.391931 0.020069 0.673355
-0.386036 0.024852 0.683641
-0.383695 0.023206 -0.036260
-0.391784 0.023299 -0.029129
-0.384577 0.022121 -0.661567
-0.379368 0.013206 -0.666248
-0.391301 0.022230 -0.678024
-0.393403 0.015767 -0.688800
-0.386371 0.040387 0.967083
-0.385702 0.042968 0.849599
-0.380333 0.030038 0.852276
-0.385715 0.025156 0.858121
-0.391205 0.037919 0.855990
-0.390971 0.037927 0.687858
-0.380121 0.029561 0.693205
-0.385491 0.043029 0.695290
-0.385676 0.040584 -0.038744
-0.393312 0.034389 -0.030410
-0.382306 0.039835 -0.614677
-0.379764 0.029588 -0.630014
-0.377843 0.031448 -0.620916
-0.388915 0.039876 -0.628690
-0.383038 0.025925 -0.646410
-0.391215 0.034248 -0.646395
-0.393089 0.032652 -0.662811
-0.393553 0.032119 -0.671346
-0.392492 0.050790 0.966670
-0.385461 0.058078 0.702005
-0.378288 0.055789 -0.048155
-0.377960 0.046841 -0.047654
-0.386417 0.055904 -0.040826
-0.380088 0.056905 -0.581730
-0.379692 0.045697 -0.597236
-0.377834 0.048062 -0.587837
-0.386048 0.056397 -0.597239
-0.391718 0.055088 -0.612283
-0.393433 0.048895 -0.622363
-0.386392 0.056863 0.963011
-0.395316 0.061203 0.964468
-0.385418 0.073864 0.956755
-0.397185 0.073826 0.962036
-0.385385 0.074866 0.830227
-0.380610 0.062148 0.834733
-0.385872 0.057459 0.842566
-0.391486 0.069953 0.840342
-0.390947 0.070634 0.704233
-0.380026 0.063131 0.709786
-0.384517 0.076200 0.714156
-0.386577 0.072163 -0.042857
-0.378500 0.072097 -0.049693
-0.388621 0.072980 -0.581206
-0.378187 0.062489 -0.570845
-0.380541 0.073321 -0.564904
-0.391945 0.067351 -0.597271
-0.393551 0.064816 -0.605973
-0.398893 0.090111 0.960558
-0.385437 0.090136 0.954148
-0.381453 0.091393 0.813210
-0.379255 0.079586 0.819140
-0.390119 0.090982 0.825646
-0.387929 0.091530 0.716952
-0.378055 0.081809 0.724576
-0.379720 0.091658 0.727631
-0.378241 0.081783 -0.050752
-0.385755 0.088610 -0.042656
-0.389590 0.088437 -0.563087
-0.378109 0.079326 -0.553767
-0.382295 0.088448 -0.548067
-0.392038 0.082522 -0.575991
-0.400099 0.106715 0.959955
-0.385441 0.106725 0.952911
-0.388554 0.107213 0.814034
-0.392534 0.102074 0.822959
-0.378101 0.097034 0.802034
-0.380253 0.106303 0.796432
-0.390459 0.107801 0.719208
-0.381880 0.107409 0.732845
-0.393601 0.095726 -0.034221
-0.383891 0.105097 -0.039798
-0.392132 0.105222 -0.033047
-0.382538 0.106042 -0.515968
-0.380997 0.091395 -0.531770
-0.379711 0.093174 -0.521267
-0.390058 0.106783 -0.531183
-0.391172 0.101650 -0.547755
-0.393282 0.097933 -0.556748
-0.385466 0.117604 0.950888
-0.391271 0.123479 0.809302
-0.386395 0.123366 0.796892
-0.383091 0.123436 0.779727
-0.379088 0.110272 0.779382
-0.381808 0.123688 0.763267
-0.378702 0.110713 0.763415
-0.381329 0.124048 0.747823
-0.378695 0.110717 0.748021
-0.386098 0.124078 0.731817
-0.392328 0.123886 0.721678
-0.389550 0.121721 -0.029891
-0.381415 0.121539 -0.036565
-0.381115 0.121546 -0.505551
-0.378219 0.111979 -0.507604
-0.390098 0.120023 -0.515236
-0.393690 0.113581 -0.525526
-0.385481 0.125493 0.947184
-0.394410 0.128161 0.949014
-0.385545 0.138826 0.942541
-0.395216 0.138846 0.947890
-0.391917 0.139192 0.796149
-0.393140 0.133259 0.806847
-0.388126 0.140092 0.780319
-0.385372 0.140295 0.763361
-0.383967 0.140295 0.747617
-0.389328 0.139401 0.730709
-0.393251 0.133420 0.722901
-0.385151 0.138992 -0.027220
-0.379311 0.133884 -0.033754
-0.392413 0.132477 -0.509356
-0.386510 0.137892 -0.502940
-0.395140 0.155372 0.948081
-0.385532 0.155367 0.942486
-0.392523 0.154642 0.778985
-0.393658 0.148477 0.789882
-0.389205 0.156089 0.763331
-0.386762 0.156213 0.747470
-0.389839 0.156237 0.734504
-0.384639 0.154330 -0.497454
-0.383957 0.173369 0.940895
-0.395079 0.171879 0.948055
-0.393671 0.166293 0.772128
-0.392273 0.171683 0.764562
-0.389042 0.171988 0.747629
-0.390810 0.172247 0.736429
-0.388715 0.170503 -0.496426
-0.378425 0.159869 -0.492278
-0.380538 0.170477 -0.490856
-0.388366 0.183667 0.938500
-0.396585 0.188475 0.943021
-0.389391 0.187942 0.748048
-0.392573 0.187829 0.761699
-0.390622 0.188135 0.736483
-0.386539 0.171114 -0.019157
-0.392501 0.176565 -0.013823
-0.390056 0.187565 -0.011482
-0.381895 0.187500 -0.017289
-0.391564 0.184011 -0.494990
-0.385998 0.188471 -0.489459
-0.394539 0.194028 0.934478
-0.384002 0.188396 0.932965
-0.385604 0.203656 0.928636
-0.395098 0.203691 0.933821
-0.392481 0.205130 0.764671
-0.388391 0.204229 0.748304
-0.389913 0.204323 0.735933
-0.378924 0.203775 -0.015427
-0.387102 0.203770 -0.008966
-0.384473 0.204041 -0.483618
-0.394757 0.215061 0.934267
-0.385873 0.220559 0.931833
-0.393667 0.211293 0.772943
-0.390280 0.220745 0.764384
-0.392750 0.220778 0.774503
-0.388016 0.220800 0.748360
-0.390421 0.220860 0.736702
-0.377694 0.212176 -0.014589
-0.384228 0.218722 -0.008342
-0.387831 0.219690 -0.482320
-0.378134 0.209987 -0.476937
-0.379624 0.219705 -0.475800
-0.391495 0.233141 0.936960
-0.396302 0.237992 0.942210
-0.396967 0.220703 0.942099
-0.391496 0.226364 0.936918
-0.388308 0.237159 0.764357
-0.391429 0.237080 0.777494
-0.387610 0.237174 0.748343
-0.390693 0.237158 0.737032
-0.390410 0.236082 -0.480248
-0.382227 0.236103 -0.473838
-0.393966 0.243931 0.935398
-0.385871 0.237903 0.932924
-0.385470 0.253362 0.925884
-0.395340 0.253036 0.933127
-0.386972 0.253495 0.764316
-0.390521 0.252629 0.781874
-0.386341 0.253224 0.748171
-0.389980 0.253088 0.736230
-0.393099 0.241917 0.002424
-0.386936 0.236610 -0.002903
-0.382822 0.252838 -0.001673
-0.390989 0.252844 0.004371
-0.392475 0.248380 -0.478646
-0.386509 0.253339 -0.472806
-0.385474 0.270190 0.924121
-0.395919 0.269399 0.932067
-0.392615 0.257429 0.792612
-0.387363 0.269706 0.780780
-0.391639 0.269607 0.794971
-0.385161 0.269685 0.763970
-0.385625 0.269402 0.747859
-0.390029 0.269288 0.736088
-0.385667 0.270216 0.005978
-0.380026 0.265456 0.000134
-0.385713 0.268928 -0.469882
-0.387092 0.253499 -0.966791
-0.400598 0.253501 -0.967732
-0.394087 0.259628 -0.966323
-0.393398 0.259615 -0.966319
-0.392125 0.268877 -0.966167
-0.384030 0.268824 -0.966636
-0.394722 0.281510 0.933796
-0.386090 0.286876 0.930862
-0.384977 0.285817 0.780396
-0.390816 0.285933 0.796200
-0.382660 0.285787 0.763170
-0.385720 0.285804 0.747437
-0.390990 0.285875 0.736959
-0.385713 0.285320 -0.469151
-0.382318 0.285288 -0.966466
-0.390416 0.285342 -0.965908
-0.391928 0.302684 0.935688
-0.396754 0.302766 0.943227
-0.397033 0.286870 0.941553
-0.391855 0.292917 0.935908
-0.382686 0.302140 0.780078
-0.390013 0.301522 0.798933
-0.380454 0.302093 0.762678
-0.383857 0.302192 0.747255
-0.390179 0.302353 0.736142
-0.385721 0.301703 -0.468784
-0.380058 0.301693 -0.966287
-0.388179 0.301746 -0.965740
-0.393207 0.312254 0.934900
-0.397354 0.318043 0.940800
-0.393012 0.306580 0.807049
-0.391639 0.318994 0.808837
-0.385998 0.318810 0.797502
-0.379922 0.320151 0.778299
-0.378511 0.320064 0.764031
-0.380238 0.318508 0.747463
-0.387628 0.318622 0.733894
-0.386981 0.302402 0.013638
-0.393150 0.308105 0.018850
-0.390693 0.318406 0.020805
-0.382538 0.318356 0.015311
-0.385730 0.318076 -0.468543
-0.384527 0.317166 -0.965739
-0.378214 0.311081 -0.966172
-0.394118 0.322898 0.934033
-0.386904 0.317988 0.931109
-0.385728 0.334288 0.931699
-0.394122 0.328280 0.934009
-0.381287 0.336090 0.795897
-0.390192 0.336505 0.813405
-0.378740 0.331173 0.783067
-0.377757 0.327603 0.759758
-0.378043 0.329794 0.747678
-0.384316 0.335338 0.734020
-0.379947 0.334770 0.016703
-0.388095 0.334871 0.022824
-0.386981 0.333559 -0.470976
-0.391237 0.339447 0.935836
-0.395566 0.351902 0.945694
-0.397018 0.334376 0.941353
-0.385648 0.352285 0.938171
-0.393549 0.342684 0.821449
-0.391979 0.351427 0.823267
-0.385272 0.351440 0.812535
-0.378938 0.351456 0.800275
-0.387045 0.352507 0.729510
-0.378761 0.351251 0.017205
-0.386904 0.351424 0.023838
-0.393223 0.338455 -0.478137
-0.392352 0.350911 -0.478863
-0.384203 0.350928 -0.470787
-0.385486 0.368156 0.939810
-0.395389 0.368286 0.946507
-0.379910 0.366306 0.813654
-0.389491 0.369173 0.829682
-0.377584 0.359974 0.802824
-0.393453 0.358599 0.723373
-0.391518 0.367839 0.721677
-0.383337 0.367848 0.728059
-0.385771 0.367763 0.025891
-0.378021 0.360619 0.017456
-0.390519 0.367315 -0.480729
-0.382342 0.367340 -0.472716
-0.396270 0.384288 0.945695
-0.385508 0.384166 0.938268
-0.393615 0.375708 0.838597
-0.391347 0.384309 0.840640
-0.382433 0.383340 0.830251
-0.378138 0.377136 0.820892
-0.387945 0.384254 0.719589
-0.379741 0.384108 0.724797
-0.393517 0.374858 0.034540
-0.392400 0.384300 0.035511
-0.384270 0.384142 0.028120
-0.387946 0.383701 -0.483503
-0.379758 0.383735 -0.475319
-0.395516 0.396401 0.947040
-0.384012 0.401497 0.945104
-0.388058 0.400656 0.843737
-0.379915 0.400633 0.835898
-0.384193 0.399837 0.719021
-0.377819 0.393703 0.723344
-0.383359 0.400477 0.028653
-0.391487 0.400648 0.036317
-0.385565 0.399624 -0.484902
-0.378130 0.395537 -0.476888
-0.383957 0.415801 0.952846
-0.399659 0.417214 0.960404
-0.388470 0.407584 0.950419
-0.378342 0.410356 0.837722
-0.385566 0.416500 0.846906
-0.385528 0.416987 0.715230
-0.391529 0.417035 0.036302
-0.383406 0.416840 0.028506
-0.392918 0.403719 -0.493231
-0.390825 0.417092 -0.498288
-0.382517 0.416547 -0.485836
-0.378771 0.412023 -0.966175
-0.378776 0.406934 -0.966190
-0.384830 0.400955 -0.965490
-0.384847 0.417144 -0.965453
-0.385372 0.433536 0.957522
-0.397967 0.433433 0.962412
-0.392785 0.422639 0.855558
-0.389050 0.433177 0.858281
-0.380896 0.433187 0.851963
-0.386542 0.434217 0.710563
-0.391800 0.433302 0.036113
-0.383670 0.433153 0.028617
-0.382099 0.433451 -0.498905
-0.379699 0.428277 -0.488047
-0.393042 0.422898 -0.509573
-0.389044 0.432063 -0.515014
-0.385367 0.449633 0.960440
-0.396495 0.449578 0.963974
-0.385107 0.448682 0.863500
-0.377603 0.441516 0.854796
-0.392667 0.440309 0.705917
-0.386668 0.451347 0.703745
-0.381836 0.446875 0.708657
-0.391754 0.449558 0.036276
-0.383621 0.449463 0.029028
-0.380316 0.445801 -0.514883
-0.378443 0.442583 -0.504395
-0.390755 0.435793 -0.531666
-0.382209 0.450551 -0.531040
-0.392439 0.438490 -0.548741
-0.386677 0.449317 -0.548934
-0.393494 0.440438 -0.558445
-0.390460 0.448931 -0.564298
-0.387045 0.449298 -0.965496
-0.378854 0.437212 -0.966195
-0.384879 0.432283 -0.965464
-0.378910 0.449243 -0.966215
-0.394890 0.459891 0.965301
-0.385371 0.462327 0.964213
-0.392556 0.455823 0.871772
-0.381615 0.465870 0.868586
-0.389729 0.465890 0.873456
-0.386535 0.466440 0.695419
-0.382329 0.465830 0.029758
-0.390455 0.465928 0.037691
-0.378591 0.459521 -0.536302
-0.379918 0.462044 -0.548789
-0.381199 0.466509 -0.565161
-0.392014 0.454304 -0.581318
-0.385932 0.465715 -0.581107
-0.393411 0.456596 -0.591516
-0.390898 0.465606 -0.597320
-0.378139 0.457926 -0.966173
-0.384485 0.464328 -0.964898
-0.385382 0.482327 0.968177
-0.385364 0.470508 0.966908
-0.378761 0.475553 0.870536
-0.384777 0.481545 0.876135
-0.392494 0.472098 0.689019
-0.386479 0.483591 0.686781
-0.381616 0.479074 0.692098
-0.379858 0.482247 0.031757
-0.387995 0.482350 0.040010
-0.379662 0.476956 -0.580918
-0.378106 0.474731 -0.570465
-0.381692 0.482442 -0.598369
-0.392576 0.471006 -0.608985
-0.388692 0.481563 -0.614100
-0.385418 0.498640 0.967530
-0.384962 0.497975 0.678220
-0.385615 0.498032 0.042949
-0.378154 0.491511 0.033543
-0.380199 0.493567 -0.614126
-0.378044 0.490988 -0.604555
-0.391476 0.486613 -0.626962
-0.385153 0.497775 -0.631474
-0.385462 0.514974 0.966491
-0.385017 0.498159 0.883080
-0.390071 0.503248 0.888505
-0.386180 0.515418 0.894072
-0.379192 0.508475 0.885143
-0.389973 0.503038 0.670998
-0.384997 0.514477 0.667433
-0.379101 0.508708 0.674582
-0.393087 0.504497 0.051344
-0.382920 0.515096 0.046341
-0.391077 0.515135 0.052294
-0.389298 0.500854 -0.646497
-0.378834 0.508558 -0.635768
-0.381122 0.511983 -0.646433
-0.392054 0.504205 -0.663590
-0.383344 0.516395 -0.662345
-0.393420 0.506021 -0.673069
-0.390791 0.516107 -0.678944
-0.384682 0.529772 0.966494
-0.393157 0.522309 0.903532
-0.382224 0.528448 0.899736
-0.387935 0.533916 0.909044
-0.384792 0.530210 0.659426
-0.379722 0.531494 0.048553
-0.387898 0.531522 0.053936
-0.382200 0.530988 -0.679925
-0.378767 0.525294 -0.667182
-0.393452 0.522273 -0.688632
-0.391062 0.532378 -0.694623
-0.389598 0.534158 0.964469
-0.385971 0.548175 0.958913
-0.378697 0.540837 0.966480
-0.393657 0.539349 0.920255
-0.388961 0.547922 0.925948
-0.381451 0.547770 0.915801
-0.389684 0.534923 0.653445
-0.385648 0.547830 0.647991
-0.378756 0.540948 0.657713
-0.384360 0.546976 0.055333
-0.377935 0.540916 0.049786
-0.379166 0.541547 -0.685037
-0.381649 0.547303 -0.696997
-0.393537 0.538517 -0.704905
-0.389303 0.547733 -0.711100
-0.391562 0.553741 0.942045
-0.383403 0.561531 0.941915
-0.382334 0.560421 0.953329
-0.379759 0.558198 0.927087
-0.377546 0.555940 0.919940
-0.392531 0.554711 0.638123
-0.389948 0.565800 0.632784
-0.380826 0.564358 0.642122
-0.377875 0.556080 -0.703395
-0.380341 0.559235 -0.712109
-0.391953 0.553172 -0.724097
-0.385997 0.564196 -0.729094
-0.377863 0.572895 0.640330
-0.381296 0.579186 0.631098
-0.393901 0.572194 0.624191
-0.390550 0.581567 0.618039
-0.393649 0.571772 0.067470
-0.387242 0.565470 0.062278
-0.390686 0.580612 0.069300
-0.382562 0.580572 0.064947
-0.390968 0.568210 -0.741656
-0.384885 0.579831 -0.746674
-0.380041 0.575300 -0.734087
-0.378187 0.589331 0.625155
-0.381098 0.595653 0.615499
-0.393318 0.587640 0.607445
-0.389206 0.597180 0.601066
-0.379089 0.590630 0.066601
-0.385084 0.596462 0.072293
-0.389757 0.584331 -0.757089
-0.385325 0.596102 -0.761979
-0.378818 0.590084 -0.751433
-0.378182 0.605698 0.609414
-0.380388 0.609228 0.600253
-0.391676 0.602785 0.588057
-0.386346 0.614283 0.583884
-0.391816 0.602079 -0.770820
-0.386194 0.612959 -0.774955
-0.380874 0.607256 -0.766849
-0.391908 0.618529 0.572795
-0.388807 0.629767 0.570462
-0.380627 0.629784 0.579168
-0.385041 0.613172 0.080298
-0.389858 0.618516 0.085762
-0.379001 0.622591 0.083096
-0.385006 0.628777 0.089375
-0.385938 0.626944 -0.783880
-0.383675 0.644237 0.565346
-0.378354 0.638477 0.575776
-0.385927 0.635134 -0.788905
-0.387339 0.647579 -0.796826
-0.386717 0.630426 -0.950744
-0.392666 0.636336 -0.949757
-0.381820 0.641335 -0.950264
-0.386672 0.646569 -0.948458
-0.390031 0.650895 0.551286
-0.378109 0.654680 0.559788
-0.381826 0.658310 0.551272
-0.393724 0.654087 0.542544
-0.386759 0.663647 0.535996
-0.384732 0.645270 0.097777
-0.389393 0.650104 0.102718
-0.378540 0.655230 0.099800
-0.385729 0.662514 0.108316
-0.393717 0.653946 -0.803073
-0.391272 0.662548 -0.804538
-0.383080 0.662551 -0.800501
-0.390699 0.668023 0.519421
-0.385417 0.673529 0.514542
-0.379822 0.672015 0.529482
-0.392850 0.669755 0.117471
-0.381997 0.673509 0.113574
-0.385750 0.678937 0.123511
-0.385177 0.678176 -0.811103
-0.379781 0.671839 -0.801957
-0.385679 0.678128 0.499703
-0.385703 0.681326 0.484577
-0.385635 0.684182 0.470392
-0.391048 0.685483 0.456506
-0.385665 0.691419 0.451358
-0.380110 0.688919 0.466049
-0.389509 0.684335 0.135733
-0.378664 0.687944 0.129572
-0.384764 0.690301 0.140119
-0.390587 0.684465 -0.819979
-0.385409 0.694906 -0.822749
-0.379637 0.689171 -0.817338
-0.392011 0.686030 -0.932789
-0.386357 0.679986 -0.937222
-0.386262 0.694979 -0.930257
-0.381183 0.689199 -0.934286
-0.386113 0.699065 0.435850
-0.391796 0.701658 0.422549
-0.386108 0.707985 0.417299
-0.380865 0.705756 0.430784
-0.385692 0.698351 0.155796
-0.391038 0.701323 0.169565
-0.384958 0.710865 0.174969
-0.380171 0.706432 0.161758
-0.385909 0.711698 -0.830904
-0.385289 0.714715 0.401642
-0.389620 0.716010 0.385157
-0.381439 0.723445 0.385636
-0.379495 0.721572 0.396861
-0.391381 0.717180 0.369546
-0.383218 0.725575 0.370079
-0.393075 0.718769 0.353464
-0.383773 0.729186 0.353555
-0.394041 0.719811 0.344766
-0.388811 0.727163 0.338547
-0.392930 0.718665 0.200609
-0.389969 0.715467 0.190214
-0.381159 0.727504 0.191688
-0.388342 0.727411 0.206270
-0.378850 0.721605 0.180311
-0.391413 0.717077 -0.836240
-0.385944 0.727841 -0.839543
-0.380477 0.722205 -0.833571
-0.390302 0.717879 -0.915900
-0.385276 0.712157 -0.921329
-0.385232 0.727230 -0.911946
-0.379470 0.721123 -0.917856
-0.379412 0.738079 0.337533
-0.378315 0.736851 0.348056
-0.388826 0.730115 0.320821
-0.380678 0.739476 0.321005
-0.389497 0.730684 0.304591
-0.381365 0.740206 0.304679
-0.390136 0.731328 0.288342
-0.382002 0.740962 0.288327
-0.390855 0.732171 0.272058
-0.382719 0.741830 0.271934
-0.391507 0.733087 0.255620
-0.383378 0.742287 0.255500
-0.391725 0.733560 0.239098
-0.383608 0.742144 0.239070
-0.390450 0.731933 0.222724
-0.382346 0.741148 0.222748
-0.379627 0.738579 0.206571
-0.377977 0.736677 0.198003
-0.385959 0.740368 -0.848039
-0.386548 0.748768 -0.859451
-0.392623 0.751888 -0.876293
-0.381466 0.755013 -0.864820
-0.384455 0.757166 -0.876503
-0.387394 0.749721 -0.893931
-0.383025 0.756382 -0.889401
-0.385828 0.740839 -0.903470
-0.367681 -0.897445 -0.404642
-0.364174 -0.901630 -0.419366
-0.361406 -0.901132 -0.410793
-0.372250 -0.899045 -0.419442
-0.369792 -0.901969 -0.436430
-0.375625 -0.900146 -0.431947
-0.374836 -0.899938 -0.499222
-0.366788 -0.902435 -0.499196
-0.370439 -0.902573 -0.482982
-0.376625 -0.900481 -0.488231
-0.371579 -0.899004 -0.515375
-0.363539 -0.901753 -0.515352
-0.361570 -0.901458 -0.524196
-0.367894 -0.898214 -0.530504
-0.374867 -0.883120 -0.364812
-0.369323 -0.887387 -0.370511
-0.364175 -0.885605 -0.359663
-0.369316 -0.880803 -0.354445
-0.369752 -0.882291 -0.597917
-0.364602 -0.885985 -0.592953
-0.369667 -0.886986 -0.580828
-0.375288 -0.883403 -0.586331
-0.375810 -0.867422 -0.331278
-0.369867 -0.872814 -0.337325
-0.365099 -0.870126 -0.327414
-0.369873 -0.863978 -0.321955
-0.368026 -0.854952 -0.306088
-0.372779 -0.849582 -0.301080
-0.368690 -0.843630 -0.289570
-0.362005 -0.852652 -0.296630
-0.368305 -0.848236 -0.677848
-0.362188 -0.854093 -0.671543
-0.368285 -0.855542 -0.662518
-0.372949 -0.851353 -0.667820
-0.375329 -0.834392 -0.282369
-0.364640 -0.837521 -0.277786
-0.369543 -0.830490 -0.272522
-0.369446 -0.831039 -0.710875
-0.364082 -0.836008 -0.704649
-0.369421 -0.838607 -0.696304
-0.374816 -0.834467 -0.702357
-0.368876 -0.821772 -0.261528
-0.368928 -0.814288 -0.253363
-0.368962 -0.798764 -0.235933
-0.368965 -0.806137 -0.244032
-0.369368 -0.796652 -0.759715
-0.364005 -0.803325 -0.753371
-0.369400 -0.808057 -0.745854
-0.374721 -0.801861 -0.752119
-0.368954 -0.790582 -0.227323
-0.370405 -0.779671 -0.218527
-0.376708 -0.769824 -0.215472
-0.366018 -0.775086 -0.209860
-0.370387 -0.766838 -0.205518
-0.371371 -0.762310 -0.794525
-0.366608 -0.771570 -0.787794
-0.370891 -0.777315 -0.780277
-0.377340 -0.769281 -0.785734
-0.368892 -0.757903 -0.194520
-0.368906 -0.750570 -0.186356
