-0.881954 -0.400600 0.173683
-0.882602 -0.401928 0.157184
-0.882756 -0.402403 0.140794
-0.882732 -0.399205 0.123321
-0.881070 -0.400031 0.108538
-0.880527 -0.400048 0.091236
-0.879778 -0.400061 0.074080
-0.878561 -0.400061 0.058339
-0.877193 -0.400058 0.042479
-0.870843 -0.412927 0.026490
-0.875294 -0.400060 0.026001
-0.869953 -0.410004 0.010129
-0.873304 -0.400067 0.009817
-0.869464 -0.408711 0.000665
-0.871234 -0.400663 -0.005392
-0.875018 -0.383689 0.270202
-0.870826 -0.395113 0.270605
-0.869751 -0.393015 0.280385
-0.871078 -0.383932 0.285966
-0.878240 -0.383657 0.255183
-0.880485 -0.383632 0.239799
-0.883220 -0.383488 0.224218
-0.884530 -0.389586 0.204763
-0.885319 -0.391793 0.193213
-0.885386 -0.391741 0.116978
-0.885106 -0.391016 0.108534
-0.884863 -0.390487 0.090429
-0.884392 -0.389426 0.072752
-0.883576 -0.387115 0.057770
-0.882813 -0.385268 0.042296
-0.882209 -0.382357 0.025955
-0.879223 -0.383657 0.009359
-0.876691 -0.383662 -0.006295
-0.870363 -0.395093 -0.022709
-0.873881 -0.383675 -0.022713
-0.871035 -0.383386 -0.038255
-0.869562 -0.392449 -0.031963
-0.875271 -0.367270 0.287665
-0.869820 -0.378593 0.296850
-0.870842 -0.366277 0.304161
-0.881295 -0.365813 0.269487
-0.883485 -0.369614 0.255113
-0.884661 -0.373164 0.239717
-0.885301 -0.375042 0.230874
-0.884871 -0.373943 0.020381
-0.883954 -0.370922 0.009169
-0.882589 -0.366243 -0.005460
-0.879039 -0.367339 -0.022688
-0.875988 -0.367321 -0.039178
-0.872013 -0.368560 -0.056657
-0.870092 -0.377705 -0.052074
-0.874989 -0.350857 0.305422
-0.869444 -0.360166 0.314622
-0.870913 -0.350132 0.320832
-0.881147 -0.349335 0.287347
-0.883717 -0.353839 0.274914
-0.883665 -0.353829 -0.022681
-0.884681 -0.356340 -0.010336
-0.882350 -0.349968 -0.038724
-0.877907 -0.350903 -0.055536
-0.874075 -0.350942 -0.071969
-0.870341 -0.363660 -0.072012
-0.870858 -0.350533 -0.087497
-0.869408 -0.360378 -0.081507
-0.876383 -0.334493 0.320980
-0.869769 -0.344176 0.331481
-0.871811 -0.334691 0.335793
-0.881650 -0.333003 0.304200
-0.883576 -0.337523 0.291917
-0.884717 -0.340737 -0.044051
-0.883572 -0.334932 -0.056995
-0.879873 -0.334477 -0.071924
-0.875771 -0.334550 -0.088457
-0.871707 -0.335311 -0.105347
-0.869957 -0.344785 -0.099833
-0.876742 -0.318124 0.335718
-0.870368 -0.329329 0.348219
-0.871366 -0.318656 0.353341
-0.882441 -0.317497 0.319847
-0.884373 -0.322548 0.308783
-0.884343 -0.322667 -0.071922
-0.885413 -0.325856 -0.063319
-0.882266 -0.317127 -0.087807
-0.877407 -0.318201 -0.105082
-0.873711 -0.318180 -0.121350
-0.870330 -0.330069 -0.121337
-0.870719 -0.317785 -0.136769
-0.869622 -0.327346 -0.130778
-0.874129 -0.301663 0.353953
-0.869560 -0.313511 0.362063
-0.870269 -0.301670 0.365281
-0.881283 -0.300774 0.335863
-0.884242 -0.305653 0.324747
-0.884713 -0.307453 -0.092783
-0.883387 -0.301897 -0.105642
-0.879163 -0.301759 -0.121162
-0.874817 -0.301749 -0.137573
-0.869751 -0.312076 -0.147399
-0.870775 -0.300657 -0.153331
-0.871741 -0.284620 0.371276
-0.877821 -0.285232 0.354555
-0.883211 -0.285242 0.341423
-0.885292 -0.292534 -0.111652
-0.884149 -0.286364 -0.122461
-0.879912 -0.285349 -0.137573
-0.874667 -0.285379 -0.154027
-0.869483 -0.294495 -0.162924
-0.870634 -0.285397 -0.166397
-0.871381 -0.268875 0.383013
-0.869799 -0.278753 0.380450
-0.876602 -0.268827 0.371015
-0.882841 -0.269462 0.354873
-0.884897 -0.275396 0.344828
-0.885461 -0.276618 -0.128799
-0.884106 -0.272724 -0.137562
-0.880822 -0.267364 -0.152540
-0.872837 -0.270069 -0.171826
-0.873532 -0.253375 0.387413
-0.881959 -0.252316 0.370297
-0.884504 -0.257680 0.360620
-0.878377 -0.252581 -0.170802
-0.883754 -0.252582 -0.158188
-0.872012 -0.253058 -0.187519
-0.870433 -0.265294 -0.182457
-0.871711 -0.235267 0.403351
-0.870455 -0.248515 0.397156
-0.878834 -0.236147 0.386821
-0.884020 -0.236119 0.375609
-0.885379 -0.243744 -0.162252
-0.883084 -0.237471 -0.171074
-0.876728 -0.236220 -0.186945
-0.871464 -0.236178 -0.200677
-0.870067 -0.247918 -0.197198
-0.870607 -0.219649 0.414909
-0.869396 -0.229186 0.412355
-0.876009 -0.219705 0.402823
-0.883142 -0.221121 0.386166
-0.885286 -0.227513 0.377973
-0.884441 -0.225451 -0.176623
-0.881882 -0.219875 -0.186582
-0.873549 -0.221314 -0.204762
-0.881067 -0.203218 0.401065
-0.872158 -0.202617 0.420645
-0.884426 -0.208687 0.390424
-0.878825 -0.203334 -0.203164
-0.884019 -0.203329 -0.192057
-0.872254 -0.203364 -0.217206
-0.870604 -0.216845 -0.214025
-0.870417 -0.186857 0.430489
-0.869608 -0.196716 0.429177
-0.875629 -0.186876 0.420222
-0.882530 -0.186912 0.406165
-0.882426 -0.187369 -0.201938
-0.885271 -0.192810 -0.194410
-0.873463 -0.188280 -0.221035
-0.871790 -0.170492 0.432242
-0.878771 -0.170548 0.419785
-0.884270 -0.170561 0.409340
-0.883182 -0.171126 -0.205862
-0.877331 -0.171033 -0.219589
-0.870319 -0.183614 -0.230298
-0.871130 -0.169246 -0.235826
-0.873450 -0.154104 0.432700
-0.882254 -0.155043 0.417709
-0.885230 -0.161156 0.410859
-0.884445 -0.158812 -0.209118
-0.881675 -0.153732 -0.219070
-0.874369 -0.154436 -0.236203
-0.869244 -0.162623 -0.244164
-0.870219 -0.154341 -0.246727
-0.882892 -0.137696 0.420391
-0.873765 -0.137047 0.435106
-0.878019 -0.137960 -0.236449
-0.883456 -0.138009 -0.224234
-0.871556 -0.137103 -0.252774
-0.870075 -0.121412 0.445397
-0.869354 -0.131156 0.443191
-0.876346 -0.121351 0.435212
-0.883512 -0.121294 0.423023
-0.884741 -0.127033 -0.227146
-0.881842 -0.121623 -0.235325
-0.874212 -0.121608 -0.252382
-0.869475 -0.131094 -0.261074
-0.870051 -0.121571 -0.262672
-0.878419 -0.104967 0.436510
-0.871380 -0.105078 0.448569
-0.884273 -0.104879 0.426010
-0.876795 -0.105282 -0.252494
-0.882840 -0.105302 -0.239316
-0.871256 -0.105236 -0.265764
-0.881739 -0.089045 0.435704
-0.872948 -0.088642 0.450116
-0.885017 -0.094849 0.427709
-0.884159 -0.092049 -0.242986
-0.880997 -0.087405 -0.252557
-0.872380 -0.088924 -0.270743
-0.882625 -0.072116 0.439311
-0.873747 -0.072601 0.452433
-0.882338 -0.072318 -0.256308
-0.875831 -0.072338 -0.270118
-0.870857 -0.072379 -0.281252
-0.869826 -0.083562 -0.279287
-0.870322 -0.055968 0.461784
-0.869707 -0.067451 0.459694
-0.876923 -0.055950 0.452033
-0.883841 -0.055876 0.441298
-0.883623 -0.056362 -0.257743
-0.878228 -0.056380 -0.269308
-0.871979 -0.056303 -0.283259
-0.870913 -0.039587 0.463242
-0.879965 -0.038098 0.449749
-0.884741 -0.042528 0.442222
-0.884591 -0.043731 -0.258954
-0.881625 -0.038977 -0.267411
-0.872777 -0.040501 -0.286413
-0.879209 -0.023278 0.450550
-0.871117 -0.023246 0.462411
-0.876005 -0.023411 -0.285784
-0.882701 -0.023456 -0.270868
-0.869879 -0.035230 -0.294579
-0.870720 -0.023377 -0.297011
-0.880274 -0.007036 0.452293
-0.872162 -0.006935 0.464570
-0.883995 -0.006863 -0.273727
-0.878670 -0.006879 -0.286334
-0.871596 -0.005521 -0.302767
-0.882036 0.009182 0.455065
-0.873106 0.009444 0.470271
-0.885033 0.005448 -0.275721
-0.882418 0.010405 -0.284763
-0.874698 0.009490 -0.302884
-0.870043 0.009293 -0.312517
-0.869394 0.000848 -0.310507
-0.869678 0.025745 0.477414
-0.869406 0.015027 0.478222
-0.874995 0.025633 0.468331
-0.882569 0.025538 0.455284
-0.883489 0.026046 -0.288919
-0.877094 0.025923 -0.302705
-0.870948 0.025670 -0.314398
-0.874689 0.041979 0.466535
-0.869657 0.042053 0.475447
-0.882313 0.041937 0.453785
-0.880157 0.043584 -0.301174
-0.884464 0.038911 -0.292268
-0.871541 0.042319 -0.314593
-0.874060 0.058266 0.466870
-0.869345 0.058377 0.475128
-0.881962 0.058181 0.453754
-0.871701 0.060268 -0.318365
-0.881254 0.058614 -0.300663
-0.869084 0.068051 0.475727
-0.872536 0.073806 0.469788
-0.881617 0.074229 0.454649
-0.885260 0.063903 -0.293326
-0.885243 0.074740 -0.292833
-0.880987 0.074751 -0.301652
-0.873725 0.074806 -0.318007
-0.869252 0.066714 -0.326210
-0.869832 0.074894 -0.328128
-0.881042 0.090416 0.453071
-0.872832 0.090730 0.467406
-0.885369 0.083708 -0.293125
-0.882496 0.089997 -0.300936
-0.875145 0.091148 -0.318042
-0.870662 0.091231 -0.330246
-0.880666 0.106653 0.451288
-0.872577 0.106923 0.465109
-0.876160 0.107609 -0.318136
-0.882370 0.107603 -0.304920
-0.871198 0.107602 -0.330911
-0.880666 0.122747 0.452148
-0.872542 0.122998 0.464793
-0.877200 0.123692 -0.318148
-0.883023 0.123788 -0.305989
-0.871575 0.123655 -0.331883
-0.880294 0.138937 0.453474
-0.872101 0.139131 0.465043
-0.883675 0.139887 -0.306482
-0.878080 0.139688 -0.318069
-0.871786 0.139639 -0.332525
-0.879657 0.155318 0.452686
-0.871511 0.155372 0.463004
-0.884117 0.156393 -0.307450
-0.878533 0.156227 -0.318028
-0.871832 0.156090 -0.332195
-0.879690 0.171176 0.449732
-0.870575 0.171637 0.460346
-0.884156 0.172815 -0.307800
-0.878451 0.172725 -0.318007
-0.871746 0.172544 -0.331685
-0.869621 0.182894 0.459216
-0.874539 0.188124 0.452846
-0.884869 0.176366 0.442812
-0.883722 0.187895 0.441522
-0.883733 0.188523 -0.306820
-0.877981 0.188506 -0.318004
-0.871683 0.188480 -0.332100
-0.882106 0.203961 0.438962
-0.873914 0.203989 0.449687
-0.883233 0.204312 -0.305742
-0.877320 0.204381 -0.318011
-0.871510 0.204505 -0.332085
-0.880649 0.220274 0.436037
-0.872544 0.220210 0.445888
-0.876401 0.220978 -0.318077
-0.882710 0.220787 -0.305825
-0.871137 0.221129 -0.330577
-0.880088 0.237654 0.432408
-0.870897 0.236500 0.443249
-0.875127 0.237371 -0.318092
-0.882054 0.237150 -0.304761
-0.870551 0.237503 -0.328912
-0.869675 0.246011 0.442501
-0.874706 0.252148 0.435650
-0.885139 0.243868 0.424874
-0.883892 0.253047 0.423862
-0.881584 0.252898 -0.300749
-0.873432 0.253256 -0.318044
-0.869799 0.253298 -0.327431
-0.881735 0.269510 0.422062
-0.873524 0.269541 0.433425
-0.884936 0.258063 -0.291638
-0.883910 0.269394 -0.288912
-0.878191 0.269441 -0.301606
-0.871327 0.268022 -0.318239
-0.869342 0.261663 -0.326478
-0.880383 0.285954 0.418850
-0.871480 0.286237 0.431037
-0.875853 0.285760 -0.301953
-0.882700 0.285727 -0.287106
-0.870707 0.285747 -0.312929
-0.870053 0.297319 0.429193
-0.874224 0.302567 0.421125
-0.884800 0.291250 0.410581
-0.883019 0.302349 0.407570
-0.872434 0.301532 -0.302407
-0.880752 0.300559 -0.284668
-0.869954 0.295766 -0.310896
-0.880747 0.318900 0.402333
-0.872041 0.318641 0.416182
-0.883826 0.304970 -0.273296
-0.882055 0.317497 -0.267949
-0.875004 0.318369 -0.285395
-0.870535 0.318413 -0.296520
-0.873859 0.335417 0.403419
-0.870169 0.330303 0.412681
-0.884593 0.324583 0.393156
-0.882822 0.335957 0.387415
-0.884578 0.322403 -0.257611
-0.877313 0.334784 -0.268801
-0.883457 0.335801 -0.252212
-0.871380 0.333518 -0.284865
-0.869467 0.327235 -0.293952
-0.877374 0.351239 0.385891
-0.871276 0.351170 0.396584
-0.885171 0.342102 0.378155
-0.883531 0.351401 0.374768
-0.885412 0.342007 -0.243542
-0.884294 0.351278 -0.241089
-0.879916 0.351458 -0.252373
-0.872935 0.351791 -0.269666
-0.870292 0.346327 -0.279104
-0.871929 0.366445 0.385130
-0.869787 0.360290 0.393023
-0.880176 0.366508 0.369634
-0.875517 0.367738 -0.252398
-0.881793 0.366945 -0.236008
-0.871114 0.367802 -0.264573
-0.872722 0.383529 0.370899
-0.870151 0.377895 0.380451
-0.883941 0.371956 0.354542
-0.879194 0.383783 0.354280
-0.885491 0.375250 0.345828
-0.883900 0.384946 0.339468
-0.884175 0.371924 -0.224513
-0.875877 0.383815 -0.236578
-0.882130 0.383056 -0.219239
-0.871117 0.383207 -0.252169
-0.869757 0.377413 -0.261701
-0.872666 0.400742 0.353331
-0.870841 0.395714 0.364806
-0.878262 0.400120 0.337460
-0.885318 0.391191 0.328899
-0.883438 0.400578 0.322540
-0.884550 0.388008 -0.207815
-0.876378 0.400194 -0.219932
-0.882452 0.399644 -0.202633
-0.871322 0.399718 -0.236056
-0.869879 0.393974 -0.246672
-0.872010 0.416215 0.335520
-0.870395 0.410577 0.347482
-0.877228 0.416495 0.320820
-0.884976 0.406346 0.311241
-0.882875 0.416415 0.305642
-0.884462 0.404753 -0.190852
-0.881874 0.415521 -0.186005
-0.876585 0.416621 -0.203156
-0.871694 0.415862 -0.219282
-0.870013 0.409915 -0.230166
-0.870030 0.425719 0.329225
-0.871294 0.431893 0.319285
-0.876034 0.432944 0.305381
-0.884713 0.421811 0.293479
-0.881647 0.431988 0.288218
-0.885503 0.424308 -0.162755
-0.884099 0.421027 -0.171029
-0.878638 0.432928 -0.170733
-0.882805 0.432790 -0.155806
-0.874803 0.432943 -0.186824
-0.871382 0.432362 -0.201971
-0.870313 0.426511 -0.213349
-0.870945 0.444817 0.305220
-0.869563 0.441169 0.313656
-0.872982 0.450601 0.289532
-0.883311 0.436747 0.271578
-0.877272 0.449302 0.272173
-0.884771 0.439603 0.258633
-0.881845 0.447955 0.254512
-0.884327 0.438325 -0.137656
-0.885467 0.440325 -0.125567
-0.879358 0.449294 -0.137559
-0.882596 0.447842 -0.120510
-0.875636 0.449307 -0.153980
-0.871878 0.449668 -0.169911
-0.870541 0.443986 -0.186798
-0.869645 0.441609 -0.195731
-0.871627 0.462419 0.272324
-0.870280 0.459427 0.284546
-0.873430 0.466839 0.256915
-0.883377 0.451949 0.239365
-0.877882 0.465706 0.239723
-0.884714 0.455061 0.226216
-0.882014 0.464152 0.221638
-0.884384 0.454280 -0.088416
-0.885443 0.456412 -0.076417
-0.879685 0.465658 -0.088685
-0.882704 0.464316 -0.071780
-0.883056 0.451228 -0.104800
-0.877179 0.465673 -0.104918
-0.875202 0.465686 -0.121161
-0.872478 0.466988 -0.138337
-0.871066 0.462011 -0.153940
-0.869942 0.458636 -0.164095
-0.870764 0.476538 0.252167
-0.871702 0.482074 0.238206
-0.874546 0.482105 0.222960
-0.883359 0.468040 0.205370
-0.877592 0.482080 0.204977
-0.884678 0.471482 0.188084
-0.880307 0.482075 0.187818
-0.885370 0.473173 0.177539
-0.882876 0.481003 0.172282
-0.885399 0.472620 -0.022738
-0.885846 0.473688 -0.013684
-0.883850 0.481437 -0.007449
-0.882036 0.482093 -0.022736
-0.884562 0.470553 -0.040237
-0.880042 0.482056 -0.040411
-0.883440 0.467942 -0.056981
-0.877808 0.482047 -0.057402
-0.875552 0.482049 -0.072885
-0.872760 0.483313 -0.089577
-0.871897 0.479541 -0.104995
-0.870889 0.477080 -0.121166
-0.870221 0.475420 -0.133400
-0.869635 0.490330 0.231674
-0.870384 0.491984 0.223137
-0.871927 0.495182 0.205789
-0.872758 0.499421 0.189006
-0.875438 0.498482 0.173164
-0.883245 0.484659 0.156156
-0.877051 0.498485 0.157019
-0.883874 0.486426 0.140413
-0.878269 0.498488 0.140946
-0.884502 0.487521 0.124844
-0.879491 0.498502 0.124910
-0.884957 0.488353 0.108563
-0.880374 0.498506 0.108556
-0.885317 0.489203 0.090804
-0.880991 0.498490 0.091467
-0.885382 0.489445 0.073662
-0.881109 0.498486 0.074694
-0.885010 0.488703 0.058567
-0.880706 0.498493 0.058922
-0.884593 0.487814 0.042753
-0.880106 0.498504 0.042804
-0.884176 0.486964 0.025520
-0.879218 0.498509 0.026062
-0.883789 0.485518 0.009261
-0.878354 0.498504 0.009741
-0.877590 0.498497 -0.006285
-0.875837 0.498490 -0.022707
-0.872789 0.499563 -0.039630
-0.872134 0.495931 -0.056548
-0.871048 0.493565 -0.072620
-0.870214 0.491666 -0.084585
-0.869903 0.507472 0.184404
-0.870629 0.508969 0.174028
-0.871453 0.510550 0.157719
-0.872076 0.511578 0.141350
-0.872688 0.512857 0.124882
-0.873126 0.513614 0.108466
-0.873410 0.513578 0.092111
-0.873481 0.513436 0.075717
-0.873416 0.513940 0.059301
-0.873212 0.513894 0.042897
-0.872740 0.512734 0.026508
-0.872283 0.512013 0.010101
-0.871917 0.511525 -0.006356
-0.871014 0.509724 -0.022733
-0.870080 0.507710 -0.033638
-0.856860 -0.450733 0.207777
-0.854346 -0.459714 0.190609
-0.853455 -0.458112 0.203068
-0.860430 -0.449247 0.190581
-0.855475 -0.461827 0.174198
-0.863022 -0.449244 0.174197
-0.865429 -0.448040 0.159160
-0.856295 -0.462769 0.157695
-0.864867 -0.450219 0.140756
-0.856681 -0.462919 0.140972
-0.856634 -0.463040 0.124275
-0.864802 -0.449736 0.123961
-0.856132 -0.462426 0.107984
-0.864923 -0.447666 0.109117
-0.862085 -0.449262 0.091827
-0.855308 -0.460896 0.091875
-0.854533 -0.459603 0.075667
-0.860383 -0.449267 0.075659
-0.853973 -0.458946 0.059348
-0.859327 -0.449259 0.059332
-0.856675 -0.450218 0.042884
-0.853478 -0.458303 0.048362
-0.860196 -0.432850 0.239349
-0.854557 -0.444389 0.238806
-0.853302 -0.441851 0.248405
-0.855388 -0.432253 0.254987
-0.864756 -0.431235 0.221494
-0.856165 -0.447687 0.222675
-0.865607 -0.434154 0.206761
-0.867130 -0.436943 0.190511
-0.868545 -0.439745 0.174178
-0.869184 -0.441002 0.165730
-0.868575 -0.439516 0.104781
-0.867842 -0.437718 0.091899
-0.866976 -0.436116 0.075697
-0.866400 -0.435230 0.059309
-0.865751 -0.432044 0.042760
-0.855336 -0.445505 0.026448
-0.861642 -0.432877 0.026476
-0.858676 -0.432890 0.010074
-0.853996 -0.442782 0.010038
-0.855980 -0.434089 -0.006516
-0.853365 -0.441771 -0.001183
-0.857244 -0.417783 0.273232
-0.853688 -0.426408 0.268243
-0.863998 -0.415407 0.255474
-0.866596 -0.419804 0.239788
-0.868234 -0.422679 0.226221
-0.868661 -0.423535 0.037193
-0.867462 -0.421128 0.026493
-0.865878 -0.418211 0.010105
-0.865037 -0.415103 -0.005411
-0.860387 -0.416485 -0.022703
-0.854849 -0.429303 -0.022705
-0.853538 -0.426106 -0.033076
-0.855779 -0.416716 -0.038766
-0.864766 -0.399164 0.286399
-0.856023 -0.414375 0.287925
-0.854471 -0.411579 0.299319
-0.857773 -0.401034 0.303340
-0.865967 -0.403332 0.271751
-0.867726 -0.406018 0.260261
-0.866632 -0.403299 -0.022715
-0.868402 -0.406539 -0.010259
-0.864233 -0.398809 -0.038295
-0.854358 -0.411698 -0.055506
-0.859188 -0.400108 -0.055827
-0.853432 -0.409713 -0.067704
-0.855768 -0.401240 -0.072731
-0.857289 -0.384376 0.320367
-0.854808 -0.396169 0.314510
-0.865714 -0.383961 0.302316
-0.868397 -0.389568 0.290895
-0.866424 -0.383394 -0.056953
-0.867656 -0.388659 -0.043378
-0.862748 -0.383681 -0.072049
-0.858755 -0.383678 -0.088405
-0.854386 -0.396067 -0.088386
-0.854902 -0.383608 -0.104160
-0.853340 -0.392782 -0.098312
-0.865083 -0.366354 0.320439
-0.854356 -0.379281 0.333884
-0.856998 -0.368645 0.339399
-0.867766 -0.371096 0.309236
-0.867695 -0.371813 -0.072055
-0.868972 -0.374827 -0.062826
-0.865166 -0.366441 -0.087514
-0.859674 -0.367390 -0.104730
-0.856533 -0.367408 -0.121119
-0.853627 -0.377799 -0.121121
-0.854088 -0.366509 -0.136221
-0.853046 -0.375983 -0.129880
-0.857448 -0.352442 0.355169
-0.854238 -0.363967 0.351285
-0.865213 -0.350194 0.337373
-0.867875 -0.355160 0.325616
-0.867601 -0.355722 -0.092346
-0.866059 -0.350590 -0.105060
-0.862186 -0.351050 -0.121117
-0.858628 -0.351012 -0.137529
-0.854414 -0.349584 -0.152905
-0.853093 -0.360471 -0.146705
-0.858088 -0.335183 0.369130
-0.855065 -0.347941 0.365346
-0.866347 -0.334692 0.353430
-0.867989 -0.340264 0.341691
-0.868719 -0.341242 -0.110802
-0.867497 -0.338281 -0.121169
-0.865459 -0.333509 -0.136749
-0.859114 -0.334514 -0.153991
-0.854211 -0.333039 -0.169034
-0.853104 -0.343136 -0.162593
-0.855901 -0.318239 0.383085
-0.854249 -0.330179 0.378444
-0.864878 -0.318681 0.367697
-0.868931 -0.324485 0.358704
-0.868054 -0.323012 -0.141703
-0.865258 -0.317772 -0.153330
-0.858323 -0.318143 -0.170439
-0.854029 -0.316804 -0.185359
-0.853120 -0.326572 -0.179004
-0.866099 -0.301714 0.373723
-0.858047 -0.303282 0.388878
-0.867464 -0.305376 -0.158351
-0.864498 -0.300702 -0.169193
-0.857719 -0.301840 -0.186777
-0.854076 -0.301832 -0.198519
-0.852963 -0.310445 -0.195275
-0.856520 -0.285137 0.403624
-0.854669 -0.298825 0.398874
-0.865060 -0.284713 0.386492
-0.867875 -0.289721 0.376919
-0.862635 -0.285408 -0.186776
-0.867353 -0.285415 -0.174555
-0.856177 -0.286082 -0.204182
-0.855596 -0.268964 0.414981
-0.853772 -0.279441 0.412460
-0.861957 -0.268949 0.401906
-0.867464 -0.268894 0.390488
-0.869066 -0.276277 -0.177956
-0.867313 -0.270017 -0.187421
-0.861246 -0.268864 -0.203163
-0.855367 -0.268852 -0.216389
-0.853787 -0.281017 -0.213367
-0.866645 -0.253385 0.401819
-0.857752 -0.254140 0.419375
-0.868904 -0.259427 0.392331
-0.868612 -0.258816 -0.193308
-0.865855 -0.253005 -0.202856
-0.856951 -0.253058 -0.220762
-0.864149 -0.235221 0.418329
-0.854043 -0.249720 0.428576
-0.855611 -0.236103 0.432182
-0.867975 -0.240154 0.408626
-0.867727 -0.236170 -0.208852
-0.861667 -0.236187 -0.219595
-0.854576 -0.234718 -0.235696
-0.853702 -0.248013 -0.230058
-0.866047 -0.219622 0.423151
-0.857106 -0.218799 0.437245
-0.865896 -0.221332 -0.219554
-0.869049 -0.227819 -0.211280
-0.857971 -0.219836 -0.236042
-0.853888 -0.219821 -0.247697
-0.852921 -0.228280 -0.244358
-0.854509 -0.203268 0.447159
-0.853284 -0.212747 0.445459
-0.863228 -0.202607 0.435414
-0.867928 -0.207659 0.426402
-0.862287 -0.203423 -0.236126
-0.867649 -0.203409 -0.225452
-0.855738 -0.204234 -0.253560
-0.864480 -0.186835 0.438606
-0.856261 -0.186845 0.450243
-0.866501 -0.188235 -0.235921
-0.869128 -0.194389 -0.227514
-0.859883 -0.187031 -0.252499
-0.853801 -0.199290 -0.262481
-0.855010 -0.186953 -0.264927
-0.866164 -0.170437 0.440524
-0.857105 -0.170561 0.453969
-0.864879 -0.169065 -0.250745
-0.867745 -0.173551 -0.241179
-0.856094 -0.169810 -0.269529
-0.853540 -0.154015 0.462121
-0.853025 -0.165171 0.461514
-0.860344 -0.154033 0.451822
-0.867713 -0.154050 0.441139
-0.859938 -0.154195 -0.268790
-0.866838 -0.154250 -0.254906
-0.854210 -0.154256 -0.279334
-0.853097 -0.163867 -0.277515
-0.863698 -0.137022 0.449963
-0.854550 -0.137676 0.463833
-0.868587 -0.142054 0.441420
-0.864596 -0.137063 -0.267435
-0.868306 -0.141997 -0.258482
-0.856058 -0.137939 -0.282347
-0.864239 -0.121425 0.454006
-0.856001 -0.121457 0.466081
-0.865782 -0.121575 -0.270852
-0.857138 -0.121801 -0.286277
-0.866038 -0.105136 0.456759
-0.857012 -0.104442 0.469641
-0.867440 -0.105223 -0.273895
-0.861201 -0.105243 -0.285199
-0.853570 -0.116466 -0.294912
-0.854760 -0.105230 -0.297673
-0.854701 -0.089101 0.477816
-0.853101 -0.098543 0.477062
-0.861529 -0.088907 0.467455
-0.867799 -0.088694 0.457696
-0.865352 -0.088967 -0.284762
-0.868642 -0.094569 -0.276287
-0.856433 -0.089167 -0.302601
-0.865275 -0.072770 0.465368
-0.856404 -0.072649 0.479123
-0.868768 -0.078324 0.457752
-0.860383 -0.072385 -0.301753
-0.866611 -0.072433 -0.289071
-0.853865 -0.083846 -0.312481
-0.854920 -0.072248 -0.315206
-0.864646 -0.055922 0.469722
-0.856410 -0.055959 0.480974
-0.862772 -0.056263 -0.301603
-0.868020 -0.056292 -0.291279
-0.855811 -0.056215 -0.317253
-0.864973 -0.039431 0.471782
-0.856725 -0.039386 0.483260
-0.868819 -0.046318 -0.292639
-0.865579 -0.040441 -0.300659
-0.856289 -0.041406 -0.319657
-0.865727 -0.023041 0.471895
-0.857501 -0.022955 0.484297
-0.866349 -0.023337 -0.304823
-0.859811 -0.023254 -0.318278
-0.853424 -0.036801 -0.327244
-0.854640 -0.023237 -0.329108
-0.866974 -0.006699 0.473818
-0.858159 -0.006857 0.486844
-0.864597 -0.005466 -0.316919
-0.867840 -0.010008 -0.307616
-0.856389 -0.006895 -0.332095
-0.863950 0.009573 0.484488
-0.853761 -0.001647 0.495068
-0.854997 0.009303 0.496541
-0.868399 0.004256 0.476571
-0.866289 0.009128 -0.320598
-0.857491 0.008459 -0.335839
-0.864242 0.025689 0.485416
-0.856032 0.025430 0.496018
-0.860411 0.025365 -0.334504
-0.867278 0.025481 -0.322519
-0.853509 0.013438 -0.343773
-0.854175 0.025337 -0.344815
-0.864396 0.041984 0.483521
-0.856203 0.041769 0.494118
-0.861052 0.042097 -0.334436
-0.867507 0.042256 -0.322754
-0.854750 0.041893 -0.345729
-0.863971 0.058323 0.483251
-0.855779 0.058154 0.494447
-0.864481 0.060187 -0.332794
-0.868159 0.055932 -0.324058
-0.856040 0.058402 -0.348068
-0.864167 0.073967 0.482880
-0.854998 0.074592 0.495666
-0.866088 0.074904 -0.336328
-0.857457 0.074111 -0.352153
-0.862075 0.091065 0.485703
-0.854497 0.091032 0.495835
-0.868619 0.078937 0.476341
-0.868409 0.091037 0.476242
-0.867089 0.091267 -0.338428
-0.860219 0.091273 -0.350856
-0.853726 0.079057 -0.360496
-0.854204 0.091187 -0.361308
-0.854016 0.107386 0.495102
-0.860818 0.107389 0.485890
-0.867842 0.107281 0.474955
-0.860722 0.107493 -0.350867
-0.867424 0.107570 -0.339090
-0.854494 0.107390 -0.361723
-0.853340 0.117791 0.494494
-0.857746 0.123246 0.487042
-0.866861 0.123360 0.473982
-0.867836 0.123669 -0.340040
-0.861578 0.123601 -0.350844
-0.854886 0.123500 -0.362430
-0.866044 0.139387 0.473145
-0.857801 0.139406 0.483426
-0.868108 0.139722 -0.340676
-0.862203 0.139684 -0.350822
-0.855153 0.139597 -0.363008
-0.865487 0.155517 0.470999
-0.857262 0.155489 0.480834
-0.861870 0.155883 -0.350928
-0.867994 0.156048 -0.340384
-0.855028 0.155758 -0.362815
-0.864646 0.171771 0.468512
-0.856433 0.171780 0.478720
-0.861304 0.172117 -0.351014
-0.867816 0.172387 -0.339890
-0.854741 0.171948 -0.362409
-0.863786 0.188317 0.466155
-0.854503 0.188283 0.477474
-0.861968 0.188334 -0.350905
-0.868042 0.188444 -0.340285
-0.855097 0.188220 -0.363150
-0.853032 0.198163 0.476870
-0.858230 0.203773 0.469164
-0.868734 0.193721 0.459622
-0.867554 0.204082 0.458117
-0.868026 0.204576 -0.340256
-0.862042 0.204633 -0.350811
-0.855126 0.204587 -0.363207
-0.865596 0.220269 0.454419
-0.857382 0.220543 0.464496
-0.867077 0.221126 -0.338756
-0.858478 0.222707 -0.352501
-0.854209 0.218258 -0.361355
-0.863456 0.236536 0.451869
-0.855259 0.236689 0.462058
-0.857926 0.237404 -0.350470
-0.866071 0.237476 -0.337099
-0.860735 0.252380 0.451634
-0.853660 0.247782 0.461107
-0.865236 0.253376 -0.335603
-0.857065 0.253507 -0.349863
-0.867814 0.257048 0.442742
-0.866150 0.269445 0.441777
-0.857929 0.269339 0.450714
-0.864185 0.268084 -0.332921
-0.855729 0.269609 -0.347831
-0.863983 0.285989 0.438780
-0.855756 0.285753 0.447086
-0.868017 0.272583 -0.323820
-0.858268 0.287366 -0.336033
-0.866800 0.285802 -0.321099
-0.854321 0.282939 -0.344878
-0.861246 0.302790 0.436030
-0.853995 0.297475 0.444325
-0.865629 0.301635 -0.317012
-0.857172 0.302263 -0.333254
-0.868473 0.307987 0.427332
-0.866586 0.318661 0.424122
-0.858387 0.318573 0.433265
-0.868525 0.306626 -0.307842
-0.861653 0.318576 -0.318050
-0.867169 0.318440 -0.304629
-0.855662 0.318703 -0.331316
-0.864228 0.335355 0.417616
-0.855437 0.334813 0.428885
-0.856834 0.335749 -0.318858
-0.864819 0.333535 -0.300379
-0.854320 0.330946 -0.329052
-0.853603 0.345204 0.425979
-0.857433 0.350845 0.417414
-0.868350 0.341134 0.408531
-0.866193 0.351159 0.404605
-0.867745 0.338135 -0.290163
-0.857537 0.352408 -0.303356
-0.866039 0.351561 -0.285119
-0.854631 0.347851 -0.313976
-0.860955 0.367930 0.401625
-0.855118 0.364700 0.412364
-0.868877 0.357450 -0.275701
-0.867485 0.367731 -0.272750
-0.861392 0.367660 -0.285486
-0.855212 0.367614 -0.299038
-0.866820 0.371141 0.390149
-0.864210 0.383484 0.386129
-0.855748 0.383748 0.399754
-0.865444 0.383235 -0.267831
-0.856734 0.385123 -0.286580
-0.853807 0.380436 -0.295459
-0.853774 0.393631 0.396366
-0.856736 0.399474 0.385424
-0.867916 0.388767 0.376543
-0.865476 0.400718 0.369454
-0.868242 0.388216 -0.257380
-0.866081 0.399701 -0.252533
-0.859594 0.400157 -0.269101
-0.854651 0.400263 -0.281120
-0.857672 0.416712 0.368239
-0.854434 0.411428 0.378175
-0.868441 0.406617 0.357913
-0.865720 0.416204 0.352172
-0.868261 0.404893 -0.241248
-0.865684 0.415816 -0.236020
-0.859659 0.416530 -0.253482
-0.854801 0.415165 -0.268840
-0.853289 0.408780 -0.277502
-0.854872 0.428563 0.363303
-0.857155 0.433588 0.352919
-0.867921 0.421502 0.340046
-0.864441 0.431867 0.335890
-0.868000 0.420831 -0.224457
-0.858700 0.432910 -0.236236
-0.865146 0.432324 -0.219159
-0.854568 0.432104 -0.251937
-0.853547 0.426127 -0.263470
-0.854254 0.443862 0.349035
-0.855805 0.449327 0.337165
-0.866950 0.436672 0.323900
-0.863380 0.447689 0.320091
-0.867644 0.437404 -0.206638
-0.864322 0.447944 -0.202074
-0.857059 0.450063 -0.220362
-0.854435 0.444351 -0.235999
-0.853278 0.441438 -0.244725
-0.855282 0.464556 0.319336
-0.853588 0.458352 0.331179
-0.867243 0.452999 0.305004
-0.861066 0.465686 0.304085
-0.869093 0.456908 0.295247
-0.866405 0.465221 0.288958
-0.866617 0.452164 -0.186877
-0.868310 0.455366 -0.175051
-0.860377 0.465667 -0.187187
-0.865205 0.464717 -0.170065
-0.856090 0.466149 -0.203485
-0.854503 0.461017 -0.215481
-0.855117 0.477748 0.303203
-0.853457 0.474447 0.311662
-0.857287 0.483201 0.288004
-0.867969 0.470604 0.272035
-0.862063 0.482085 0.271956
-0.869185 0.473045 0.262807
-0.866534 0.482038 0.256919
-0.869287 0.473309 -0.144316
-0.867547 0.470194 -0.153985
-0.866109 0.481370 -0.138323
-0.861417 0.482102 -0.154031
-0.856518 0.482841 -0.170796
-0.855079 0.478274 -0.187423
-0.853868 0.475740 -0.198176
-0.855498 0.493866 0.272134
-0.853984 0.491590 0.283198
-0.857359 0.498941 0.255665
-0.868151 0.487485 0.242595
-0.864036 0.496869 0.238165
-0.869269 0.489626 -0.095380
-0.868261 0.487736 -0.104957
-0.862132 0.498478 -0.104869
-0.865829 0.497653 -0.089364
-0.866896 0.485268 -0.121164
-0.859419 0.498495 -0.121163
-0.856517 0.499172 -0.136594
-0.855252 0.494093 -0.154034
-0.853861 0.491507 -0.165126
-0.855528 0.510836 0.239667
-0.853910 0.507914 0.249925
-0.865935 0.500178 0.223267
-0.857049 0.515835 0.222589
-0.867659 0.503369 0.206681
-0.861050 0.514888 0.206905
-0.868836 0.505494 0.195209
-0.865258 0.513717 0.190160
-0.868101 0.504123 -0.055706
-0.869083 0.505750 -0.044674
-0.862392 0.514882 -0.055506
-0.865868 0.513850 -0.039084
-0.866657 0.501753 -0.072233
-0.859673 0.514878 -0.071987
-0.856425 0.515402 -0.087635
-0.855358 0.510574 -0.104754
-0.853968 0.508179 -0.121153
-0.853328 0.507103 -0.130513
-0.853646 0.523734 0.216720
-0.854863 0.525808 0.206915
-0.856640 0.528930 0.190578
-0.866091 0.517168 0.174106
-0.857344 0.532543 0.174196
-0.867040 0.518739 0.157735
-0.860232 0.531281 0.157411
-0.867657 0.519757 0.141317
-0.861759 0.531270 0.140280
-0.868278 0.521033 0.124776
-0.862829 0.531262 0.123618
-0.868666 0.521797 0.108347
-0.863332 0.531264 0.107598
-0.868715 0.521760 0.092083
-0.863284 0.531271 0.091611
-0.868685 0.521619 0.075736
-0.863185 0.531272 0.075536
-0.868981 0.522128 0.059334
-0.863580 0.531285 0.059327
-0.868946 0.522084 0.042917
-0.863360 0.531291 0.042920
-0.868268 0.520915 0.026510
-0.862160 0.531282 0.026315
-0.867850 0.520193 0.010079
-0.861425 0.531269 0.009631
-0.867518 0.519709 -0.006485
-0.860970 0.531258 -0.007041
-0.866727 0.517914 -0.022846
-0.858132 0.532800 -0.024480
-0.857192 0.529567 -0.039132
-0.855780 0.527321 -0.055494
-0.854431 0.525337 -0.071921
-0.853530 0.523786 -0.081613
-0.853804 0.540101 0.168741
-0.854651 0.541121 0.157157
-0.855597 0.542276 0.139466
-0.855967 0.542962 0.122721
-0.856042 0.543189 0.107064
-0.856032 0.543047 0.091303
-0.856036 0.542859 0.075420
-0.856108 0.542861 0.059351
-0.855919 0.542596 0.042953
-0.855455 0.541900 0.026171
-0.855093 0.541527 0.009259
-0.854843 0.541505 -0.007464
-0.854244 0.540815 -0.020414
-0.843152 -0.482069 0.173999
-0.837444 -0.492080 0.173584
-0.836802 -0.490959 0.184045
-0.839913 -0.482803 0.190057
-0.837895 -0.493036 0.157174
-0.844245 -0.482070 0.157655
-0.844223 -0.482067 0.141348
-0.837847 -0.493117 0.141106
-0.843974 -0.482077 0.124891
-0.837642 -0.492595 0.124933
-0.843113 -0.482091 0.108446
-0.837282 -0.491815 0.108549
-0.836885 -0.491132 0.092015
-0.841667 -0.482094 0.092027
-0.836619 -0.490633 0.082198
-0.839585 -0.483119 0.076364
-0.844298 -0.465651 0.222968
-0.837188 -0.475229 0.223389
-0.836358 -0.473859 0.231582
-0.839927 -0.465563 0.237078
-0.838766 -0.478196 0.206988
-0.848138 -0.464398 0.207872
-0.848724 -0.467921 0.190584
-0.850286 -0.470036 0.174157
-0.850937 -0.470972 0.157726
-0.850992 -0.471123 0.141264
-0.850923 -0.471250 0.124691
-0.850430 -0.470639 0.108248
-0.849468 -0.469111 0.091964
-0.848524 -0.467815 0.075663
-0.839432 -0.479418 0.059345
-0.847677 -0.467157 0.059326
-0.838219 -0.476931 0.042921
-0.847264 -0.464530 0.042885
-0.837095 -0.475009 0.031304
-0.841374 -0.466804 0.025548
-0.846158 -0.448111 0.253513
-0.837811 -0.459579 0.253474
-0.836440 -0.457700 0.261419
-0.839399 -0.449112 0.269559
-0.849047 -0.452604 0.238243
-0.851725 -0.455891 0.222583
-0.852808 -0.457173 0.213862
-0.850395 -0.453696 0.026068
-0.852112 -0.456325 0.037396
-0.848351 -0.450984 0.009598
-0.840034 -0.463160 0.009305
-0.838656 -0.460745 -0.006400
-0.847785 -0.448064 -0.006553
-0.837436 -0.458881 -0.018163
-0.841663 -0.450410 -0.023396
-0.842475 -0.434434 0.290399
-0.837949 -0.443536 0.285826
-0.848992 -0.432271 0.272971
-0.850763 -0.437315 0.259443
-0.852365 -0.440348 -0.012089
-0.850491 -0.437498 -0.022766
-0.847827 -0.432109 -0.039062
-0.839340 -0.446168 -0.040007
-0.841207 -0.434241 -0.056945
-0.837500 -0.443239 -0.053038
-0.848520 -0.416831 0.305072
-0.839852 -0.429970 0.305269
-0.837445 -0.426458 0.315823
-0.840745 -0.416827 0.320256
-0.851058 -0.422575 0.288608
-0.852415 -0.424082 0.279171
-0.851470 -0.422321 -0.044025
-0.849808 -0.419902 -0.055530
-0.848469 -0.415715 -0.072666
-0.839512 -0.429987 -0.071885
-0.837735 -0.426759 -0.084492
-0.841772 -0.417765 -0.089338
-0.849601 -0.401027 0.319867
-0.837944 -0.411570 0.331897
-0.841521 -0.400839 0.337356
-0.852002 -0.407044 0.310139
-0.850331 -0.404268 -0.088382
-0.852315 -0.407484 -0.078642
-0.839020 -0.413174 -0.104804
-0.847609 -0.398985 -0.104259
-0.837291 -0.409940 -0.115956
-0.840930 -0.400753 -0.121371
-0.850388 -0.384314 0.338224
-0.838562 -0.395813 0.351042
-0.841974 -0.384747 0.355824
-0.852240 -0.390241 0.325464
-0.851586 -0.388998 -0.109334
-0.849665 -0.385972 -0.121252
-0.838685 -0.395373 -0.137531
-0.846634 -0.382347 -0.136222
-0.838682 -0.382518 -0.153225
-0.836927 -0.392684 -0.146852
-0.841234 -0.367485 0.371252
-0.838278 -0.379992 0.366525
-0.850433 -0.368567 0.355769
-0.852661 -0.374874 0.345719
-0.846376 -0.366505 -0.153040
-0.850353 -0.371338 -0.140813
-0.838253 -0.366266 -0.169737
-0.836663 -0.376262 -0.163510
-0.849370 -0.352444 0.370686
-0.837282 -0.362168 0.380579
-0.839997 -0.350312 0.385218
-0.852521 -0.358875 0.361721
-0.849814 -0.354141 -0.157723
-0.846254 -0.349616 -0.169269
-0.838445 -0.350045 -0.185995
-0.836776 -0.360115 -0.180084
-0.839152 -0.334546 0.398101
-0.836953 -0.344390 0.394117
-0.847983 -0.335201 0.384343
-0.851932 -0.341048 0.375737
-0.846585 -0.333085 -0.185492
-0.850033 -0.337523 -0.173744
-0.836859 -0.343859 -0.195912
-0.838382 -0.333019 -0.202096
-0.851060 -0.318234 0.391380
-0.842435 -0.319465 0.404587
-0.850278 -0.321321 -0.189859
-0.845977 -0.316804 -0.201718
-0.837989 -0.318182 -0.214603
-0.836358 -0.326424 -0.211515
-0.839608 -0.300343 0.419980
-0.838016 -0.314826 0.414620
-0.849411 -0.303268 0.404096
-0.852790 -0.309724 0.395339
-0.849719 -0.301849 -0.206710
-0.841320 -0.302437 -0.220615
-0.846851 -0.285144 0.418485
-0.836406 -0.293969 0.428172
-0.838436 -0.285472 0.429668
-0.851008 -0.290435 0.409472
-0.852008 -0.292074 -0.210312
-0.848547 -0.286085 -0.219246
-0.837772 -0.297381 -0.230705
-0.839394 -0.284555 -0.236140
-0.850786 -0.268947 0.422794
-0.841667 -0.268698 0.433982
-0.850839 -0.268862 -0.224711
-0.844697 -0.268880 -0.236222
-0.836789 -0.278437 -0.245317
-0.838074 -0.267282 -0.251388
-0.838550 -0.252596 0.446207
-0.836971 -0.263040 0.442500
-0.848041 -0.254152 0.433836
-0.852838 -0.260680 0.424960
-0.849806 -0.253078 -0.235778
-0.852467 -0.258876 -0.227065
-0.842187 -0.252557 -0.252409
-0.836339 -0.260704 -0.260559
-0.837454 -0.252594 -0.262351
-0.849079 -0.236163 0.440620
-0.840829 -0.236289 0.450932
-0.848152 -0.234763 -0.250852
-0.851282 -0.239148 -0.240974
-0.839970 -0.236320 -0.266465
-0.851068 -0.223757 0.443138
-0.844702 -0.220170 0.452883
-0.842350 -0.221509 -0.270510
-0.850911 -0.219836 -0.255893
-0.848806 -0.203282 0.454463
-0.838248 -0.216542 0.463223
-0.839820 -0.202514 0.467238
-0.852472 -0.210243 -0.259673
-0.848771 -0.204202 -0.268385
-0.839045 -0.201739 -0.286118
-0.837925 -0.217068 -0.280022
-0.843583 -0.186864 0.467704
-0.836540 -0.196472 0.474900
-0.836967 -0.186893 0.476771
-0.851071 -0.186831 0.457845
-0.850112 -0.186979 -0.273150
-0.842263 -0.187030 -0.286014
-0.836730 -0.187085 -0.295690
-0.836222 -0.195184 -0.295119
-0.837709 -0.170438 0.479393
-0.847076 -0.170546 0.467736
-0.852283 -0.176128 0.460298
-0.851629 -0.174784 -0.275476
-0.847005 -0.169955 -0.284386
-0.838209 -0.170891 -0.297996
-0.847448 -0.153989 0.470594
-0.839157 -0.154028 0.481780
-0.848754 -0.154414 -0.288313
-0.840173 -0.154355 -0.303554
-0.849196 -0.137653 0.472322
-0.840872 -0.137698 0.484262
-0.851044 -0.138068 -0.291107
-0.845009 -0.138016 -0.302966
-0.838627 -0.137871 -0.315648
-0.837182 -0.148639 -0.313324
-0.850255 -0.121438 0.474338
-0.841975 -0.121563 0.485385
-0.849075 -0.121805 -0.301212
-0.852323 -0.127411 -0.292638
-0.840318 -0.121573 -0.317252
-0.851249 -0.109342 0.475639
-0.844542 -0.105821 0.485071
-0.842119 -0.106492 -0.319489
-0.850517 -0.105202 -0.305886
-0.848185 -0.089221 0.485647
-0.839881 -0.089354 0.494453
-0.837831 -0.102340 0.493932
-0.852162 -0.094918 -0.308547
-0.849347 -0.089048 -0.317965
-0.839830 -0.087036 -0.334323
-0.838086 -0.101852 -0.328492
-0.849907 -0.072721 0.487347
-0.841570 -0.072819 0.495904
-0.851422 -0.072191 -0.323365
-0.843669 -0.072293 -0.334556
-0.836916 -0.072436 -0.343843
-0.836325 -0.080497 -0.343118
-0.850080 -0.056006 0.489354
-0.840882 -0.055273 0.501710
-0.852374 -0.056220 -0.325440
-0.845460 -0.056387 -0.334461
-0.837754 -0.056583 -0.344814
-0.841330 -0.040184 0.503502
-0.836512 -0.049308 0.510699
-0.836509 -0.046266 0.510806
-0.850636 -0.039397 0.491633
-0.848142 -0.041556 -0.333395
-0.852729 -0.047968 -0.326173
-0.838826 -0.040344 -0.346525
-0.851395 -0.022941 0.492526
-0.843055 -0.023242 0.500644
-0.839898 -0.022912 -0.352232
-0.848864 -0.023384 -0.337378
-0.851875 -0.012390 0.492960
-0.844567 -0.007888 0.501359
-0.843878 -0.007160 -0.351670
-0.851033 -0.007018 -0.340340
-0.836613 -0.016955 -0.361687
-0.837487 -0.007240 -0.362487
-0.847259 0.008830 0.504569
-0.837345 -0.003507 0.510036
-0.839007 0.008379 0.512869
-0.852460 0.002706 -0.342089
-0.848002 0.008371 -0.349992
-0.838894 0.008792 -0.364024
-0.848247 0.024965 0.504354
-0.839997 0.024544 0.513360
-0.839622 0.026373 -0.368419
-0.848591 0.025230 -0.353217
-0.848298 0.041405 0.502344
-0.839975 0.041069 0.511984
-0.849949 0.041688 -0.354553
-0.842369 0.041705 -0.368464
-0.837095 0.041877 -0.377844
-0.836469 0.032837 -0.376062
-0.848261 0.057816 0.503037
-0.839955 0.057482 0.512926
-0.844836 0.058100 -0.368263
-0.851441 0.058239 -0.356728
-0.838077 0.058028 -0.378941
-0.847752 0.074193 0.504348
-0.839522 0.073737 0.514019
-0.848128 0.073702 -0.366571
-0.852569 0.068056 -0.358534
-0.838965 0.073826 -0.378580
-0.846897 0.090626 0.503843
-0.838628 0.090116 0.512903
-0.840037 0.090312 -0.379972
-0.848328 0.090806 -0.369492
-0.846456 0.106930 0.502352
-0.838079 0.106374 0.511093
-0.849325 0.107270 -0.369892
-0.840932 0.107089 -0.381927
-0.846533 0.122743 0.500214
-0.837205 0.122271 0.510125
-0.849790 0.123392 -0.370604
-0.841470 0.123181 -0.382449
-0.836300 0.130255 0.509911
-0.841264 0.137063 0.502250
-0.851996 0.128336 0.493262
-0.850725 0.139276 0.491510
-0.841853 0.139098 -0.382288
-0.850060 0.139443 -0.371195
-0.849844 0.155334 0.488806
-0.841531 0.154947 0.497006
-0.841874 0.155669 -0.382907
-0.850156 0.155758 -0.370965
-0.849006 0.171649 0.486743
-0.840622 0.171400 0.494517
-0.850226 0.172066 -0.370531
-0.840802 0.172859 -0.385228
-0.844318 0.189569 0.487490
-0.838636 0.184979 0.493793
-0.850544 0.188177 -0.371309
-0.842400 0.188079 -0.383685
-0.836439 0.178726 -0.391951
-0.836586 0.187995 -0.392013
-0.845327 0.203791 0.483335
-0.841104 0.203202 -0.385007
-0.850389 0.204376 -0.371395
-0.836640 0.197035 -0.391958
-0.851412 0.208987 0.475654
-0.850166 0.220970 0.473968
-0.841836 0.220994 0.483921
-0.850158 0.222541 -0.367007
-0.841081 0.220716 -0.382415
-0.848578 0.237024 0.471588
-0.840194 0.237185 0.482326
-0.853162 0.229226 -0.359090
-0.852867 0.237352 -0.358668
-0.848036 0.237257 -0.367266
-0.839924 0.237125 -0.380965
-0.845250 0.253880 0.469410
-0.838282 0.249218 0.479899
-0.846444 0.253308 -0.367237
-0.852363 0.253571 -0.358052
-0.838843 0.252988 -0.379133
-0.852106 0.258680 0.460280
-0.850772 0.269275 0.458800
-0.842518 0.269125 0.467211
-0.843677 0.269444 -0.367266
-0.850906 0.269694 -0.356042
-0.837522 0.269164 -0.377144
-0.848884 0.285654 0.454679
-0.840545 0.285530 0.463593
-0.849543 0.287379 -0.350984
-0.839694 0.285369 -0.369167
-0.836678 0.279436 -0.375972
-0.847412 0.302504 0.449814
-0.838219 0.301920 0.459989
-0.853076 0.293825 -0.342587
-0.846276 0.302253 -0.351561
-0.852243 0.302231 -0.341460
-0.838762 0.302268 -0.365405
-0.836656 0.310748 0.458393
-0.840777 0.317094 0.451003
-0.852195 0.308357 0.443119
-0.849855 0.318442 0.441521
-0.850701 0.318715 -0.339482
-0.843678 0.318704 -0.351034
-0.837705 0.318671 -0.361554
-0.846754 0.334734 0.437351
-0.838543 0.334650 0.445050
-0.848798 0.335861 -0.334485
-0.839621 0.334186 -0.350685
-0.836950 0.328131 -0.359741
-0.844083 0.350709 0.432871
-0.837023 0.345252 0.442086
-0.852282 0.341807 -0.324801
-0.850905 0.352593 -0.318934
-0.841785 0.352267 -0.335754
-0.837679 0.347251 -0.345154
-0.851247 0.356132 0.422812
-0.848634 0.369055 0.417943
-0.839262 0.367456 0.428702
-0.852848 0.358761 -0.309575
-0.851419 0.367625 -0.307034
-0.845650 0.367670 -0.318109
-0.838973 0.367719 -0.330383
-0.840693 0.382184 0.418065
-0.836428 0.375682 0.426459
-0.852868 0.375580 0.409921
-0.849949 0.383763 0.407733
-0.839849 0.382858 -0.317754
-0.849310 0.385105 -0.301192
-0.836939 0.376736 -0.326948
-0.844380 0.399640 0.402635
-0.838053 0.394710 0.413080
-0.852667 0.391425 -0.292971
-0.850513 0.400350 -0.289321
-0.842055 0.401502 -0.303056
-0.838100 0.396769 -0.312108
-0.850777 0.404539 0.389800
-0.848089 0.416723 0.383661
-0.839499 0.416492 0.396501
-0.846795 0.415187 -0.284548
-0.838701 0.416609 -0.299237
-0.839549 0.431893 0.382960
-0.837269 0.425781 0.393167
-0.851839 0.422368 0.373743
-0.848310 0.433568 0.368864
-0.850754 0.419719 -0.273758
-0.847276 0.432139 -0.268893
-0.838882 0.432079 -0.285221
-0.836970 0.426001 -0.296641
-0.839455 0.447714 0.368590
-0.836631 0.441140 0.377564
-0.851836 0.439540 0.358846
-0.848120 0.449333 0.354230
-0.850965 0.437035 -0.256260
-0.839140 0.448233 -0.268113
-0.847069 0.447881 -0.251123
-0.836897 0.442033 -0.278092
-0.839059 0.464440 0.352866
-0.837081 0.458121 0.363297
-0.851133 0.454787 0.342145
-0.847232 0.464572 0.336443
-0.852238 0.456042 -0.226303
-0.850198 0.452539 -0.236004
-0.849582 0.466160 -0.220634
-0.843267 0.465717 -0.236245
-0.838479 0.464885 -0.250874
-0.837222 0.458865 -0.261865
-0.838966 0.477830 0.336129
-0.836738 0.474140 0.346155
-0.850653 0.469276 0.322972
-0.844643 0.482141 0.318588
-0.851876 0.471946 -0.208911
-0.848519 0.481557 -0.203578
-0.840958 0.482768 -0.221055
-0.837944 0.476861 -0.236746
-0.836631 0.474030 -0.244426
-0.849963 0.485955 0.303080
-0.840969 0.498376 0.302786
-0.838633 0.492831 0.315487
-0.852391 0.489403 0.293369
-0.847664 0.497632 0.288431
-0.852172 0.488823 -0.176569
-0.850734 0.486484 -0.187483
-0.843520 0.498486 -0.187255
-0.848016 0.497568 -0.170801
-0.839543 0.498402 -0.202292
-0.837870 0.492892 -0.215600
-0.837109 0.507263 0.297640
-0.838608 0.509403 0.288641
-0.849395 0.502058 0.272362
-0.840352 0.515079 0.271073
-0.851512 0.504678 0.260839
-0.847077 0.513978 0.255580
-0.849688 0.502280 -0.154063
-0.851719 0.505071 -0.141442
-0.847111 0.513493 -0.136625
-0.840821 0.515556 -0.153791
-0.839227 0.511013 -0.170682
-0.837726 0.508492 -0.186957
-0.836949 0.507158 -0.195832
-0.836888 0.523369 0.264513
-0.838559 0.525927 0.255664
-0.850090 0.519015 0.239548
-0.841141 0.531752 0.238642
-0.852253 0.521904 0.227486
-0.848071 0.530033 0.222314
-0.851838 0.521217 -0.092561
-0.850192 0.518758 -0.104799
-0.847750 0.530056 -0.087616
-0.841454 0.532720 -0.106274
-0.848410 0.516362 -0.121199
-0.840176 0.529279 -0.121397
-0.838459 0.526153 -0.137587
-0.837261 0.524053 -0.148016
-0.837256 0.540179 0.232842
-0.839211 0.542725 0.222708
-0.850270 0.534004 0.206583
-0.840947 0.548218 0.204804
-0.851998 0.537119 0.190503
-0.844353 0.547687 0.190431
-0.852864 0.538821 0.179686
-0.848013 0.546412 0.174201
-0.852330 0.537746 -0.039244
-0.853205 0.539287 -0.030592
-0.848791 0.546822 -0.024581
-0.845739 0.547674 -0.039422
-0.850866 0.535505 -0.055548
-0.841851 0.548882 -0.056066
-0.849342 0.533529 -0.071921
-0.841100 0.545305 -0.071903
-0.839224 0.542787 -0.088417
-0.837711 0.540858 -0.101558
-0.837451 0.556603 0.190425
-0.836809 0.555914 0.198574
-0.838793 0.558181 0.174193
-0.848464 0.549321 0.157132
-0.840192 0.560110 0.157185
-0.849462 0.550478 0.139621
-0.841161 0.561468 0.139992
-0.849697 0.551168 0.123116
-0.841446 0.561765 0.123776
-0.849784 0.551391 0.107407
-0.841570 0.561937 0.107911
-0.850018 0.551247 0.091406
-0.841748 0.562518 0.091623
-0.850001 0.551051 0.075404
-0.841682 0.562463 0.075449
-0.849637 0.551050 0.059343
-0.841357 0.561512 0.059339
-0.849330 0.550784 0.042933
-0.841061 0.560955 0.042933
-0.849142 0.550090 0.025943
-0.840810 0.561034 0.025793
-0.848859 0.549726 0.009054
-0.840539 0.560694 0.008954
-0.848423 0.549702 -0.007264
-0.840203 0.559908 -0.006952
-0.839521 0.559172 -0.023096
-0.838457 0.558113 -0.039531
-0.837471 0.556924 -0.051062
-0.825425 -0.514866 0.140106
-0.820230 -0.523657 0.140311
-0.820088 -0.523510 0.151458
-0.823911 -0.516400 0.156001
-0.823837 -0.516207 0.124925
-0.820120 -0.523413 0.130437
-0.826746 -0.498470 0.206133
-0.820854 -0.508272 0.205293
-0.820037 -0.506854 0.215253
-0.823057 -0.498659 0.221887
-0.822389 -0.511099 0.187530
-0.831293 -0.497239 0.188769
-0.832062 -0.500287 0.172195
-0.823797 -0.513591 0.171195
-0.833013 -0.501241 0.155913
-0.833313 -0.501319 0.140385
-0.832891 -0.500787 0.124802
-0.824084 -0.513905 0.108564
-0.832304 -0.500004 0.108535
-0.832001 -0.499321 0.091526
-0.823758 -0.513536 0.091048
-0.831984 -0.497057 0.075690
-0.823034 -0.512364 0.073967
-0.821857 -0.510165 0.058584
-0.828607 -0.498487 0.058960
-0.825993 -0.498481 0.042720
-0.820723 -0.508134 0.042582
-0.822971 -0.499292 0.026431
-0.820079 -0.507071 0.032535
-0.830135 -0.480436 0.238108
-0.821750 -0.493174 0.239832
-0.820468 -0.491100 0.249856
-0.823543 -0.482593 0.255066
-0.832017 -0.483446 0.223385
-0.834076 -0.486416 0.206946
-0.835574 -0.488770 0.195239
-0.835846 -0.489273 0.071385
-0.834901 -0.487625 0.059293
-0.833418 -0.485144 0.042879
-0.832446 -0.481127 0.025746
-0.828804 -0.482092 0.009653
-0.822170 -0.494662 0.009482
-0.825922 -0.482115 -0.006313
-0.820808 -0.491733 -0.006284
-0.820101 -0.490477 -0.014925
-0.822858 -0.482417 -0.021328
-0.823027 -0.465544 0.287707
-0.821532 -0.476878 0.271833
-0.820218 -0.474277 0.281387
-0.829856 -0.464166 0.269460
-0.832216 -0.467805 0.254448
-0.834467 -0.470990 0.241927
-0.835860 -0.473028 0.019642
-0.834783 -0.471356 0.009451
-0.833333 -0.468964 -0.006385
-0.832327 -0.464892 -0.023368
-0.821764 -0.477258 -0.039277
-0.828064 -0.465673 -0.039872
-0.820642 -0.475133 -0.050624
-0.823671 -0.466572 -0.056245
-0.822749 -0.449156 0.319174
-0.821173 -0.459648 0.305452
-0.820245 -0.457860 0.314198
-0.827490 -0.449277 0.305421
-0.832657 -0.449103 0.290349
-0.834407 -0.454457 0.274528
-0.834440 -0.454359 -0.040364
-0.835820 -0.456618 -0.029419
-0.832914 -0.448946 -0.057510
-0.821969 -0.461829 -0.071890
-0.828389 -0.449286 -0.071893
-0.823323 -0.449965 -0.088507
-0.820595 -0.459052 -0.083002
-0.824015 -0.433190 0.336814
-0.821244 -0.443628 0.330393
-0.831664 -0.432314 0.320580
-0.834486 -0.438166 0.305345
-0.836193 -0.440894 0.296885
-0.834563 -0.438173 -0.071904
-0.836095 -0.440589 -0.062964
-0.832586 -0.432492 -0.089350
-0.827515 -0.432913 -0.105184
-0.821323 -0.444433 -0.105595
-0.822718 -0.432888 -0.120729
-0.820149 -0.441714 -0.115422
-0.824298 -0.416607 0.354593
-0.821304 -0.427890 0.348709
-0.832530 -0.416802 0.337781
-0.835051 -0.422514 0.325782
-0.836040 -0.424085 -0.095460
-0.834332 -0.421378 -0.104801
-0.831835 -0.415889 -0.121312
-0.824891 -0.417923 -0.138706
-0.821285 -0.427415 -0.134049
-0.833013 -0.400782 0.355754
-0.821357 -0.411231 0.366369
-0.825001 -0.400820 0.371443
-0.835391 -0.406759 0.344168
-0.833342 -0.403606 -0.137563
-0.835371 -0.406689 -0.126824
-0.830157 -0.398952 -0.153166
-0.822073 -0.412601 -0.153994
-0.820351 -0.409021 -0.163155
-0.822710 -0.399615 -0.170182
-0.824724 -0.384639 0.386355
-0.821993 -0.395894 0.382615
-0.833412 -0.384738 0.371445
-0.835753 -0.390899 0.362119
-0.830856 -0.382525 -0.170344
-0.834154 -0.387164 -0.158302
-0.822996 -0.383792 -0.188278
-0.820893 -0.393811 -0.183082
-0.823547 -0.367366 0.399258
-0.821351 -0.379797 0.394895
-0.832144 -0.367504 0.385736
-0.835429 -0.373023 0.377062
-0.833928 -0.370894 -0.174885
-0.830780 -0.366413 -0.186439
-0.822645 -0.366801 -0.203305
-0.821064 -0.378401 -0.198212
-0.834298 -0.355376 0.390699
-0.828100 -0.351275 0.402963
-0.833863 -0.354980 -0.190597
-0.830220 -0.350245 -0.202127
-0.820408 -0.360874 -0.212189
-0.821962 -0.349772 -0.218471
-0.833577 -0.334458 0.407840
-0.825093 -0.334475 0.420504
-0.821918 -0.347194 0.415131
-0.829642 -0.333025 -0.218556
-0.833694 -0.337491 -0.206836
-0.820071 -0.343092 -0.228137
-0.821767 -0.334595 -0.233011
-0.823001 -0.317003 0.436009
-0.821270 -0.329012 0.430845
-0.832569 -0.319375 0.420155
