-0.130164 -0.073353 -0.580844
-0.130226 -0.073168 -0.597277
-0.122055 -0.087787 -0.597236
-0.122017 -0.087759 -0.613661
-0.130186 -0.072559 -0.613703
-0.121838 -0.087764 -0.630040
-0.130182 -0.070357 -0.629313
-0.121761 -0.087686 -0.646457
-0.129769 -0.071916 -0.646508
-0.129742 -0.071918 -0.662927
-0.121764 -0.087500 -0.662920
-0.121679 -0.087275 -0.679312
-0.129530 -0.071910 -0.679331
-0.121535 -0.087038 -0.695673
-0.129233 -0.071903 -0.695744
-0.121431 -0.086805 -0.712113
-0.129201 -0.071901 -0.712172
-0.129185 -0.071894 -0.728596
-0.121327 -0.086510 -0.728575
-0.128564 -0.071888 -0.744984
-0.121021 -0.086102 -0.744950
-0.127693 -0.071887 -0.761351
-0.120592 -0.085654 -0.761297
-0.120221 -0.085202 -0.777752
-0.127266 -0.071883 -0.777777
-0.126908 -0.071872 -0.794211
-0.119798 -0.084637 -0.794217
-0.126150 -0.071863 -0.810535
-0.119229 -0.084046 -0.810537
-0.118474 -0.083372 -0.826871
-0.124994 -0.071865 -0.826877
-0.117491 -0.082366 -0.843378
-0.123598 -0.071866 -0.843375
-0.122126 -0.071863 -0.859881
-0.116658 -0.081592 -0.859888
-0.120520 -0.071862 -0.876304
-0.116148 -0.081341 -0.876293
-0.118878 -0.071874 -0.893439
-0.115341 -0.080758 -0.893484
-0.114666 -0.080186 -0.903151
-0.117113 -0.072047 -0.909977
-0.123470 -0.055083 -0.383974
-0.118208 -0.060814 -0.373037
-0.124635 -0.061171 -0.548910
-0.124628 -0.060860 -0.532228
-0.124595 -0.061369 -0.629296
-0.122864 -0.060639 -0.646495
-0.122869 -0.060250 -0.662927
-0.122743 -0.059860 -0.679343
-0.122555 -0.059499 -0.695757
-0.122628 -0.058896 -0.712207
-0.122743 -0.058154 -0.728668
-0.122426 -0.057800 -0.745061
-0.121965 -0.057585 -0.761421
-0.121906 -0.057011 -0.777898
-0.120602 -0.054334 -0.795936
-0.122774 -0.055513 -0.810633
-0.123722 -0.055500 -0.826918
-0.123882 -0.055478 -0.843430
-0.123188 -0.055464 -0.859960
-0.121470 -0.055464 -0.876361
-0.120130 -0.055475 -0.893372
-0.119720 -0.055474 -0.911193
-0.118118 -0.055439 -0.928463
-0.116563 -0.066519 -0.928564
-0.115364 -0.064487 -0.938867
-0.115723 -0.055429 -0.940023
-0.126256 -0.051578 -0.400116
-0.118169 -0.044731 -0.400134
-0.117908 -0.045105 -0.390033
-0.124065 -0.053914 -0.416498
-0.115993 -0.046513 -0.416535
-0.121470 -0.053853 -0.431358
-0.115024 -0.047505 -0.424926
-0.123060 -0.056504 -0.449298
-0.123071 -0.057718 -0.465723
-0.123070 -0.058643 -0.482168
-0.123058 -0.059086 -0.498610
-0.123051 -0.059516 -0.515046
-0.123049 -0.060342 -0.564350
-0.123044 -0.060126 -0.580790
-0.123063 -0.060270 -0.597226
-0.123063 -0.060548 -0.613658
-0.115011 -0.047286 -0.802541
-0.115998 -0.044400 -0.810751
-0.117365 -0.040527 -0.826985
-0.117539 -0.037722 -0.842297
-0.118454 -0.039155 -0.860047
-0.117657 -0.039169 -0.876430
-0.117219 -0.039163 -0.893392
-0.117983 -0.039108 -0.911191
-0.117639 -0.039095 -0.928454
-0.115896 -0.039104 -0.940912
-0.115354 -0.030414 -0.847018
-0.115633 -0.029403 -0.860048
-0.115415 -0.029832 -0.876450
-0.115418 -0.029012 -0.893461
-0.116164 -0.023111 -0.911446
-0.117006 -0.023107 -0.928443
-0.115998 -0.023337 -0.941410
-0.116727 -0.007575 -0.911518
-0.117816 -0.007649 -0.928400
-0.116322 -0.007452 -0.944338
-0.119476 0.007601 -0.860478
-0.115696 -0.000919 -0.860345
-0.115541 -0.000688 -0.847708
-0.118856 0.005922 -0.842840
-0.117170 0.006421 -0.877281
-0.115482 -0.000753 -0.872087
-0.117789 0.007825 -0.911415
-0.116000 -0.002741 -0.897268
-0.116683 0.006420 -0.892330
-0.116872 0.007553 -0.927443
-0.116212 0.001069 -0.943952
-0.115432 -0.000989 -0.951321
-0.115437 -0.002356 -0.951285
-0.123306 0.010173 -0.369574
-0.122863 0.023815 -0.362841
-0.122127 0.021013 -0.778232
-0.122129 0.011266 -0.778148
-0.124591 0.012775 -0.762168
-0.124595 0.019609 -0.762204
-0.121682 0.021084 -0.794908
-0.121695 0.009598 -0.794748
-0.120708 0.008721 -0.810964
-0.120688 0.021196 -0.811158
-0.119766 0.020994 -0.827402
-0.119785 0.007964 -0.827198
-0.119466 0.020568 -0.844156
-0.118891 0.019541 -0.860844
-0.117379 0.017685 -0.876991
-0.116302 0.016660 -0.893845
-0.115831 0.016493 -0.911604
-0.115240 0.016079 -0.921497
-0.122944 0.034026 -0.367565
-0.117142 0.028917 -0.358551
-0.117186 0.032834 -0.358547
-0.121808 0.024477 -0.485774
-0.124444 0.022113 -0.498748
-0.125554 0.021267 -0.515140
-0.125338 0.020922 -0.531628
-0.125221 0.020899 -0.548087
-0.125980 0.021064 -0.564444
-0.126254 0.021143 -0.580847
-0.125689 0.021016 -0.597355
-0.125718 0.020728 -0.613795
-0.126654 0.020257 -0.630112
-0.126754 0.019890 -0.646536
-0.125778 0.019726 -0.663108
-0.125615 0.019354 -0.679517
-0.126389 0.018697 -0.695795
-0.125264 0.018244 -0.712300
-0.121882 0.018494 -0.727587
-0.123417 0.020575 -0.745308
-0.123463 0.037587 -0.383706
-0.123482 0.038452 -0.400200
-0.123438 0.036816 -0.416663
-0.123443 0.034753 -0.433035
-0.123469 0.032516 -0.449377
-0.123465 0.031360 -0.465817
-0.123450 0.031073 -0.476707
-0.106508 -0.081787 -0.373419
-0.105599 -0.071592 -0.372323
-0.110089 -0.077628 -0.915172
-0.099182 -0.080269 -0.922443
-0.105318 -0.080957 -0.910257
-0.105379 -0.074843 -0.928353
-0.110452 -0.060862 -0.372914
-0.103133 -0.055477 -0.952782
-0.101434 -0.065516 -0.952977
-0.106618 -0.067515 -0.944436
-0.111095 -0.055512 -0.947602
-0.106285 -0.055405 -0.383218
-0.113009 -0.045119 -0.390028
-0.108346 -0.053210 -0.431392
-0.105609 -0.058919 -0.448806
-0.108199 -0.058742 -0.465702
-0.108674 -0.059155 -0.482149
-0.109220 -0.059767 -0.498591
-0.109710 -0.060335 -0.515023
-0.110080 -0.060652 -0.531470
-0.110323 -0.060846 -0.547911
-0.110463 -0.061004 -0.564337
-0.110529 -0.061074 -0.580772
-0.110598 -0.061090 -0.597229
-0.110692 -0.061096 -0.613679
-0.110777 -0.061066 -0.630094
-0.110691 -0.060875 -0.646532
-0.110439 -0.060510 -0.663020
-0.110171 -0.060120 -0.679457
-0.109863 -0.059723 -0.695862
-0.109401 -0.059112 -0.712366
-0.108847 -0.058382 -0.728922
-0.108311 -0.058015 -0.745352
-0.107718 -0.057767 -0.761739
-0.105351 -0.058494 -0.779727
-0.108367 -0.053884 -0.796387
-0.114942 -0.047287 -0.802544
-0.104686 -0.039212 -0.952674
-0.112682 -0.039197 -0.948107
-0.112595 -0.044759 -0.400172
-0.114004 -0.046531 -0.416571
-0.114909 -0.047507 -0.424928
-0.114005 -0.044419 -0.810802
-0.112313 -0.040567 -0.827138
-0.111390 -0.037738 -0.842574
-0.114413 -0.030417 -0.847099
-0.113601 -0.023567 -0.948543
-0.105597 -0.023737 -0.952737
-0.113189 -0.029421 -0.860204
-0.112288 -0.029861 -0.876633
-0.106502 -0.024579 -0.893810
-0.110798 -0.018008 -0.905919
-0.110817 -0.012880 -0.905974
-0.105927 -0.007918 -0.896507
-0.108062 -0.008001 -0.952323
-0.113974 -0.012252 -0.949151
-0.109292 0.006087 -0.843454
-0.114379 -0.000676 -0.847811
-0.106776 0.001671 -0.886699
-0.112524 0.013586 -0.372119
-0.110643 0.023978 -0.366777
-0.114401 0.017044 -0.732407
-0.121893 0.012598 -0.727545
-0.114392 0.014095 -0.732398
-0.110551 0.012438 -0.932306
-0.105891 0.008691 -0.943167
-0.105606 0.017230 -0.927774
-0.099691 0.015610 -0.937728
-0.107133 0.001122 -0.952003
-0.113363 0.032873 -0.358463
-0.113360 0.028972 -0.358481
-0.113917 0.018851 -0.745575
-0.113572 0.020425 -0.761837
-0.112553 0.021171 -0.778610
-0.111276 0.021269 -0.795474
-0.110602 0.021342 -0.811676
-0.109918 0.021107 -0.827887
-0.108400 0.020727 -0.844849
-0.105381 0.019321 -0.861268
-0.106749 0.018874 -0.877775
-0.106666 0.018809 -0.894499
-0.106571 0.019635 -0.911936
-0.111519 0.034304 -0.367105
-0.106731 0.035687 -0.384509
-0.106982 0.037712 -0.400315
-0.105522 0.034703 -0.417289
-0.109365 0.033586 -0.433144
-0.112998 0.031881 -0.449373
-0.114744 0.031091 -0.465797
-0.114917 0.031022 -0.475118
-0.097529 -0.076798 -0.374431
-0.097532 -0.080870 -0.374445
-0.093968 -0.071647 -0.382687
-0.099540 -0.065882 -0.376454
-0.095759 -0.060759 -0.387566
-0.096276 -0.071305 -0.448801
-0.100003 -0.066290 -0.465689
-0.099377 -0.065308 -0.453941
-0.096589 -0.074413 -0.465724
-0.100484 -0.067073 -0.482150
-0.096908 -0.075201 -0.482197
-0.097080 -0.075990 -0.498629
-0.101021 -0.067867 -0.498587
-0.101502 -0.068539 -0.515018
-0.097221 -0.076650 -0.515054
-0.101879 -0.069054 -0.531487
-0.097422 -0.077164 -0.531540
-0.102126 -0.069414 -0.547942
-0.097563 -0.077529 -0.548008
-0.097597 -0.077783 -0.564409
-0.102254 -0.069665 -0.564354
-0.102313 -0.069824 -0.580793
-0.097631 -0.077936 -0.580848
-0.102391 -0.069911 -0.597287
-0.097712 -0.078024 -0.597373
-0.097747 -0.078134 -0.613849
-0.102490 -0.070011 -0.613752
-0.097728 -0.078305 -0.630221
-0.102563 -0.070174 -0.630147
-0.102473 -0.070106 -0.646599
-0.097695 -0.078236 -0.646679
-0.097660 -0.077925 -0.663257
-0.102235 -0.069785 -0.663137
-0.097622 -0.077752 -0.679718
-0.101969 -0.069601 -0.679594
-0.101645 -0.069478 -0.695985
-0.097552 -0.077626 -0.696086
-0.097368 -0.076976 -0.712621
-0.101186 -0.068825 -0.712519
-0.097084 -0.075927 -0.729265
-0.100646 -0.067755 -0.729144
-0.100111 -0.066761 -0.745601
-0.096748 -0.074941 -0.745731
-0.096335 -0.073895 -0.762123
-0.099511 -0.065719 -0.761990
-0.096469 -0.070977 -0.780065
-0.098975 -0.064755 -0.775245
-0.098478 -0.063877 -0.786489
-0.094733 -0.059390 -0.400246
-0.104352 -0.051219 -0.400172
-0.105774 -0.051949 -0.416577
-0.095553 -0.060131 -0.416648
-0.097079 -0.062067 -0.432966
-0.098232 -0.063629 -0.443019
-0.098074 -0.063222 -0.795355
-0.105778 -0.053462 -0.811185
-0.097063 -0.061703 -0.811711
-0.095994 -0.060114 -0.828086
-0.104049 -0.051895 -0.827504
-0.095319 -0.058928 -0.844809
-0.102696 -0.050707 -0.844220
-0.094493 -0.057643 -0.861518
-0.101299 -0.049425 -0.860942
-0.093625 -0.054415 -0.878142
-0.099786 -0.048201 -0.872283
-0.097626 -0.042945 -0.883356
-0.103707 -0.038197 -0.877365
-0.102184 -0.032150 -0.885773
-0.089709 -0.039372 -0.894786
-0.090166 -0.023349 -0.898399
-0.090193 -0.007862 -0.897688
-0.091142 0.007205 -0.891597
-0.096171 0.023699 -0.389765
-0.102593 0.023753 -0.381413
-0.106992 0.010182 -0.384367
-0.096429 0.013916 -0.390394
-0.098060 0.014125 -0.866821
-0.104171 0.008474 -0.861038
-0.098064 0.016322 -0.866918
-0.090662 0.012847 -0.947778
-0.090799 0.004841 -0.952686
-0.097558 0.032199 -0.390659
-0.096170 0.024031 -0.417461
-0.102307 0.023829 -0.432418
-0.099038 0.029233 -0.423207
-0.097408 0.019272 -0.426594
-0.097302 0.016572 -0.878496
-0.091087 0.017887 -0.895839
-0.090048 0.022221 -0.912275
-0.090182 0.021562 -0.928807
-0.090438 0.016993 -0.940918
-0.097266 0.032340 -0.400369
-0.097907 0.031637 -0.412152
-0.076953 -0.058414 -0.901589
-0.085467 -0.053984 -0.895445
-0.083751 -0.072408 -0.895635
-0.076981 -0.067284 -0.901591
-0.081728 -0.047478 -0.903875
-0.073756 -0.055128 -0.903896
-0.081731 -0.046587 -0.903876
-0.081447 -0.046587 -0.903875
-0.070575 -0.051854 -0.902659
-0.075049 -0.040372 -0.901166
-0.073679 -0.023219 -0.899487
-0.066805 -0.006654 -0.371374
-0.067768 -0.018635 -0.383632
-0.065843 -0.015194 -0.374759
-0.071451 -0.006836 -0.383680
-0.075171 -0.007010 -0.400276
-0.069777 -0.022033 -0.400182
-0.069892 -0.021841 -0.416689
-0.075355 -0.007055 -0.416820
-0.073411 -0.007139 -0.433132
-0.068841 -0.020119 -0.433037
-0.067339 -0.017760 -0.449334
-0.070703 -0.007220 -0.449377
-0.066885 -0.016750 -0.465757
-0.070096 -0.007220 -0.465809
-0.066947 -0.016642 -0.482221
-0.070392 -0.007189 -0.482299
-0.069803 -0.007204 -0.498709
-0.066744 -0.016447 -0.498640
-0.069157 -0.007225 -0.515106
-0.066503 -0.016202 -0.515051
-0.066448 -0.016004 -0.531508
-0.069235 -0.007206 -0.531598
-0.069172 -0.007181 -0.548066
-0.066355 -0.015822 -0.547953
-0.068504 -0.007178 -0.564441
-0.066139 -0.015640 -0.564360
-0.068046 -0.007170 -0.580857
-0.065961 -0.015444 -0.580788
-0.065840 -0.015243 -0.592585
-0.067585 -0.008604 -0.597833
-0.073707 -0.007614 -0.899411
-0.065828 0.009468 0.334851
-0.065773 0.001094 0.326923
-0.065764 0.001110 0.333343
-0.065840 0.009493 0.326453
-0.065802 0.003939 0.119858
-0.065882 0.000307 0.107831
-0.065817 0.000676 0.120006
-0.065857 0.005152 0.107607
-0.065817 0.004274 0.090988
-0.065833 0.000879 0.091122
-0.065756 0.001460 0.081077
-0.065751 0.002791 0.081024
-0.067477 0.009859 -0.008271
-0.066705 -0.003512 -0.009011
-0.065996 -0.000969 0.004854
-0.066144 0.009021 0.010768
-0.066863 -0.003732 -0.026120
-0.067976 0.009818 -0.025807
-0.067088 0.009827 -0.041141
-0.066374 -0.001837 -0.040837
-0.066190 -0.000700 -0.055727
-0.067126 0.009758 -0.056079
-0.065920 0.000377 -0.071836
-0.067275 0.009616 -0.071859
-0.065829 0.000895 -0.088372
-0.067328 0.009543 -0.088348
-0.067690 0.009545 -0.105290
-0.066046 0.000460 -0.105584
-0.065920 0.000742 -0.119009
-0.067137 0.007985 -0.122988
-0.067309 0.009549 -0.288339
-0.065637 0.001159 -0.288326
-0.065610 0.001318 -0.277984
-0.066863 0.008020 -0.271530
-0.065605 0.001143 -0.299617
-0.066671 0.008290 -0.305243
-0.067237 0.008877 -0.365954
-0.073282 0.009093 -0.383723
-0.077516 0.008785 -0.400418
-0.077802 0.008774 -0.417074
-0.076126 0.008691 -0.433325
-0.073811 0.008596 -0.449452
-0.073606 0.008615 -0.465922
-0.074091 0.008677 -0.482484
-0.073211 0.008669 -0.498860
-0.072322 0.008648 -0.515214
-0.072580 0.008684 -0.531799
-0.072617 0.008725 -0.548328
-0.071686 0.008722 -0.564612
-0.071098 0.008727 -0.580997
-0.071309 0.008779 -0.597655
-0.067668 -0.006028 -0.613848
-0.070680 0.008794 -0.614165
-0.066725 -0.003712 -0.630239
-0.068887 0.008735 -0.630398
-0.067973 0.008739 -0.646864
-0.066279 -0.002076 -0.646726
-0.068085 0.008831 -0.663639
-0.066408 -0.001768 -0.663348
-0.066201 -0.000744 -0.674669
-0.066871 0.008789 -0.680260
-0.073628 0.007903 -0.898364
-0.065663 0.021662 0.829981
-0.065644 0.016976 0.829922
-0.065405 0.018067 0.838137
-0.065406 0.018411 0.838141
-0.066088 0.026759 0.815120
-0.065983 0.015277 0.813736
-0.066841 0.025546 0.797364
-0.066263 0.013963 0.797257
-0.067422 0.025443 0.780461
-0.066600 0.012730 0.780222
-0.066678 0.012522 0.763414
-0.067643 0.025379 0.763695
-0.066370 0.013740 0.747443
-0.067365 0.025401 0.747587
-0.067262 0.025376 0.731306
-0.066200 0.014462 0.731223
-0.066376 0.013796 0.714257
-0.067572 0.025263 0.714431
-0.066456 0.013522 0.697729
-0.067715 0.025221 0.697928
-0.067527 0.025285 0.682012
-0.066334 0.014085 0.681900
-0.067466 0.025248 0.665653
-0.066295 0.014194 0.665572
-0.066372 0.013746 0.648668
-0.067558 0.025108 0.648775
-0.066411 0.013726 0.632362
-0.067541 0.025118 0.632428
-0.067450 0.025254 0.616497
-0.066406 0.014096 0.616491
-0.067442 0.025219 0.599947
-0.066432 0.014015 0.599927
-0.066471 0.013851 0.582964
-0.067465 0.025069 0.583003
-0.066318 0.014482 0.566643
-0.067096 0.025049 0.566549
-0.066666 0.025068 0.550077
-0.066113 0.015122 0.550382
-0.066901 0.024920 0.532489
-0.066232 0.014094 0.532755
-0.066253 0.013151 0.515180
-0.066973 0.024895 0.515101
-0.066043 0.025170 0.502269
-0.065843 0.014979 0.503008
-0.065755 0.019254 0.332029
-0.065762 0.019279 0.327191
-0.065920 0.022537 0.009970
-0.065897 0.013711 0.021437
-0.065911 0.020771 0.021392
-0.066283 0.025811 -0.007095
-0.066839 0.025298 -0.025717
-0.066092 0.025836 -0.040364
-0.066390 0.025760 -0.057026
-0.067238 0.025099 -0.071859
-0.067824 0.024952 -0.088344
-0.068389 0.024833 -0.105137
-0.068450 0.024934 -0.121568
-0.068295 0.025075 -0.137672
-0.067200 0.010074 -0.137678
-0.067195 0.010123 -0.154245
-0.068455 0.024961 -0.154190
-0.067225 0.009981 -0.170882
-0.068618 0.024858 -0.170736
-0.067112 0.010615 -0.187134
-0.068396 0.025071 -0.187015
-0.068198 0.025229 -0.203322
-0.067010 0.011163 -0.203387
-0.068344 0.025067 -0.219965
-0.067035 0.011114 -0.220068
-0.067120 0.010699 -0.236850
-0.068457 0.024923 -0.236727
-0.068256 0.024982 -0.253411
-0.067153 0.010126 -0.253468
-0.068221 0.025009 -0.270692
-0.068535 0.024917 -0.288304
-0.068035 0.024920 -0.305423
-0.066255 0.025005 -0.321009
-0.066052 0.012881 -0.318806
-0.066096 0.025154 -0.355698
-0.065762 0.013888 -0.356505
-0.068265 0.024890 -0.367146
-0.073678 0.024272 -0.383727
-0.077954 0.023922 -0.400459
-0.078195 0.023912 -0.417162
-0.077073 0.023866 -0.433388
-0.075619 0.023817 -0.449464
-0.075616 0.023831 -0.465946
-0.075937 0.023874 -0.482532
-0.075115 0.023880 -0.498895
-0.074308 0.023876 -0.515232
-0.074436 0.023906 -0.531854
-0.074352 0.023939 -0.548405
-0.073468 0.023943 -0.564651
-0.072885 0.023949 -0.581024
-0.072978 0.023988 -0.597744
-0.072351 0.024000 -0.614269
-0.070711 0.023959 -0.630439
-0.069784 0.023954 -0.646910
-0.069689 0.024010 -0.663778
-0.068520 0.023988 -0.680272
-0.066008 0.013921 -0.691680
-0.066398 0.024619 -0.696829
-0.073611 0.018364 -0.901060
-0.074360 0.004658 -0.951585
-0.074309 0.012496 -0.949742
-0.065848 0.033859 0.810577
-0.066146 0.034580 0.797461
-0.066400 0.034999 0.780647
-0.066538 0.035192 0.763945
-0.066564 0.035399 0.747750
-0.066627 0.035582 0.731391
-0.066763 0.035660 0.714507
-0.066829 0.035716 0.698003
-0.066765 0.035751 0.682085
-0.066745 0.035709 0.665689
-0.066765 0.035540 0.648751
-0.066716 0.035511 0.632379
-0.066636 0.035645 0.616474
-0.066602 0.035605 0.599901
-0.066583 0.035351 0.582893
-0.066373 0.034749 0.566377
-0.066155 0.034191 0.549841
-0.066255 0.034272 0.532307
-0.066258 0.034299 0.515000
-0.065902 0.033637 0.504607
-0.065895 0.037429 -0.012996
-0.065816 0.036708 -0.025806
-0.065524 0.033318 -0.034647
-0.065760 0.032958 -0.062467
-0.065967 0.034023 -0.071854
-0.066395 0.035687 -0.088384
-0.066783 0.037128 -0.105334
-0.066852 0.037972 -0.121749
-0.066816 0.038321 -0.137700
-0.066994 0.038594 -0.154269
-0.067141 0.038814 -0.170860
-0.067012 0.039260 -0.187062
-0.066900 0.039310 -0.203338
-0.067034 0.039011 -0.220192
-0.067061 0.038498 -0.237058
-0.066787 0.037480 -0.253446
-0.066703 0.037238 -0.270507
-0.066930 0.038104 -0.288212
-0.066697 0.037018 -0.305444
-0.065965 0.034481 -0.318389
-0.066435 0.040072 -0.356221
-0.068459 0.039856 -0.367141
-0.072634 0.039460 -0.383698
-0.075785 0.039271 -0.400386
-0.075791 0.039252 -0.417049
-0.075585 0.039241 -0.433305
-0.075387 0.039236 -0.449421
-0.075571 0.039230 -0.465879
-0.075653 0.039234 -0.482424
-0.074967 0.039246 -0.498805
-0.074251 0.039254 -0.515167
-0.074146 0.039256 -0.531746
-0.073882 0.039267 -0.548268
-0.073026 0.039279 -0.564556
-0.072389 0.039286 -0.580947
-0.072309 0.039289 -0.597602
-0.071644 0.039297 -0.614112
-0.070112 0.039296 -0.630346
-0.069155 0.039295 -0.646814
-0.068907 0.039302 -0.663594
-0.067413 0.040293 -0.680900
-0.066339 0.034872 -0.696334
-0.065744 0.029972 -0.708057
-0.065754 0.031736 -0.708020
-0.073259 0.026049 -0.912521
-0.073380 0.027334 -0.928843
-0.067594 0.032173 -0.918135
-0.067644 0.032124 -0.923513
-0.074105 0.019408 -0.943101
-0.066185 0.055704 -0.357529
-0.066764 0.056949 -0.367393
-0.068728 0.056873 -0.382292
-0.071755 0.055493 -0.400322
-0.071910 0.055488 -0.416928
-0.072192 0.055486 -0.433235
-0.072501 0.055486 -0.449429
-0.072822 0.055487 -0.465871
-0.072839 0.055487 -0.482387
-0.072014 0.055489 -0.498789
-0.071114 0.055491 -0.515177
-0.070948 0.055492 -0.531712
-0.070635 0.055495 -0.548208
-0.069549 0.055497 -0.564547
-0.068691 0.055497 -0.580956
-0.068517 0.055499 -0.597543
-0.067655 0.056222 -0.612761
-0.067294 0.051837 -0.630314
-0.066779 0.050264 -0.646775
-0.066615 0.049887 -0.663478
-0.066273 0.048896 -0.675907
-0.065679 0.064039 -0.358821
-0.065724 0.064028 -0.362094
-0.066854 0.065394 -0.386897
-0.067494 0.066473 -0.400286
-0.067688 0.066966 -0.416849
-0.067880 0.067428 -0.433199
-0.068082 0.067781 -0.449464
-0.068287 0.068252 -0.465899
-0.068291 0.068432 -0.482402
-0.067812 0.067501 -0.498816
-0.067294 0.066490 -0.515218
-0.067241 0.066465 -0.531726
-0.067095 0.066228 -0.548206
-0.066435 0.064937 -0.564573
-0.065921 0.063942 -0.580997
-0.065866 0.063830 -0.597552
-0.065864 0.063815 -0.606439
-0.057161 -0.066405 -0.913994
-0.072306 -0.070211 -0.910612
-0.057195 -0.060891 -0.905391
-0.057277 -0.039144 -0.896815
-0.057227 -0.052717 -0.901534
-0.056946 -0.023074 -0.366903
-0.053196 -0.033212 -0.383622
-0.049898 -0.031578 -0.370081
-0.061481 -0.026699 -0.383638
-0.064467 -0.030061 -0.400167
-0.056181 -0.034832 -0.400128
-0.064351 -0.029840 -0.416679
-0.056046 -0.035340 -0.416639
-0.063392 -0.028091 -0.433051
-0.055089 -0.035756 -0.433031
-0.062325 -0.025717 -0.449360
-0.054025 -0.035960 -0.449358
-0.053483 -0.035940 -0.465776
-0.061799 -0.024706 -0.465775
-0.053253 -0.035834 -0.482228
-0.061581 -0.024599 -0.482236
-0.061462 -0.024401 -0.498656
-0.053151 -0.035734 -0.498636
-0.053026 -0.035623 -0.515030
-0.061322 -0.024152 -0.515057
-0.052791 -0.035469 -0.531462
-0.061104 -0.023954 -0.531500
-0.060904 -0.023777 -0.547941
-0.052581 -0.035221 -0.547892
-0.060647 -0.023594 -0.564357
-0.052347 -0.034772 -0.564310
-0.060387 -0.023399 -0.580778
-0.052097 -0.034387 -0.580732
-0.051903 -0.034206 -0.597157
-0.061281 -0.021547 -0.597713
-0.059516 -0.023050 -0.613661
-0.051507 -0.033732 -0.613589
-0.058231 -0.023068 -0.630104
-0.050754 -0.032791 -0.630031
-0.050305 -0.032266 -0.646455
-0.057392 -0.023051 -0.646536
-0.050233 -0.032222 -0.662863
-0.057086 -0.022995 -0.662965
-0.054508 -0.024525 -0.680810
-0.049798 -0.031739 -0.676202
-0.057379 -0.023057 -0.894064
-0.052555 -0.007645 0.877254
-0.050316 -0.016339 0.862545
-0.049516 -0.015178 0.872978
-0.055241 -0.006353 0.862230
-0.057195 -0.006335 0.846627
-0.051377 -0.017999 0.846750
-0.052216 -0.019208 0.830358
-0.058764 -0.006321 0.830288
-0.059856 -0.006354 0.813818
-0.052849 -0.019845 0.813856
-0.060578 -0.006401 0.797129
-0.053286 -0.020393 0.797141
-0.060935 -0.006406 0.779914
-0.053438 -0.021023 0.780024
-0.053364 -0.021139 0.763312
-0.060875 -0.006402 0.763137
-0.060344 -0.006426 0.747417
-0.053094 -0.020322 0.747501
-0.052886 -0.019830 0.731261
-0.059959 -0.006454 0.731215
-0.060003 -0.006464 0.713837
-0.052840 -0.020015 0.713996
-0.052763 -0.020015 0.697303
-0.059939 -0.006472 0.697129
-0.059637 -0.006479 0.681632
-0.052631 -0.019586 0.681687
-0.052565 -0.019504 0.665418
-0.059536 -0.006491 0.665366
-0.059695 -0.006495 0.648135
-0.052610 -0.019790 0.648309
-0.052498 -0.019608 0.632056
-0.059544 -0.006486 0.631902
-0.059101 -0.006467 0.616415
-0.052233 -0.019120 0.616449
-0.052129 -0.019030 0.599735
-0.058996 -0.006486 0.599691
-0.058948 -0.006515 0.582356
-0.052064 -0.019072 0.582468
-0.051855 -0.018556 0.566625
-0.058512 -0.006490 0.566494
-0.058195 -0.006454 0.551029
-0.051706 -0.018006 0.551175
-0.058879 -0.006505 0.533315
-0.052030 -0.018330 0.533655
-0.052541 -0.018926 0.515842
-0.059842 -0.006511 0.515367
-0.059550 -0.006347 0.499352
-0.052534 -0.018702 0.500121
-0.059045 -0.006258 0.484157
-0.052559 -0.018649 0.485102
-0.053353 -0.019404 0.469124
-0.060324 -0.006289 0.468476
-0.061456 -0.006308 0.452390
-0.054014 -0.019980 0.452785
-0.060158 -0.006290 0.436327
-0.053631 -0.019536 0.436520
-0.053097 -0.018998 0.419741
-0.059092 -0.006295 0.419429
-0.059898 -0.006325 0.401311
-0.053200 -0.019012 0.401729
-0.053314 -0.019115 0.384363
-0.060735 -0.006347 0.384111
-0.060765 -0.006342 0.369253
-0.053072 -0.019166 0.369118
-0.061065 -0.006406 0.354029
-0.053166 -0.019152 0.353767
-0.062423 -0.005150 0.338425
-0.053520 -0.018961 0.337478
-0.053252 -0.018336 0.321159
-0.061849 -0.005196 0.321320
-0.052725 -0.017722 0.304889
-0.059574 -0.006442 0.304503
-0.059663 -0.006463 0.288048
-0.053049 -0.018066 0.288350
-0.053863 -0.018980 0.271501
-0.060937 -0.006528 0.271359
-0.054445 -0.019461 0.255109
-0.061670 -0.006534 0.254996
-0.061755 -0.006513 0.238884
-0.054766 -0.019624 0.239074
-0.061914 -0.006493 0.222482
-0.054851 -0.019826 0.222647
-0.054876 -0.019902 0.206053
-0.062227 -0.006458 0.205971
-0.062753 -0.006449 0.189730
-0.055251 -0.019862 0.189806
-0.063233 -0.006454 0.173548
-0.055643 -0.019787 0.173634
-0.063169 -0.006454 0.157009
-0.055469 -0.019612 0.157116
-0.055211 -0.019479 0.140543
-0.063140 -0.006448 0.140454
-0.063916 -0.005406 0.124967
-0.055345 -0.019445 0.124243
-0.063547 -0.007779 0.107926
-0.055385 -0.019407 0.107922
-0.055046 -0.019278 0.091301
-0.063213 -0.007262 0.091224
-0.054930 -0.019148 0.074715
-0.063556 -0.004960 0.075111
-0.063082 -0.006421 0.057938
-0.055267 -0.019021 0.058418
-0.062934 -0.006391 0.041862
-0.055298 -0.019041 0.042001
-0.054851 -0.019187 0.025286
-0.062503 -0.006363 0.025846
-0.063355 -0.006387 0.009508
-0.054922 -0.019060 0.007729
-0.055384 -0.018518 -0.009877
-0.063558 -0.011688 -0.009663
-0.063436 -0.011941 -0.026245
-0.055256 -0.018760 -0.026005
-0.054908 -0.019732 -0.040396
-0.063019 -0.010051 -0.040703
-0.062545 -0.008857 -0.055616
-0.054419 -0.020129 -0.055491
-0.061680 -0.007762 -0.071860
-0.053565 -0.019708 -0.071855
-0.053188 -0.019359 -0.088429
-0.061303 -0.007256 -0.088435
-0.061461 -0.007758 -0.105923
-0.053332 -0.019478 -0.105861
-0.053183 -0.019293 -0.122317
-0.062155 -0.005585 -0.123490
-0.060864 -0.006808 -0.137769
-0.052918 -0.019067 -0.137788
-0.060738 -0.006888 -0.154506
-0.052817 -0.019177 -0.154473
-0.052791 -0.019299 -0.171370
-0.060760 -0.006960 -0.171420
-0.052648 -0.019016 -0.187601
-0.060414 -0.006880 -0.187574
-0.060044 -0.006811 -0.203722
-0.052454 -0.018712 -0.203819
-0.059938 -0.006879 -0.220766
-0.052352 -0.018705 -0.220840
-0.060178 -0.006920 -0.237645
-0.052465 -0.018874 -0.237618
-0.052811 -0.019151 -0.253503
-0.060743 -0.006855 -0.253646
-0.061992 -0.005230 -0.271374
-0.052979 -0.019300 -0.270278
-0.061006 -0.007139 -0.288302
-0.052836 -0.019199 -0.288094
-0.053135 -0.019614 -0.305278
-0.062043 -0.005378 -0.305274
-0.053284 -0.019818 -0.322205
-0.060779 -0.006755 -0.322233
-0.059624 -0.006591 -0.336899
-0.052940 -0.019120 -0.336718
-0.061016 -0.006549 -0.351038
-0.053898 -0.020759 -0.350846
-0.064207 -0.006603 -0.363155
-0.065673 -0.014874 -0.603551
-0.065418 -0.013994 -0.613723
-0.064886 -0.011687 -0.630180
-0.064487 -0.010055 -0.646652
-0.064236 -0.009742 -0.663168
-0.063815 -0.006486 -0.679859
-0.054460 -0.022069 -0.695876
-0.061774 -0.007163 -0.696099
-0.060944 -0.007123 -0.712597
-0.054031 -0.021306 -0.712335
-0.053770 -0.021018 -0.728748
-0.060584 -0.007005 -0.729140
-0.058806 -0.007062 -0.745639
-0.052753 -0.019489 -0.745247
-0.051359 -0.017469 -0.761794
-0.056422 -0.007167 -0.762111
-0.050609 -0.016468 -0.778222
-0.055250 -0.007064 -0.778604
-0.049856 -0.015562 -0.794556
-0.054135 -0.006911 -0.795038
-0.051884 -0.007342 -0.809834
-0.049197 -0.014796 -0.803047
-0.057405 -0.007267 -0.896129
-0.053464 0.009862 0.910943
-0.050338 -0.000755 0.911054
-0.049436 0.001191 0.921452
-0.050550 0.010434 0.927659
-0.051862 -0.003977 0.892831
-0.056494 0.009933 0.892745
-0.058906 0.009969 0.876442
-0.060762 0.009954 0.861415
-0.063173 0.011561 0.844611
-0.063799 0.008811 0.830064
-0.064332 0.007097 0.813764
-0.064678 0.005774 0.797221
-0.064900 0.004547 0.780126
-0.064914 0.004341 0.763326
-0.064644 0.005549 0.747447
-0.064451 0.006267 0.731240
-0.064543 0.005604 0.714100
-0.064567 0.005333 0.697488
-0.064397 0.005900 0.681801
-0.064354 0.006021 0.665509
-0.064468 0.005582 0.648467
-0.064442 0.005566 0.632178
-0.064268 0.005942 0.616470
-0.064261 0.005866 0.599850
-0.064278 0.005706 0.582733
-0.064067 0.006369 0.566588
-0.063908 0.007056 0.550675
-0.064254 0.006033 0.532993
-0.064669 0.005083 0.515229
-0.064206 0.009775 0.498083
-0.061959 0.010050 0.482828
-0.061936 0.010072 0.467192
-0.062698 0.010046 0.451429
-0.061069 0.009977 0.435638
-0.060235 0.009919 0.418662
-0.061771 0.009926 0.400748
-0.063367 0.009893 0.383916
-0.063941 0.009744 0.369332
-0.064597 0.009570 0.354248
-0.065380 0.009521 0.343579
-0.062944 0.009717 0.303667
-0.064458 0.009583 0.318181
-0.062702 0.009761 0.287358
-0.063460 0.009733 0.271235
-0.063827 0.009642 0.254860
-0.063477 0.009528 0.238364
-0.063708 0.009618 0.222056
-0.064220 0.009781 0.205811
-0.064312 0.009739 0.189406
-0.064275 0.009657 0.172941
-0.064559 0.009746 0.156532
-0.065038 0.009791 0.140142
-0.065407 0.009364 0.124551
-0.065163 0.008809 0.074650
-0.064112 0.009610 0.056776
-0.063804 0.009631 0.041277
-0.064668 0.008911 0.026701
-0.065169 0.003015 0.017020
-0.065654 0.001503 -0.129061
-0.065493 0.001902 -0.137722
-0.065465 0.001925 -0.154362
-0.065519 0.001756 -0.171120
-0.065298 0.002387 -0.187316
-0.065104 0.002941 -0.203499
-0.065107 0.002880 -0.220342
-0.065236 0.002473 -0.237215
-0.065427 0.001947 -0.253579
-0.065547 0.001585 -0.266035
-0.065344 0.001945 -0.310818
-0.064711 0.008318 -0.323461
-0.063507 0.009602 -0.337084
-0.064349 0.009004 -0.351283
-0.065202 0.003078 -0.359711
-0.065313 0.003454 -0.685628
-0.064745 0.008628 -0.696745
-0.063951 0.008671 -0.712899
-0.063668 0.008799 -0.729659
-0.062251 0.008677 -0.746145
-0.060360 0.008471 -0.762499
-0.059478 0.008578 -0.779135
-0.058877 0.008749 -0.795792
-0.057390 0.008600 -0.812078
-0.054956 0.008463 -0.828341
-0.050892 -0.002096 -0.827821
-0.049631 0.000301 -0.837417
-0.051883 0.008559 -0.844096
-0.057366 0.008276 -0.897037
-0.052312 0.025532 0.928757
-0.049526 0.016293 0.939030
-0.049780 0.025736 0.939787
-0.055174 0.025460 0.910992
-0.057603 0.025601 0.892819
-0.060048 0.025656 0.876229
-0.062233 0.025622 0.860957
-0.064310 0.024278 0.844420
-0.063918 0.025608 0.494347
-0.060624 0.026010 0.482321
-0.059760 0.026103 0.466499
-0.060570 0.026009 0.450696
-0.059822 0.025863 0.435079
-0.059632 0.025715 0.418164
-0.061048 0.025620 0.400388
-0.062011 0.025527 0.383671
-0.062280 0.025387 0.369166
-0.063127 0.025099 0.354239
-0.064557 0.024434 0.337526
-0.062635 0.025243 0.303371
-0.064023 0.024517 0.320927
-0.062947 0.025304 0.287006
-0.063793 0.025144 0.270829
-0.064334 0.025047 0.254415
-0.064029 0.025010 0.237926
-0.064129 0.025156 0.221660
-0.064368 0.025360 0.205474
-0.063992 0.025379 0.189081
-0.063507 0.025351 0.172588
-0.063674 0.025476 0.156175
-0.064200 0.025460 0.139765
-0.064580 0.024975 0.123346
-0.065374 0.012969 0.107245
-0.064749 0.024684 0.106874
-0.065398 0.012265 0.090714
-0.064635 0.025022 0.090251
-0.064362 0.025156 0.073054
-0.063730 0.024825 0.055647
-0.063718 0.024741 0.039885
-0.064680 0.025269 0.026054
-0.064990 0.025140 -0.328858
-0.064190 0.025208 -0.337247
-0.064541 0.025226 -0.348032
-0.065343 0.024606 -0.713432
-0.065391 0.020127 -0.702538
-0.064808 0.023976 -0.729866
-0.063200 0.023901 -0.746351
-0.061165 0.023770 -0.762660
-0.060274 0.023838 -0.779341
-0.059856 0.023936 -0.796079
-0.058627 0.023799 -0.812422
-0.057044 0.023644 -0.828796
-0.055244 0.023716 -0.845572
-0.051547 0.024572 -0.863562
-0.050833 0.013672 -0.861905
-0.049778 0.015409 -0.871150
-0.049783 0.020107 -0.871219
-0.055793 0.023388 -0.900790
-0.065543 0.001655 -0.950252
-0.059092 0.007331 -0.946051
-0.050886 0.040096 0.928643
-0.049593 0.035077 0.938709
-0.053436 0.040430 0.911248
-0.055184 0.040524 0.893122
-0.057521 0.040553 0.876329
-0.059851 0.040513 0.860982
-0.061333 0.040446 0.846028
-0.065102 0.029117 0.830156
-0.062293 0.040384 0.830326
-0.065489 0.032517 0.821484
-0.063594 0.039420 0.815232
-0.062907 0.039653 0.498878
-0.060348 0.041220 0.482496
-0.060155 0.041243 0.466573
-0.061037 0.041013 0.450603
-0.060868 0.041030 0.435040
-0.060533 0.040980 0.418146
-0.060655 0.040719 0.400330
-0.060652 0.040583 0.383560
-0.061007 0.040667 0.369068
-0.061813 0.040426 0.354222
-0.062764 0.039927 0.337018
-0.062373 0.039888 0.320080
-0.061187 0.040297 0.303804
-0.061332 0.040302 0.287184
-0.062286 0.040004 0.270323
-0.062921 0.039999 0.253884
-0.063018 0.040180 0.237765
-0.063113 0.040267 0.221462
-0.063140 0.040309 0.205113
-0.062897 0.040487 0.188967
-0.062612 0.040666 0.172743
-0.062497 0.040675 0.156165
-0.062641 0.040505 0.139514
-0.062737 0.040204 0.123051
-0.062699 0.040037 0.106513
-0.062203 0.040146 0.089696
-0.062229 0.040098 0.072362
-0.062783 0.039884 0.055078
-0.063290 0.039736 0.038622
-0.063605 0.039772 0.023899
-0.065079 0.029764 0.009767
-0.063946 0.040000 0.008558
-0.065344 0.031006 -0.000324
-0.065049 0.041537 -0.007865
-0.065360 0.031070 -0.052446
-0.065300 0.031102 -0.044624
-0.064365 0.038853 -0.056770
-0.064671 0.039071 -0.040055
-0.062570 0.040357 -0.337316
-0.063737 0.039947 -0.323283
-0.064028 0.040139 -0.348531
-0.063648 0.039323 -0.729679
-0.064591 0.037996 -0.713339
-0.061685 0.039325 -0.746187
-0.059401 0.039306 -0.762559
-0.058463 0.039322 -0.779171
-0.057855 0.039344 -0.795835
-0.056006 0.039307 -0.812258
-0.053797 0.039264 -0.828739
-0.051722 0.039956 -0.844573
-0.050890 0.035033 -0.859087
-0.060160 0.028315 -0.906987
-0.055814 0.033716 -0.912381
-0.049354 0.031143 -0.903735
-0.057526 0.028446 -0.933610
-0.057610 0.020494 -0.940308
-0.049982 0.049958 0.923073
-0.050611 0.052609 0.911465
-0.051239 0.056819 0.894030
-0.053645 0.055874 0.876597
-0.055668 0.055844 0.861005
-0.057134 0.055813 0.845911
-0.058085 0.055795 0.830266
-0.058928 0.055808 0.813911
-0.063526 0.041984 0.797473
-0.059612 0.055805 0.797384
-0.063688 0.042449 0.780720
-0.060019 0.055755 0.780608
-0.063741 0.042678 0.764039
-0.060115 0.055717 0.763906
-0.063792 0.042884 0.747789
-0.060004 0.055721 0.747628
-0.063842 0.043076 0.731409
-0.059979 0.055711 0.731242
-0.063896 0.043213 0.714531
-0.060169 0.055665 0.714417
-0.063879 0.043305 0.698022
-0.060159 0.055658 0.697922
-0.063768 0.043324 0.682092
-0.059822 0.055718 0.681945
-0.063738 0.043294 0.665703
-0.059710 0.055723 0.665554
-0.063810 0.043192 0.648736
-0.059895 0.055660 0.648643
-0.063842 0.043168 0.632340
-0.059883 0.055669 0.632239
-0.063828 0.043240 0.616443
-0.059694 0.055751 0.616274
-0.063861 0.043208 0.599872
-0.059717 0.055744 0.599720
-0.063872 0.043024 0.582835
-0.059824 0.055676 0.582765
-0.063701 0.042443 0.566266
-0.059499 0.055709 0.566229
-0.063496 0.041892 0.549683
-0.059009 0.055784 0.549700
-0.063433 0.042043 0.532204
-0.058969 0.055737 0.532365
-0.063417 0.042105 0.514957
-0.059116 0.055718 0.515162
-0.059166 0.056018 0.498635
-0.059222 0.056407 0.482742
-0.059606 0.056360 0.466987
-0.060112 0.056178 0.451141
-0.059844 0.056292 0.435335
-0.059131 0.056352 0.418347
-0.058363 0.056191 0.400549
-0.058127 0.056097 0.383801
-0.058570 0.056210 0.369155
-0.059079 0.056081 0.354165
-0.059710 0.055771 0.337321
-0.059271 0.055697 0.320638
-0.057617 0.055856 0.304342
-0.057348 0.055834 0.287674
-0.058212 0.055664 0.270799
-0.058736 0.055689 0.254353
-0.059070 0.055818 0.238195
-0.059345 0.055837 0.221834
-0.059472 0.055804 0.205411
-0.059363 0.055933 0.189220
-0.059210 0.056085 0.172983
-0.059093 0.056053 0.156437
-0.059064 0.055930 0.139745
-0.058899 0.055855 0.123081
-0.058628 0.055824 0.106423
-0.058004 0.055816 0.089763
-0.058186 0.055770 0.072664
-0.059448 0.055730 0.055405
-0.060141 0.055667 0.038740
-0.059979 0.055614 0.023028
-0.060166 0.055707 0.007108
-0.061278 0.055920 -0.009639
-0.065174 0.044302 -0.025794
-0.061494 0.055971 -0.025502
-0.060732 0.055805 -0.040305
-0.060197 0.055767 -0.055688
-0.064102 0.041646 -0.071866
-0.060160 0.055794 -0.071891
-0.064509 0.043346 -0.088409
-0.060647 0.055684 -0.088458
-0.064988 0.044857 -0.105447
-0.061260 0.055569 -0.105439
-0.065202 0.045674 -0.121865
-0.061538 0.055615 -0.121868
-0.065246 0.045943 -0.137729
-0.061540 0.055695 -0.137815
-0.065385 0.046274 -0.154304
-0.061758 0.055636 -0.154337
-0.065523 0.046551 -0.170923
-0.062000 0.055566 -0.170912
-0.065580 0.046898 -0.187107
-0.061969 0.055660 -0.187151
-0.065527 0.046859 -0.203353
-0.061783 0.055729 -0.203446
-0.065516 0.046637 -0.220314
-0.061729 0.055639 -0.220272
-0.065397 0.046201 -0.237240
-0.061602 0.055581 -0.237080
-0.064982 0.045176 -0.253466
-0.061152 0.055678 -0.253375
-0.064871 0.044915 -0.270406
-0.061061 0.055706 -0.270320
-0.065221 0.045812 -0.288172
-0.061454 0.055603 -0.288042
-0.064838 0.044778 -0.305395
-0.060857 0.055656 -0.305315
-0.059071 0.055931 -0.322250
-0.059091 0.055920 -0.337143
-0.062695 0.055719 -0.349659
-0.064936 0.042928 -0.696295
-0.065530 0.046323 -0.686782
-0.060937 0.055525 -0.696256
-0.063352 0.054831 -0.680766
-0.059778 0.055535 -0.712775
-0.059040 0.055543 -0.729408
-0.056733 0.055538 -0.745886
-0.053157 0.056903 -0.762950
-0.053108 0.054645 -0.778804
-0.052682 0.053659 -0.795353
-0.051503 0.051358 -0.811836
-0.050099 0.048745 -0.828468
-0.049442 0.047582 -0.838136
-0.057434 0.034272 -0.925753
-0.050436 0.066684 0.876847
-0.049744 0.065130 0.888663
-0.051352 0.068663 0.860944
-0.052196 0.070638 0.845561
-0.052267 0.073478 0.830499
-0.053775 0.072025 0.813666
-0.054442 0.072014 0.797110
-0.055056 0.072013 0.780249
-0.055169 0.072006 0.763487
-0.054649 0.071990 0.747199
-0.054421 0.071979 0.730846
-0.054860 0.071973 0.714151
-0.054896 0.071969 0.697686
-0.054235 0.071973 0.681603
-0.054038 0.071978 0.665225
-0.054427 0.071973 0.648481
-0.054263 0.071971 0.632075
-0.053621 0.071979 0.615950
-0.053557 0.071982 0.599442
-0.053876 0.071977 0.582697
-0.052691 0.073601 0.564783
-0.052997 0.071665 0.549893
-0.053004 0.071644 0.532852
-0.052444 0.073602 0.516912
-0.053297 0.072148 0.499094
-0.053458 0.072262 0.483022
-0.053892 0.072257 0.467580
-0.054179 0.072197 0.451962
-0.053821 0.072226 0.435705
-0.053276 0.072251 0.418632
-0.052162 0.073653 0.402008
-0.052773 0.071740 0.384326
-0.052837 0.071952 0.369265
-0.052977 0.072039 0.354015
-0.052692 0.073580 0.338685
-0.052547 0.073137 0.321969
-0.052280 0.070164 0.304779
-0.052218 0.070296 0.288244
-0.052797 0.071430 0.271778
-0.053026 0.071839 0.255331
-0.053021 0.071916 0.238913
-0.052539 0.073586 0.224120
-0.053557 0.071975 0.206065
-0.052471 0.073287 0.189861
-0.052842 0.071069 0.173189
-0.052829 0.071279 0.156796
-0.052233 0.073470 0.138989
-0.052231 0.073482 0.124549
-0.052836 0.071745 0.106542
-0.052591 0.071564 0.090282
-0.052259 0.073351 0.074368
-0.054082 0.072002 0.057104
-0.054559 0.072011 0.040277
-0.052931 0.073583 0.021940
-0.052725 0.073627 0.007965
-0.054169 0.072154 -0.009751
-0.054360 0.072156 -0.025082
-0.054148 0.072045 -0.039714
-0.054110 0.071987 -0.055532
-0.054328 0.071954 -0.071950
-0.054501 0.071920 -0.088555
-0.054614 0.071898 -0.105399
-0.054287 0.071906 -0.121877
-0.053012 0.073400 -0.137114
-0.053108 0.073382 -0.155580
-0.053216 0.073500 -0.170531
-0.054008 0.071498 -0.187266
-0.053845 0.071045 -0.203665
-0.053847 0.070865 -0.220206
-0.053859 0.070849 -0.236793
-0.053773 0.071144 -0.253297
-0.053762 0.071278 -0.270332
-0.053824 0.070872 -0.287918
-0.053578 0.070790 -0.305206
-0.052995 0.071106 -0.322113
-0.052717 0.073342 -0.336618
-0.059881 0.070488 -0.352387
-0.065704 0.063233 -0.375855
-0.065674 0.063257 -0.373120
-0.062895 0.071284 -0.382293
-0.062948 0.070459 -0.367397
-0.064372 0.060027 -0.630375
-0.065216 0.062176 -0.617374
-0.057882 0.071895 -0.630403
-0.061089 0.070331 -0.612732
-0.063752 0.058457 -0.646828
-0.056608 0.071900 -0.646849
-0.063623 0.058084 -0.663463
-0.056373 0.071912 -0.663352
-0.053985 0.073308 -0.680481
-0.053511 0.070282 -0.696202
-0.052921 0.069137 -0.712667
-0.052544 0.068507 -0.729149
-0.051267 0.066473 -0.745619
-0.049986 0.064551 -0.757741
-0.049832 0.081167 0.813502
-0.049543 0.080680 0.825391
-0.050184 0.081751 0.796938
-0.050577 0.082376 0.780055
-0.050662 0.082504 0.763277
-0.050275 0.081904 0.746964
-0.050107 0.081638 0.730625
-0.050443 0.082122 0.714027
-0.050482 0.082146 0.697590
-0.050013 0.081407 0.681427
-0.049889 0.081195 0.665055
-0.050197 0.081630 0.648429
-0.050074 0.081401 0.632021
-0.049574 0.080632 0.615784
-0.049521 0.080538 0.599300
-0.049768 0.080871 0.582680
-0.049661 0.080685 0.569178
-0.049415 0.080480 0.499408
-0.049408 0.080359 0.512377
-0.049455 0.080642 0.483226
-0.049695 0.080921 0.467883
-0.049836 0.081056 0.452285
-0.049604 0.080801 0.435820
-0.049329 0.080474 0.418740
-0.049251 0.080356 0.408675
-0.049698 0.080393 0.328095
-0.049673 0.080410 0.334023
-0.049824 0.080527 0.206308
-0.049725 0.080435 0.219911
-0.049692 0.080356 0.195648
-0.049471 0.080157 0.132699
-0.049467 0.080156 0.131197
-0.050040 0.081002 0.058405
-0.049703 0.080523 0.069936
-0.050202 0.081245 0.041463
-0.049936 0.080856 0.027129
-0.049658 0.080730 0.003397
-0.049723 0.081044 -0.009690
-0.049850 0.081120 -0.024846
-0.049993 0.080930 -0.039519
-0.050066 0.080820 -0.055523
-0.050176 0.080941 -0.071998
-0.050243 0.081012 -0.088615
-0.050199 0.080945 -0.105372
-0.049792 0.080511 -0.121887
-0.049452 0.080157 -0.131155
-0.049503 0.080139 -0.161823
-0.049506 0.080138 -0.164783
-0.052345 0.083085 -0.350790
-0.049914 0.080638 -0.340455
-0.054180 0.084661 -0.367108
-0.054065 0.084431 -0.383649
-0.062796 0.074669 -0.400278
-0.054594 0.085330 -0.400229
-0.063149 0.075171 -0.416829
-0.054915 0.085841 -0.416785
-0.063382 0.075635 -0.433218
-0.055151 0.085646 -0.433216
-0.063436 0.075979 -0.449519
-0.055218 0.085071 -0.449559
-0.063576 0.076452 -0.465948
-0.055337 0.084931 -0.465986
-0.063628 0.076635 -0.482436
-0.055371 0.084942 -0.482456
-0.063113 0.075702 -0.498860
-0.054878 0.084524 -0.498876
-0.062565 0.074687 -0.515265
-0.054350 0.084081 -0.515275
-0.062462 0.074666 -0.531743
-0.054226 0.084013 -0.531715
-0.062267 0.074433 -0.548209
-0.054021 0.083849 -0.548159
-0.061676 0.073140 -0.564606
-0.053458 0.083338 -0.564592
-0.061206 0.072140 -0.581031
-0.052998 0.082978 -0.581023
-0.060938 0.072032 -0.597529
-0.052707 0.082928 -0.597454
-0.052099 0.082442 -0.613906
-0.051055 0.081408 -0.630383
-0.050389 0.080898 -0.646829
-0.050259 0.080940 -0.663240
-0.049890 0.080666 -0.675346
-0.047138 -0.064609 -0.917026
-0.039969 -0.055560 -0.909604
-0.041568 -0.043474 -0.416639
-0.033333 -0.047677 -0.416627
-0.032798 -0.047447 -0.406149
-0.039279 -0.043702 -0.400440
-0.041901 -0.043884 -0.433062
-0.033661 -0.047807 -0.433063
-0.033523 -0.047738 -0.449424
-0.041785 -0.044077 -0.449410
-0.041567 -0.044061 -0.465818
-0.033320 -0.047631 -0.465827
-0.041371 -0.043965 -0.482263
-0.033143 -0.047542 -0.482266
-0.033100 -0.047536 -0.498692
-0.041346 -0.043861 -0.498680
-0.041297 -0.043744 -0.515077
-0.033035 -0.047516 -0.515101
-0.032805 -0.047402 -0.531512
-0.041047 -0.043597 -0.531496
-0.039210 -0.044035 -0.546554
-0.032634 -0.047319 -0.540202
-0.039303 -0.040680 -0.897464
-0.043811 -0.049960 -0.901363
-0.042730 -0.021464 0.877467
-0.033231 -0.031494 0.877187
-0.032637 -0.031001 0.884688
-0.037781 -0.023487 0.891447
-0.034572 -0.032525 0.862573
-0.042809 -0.024541 0.862525
-0.036146 -0.033723 0.846775
-0.044367 -0.026196 0.846738
-0.037232 -0.034484 0.830387
-0.045427 -0.027409 0.830346
-0.037658 -0.034405 0.813942
-0.045889 -0.028035 0.813875
-0.046348 -0.028562 0.797272
-0.038085 -0.034309 0.797412
-0.038819 -0.034741 0.780654
-0.047056 -0.029185 0.780391
-0.039017 -0.034931 0.764054
-0.047230 -0.029301 0.763749
-0.038140 -0.034515 0.747905
-0.046376 -0.028479 0.747701
-0.045818 -0.027974 0.731429
-0.037563 -0.034220 0.731620
-0.037728 -0.034287 0.714928
-0.045955 -0.028153 0.714549
-0.037772 -0.034311 0.698423
-0.045987 -0.028153 0.697990
-0.045623 -0.027726 0.682016
-0.037381 -0.034159 0.682275
-0.045516 -0.027641 0.665701
-0.037262 -0.034117 0.665927
-0.037499 -0.034183 0.649326
-0.045722 -0.027922 0.648952
-0.037363 -0.034105 0.632961
-0.045580 -0.027747 0.632622
-0.045208 -0.027269 0.616614
-0.036961 -0.033950 0.616769
-0.045168 -0.027172 0.600032
-0.036918 -0.033976 0.600272
-0.037071 -0.034077 0.583615
-0.045295 -0.027200 0.583151
-0.036688 -0.033885 0.567355
-0.044913 -0.026703 0.567047
-0.044398 -0.026171 0.551159
-0.036141 -0.033637 0.551189
-0.036310 -0.033880 0.534176
-0.044566 -0.026475 0.533929
-0.036859 -0.034301 0.517101
-0.045074 -0.027060 0.516521
-0.045074 -0.026909 0.500753
-0.036877 -0.034362 0.501323
-0.036958 -0.034569 0.485691
-0.045164 -0.026895 0.485410
-0.045896 -0.027620 0.469184
-0.037694 -0.035290 0.469254
-0.038266 -0.035749 0.452807
-0.046455 -0.028188 0.452799
-0.046106 -0.027752 0.436502
-0.037908 -0.035417 0.436524
-0.045638 -0.027216 0.419830
-0.037433 -0.035015 0.419981
-0.037371 -0.034903 0.402339
-0.045557 -0.027221 0.401975
-0.045654 -0.027340 0.384668
-0.037482 -0.034867 0.385095
-0.045690 -0.027396 0.369163
-0.037506 -0.034674 0.369399
-0.037093 -0.034203 0.353636
-0.045299 -0.027362 0.353644
-0.036366 -0.033498 0.337384
-0.044600 -0.027136 0.337503
-0.043435 -0.026509 0.321241
-0.035199 -0.032490 0.321167
-0.042145 -0.025932 0.304876
-0.033910 -0.031623 0.304909
-0.034201 -0.031756 0.288279
-0.042441 -0.026275 0.288305
-0.035547 -0.032426 0.271309
-0.043784 -0.027164 0.271458
-0.044513 -0.027660 0.255062
-0.036267 -0.032826 0.254977
-0.036483 -0.032935 0.239050
-0.044720 -0.027855 0.239016
-0.036713 -0.032998 0.222535
-0.044936 -0.028051 0.222578
-0.045123 -0.028125 0.205947
-0.036905 -0.033094 0.205818
-0.045072 -0.028097 0.189627
-0.036841 -0.033095 0.189573
-0.036675 -0.033067 0.173422
-0.044908 -0.028016 0.173426
-0.036458 -0.032983 0.156817
-0.044679 -0.027827 0.156918
-0.044574 -0.027698 0.140347
-0.036355 -0.032936 0.140217
-0.036338 -0.032969 0.124044
-0.044571 -0.027671 0.124048
-0.036336 -0.033038 0.107777
-0.044571 -0.027622 0.107742
-0.036121 -0.032893 0.091030
-0.044336 -0.027482 0.091132
-0.044183 -0.027371 0.074539
-0.035964 -0.032781 0.074413
-0.035984 -0.032869 0.058265
-0.044214 -0.027263 0.058243
-0.036091 -0.032991 0.041835
-0.044321 -0.027286 0.041810
-0.036195 -0.032999 0.024919
-0.044402 -0.027432 0.025079
-0.044156 -0.027306 0.007734
-0.035975 -0.032902 0.007750
-0.043463 -0.026757 -0.009747
-0.035303 -0.032616 -0.009414
-0.044122 -0.027052 -0.025648
-0.035911 -0.033002 -0.025047
-0.037540 -0.034211 -0.039744
-0.045736 -0.027991 -0.040051
-0.037939 -0.034649 -0.055505
-0.046187 -0.028316 -0.055493
-0.045440 -0.027866 -0.071869
-0.037160 -0.034037 -0.071875
-0.044895 -0.027465 -0.088397
-0.036589 -0.033566 -0.088363
-0.036511 -0.033572 -0.105310
-0.044811 -0.027521 -0.105469
-0.036268 -0.033427 -0.121764
-0.044550 -0.027327 -0.121925
-0.044402 -0.027108 -0.137759
-0.036111 -0.033267 -0.137708
-0.036039 -0.033238 -0.154253
-0.044337 -0.027166 -0.154300
-0.036041 -0.033261 -0.170882
-0.044337 -0.027244 -0.170973
-0.044259 -0.026995 -0.187293
-0.035970 -0.033240 -0.187154
-0.044145 -0.026720 -0.203623
-0.035857 -0.033204 -0.203464
-0.035654 -0.033085 -0.220400
-0.043944 -0.026674 -0.220488
-0.035732 -0.033139 -0.237195
-0.044012 -0.026830 -0.237195
-0.044524 -0.027147 -0.253297
-0.036262 -0.033431 -0.253290
-0.044721 -0.027287 -0.270167
-0.036479 -0.033585 -0.270131
-0.036185 -0.033523 -0.287915
-0.044394 -0.027121 -0.287941
-0.045147 -0.027593 -0.305236
-0.036956 -0.034283 -0.305209
-0.046004 -0.027948 -0.322211
-0.037718 -0.035201 -0.322099
-0.037092 -0.034410 -0.336458
-0.045354 -0.027332 -0.336502
-0.046896 -0.028916 -0.350773
-0.038615 -0.034277 -0.350728
-0.048953 -0.030975 -0.359136
-0.042345 -0.035146 -0.365580
-0.049006 -0.030861 -0.687171
-0.039598 -0.035150 -0.695832
-0.042431 -0.035591 -0.680744
-0.047853 -0.030001 -0.695807
-0.046808 -0.029257 -0.712255
-0.038560 -0.034535 -0.712275
-0.038218 -0.034130 -0.728639
-0.046438 -0.029012 -0.728640
-0.044499 -0.027479 -0.745146
-0.036282 -0.033021 -0.745131
-0.033841 -0.031634 -0.761711
-0.042078 -0.025448 -0.761725
-0.032799 -0.030993 -0.778194
-0.041035 -0.024488 -0.778189
-0.039228 -0.024801 -0.793060
-0.032656 -0.030907 -0.786627
-0.039274 -0.021325 -0.889353
-0.040894 -0.006646 0.929273
-0.036837 -0.019182 0.911098
-0.034732 -0.016704 0.926098
-0.045076 -0.008909 0.911074
-0.047244 -0.012149 0.892862
-0.048579 -0.013979 0.882304
-0.046186 -0.009919 -0.827631
-0.037936 -0.019644 -0.827565
-0.041747 -0.019966 -0.809535
-0.047845 -0.012855 -0.814066
-0.036038 -0.018308 -0.844294
-0.044565 -0.005663 -0.843582
-0.034980 -0.017564 -0.860981
-0.040817 -0.006762 -0.861244
-0.035624 -0.008061 -0.878829
-0.033793 -0.016213 -0.877581
-0.039310 -0.008204 -0.889512
-0.045537 -0.029494 -0.950285
-0.058482 -0.023932 -0.951390
-0.053552 -0.019045 -0.948622
-0.040104 -0.024182 -0.949001
-0.034751 -0.012426 -0.951765
-0.034718 -0.018802 -0.951689
-0.040613 -0.007210 -0.946748
-0.036362 0.009872 0.962002
-0.036303 -0.004116 0.945300
-0.034059 -0.000668 0.956960
-0.044438 0.010564 0.944838
-0.047059 0.005416 0.932413
-0.047992 0.003525 -0.848860
-0.046709 0.006070 -0.861604
-0.041268 0.009874 -0.876391
-0.040910 0.008830 -0.891675
-0.034225 0.026059 0.972297
-0.033508 0.015144 0.971295
-0.039842 0.026068 0.961435
-0.046389 0.025926 0.948048
-0.039604 0.023447 -0.891711
-0.033823 0.038484 0.971275
-0.036349 0.042521 0.962621
-0.044538 0.040505 0.944619
-0.041071 0.024213 -0.878715
-0.049010 0.030049 -0.869933
-0.047316 0.039998 -0.863576
-0.039627 0.039412 -0.878532
-0.039978 0.037748 -0.896878
-0.046388 0.029096 -0.935005
-0.041005 0.023909 -0.940243
-0.035448 0.033777 -0.937914
-0.040677 0.039444 -0.929291
-0.034068 0.051527 0.958262
-0.036606 0.056404 0.945293
-0.047574 0.044867 0.934052
