-0.532981 0.154664 -0.500081
-0.526068 0.148566 -0.489851
-0.539867 0.160812 -0.509785
-0.536404 0.170989 -0.512279
-0.528004 0.171184 -0.505954
-0.533471 0.187374 -0.516806
-0.525182 0.179583 -0.508582
-0.541373 0.194788 -0.524407
-0.538277 0.203433 -0.526692
-0.529921 0.203595 -0.521253
-0.532654 0.219141 -0.530755
-0.526249 0.213079 -0.523417
-0.533470 0.236061 -0.534824
-0.516973 -0.664623 -0.549642
-0.521011 -0.615975 -0.528863
-0.512712 -0.616210 -0.521585
-0.521531 -0.583841 -0.510438
-0.513318 -0.583883 -0.505444
-0.521920 -0.502061 -0.475672
-0.513694 -0.502056 -0.470966
-0.522612 -0.452883 -0.459139
-0.514376 -0.452877 -0.452331
-0.521352 -0.403634 -0.429131
-0.510088 -0.387160 -0.406635
-0.520673 -0.370717 -0.413741
-0.512424 -0.370668 -0.403569
-0.522901 -0.354300 -0.411018
-0.509935 -0.337840 -0.389304
-0.521275 -0.321460 -0.396274
-0.515509 -0.288596 -0.367301
-0.509618 -0.288636 -0.357616
-0.522633 -0.288511 -0.379175
-0.517669 -0.272252 -0.367549
-0.510951 -0.272315 -0.356106
-0.523482 -0.272124 -0.377992
-0.511380 -0.238935 -0.338408
-0.521588 -0.222616 -0.347494
-0.513323 -0.222360 -0.336236
-0.523133 -0.206171 -0.345061
-0.509697 -0.173073 -0.308381
-0.519416 -0.155502 -0.318893
-0.510137 -0.156678 -0.307778
-0.510530 -0.140213 -0.306553
-0.524436 -0.149153 -0.326965
-0.521210 -0.123325 -0.315392
-0.512946 -0.105411 -0.300090
-0.509102 -0.110042 -0.291782
-0.521795 -0.106737 -0.314734
-0.517795 -0.091377 -0.319169
-0.510612 -0.090188 -0.305616
-0.511165 -0.074088 -0.316629
-0.508597 -0.079957 -0.309495
-0.521721 -0.086346 -0.334459
-0.519421 -0.073827 -0.334462
-0.524427 -0.083280 -0.343964
-0.524342 -0.074199 -0.344036
-0.514842 -0.043265 -0.319723
-0.508980 -0.048362 -0.309147
-0.521039 -0.038491 -0.334481
-0.512521 -0.025708 -0.335494
-0.509766 -0.031380 -0.324070
-0.523896 -0.035126 -0.344417
-0.521188 -0.024665 -0.350647
-0.515481 -0.008882 -0.351173
-0.509327 -0.008573 -0.341543
-0.524228 -0.018895 -0.364649
-0.523156 -0.009086 -0.368885
-0.511544 0.007825 -0.349753
-0.508666 0.002222 -0.342205
-0.520266 0.007894 -0.367304
-0.524762 -0.003486 -0.375699
-0.524725 0.007866 -0.375689
-0.513236 0.024631 -0.367564
-0.510013 0.019390 -0.354455
-0.521080 0.024924 -0.382112
-0.512006 0.036980 -0.383694
-0.509446 0.034015 -0.373219
-0.523142 0.030747 -0.395035
-0.517212 0.041056 -0.399653
-0.522275 0.044855 -0.413405
-0.519343 0.055573 -0.417982
-0.511169 0.057086 -0.404226
-0.511876 0.072850 -0.416401
-0.509255 0.067195 -0.406912
-0.522938 0.060150 -0.429601
-0.520310 0.072079 -0.434143
-0.511816 0.089687 -0.434040
-0.509861 0.084197 -0.421826
-0.523278 0.076761 -0.443941
-0.519730 0.089565 -0.449401
-0.511402 0.104950 -0.450079
-0.508761 0.098577 -0.440262
-0.523097 0.094961 -0.459640
-0.520166 0.106111 -0.462930
-0.516600 0.122584 -0.465812
-0.509414 0.118858 -0.456036
-0.523782 0.126253 -0.475657
-0.521505 0.138712 -0.478509
-0.513237 0.138958 -0.468316
-0.516724 0.155022 -0.482903
-0.510594 0.150598 -0.471677
-0.522843 0.159518 -0.493558
-0.517194 0.172600 -0.496393
-0.511897 0.168087 -0.487261
-0.516815 0.186212 -0.503982
-0.522291 0.190599 -0.510677
-0.516920 0.204719 -0.513117
-0.511304 0.199871 -0.506302
-0.516424 0.219268 -0.520362
-0.521687 0.224032 -0.526598
-0.516695 0.236391 -0.529156
-0.510650 0.231017 -0.522739
-0.517053 0.252483 -0.533978
-0.500609 -0.680866 -0.548545
-0.504768 -0.567517 -0.492801
-0.496630 -0.567468 -0.488037
-0.505202 -0.485661 -0.459743
-0.497014 -0.485674 -0.453614
-0.504741 -0.452869 -0.444121
-0.496567 -0.452846 -0.437128
-0.502382 -0.387044 -0.398410
-0.494174 -0.386937 -0.389226
-0.505628 -0.370612 -0.395414
-0.494869 -0.354283 -0.371120
-0.505444 -0.337886 -0.381140
-0.496659 -0.321526 -0.354116
-0.503524 -0.288565 -0.349404
-0.495302 -0.288442 -0.338007
-0.504914 -0.272203 -0.347715
-0.496677 -0.271916 -0.336452
-0.505878 -0.238789 -0.330251
-0.500337 -0.222274 -0.318079
-0.493418 -0.222491 -0.308180
-0.507206 -0.222127 -0.328047
-0.495175 -0.206085 -0.305565
-0.501281 -0.173153 -0.300160
-0.493085 -0.173190 -0.290689
-0.502777 -0.156778 -0.299568
-0.494569 -0.156692 -0.288181
-0.504812 -0.140346 -0.298368
-0.495904 -0.106142 -0.267732
-0.492836 -0.111453 -0.259972
-0.505180 -0.105336 -0.285872
-0.498911 -0.088888 -0.283905
-0.494358 -0.093491 -0.272485
-0.508300 -0.099027 -0.293597
-0.507084 -0.090242 -0.297454
-0.505520 -0.074342 -0.303126
-0.496719 -0.073819 -0.286052
-0.508283 -0.069074 -0.310230
-0.493282 -0.042512 -0.286834
-0.492497 -0.048775 -0.275142
-0.501667 -0.042258 -0.302857
-0.494860 -0.026197 -0.301732
-0.492176 -0.033013 -0.293366
-0.506511 -0.037254 -0.313132
-0.502714 -0.025233 -0.318381
-0.495789 -0.008108 -0.317282
-0.493134 -0.013676 -0.307264
-0.505262 -0.020437 -0.330630
-0.504148 -0.008203 -0.333309
-0.505393 0.007927 -0.335833
-0.496671 0.008146 -0.320993
-0.497761 0.025263 -0.334686
-0.495320 0.020127 -0.323263
-0.508070 0.013255 -0.343507
-0.504769 0.024680 -0.349763
-0.496003 0.040300 -0.351300
-0.493188 0.034744 -0.340294
-0.507047 0.030134 -0.362289
-0.503577 0.039914 -0.367662
-0.495431 0.057522 -0.366797
-0.493476 0.052294 -0.357028
-0.505842 0.045222 -0.383696
-0.501242 0.057258 -0.383715
-0.507604 0.048088 -0.393228
-0.506277 0.057271 -0.395993
-0.495998 0.074314 -0.382630
-0.493457 0.069469 -0.371752
-0.504262 0.072938 -0.400929
-0.496303 0.089596 -0.400735
-0.493833 0.084016 -0.387389
-0.507183 0.077998 -0.410874
-0.504227 0.089668 -0.416453
-0.496313 0.105836 -0.416397
-0.493155 0.100311 -0.406612
-0.507077 0.095112 -0.429337
-0.504362 0.104826 -0.434139
-0.496861 0.124095 -0.431460
-0.494016 0.119500 -0.421705
-0.506597 0.109574 -0.445090
-0.505461 0.123691 -0.450125
-0.500466 0.139208 -0.449438
-0.494005 0.139184 -0.437101
-0.508329 0.129829 -0.457874
-0.506798 0.139143 -0.460003
-0.494688 0.151113 -0.449442
-0.492196 0.147549 -0.441070
-0.501391 0.156983 -0.465091
-0.507315 0.161500 -0.475915
-0.502267 0.173992 -0.480957
-0.496362 0.169039 -0.469588
-0.508171 0.179038 -0.491787
-0.504734 0.187943 -0.494077
-0.496515 0.188149 -0.486559
-0.500350 0.204084 -0.499663
-0.492987 0.197420 -0.490208
-0.507660 0.210744 -0.509504
-0.504512 0.220453 -0.512376
-0.496179 0.220656 -0.505332
-0.500112 0.236018 -0.517379
-0.493019 0.230000 -0.508129
-0.506845 0.241782 -0.525501
-0.503596 0.252617 -0.528119
-0.495157 0.252753 -0.522154
-0.499315 0.267632 -0.531064
-0.492560 0.261074 -0.524177
-0.483512 -0.728243 -0.107035
-0.484258 -0.697328 -0.547511
-0.487865 -0.600118 -0.492833
-0.479665 -0.600098 -0.488458
-0.487718 -0.551115 -0.476397
-0.479490 -0.551104 -0.471525
-0.487099 -0.485684 -0.445395
-0.478860 -0.485660 -0.438297
-0.488515 -0.452848 -0.428915
-0.480268 -0.452831 -0.420210
-0.488461 -0.386968 -0.381030
-0.478409 -0.370645 -0.354630
-0.489812 -0.354291 -0.362899
-0.478678 -0.337755 -0.339163
-0.489957 -0.321447 -0.345750
-0.479181 -0.304783 -0.321824
-0.489749 -0.288294 -0.329905
-0.483745 -0.271760 -0.318096
-0.476875 -0.271979 -0.308194
-0.490804 -0.271625 -0.328215
-0.479690 -0.255529 -0.304373
-0.487493 -0.222582 -0.299975
-0.479212 -0.222478 -0.286849
-0.489732 -0.206231 -0.297401
-0.486627 -0.172753 -0.268810
-0.479997 -0.172526 -0.256767
-0.490431 -0.173016 -0.282500
-0.486450 -0.156007 -0.268800
-0.479297 -0.155686 -0.257173
-0.490945 -0.156397 -0.279942
-0.478774 -0.138921 -0.257157
-0.485135 -0.106150 -0.255315
-0.491579 -0.100328 -0.261553
-0.489021 -0.088591 -0.267736
-0.480238 -0.089590 -0.256986
-0.486300 -0.073243 -0.268805
-0.478442 -0.072983 -0.257799
-0.491767 -0.082399 -0.277500
-0.491681 -0.073528 -0.277789
-0.480830 -0.057126 -0.254646
-0.484587 -0.040840 -0.268250
-0.479946 -0.044144 -0.255283
-0.489317 -0.037621 -0.282454
-0.484605 -0.025070 -0.285712
-0.478242 -0.028328 -0.272263
-0.490946 -0.021754 -0.296317
-0.485413 -0.006932 -0.300483
-0.479919 -0.010893 -0.288954
-0.490855 -0.002875 -0.311290
-0.488848 0.008138 -0.312774
-0.480614 0.008199 -0.304378
-0.484256 0.025725 -0.317128
-0.478024 0.020166 -0.307740
-0.490501 0.031233 -0.329348
-0.484770 0.041883 -0.333669
-0.479541 0.037951 -0.321932
-0.490040 0.045560 -0.345975
-0.488365 0.057616 -0.351222
-0.479697 0.057531 -0.335922
-0.483073 0.073507 -0.350839
-0.477315 0.073651 -0.338922
-0.491369 0.063226 -0.360839
-0.489807 0.074276 -0.366671
-0.477950 0.085245 -0.350861
-0.475826 0.082089 -0.341967
-0.480834 0.090853 -0.367318
-0.491605 0.080264 -0.376401
-0.487401 0.089684 -0.382628
-0.478374 0.102661 -0.383701
-0.476406 0.099502 -0.372793
-0.489470 0.095054 -0.395651
-0.484497 0.107083 -0.399636
-0.490496 0.111224 -0.410727
-0.489290 0.124124 -0.416302
-0.480362 0.122881 -0.401539
-0.481772 0.140372 -0.415379
-0.478089 0.135755 -0.403956
-0.492071 0.130556 -0.424853
-0.489726 0.139125 -0.428865
-0.482889 0.154607 -0.434687
-0.478019 0.150504 -0.420120
-0.488364 0.159557 -0.449433
-0.479483 0.171786 -0.450742
-0.476775 0.165623 -0.439259
-0.491505 0.163488 -0.458425
-0.488596 0.173830 -0.464823
-0.479632 0.187504 -0.466932
-0.476104 0.181505 -0.457080
-0.491977 0.179910 -0.474658
-0.488580 0.188398 -0.478108
-0.483040 0.203250 -0.483620
-0.476603 0.198170 -0.473034
-0.489482 0.208348 -0.492985
-0.484051 0.222360 -0.495826
-0.478490 0.218040 -0.488510
-0.483676 0.236212 -0.504091
-0.488989 0.240845 -0.511521
-0.483803 0.253539 -0.514163
-0.477933 0.248568 -0.507058
-0.482770 0.267711 -0.521611
-0.487523 0.272084 -0.527484
-0.483057 0.284247 -0.531007
-0.476380 0.277822 -0.523933
-0.466940 -0.744044 0.039878
-0.467799 -0.713822 -0.547178
-0.467803 -0.600092 -0.484628
-0.467649 -0.551102 -0.465004
-0.470425 -0.485605 -0.430067
-0.462166 -0.485534 -0.421918
-0.472572 -0.452793 -0.412011
-0.464270 -0.452742 -0.403306
-0.461841 -0.386848 -0.338874
-0.473505 -0.370585 -0.346434
-0.462139 -0.353980 -0.321686
-0.472103 -0.337605 -0.330924
-0.461925 -0.321287 -0.304846
-0.473199 -0.304797 -0.313514
-0.461874 -0.288356 -0.289081
-0.471897 -0.272058 -0.300070
-0.463608 -0.271960 -0.286963
-0.474093 -0.255607 -0.296240
-0.469617 -0.221907 -0.268830
-0.474843 -0.222253 -0.278652
-0.465510 -0.204801 -0.252429
-0.460746 -0.204598 -0.242126
-0.462196 -0.188322 -0.240752
-0.470841 -0.172296 -0.248593
-0.462519 -0.172034 -0.240927
-0.470619 -0.155577 -0.249004
-0.462297 -0.155434 -0.241090
-0.470890 -0.138928 -0.248985
-0.462568 -0.138863 -0.240759
-0.472496 -0.122804 -0.246929
-0.464174 -0.122651 -0.239836
-0.472741 -0.106474 -0.246297
-0.464421 -0.106276 -0.240017
-0.470049 -0.089563 -0.248826
-0.461730 -0.089484 -0.242164
-0.469586 -0.072958 -0.249629
-0.461260 -0.072895 -0.242097
-0.473162 -0.056988 -0.246458
-0.463609 -0.040901 -0.236589
-0.460123 -0.046594 -0.226281
-0.472513 -0.039292 -0.250879
-0.463586 -0.029156 -0.252439
-0.460140 -0.031044 -0.242392
-0.474955 -0.032871 -0.261345
-0.469154 -0.023135 -0.267813
-0.474426 -0.017107 -0.278031
-0.472191 -0.006297 -0.284180
-0.463146 -0.007500 -0.274238
-0.463910 0.008191 -0.284972
-0.460176 0.002766 -0.276072
-0.475473 -0.000170 -0.293688
-0.472585 0.008272 -0.296162
-0.467612 0.026163 -0.300869
-0.460730 0.020888 -0.290260
-0.474486 0.031385 -0.310992
-0.471902 0.042732 -0.317098
-0.463201 0.041490 -0.305031
-0.467377 0.057831 -0.318046
-0.460163 0.057859 -0.308368
-0.474978 0.049158 -0.327001
-0.474585 0.057761 -0.327698
-0.463858 0.072917 -0.317633
-0.459412 0.066874 -0.309395
-0.473072 0.073770 -0.330754
-0.466287 0.088735 -0.336550
-0.461959 0.084387 -0.322810
-0.471237 0.093507 -0.350909
-0.462913 0.105212 -0.351977
-0.459654 0.099137 -0.342032
-0.474758 0.096977 -0.361896
-0.470638 0.105516 -0.367446
-0.461935 0.122870 -0.367701
-0.460300 0.117029 -0.358216
-0.472780 0.110943 -0.383691
-0.468769 0.123131 -0.383698
-0.474918 0.113888 -0.392607
-0.474389 0.123082 -0.393295
-0.463120 0.139211 -0.384475
-0.460245 0.133199 -0.373130
-0.472031 0.140714 -0.399138
-0.463591 0.152050 -0.400080
-0.460133 0.149042 -0.390439
-0.475092 0.146740 -0.409163
-0.468687 0.156949 -0.414918
-0.473302 0.161520 -0.428302
-0.466792 0.171800 -0.434032
-0.462295 0.166915 -0.420644
-0.471305 0.176707 -0.446086
-0.465923 0.187376 -0.451009
-0.460278 0.182334 -0.439692
-0.471600 0.192219 -0.461992
-0.466774 0.204110 -0.466633
-0.460534 0.199050 -0.455897
-0.473006 0.209107 -0.477010
-0.468818 0.223793 -0.481765
-0.461986 0.218692 -0.471447
-0.475629 0.228912 -0.492034
-0.472549 0.237435 -0.495038
-0.464259 0.237680 -0.486652
-0.467507 0.253917 -0.500697
-0.460618 0.248246 -0.490631
-0.474320 0.259397 -0.510032
-0.468390 0.270638 -0.513193
-0.463301 0.266061 -0.505188
-0.466357 0.284493 -0.521353
-0.471160 0.288877 -0.527577
-0.466662 0.300999 -0.529955
-0.460005 0.294870 -0.523647
-0.450642 -0.759474 0.007584
-0.450522 -0.760018 -0.009291
-0.450509 -0.760586 -0.025636
-0.450593 -0.761063 -0.041538
-0.450611 -0.760541 -0.057882
-0.450604 -0.760121 -0.124012
-0.450555 -0.761367 -0.140451
-0.450584 -0.761954 -0.156813
-0.450623 -0.761645 -0.173114
-0.451340 -0.730061 -0.547596
-0.454042 -0.665457 -0.513491
-0.445734 -0.665442 -0.506918
-0.455466 -0.551110 -0.459239
-0.447268 -0.551109 -0.454949
-0.455703 -0.452686 -0.395087
-0.456058 -0.386706 -0.330653
-0.445416 -0.370421 -0.306281
-0.456865 -0.353986 -0.313460
-0.445902 -0.337724 -0.291151
-0.457300 -0.321302 -0.296753
-0.449068 -0.321260 -0.288156
-0.455875 -0.288205 -0.280873
-0.447647 -0.288069 -0.271718
-0.457684 -0.271755 -0.278665
-0.445450 -0.237902 -0.241095
-0.454294 -0.204498 -0.233960
-0.446047 -0.204460 -0.225259
-0.454759 -0.188231 -0.232590
-0.446519 -0.188285 -0.224480
-0.453985 -0.171990 -0.232770
-0.445747 -0.172154 -0.224758
-0.454018 -0.155435 -0.232969
-0.445772 -0.155566 -0.225121
-0.454536 -0.138873 -0.232662
-0.446287 -0.138949 -0.224935
-0.454924 -0.122589 -0.231717
-0.446681 -0.122694 -0.223523
-0.454275 -0.106205 -0.231878
-0.446038 -0.106345 -0.223781
-0.452165 -0.089521 -0.234048
-0.443926 -0.089640 -0.226560
-0.452859 -0.072924 -0.233975
-0.444611 -0.073015 -0.226095
-0.450755 -0.040403 -0.219657
-0.444766 -0.045241 -0.209120
-0.456762 -0.035640 -0.231475
-0.449856 -0.024167 -0.237313
-0.445825 -0.028310 -0.223932
-0.451835 -0.020740 -0.252424
-0.443641 -0.011562 -0.252437
-0.442965 -0.014864 -0.243132
-0.454554 -0.017918 -0.263310
-0.449764 -0.006302 -0.265040
-0.451599 0.008179 -0.270665
-0.457667 0.013367 -0.279344
-0.454910 0.025873 -0.284982
-0.445986 0.024859 -0.273499
-0.447600 0.040523 -0.285110
-0.443051 0.034254 -0.276645
-0.458624 0.032133 -0.294000
-0.456787 0.041572 -0.296835
-0.454471 0.057882 -0.300178
-0.446228 0.058016 -0.288777
-0.452840 0.072968 -0.303001
-0.444180 0.074082 -0.290706
-0.445755 0.085255 -0.301611
-0.442799 0.082196 -0.293036
-0.457603 0.077651 -0.311845
-0.451079 0.090825 -0.317476
-0.455518 0.095332 -0.331068
-0.450135 0.105575 -0.335673
-0.444588 0.101061 -0.323062
-0.455700 0.109940 -0.347030
-0.453518 0.122898 -0.351912
-0.444777 0.123331 -0.340018
-0.446199 0.138863 -0.351694
-0.443448 0.132942 -0.341534
-0.457970 0.128293 -0.362309
-0.454406 0.139095 -0.367520
-0.445934 0.151415 -0.367273
-0.443557 0.148747 -0.357709
-0.457131 0.144317 -0.379500
-0.450438 0.156027 -0.384725
-0.455166 0.160385 -0.400083
-0.446968 0.169002 -0.400088
-0.443759 0.165961 -0.389906
-0.458331 0.163418 -0.409645
-0.452012 0.173586 -0.415066
-0.456643 0.178013 -0.428788
-0.450945 0.189041 -0.433173
-0.445681 0.184707 -0.420418
-0.456216 0.193300 -0.444893
-0.450703 0.205240 -0.449910
-0.445259 0.200406 -0.437565
-0.456157 0.210026 -0.460140
-0.452180 0.223213 -0.465474
-0.445211 0.216783 -0.454906
-0.459138 0.229506 -0.474918
-0.455990 0.237900 -0.478027
-0.447759 0.238176 -0.471110
-0.450664 0.253683 -0.483929
-0.444104 0.248193 -0.473982
-0.457226 0.259284 -0.494141
-0.452084 0.271498 -0.499734
-0.446284 0.265934 -0.488757
-0.457838 0.276938 -0.509975
-0.452002 0.287256 -0.513256
-0.446935 0.282413 -0.505170
-0.450502 0.301252 -0.521158
-0.455623 0.305695 -0.526448
-0.450744 0.317889 -0.528966
-0.444559 0.312148 -0.523390
-0.434286 -0.760882 0.106118
-0.434383 -0.761990 0.090155
-0.434524 -0.761960 -0.417603
-0.434592 -0.761465 -0.483205
-0.434952 -0.746322 -0.547294
-0.434876 -0.665435 -0.498439
-0.435028 -0.649304 -0.495286
-0.434931 -0.583632 -0.465875
-0.430411 -0.419725 -0.322839
-0.438148 -0.370502 -0.298071
-0.429972 -0.370621 -0.291133
-0.438383 -0.321113 -0.279861
-0.430178 -0.321036 -0.274225
-0.439764 -0.287970 -0.263526
-0.431568 -0.288119 -0.256222
-0.437293 -0.188459 -0.216237
-0.429083 -0.188729 -0.208901
-0.437803 -0.172444 -0.216503
-0.429590 -0.172808 -0.207927
-0.436626 -0.155773 -0.216923
-0.428419 -0.156041 -0.209349
-0.436350 -0.139041 -0.216781
-0.428143 -0.139217 -0.209982
-0.438714 -0.122786 -0.215316
-0.429938 -0.108139 -0.202475
-0.426216 -0.114713 -0.195016
-0.439042 -0.106497 -0.215523
-0.434074 -0.089519 -0.217645
-0.428383 -0.095117 -0.207379
-0.435064 -0.039344 -0.202480
-0.428901 -0.044562 -0.192506
-0.441245 -0.034261 -0.213019
-0.435783 -0.022341 -0.218028
-0.430359 -0.027393 -0.206686
-0.441222 -0.017440 -0.232215
-0.437746 -0.008825 -0.237029
-0.429982 -0.007780 -0.223207
-0.429593 0.007945 -0.236142
-0.427153 0.002112 -0.226495
-0.440809 -0.003629 -0.252442
-0.437022 0.008411 -0.252477
-0.442369 -0.000344 -0.260791
-0.441655 0.008329 -0.261627
-0.429979 0.026019 -0.252129
-0.427646 0.021259 -0.241668
-0.438038 0.024773 -0.265340
-0.433454 0.040059 -0.269647
-0.426627 0.034512 -0.257358
-0.440305 0.045389 -0.279537
-0.439939 0.058217 -0.280575
-0.433298 0.074243 -0.268821
-0.427480 0.074189 -0.259434
-0.440309 0.074197 -0.282520
-0.429623 0.084972 -0.268822
-0.427117 0.082746 -0.259968
-0.434073 0.089164 -0.287086
-0.438374 0.093384 -0.301632
-0.429643 0.105854 -0.303004
-0.427381 0.099642 -0.292074
-0.441429 0.097136 -0.312147
-0.437512 0.106705 -0.317796
-0.430339 0.123477 -0.316671
-0.426696 0.117862 -0.309340
-0.440496 0.112085 -0.329270
-0.439307 0.123501 -0.331800
-0.437336 0.139097 -0.335435
-0.429391 0.140025 -0.321339
-0.429562 0.152105 -0.334473
-0.427298 0.149485 -0.324760
-0.440611 0.143810 -0.346750
-0.434330 0.155844 -0.351455
-0.438743 0.159563 -0.367315
-0.430573 0.169195 -0.367350
-0.428076 0.165947 -0.356159
-0.441232 0.162898 -0.378989
-0.434662 0.173196 -0.383535
-0.439456 0.177297 -0.400088
-0.430759 0.189273 -0.400913
-0.428091 0.183827 -0.388065
-0.442112 0.180209 -0.409464
-0.438858 0.189922 -0.415550
-0.429596 0.204737 -0.417921
-0.427203 0.198624 -0.406885
-0.441562 0.195834 -0.426595
-0.437701 0.205845 -0.432423
-0.429195 0.217183 -0.432945
-0.426682 0.214220 -0.424351
-0.440741 0.211372 -0.443904
-0.435186 0.222977 -0.449053
-0.440524 0.227843 -0.459344
-0.434935 0.239542 -0.461928
-0.429622 0.234902 -0.454168
-0.434913 0.254119 -0.469649
-0.440525 0.259055 -0.477147
-0.435131 0.271087 -0.483243
-0.429605 0.265416 -0.472234
-0.440682 0.276749 -0.494009
-0.435570 0.287841 -0.499595
-0.429754 0.282108 -0.489290
-0.441328 0.293450 -0.510112
-0.435554 0.304043 -0.512709
-0.430417 0.299605 -0.504932
-0.434819 0.318083 -0.520179
-0.440336 0.322903 -0.526240
-0.435023 0.334523 -0.528987
-0.429367 0.328951 -0.522807
-0.417908 -0.777212 0.057187
-0.417847 -0.778371 0.040572
-0.417979 -0.777320 0.024699
-0.417976 -0.777810 0.008264
-0.417947 -0.780098 -0.040847
-0.417924 -0.779625 -0.254429
-0.417896 -0.778713 -0.271075
-0.418004 -0.777504 -0.286897
-0.418032 -0.776593 -0.303271
-0.417938 -0.776000 -0.320409
-0.417943 -0.775311 -0.336755
-0.418062 -0.774648 -0.352331
-0.418073 -0.774482 -0.368715
-0.417999 -0.774622 -0.385705
-0.418065 -0.774486 -0.451253
-0.418133 -0.775603 -0.517506
-0.418187 -0.777106 -0.533068
-0.418360 -0.774053 -0.543725
-0.418535 -0.762600 -0.547479
-0.417970 -0.761467 0.171000
-0.418566 -0.746651 -0.545263
-0.424187 -0.665406 -0.491230
-0.415964 -0.665340 -0.489062
-0.422216 -0.649204 -0.491215
-0.413966 -0.649136 -0.489907
-0.421961 -0.583529 -0.460181
-0.413704 -0.583548 -0.454871
-0.422546 -0.518248 -0.412244
-0.414287 -0.518214 -0.404546
-0.423443 -0.354145 -0.280062
-0.415163 -0.354114 -0.271571
-0.421714 -0.320909 -0.266016
-0.412336 -0.304936 -0.241548
-0.423398 -0.288330 -0.248014
-0.415136 -0.288445 -0.238148
-0.424160 -0.255210 -0.231141
-0.415837 -0.255205 -0.223380
-0.423895 -0.221792 -0.213771
-0.415612 -0.221903 -0.206937
-0.421868 -0.172966 -0.199729
-0.413619 -0.173018 -0.189292
-0.420132 -0.156137 -0.201129
-0.411890 -0.156179 -0.191607
-0.419228 -0.139262 -0.201773
-0.410978 -0.139305 -0.193780
-0.422696 -0.108093 -0.188554
-0.414123 -0.088692 -0.169059
-0.410063 -0.093575 -0.162083
-0.419637 -0.089830 -0.186962
-0.425411 -0.103623 -0.196470
-0.422451 -0.089629 -0.202480
-0.418814 -0.073298 -0.186958
-0.414570 -0.073297 -0.171889
-0.424725 -0.083800 -0.212683
-0.414147 -0.057291 -0.173878
-0.419119 -0.039317 -0.186033
-0.412551 -0.045098 -0.176074
-0.425680 -0.033438 -0.195840
-0.422671 -0.022765 -0.202124
-0.413914 -0.024155 -0.191253
-0.414479 -0.008438 -0.203028
-0.410341 -0.014327 -0.194544
-0.425759 -0.016282 -0.212153
-0.423480 -0.007686 -0.215040
-0.418244 0.008970 -0.219157
-0.412046 0.004971 -0.208206
-0.424435 0.012999 -0.230713
-0.423077 0.026068 -0.236136
-0.414225 0.024852 -0.222393
-0.418217 0.041481 -0.236060
-0.411946 0.041332 -0.225879
-0.425997 0.032422 -0.246394
-0.423698 0.040778 -0.252114
-0.412926 0.056586 -0.236821
-0.410450 0.050218 -0.227437
-0.424599 0.045935 -0.262618
-0.417284 0.073998 -0.250490
-0.411260 0.068490 -0.242766
-0.418084 0.085817 -0.256832
-0.417908 0.093716 -0.268653
-0.423308 0.096243 -0.281095
-0.417724 0.106048 -0.286114
-0.412318 0.101555 -0.274016
-0.423128 0.110702 -0.298453
-0.421326 0.123315 -0.303020
-0.412079 0.123340 -0.291115
-0.414459 0.138907 -0.302055
-0.410606 0.132709 -0.292673
-0.426024 0.128855 -0.310264
-0.423322 0.139929 -0.313130
-0.417569 0.153172 -0.318792
-0.411683 0.149770 -0.307774
-0.418730 0.161273 -0.333018
-0.424631 0.163027 -0.345140
-0.417419 0.172215 -0.352045
-0.413636 0.167670 -0.337533
-0.421597 0.177525 -0.367347
-0.413355 0.184214 -0.367351
-0.410208 0.180992 -0.358926
-0.425230 0.180425 -0.377135
-0.418790 0.190023 -0.382736
-0.423359 0.194598 -0.395986
-0.417367 0.204846 -0.401290
-0.412367 0.200074 -0.388316
-0.422384 0.209556 -0.413410
-0.416672 0.220348 -0.418683
-0.411398 0.215623 -0.406595
-0.421790 0.225443 -0.433050
-0.413579 0.235111 -0.433109
-0.410967 0.231419 -0.424007
-0.424783 0.229118 -0.443182
-0.419736 0.240779 -0.447864
-0.425657 0.245782 -0.458371
-0.423384 0.254906 -0.460457
-0.415121 0.255013 -0.452124
-0.418125 0.270873 -0.466362
-0.412181 0.265387 -0.455483
-0.424077 0.276314 -0.477797
-0.418833 0.287857 -0.483420
-0.413073 0.282674 -0.472113
-0.424608 0.293176 -0.493922
-0.419628 0.304290 -0.499930
-0.413630 0.298166 -0.488861
-0.425546 0.310178 -0.509515
-0.419446 0.320436 -0.511654
-0.414562 0.316142 -0.505683
-0.417117 0.334751 -0.520403
-0.421883 0.339801 -0.526939
-0.417435 0.349938 -0.530351
-0.410755 0.343478 -0.524106
-0.401355 -0.790740 -0.074111
-0.401384 -0.790652 -0.090616
-0.401362 -0.791842 -0.139655
-0.401408 -0.791599 -0.156028
-0.401471 -0.791043 -0.172429
-0.401434 -0.791381 -0.188683
-0.401406 -0.791568 -0.204918
-0.401483 -0.790766 -0.221275
-0.401590 -0.775887 0.139322
-0.402128 -0.762996 -0.546485
-0.401583 -0.759502 0.220613
-0.402073 -0.665200 -0.487577
-0.402159 -0.648993 -0.487497
-0.405560 -0.518198 -0.396334
-0.396990 -0.469047 -0.339103
-0.406590 -0.386895 -0.279804
-0.398263 -0.386836 -0.272689
-0.407403 -0.354068 -0.263380
-0.396666 -0.337692 -0.239770
-0.405920 -0.304962 -0.233373
-0.397607 -0.304960 -0.224175
-0.408381 -0.288482 -0.229974
-0.400045 -0.288393 -0.222386
-0.405269 -0.221965 -0.198741
-0.396962 -0.222012 -0.191740
-0.407730 -0.204990 -0.196745
-0.399423 -0.205119 -0.190218
-0.408181 -0.173003 -0.181122
-0.397600 -0.156528 -0.171453
-0.394735 -0.162393 -0.160243
-0.405849 -0.156169 -0.183384
-0.403932 -0.139318 -0.185535
-0.395670 -0.139277 -0.175282
-0.395490 -0.106815 -0.143641
-0.405077 -0.088777 -0.155602
-0.395628 -0.089959 -0.143580
-0.399729 -0.072743 -0.152751
-0.394021 -0.077888 -0.145098
-0.409797 -0.082410 -0.162553
-0.409057 -0.073252 -0.163712
-0.406695 -0.057126 -0.165698
-0.398411 -0.056958 -0.156860
-0.402234 -0.039399 -0.169662
-0.395592 -0.044766 -0.160112
-0.408890 -0.034024 -0.179564
-0.405666 -0.024276 -0.183022
-0.397387 -0.024238 -0.174533
-0.402805 -0.008515 -0.188190
-0.394164 -0.007780 -0.177568
-0.396407 0.009411 -0.185455
-0.393585 0.004611 -0.178174
-0.407958 -0.003665 -0.197313
-0.405887 0.009567 -0.202908
-0.398012 0.023821 -0.203988
-0.394521 0.017734 -0.189955
-0.409353 0.015687 -0.211820
-0.406515 0.024785 -0.214185
-0.400855 0.041132 -0.217080
-0.394852 0.035538 -0.209997
-0.400796 0.056461 -0.224468
-0.405800 0.061086 -0.231866
-0.401453 0.073314 -0.236874
-0.394751 0.067213 -0.227025
-0.408161 0.079277 -0.245311
-0.402481 0.091533 -0.251499
-0.397137 0.085363 -0.241859
-0.407855 0.097799 -0.263065
-0.401917 0.107421 -0.268704
-0.396827 0.102289 -0.257638
-0.407010 0.112398 -0.280091
-0.404108 0.123604 -0.282859
-0.395824 0.123809 -0.274521
-0.400338 0.138315 -0.286560
-0.394054 0.132948 -0.276367
-0.406641 0.143720 -0.296835
-0.401364 0.153296 -0.302082
-0.395619 0.149913 -0.291420
-0.403174 0.162313 -0.316618
-0.409652 0.165031 -0.326557
-0.402216 0.173510 -0.333861
-0.398647 0.168300 -0.321111
-0.405827 0.178373 -0.347907
-0.399667 0.187293 -0.353486
-0.394810 0.182429 -0.341130
-0.404748 0.192567 -0.367307
-0.396475 0.200359 -0.367286
-0.393489 0.197837 -0.359003
-0.408437 0.196301 -0.377349
-0.401737 0.206144 -0.383587
-0.406059 0.211044 -0.395646
-0.400163 0.220959 -0.401729
-0.395084 0.215461 -0.389775
-0.405254 0.226428 -0.412920
-0.400283 0.236841 -0.418053
-0.394256 0.231309 -0.407825
-0.407000 0.243301 -0.433066
-0.399113 0.255121 -0.432706
-0.395291 0.249555 -0.423067
-0.409717 0.246595 -0.441496
-0.407453 0.255097 -0.443811
-0.401573 0.271288 -0.449508
-0.395867 0.266169 -0.437911
-0.407299 0.276382 -0.460424
-0.402323 0.288219 -0.466035
-0.396238 0.282826 -0.454666
-0.408412 0.293583 -0.477649
-0.402339 0.304112 -0.483505
-0.397392 0.299246 -0.471598
-0.407302 0.309051 -0.494718
-0.402995 0.320798 -0.500308
-0.396279 0.314508 -0.489345
-0.409606 0.326800 -0.509347
-0.403303 0.335947 -0.513476
-0.398617 0.331054 -0.505774
-0.401974 0.347238 -0.521836
-0.402041 0.355320 -0.527392
-0.402059 0.367428 -0.531989
-0.385009 -0.792422 0.106305
-0.385068 -0.792852 0.089777
-0.385082 -0.793751 0.073465
-0.385165 -0.796497 -0.303539
-0.385095 -0.795901 -0.320036
-0.385104 -0.795060 -0.336413
-0.385194 -0.794125 -0.352708
-0.385196 -0.793936 -0.369087
-0.385145 -0.794168 -0.385509
-0.385187 -0.793665 -0.401762
-0.385266 -0.793028 -0.417947
-0.385250 -0.793375 -0.434359
-0.385208 -0.794064 -0.450850
-0.385256 -0.793991 -0.467135
-0.385310 -0.793877 -0.483603
-0.385287 -0.794690 -0.500767
-0.385699 -0.779244 -0.546890
-0.385159 -0.777321 0.188143
-0.385662 -0.698623 -0.499885
-0.385643 -0.665234 -0.485637
-0.385706 -0.648991 -0.483243
-0.389463 -0.469038 -0.330904
-0.381255 -0.469074 -0.321937
-0.381498 -0.436281 -0.289726
-0.390458 -0.337791 -0.231604
-0.382285 -0.337892 -0.223858
-0.387426 -0.304981 -0.216010
-0.379209 -0.305049 -0.209476
-0.389759 -0.288322 -0.214234
-0.381529 -0.288397 -0.207411
-0.391351 -0.271445 -0.212770
-0.383155 -0.271540 -0.206274
-0.378883 -0.239191 -0.175857
-0.388835 -0.222236 -0.183701
-0.380637 -0.222546 -0.174130
-0.390093 -0.205437 -0.182442
-0.381925 -0.205846 -0.173799
-0.379472 -0.172974 -0.143755
-0.385180 -0.155402 -0.153144
-0.379763 -0.159439 -0.143307
-0.390559 -0.151294 -0.166597
-0.390285 -0.139372 -0.167039
-0.386776 -0.106904 -0.135445
-0.378564 -0.106998 -0.128020
-0.387012 -0.090021 -0.135408
-0.378811 -0.090078 -0.127907
-0.387191 -0.072787 -0.138883
-0.377756 -0.073287 -0.128716
-0.381818 -0.057539 -0.136603
-0.377181 -0.063373 -0.129156
-0.392898 -0.066995 -0.146285
-0.391031 -0.056947 -0.148596
-0.388557 -0.039783 -0.154394
-0.379675 -0.040501 -0.141200
-0.381959 -0.023988 -0.153201
-0.377794 -0.029427 -0.144173
-0.392593 -0.033767 -0.163250
-0.390715 -0.024139 -0.166337
-0.389709 -0.007763 -0.169382
-0.381521 -0.007592 -0.155300
-0.390385 0.009512 -0.171856
-0.381487 0.008812 -0.154850
-0.382497 0.026025 -0.169955
-0.379602 0.021383 -0.157487
-0.393230 0.015489 -0.179095
-0.388753 0.023934 -0.185461
-0.379511 0.036540 -0.186868
-0.378152 0.034574 -0.175018
-0.390071 0.028686 -0.199050
-0.385571 0.041380 -0.203323
-0.391984 0.046420 -0.212538
-0.385975 0.059232 -0.214884
-0.381069 0.054912 -0.207544
-0.384950 0.073160 -0.222769
-0.390317 0.078138 -0.230964
-0.385306 0.091183 -0.235724
-0.379388 0.085744 -0.225679
-0.391231 0.096532 -0.246765
-0.385777 0.108681 -0.251295
-0.380313 0.103925 -0.240465
-0.391247 0.113300 -0.263373
-0.388988 0.123950 -0.266311
-0.380770 0.124018 -0.255007
-0.384604 0.139480 -0.269621
-0.378750 0.135040 -0.257911
-0.390470 0.143845 -0.280419
-0.384309 0.155719 -0.286424
-0.379563 0.150850 -0.273798
-0.389948 0.161558 -0.301738
-0.381779 0.168265 -0.301744
-0.378171 0.165309 -0.292407
-0.393178 0.164520 -0.310221
-0.386215 0.174094 -0.316857
-0.390188 0.179298 -0.330156
-0.384277 0.188640 -0.335565
-0.379272 0.183816 -0.323482
-0.389296 0.193455 -0.348057
-0.384408 0.201814 -0.352473
-0.378362 0.199067 -0.340934
-0.385504 0.209676 -0.365692
-0.391117 0.212185 -0.378845
-0.385553 0.219757 -0.384067
-0.380210 0.216785 -0.370107
-0.385360 0.227398 -0.395661
-0.384905 0.237697 -0.403759
-0.390072 0.242267 -0.412092
-0.385493 0.255430 -0.416415
-0.379153 0.250249 -0.406584
-0.391812 0.260661 -0.426974
-0.385894 0.272159 -0.432463
-0.380915 0.267188 -0.420712
-0.390855 0.277115 -0.443504
-0.385229 0.287957 -0.449790
-0.379995 0.282052 -0.437983
-0.390488 0.293754 -0.459822
-0.384893 0.303843 -0.466847
-0.379616 0.297656 -0.456022
-0.390188 0.310063 -0.477950
-0.384541 0.319366 -0.484303
-0.379290 0.313353 -0.473642
-0.389802 0.325473 -0.494464
-0.384522 0.335694 -0.501063
-0.378904 0.329269 -0.490623
-0.390151 0.341869 -0.510989
-0.386132 0.352554 -0.516887
-0.379205 0.345644 -0.507504
-0.392668 0.358910 -0.524706
-0.386679 0.368156 -0.527763
-0.381782 0.363238 -0.522301
-0.385657 0.383745 -0.531917
-0.368660 -0.807793 0.040408
-0.368664 -0.808730 -0.008785
-0.368664 -0.808945 -0.025077
-0.368827 -0.807836 -0.040755
-0.368813 -0.807968 -0.057380
-0.368679 -0.809030 -0.074539
-0.368719 -0.808892 -0.090697
-0.368843 -0.808191 -0.106469
-0.368785 -0.808083 -0.123285
-0.368679 -0.808246 -0.140278
-0.368757 -0.808040 -0.156070
-0.368857 -0.807937 -0.171794
-0.368783 -0.808377 -0.188667
-0.368721 -0.808723 -0.205438
-0.368823 -0.808453 -0.221186
-0.368879 -0.808084 -0.237277
-0.368781 -0.807950 -0.254432
-0.368751 -0.807599 -0.271080
-0.369009 -0.809333 -0.533088
-0.369161 -0.806456 -0.543323
-0.369301 -0.795364 -0.546603
-0.368883 -0.794326 0.155508
-0.369256 -0.665461 -0.481404
-0.373840 -0.469142 -0.313761
-0.374446 -0.403305 -0.262833
-0.366300 -0.403486 -0.254969
-0.362501 -0.354517 -0.209678
-0.372302 -0.337939 -0.215653
-0.364155 -0.337984 -0.208737
-0.370996 -0.305099 -0.201490
-0.362827 -0.305168 -0.191183
-0.372679 -0.288466 -0.199330
-0.368087 -0.271941 -0.186944
-0.363445 -0.272289 -0.173562
-0.373635 -0.271637 -0.198163
-0.373538 -0.239300 -0.167654
-0.365570 -0.223022 -0.153565
-0.361333 -0.228747 -0.145384
-0.374426 -0.222725 -0.165965
-0.375180 -0.206114 -0.165771
-0.371944 -0.154933 -0.137825
-0.362650 -0.156471 -0.128099
-0.362618 -0.139959 -0.127453
-0.376867 -0.148407 -0.146053
-0.369765 -0.090239 -0.119722
-0.361631 -0.090424 -0.112152
-0.370703 -0.073397 -0.120542
-0.362581 -0.073543 -0.110973
-0.372246 -0.057451 -0.122700
-0.363397 -0.056794 -0.108264
-0.369330 -0.040275 -0.121230
-0.363143 -0.040235 -0.108119
-0.376245 -0.052458 -0.130411
-0.374928 -0.040372 -0.133021
-0.364510 -0.022926 -0.120336
-0.361917 -0.027971 -0.110991
-0.373003 -0.023761 -0.138357
-0.370202 -0.007288 -0.137870
-0.362873 -0.007339 -0.125177
-0.376123 -0.018313 -0.147122
-0.376166 -0.007376 -0.147118
-0.370071 0.008821 -0.138040
-0.362256 0.008616 -0.127956
-0.376561 0.008941 -0.146762
-0.365244 0.024202 -0.138730
-0.361569 0.017809 -0.129017
-0.374119 0.026184 -0.153019
-0.365519 0.038366 -0.154340
-0.362205 0.034838 -0.144580
-0.376393 0.032126 -0.164099
-0.369859 0.042016 -0.168743
-0.373674 0.044818 -0.186921
-0.366617 0.057834 -0.186925
-0.362989 0.057775 -0.174027
-0.375416 0.047325 -0.196697
-0.373342 0.059361 -0.202576
-0.361732 0.068196 -0.186864
-0.361130 0.067072 -0.177738
-0.365688 0.073445 -0.203084
-0.376916 0.065688 -0.211450
-0.374404 0.073887 -0.213899
-0.369234 0.090748 -0.219557
-0.362679 0.084555 -0.208416
-0.375771 0.096893 -0.229564
-0.373719 0.108531 -0.235446
-0.365026 0.107126 -0.224367
-0.369146 0.123698 -0.236055
-0.362462 0.123509 -0.226182
-0.376645 0.115075 -0.244936
-0.375584 0.123932 -0.246830
-0.364151 0.139320 -0.236470
-0.361497 0.133214 -0.226806
-0.372542 0.140372 -0.252446
-0.364431 0.152043 -0.252437
-0.361808 0.149343 -0.242224
-0.375486 0.145958 -0.262864
-0.369091 0.157081 -0.268714
-0.373623 0.161596 -0.281360
-0.367532 0.171519 -0.287085
-0.362728 0.166978 -0.274543
-0.372118 0.176539 -0.301701
-0.363962 0.184903 -0.301679
-0.361459 0.181568 -0.292730
-0.375285 0.179928 -0.312570
-0.369246 0.190230 -0.317483
-0.374141 0.194671 -0.330036
-0.367858 0.204973 -0.335896
-0.363216 0.199947 -0.322450
-0.373645 0.210949 -0.350876
-0.365497 0.218591 -0.350951
-0.361610 0.214992 -0.341685
-0.377080 0.214129 -0.359162
-0.369867 0.223475 -0.365073
-0.374330 0.228510 -0.383703
-0.365895 0.239034 -0.384088
-0.362662 0.233274 -0.370907
-0.377022 0.230771 -0.392004
-0.373968 0.239084 -0.394794
-0.369013 0.255646 -0.399897
-0.362158 0.250130 -0.389786
-0.375850 0.261215 -0.409778
-0.370245 0.272647 -0.415455
-0.364972 0.267262 -0.404093
-0.375514 0.278023 -0.426966
-0.368934 0.287933 -0.433350
-0.364653 0.282755 -0.421126
-0.373205 0.293078 -0.444901
-0.368287 0.300827 -0.450160
-0.362345 0.297344 -0.439727
-0.369057 0.309227 -0.461392
-0.369092 0.317170 -0.469763
-0.369115 0.325176 -0.478072
-0.369138 0.332633 -0.486541
-0.369136 0.340754 -0.495350
-0.367584 0.351946 -0.504738
-0.372131 0.356699 -0.511944
-0.368102 0.367642 -0.517618
-0.361076 0.361270 -0.508300
-0.374789 0.373765 -0.525901
-0.369423 0.383942 -0.528540
-0.363849 0.378555 -0.522971
-0.352402 -0.808356 0.122644
-0.352303 -0.810571 0.105695
-0.352447 -0.810795 0.090123
-0.352498 -0.811931 0.074138
-0.352591 -0.813824 -0.483360
-0.352920 -0.795686 -0.545456
-0.352669 -0.791616 0.205567
-0.352945 -0.715080 -0.496944
-0.352833 -0.682010 -0.483622
-0.358307 -0.403689 -0.246772
-0.349997 -0.403763 -0.238804
-0.353836 -0.354522 -0.201513
-0.345577 -0.354533 -0.193789
-0.354890 -0.337998 -0.200742
-0.346664 -0.321645 -0.177643
-0.358624 -0.305210 -0.182924
-0.347335 -0.288779 -0.159219
-0.358688 -0.272351 -0.165351
-0.350368 -0.272324 -0.157254
-0.353243 -0.223018 -0.140777
-0.359371 -0.217613 -0.147958
-0.351130 -0.156158 -0.118907
-0.344688 -0.161372 -0.113158
-0.357083 -0.123668 -0.115806
-0.348776 -0.123439 -0.109465
-0.352420 -0.090208 -0.105688
-0.356665 -0.056707 -0.100049
-0.348369 -0.056517 -0.092248
-0.357845 -0.040151 -0.099937
-0.349559 -0.039956 -0.091182
-0.353418 -0.022615 -0.104798
-0.346726 -0.028228 -0.094640
-0.360125 -0.016967 -0.114235
-0.356963 -0.007466 -0.116879
-0.348654 -0.007387 -0.109456
-0.351432 0.007879 -0.119260
-0.345286 0.002102 -0.111977
-0.352342 0.021422 -0.126201
-0.352342 0.029909 -0.132881
-0.352360 0.037630 -0.141062
-0.353972 0.046446 -0.153747
-0.360596 0.049427 -0.162450
-0.353963 0.058882 -0.165841
-0.349485 0.054087 -0.158797
-0.352376 0.071048 -0.174781
-0.351255 0.077713 -0.185742
-0.356036 0.078627 -0.197516
-0.350324 0.089447 -0.204278
-0.345018 0.083131 -0.190427
-0.355655 0.095942 -0.213432
-0.351084 0.106013 -0.216385
-0.344639 0.099712 -0.211056
-0.352459 0.123728 -0.220467
-0.351748 0.139390 -0.224100
-0.356833 0.144277 -0.231286
-0.351799 0.151949 -0.236467
-0.345783 0.149281 -0.226748
-0.351937 0.160487 -0.252720
-0.357068 0.163386 -0.263589
-0.351966 0.169868 -0.268971
-0.346073 0.166431 -0.258360
-0.352557 0.178112 -0.281343
-0.352574 0.184685 -0.289536
-0.353125 0.193333 -0.301332
-0.359011 0.196729 -0.311410
-0.353100 0.203500 -0.317401
-0.348001 0.199951 -0.306592
-0.352485 0.211606 -0.329889
-0.352505 0.217549 -0.338059
-0.353919 0.226370 -0.350758
-0.360364 0.230036 -0.360060
-0.353518 0.239202 -0.366437
-0.349338 0.234135 -0.356107
-0.357708 0.244395 -0.378828
-0.352872 0.255395 -0.383747
-0.346694 0.249726 -0.372761
-0.359052 0.260902 -0.393235
-0.353033 0.271953 -0.399954
-0.348043 0.265724 -0.388627
-0.358040 0.278127 -0.410159
-0.351779 0.287414 -0.417194
-0.347026 0.281312 -0.406678
-0.356522 0.293675 -0.428672
-0.351674 0.299848 -0.433757
-0.345513 0.296604 -0.424220
-0.354021 0.309179 -0.448611
-0.360433 0.312288 -0.458245
-0.355112 0.322336 -0.464273
-0.349429 0.316229 -0.453358
-0.360800 0.328332 -0.474573
-0.354858 0.338113 -0.481200
-0.349784 0.332233 -0.470382
-0.359913 0.343974 -0.492052
-0.353773 0.353382 -0.496533
-0.348930 0.348125 -0.487837
-0.352739 0.364228 -0.505802
-0.352778 0.372017 -0.512435
-0.352147 0.384221 -0.520676
-0.357322 0.389260 -0.526321
-0.352368 0.399483 -0.529503
-0.346257 0.393350 -0.523819
-0.335738 -0.824265 0.040554
-0.335868 -0.824049 0.024118
-0.335875 -0.823970 0.007659
-0.335736 -0.824179 -0.008829
-0.335743 -0.823880 -0.025061
-0.335865 -0.823403 -0.041154
-0.335869 -0.823402 -0.057678
-0.335791 -0.823693 -0.074420
-0.335834 -0.823359 -0.090604
-0.335922 -0.822783 -0.106618
-0.335889 -0.822579 -0.123289
-0.335815 -0.822540 -0.140112
-0.335865 -0.822212 -0.156209
-0.335929 -0.822059 -0.172252
-0.335874 -0.822548 -0.188957
-0.335830 -0.822981 -0.205583
-0.335911 -0.822812 -0.221562
-0.335957 -0.822661 -0.237709
-0.335883 -0.822802 -0.254456
-0.335861 -0.822810 -0.270994
-0.335955 -0.822497 -0.287038
-0.335969 -0.822431 -0.303468
-0.335864 -0.822682 -0.320394
-0.335864 -0.822627 -0.336845
-0.335975 -0.822276 -0.352813
-0.335978 -0.822317 -0.369137
-0.335896 -0.822601 -0.385732
-0.335928 -0.822310 -0.401972
-0.335959 -0.822361 -0.451362
-0.336104 -0.825255 -0.517656
-0.336179 -0.827688 -0.532967
-0.336333 -0.824030 -0.543863
-0.336437 -0.811729 -0.546313
-0.335858 -0.809394 0.171488
-0.335875 -0.811373 0.155088
-0.335986 -0.792433 0.236954
-0.335992 -0.796426 0.220744
-0.336392 -0.731405 -0.499611
-0.336343 -0.681979 -0.480632
-0.341611 -0.403792 -0.230678
-0.333297 -0.403784 -0.222746
-0.340097 -0.321630 -0.169544
-0.331782 -0.321624 -0.160745
-0.339807 -0.288758 -0.151040
-0.333457 -0.271993 -0.122499
-0.331203 -0.271852 -0.109258
-0.334716 -0.272139 -0.137884
-0.340818 -0.272245 -0.149124
-0.335343 -0.255519 -0.122535
-0.331193 -0.255351 -0.109883
-0.333865 -0.238189 -0.120745
-0.329267 -0.242923 -0.112513
-0.342513 -0.239307 -0.131751
-0.342343 -0.222752 -0.131544
-0.334055 -0.222619 -0.122789
-0.342415 -0.206112 -0.131855
-0.331511 -0.189072 -0.109274
-0.337275 -0.155788 -0.107693
-0.343765 -0.150523 -0.113638
-0.341185 -0.106607 -0.098892
-0.332905 -0.106429 -0.092264
-0.341702 -0.089945 -0.098430
-0.333398 -0.089791 -0.092347
-0.341319 -0.039805 -0.083008
-0.333039 -0.039671 -0.076231
-0.336237 -0.023046 -0.089127
-0.329741 -0.028869 -0.078992
-0.342788 -0.017265 -0.098823
-0.340015 -0.007193 -0.101481
-0.331676 -0.007004 -0.093887
-0.334417 0.007666 -0.106701
-0.328943 0.002388 -0.095496
-0.339879 0.012893 -0.114744
-0.336001 0.025414 -0.121358
-0.328859 0.017754 -0.112267
-0.343159 0.033154 -0.130085
-0.336629 0.042245 -0.137163
-0.332113 0.035783 -0.127889
-0.341204 0.048659 -0.147914
-0.336196 0.058547 -0.154257
-0.330114 0.051822 -0.144214
-0.342229 0.065276 -0.163528
-0.337516 0.076011 -0.169987
-0.331201 0.069125 -0.160716
-0.343821 0.082790 -0.179595
-0.337325 0.087853 -0.185787
-0.332817 0.087101 -0.176401
-0.335845 0.094263 -0.199962
-0.334572 0.106257 -0.208563
-0.339269 0.110801 -0.213434
-0.337906 0.124015 -0.213938
-0.329611 0.124127 -0.210526
-0.335510 0.140314 -0.215528
-0.329705 0.134839 -0.210657
-0.335973 0.152282 -0.223757
-0.336089 0.160514 -0.235809
-0.341677 0.163662 -0.247428
-0.336114 0.169400 -0.252709
-0.330653 0.166812 -0.241114
-0.336860 0.177771 -0.268346
-0.342935 0.180790 -0.278034
-0.336553 0.190368 -0.284950
-0.331910 0.184233 -0.273500
-0.341212 0.196483 -0.295639
-0.335822 0.202782 -0.301348
-0.330192 0.199304 -0.291870
-0.337408 0.211762 -0.317148
-0.343856 0.214181 -0.326572
-0.336968 0.222831 -0.333839
-0.332882 0.216910 -0.321977
-0.341087 0.228740 -0.345070
-0.336121 0.238828 -0.351030
-0.330092 0.232488 -0.341098
-0.342137 0.245186 -0.361937
-0.336464 0.255349 -0.367354
-0.331144 0.249897 -0.356944
-0.341795 0.260721 -0.377638
-0.336232 0.268975 -0.383345
-0.330789 0.265387 -0.372754
-0.336130 0.277185 -0.395062
-0.336143 0.284260 -0.403295
-0.336163 0.292242 -0.412889
-0.336169 0.300078 -0.421156
-0.337049 0.308630 -0.431916
-0.343127 0.311606 -0.442307
-0.337186 0.321524 -0.448300
-0.332106 0.316005 -0.436562
-0.342282 0.326949 -0.459142
-0.336686 0.337145 -0.465535
-0.331253 0.331104 -0.454264
-0.342121 0.343182 -0.476527
-0.336612 0.353570 -0.482445
-0.331110 0.348104 -0.471965
-0.342117 0.359155 -0.493675
-0.336964 0.369948 -0.500201
-0.331122 0.363948 -0.488495
-0.342755 0.375592 -0.509923
-0.336955 0.385150 -0.513440
-0.331751 0.380164 -0.506350
-0.336323 0.396554 -0.521393
-0.336395 0.404573 -0.527621
-0.336414 0.416637 -0.531229
-0.319423 -0.823515 0.122622
-0.319378 -0.825723 0.106090
-0.319472 -0.826439 0.089676
-0.319496 -0.827534 0.073318
-0.319382 -0.829859 0.056961
-0.319358 -0.831244 0.040569
-0.319476 -0.830848 0.024210
-0.319480 -0.830189 -0.041081
-0.319481 -0.829979 -0.057613
-0.319411 -0.830140 -0.074379
-0.319459 -0.829736 -0.090499
-0.319545 -0.829154 -0.106427
-0.319511 -0.829048 -0.123120
-0.319440 -0.829164 -0.139994
-0.319490 -0.828884 -0.156095
-0.319547 -0.828725 -0.172132
-0.319491 -0.829234 -0.188886
-0.319451 -0.829714 -0.205537
-0.319535 -0.829564 -0.221484
-0.319578 -0.829468 -0.237611
-0.319499 -0.829757 -0.254383
-0.319481 -0.829895 -0.270941
-0.319579 -0.829616 -0.286982
-0.319587 -0.829624 -0.303409
-0.319475 -0.830040 -0.320338
-0.319481 -0.830070 -0.336765
-0.319598 -0.829710 -0.352691
-0.319591 -0.829888 -0.369014
-0.319634 -0.829636 -0.418031
-0.319614 -0.829834 -0.434645
-0.319563 -0.830118 -0.451340
-0.319624 -0.829637 -0.467357
-0.319706 -0.829438 -0.483472
-0.320065 -0.812020 -0.545124
-0.320029 -0.764257 -0.515916
-0.320042 -0.698713 -0.481917
-0.324384 -0.485539 -0.281145
-0.316208 -0.485631 -0.272076
-0.324870 -0.403774 -0.214509
-0.316713 -0.403777 -0.206005
-0.325819 -0.271775 -0.100869
-0.317688 -0.271912 -0.093455
-0.324946 -0.255291 -0.101402
-0.316809 -0.255425 -0.093656
-0.320268 -0.237072 -0.104705
-0.313554 -0.242181 -0.094991
-0.326993 -0.231988 -0.114554
-0.326668 -0.222515 -0.114724
-0.313191 -0.205888 -0.094568
-0.324270 -0.188934 -0.100939
-0.316111 -0.189024 -0.092345
-0.326797 -0.172045 -0.098234
-0.318618 -0.172227 -0.091436
-0.326017 -0.155571 -0.098497
-0.317860 -0.155664 -0.092691
-0.325898 -0.139190 -0.098200
-0.317756 -0.139209 -0.092618
-0.323100 -0.106415 -0.084050
-0.314929 -0.106457 -0.077450
-0.322417 -0.089704 -0.084089
-0.314280 -0.089683 -0.078057
-0.324073 -0.072877 -0.082688
-0.315943 -0.072856 -0.077406
-0.318179 -0.040759 -0.067955
-0.311888 -0.047098 -0.063594
-0.319063 -0.023243 -0.076905
-0.324244 -0.017869 -0.083970
-0.321927 -0.006845 -0.085979
-0.313769 -0.006766 -0.079367
-0.317915 0.009256 -0.088413
-0.312443 0.005457 -0.079170
-0.323400 0.013092 -0.101297
-0.318553 0.021167 -0.105967
-0.312494 0.018137 -0.092235
-0.319430 0.029730 -0.116149
-0.318376 0.041617 -0.124895
-0.323096 0.046856 -0.133338
-0.317797 0.057388 -0.138577
-0.312289 0.051968 -0.128671
-0.323340 0.062819 -0.149634
-0.318956 0.074152 -0.154581
-0.312479 0.068099 -0.143830
-0.325430 0.080242 -0.165552
-0.323568 0.092129 -0.170853
-0.314916 0.091419 -0.159389
-0.316247 0.107872 -0.170090
-0.312868 0.102639 -0.161255
-0.325984 0.097045 -0.186923
-0.320004 0.107697 -0.186891
-0.326151 0.097743 -0.196495
-0.323168 0.107752 -0.199918
-0.313687 0.124286 -0.187129
-0.313244 0.118776 -0.175154
-0.321016 0.124204 -0.202331
-0.321251 0.140445 -0.204414
-0.312161 0.140595 -0.193296
-0.314759 0.152461 -0.203237
-0.311371 0.148876 -0.194965
-0.326744 0.145794 -0.212506
-0.321023 0.158671 -0.217942
-0.326201 0.163611 -0.230222
-0.319256 0.173097 -0.236605
-0.315318 0.168348 -0.223340
-0.323203 0.177881 -0.252417
-0.315037 0.185454 -0.252426
-0.312310 0.182459 -0.242985
-0.326282 0.180383 -0.262539
-0.320025 0.190659 -0.268003
-0.324695 0.195293 -0.280916
-0.318289 0.205325 -0.286910
-0.313784 0.200372 -0.273439
-0.323292 0.210763 -0.301669
-0.315156 0.217397 -0.301669
-0.311920 0.215013 -0.292881
-0.326778 0.213784 -0.311053
-0.319483 0.222950 -0.318184
-0.323062 0.227826 -0.330081
-0.317925 0.237587 -0.335920
-0.312190 0.231666 -0.325287
-0.323679 0.243502 -0.345923
-0.319009 0.254814 -0.351344
-0.312775 0.248654 -0.341709
-0.325236 0.261038 -0.361865
-0.319763 0.268893 -0.367290
-0.314336 0.265693 -0.356709
-0.320981 0.277309 -0.382502
-0.327279 0.279638 -0.392265
-0.321226 0.289001 -0.399241
-0.316390 0.282819 -0.387177
-0.326069 0.295048 -0.409564
-0.321059 0.305392 -0.415752
-0.315179 0.299002 -0.406168
-0.326925 0.311855 -0.425696
-0.320340 0.321398 -0.432333
-0.316031 0.315819 -0.421862
-0.324649 0.326929 -0.443290
-0.319435 0.334126 -0.449027
-0.313769 0.330207 -0.438999
-0.319772 0.342690 -0.460104
-0.318556 0.353555 -0.469646
-0.323205 0.359005 -0.476995
-0.318614 0.366313 -0.482953
-0.312317 0.361786 -0.474308
-0.319872 0.375407 -0.494202
-0.319320 0.385515 -0.503547
-0.324485 0.390780 -0.510846
-0.319703 0.401130 -0.517289
-0.313532 0.394175 -0.508178
-0.325642 0.407621 -0.525251
-0.320253 0.416415 -0.528526
-0.314733 0.410661 -0.523202
-0.303091 -0.838423 -0.008935
-0.303330 -0.840578 -0.517643
-0.303369 -0.843919 -0.533173
-0.303572 -0.840910 -0.545035
-0.303733 -0.828444 -0.547709
-0.303172 -0.825549 0.171144
-0.303275 -0.827344 0.155607
-0.303373 -0.828690 0.140081
-0.303301 -0.809710 0.236591
-0.303548 -0.794554 0.270904
-0.303746 -0.715175 -0.484761
-0.308779 -0.485669 -0.263904
-0.300593 -0.485713 -0.255283
-0.309304 -0.403764 -0.197810
-0.299790 -0.387381 -0.174225
-0.307671 -0.338080 -0.149711
-0.298875 -0.321687 -0.109240
-0.306046 -0.271998 -0.084797
-0.297844 -0.272015 -0.079184
-0.305395 -0.255492 -0.085002
-0.297200 -0.255499 -0.079371
-0.305827 -0.237701 -0.089020
-0.296384 -0.239111 -0.079001
-0.296736 -0.222378 -0.078581
-0.311114 -0.231282 -0.096938
-0.305443 -0.205672 -0.086382
-0.297244 -0.205472 -0.078501
-0.307302 -0.188992 -0.084024
-0.299105 -0.188904 -0.077568
-0.307471 -0.172392 -0.083006
-0.299280 -0.172416 -0.077894
-0.302872 -0.154206 -0.083857
-0.297190 -0.158890 -0.079513
-0.303120 -0.106358 -0.069996
-0.303160 -0.089558 -0.071388
-0.303189 -0.040829 -0.061876
-0.308739 -0.036061 -0.065265
-0.303267 -0.022000 -0.068777
-0.297887 -0.026837 -0.063579
-0.306233 0.010338 -0.073248
-0.297015 0.009679 -0.062208
-0.300183 0.021429 -0.072055
-0.296807 0.019358 -0.061629
-0.310903 0.016098 -0.081318
-0.302998 0.025070 -0.088755
-0.306914 0.029949 -0.104784
-0.298165 0.040459 -0.106254
-0.295143 0.033944 -0.096213
-0.310737 0.033194 -0.113344
-0.306992 0.041979 -0.116763
-0.304864 0.057876 -0.122375
-0.300843 0.075080 -0.104767
-0.296936 0.075207 -0.091361
-0.301466 0.074991 -0.121174
-0.309011 0.062898 -0.132933
-0.304783 0.074136 -0.138054
-0.298402 0.087691 -0.104774
-0.296507 0.085122 -0.092741
-0.297467 0.086926 -0.121174
-0.296655 0.086520 -0.137646
-0.307809 0.079059 -0.148400
-0.302649 0.091979 -0.150545
-0.304050 0.108072 -0.156748
-0.310150 0.113490 -0.164244
-0.307126 0.124186 -0.169951
-0.298979 0.124167 -0.158362
-0.298342 0.139693 -0.171488
-0.296047 0.133799 -0.160478
-0.309851 0.129780 -0.181824
-0.306558 0.140492 -0.185073
-0.300980 0.154720 -0.189216
-0.295527 0.149317 -0.177699
-0.307101 0.160782 -0.203231
