0.010735 -0.532444 -0.942869
0.003931 -0.541286 -0.968391
0.003011 -0.503632 -0.885856
0.003107 -0.507354 -0.886466
0.008046 -0.520306 -0.928421
0.007983 -0.523333 -0.937698
0.007479 -0.482240 -0.847424
0.000251 -0.490313 -0.854806
0.008335 -0.503739 -0.895236
0.007971 -0.506144 -0.909542
0.003877 -0.474925 -0.837017
0.003825 -0.471670 -0.836809
0.009297 -0.483773 -0.862861
0.007937 -0.488881 -0.877517
0.008053 -0.459601 -0.818770
0.008008 -0.456442 -0.818411
0.008771 -0.471492 -0.845076
0.007930 -0.473827 -0.858208
0.001460 -0.440565 -0.788841
0.001499 -0.441394 -0.788918
0.007899 -0.457288 -0.827051
0.005101 -0.425376 -0.735066
-0.000588 -0.424479 -0.724176
-0.006789 -0.426009 -0.730437
0.009720 -0.423423 -0.730931
0.007501 -0.440687 -0.798002
0.007962 -0.441461 -0.806299
0.008143 -0.412200 -0.703018
0.008138 -0.404964 -0.694943
0.007939 -0.424050 -0.775862
0.007835 -0.416237 -0.766438
0.008124 -0.396562 -0.687564
0.008181 -0.386749 -0.679377
0.007647 -0.398199 -0.752149
0.007746 -0.406440 -0.757852
0.008292 -0.372139 -0.664052
0.008232 -0.378310 -0.671827
0.007795 -0.383712 -0.732157
0.007768 -0.379499 -0.721893
0.007741 -0.391376 -0.744854
0.008332 -0.363730 -0.652703
0.008324 -0.356329 -0.644379
0.007835 -0.377427 -0.713632
0.009354 -0.367919 -0.697456
0.008180 -0.348111 -0.638773
0.007935 -0.337938 -0.638191
0.007937 -0.347302 -0.671468
0.009585 -0.356961 -0.684098
0.005210 -0.362031 -0.690767
0.008097 -0.324889 -0.621119
0.008145 -0.328628 -0.621522
0.007811 -0.336763 -0.649336
0.007914 -0.343227 -0.663053
0.000858 -0.309977 -0.575663
0.007000 -0.306412 -0.569547
0.007905 -0.325642 -0.629325
0.005467 -0.294778 -0.540632
0.009931 -0.290535 -0.535489
0.006888 -0.301904 -0.598752
0.000260 -0.297202 -0.590513
0.011072 -0.296596 -0.591880
0.006471 -0.292996 -0.584170
0.008025 -0.309932 -0.609557
0.004662 -0.278356 -0.507694
0.009503 -0.274378 -0.502739
0.007736 -0.283629 -0.568329
0.008528 -0.261850 -0.474929
0.008553 -0.257583 -0.467064
0.007740 -0.278107 -0.559653
0.007719 -0.270189 -0.548990
0.004374 -0.245520 -0.443085
0.009361 -0.240613 -0.437827
0.007687 -0.248342 -0.506585
0.007703 -0.252597 -0.515926
0.007696 -0.259987 -0.532104
0.007703 -0.263923 -0.540317
0.008528 -0.231790 -0.423373
0.008501 -0.226070 -0.415221
0.007717 -0.233637 -0.488238
0.007726 -0.241875 -0.498236
0.008528 -0.212914 -0.393406
0.008565 -0.207775 -0.385566
0.007757 -0.228248 -0.479424
0.006362 -0.219266 -0.464428
0.009383 -0.186135 0.020600
0.012800 -0.196366 0.005646
0.016454 -0.195412 0.014568
0.004460 -0.191665 0.005569
0.001076 -0.193987 -0.003877
0.007149 -0.197630 -0.010114
0.004252 -0.191834 -0.094541
0.015027 -0.195250 -0.097028
0.008996 -0.196851 -0.088351
0.008960 -0.186294 -0.104001
0.002948 -0.195469 -0.362392
0.008453 -0.189697 -0.356655
0.006352 -0.211746 -0.450591
0.007760 -0.202812 -0.436299
-0.000017 -0.214826 -0.457541
0.002460 -0.176973 0.027217
0.007404 -0.171201 0.038378
0.013561 -0.180441 0.032055
0.002337 -0.183102 -0.041804
0.000463 -0.181183 -0.031014
0.010337 -0.178700 -0.041068
0.006778 -0.175551 -0.023991
0.002420 -0.182690 -0.055975
0.007961 -0.178023 -0.060418
0.002956 -0.176637 -0.111314
0.013698 -0.180830 -0.113902
0.009079 -0.170190 -0.120379
0.008539 -0.180384 -0.344672
0.008534 -0.173873 -0.336868
0.007830 -0.190427 -0.417190
0.007760 -0.183769 -0.406285
0.007809 -0.196748 -0.427508
0.001552 -0.162428 0.045587
0.012441 -0.165072 0.048114
0.007555 -0.156413 0.050456
0.008106 -0.167816 -0.009650
0.008814 -0.169813 -0.077135
0.003585 -0.166178 -0.087785
0.007474 -0.154662 -0.094061
0.014760 -0.162975 -0.082838
0.004550 -0.158842 -0.126865
0.015345 -0.163298 -0.130073
0.008298 -0.153511 -0.136719
0.008499 -0.165485 -0.327649
0.008456 -0.157834 -0.319760
0.007772 -0.178859 -0.397562
0.007753 -0.170592 -0.384786
0.008427 -0.138730 0.054778
0.008098 -0.152656 0.005310
0.008054 -0.161148 -0.001308
0.001011 -0.147097 -0.100841
0.000953 -0.138279 -0.100746
0.008845 -0.138554 -0.099491
0.001263 -0.143860 -0.143497
0.010183 -0.148851 -0.155233
0.002044 -0.142865 -0.155196
0.003282 -0.142254 -0.173814
0.011431 -0.147479 -0.173854
0.004638 -0.142226 -0.190591
0.012804 -0.146448 -0.190456
0.011937 -0.146274 -0.206843
0.003721 -0.143671 -0.207068
0.007703 -0.147442 -0.223114
0.001752 -0.144977 -0.216887
0.008550 -0.143967 -0.300303
0.008475 -0.149208 -0.308479
0.007894 -0.151679 -0.354880
0.007858 -0.159820 -0.367751
0.007775 -0.165263 -0.376105
0.008334 -0.122348 0.053836
0.000620 -0.129885 -0.100433
0.006834 -0.123727 -0.097655
0.004829 -0.130214 -0.278329
0.009526 -0.127230 -0.272827
0.007872 -0.146955 -0.345950
0.007786 -0.138908 -0.335226
0.012207 -0.106099 0.218364
0.016096 -0.113230 0.209286
0.016115 -0.113234 0.212511
0.012281 -0.106381 0.203761
0.009951 -0.104365 0.049337
0.004484 -0.109852 0.003478
0.015377 -0.116899 0.001593
0.009219 -0.122283 0.005664
0.009131 -0.105565 0.000289
0.008441 -0.107106 -0.089351
0.008157 -0.120087 -0.154331
0.008199 -0.117206 -0.142662
0.008151 -0.121821 -0.172442
0.008248 -0.122306 -0.190141
0.008365 -0.119182 -0.207069
0.008413 -0.115761 -0.216422
0.008361 -0.107157 -0.216515
0.007861 -0.118425 -0.308158
0.007830 -0.126841 -0.318864
0.007745 -0.132525 -0.326793
0.008219 -0.094445 0.843997
0.011980 -0.097806 0.828075
0.013700 -0.097587 0.838365
0.003919 -0.094873 0.828540
0.007781 -0.094921 0.812225
0.013082 -0.097463 0.816274
0.009984 -0.089765 0.268583
0.012992 -0.100126 0.251733
0.014750 -0.098589 0.263979
0.003909 -0.087493 0.251876
0.011806 -0.102253 0.235470
0.003564 -0.090614 0.235963
0.003138 -0.091252 0.220498
0.003273 -0.090829 0.204823
0.004067 -0.090565 0.188926
0.012156 -0.102335 0.188936
0.005736 -0.089856 0.172713
0.013752 -0.099346 0.174154
0.015268 -0.097780 0.163419
0.008490 -0.088293 0.157553
0.005575 -0.097382 0.047376
0.008378 -0.098581 -0.083437
0.008173 -0.093709 -0.075097
0.008112 -0.113160 -0.134328
0.008023 -0.104699 -0.123830
0.008310 -0.098815 -0.215365
0.007934 -0.103583 -0.288980
0.007930 -0.111989 -0.299658
0.004972 -0.078911 0.897954
0.009421 -0.082603 0.892036
0.009636 -0.074327 0.906715
0.015893 -0.080561 0.900554
0.010298 -0.069861 0.298941
0.012832 -0.084362 0.284578
0.015625 -0.081256 0.294411
0.004500 -0.074255 0.284376
0.001568 -0.077701 0.268261
0.000420 -0.079633 0.258206
0.001728 -0.078052 0.151709
0.012894 -0.084544 0.141146
0.004925 -0.074761 0.139615
0.015566 -0.081746 0.132380
0.009359 -0.071182 0.129321
0.009867 -0.091030 0.040622
0.008168 -0.081313 0.031096
0.007692 -0.087273 -0.104299
0.002041 -0.082374 -0.096202
0.012719 -0.081512 -0.097548
0.007599 -0.077151 -0.089892
0.007961 -0.095801 -0.115469
0.008203 -0.089921 -0.212757
0.008133 -0.073026 -0.206531
0.007908 -0.096418 -0.279914
0.007841 -0.088241 -0.273309
0.009085 -0.055779 0.925651
0.008326 -0.065285 0.917946
0.005263 -0.058852 0.303982
0.010829 -0.053750 0.314982
0.016422 -0.064507 0.310051
0.008087 -0.075231 0.022233
0.007991 -0.068054 0.006201
0.007954 -0.065794 -0.003397
0.007940 -0.064650 -0.011300
0.007899 -0.068716 -0.076702
0.008225 -0.062867 -0.200845
0.007753 -0.076628 -0.264621
0.007752 -0.068794 -0.259436
0.009734 -0.040255 0.940369
0.004238 -0.049445 0.934967
0.005410 -0.043022 0.320217
0.016723 -0.048621 0.326318
0.010111 -0.038622 0.329236
0.007928 -0.061266 -0.025630
0.007914 -0.056900 -0.042055
0.007910 -0.059071 -0.057128
0.007887 -0.064457 -0.067897
0.008187 -0.041190 -0.173457
0.000314 -0.048342 -0.181928
0.009162 -0.024304 0.952936
0.004392 -0.033736 0.950602
0.008374 -0.028493 0.337965
0.005321 -0.034122 -0.163433
0.009679 -0.028340 -0.158060
0.007852 -0.048209 -0.245560
0.007903 -0.039635 -0.240256
0.006810 -0.006639 0.959639
0.008534 -0.012615 0.579544
0.014131 -0.014572 0.572940
0.014161 -0.014571 0.573720
0.008594 -0.006682 0.567091
0.008083 -0.015624 0.396559
0.009151 -0.008154 0.404926
0.007908 -0.018238 -0.144819
0.009389 -0.009860 -0.136177
0.007387 -0.024169 -0.231561
0.001766 -0.017534 -0.227033
0.012543 -0.015144 -0.228710
0.007505 -0.008820 -0.223862
0.000344 0.000454 0.966083
0.001032 0.008452 0.966509
0.005202 0.008196 0.613684
0.001253 0.001596 0.606603
0.003731 0.001163 0.531474
0.008859 0.008761 0.534071
0.005346 0.008506 0.451504
0.001845 0.001262 0.444982
0.000682 0.000433 -0.115970
0.007535 0.009728 -0.109374
0.001143 0.018092 0.966627
0.005748 0.023380 -0.040780
0.001697 0.016232 -0.045975
0.008627 0.025870 -0.094549
0.003684 0.015115 -0.096136
0.008088 0.005726 -0.215800
0.008223 0.014139 -0.211279
0.007261 0.023336 0.959703
0.009320 0.040394 0.953597
0.003868 0.021952 0.649366
0.002290 0.025217 0.665149
0.004830 0.022160 0.632594
0.005246 0.025390 0.614188
0.001291 0.033346 0.607313
0.007804 0.039286 -0.095150
0.004698 0.051405 0.951506
0.000341 0.034072 0.670924
0.003958 0.039443 0.678719
0.008028 0.039602 0.595264
0.003607 0.048397 0.589957
0.006146 0.041386 -0.058503
0.000942 0.036871 -0.068588
0.002237 0.049966 -0.096519
0.009518 0.055997 0.941602
0.003511 0.067984 0.935778
0.008614 0.051152 0.582446
0.007870 0.053768 0.567008
0.009296 0.050598 0.550182
0.009291 0.049900 0.536051
0.009176 0.049506 0.517846
0.004764 0.049216 0.500227
0.001181 0.048560 0.483275
0.000408 0.048166 0.468084
0.002947 0.049074 0.452716
0.008392 0.050682 0.434858
0.007841 0.053887 0.419092
0.007291 0.057413 0.402265
0.001517 0.064888 0.396232
0.002564 0.055854 0.042325
0.004119 0.058528 0.058087
0.004595 0.055730 0.024941
0.006030 0.054627 0.007646
0.006341 0.053484 -0.008875
0.006799 0.052451 -0.024717
0.007204 0.051544 -0.040259
0.004765 0.050761 -0.053156
0.007711 0.051073 -0.105409
0.008509 0.060036 -0.122495
0.003546 0.067465 -0.128470
0.002254 0.068055 -0.227370
0.013030 0.064319 -0.228845
0.007798 0.058661 -0.224310
0.007870 0.074042 -0.232507
0.009441 0.071692 0.925301
0.004570 0.085394 0.920703
0.001332 0.066467 0.688862
0.004414 0.072352 0.696998
0.003151 0.066016 0.384009
0.003189 0.066639 0.367425
0.004481 0.071691 0.350277
0.002239 0.081754 0.344516
0.008559 0.073494 -0.139163
0.002764 0.082681 -0.146854
0.010000 0.090263 0.909808
0.004672 0.099646 0.904659
0.003140 0.089440 0.713813
0.001899 0.083741 0.702886
0.007970 0.087953 0.334615
0.008385 0.098086 0.327063
0.002214 0.085475 0.075638
0.004649 0.090867 0.090504
0.000290 0.082889 0.067069
0.000762 0.098549 -0.030111
0.005464 0.105690 -0.024538
0.009276 0.089839 -0.156531
0.004927 0.097559 -0.165069
0.009450 0.101282 -0.171867
0.015797 0.097283 -0.164014
0.009214 0.105293 0.892409
0.003020 0.114499 0.885591
0.005381 0.106353 0.745784
0.002560 0.101068 0.730120
0.000894 0.098822 0.721068
0.008893 0.107205 0.316473
0.003739 0.114584 0.310801
0.001965 0.102583 0.096755
0.005246 0.106959 0.106727
0.008520 0.119355 0.021888
0.003354 0.111569 0.016444
0.006403 0.111733 -0.191460
-0.000050 0.115298 -0.198810
0.006467 0.118628 -0.205607
0.010744 0.115342 -0.197447
0.006055 0.116486 0.875581
0.009454 0.118324 0.859420
0.007109 0.123480 0.844209
0.001074 0.130083 0.837867
0.007069 0.123292 0.811897
0.009396 0.118836 0.797937
0.007186 0.118551 0.779381
0.005204 0.117014 0.762949
0.002277 0.115504 0.752009
0.008787 0.118547 0.302134
0.008140 0.127153 0.289193
0.008145 0.132909 0.281318
0.002750 0.117655 0.112340
0.008800 0.122223 0.124521
0.008140 0.135057 0.041247
0.008078 0.127609 0.033498
0.008202 0.127168 -0.222319
0.007089 0.139715 -0.229908
0.001661 0.130309 0.826901
0.001027 0.130099 0.815941
0.008179 0.141287 0.270853
0.008234 0.147891 0.263071
0.008824 0.138397 0.140573
0.004128 0.133460 0.129184
0.008215 0.143381 0.048412
0.008218 0.154795 0.051741
0.004477 0.138533 -0.021548
0.004022 0.132826 -0.041111
0.003867 0.133027 -0.059436
0.005945 0.138992 -0.077090
0.002636 0.148739 -0.082730
0.000943 0.145616 -0.232373
0.000933 0.148254 -0.232359
0.006961 0.152678 -0.224315
0.008172 0.153136 0.251973
0.008058 0.159632 0.238609
0.008033 0.165608 0.230568
0.005101 0.154522 0.158054
0.002892 0.148621 0.146442
0.008254 0.171220 0.054037
0.009131 0.155939 0.004540
0.004057 0.150293 -0.006111
0.001080 0.147807 -0.015162
0.008358 0.155050 -0.091909
0.008379 0.172502 -0.097481
0.004182 0.166923 -0.173633
0.012307 0.163831 -0.173280
0.007551 0.163910 -0.153495
0.001826 0.165826 -0.158928
0.014520 0.163758 -0.184081
0.008705 0.168287 -0.189467
0.008072 0.161912 -0.210295
0.008011 0.167329 -0.201827
0.008023 0.173775 0.222158
0.008023 0.180805 0.214124
0.001639 0.164492 0.164601
0.004723 0.169985 0.174980
0.008229 0.187393 0.052067
0.009299 0.189401 -0.090027
0.007887 0.174143 -0.260263
0.007967 0.168760 -0.272038
0.008134 0.166803 -0.288956
0.008170 0.167670 -0.305191
-0.002190 0.176948 -0.314497
0.008071 0.174712 -0.316016
0.008009 0.187257 -0.323794
0.007935 0.185148 0.203504
0.006937 0.182455 0.189656
0.000916 0.179382 0.181393
0.008215 0.197800 0.048686
0.009118 0.200809 -0.077256
0.004379 0.196196 -0.083078
0.007936 0.186226 -0.137861
0.007907 0.192078 -0.127322
0.007972 0.185641 -0.156033
0.008031 0.186892 -0.174338
0.008022 0.183763 -0.189696
0.008029 0.183052 -0.205511
0.009734 0.189895 -0.224902
0.009664 0.190424 -0.238408
0.016217 0.194963 -0.231625
0.016217 0.194963 -0.231631
0.007941 0.182389 -0.252291
0.007999 0.196079 -0.329177
0.008111 0.206327 0.040300
0.008074 0.213855 0.032591
0.007703 0.209281 -0.110493
0.007818 0.200875 -0.118776
0.009149 0.205774 -0.339852
0.004398 0.211871 -0.345739
0.008054 0.222355 0.023282
0.008063 0.229058 0.015511
0.007741 0.215732 -0.101711
0.007711 0.223972 -0.091221
0.009140 0.216481 -0.353431
0.008003 0.225474 -0.367199
0.008012 0.229450 -0.375159
0.007919 0.231661 0.005910
0.007749 0.234866 -0.009562
0.007683 0.237427 -0.024924
0.007661 0.239229 -0.040760
0.007659 0.237299 -0.056239
0.007671 0.232393 -0.072035
0.007678 0.229208 -0.082505
0.007878 0.235153 -0.387904
0.007815 0.241636 -0.400212
-0.003661 0.243372 -0.397563
0.007872 0.245813 -0.408096
0.007783 0.252734 -0.420657
-0.000714 0.260488 -0.428449
0.007678 0.259069 -0.430853
0.007716 0.262675 -0.438904
0.007738 0.268447 -0.453199
0.007767 0.274515 -0.464742
-0.001261 0.276578 -0.462091
0.007825 0.279369 -0.472926
0.007092 0.287616 -0.487645
0.001145 0.293550 -0.493876
0.007227 0.296115 -0.501858
0.007843 0.302815 -0.518871
0.007922 0.300957 -0.531357
-0.001052 0.303644 -0.534023
0.007903 0.312141 -0.539056
0.007903 0.307309 -0.538514
0.007798 0.320451 -0.546971
0.007788 0.328605 -0.555022
0.008091 0.337564 -0.569323
0.002799 0.343070 -0.575504
0.008171 0.346168 -0.583849
0.007862 0.354956 -0.598324
0.007967 0.360179 -0.606159
0.007894 0.363895 -0.617489
0.008287 0.368185 -0.635243
0.002518 0.375893 -0.640932
0.002800 0.376827 -0.650151
0.001181 0.377183 -0.658528
0.008072 0.390869 -0.684875
-0.006833 0.389287 -0.680846
0.007975 0.400212 -0.684933
0.007932 0.409081 -0.690590
0.007823 0.417549 -0.694131
0.007860 0.432954 -0.699829
0.007924 0.447059 -0.704830
0.006455 0.455439 -0.717088
-0.005104 0.456530 -0.712740
0.000136 0.457469 -0.722942
0.006516 0.457745 -0.730695
0.007788 0.458712 -0.747242
0.007833 0.460079 -0.764516
0.007908 0.462433 -0.781294
0.007968 0.465719 -0.797650
0.007982 0.463446 -0.809342
0.007925 0.470452 -0.817014
0.007934 0.476928 -0.817407
0.007867 0.485258 -0.829342
0.007935 0.491263 -0.837251
0.007871 0.497656 -0.847216
0.007779 0.504652 -0.857611
0.007806 0.509872 -0.865603
0.007763 0.518148 -0.878026
0.007795 0.524132 -0.885975
0.007822 0.529207 -0.896221
0.007871 0.536300 -0.909215
0.007953 0.541387 -0.917252
0.007920 0.548566 -0.929408
0.007890 0.554671 -0.939475
0.007960 0.558090 -0.947480
0.007948 0.562158 -0.962351
0.007985 0.560153 -0.974414
0.007702 0.573350 -0.982057
0.007803 0.567931 -0.981794
0.007684 0.573231 -0.986157
0.024688 -0.554971 -0.980853
0.009443 -0.557968 -0.978370
0.024711 -0.556981 -0.981210
0.024625 -0.536354 -0.946413
0.009049 -0.544137 -0.944731
0.024752 -0.542737 -0.946966
0.023913 -0.537863 -0.962060
0.029364 -0.543485 -0.969354
0.024103 -0.544504 -0.962807
0.029072 -0.540409 -0.968917
0.024611 -0.555079 -0.986253
0.024653 -0.521308 -0.919998
0.024651 -0.523366 -0.920094
0.024658 -0.509634 -0.898768
0.008512 -0.510080 -0.896036
0.024579 -0.505037 -0.898277
0.024526 -0.520654 -0.928841
0.024436 -0.522842 -0.938496
0.024526 -0.486946 -0.865838
0.007041 -0.493373 -0.863354
0.024649 -0.493410 -0.866440
0.023181 -0.489379 -0.880090
0.028286 -0.495468 -0.887363
0.023362 -0.495884 -0.880777
0.028015 -0.492714 -0.886945
0.024417 -0.505835 -0.909965
0.024748 -0.470293 -0.845273
0.024879 -0.479318 -0.845968
0.030906 -0.470047 -0.837985
0.031028 -0.474110 -0.838154
0.024475 -0.456298 -0.819347
0.024512 -0.459167 -0.819633
0.024341 -0.473448 -0.858942
0.024512 -0.444251 -0.801619
0.007615 -0.444090 -0.798339
0.024459 -0.440652 -0.801235
0.024340 -0.457168 -0.828697
0.024661 -0.426247 -0.749361
0.015895 -0.424480 -0.740608
0.009588 -0.426929 -0.746955
0.024666 -0.424270 -0.741246
0.024377 -0.441178 -0.806868
0.024563 -0.403964 -0.696755
0.024585 -0.410531 -0.704692
0.024311 -0.415729 -0.767035
0.024374 -0.423464 -0.776651
0.024576 -0.386167 -0.680233
0.024554 -0.395473 -0.688319
0.024194 -0.406201 -0.758513
0.024133 -0.397982 -0.752087
0.024642 -0.377665 -0.672415
0.024696 -0.371604 -0.664712
0.024245 -0.379687 -0.721175
0.024240 -0.384116 -0.732186
0.024167 -0.391373 -0.744723
0.024720 -0.355588 -0.645346
0.024746 -0.363152 -0.653598
0.022977 -0.367906 -0.697744
0.016005 -0.362497 -0.690564
0.016309 -0.362496 -0.690566
0.022791 -0.356900 -0.684138
0.027341 -0.361788 -0.691034
0.024269 -0.377256 -0.712932
0.024397 -0.337588 -0.638739
0.024598 -0.347269 -0.639220
0.024362 -0.347317 -0.671312
0.024526 -0.324571 -0.621654
0.024583 -0.328438 -0.622040
0.024270 -0.336404 -0.649476
0.024322 -0.343098 -0.662993
0.024598 -0.308342 -0.582117
0.011753 -0.308684 -0.580286
0.007279 -0.311110 -0.585640
0.024554 -0.310750 -0.590297
0.024325 -0.325305 -0.629880
0.016889 -0.293420 -0.543386
0.016274 -0.293420 -0.543386
0.009829 -0.298116 -0.550252
0.023241 -0.296808 -0.550289
0.023149 -0.289519 -0.537017
0.027850 -0.293634 -0.542953
0.024417 -0.309423 -0.610184
0.024345 -0.302080 -0.601836
0.024689 -0.276434 -0.512119
0.015424 -0.276567 -0.511690
0.009340 -0.281399 -0.518155
0.024624 -0.279972 -0.520403
0.024202 -0.282947 -0.569910
0.024246 -0.290478 -0.582812
0.024279 -0.295837 -0.593077
0.021946 -0.260756 -0.477493
0.026591 -0.257000 -0.471688
0.024169 -0.269084 -0.549996
0.024155 -0.277012 -0.561085
0.024885 -0.243044 -0.447854
0.015126 -0.243560 -0.446488
0.009326 -0.249181 -0.452892
0.024842 -0.247443 -0.456082
0.023680 -0.250940 -0.515416
0.017707 -0.248312 -0.506759
0.028618 -0.246774 -0.508755
0.024511 -0.239939 -0.498696
0.024141 -0.258561 -0.532156
0.024122 -0.263238 -0.541248
0.024873 -0.224849 -0.417329
0.024889 -0.230444 -0.425347
0.020406 -0.232966 -0.488986
0.031301 -0.231351 -0.490576
0.025189 -0.227998 -0.482723
0.026777 -0.207694 -0.389524
0.022141 -0.211745 -0.395253
0.017271 -0.215270 -0.456873
0.010800 -0.215290 -0.456834
0.023379 -0.218440 -0.465551
0.028197 -0.213873 -0.459186
0.023335 -0.210165 -0.450558
0.020330 -0.186895 0.020493
0.016945 -0.195418 0.014568
0.025000 -0.198067 -0.374576
0.013873 -0.194151 -0.365024
0.008641 -0.198959 -0.371203
0.025052 -0.193618 -0.366499
0.024200 -0.201596 -0.437984
0.018086 -0.180560 0.032063
0.020598 -0.171351 0.037495
0.024913 -0.179625 -0.345641
0.024914 -0.173150 -0.337910
0.018421 -0.183312 -0.406985
0.024074 -0.187174 -0.416239
0.029280 -0.181250 -0.409676
0.023988 -0.177213 -0.400743
0.024205 -0.195581 -0.429212
0.017933 -0.165283 0.048118
0.020299 -0.155703 0.049980
0.021885 -0.171983 -0.007691
0.020055 -0.176265 -0.022899
0.018513 -0.179141 -0.041015
0.019227 -0.178260 -0.059173
0.021025 -0.172065 -0.077177
0.017466 -0.163071 -0.082813
0.024869 -0.158091 -0.320227
0.024885 -0.164716 -0.328082
0.024189 -0.168482 -0.388293
0.021876 -0.139405 0.051807
0.022085 -0.155722 0.008697
0.018024 -0.160882 -0.002247
0.020054 -0.156722 -0.094040
0.018264 -0.138931 -0.099472
0.025774 -0.148945 -0.306109
0.021160 -0.143998 -0.300413
0.032389 -0.145943 -0.296959
0.024674 -0.137494 -0.289203
0.019788 -0.151058 -0.356211
0.024837 -0.155375 -0.366705
0.030655 -0.148542 -0.360253
0.024834 -0.145282 -0.350461
0.024181 -0.163647 -0.379772
0.020592 -0.123089 0.051202
0.018522 -0.122526 -0.098257
0.015670 -0.129279 -0.280905
0.009617 -0.135064 -0.287690
0.016919 -0.129292 -0.280906
0.027928 -0.130746 -0.278094
0.023267 -0.126449 -0.272727
0.024215 -0.136729 -0.338067
0.018673 -0.106505 0.218463
0.016458 -0.113243 0.212536
0.018398 -0.109348 0.049341
0.018667 -0.105788 -0.092990
0.020371 -0.124665 -0.154438
0.019741 -0.122127 -0.138232
0.021518 -0.125380 -0.172589
0.022144 -0.125565 -0.190129
0.022657 -0.124161 -0.206971
0.024272 -0.121351 -0.222226
0.022345 -0.107626 -0.223647
0.023881 -0.122263 -0.318469
0.018088 -0.117859 -0.309087
0.028904 -0.115158 -0.312129
0.023848 -0.110616 -0.302837
0.024144 -0.130608 -0.329594
0.017596 -0.090723 0.845067
0.016450 -0.097720 0.838472
0.020027 -0.090457 0.268634
0.018125 -0.098726 0.264032
0.020246 -0.105413 0.040342
0.016317 -0.098313 0.047269
0.017589 -0.090628 0.034981
0.018327 -0.090684 -0.076508
0.016701 -0.099160 -0.083363
0.017133 -0.114257 -0.133085
0.019377 -0.108187 -0.121746
0.025455 -0.092399 -0.222983
0.024296 -0.101751 -0.291400
0.016926 -0.071544 0.906964
0.016464 -0.080575 0.900560
0.018680 -0.071219 0.300074
0.017826 -0.081301 0.294447
0.016376 -0.082244 0.030991
0.017493 -0.096760 -0.115146
0.018095 -0.091208 -0.104772
0.018908 -0.087572 -0.213535
0.021014 -0.073646 -0.210873
0.024235 -0.087076 -0.274130
0.024245 -0.095315 -0.282710
0.016496 -0.056856 0.920078
0.016539 -0.064841 0.917283
0.017481 -0.072968 0.862734
0.015802 -0.067105 0.852211
0.015802 -0.067063 0.857367
0.017512 -0.073303 0.846849
0.014959 -0.058461 0.846592
0.016314 -0.063889 0.841078
0.017196 -0.075502 0.797601
0.015141 -0.067774 0.797530
0.015347 -0.067649 0.810135
0.017231 -0.073562 0.815065
0.017278 -0.072878 0.780929
0.015634 -0.066978 0.786798
0.015373 -0.058254 0.783541
0.016448 -0.058251 0.774689
0.017731 -0.055242 0.316048
0.016946 -0.064522 0.310057
0.018209 -0.079196 0.022248
0.019402 -0.075642 0.006745
0.018238 -0.072860 -0.007668
0.016174 -0.066112 -0.013093
0.018391 -0.074018 -0.073542
0.017415 -0.079164 -0.089015
0.016445 -0.081929 -0.097524
0.021985 -0.058415 -0.206514
0.024168 -0.069068 -0.258066
0.024134 -0.077039 -0.265488
0.015060 -0.041680 0.926742
0.016305 -0.047783 0.922122
0.017296 -0.056841 0.896422
0.015907 -0.050721 0.902864
0.015876 -0.050627 0.906178
0.016839 -0.056207 0.910659
0.016547 -0.046199 0.891988
0.015522 -0.041241 0.896983
0.017005 -0.059114 0.880110
0.014369 -0.059128 0.863042
0.015019 -0.054306 0.874877
0.016392 -0.064965 0.868334
0.016346 -0.058570 0.829328
0.015970 -0.053060 0.834115
0.016890 -0.043648 0.828424
0.015980 -0.049825 0.833906
0.015662 -0.047432 0.783945
0.016422 -0.042118 0.778909
0.016544 -0.058310 0.763688
0.013137 -0.055203 0.744806
0.015101 -0.053058 0.758241
0.016446 -0.063050 0.745621
0.011430 -0.058084 0.729376
0.016249 -0.064021 0.735641
0.016959 -0.048633 0.326322
0.017440 -0.040594 0.329640
0.017098 -0.064580 -0.025190
0.018413 -0.062256 -0.041397
0.017966 -0.063208 -0.056689
0.016698 -0.065702 -0.067218
0.018108 -0.053430 -0.195479
0.011223 -0.047987 -0.184342
0.006848 -0.053666 -0.190216
0.021152 -0.042559 -0.190256
0.016644 -0.025531 0.941948
0.015018 -0.030321 0.946462
0.016509 -0.035828 0.936095
0.016299 -0.048005 0.917365
0.015148 -0.042329 0.912257
0.015180 -0.041420 0.880100
0.016588 -0.046296 0.885861
0.016984 -0.027373 0.861339
0.015917 -0.033748 0.868015
0.014441 -0.041178 0.862790
0.016240 -0.035046 0.856701
0.017419 -0.025269 0.335092
0.025207 -0.026164 -0.172739
0.016088 -0.033938 -0.164652
0.019003 -0.037854 -0.176253
0.018708 -0.048216 -0.245715
0.024865 -0.043060 -0.236119
0.016918 -0.009165 0.951301
0.016717 -0.020096 0.950462
0.016431 -0.009658 0.890702
0.015282 -0.009558 0.900286
0.015494 -0.026824 0.896698
0.016393 -0.022098 0.890864
0.018737 -0.006940 0.579492
0.016651 -0.014577 0.573650
0.016321 -0.007567 0.396896
0.016160 -0.015116 0.393900
0.017288 -0.009426 -0.144320
0.016499 -0.017856 -0.147901
0.009226 0.007574 0.959599
0.016989 0.006734 0.951894
0.016154 -0.017194 0.935178
0.015551 -0.010830 0.929469
0.015666 -0.006401 0.938159
0.016718 -0.010807 0.942777
0.016232 0.003388 0.887297
0.014669 0.008115 0.893929
0.018179 -0.001801 0.591763
0.012348 0.008956 0.602492
0.007506 -0.003277 0.596781
0.018870 0.008905 0.594343
0.013551 0.007750 0.403882
0.016356 0.002282 0.398363
0.016657 -0.008466 0.368226
0.015186 -0.004093 0.350388
0.014990 -0.003521 0.363030
0.016694 -0.011940 0.350433
0.017064 -0.008545 0.335389
0.016035 -0.002660 0.341866
0.015338 0.006908 0.340559
0.016977 0.006802 0.332959
0.017733 0.005894 -0.138130
0.015812 -0.000271 -0.132708
0.017864 -0.015533 -0.228711
0.021642 -0.009703 -0.221029
0.016933 0.022938 0.951574
0.015901 0.014360 0.883792
0.016784 0.008042 0.877745
0.016857 0.023206 0.876007
0.015735 0.023134 0.883877
0.016331 0.002792 0.728902
0.015475 0.011145 0.729810
0.015737 0.013121 0.739821
0.016679 0.007147 0.745292
0.016156 0.006224 0.712253
0.015582 0.011568 0.718135
0.016266 0.022946 0.709285
0.015445 0.022973 0.718068
0.012419 0.024111 0.601407
0.017993 0.023845 0.593394
0.016350 0.023466 0.527793
0.013421 0.023577 0.536512
0.016222 0.015487 0.524792
0.016455 0.002097 0.385774
0.014106 0.010011 0.386030
0.012704 0.006452 0.368386
0.016365 0.000307 0.374569
0.014562 0.023237 0.338710
0.016606 0.023161 0.331760
0.016532 0.024904 -0.107381
0.014374 0.020705 -0.102732
0.016252 0.014591 -0.113399
0.021753 0.008346 -0.206664
0.018570 0.003262 -0.215417
0.016675 0.034799 0.950604
0.015376 0.039642 0.884219
0.016796 0.039658 0.875780
0.015693 0.033690 0.720132
0.016475 0.039271 0.713718
0.016891 0.034957 0.590544
0.014827 0.039272 0.540554
0.016169 0.039227 0.532109
0.016166 0.039974 0.402441
0.015128 0.035086 0.407695
0.013502 0.024210 0.402855
0.016123 0.029998 0.396496
0.016298 0.035397 0.330404
0.014475 0.040528 0.335312
0.016060 0.031404 -0.098821
0.016059 0.031756 -0.098801
0.015418 0.045926 0.947234
0.016598 0.040052 0.942970
0.016372 0.049523 0.938153
0.015708 0.057444 0.879261
0.016456 0.052681 0.874104
0.016128 0.044646 0.726316
0.013919 0.055179 0.730838
0.015409 0.039306 0.731742
0.016138 0.048803 0.726211
0.017873 0.039934 0.582214
0.014492 0.045679 0.587983
0.017040 0.049791 0.578149
0.015855 0.047480 0.531280
0.016342 0.040359 0.517568
0.012718 0.040605 0.499683
0.015500 0.046539 0.512169
0.016349 0.035815 0.505277
0.015940 0.047121 0.428971
0.013593 0.040918 0.435406
0.015934 0.047827 0.428939
0.016863 0.040226 0.322617
0.015942 0.046337 0.328570
0.015950 0.048495 0.328393
0.016994 0.054611 0.321748
0.016755 0.038190 -0.105825
0.013016 0.043022 -0.100061
0.016563 0.048943 -0.110227
0.016438 0.049758 0.932094
0.015128 0.056788 0.925835
0.016091 0.063519 0.920671
0.016071 0.064433 0.920603
0.016955 0.055328 0.862147
0.015855 0.063527 0.863089
0.017219 0.057421 0.846865
0.015916 0.063964 0.853997
0.014749 0.073358 0.847886
0.016387 0.068011 0.842944
0.017376 0.057968 0.796169
0.016031 0.064496 0.788860
0.016030 0.064500 0.790058
0.017029 0.057788 0.782409
0.016150 0.065383 0.777736
0.014221 0.071929 0.782259
0.016537 0.055742 0.765302
0.014390 0.055918 0.746711
0.015308 0.061261 0.759897
0.016159 0.050050 0.752360
0.014149 0.059214 0.712258
0.016444 0.050707 0.712861
0.011715 0.055882 0.696337
0.016481 0.050420 0.701850
0.016850 0.049596 0.566926
0.016089 0.047965 0.554718
0.015877 0.047463 0.523738
0.015992 0.047892 0.420173
0.016116 0.048106 0.402896
0.016129 0.047995 0.390967
0.011807 0.054369 0.384571
0.016621 0.059199 0.329358
0.012549 0.072161 0.337480
0.014146 0.054673 0.335184
0.017103 0.072118 0.329465
0.017711 0.057543 0.120149
0.015418 0.061839 0.104382
0.016122 0.064133 0.113480
0.016851 0.053339 0.104455
0.014784 0.059089 0.088990
0.016501 0.050672 0.088724
0.016353 0.049444 0.081048
0.012466 0.056065 0.075464
0.018099 0.052275 -0.121701
0.020549 0.057901 -0.137316
0.014310 0.063725 -0.131499
0.018065 0.068641 -0.142710
0.016345 0.070740 0.912239
0.015162 0.075178 0.916356
0.016467 0.083946 0.905531
0.016560 0.070019 0.829972
0.015411 0.078484 0.830196
0.014475 0.076118 0.813847
0.016351 0.067638 0.813724
0.016099 0.064887 0.801047
0.013914 0.071574 0.796379
0.016151 0.065312 0.771134
0.013766 0.071889 0.764337
0.017035 0.088610 0.327970
0.013569 0.079630 -0.148724
0.023296 0.073713 -0.154263
0.019810 0.089182 -0.160436
0.017093 0.089069 0.895365
0.015310 0.094854 0.899751
0.016886 0.099873 0.889263
0.016633 0.097058 0.326376
0.016243 0.097257 -0.164007
0.014081 0.109895 0.876301
0.016841 0.101671 0.877720
0.016334 0.100351 0.868358
0.015552 0.106618 0.861438
0.016190 0.112731 0.855487
0.016187 0.113738 0.855220
0.017116 0.100135 0.317620
0.018261 0.106247 0.302447
0.014584 0.111993 0.308231
0.017434 0.116176 0.297538
0.016093 0.113855 -0.047849
0.012490 0.120475 -0.041833
0.010523 0.107506 -0.041646
0.016090 0.113245 -0.047842
0.019586 0.100035 -0.173014
0.025068 0.106074 -0.191699
0.018399 0.115101 -0.197420
0.016323 0.114186 0.845894
0.009829 0.122548 0.828334
0.016398 0.114410 0.829923
0.016257 0.114053 0.813582
0.016141 0.113791 0.805106
0.018148 0.121574 0.284571
0.016972 0.131075 0.278825
0.017739 0.123144 0.186165
0.015695 0.129147 0.170868
0.015875 0.129496 0.179897
0.017148 0.121050 0.170527
0.015826 0.129442 0.161843
0.017345 0.123124 0.155587
0.013590 0.138170 0.156810
0.016500 0.132199 0.152024
0.016544 0.116101 0.130622
0.014850 0.127106 0.134913
0.017148 0.121596 0.139482
0.016612 0.128948 0.031787
0.018243 0.138415 0.037328
0.016093 0.113851 -0.050598
0.012300 0.120470 -0.057655
0.016990 0.138003 -0.096616
0.013416 0.138538 -0.089171
0.008789 0.122628 -0.091362
0.016310 0.128933 -0.096823
0.024278 0.118090 -0.207304
0.024565 0.126570 -0.221251
0.024606 0.138971 -0.227455
0.023239 0.136288 -0.286489
0.027712 0.129666 -0.281048
0.023179 0.124365 -0.272960
0.016643 0.133055 -0.276753
0.018015 0.137110 0.267620
0.017028 0.146884 0.261972
0.016476 0.132004 0.145409
0.016936 0.144719 0.047878
0.018405 0.154487 0.049183
0.018090 0.137559 0.008392
0.011592 0.137994 -0.004988
0.015084 0.142876 0.002645
0.016205 0.131715 0.001160
0.017476 0.155003 -0.098328
0.024536 0.153061 -0.221147
0.024100 0.158490 -0.318225
0.031619 0.148837 -0.310831
0.025589 0.145565 -0.301486
0.020716 0.153799 -0.307201
0.017400 0.148479 0.252066
0.016976 0.154030 0.234268
0.016109 0.162435 0.227901
0.019457 0.170891 0.050126
0.017607 0.171874 -0.099503
0.025909 0.170316 -0.200639
0.024461 0.161308 -0.209649
0.023222 0.169624 -0.336405
0.027577 0.163086 -0.330768
0.016477 0.166290 -0.324685
0.016474 0.169050 0.217772
0.016161 0.178722 0.211512
0.018245 0.187162 0.049103
0.018199 0.187963 -0.096346
0.024388 0.169814 -0.271972
0.024314 0.173808 -0.258881
0.024535 0.171283 -0.288998
0.023582 0.173752 -0.304000
0.017496 0.175373 -0.316029
0.023405 0.187379 -0.320289
0.028464 0.181768 -0.308461
0.018695 0.182945 -0.357195
0.029673 0.181186 -0.361186
0.024338 0.178194 -0.351497
0.024372 0.187069 -0.367801
0.016504 0.180039 0.203512
0.016525 0.180259 0.194826
0.016863 0.196281 0.047863
0.015041 0.196856 -0.084705
0.018835 0.202488 -0.090664
0.020316 0.187850 -0.123464
0.019340 0.183600 -0.137691
0.024067 0.182745 -0.157627
0.024391 0.184931 -0.174101
0.025875 0.182053 -0.190470
0.025910 0.181472 -0.203742
0.022759 0.188192 -0.224679
0.016222 0.194963 -0.231625
0.024342 0.181260 -0.250859
0.022726 0.188313 -0.238300
0.024408 0.197210 -0.327804
0.018294 0.202628 0.037315
0.016737 0.212678 0.031676
0.018158 0.199771 -0.117642
0.018996 0.204606 -0.107212
0.016222 0.194963 -0.231631
0.022801 0.206605 -0.339024
0.016436 0.210992 -0.346817
0.015246 0.210995 -0.346824
0.022918 0.217725 -0.353452
0.027381 0.212851 -0.344310
0.025168 0.219803 -0.416827
0.031037 0.214264 -0.409600
0.025094 0.210815 -0.400889
0.020023 0.215953 -0.406403
0.018401 0.218996 0.021195
0.016899 0.228753 0.015522
0.017325 0.214841 -0.101003
0.018173 0.220179 -0.089264
0.024436 0.226278 -0.365689
0.024439 0.230095 -0.373742
0.021470 0.235333 -0.439389
0.032444 0.231511 -0.441557
0.026040 0.228732 -0.433736
0.026153 0.241156 -0.448757
0.017634 0.229820 0.005932
0.018179 0.231182 -0.009088
0.018635 0.232538 -0.024134
0.019111 0.233755 -0.040448
0.019104 0.232881 -0.056223
0.018120 0.230418 -0.071960
0.016827 0.228928 -0.082492
0.024327 0.236379 -0.387972
0.024272 0.242182 -0.399058
0.024308 0.246216 -0.406992
0.024981 0.252751 -0.466215
0.030854 0.246979 -0.459485
0.019730 0.249443 -0.455389
0.025450 0.254675 -0.422141
0.020492 0.258606 -0.431675
0.025240 0.262359 -0.436924
0.031653 0.260638 -0.428155
0.024219 0.268768 -0.453287
0.024231 0.274786 -0.464286
0.024300 0.279481 -0.472451
0.024136 0.287666 -0.487425
0.018511 0.291353 -0.495758
0.012126 0.291342 -0.495709
0.024009 0.296550 -0.501980
0.029547 0.293799 -0.493485
0.025273 0.304593 -0.520361
0.022710 0.303795 -0.535860
0.025011 0.312415 -0.536890
0.031380 0.310146 -0.526411
0.019915 0.313080 -0.553538
0.030982 0.312188 -0.558143
0.025110 0.309309 -0.548892
0.025087 0.317058 -0.565165
0.024241 0.321025 -0.546864
0.024251 0.328653 -0.554905
0.023878 0.337678 -0.569406
0.013669 0.341783 -0.577600
0.018071 0.341801 -0.577645
0.023806 0.346519 -0.583966
0.029183 0.343188 -0.575507
0.024345 0.355257 -0.598102
0.024427 0.360303 -0.605899
0.028289 0.370937 -0.648614
0.029164 0.362354 -0.641506
0.023938 0.359095 -0.633774
0.023838 0.368402 -0.635282
0.024360 0.364318 -0.617492
0.029657 0.377050 -0.650118
0.029745 0.376039 -0.640894
0.031574 0.377482 -0.658204
0.031601 0.376646 -0.658151
0.024430 0.400284 -0.684875
0.024541 0.390920 -0.684615
0.024998 0.398284 -0.713615
0.030744 0.394209 -0.706756
0.024941 0.392120 -0.698487
0.019574 0.394254 -0.704189
0.024406 0.408823 -0.690647
0.024305 0.417394 -0.694281
0.024322 0.432995 -0.700079
0.024357 0.446787 -0.704908
0.025771 0.449526 -0.794027
0.032067 0.444508 -0.786501
0.025754 0.441892 -0.780021
0.021047 0.444824 -0.785947
0.024307 0.454384 -0.715596
0.011099 0.457007 -0.725722
0.024213 0.456871 -0.727805
0.024248 0.457680 -0.734936
0.024251 0.458400 -0.747082
0.024325 0.459703 -0.764541
0.024383 0.462435 -0.781229
0.024423 0.465933 -0.797519
0.024435 0.463570 -0.809650
0.024398 0.476781 -0.817854
0.024414 0.470492 -0.817434
0.024345 0.485171 -0.830200
0.024409 0.490715 -0.838024
0.024333 0.496702 -0.847180
0.024223 0.504261 -0.858172
0.024246 0.509658 -0.866136
0.024219 0.518003 -0.878700
0.024266 0.523726 -0.886635
0.024295 0.528563 -0.896286
0.024321 0.536045 -0.909910
0.024386 0.541078 -0.917908
0.024361 0.548147 -0.929439
0.024331 0.554535 -0.939921
0.024390 0.558117 -0.947898
0.024392 0.562421 -0.962409
0.024407 0.560289 -0.975262
0.024256 0.567143 -0.981697
0.024137 0.573397 -0.982047
0.024118 0.573278 -0.986185
0.039453 -0.549673 -0.976012
0.041865 -0.557274 -0.978158
0.048599 -0.555895 -0.969765
0.042404 -0.551328 -0.963795
0.039003 -0.532129 -0.944267
0.041362 -0.542735 -0.944500
0.041452 -0.533703 -0.930969
0.047280 -0.539604 -0.936708
0.041058 -0.554424 -0.986580
0.039490 -0.515489 -0.914777
0.041156 -0.524058 -0.918964
0.041036 -0.535417 -0.960869
0.040962 -0.539941 -0.969959
0.038814 -0.500490 -0.893565
0.041093 -0.510206 -0.895783
0.041248 -0.502048 -0.881364
0.046955 -0.506930 -0.887294
0.042163 -0.514951 -0.926839
0.042201 -0.505925 -0.913102
0.048221 -0.508295 -0.919654
0.040962 -0.522390 -0.940283
0.041156 -0.493900 -0.865322
0.041015 -0.486461 -0.864543
0.041163 -0.474586 -0.837528
0.037661 -0.464823 -0.833371
0.040935 -0.487495 -0.878455
0.040942 -0.492383 -0.887735
0.041018 -0.455414 -0.817982
0.041086 -0.459963 -0.818418
0.040015 -0.464455 -0.844446
0.039681 -0.457026 -0.831485
0.044471 -0.459155 -0.837633
0.040828 -0.473326 -0.858795
0.041960 -0.445068 -0.797557
0.041918 -0.439537 -0.796912
0.048725 -0.440145 -0.788948
0.048758 -0.441122 -0.789068
0.041136 -0.424254 -0.741001
0.041200 -0.426260 -0.749196
0.040848 -0.440726 -0.807677
0.041237 -0.410438 -0.704882
0.041157 -0.404263 -0.697085
0.040940 -0.414602 -0.767723
0.040938 -0.422300 -0.777841
0.041038 -0.387000 -0.679791
0.041068 -0.395691 -0.687929
0.040805 -0.405611 -0.759389
0.040693 -0.397250 -0.751959
0.041076 -0.378489 -0.671195
0.041171 -0.371625 -0.663540
0.040808 -0.379928 -0.720564
0.040733 -0.384607 -0.731865
0.040685 -0.391587 -0.744634
0.041289 -0.363178 -0.653741
0.041325 -0.355327 -0.645556
0.040993 -0.369147 -0.699546
0.040897 -0.377291 -0.712325
0.041230 -0.346966 -0.639516
0.041034 -0.337690 -0.639034
0.040910 -0.355073 -0.681866
0.040799 -0.347199 -0.670294
0.041012 -0.361683 -0.690880
0.041044 -0.328124 -0.622101
0.040990 -0.324644 -0.621689
0.040872 -0.336680 -0.649207
0.040828 -0.343204 -0.662248
0.041146 -0.308134 -0.582448
0.041094 -0.310611 -0.590506
0.040878 -0.325382 -0.629279
0.039951 -0.287609 -0.536760
0.033810 -0.293625 -0.542915
0.040839 -0.308978 -0.609628
0.040807 -0.301567 -0.601481
0.041160 -0.275135 -0.515040
0.041115 -0.278862 -0.522996
0.040781 -0.282866 -0.569907
0.040835 -0.290154 -0.582284
0.040813 -0.295614 -0.592820
0.041266 -0.258820 -0.481185
0.032865 -0.260579 -0.477760
0.026394 -0.263794 -0.484822
0.041196 -0.262917 -0.489294
0.040627 -0.269090 -0.549564
0.040690 -0.277100 -0.561040
0.042695 -0.241343 -0.453406
0.037978 -0.246391 -0.458239
0.040703 -0.251114 -0.517388
0.040652 -0.258422 -0.531778
0.040566 -0.263223 -0.540855
0.042341 -0.220524 -0.419980
0.035740 -0.229432 -0.426471
0.039560 -0.238131 -0.497332
0.040682 -0.246801 -0.508541
0.042841 -0.209192 -0.402776
0.033098 -0.211415 -0.395726
0.026530 -0.215810 -0.402757
0.038177 -0.214829 -0.406776
0.040710 -0.218504 -0.467386
0.039539 -0.227652 -0.482652
0.033270 -0.231356 -0.490557
0.041862 -0.190799 -0.371567
0.036759 -0.196941 -0.376444
0.040681 -0.201234 -0.437763
0.040715 -0.208678 -0.449465
0.040675 -0.214070 -0.458865
0.040358 -0.170072 -0.340715
0.034053 -0.179289 -0.345918
0.040878 -0.187136 -0.415991
0.040642 -0.195533 -0.428905
0.042365 -0.154754 -0.321965
0.035627 -0.164370 -0.328395
0.040760 -0.167893 -0.388801
0.040951 -0.176738 -0.400926
0.035530 -0.181277 -0.409594
0.033653 -0.145946 -0.296949
0.039700 -0.136578 -0.290978
0.040403 -0.155043 -0.366546
0.040727 -0.163362 -0.380267
0.037543 -0.122102 -0.272423
0.034730 -0.130773 -0.278053
0.040728 -0.136186 -0.338793
0.040385 -0.144806 -0.350986
0.034678 -0.148552 -0.360222
0.033542 -0.107463 -0.245490
0.030535 -0.107585 -0.237659
0.031041 -0.121967 -0.241716
0.033018 -0.116523 -0.247547
0.041038 -0.121858 -0.318437
0.040715 -0.130041 -0.330204
0.031630 -0.096816 -0.234428
0.034496 -0.091432 -0.239787
0.041164 -0.111177 -0.302442
0.042237 -0.106760 -0.286710
0.035900 -0.115239 -0.312074
0.033432 -0.074477 -0.229217
0.029320 -0.074085 -0.221533
0.033271 -0.085502 -0.230057
0.036334 -0.096143 -0.282375
0.038129 -0.090891 -0.270111
0.033208 -0.058059 -0.228860
0.030187 -0.057894 -0.221652
0.035348 -0.074873 -0.253045
0.035041 -0.080099 -0.264128
0.030087 -0.042734 -0.223430
0.032889 -0.048755 -0.228822
0.033100 -0.065926 -0.246381
0.024215 -0.059976 -0.249534
0.029700 -0.054807 -0.240465
0.033361 -0.059423 -0.236645
0.032861 -0.048859 -0.230289
0.033168 -0.016092 -0.180327
0.029004 -0.009978 -0.174565
0.033165 -0.018371 -0.180310
0.033325 -0.015066 -0.190668
0.030376 -0.006736 -0.190690
0.032959 -0.015618 -0.203027
0.029866 -0.009829 -0.207638
0.033746 0.045444 -0.192338
0.032185 0.050340 -0.181016
0.030363 0.040045 -0.187947
0.034206 0.056312 -0.187564
0.033457 0.061362 -0.176222
0.031780 0.073123 -0.166140
0.031041 0.056163 -0.171008
0.034239 0.073216 -0.174510
0.034012 0.084730 -0.176776
0.028424 0.089765 -0.171948
0.033963 0.090379 -0.190583
0.031682 0.095697 -0.185540
0.033144 0.100053 -0.197021
0.034503 0.106352 -0.207382
0.029506 0.111063 -0.201886
0.033889 0.116867 -0.212473
0.035885 0.122713 -0.223686
0.034364 0.139115 -0.229198
0.042110 0.139145 -0.300256
0.048306 0.132975 -0.293584
0.048323 0.132898 -0.290092
0.043983 0.137484 -0.284765
0.035525 0.156086 -0.223489
0.037561 0.152136 -0.322055
0.048567 0.149216 -0.326628
0.042264 0.148116 -0.317011
0.042229 0.158865 -0.334266
0.033748 0.171027 -0.207855
0.033572 0.161963 -0.211030
0.035868 0.166963 -0.341712
0.046858 0.165318 -0.343649
0.041259 0.171733 -0.350065
0.032654 0.179237 -0.164911
0.024970 0.173091 -0.157057
0.032653 0.179269 -0.164915
0.033211 0.179164 -0.208300
0.036511 0.166426 -0.272025
0.035551 0.169986 -0.254821
0.041448 0.168678 -0.289090
0.040993 0.175799 -0.299915
0.041011 0.182506 -0.308231
0.033074 0.179554 -0.173733
0.033187 0.179446 -0.186202
0.034076 0.180359 -0.222428
0.034003 0.180253 -0.239728
0.033172 0.179106 -0.248433
0.040952 0.190829 -0.318780
0.040973 0.198249 -0.326644
0.042239 0.207274 -0.339039
0.037446 0.212824 -0.344338
0.042161 0.217083 -0.353642
0.040923 0.225595 -0.366130
0.040945 0.230182 -0.374296
0.040866 0.238205 -0.388093
0.040814 0.243683 -0.396760
0.040817 0.247036 -0.404836
0.040665 0.256429 -0.422047
0.034998 0.260638 -0.428118
0.040315 0.272382 -0.499452
0.047952 0.263898 -0.490671
0.041885 0.259764 -0.483063
0.036905 0.265378 -0.489237
0.040755 0.263469 -0.435254
0.039238 0.273390 -0.454704
0.032877 0.276919 -0.461422
0.039321 0.280427 -0.468206
0.043858 0.277488 -0.460566
0.039665 0.284068 -0.516150
0.043818 0.278835 -0.509475
0.032597 0.279975 -0.507346
0.040831 0.289155 -0.484795
0.040869 0.294346 -0.492683
0.040869 0.300058 -0.502849
0.040883 0.307231 -0.516922
0.040928 0.311273 -0.524633
0.040850 0.317869 -0.535464
0.040748 0.324368 -0.544839
0.040819 0.329583 -0.552959
0.040066 0.334940 -0.597568
0.044549 0.329584 -0.590281
0.039820 0.325654 -0.583930
0.033357 0.329712 -0.590503
0.040906 0.338065 -0.567000
0.040984 0.343701 -0.574978
0.040965 0.349386 -0.584902
0.040920 0.356424 -0.597966
0.040950 0.360390 -0.605608
0.040916 0.365587 -0.617306
0.040978 0.372627 -0.632039
0.041075 0.376894 -0.639809
0.041089 0.380315 -0.650094
0.041070 0.379842 -0.660529
0.039508 0.399265 -0.680232
0.039649 0.390101 -0.680163
0.044141 0.390776 -0.671866
0.044065 0.392703 -0.671991
0.041004 0.410674 -0.690058
0.040919 0.419282 -0.693955
0.040941 0.433077 -0.699707
0.040979 0.446882 -0.704954
0.040945 0.453655 -0.715324
0.039497 0.455609 -0.730935
0.033058 0.457551 -0.736229
0.039734 0.457878 -0.748107
0.041018 0.459333 -0.764396
0.041001 0.462580 -0.780923
0.040967 0.466719 -0.797052
0.041024 0.464380 -0.810755
0.041028 0.469742 -0.817227
0.040986 0.477035 -0.817854
0.041167 0.486268 -0.832191
0.035616 0.490575 -0.838205
0.041187 0.494519 -0.845613
0.040834 0.503429 -0.859028
0.040845 0.509227 -0.866907
0.041181 0.518281 -0.880957
0.035723 0.523417 -0.887100
0.041296 0.526491 -0.895203
0.041863 0.534925 -0.913411
0.036819 0.540239 -0.919297
0.041848 0.544780 -0.928038
0.040913 0.553624 -0.942145
0.040971 0.557708 -0.949910
0.040971 0.561319 -0.962440
0.040939 0.559977 -0.975665
0.038048 0.572934 -0.983173
0.038042 0.568698 -0.982900
0.037742 0.572883 -0.985610
0.053061 -0.548792 -0.963017
0.049915 -0.555901 -0.969752
0.050051 -0.539625 -0.936652
0.053966 -0.531307 -0.930283
0.057396 -0.555118 -0.986340
0.056049 -0.550583 -0.978398
0.053217 -0.524388 -0.918534
0.054239 -0.516286 -0.912647
0.053594 -0.538048 -0.960247
0.053944 -0.532351 -0.944721
0.051174 -0.540292 -0.969586
0.051057 -0.506988 -0.887044
0.053152 -0.499726 -0.880369
0.053568 -0.517260 -0.926353
0.052553 -0.523252 -0.938754
0.053175 -0.493630 -0.865989
0.053077 -0.488307 -0.865400
0.052372 -0.506785 -0.911434
0.053507 -0.500784 -0.894038
0.049252 -0.508328 -0.919589
0.050814 -0.474821 -0.837005
0.052038 -0.466254 -0.830795
0.052824 -0.489909 -0.877836
0.050365 -0.492589 -0.887045
0.052292 -0.459915 -0.818313
0.052227 -0.456246 -0.817920
0.052495 -0.468082 -0.843751
0.052768 -0.474373 -0.856181
0.049517 -0.440189 -0.788919
0.049532 -0.441136 -0.789035
0.051561 -0.457500 -0.829100
0.049489 -0.459242 -0.837381
0.054962 -0.419333 -0.745786
0.051616 -0.426077 -0.750576
0.051955 -0.440173 -0.796792
0.052320 -0.441304 -0.806227
0.051182 -0.409980 -0.705103
0.053774 -0.400958 -0.699102
0.051974 -0.423334 -0.775732
0.053831 -0.418329 -0.763190
0.051917 -0.394724 -0.688026
0.053548 -0.384208 -0.682100
0.054592 -0.402197 -0.747134
0.051835 -0.407080 -0.757328
0.053450 -0.368218 -0.665858
0.051422 -0.377972 -0.671103
0.052650 -0.389957 -0.730914
0.052995 -0.385628 -0.714695
0.050987 -0.392807 -0.742200
0.050995 -0.362059 -0.655100
0.051317 -0.351523 -0.649332
0.049810 -0.377939 -0.709282
0.051201 -0.371578 -0.696783
0.050236 -0.345115 -0.640012
0.050141 -0.340709 -0.639682
0.052470 -0.352400 -0.665078
0.051713 -0.358730 -0.681259
0.049571 -0.362077 -0.690087
0.049832 -0.327225 -0.622561
0.049799 -0.325595 -0.622326
0.050460 -0.341514 -0.648612
0.049997 -0.344153 -0.659121
0.050827 -0.303742 -0.584159
0.049665 -0.310304 -0.591065
0.049763 -0.325845 -0.625450
0.051428 -0.286990 -0.549739
0.044874 -0.291796 -0.545881
0.040267 -0.296105 -0.551847
0.050260 -0.295088 -0.556149
0.050129 -0.309514 -0.607789
0.050304 -0.304222 -0.597808
0.049546 -0.277485 -0.525886
0.051271 -0.269973 -0.519110
0.050857 -0.293664 -0.581678
0.051419 -0.287383 -0.565141
0.049705 -0.296208 -0.591124
0.049846 -0.261350 -0.492810
0.051181 -0.253573 -0.486317
0.050151 -0.278273 -0.558622
0.050729 -0.272368 -0.546551
0.051482 -0.239068 -0.467220
0.048771 -0.244022 -0.462082
0.042597 -0.250882 -0.468925
0.050503 -0.247653 -0.472670
0.050300 -0.261569 -0.531573
0.051076 -0.255248 -0.514472
0.049003 -0.263905 -0.539776
0.049878 -0.229857 -0.443264
0.046608 -0.225897 -0.432707
0.041403 -0.232639 -0.438112
0.050936 -0.221306 -0.436674
0.050315 -0.244379 -0.498823
0.044274 -0.232918 -0.488892
0.051341 -0.238241 -0.483659
0.049243 -0.247484 -0.507373
0.050273 -0.215275 -0.423181
0.048880 -0.211339 -0.412705
0.050862 -0.206269 -0.417593
0.050611 -0.222994 -0.464653
0.050166 -0.228665 -0.477488
0.049979 -0.196957 -0.393213
0.047572 -0.193738 -0.382758
0.041975 -0.200733 -0.388492
0.050749 -0.189087 -0.386980
0.050050 -0.212559 -0.449355
0.050773 -0.206167 -0.432941
0.049079 -0.214753 -0.457680
0.049363 -0.179463 -0.362476
0.044998 -0.175084 -0.352066
0.040441 -0.182176 -0.356750
0.050030 -0.171088 -0.355593
0.050361 -0.194105 -0.416922
0.046565 -0.183422 -0.407291
0.050717 -0.188657 -0.402269
0.049554 -0.197230 -0.426187
0.049594 -0.164883 -0.344974
0.046486 -0.160322 -0.334644
0.050154 -0.155849 -0.338224
0.050014 -0.179392 -0.395990
0.050344 -0.173747 -0.383365
0.049869 -0.149355 -0.325172
0.049056 -0.145759 -0.314606
0.050206 -0.140804 -0.319464
0.049925 -0.162324 -0.367283
0.045633 -0.151064 -0.357025
0.050218 -0.156458 -0.351897
0.049302 -0.165087 -0.376426
0.049821 -0.131401 -0.295266
0.045933 -0.122535 -0.283994
0.050104 -0.122793 -0.291321
0.049714 -0.147095 -0.345656
0.049984 -0.141200 -0.334094
0.049786 -0.113729 -0.290056
0.049893 -0.129167 -0.318543
0.046928 -0.118166 -0.308590
0.050262 -0.123169 -0.303544
0.049358 -0.132048 -0.327302
0.049704 -0.114086 -0.297226
0.049233 0.116090 -0.244007
0.043453 0.122210 -0.239129
0.043902 0.109300 -0.238113
0.049233 0.116448 -0.244033
0.049705 0.119396 -0.252347
0.046711 0.127189 -0.253165
0.049926 0.120465 -0.263647
0.043386 0.124887 -0.269432
0.049417 0.132892 -0.290099
0.049954 0.140498 -0.287149
0.047682 0.155023 -0.281799
0.050072 0.155465 -0.289409
0.049541 0.164130 -0.293931
0.050442 0.170491 -0.304433
0.049819 0.180860 -0.311013
0.050803 0.186925 -0.321797
0.049807 0.196409 -0.327926
0.050491 0.199743 -0.337825
0.051160 0.204742 -0.352365
0.048430 0.210783 -0.347238
0.050068 0.213808 -0.357554
0.050823 0.219632 -0.371210
0.049657 0.228741 -0.377595
0.050678 0.232263 -0.387360
0.051856 0.237679 -0.402277
0.050151 0.245987 -0.407267
0.051409 0.249624 -0.419602
0.046165 0.260383 -0.428418
0.052576 0.254459 -0.433978
0.050614 0.263137 -0.439060
0.051383 0.268849 -0.453675
0.049496 0.277472 -0.460345
0.050743 0.279549 -0.469081
0.051960 0.285616 -0.485788
0.049927 0.294271 -0.492443
0.051781 0.297513 -0.501791
0.053032 0.303387 -0.517676
0.050405 0.311426 -0.523817
