-0.788388 -0.362352 0.478026
-0.799178 -0.350721 0.467569
-0.802179 -0.355876 0.457845
-0.797966 -0.350166 -0.448465
-0.801616 -0.355090 -0.437757
-0.787877 -0.360324 -0.458975
-0.789947 -0.351104 -0.461195
-0.789976 -0.334872 0.494906
-0.787732 -0.343818 0.492148
-0.798324 -0.334263 0.482360
-0.802093 -0.339478 0.471701
-0.794777 -0.333320 -0.465882
-0.801345 -0.338549 -0.453079
-0.801882 -0.318378 0.488425
-0.793559 -0.319445 0.500709
-0.790854 -0.317619 -0.482387
-0.788208 -0.328137 -0.476998
-0.799270 -0.318411 -0.469776
-0.792026 -0.302330 0.518591
-0.789354 -0.314646 0.512076
-0.800831 -0.303410 0.501701
-0.803551 -0.309656 0.491940
-0.799340 -0.302124 -0.482219
-0.802601 -0.307643 -0.472369
-0.791078 -0.302236 -0.498523
-0.788434 -0.311541 -0.493195
-0.790509 -0.284802 0.534001
-0.788849 -0.296855 0.529301
-0.799474 -0.285666 0.517673
-0.802585 -0.291023 0.508333
-0.802372 -0.290046 -0.487492
-0.799383 -0.284939 -0.497854
-0.788755 -0.296848 -0.509210
-0.790825 -0.284663 -0.514694
-0.789356 -0.269176 0.544325
-0.787747 -0.278642 0.542256
-0.795637 -0.269292 0.533058
-0.801916 -0.269434 0.521202
-0.802205 -0.273844 -0.502733
-0.798342 -0.268653 -0.514120
-0.790111 -0.269176 -0.526449
-0.788200 -0.278597 -0.523956
-0.790969 -0.251543 0.550107
-0.800492 -0.253464 0.532706
-0.803357 -0.259345 0.522901
-0.791863 -0.251466 -0.532986
-0.801053 -0.252853 -0.518940
-0.795388 -0.236695 0.550543
-0.787463 -0.245277 0.558506
-0.788643 -0.236808 0.560818
-0.802274 -0.236659 0.539613
-0.802756 -0.241906 -0.522071
-0.798108 -0.236621 -0.532324
-0.787696 -0.245154 -0.542220
-0.789379 -0.236838 -0.545265
-0.800063 -0.221703 0.550641
-0.790996 -0.220554 0.564346
-0.803563 -0.227995 0.542371
-0.800584 -0.220417 -0.538000
-0.792040 -0.220736 -0.551338
-0.801500 -0.204027 0.555908
-0.792717 -0.204970 0.567421
-0.798634 -0.203514 -0.549046
-0.802696 -0.208345 -0.541017
-0.790077 -0.204244 -0.561651
-0.788608 -0.215442 -0.560135
-0.798272 -0.186984 0.565812
-0.788469 -0.200106 0.574250
-0.789347 -0.187984 0.576914
-0.802926 -0.191774 0.558247
-0.791257 -0.188115 -0.562325
-0.799496 -0.188138 -0.550103
-0.798735 -0.171413 0.569629
-0.790490 -0.171507 0.580076
-0.791908 -0.172009 -0.563226
-0.800155 -0.172012 -0.550238
-0.801186 -0.155025 0.570929
-0.791911 -0.153627 0.583372
-0.801260 -0.155641 -0.552176
-0.792281 -0.156136 -0.567251
-0.797538 -0.137898 0.580150
-0.787507 -0.147098 0.591348
-0.788189 -0.138423 0.592210
-0.803196 -0.142970 0.571534
-0.795440 -0.139122 -0.566512
-0.802306 -0.139140 -0.554118
-0.788197 -0.150948 -0.576101
-0.789011 -0.139118 -0.577277
-0.797313 -0.122210 0.583560
-0.789040 -0.122152 0.593928
-0.802996 -0.122589 -0.554859
-0.797038 -0.122607 -0.565771
-0.789858 -0.122665 -0.577494
-0.797838 -0.105919 0.585044
-0.789562 -0.105942 0.594959
-0.799621 -0.105232 -0.563005
-0.803559 -0.110030 -0.555298
-0.790609 -0.106250 -0.577043
-0.798467 -0.089736 0.584324
-0.790181 -0.089629 0.594245
-0.791512 -0.089820 -0.577285
-0.799755 -0.089795 -0.565356
-0.798804 -0.073545 0.584339
-0.790506 -0.073343 0.594054
-0.792293 -0.073403 -0.578213
-0.800538 -0.073412 -0.566730
-0.798738 -0.057223 0.586403
-0.790455 -0.057083 0.595542
-0.801277 -0.056972 -0.568379
-0.793074 -0.057025 -0.579744
-0.798820 -0.040995 0.586910
-0.790554 -0.040840 0.596396
-0.792441 -0.039081 -0.583040
-0.801839 -0.040550 -0.569874
-0.799167 -0.024885 0.585397
-0.790905 -0.024586 0.595294
-0.802039 -0.024263 -0.570552
-0.793852 -0.024244 -0.582370
-0.787648 -0.024298 -0.590283
-0.787566 -0.032650 -0.589801
-0.799672 -0.008616 0.585798
-0.791398 -0.008312 0.595595
-0.802300 -0.008044 -0.571326
-0.794390 -0.008034 -0.582501
-0.787946 -0.008082 -0.590484
-0.800064 0.007865 0.587735
-0.791774 0.007993 0.597828
-0.797452 0.009398 -0.580408
-0.802881 0.004928 -0.572576
-0.788463 0.007972 -0.590263
-0.799920 0.024163 0.587153
-0.791632 0.024227 0.596955
-0.788376 0.024129 -0.589682
-0.797373 0.022982 -0.579720
-0.799513 0.040246 0.584774
-0.791209 0.040416 0.594404
-0.802898 0.027622 -0.571284
-0.792864 0.039631 -0.581507
-0.802247 0.040610 -0.569628
-0.787853 0.033470 -0.588943
-0.799384 0.057975 0.582116
-0.790039 0.056712 0.593597
-0.801788 0.057129 -0.568800
-0.793524 0.057112 -0.579275
-0.788298 0.072998 0.593247
-0.796305 0.072916 0.584068
-0.803767 0.064344 0.575890
-0.803523 0.072869 0.575762
-0.793360 0.073732 -0.580034
-0.801566 0.073758 -0.568038
-0.787930 0.089350 0.592677
-0.797571 0.090174 0.581200
-0.803492 0.085341 0.574874
-0.792319 0.089997 -0.579822
-0.801105 0.090909 -0.564702
-0.796670 0.105585 0.582153
-0.788412 0.105744 0.592202
-0.803894 0.096700 -0.556119
-0.797295 0.105918 -0.566126
-0.802865 0.105732 -0.554655
-0.790319 0.106080 -0.578493
-0.795528 0.122659 0.583051
-0.788137 0.118574 0.591990
-0.801482 0.122110 -0.552372
-0.794402 0.122272 -0.565805
-0.788753 0.122409 -0.576263
-0.802898 0.126843 0.573877
-0.801686 0.138452 0.573206
-0.793437 0.138383 0.583409
-0.791487 0.138305 -0.565811
-0.800485 0.138596 -0.550605
-0.787864 0.132665 -0.574427
-0.801053 0.154794 0.570993
-0.792775 0.154680 0.580863
-0.800096 0.155637 -0.547140
-0.791092 0.154960 -0.561617
-0.799911 0.171051 0.568036
-0.791614 0.170959 0.577485
-0.803820 0.161563 -0.539647
-0.796019 0.171177 -0.548052
-0.802511 0.171194 -0.538143
-0.789431 0.171216 -0.558881
-0.795548 0.186815 0.566509
-0.789345 0.182765 0.575706
-0.791163 0.186704 -0.548061
-0.799907 0.187657 -0.534937
-0.788125 0.180590 -0.556728
-0.801731 0.190843 0.556994
-0.799632 0.203880 0.553539
-0.791355 0.203851 0.563712
-0.798378 0.204378 -0.530471
-0.789231 0.203998 -0.542338
-0.798994 0.221185 0.547869
-0.789661 0.220081 0.559941
-0.803422 0.210077 -0.522445
-0.793014 0.219746 -0.532705
-0.802306 0.220266 -0.520511
-0.788006 0.214003 -0.540361
-0.788439 0.232112 0.557539
-0.793386 0.237154 0.549458
-0.803683 0.227331 0.539944
-0.802340 0.236453 0.537905
-0.792243 0.236554 -0.529039
-0.800483 0.236555 -0.517675
-0.800183 0.253840 0.533232
-0.791476 0.253116 0.546268
-0.799266 0.253155 -0.514018
-0.790337 0.253079 -0.526693
-0.795024 0.269465 0.534280
-0.788909 0.269612 0.544347
-0.803138 0.259840 0.525720
-0.801669 0.269295 0.523011
-0.803320 0.258728 -0.505811
-0.792822 0.270280 -0.517425
-0.801703 0.270337 -0.500287
-0.788776 0.265485 -0.525219
-0.790852 0.284474 0.533983
-0.787566 0.278390 0.543449
-0.799824 0.285498 0.518085
-0.803699 0.276343 -0.489884
-0.801957 0.285501 -0.487873
-0.796278 0.285566 -0.500980
-0.790195 0.285657 -0.514374
-0.795664 0.302080 0.516232
-0.789766 0.299043 0.527786
-0.790520 0.301761 -0.500922
-0.799136 0.301709 -0.482203
-0.788380 0.296199 -0.511717
-0.801545 0.305236 0.503892
-0.798802 0.318407 0.500115
-0.790444 0.318506 0.514666
-0.802755 0.307102 -0.472028
-0.791741 0.318385 -0.482515
-0.800195 0.318393 -0.469302
-0.788680 0.312844 -0.493812
-0.791281 0.334726 0.502045
-0.788304 0.329105 0.511834
-0.802288 0.323933 0.490010
-0.799994 0.335345 0.485370
-0.795335 0.334485 -0.466547
-0.789380 0.330322 -0.477133
-0.789060 0.346352 0.496783
-0.792229 0.351550 0.486247
-0.802898 0.340875 0.475187
-0.801150 0.352507 0.468211
-0.801316 0.338670 -0.455107
-0.790482 0.348202 -0.463975
-0.795915 0.351400 -0.452588
-0.793023 0.368117 0.469290
-0.789382 0.363187 0.481084
-0.803976 0.358827 0.457292
-0.801420 0.368313 0.452683
-0.801464 0.354600 -0.438042
-0.797974 0.365875 -0.432683
-0.790139 0.367487 -0.448321
-0.789419 0.379518 0.464996
-0.792582 0.384580 0.453536
-0.803340 0.374443 0.442887
-0.801216 0.385343 0.437027
-0.801485 0.370297 -0.420069
-0.789978 0.383034 -0.432714
-0.798215 0.382590 -0.415127
-0.788150 0.377022 -0.443639
-0.789287 0.396535 0.448496
-0.792938 0.401317 0.437359
-0.803704 0.391856 0.427239
-0.801376 0.401218 0.421278
-0.801763 0.387215 -0.404946
-0.798865 0.399886 -0.400952
-0.790446 0.399365 -0.415828
-0.788249 0.393391 -0.426175
-0.789522 0.411751 0.432792
-0.792881 0.416952 0.420573
-0.803440 0.407158 0.410692
-0.801015 0.416521 0.406248
-0.802375 0.405188 -0.390747
-0.791209 0.415916 -0.402048
-0.799232 0.415717 -0.385883
-0.788568 0.409998 -0.410289
-0.794644 0.431911 0.401184
-0.789605 0.427932 0.415339
-0.802133 0.420845 -0.368532
-0.803688 0.423756 -0.358050
-0.795337 0.433034 -0.368218
-0.801195 0.433994 -0.351904
-0.790434 0.432675 -0.384603
-0.788855 0.426996 -0.397317
-0.799576 0.435496 0.386103
-0.791022 0.449050 0.386820
-0.788629 0.443292 0.398014
-0.802458 0.438877 0.375587
-0.799203 0.449407 0.370216
-0.803381 0.440097 -0.341560
-0.801090 0.450620 -0.335459
-0.792709 0.449893 -0.351359
-0.789095 0.444020 -0.367837
-0.787751 0.441509 -0.376985
-0.788389 0.459436 0.380925
-0.790574 0.465331 0.369785
-0.802216 0.454887 0.357675
-0.798538 0.464849 0.353404
-0.803358 0.456849 -0.325390
-0.792438 0.466199 -0.334396
-0.800389 0.466207 -0.319166
-0.789481 0.460946 -0.346104
-0.788032 0.474787 0.363992
-0.789799 0.480992 0.352851
-0.801715 0.469532 0.341047
-0.797820 0.481131 0.335108
-0.802881 0.471863 -0.306790
-0.791116 0.481755 -0.316834
-0.798617 0.481329 -0.301569
-0.788854 0.476014 -0.328835
-0.789739 0.492968 0.336725
-0.787724 0.490451 0.346205
-0.800909 0.485298 0.318450
-0.791949 0.498935 0.319345
-0.802551 0.487972 0.305986
-0.798292 0.497004 0.302385
-0.803631 0.489448 -0.275706
-0.801633 0.486590 -0.285421
-0.792867 0.498968 -0.285107
-0.800064 0.498419 -0.269682
-0.789920 0.493271 -0.301807
-0.788052 0.490846 -0.310621
-0.789759 0.510690 0.304782
-0.788160 0.507678 0.314959
-0.800337 0.501121 0.287899
-0.791640 0.515915 0.288704
-0.802578 0.505002 0.272308
-0.796328 0.514934 0.272587
-0.803814 0.506659 0.264279
-0.801024 0.515384 0.257565
-0.802507 0.504322 -0.252476
-0.803820 0.506418 -0.243591
-0.800216 0.514641 -0.237414
-0.795443 0.514932 -0.252558
-0.790525 0.514379 -0.267450
-0.788741 0.508560 -0.279337
-0.789387 0.530560 0.269846
-0.788388 0.524613 0.283734
-0.793611 0.531284 0.254389
-0.802810 0.521136 0.244548
-0.799610 0.530661 0.238144
-0.801878 0.519912 -0.223182
-0.795851 0.531378 -0.220347
-0.791267 0.528904 -0.236336
-0.788764 0.524987 -0.252651
-0.787668 0.523327 -0.261086
-0.789122 0.541383 0.252974
-0.788019 0.539797 0.261406
-0.791276 0.544421 0.237631
-0.802056 0.535971 0.220998
-0.793258 0.548666 0.221819
-0.803745 0.538581 0.210870
-0.799282 0.546943 0.205870
-0.802114 0.535918 -0.187092
-0.803360 0.537892 -0.174655
-0.793117 0.549168 -0.187855
-0.798636 0.546330 -0.169648
-0.800142 0.533180 -0.203911
-0.792035 0.545592 -0.203536
-0.789848 0.542437 -0.217153
-0.788771 0.556972 0.217078
-0.790102 0.558816 0.206164
-0.800007 0.550749 0.190063
-0.791732 0.561146 0.190428
-0.801715 0.552774 0.174187
-0.792597 0.564989 0.173595
-0.803162 0.554613 0.162515
-0.798151 0.562907 0.157213
-0.804060 0.555613 -0.111826
-0.803178 0.554574 -0.121503
-0.794092 0.565672 -0.122587
-0.798877 0.562862 -0.105620
-0.801534 0.552477 -0.137822
-0.793288 0.562941 -0.137808
-0.799690 0.549832 -0.154020
-0.791428 0.560640 -0.154071
-0.789596 0.558284 -0.170350
-0.788411 0.556810 -0.182871
-0.788171 0.572970 0.167705
-0.789116 0.574210 0.157757
-0.798559 0.566044 0.140881
-0.790282 0.575888 0.141391
-0.799879 0.567814 0.124204
-0.791670 0.577793 0.124825
-0.801172 0.569154 0.107952
-0.793000 0.579605 0.108341
-0.801968 0.569970 0.091930
-0.792746 0.582060 0.092611
-0.802654 0.570694 0.075716
-0.795341 0.580496 0.075573
-0.803306 0.571419 0.063997
-0.798402 0.579136 0.058615
-0.803931 0.572136 0.000328
-0.803941 0.572135 0.002236
-0.799401 0.579141 -0.005695
-0.799309 0.580161 0.008681
-0.803335 0.571516 -0.027282
-0.803138 0.571298 -0.039081
-0.798765 0.579136 -0.022255
-0.796117 0.580508 -0.039177
-0.801765 0.569836 -0.055492
-0.792630 0.581411 -0.055019
-0.799574 0.567250 -0.071911
-0.791332 0.577582 -0.072205
-0.798325 0.565717 -0.088329
-0.790039 0.575639 -0.088434
-0.789345 0.574436 -0.104702
-0.788694 0.573494 -0.117787
-0.788024 0.588969 0.087380
-0.788624 0.589703 0.075229
-0.789411 0.590760 0.058790
-0.798054 0.580846 0.042742
-0.789859 0.591383 0.042648
-0.798137 0.582123 0.026530
-0.789981 0.591627 0.026328
-0.790100 0.591875 0.009994
-0.790214 0.592087 -0.006266
-0.789878 0.591586 -0.022708
-0.788935 0.590201 -0.039343
-0.788125 0.589142 -0.049183
-0.776083 -0.598378 0.090863
-0.771485 -0.605980 0.075682
-0.770968 -0.605219 0.085196
-0.778417 -0.596921 0.075432
-0.772352 -0.607123 0.059199
-0.780067 -0.596920 0.059244
-0.780822 -0.596916 0.042847
-0.772695 -0.607607 0.042794
-0.780447 -0.596938 0.026188
-0.772483 -0.607237 0.026461
-0.772623 -0.607438 0.010015
-0.782010 -0.595566 0.009329
-0.773212 -0.608254 -0.006997
-0.781432 -0.597813 -0.007699
-0.781330 -0.597619 -0.023807
-0.773094 -0.608057 -0.023578
-0.772242 -0.607015 -0.039525
-0.781767 -0.595375 -0.039090
-0.771467 -0.605944 -0.051705
-0.776881 -0.598353 -0.056407
-0.781834 -0.579132 0.155981
-0.772474 -0.590603 0.156780
-0.771554 -0.589435 0.168666
-0.776606 -0.581681 0.174165
-0.782181 -0.582108 0.138720
-0.773844 -0.592293 0.139436
-0.775390 -0.594126 0.123757
-0.783666 -0.584230 0.123150
-0.784943 -0.585924 0.107678
-0.776698 -0.595767 0.108072
-0.785607 -0.586532 0.091191
-0.786134 -0.587055 0.075143
-0.786896 -0.588049 0.059329
-0.787285 -0.588547 0.042922
-0.787102 -0.588320 0.025861
-0.787078 -0.588344 0.014408
-0.786183 -0.587254 -0.055488
-0.787157 -0.588417 -0.044335
-0.776030 -0.595285 -0.071909
-0.784318 -0.585159 -0.071872
-0.782534 -0.583038 -0.088672
-0.774200 -0.593020 -0.088739
-0.772751 -0.591234 -0.106644
-0.781131 -0.581316 -0.106718
-0.772139 -0.590516 -0.123289
-0.781845 -0.578970 -0.123807
-0.779110 -0.580571 -0.139333
-0.771538 -0.589628 -0.138617
-0.770909 -0.588757 -0.146604
-0.775320 -0.580925 -0.154322
-0.780805 -0.564212 0.205349
-0.773534 -0.575669 0.203975
-0.771920 -0.573676 0.216080
-0.775873 -0.565199 0.222822
-0.784628 -0.564437 0.191534
-0.775658 -0.578149 0.189123
-0.785836 -0.570079 0.174194
-0.787000 -0.571688 0.162033
-0.786725 -0.571553 -0.139923
-0.787408 -0.572339 -0.129312
-0.784724 -0.568903 -0.155985
-0.782265 -0.565697 -0.171812
-0.773903 -0.576157 -0.172783
-0.781510 -0.562631 -0.186161
-0.771984 -0.573906 -0.187641
-0.771062 -0.572713 -0.195879
-0.775865 -0.564717 -0.202080
-0.782691 -0.547411 0.240272
-0.773884 -0.560193 0.239683
-0.771795 -0.557156 0.249463
-0.775352 -0.547690 0.255471
-0.784584 -0.552079 0.223289
-0.786414 -0.554580 0.206981
-0.787434 -0.555999 0.198738
-0.785217 -0.553254 -0.203207
-0.787041 -0.555495 -0.190661
-0.773142 -0.558778 -0.220217
-0.781950 -0.547556 -0.220329
-0.770893 -0.556094 -0.229299
-0.774880 -0.548126 -0.235210
-0.775822 -0.531818 0.287407
-0.772429 -0.541729 0.272594
-0.771122 -0.539843 0.281336
-0.781786 -0.530955 0.272678
-0.784094 -0.536265 0.255768
-0.786618 -0.538710 0.246229
-0.786335 -0.538261 -0.225931
-0.784208 -0.535708 -0.236096
-0.773087 -0.542962 -0.252685
-0.782179 -0.530835 -0.252945
-0.775181 -0.531354 -0.268049
-0.771577 -0.540880 -0.262066
-0.774977 -0.514879 0.318203
-0.773368 -0.526032 0.304730
-0.771222 -0.523631 0.312846
-0.782311 -0.514755 0.305333
-0.785198 -0.520380 0.288434
-0.787006 -0.522730 0.278426
-0.784090 -0.519114 -0.268823
-0.786762 -0.522447 -0.258704
-0.778725 -0.514735 -0.286175
-0.772585 -0.525797 -0.280731
-0.784405 -0.499678 0.321773
-0.772679 -0.509329 0.331519
-0.776970 -0.500085 0.338080
-0.786653 -0.505580 0.310906
-0.783050 -0.501451 -0.304260
-0.774676 -0.512113 -0.305327
-0.784911 -0.504109 -0.290903
-0.782474 -0.497744 -0.320386
-0.773616 -0.510610 -0.321119
-0.775023 -0.498225 -0.336385
-0.772334 -0.508703 -0.331589
-0.783030 -0.482153 0.355438
-0.774006 -0.494904 0.354339
-0.771688 -0.491495 0.363811
-0.775031 -0.481435 0.369863
-0.785414 -0.487952 0.338223
-0.786862 -0.489986 0.329221
-0.786531 -0.489260 -0.325552
-0.783409 -0.483297 -0.336253
-0.774021 -0.480910 -0.350241
-0.771704 -0.492490 -0.344577
-0.778066 -0.464754 0.383920
-0.771948 -0.475493 0.380557
-0.783718 -0.469974 0.370206
-0.786905 -0.473498 0.361374
-0.782711 -0.466756 -0.352566
-0.786360 -0.472579 -0.341226
-0.770886 -0.474397 -0.359805
-0.774809 -0.466727 -0.367639
-0.784211 -0.453262 0.387719
-0.773115 -0.460329 0.397617
-0.779317 -0.449615 0.402036
-0.784101 -0.452945 -0.370361
-0.786175 -0.456194 -0.360065
-0.773297 -0.461585 -0.382873
-0.779307 -0.449853 -0.386262
-0.774008 -0.433050 0.431851
-0.773732 -0.444970 0.420162
-0.771150 -0.441538 0.428764
-0.782116 -0.432790 0.420018
-0.785489 -0.438252 0.406799
-0.785243 -0.437958 -0.389450
-0.774244 -0.446716 -0.398290
-0.778844 -0.433293 -0.401963
-0.785781 -0.422638 0.425284
-0.779821 -0.417669 0.437135
-0.783951 -0.416693 -0.405089
-0.772443 -0.428652 -0.411523
-0.775060 -0.415767 -0.417282
-0.784860 -0.405470 0.441047
-0.779783 -0.401330 0.452002
-0.773808 -0.412703 0.449016
-0.786821 -0.407564 -0.407708
-0.783405 -0.401459 -0.419091
-0.771526 -0.409679 -0.429089
-0.775272 -0.401154 -0.435149
-0.782988 -0.384132 0.468165
-0.774474 -0.397025 0.468305
-0.771865 -0.393744 0.479427
-0.774295 -0.382816 0.485236
-0.785770 -0.389829 0.455011
-0.786360 -0.390423 -0.426250
-0.784214 -0.387145 -0.435709
-0.779008 -0.383943 -0.451067
-0.773290 -0.396148 -0.448071
-0.781970 -0.367731 0.484459
-0.771271 -0.376626 0.494528
-0.773255 -0.367603 0.496896
-0.786182 -0.373347 0.474726
-0.784702 -0.371268 -0.453774
-0.773668 -0.380625 -0.462480
-0.778399 -0.366433 -0.465974
-0.784645 -0.354812 0.488593
-0.778368 -0.350382 0.500159
-0.774024 -0.349876 -0.482632
-0.772118 -0.361620 -0.476386
-0.782950 -0.351161 -0.469336
-0.783505 -0.335050 0.503109
-0.772050 -0.346007 0.510707
-0.774820 -0.334240 0.515271
-0.781550 -0.334055 -0.483078
-0.785843 -0.339007 -0.472904
-0.771121 -0.343501 -0.492895
-0.773307 -0.334702 -0.499083
-0.783192 -0.319554 0.516575
-0.771573 -0.328198 0.524824
-0.774072 -0.317396 0.532658
-0.786499 -0.325673 0.505923
-0.782261 -0.317510 -0.499491
-0.784653 -0.322442 -0.488214
-0.774488 -0.317739 -0.515152
-0.772127 -0.329143 -0.509620
-0.774139 -0.302176 0.546337
-0.771406 -0.311068 0.543912
-0.782531 -0.302254 0.534418
-0.785987 -0.307922 0.524183
-0.786042 -0.307784 -0.503844
-0.782197 -0.302243 -0.514890
-0.771716 -0.311956 -0.524556
-0.773320 -0.300744 -0.530525
-0.785672 -0.289683 0.539215
-0.778910 -0.285000 0.549658
-0.780444 -0.284798 -0.530551
-0.784996 -0.289637 -0.519910
-0.772268 -0.285774 -0.542804
-0.771209 -0.294418 -0.539908
-0.782624 -0.269258 0.551984
-0.774256 -0.269404 0.560936
-0.772060 -0.280295 0.559112
-0.782941 -0.269255 -0.535684
-0.774158 -0.268544 -0.550331
-0.785292 -0.256067 0.555042
-0.778232 -0.251436 0.565225
-0.781244 -0.251541 -0.549015
-0.785422 -0.255896 -0.539376
-0.773000 -0.253080 -0.562406
-0.771429 -0.262528 -0.560336
-0.781860 -0.236969 0.569150
-0.773585 -0.237093 0.578724
-0.771278 -0.246816 0.575332
-0.784245 -0.236891 -0.553621
-0.775427 -0.236800 -0.566526
-0.785288 -0.220721 0.571970
-0.775894 -0.219548 0.583087
-0.782578 -0.220875 -0.565232
-0.786451 -0.226394 -0.557200
-0.771755 -0.231439 -0.573782
-0.773842 -0.220826 -0.576055
-0.781658 -0.204904 0.580312
-0.770993 -0.213105 0.589751
-0.772195 -0.203886 0.591038
-0.786909 -0.211023 0.572841
-0.784811 -0.204123 -0.568934
-0.776435 -0.204110 -0.579090
-0.782080 -0.187832 0.585018
-0.773688 -0.187651 0.594084
-0.785660 -0.188051 -0.570329
-0.777337 -0.188127 -0.579851
-0.783371 -0.171465 0.588226
-0.775065 -0.171427 0.597210
-0.786207 -0.172007 -0.571981
-0.776677 -0.171108 -0.582426
-0.785310 -0.158188 0.589905
-0.778191 -0.152978 0.599602
-0.781964 -0.156216 -0.581520
-0.787018 -0.161983 -0.573796
-0.772641 -0.155773 -0.592351
-0.771198 -0.165071 -0.589667
-0.780164 -0.138169 0.601035
-0.770965 -0.147626 0.609312
-0.771757 -0.137969 0.610336
-0.782821 -0.139177 -0.585027
-0.774477 -0.139185 -0.595212
-0.781620 -0.122044 0.602314
-0.773270 -0.122059 0.611651
-0.783233 -0.122847 -0.585104
-0.774944 -0.123002 -0.594709
-0.782717 -0.105913 0.602781
-0.774411 -0.106057 0.612057
-0.775448 -0.106713 -0.594307
-0.783702 -0.106485 -0.584889
-0.783128 -0.089443 0.602651
-0.774747 -0.089419 0.611828
-0.776355 -0.090073 -0.595925
-0.784697 -0.089988 -0.585467
-0.783408 -0.073090 0.602671
-0.775007 -0.072994 0.612079
-0.777122 -0.073543 -0.597364
-0.785503 -0.073529 -0.586429
-0.784134 -0.056926 0.603124
-0.775864 -0.057027 0.613578
-0.786455 -0.057138 -0.587884
-0.778185 -0.057203 -0.597675
-0.784278 -0.040655 0.604101
-0.776030 -0.040756 0.614825
-0.787241 -0.043588 -0.589152
-0.779368 -0.040763 -0.598112
-0.783520 -0.024110 0.604345
-0.775103 -0.023931 0.614860
-0.772067 -0.024217 -0.609291
-0.771429 -0.037894 -0.607478
-0.780440 -0.024259 -0.598941
-0.783703 -0.007849 0.604702
-0.775272 -0.007665 0.614831
-0.772613 -0.007955 -0.609506
-0.781007 -0.008027 -0.598884
-0.785282 0.008167 0.605730
-0.777001 0.008046 0.614224
-0.780966 0.008014 -0.598413
-0.772682 0.008016 -0.607877
-0.785171 0.024360 0.604671
-0.776889 0.024232 0.612783
-0.780164 0.024206 -0.598253
-0.771855 0.024234 -0.607276
-0.784008 0.040673 0.602861
-0.775592 0.040781 0.611822
-0.770879 0.040715 -0.608011
-0.780336 0.039644 -0.596454
-0.783506 0.056956 0.601515
-0.775111 0.057057 0.610928
-0.786563 0.044429 -0.587598
-0.776502 0.056425 -0.600278
-0.786351 0.057006 -0.587478
-0.770716 0.050644 -0.608636
-0.782844 0.073097 0.600169
-0.774563 0.073088 0.610258
-0.786638 0.073603 -0.588193
-0.776896 0.074678 -0.599682
-0.781628 0.089568 0.600483
-0.773315 0.089704 0.610590
-0.785549 0.089909 -0.587812
-0.776041 0.088311 -0.599289
-0.771095 0.080884 -0.606747
-0.771102 0.081837 -0.606703
-0.780229 0.106213 0.601192
-0.771815 0.106618 0.610442
-0.783517 0.106078 -0.586341
-0.775152 0.106121 -0.596032
-0.781007 0.123430 0.599099
-0.771176 0.122573 0.609499
-0.781294 0.122370 -0.583976
-0.772986 0.122338 -0.592732
-0.776725 0.137442 0.601391
-0.770875 0.131452 0.608692
-0.787180 0.129381 0.592163
-0.786446 0.138328 0.591558
-0.771522 0.132986 -0.589907
-0.779090 0.138242 -0.581194
-0.785454 0.154636 0.588904
-0.777091 0.154615 0.596773
-0.786694 0.143529 -0.571788
-0.777423 0.154996 -0.579234
-0.785752 0.155064 -0.569830
-0.783728 0.171002 0.585488
-0.775317 0.171095 0.593515
-0.784240 0.171366 -0.567040
-0.775845 0.171446 -0.577730
-0.779412 0.188845 0.583424
-0.772889 0.183975 0.591923
-0.782124 0.186791 -0.563003
-0.773623 0.187800 -0.575430
-0.785807 0.193798 0.574294
-0.783742 0.203826 0.572136
-0.775446 0.203842 0.580955
-0.785972 0.191619 -0.553545
-0.775343 0.204449 -0.565700
-0.784022 0.204059 -0.550736
-0.771919 0.199236 -0.573738
-0.782207 0.220138 0.568305
-0.773860 0.220248 0.577267
-0.782690 0.219811 -0.547711
-0.773694 0.220463 -0.563177
-0.779740 0.238121 0.564851
-0.772643 0.233239 0.574576
-0.786890 0.224805 -0.539583
-0.776571 0.237832 -0.551228
-0.785459 0.236577 -0.537791
-0.772120 0.233241 -0.561401
-0.786806 0.243121 0.555786
-0.784727 0.253025 0.554865
-0.776417 0.253004 0.564449
-0.775180 0.253158 -0.546198
-0.783515 0.253152 -0.535036
-0.781501 0.269526 0.553000
-0.773201 0.269482 0.562760
-0.781973 0.270385 -0.531233
-0.772713 0.269574 -0.541685
-0.778257 0.284596 0.550895
-0.771417 0.279716 0.560230
-0.787035 0.276292 -0.523812
-0.775487 0.284290 -0.533310
-0.784902 0.285720 -0.522153
-0.771036 0.277892 -0.539644
-0.785192 0.289300 0.540270
-0.783116 0.303630 0.534550
-0.773690 0.302325 0.546937
-0.781687 0.301861 -0.517427
-0.772938 0.302126 -0.528797
-0.771440 0.311502 0.543924
-0.775959 0.317533 0.535049
-0.787375 0.309936 0.525775
-0.785039 0.318447 0.523241
-0.786213 0.307176 -0.506675
-0.774624 0.316993 -0.516360
-0.783551 0.318399 -0.499506
-0.771151 0.310645 -0.526062
-0.779390 0.335753 0.518157
-0.773345 0.331527 0.529166
-0.786058 0.323911 -0.488114
-0.783681 0.335454 -0.482659
-0.775350 0.335102 -0.498964
-0.772794 0.329669 -0.509035
-0.785534 0.339861 0.507412
-0.783216 0.351593 0.501373
-0.774833 0.351293 0.513269
-0.786675 0.341199 -0.473136
-0.775769 0.351847 -0.484320
-0.784801 0.352747 -0.468802
-0.772510 0.346589 -0.494207
-0.775018 0.367467 0.500157
-0.772542 0.361984 0.509386
-0.786161 0.357249 0.492057
-0.783344 0.368227 0.486234
-0.787481 0.359138 -0.460752
-0.785554 0.367525 -0.456885
-0.777145 0.368412 -0.469294
-0.772862 0.363643 -0.480264
-0.774919 0.383246 0.484882
-0.771974 0.377412 0.495323
-0.786424 0.374036 0.475968
-0.783616 0.384557 0.469980
-0.781801 0.383052 -0.449645
-0.773520 0.383922 -0.462627
-0.775428 0.399733 0.467778
-0.772164 0.393863 0.478624
-0.786469 0.390516 0.459566
-0.784354 0.401277 0.452858
-0.785674 0.387951 -0.437665
-0.773907 0.399023 -0.448739
-0.782292 0.399404 -0.432319
-0.771486 0.392735 -0.458789
-0.776243 0.417244 0.450993
-0.772746 0.412202 0.460518
-0.787038 0.407345 0.443358
-0.784243 0.416966 0.436889
-0.785549 0.404270 -0.420932
-0.782323 0.415953 -0.417188
-0.773888 0.415775 -0.433238
-0.771843 0.409680 -0.442252
-0.774900 0.432827 0.434416
-0.773007 0.427225 0.445931
-0.786086 0.422664 0.426355
-0.782546 0.433266 0.420552
-0.785821 0.420967 -0.407249
-0.781888 0.432654 -0.402549
-0.773606 0.432050 -0.417959
-0.771620 0.426018 -0.428868
-0.774158 0.445450 0.420044
-0.771527 0.441846 0.429017
-0.785744 0.438865 0.408870
-0.780009 0.450248 0.404686
-0.785390 0.437915 -0.388906
-0.773594 0.444782 -0.402240
-0.779331 0.449179 -0.384269
-0.771086 0.441229 -0.411639
-0.785286 0.454257 0.391932
-0.782371 0.465256 0.385902
-0.774222 0.465834 0.398500
-0.786258 0.455674 -0.357394
-0.784064 0.452250 -0.367902
-0.783476 0.466298 -0.351986
-0.775622 0.466556 -0.368900
-0.773233 0.461272 -0.380379
-0.774478 0.479025 0.384976
-0.772044 0.475506 0.393311
-0.785714 0.470326 0.374538
-0.779264 0.482472 0.370703
-0.786272 0.471898 -0.339823
-0.774571 0.482590 -0.351377
-0.782149 0.481852 -0.334434
-0.772287 0.477229 -0.364950
-0.783957 0.485675 0.357416
-0.777869 0.497244 0.352522
-0.772848 0.493080 0.367320
-0.784928 0.486954 -0.321473
-0.778646 0.497839 -0.317142
-0.773501 0.493614 -0.334648
-0.771449 0.491320 -0.344468
-0.782183 0.501197 0.337745
-0.771820 0.507731 0.347788
-0.773908 0.510545 0.338195
-0.785135 0.504682 0.325498
-0.779096 0.514733 0.321593
-0.785703 0.504761 -0.290524
-0.783003 0.501521 -0.302031
-0.781559 0.514451 -0.285444
-0.773926 0.514518 -0.301146
-0.772294 0.508656 -0.312998
-0.784249 0.518860 0.305204
-0.773053 0.526323 0.317214
-0.775224 0.531632 0.304344
-0.786654 0.521988 0.294536
-0.782443 0.530593 0.288830
-0.784949 0.519482 -0.271953
-0.773201 0.526931 -0.286404
-0.778727 0.531126 -0.268947
-0.770994 0.523426 -0.295166
-0.771454 0.539980 0.298337
-0.773574 0.542700 0.288455
-0.785138 0.535497 0.274310
-0.778635 0.547019 0.268937
-0.787712 0.539447 -0.228098
-0.786076 0.537101 -0.236618
-0.777331 0.549140 -0.238096
-0.784057 0.547828 -0.221595
-0.782973 0.533211 -0.252975
-0.774714 0.544763 -0.253202
-0.772533 0.541445 -0.265538
-0.782103 0.549594 0.253288
-0.773806 0.558902 0.253839
-0.772101 0.556854 0.264046
-0.784746 0.552613 0.237972
-0.775501 0.564294 0.237305
-0.786669 0.554778 0.227991
-0.781040 0.563114 0.222791
-0.787466 0.555598 -0.193899
-0.785971 0.553776 -0.203365
-0.782413 0.562993 -0.187738
-0.776862 0.565066 -0.203164
-0.774871 0.560739 -0.220017
-0.772590 0.558020 -0.233309
-0.771869 0.573382 0.223135
-0.771339 0.572494 0.231480
-0.782109 0.567023 0.206619
-0.773826 0.575942 0.206939
-0.784649 0.569341 0.190519
-0.775574 0.581030 0.189487
-0.786395 0.571014 0.178690
-0.781621 0.579255 0.173430
-0.787488 0.572166 -0.128818
-0.786460 0.571130 -0.137799
-0.779066 0.580522 -0.137681
-0.782794 0.579577 -0.122443
-0.784534 0.568828 -0.154150
-0.775288 0.581410 -0.152597
-0.782778 0.566475 -0.170374
-0.774484 0.577415 -0.170586
-0.772995 0.575015 -0.186846
-0.771944 0.573331 -0.197561
-0.771572 0.589187 0.183194
-0.772823 0.590783 0.173696
-0.782797 0.582391 0.157643
-0.774561 0.593541 0.156764
-0.784109 0.584062 0.141331
-0.775862 0.595812 0.140075
-0.785560 0.585962 0.124928
-0.776083 0.598467 0.122987
-0.786969 0.587779 0.108498
-0.779303 0.596910 0.108540
-0.787659 0.588534 0.098540
-0.782700 0.595418 0.091853
-0.785375 0.585759 -0.072633
-0.786807 0.587472 -0.060382
-0.782468 0.595537 -0.056628
-0.776416 0.597828 -0.074007
-0.783942 0.583817 -0.088667
-0.775720 0.594783 -0.089854
-0.782914 0.582618 -0.104777
-0.774674 0.593669 -0.105763
-0.773478 0.591868 -0.121491
-0.772029 0.589792 -0.137539
-0.771232 0.588743 -0.145884
-0.771243 0.605117 0.116958
-0.771827 0.605719 0.108577
-0.773214 0.607256 0.090403
-0.782478 0.597924 0.073538
-0.774159 0.608223 0.072415
-0.782479 0.598968 0.058019
-0.774209 0.608034 0.057655
-0.782816 0.599571 0.042455
-0.774530 0.608383 0.042366
-0.783705 0.599815 0.025469
-0.775395 0.609461 0.024766
-0.784090 0.600056 0.009374
-0.775786 0.610009 0.008800
-0.783953 0.600285 -0.006281
-0.775677 0.610034 -0.006302
-0.783688 0.599785 -0.022903
-0.775402 0.609904 -0.023136
-0.783319 0.598403 -0.040391
-0.774977 0.609680 -0.041418
-0.773547 0.607970 -0.059190
-0.771955 0.605953 -0.069629
-0.760539 -0.614708 0.108443
-0.755687 -0.622816 0.091816
-0.754974 -0.621959 0.102990
-0.765095 -0.611740 0.091153
-0.764809 -0.614188 0.075532
-0.756644 -0.623900 0.075166
-0.765608 -0.615334 0.059111
-0.757418 -0.624761 0.058927
-0.757787 -0.625162 0.042666
-0.765981 -0.615819 0.042753
-0.757587 -0.625140 0.026029
-0.765763 -0.615440 0.026386
-0.765862 -0.615643 0.009976
-0.757694 -0.625183 0.009731
-0.766344 -0.616469 -0.006597
-0.758160 -0.625241 -0.006358
-0.757981 -0.624974 -0.023008
-0.766163 -0.616279 -0.023226
-0.757106 -0.624205 -0.040115
-0.765261 -0.615234 -0.039869
-0.765280 -0.612185 -0.056830
-0.755933 -0.623047 -0.056460
-0.755052 -0.622096 -0.067105
-0.760382 -0.614635 -0.072246
-0.765103 -0.595718 0.174118
-0.755932 -0.606841 0.174097
-0.754849 -0.605449 0.182979
-0.759646 -0.597570 0.188976
-0.765450 -0.598817 0.157288
-0.757278 -0.608686 0.157721
-0.758364 -0.610074 0.141373
-0.766501 -0.600512 0.140553
-0.760109 -0.611757 0.124911
-0.768275 -0.602345 0.124492
-0.769923 -0.603977 0.108363
-0.770635 -0.604807 0.096043
-0.769615 -0.603483 -0.071949
-0.770578 -0.604797 -0.062453
-0.767781 -0.601227 -0.088556
-0.759619 -0.611600 -0.088407
-0.766167 -0.599442 -0.105694
-0.758050 -0.609854 -0.104798
-0.757476 -0.608790 -0.121209
-0.765611 -0.598727 -0.122214
-0.764994 -0.597837 -0.138123
-0.756824 -0.607719 -0.137629
-0.762334 -0.596298 -0.153267
-0.755624 -0.606303 -0.148421
-0.765647 -0.579703 0.222714
-0.756705 -0.591285 0.223040
-0.755302 -0.589679 0.233611
-0.759579 -0.581290 0.239211
-0.766850 -0.583880 0.204967
-0.758705 -0.593419 0.206239
-0.768905 -0.586351 0.189559
-0.770324 -0.587918 0.179625
-0.766978 -0.584360 -0.172250
-0.758894 -0.593741 -0.171135
-0.768980 -0.586620 -0.158774
-0.756915 -0.591629 -0.186890
-0.765009 -0.582114 -0.187307
-0.755535 -0.590107 -0.198240
-0.762453 -0.580355 -0.202525
-0.765527 -0.563290 0.254577
-0.757412 -0.576295 0.254257
-0.755490 -0.573710 0.263583
-0.758561 -0.564794 0.270876
-0.768481 -0.568402 0.239617
-0.770223 -0.571341 0.229072
-0.767018 -0.567021 -0.220851
-0.758875 -0.577556 -0.221192
-0.769421 -0.570567 -0.206808
-0.764739 -0.562676 -0.236760
-0.756214 -0.574545 -0.239436
-0.758813 -0.565673 -0.255436
-0.754989 -0.573035 -0.251676
-0.758349 -0.547740 0.304428
-0.756623 -0.559406 0.288637
-0.755093 -0.556889 0.298455
-0.765207 -0.546272 0.287544
-0.767077 -0.549917 0.272571
-0.769044 -0.553109 0.260463
-0.769348 -0.553781 -0.240124
-0.767754 -0.551122 -0.253186
-0.756923 -0.560454 -0.269740
-0.765048 -0.546948 -0.268205
-0.757301 -0.547207 -0.284115
-0.754984 -0.556812 -0.278064
-0.762446 -0.531180 0.320028
-0.756283 -0.542323 0.317349
-0.767076 -0.534234 0.304923
-0.769528 -0.537521 0.292038
-0.766040 -0.531425 -0.286515
-0.768853 -0.536671 -0.272958
-0.755343 -0.541310 -0.297502
-0.759708 -0.532966 -0.303950
-0.766906 -0.514891 0.337215
-0.758008 -0.528111 0.336895
-0.756045 -0.525160 0.349509
-0.760207 -0.515912 0.354759
-0.768600 -0.520179 0.322092
-0.768510 -0.520241 -0.305290
-0.769463 -0.521620 -0.294100
-0.759356 -0.530006 -0.319870
-0.767531 -0.518791 -0.320956
-0.765032 -0.514543 -0.337210
-0.756768 -0.526451 -0.336865
-0.757124 -0.513868 -0.352535
-0.754833 -0.523587 -0.346127
-0.764658 -0.497665 0.369810
-0.756820 -0.510152 0.370519
-0.754734 -0.507170 0.378407
-0.756877 -0.498755 0.382459
-0.768691 -0.503095 0.354217
-0.770556 -0.506306 0.344471
-0.769056 -0.503308 -0.342406
-0.765048 -0.498271 -0.351589
-0.755029 -0.507592 -0.363307
-0.757201 -0.498899 -0.367573
-0.768436 -0.486403 0.374852
-0.762994 -0.482693 0.387750
-0.766108 -0.480866 -0.366057
-0.768020 -0.485319 -0.355124
-0.759430 -0.482989 -0.384125
-0.755962 -0.493448 -0.378578
-0.766586 -0.465755 0.404061
-0.757756 -0.479276 0.403793
-0.755853 -0.476127 0.414750
-0.759703 -0.466428 0.420160
-0.768440 -0.471131 0.390802
-0.768453 -0.466586 -0.386225
-0.769915 -0.472579 -0.371070
-0.760481 -0.466074 -0.401857
-0.756878 -0.477912 -0.395658
-0.762495 -0.449373 0.435480
-0.756960 -0.461349 0.432500
-0.768216 -0.453154 0.420139
-0.770344 -0.456885 0.410373
-0.771011 -0.457644 -0.393117
-0.768510 -0.451115 -0.403419
-0.759696 -0.449982 -0.419741
-0.756724 -0.460755 -0.414482
-0.768065 -0.433139 0.439778
-0.757097 -0.446313 0.447639
-0.759820 -0.434397 0.453069
-0.770253 -0.439601 -0.409923
-0.766953 -0.433735 -0.417777
-0.758767 -0.434454 -0.434512
-0.756283 -0.444827 -0.430855
-0.756750 -0.415446 0.484010
-0.755860 -0.428597 0.468585
-0.754602 -0.425034 0.477304
-0.761896 -0.416708 0.469198
-0.767735 -0.417596 0.453894
-0.770026 -0.423601 0.443722
-0.767116 -0.415827 -0.433619
-0.768832 -0.420594 -0.422365
-0.759848 -0.417830 -0.450585
-0.756564 -0.429826 -0.445401
-0.765350 -0.399611 0.485224
-0.754917 -0.409161 0.494526
-0.757422 -0.400289 0.497557
-0.768750 -0.405126 0.469094
-0.770240 -0.407837 0.459650
-0.768289 -0.401125 -0.451827
-0.770213 -0.407131 -0.439377
-0.759859 -0.400144 -0.467595
-0.756745 -0.412981 -0.460935
-0.768904 -0.387504 0.490368
-0.762659 -0.384302 0.500995
-0.767461 -0.385199 -0.468333
-0.770611 -0.391534 -0.458512
-0.758636 -0.384020 -0.484662
-0.756169 -0.394519 -0.480094
-0.767358 -0.367623 0.505123
-0.756407 -0.381080 0.511428
-0.758335 -0.366344 0.518301
-0.769413 -0.372501 -0.473564
-0.766398 -0.367263 -0.482553
-0.758536 -0.368730 -0.499571
-0.755899 -0.378616 -0.495351
-0.756559 -0.349835 0.533452
-0.754652 -0.359965 0.527189
-0.765570 -0.351342 0.517423
-0.769733 -0.356892 0.508479
-0.766786 -0.349887 -0.498100
-0.769103 -0.354478 -0.487607
-0.758590 -0.350654 -0.515234
-0.756287 -0.364059 -0.509671
-0.764505 -0.334031 0.532804
-0.754743 -0.343396 0.543569
-0.756602 -0.334684 0.546294
-0.768387 -0.339088 0.521403
-0.766053 -0.334673 -0.515121
-0.769642 -0.340163 -0.502905
-0.757684 -0.334709 -0.527694
-0.755470 -0.344769 -0.524607
-0.767940 -0.321954 0.538023
-0.762017 -0.317544 0.550886
-0.762688 -0.318075 -0.532184
-0.768752 -0.322736 -0.520447
-0.767005 -0.302266 0.554854
-0.756032 -0.313229 0.561438
-0.759105 -0.301803 0.567247
-0.761708 -0.301170 -0.547189
-0.756591 -0.313405 -0.544292
-0.767461 -0.305216 -0.535636
-0.757190 -0.285975 0.577656
-0.756452 -0.296052 0.577644
-0.765717 -0.285916 0.565677
-0.769619 -0.291428 0.557725
-0.766431 -0.285844 -0.551087
-0.755930 -0.297159 -0.557573
-0.757802 -0.284710 -0.564116
-0.767071 -0.269619 0.568781
-0.758940 -0.269659 0.578668
-0.769063 -0.273558 -0.555651
-0.765267 -0.268608 -0.565192
-0.757143 -0.269418 -0.576518
-0.755073 -0.278337 -0.573597
-0.769642 -0.257628 0.571684
-0.762978 -0.253862 0.582213
-0.759084 -0.251979 -0.582070
-0.768168 -0.253144 -0.569514
-0.766988 -0.237073 0.587011
-0.758260 -0.236223 0.599570
-0.756221 -0.250040 0.593935
-0.769824 -0.242059 -0.571726
-0.764922 -0.236911 -0.579955
-0.756119 -0.237073 -0.590798
-0.754885 -0.245824 -0.589496
-0.764675 -0.219323 0.597129
-0.755061 -0.230204 0.607324
-0.756098 -0.220270 0.608637
-0.769305 -0.224357 0.589701
-0.758923 -0.220686 -0.593598
-0.767084 -0.220796 -0.584126
-0.765821 -0.203731 0.600032
-0.757654 -0.203730 0.610857
-0.761464 -0.204171 -0.596453
-0.769594 -0.204153 -0.587357
-0.767357 -0.187518 0.602131
-0.759185 -0.187534 0.612994
-0.770154 -0.188195 -0.588047
-0.761006 -0.189669 -0.599266
-0.768814 -0.171358 0.604654
-0.759819 -0.171699 0.617052
-0.770241 -0.175873 -0.588200
-0.765609 -0.171020 -0.595816
-0.756683 -0.171823 -0.607698
-0.755483 -0.185292 -0.606684
-0.756310 -0.154781 0.627153
-0.755166 -0.166455 0.625638
-0.765228 -0.153882 0.615340
-0.769932 -0.159025 0.607212
-0.758144 -0.155420 -0.610278
-0.766279 -0.155597 -0.600234
-0.765618 -0.138107 0.618287
-0.757447 -0.138313 0.628326
-0.759297 -0.139028 -0.612280
-0.767415 -0.139113 -0.603086
-0.766316 -0.122180 0.619858
-0.757534 -0.121059 0.633162
-0.759979 -0.122834 -0.612207
-0.768135 -0.122967 -0.602666
-0.754686 -0.113312 0.641991
-0.754685 -0.114919 0.641845
-0.758067 -0.107156 0.633901
-0.767007 -0.106156 0.620534
-0.768674 -0.106721 -0.602509
-0.760509 -0.106544 -0.612546
-0.767840 -0.089483 0.619677
-0.759637 -0.089518 0.629950
-0.769463 -0.090082 -0.605006
-0.760354 -0.090542 -0.616374
-0.768692 -0.073031 0.619383
-0.759548 -0.074296 0.631415
-0.762994 -0.073390 -0.616119
-0.770137 -0.073532 -0.607073
-0.755656 -0.073209 -0.625251
-0.755253 -0.085226 -0.624464
-0.763584 -0.057076 0.631673
-0.754842 -0.069782 0.638646
-0.756613 -0.057019 0.641857
-0.769620 -0.057156 0.621885
-0.770698 -0.057224 -0.606770
-0.763690 -0.057138 -0.615103
-0.755844 -0.057010 -0.624440
-0.756993 -0.040584 0.643204
-0.764092 -0.040710 0.632880
-0.769774 -0.040891 0.623424
-0.771058 -0.048902 -0.606340
-0.765897 -0.042331 -0.613145
-0.756427 -0.040683 -0.624189
-0.763095 -0.024029 0.631852
-0.756287 -0.024074 0.641229
-0.769329 -0.024004 0.622817
-0.765766 -0.024152 -0.616455
-0.757629 -0.024099 -0.625445
-0.762450 -0.007737 0.632022
-0.755789 -0.007766 0.640877
-0.769143 -0.007716 0.622806
-0.758086 -0.007833 -0.625782
-0.766231 -0.007887 -0.616887
-0.757760 0.008224 0.643044
-0.763818 0.008099 0.633148
-0.768702 0.007937 0.622808
-0.757370 0.008104 -0.624798
-0.765529 0.008056 -0.615893
-0.758536 0.020615 0.643044
-0.761467 0.025271 0.632918
-0.768374 0.024111 0.621197
-0.756701 0.024330 -0.624916
-0.764821 0.024283 -0.615449
-0.768485 0.040741 0.619493
-0.759247 0.041554 0.631201
-0.756337 0.040804 -0.626331
-0.764413 0.040767 -0.616158
-0.754490 0.049916 0.638264
-0.754491 0.047647 0.638210
-0.758943 0.055992 0.630987
-0.768097 0.057022 0.618852
-0.765091 0.056445 -0.614679
-0.755774 0.057018 -0.625600
-0.767179 0.073070 0.619026
-0.758968 0.073350 0.629841
-0.770617 0.061458 -0.607620
-0.770726 0.069939 -0.607105
-0.763004 0.074120 -0.614678
-0.755181 0.067404 -0.623674
-0.766483 0.089633 0.619189
-0.758265 0.089803 0.630081
-0.765906 0.106401 0.618432
-0.757752 0.106210 0.628901
-0.769795 0.092716 -0.605772
-0.763801 0.088171 -0.612282
-0.760297 0.106068 -0.612993
-0.768383 0.106190 -0.604165
-0.764717 0.122477 0.617583
-0.756528 0.122406 0.627655
-0.758219 0.122505 -0.610133
-0.766343 0.122483 -0.600623
-0.764638 0.137459 0.614565
-0.755075 0.138477 0.625491
-0.755908 0.138911 -0.606779
-0.765125 0.138607 -0.595949
-0.754537 0.148509 0.623968
-0.760083 0.154215 0.615901
-0.770519 0.142209 0.606608
-0.769579 0.154589 0.604410
-0.770446 0.143834 -0.588310
-0.760325 0.154145 -0.598698
-0.769773 0.154930 -0.587409
-0.754803 0.148249 -0.605628
-0.767826 0.171159 0.601763
-0.759675 0.171164 0.611900
-0.768571 0.171436 -0.585957
-0.760470 0.171442 -0.595977
-0.766772 0.188719 0.597921
-0.757863 0.187663 0.610033
-0.758739 0.187953 -0.594067
-0.766867 0.187856 -0.583712
-0.762294 0.203993 0.599347
-0.755856 0.204163 0.608968
-0.770415 0.194844 0.591017
-0.769013 0.203835 0.589054
-0.765739 0.204554 -0.580244
-0.756691 0.204406 -0.591939
-0.758276 0.219330 0.599951
-0.754604 0.213155 0.608653
-0.767250 0.220268 0.585670
-0.770463 0.210160 -0.572273
-0.760079 0.220241 -0.583157
-0.769118 0.220570 -0.571290
-0.755266 0.214592 -0.590670
-0.766236 0.237843 0.580767
-0.757190 0.236785 0.594227
-0.767224 0.237993 -0.566525
-0.758411 0.236906 -0.579121
-0.760785 0.252876 0.583973
-0.755352 0.247283 0.592410
-0.770418 0.244070 0.572043
-0.769830 0.253034 0.572697
-0.770609 0.244117 -0.557985
-0.760484 0.253560 -0.566465
-0.768977 0.253135 -0.554824
-0.756113 0.248481 -0.576012
-0.767264 0.269501 0.571032
-0.759063 0.269474 0.580603
-0.758107 0.269401 -0.561045
-0.766262 0.269505 -0.549876
-0.764994 0.285511 0.565745
-0.756142 0.285880 0.575989
-0.764365 0.284369 -0.546653
-0.755870 0.285873 -0.557825
-0.758396 0.301281 0.565846
-0.755037 0.295163 0.573093
-0.769713 0.290808 0.558345
-0.767091 0.302322 0.555078
-0.769194 0.288824 -0.539136
-0.766161 0.302253 -0.536401
-0.757454 0.300783 -0.548052
-0.754796 0.294346 -0.556376
-0.762402 0.317888 0.550649
-0.756051 0.313495 0.561349
-0.761948 0.316844 -0.532010
-0.755511 0.312123 -0.542414
-0.768765 0.322285 0.540479
-0.766488 0.336050 0.533484
-0.757447 0.334707 0.544892
-0.768438 0.321534 -0.520970
-0.756899 0.334855 -0.525879
-0.765406 0.334980 -0.514748
-0.755100 0.344094 0.541062
-0.759650 0.350270 0.531993
-0.770507 0.342446 0.523897
-0.768672 0.351307 0.520992
-0.769640 0.340624 -0.504464
-0.766731 0.351726 -0.499424
-0.757685 0.349539 -0.513986
-0.754818 0.342994 -0.523155
-0.762984 0.368586 0.516683
-0.757421 0.364354 0.526391
-0.769831 0.357707 -0.490483
-0.758429 0.366991 -0.498488
-0.767068 0.368542 -0.484564
-0.755604 0.360959 -0.507838
-0.768566 0.372750 0.504944
-0.763179 0.384572 0.502147
-0.757669 0.380880 0.513916
-0.770014 0.374415 -0.474836
-0.767420 0.383996 -0.470576
-0.758950 0.383525 -0.482726
-0.755726 0.377755 -0.492564
-0.768743 0.388232 0.489481
-0.765285 0.399671 0.483490
-0.757111 0.400242 0.496257
-0.762382 0.399338 -0.465733
-0.756322 0.395061 -0.477041
-0.754784 0.408766 0.491401
-0.756894 0.415189 0.481351
-0.768971 0.404798 0.472466
-0.766113 0.417257 0.466062
-0.768411 0.403661 -0.453434
-0.757587 0.412980 -0.461466
-0.763132 0.416785 -0.449450
-0.757597 0.431655 0.465678
-0.754804 0.425216 0.474686
-0.770126 0.423181 0.456017
-0.765788 0.432847 0.451750
-0.768599 0.420624 -0.437778
-0.762764 0.433017 -0.434399
-0.757825 0.429133 -0.445692
-0.754780 0.441466 0.461026
-0.756951 0.444888 0.452722
-0.768504 0.438129 0.439353
-0.762845 0.449314 0.436026
-0.767739 0.436869 -0.422451
-0.762216 0.448328 -0.418445
-0.756949 0.444480 -0.430942
-0.768637 0.453619 0.419565
-0.760746 0.466628 0.419056
-0.757148 0.461734 0.431437
-0.770801 0.457137 0.411292
-0.768611 0.465796 0.406794
-0.768091 0.452966 -0.401721
-0.770680 0.456838 -0.391152
-0.759765 0.466231 -0.401981
-0.767779 0.466336 -0.384979
-0.756668 0.461103 -0.414382
-0.762901 0.482308 0.400578
-0.757138 0.478197 0.413238
-0.769960 0.472349 -0.374273
-0.766403 0.482504 -0.369214
-0.758638 0.481821 -0.382877
-0.756229 0.476035 -0.395768
-0.769096 0.487231 0.384751
-0.757741 0.493517 0.397146
-0.760050 0.498836 0.385066
-0.770826 0.490147 0.377173
-0.766861 0.498549 0.371674
-0.769147 0.488174 -0.357007
-0.757946 0.494813 -0.368013
-0.762845 0.498795 -0.351722
-0.755386 0.491338 -0.376798
-0.757292 0.513994 0.369208
-0.755342 0.507808 0.380344
-0.769133 0.503963 0.358660
-0.764979 0.513924 0.353562
-0.767070 0.501725 -0.334839
-0.769435 0.504762 -0.323597
-0.765737 0.514484 -0.318565
-0.758407 0.515098 -0.334265
-0.756505 0.509697 -0.347366
-0.756725 0.527139 0.353681
-0.754877 0.523485 0.362419
-0.768155 0.518719 0.338138
-0.760664 0.532725 0.337916
-0.770136 0.521758 0.328211
-0.768216 0.531605 0.321519
-0.768700 0.519606 -0.305576
-0.765431 0.529888 -0.301543
-0.757246 0.530357 -0.317630
-0.755272 0.524199 -0.328376
-0.759336 0.548394 0.319545
-0.757653 0.543404 0.331861
-0.769852 0.537217 0.309071
-0.765282 0.546340 0.304345
-0.769206 0.535120 -0.287075
-0.770672 0.538928 -0.277151
-0.767164 0.547240 -0.270571
-0.762341 0.547795 -0.286578
-0.757106 0.546685 -0.301029
-0.755253 0.540476 -0.311246
-0.756637 0.558770 0.305291
-0.755379 0.556581 0.315025
-0.767536 0.550879 0.288603
-0.759362 0.562138 0.288789
-0.769893 0.554224 0.276561
-0.763190 0.564455 0.272635
-0.770765 0.555539 -0.244452
-0.769121 0.552943 -0.253158
-0.760425 0.565582 -0.254036
-0.766733 0.563746 -0.237709
-0.758294 0.561805 -0.269260
-0.755986 0.558077 -0.285644
-0.754773 0.556117 -0.294010
-0.766751 0.567111 0.255171
-0.758562 0.577798 0.256165
-0.756449 0.574760 0.269368
-0.769086 0.569871 0.242365
-0.762573 0.580300 0.239174
-0.768488 0.568929 -0.219786
-0.770374 0.571172 -0.208508
-0.759735 0.581409 -0.219676
-0.765965 0.579466 -0.203085
-0.757763 0.576948 -0.236033
-0.755972 0.574264 -0.249018
-0.765539 0.581557 0.223233
-0.757424 0.592917 0.222830
-0.756063 0.590412 0.235853
-0.767493 0.584110 0.206822
-0.758982 0.597613 0.205025
-0.769550 0.586797 0.194256
-0.765411 0.595541 0.188184
-0.770234 0.587452 -0.157243
-0.768991 0.585590 -0.170870
-0.766089 0.595278 -0.153125
-0.762083 0.596895 -0.172207
-0.767285 0.583195 -0.186961
-0.758462 0.597332 -0.186912
-0.757144 0.592259 -0.203178
-0.755698 0.589979 -0.214233
-0.757033 0.607691 0.187728
-0.755709 0.605962 0.197947
-0.766980 0.598961 0.172860
-0.758825 0.610056 0.172553
-0.768796 0.601726 0.155568
-0.760643 0.611814 0.155937
-0.770389 0.604001 0.138621
-0.760954 0.614628 0.139407
-0.771068 0.604945 0.126399
-0.765337 0.611671 0.122921
-0.769677 0.602988 -0.091400
-0.770388 0.603941 -0.080213
-0.766129 0.612178 -0.074406
-0.762570 0.613317 -0.090507
-0.768863 0.601858 -0.107157
-0.759753 0.614506 -0.105759
-0.767716 0.600058 -0.122018
-0.759586 0.611299 -0.121745
-0.766503 0.597987 -0.137532
-0.758360 0.609573 -0.137513
-0.757370 0.608185 -0.155277
-0.756124 0.606578 -0.173288
-0.755173 0.605375 -0.182425
-0.755830 0.622454 0.124810
-0.755222 0.621804 0.134979
-0.764965 0.613911 0.108560
-0.756829 0.623478 0.108550
-0.765859 0.615446 0.091044
-0.757679 0.625814 0.091808
-0.766349 0.616440 0.073739
-0.758144 0.626313 0.075086
-0.766426 0.616249 0.058357
-0.758264 0.625224 0.058947
-0.766660 0.616571 0.042525
-0.758524 0.625497 0.042697
-0.767202 0.617650 0.025119
-0.759050 0.625786 0.025877
-0.767743 0.618198 0.008995
-0.759567 0.626227 0.009554
-0.768157 0.618213 -0.006337
-0.759975 0.626984 -0.006734
-0.768292 0.618080 -0.023147
-0.760102 0.627405 -0.023335
-0.768131 0.617881 -0.041317
-0.759969 0.627085 -0.040464
-0.767154 0.616191 -0.058672
-0.758971 0.626301 -0.057370
-0.757268 0.624755 -0.073165
-0.755878 0.622973 -0.089111
-0.755164 0.621950 -0.099127
-0.744094 -0.631155 0.125103
-0.739462 -0.639045 0.108515
-0.738817 -0.638425 0.119787
-0.748743 -0.628365 0.108477
-0.748354 -0.631072 0.091631
-0.740276 -0.639695 0.091856
-0.749251 -0.632157 0.074769
-0.741203 -0.640387 0.075152
-0.742320 -0.641546 0.058803
-0.750419 -0.632983 0.058685
-0.742699 -0.641924 0.042553
-0.750811 -0.633377 0.042546
-0.742343 -0.641303 0.026019
-0.750412 -0.633360 0.025641
-0.750308 -0.633401 0.009428
-0.742234 -0.641228 0.009768
-0.742372 -0.641912 -0.006287
-0.750480 -0.633455 -0.006338
-0.750199 -0.633201 -0.022952
-0.742110 -0.641798 -0.022776
-0.749425 -0.632443 -0.040154
-0.741390 -0.640786 -0.039652
-0.740661 -0.640162 -0.056453
-0.748705 -0.631282 -0.056757
-0.749019 -0.628446 -0.072670
-0.739861 -0.639568 -0.072781
-0.745845 -0.629740 -0.088601
-0.739037 -0.638680 -0.088711
-0.738586 -0.638106 -0.098043
-0.743143 -0.631015 -0.104020
-0.749688 -0.615062 0.174020
-0.741542 -0.626203 0.173936
-0.739964 -0.623989 0.187539
-0.746600 -0.613549 0.190776
-0.742870 -0.627607 0.157593
-0.750958 -0.616920 0.157685
-0.751991 -0.618307 0.141358
-0.743942 -0.628519 0.141291
-0.753258 -0.619975 0.124911
-0.754174 -0.621090 0.113937
-0.754091 -0.620982 -0.077838
-0.753234 -0.619804 -0.088457
-0.752296 -0.618058 -0.104786
-0.751299 -0.616995 -0.121177
-0.743172 -0.627821 -0.121126
-0.749766 -0.615940 -0.137595
-0.741646 -0.625742 -0.137538
-0.740026 -0.623689 -0.150882
-0.746762 -0.613937 -0.155083
-0.749952 -0.599525 0.223198
-0.741778 -0.610127 0.223217
-0.740291 -0.607948 0.236808
-0.746890 -0.597449 0.240699
-0.743311 -0.612182 0.207020
-0.751419 -0.601668 0.206855
-0.753181 -0.603486 0.193876
