0.238345 -0.285493 0.144036
0.244097 -0.290715 0.150118
0.237422 -0.270345 0.137455
0.231705 -0.265439 0.131087
0.234825 -0.253175 0.129060
0.242938 -0.253141 0.135115
0.237772 -0.236979 0.124891
0.245336 -0.243842 0.133166
0.230121 -0.230061 0.115898
0.232355 -0.220699 0.114288
0.240496 -0.220569 0.120623
0.236729 -0.202499 0.109180
0.243674 -0.208983 0.118041
0.229735 -0.195943 0.099693
0.231932 -0.187706 0.097970
0.240098 -0.187690 0.104914
0.237957 -0.170837 0.095002
0.243502 -0.175888 0.102092
0.237575 -0.155891 0.088082
0.231950 -0.151073 0.081342
0.237530 -0.136877 0.079829
0.242859 -0.141204 0.086047
0.236534 -0.121493 0.073058
0.230283 -0.115684 0.066116
0.232482 -0.105691 0.064755
0.240650 -0.105641 0.070645
0.237967 -0.087661 0.063270
0.243597 -0.092366 0.068514
0.237676 -0.072420 0.059229
0.236332 -0.055375 0.054466
0.229955 -0.049395 0.049262
0.232190 -0.039699 0.048119
0.240385 -0.039735 0.052933
0.237890 -0.022011 0.046709
0.243531 -0.026898 0.051052
0.237648 -0.006563 0.042400
0.236545 0.010081 0.037052
0.230331 0.015774 0.031715
0.232998 0.026101 0.030451
0.241144 0.026113 0.035460
0.238352 0.042952 0.028932
0.244258 0.037750 0.033835
0.236536 0.059683 0.022828
0.230311 0.065620 0.016608
0.232383 0.075402 0.015473
0.240528 0.075397 0.020908
0.237936 0.093322 0.014517
0.243484 0.088843 0.019027
0.237759 0.108173 0.011381
0.237709 0.124364 0.008149
0.236789 0.140145 0.004687
0.230720 0.145181 0.001109
0.233746 0.156582 0.000223
0.241941 0.156745 0.003380
0.238608 0.172211 -0.000916
0.244793 0.166436 0.002106
0.237505 0.189158 -0.004186
0.236017 0.207080 -0.009402
0.229548 0.213678 -0.014777
0.232557 0.222516 -0.015653
0.240734 0.222481 -0.011998
0.238430 0.239398 -0.016793
0.244366 0.233865 -0.013953
0.237714 0.255953 -0.018730
0.237702 0.272300 -0.022836
0.238895 0.287816 -0.029258
0.234276 0.292569 -0.032787
0.248561 -0.819406 0.247507
0.254133 -0.811811 0.245377
0.259411 -0.817281 0.249200
0.253312 -0.795014 0.237279
0.247286 -0.788961 0.231216
0.250761 -0.779676 0.229477
0.258797 -0.779901 0.233611
0.255554 -0.764236 0.227452
0.261806 -0.770038 0.231879
0.254160 -0.747501 0.223597
0.252832 -0.731647 0.219850
0.246478 -0.726405 0.214252
0.247430 -0.715041 0.212599
0.255555 -0.715067 0.218485
0.249168 -0.698629 0.210589
0.257331 -0.698572 0.216263
0.251989 -0.682077 0.209062
0.260216 -0.681851 0.213930
0.255677 -0.666659 0.208294
0.262135 -0.672955 0.212479
0.254282 -0.648353 0.205756
0.254353 -0.631781 0.204905
0.252765 -0.614331 0.203027
0.246233 -0.608021 0.198459
0.246876 -0.599374 0.198072
0.255034 -0.599450 0.203045
0.248442 -0.583211 0.197141
0.256549 -0.583279 0.201915
0.249955 -0.566887 0.196547
0.258092 -0.566860 0.201014
0.251554 -0.550380 0.196174
0.259755 -0.550187 0.199966
0.255179 -0.533618 0.195528
0.261341 -0.539068 0.199036
0.254180 -0.516853 0.192593
0.254226 -0.500535 0.190750
0.254198 -0.484379 0.188933
0.252898 -0.468672 0.186072
0.246661 -0.463455 0.181265
0.247645 -0.451336 0.180479
0.255743 -0.451542 0.185964
0.249003 -0.434846 0.179471
0.257146 -0.434943 0.184783
0.250963 -0.418274 0.178497
0.259136 -0.418251 0.183306
0.255042 -0.400944 0.178337
0.261037 -0.406004 0.182207
0.254229 -0.385026 0.175630
0.254295 -0.368578 0.172810
0.252933 -0.351618 0.169090
0.246564 -0.345513 0.163978
0.247863 -0.335447 0.163544
0.255986 -0.335722 0.168723
0.250542 -0.319069 0.162079
0.258655 -0.319228 0.167270
0.253161 -0.302525 0.159853
0.261287 -0.302663 0.165453
0.254636 -0.286921 0.156830
0.262353 -0.294066 0.164532
0.246876 -0.279723 0.148087
0.249025 -0.269485 0.146388
0.257162 -0.269555 0.153792
0.254458 -0.251899 0.144291
0.260038 -0.256547 0.151295
0.253652 -0.237705 0.137960
0.247858 -0.232953 0.131230
0.251331 -0.220356 0.128871
0.259425 -0.220287 0.135186
0.254748 -0.204811 0.124351
0.262087 -0.211582 0.132932
0.247334 -0.197873 0.115370
0.250146 -0.187606 0.113251
0.258271 -0.187562 0.119466
0.254092 -0.171392 0.108409
0.261071 -0.177799 0.117228
0.247033 -0.164857 0.098981
0.249933 -0.154826 0.097215
0.258072 -0.154764 0.103584
0.253545 -0.137391 0.092409
0.261077 -0.144507 0.101158
0.245958 -0.130182 0.083374
0.248207 -0.121973 0.081870
0.256355 -0.121937 0.088034
0.254284 -0.104323 0.079854
0.259819 -0.108989 0.085503
0.252620 -0.087646 0.073211
0.246166 -0.081184 0.066674
0.248126 -0.072437 0.065573
0.256295 -0.072511 0.070885
0.251693 -0.056228 0.063653
0.259842 -0.056287 0.068487
0.255467 -0.040934 0.061937
0.261827 -0.047307 0.067185
0.252762 -0.022008 0.054959
0.246404 -0.015725 0.049326
0.248666 -0.006501 0.048088
0.256848 -0.006528 0.052873
0.254346 0.011366 0.046714
0.259932 0.007018 0.050916
0.254108 0.026162 0.043007
0.252975 0.043073 0.037949
0.246767 0.048794 0.032501
0.249169 0.059096 0.031159
0.257322 0.059133 0.036241
0.254592 0.076107 0.029347
0.260321 0.071106 0.034194
0.252608 0.093349 0.023242
0.246109 0.099836 0.017525
0.248246 0.108256 0.016589
0.256394 0.108246 0.021118
0.254262 0.124986 0.014909
0.259806 0.119851 0.019168
0.254147 0.140756 0.011183
0.254077 0.156984 0.007793
0.253924 0.172545 0.004101
0.248368 0.177373 0.000976
0.251633 0.189428 0.000166
0.259823 0.189609 0.002663
0.255478 0.204322 -0.001290
0.261915 0.198051 0.001797
0.254009 0.222471 -0.006497
0.253533 0.239338 -0.011828
0.247739 0.245021 -0.015169
0.251241 0.255947 -0.015758
0.259366 0.255880 -0.013834
0.255543 0.270759 -0.018330
0.262008 0.264269 -0.014713
0.254002 0.288396 -0.025623
0.253956 0.303462 -0.027809
0.266890 -0.836177 0.263774
0.271700 -0.829036 0.260124
0.277689 -0.835411 0.264830
0.271061 -0.812508 0.251279
0.265975 -0.807602 0.246786
0.271033 -0.795980 0.245286
0.276761 -0.801098 0.249117
0.270441 -0.780134 0.240350
0.269203 -0.764292 0.235906
0.262949 -0.759303 0.231155
0.263468 -0.747600 0.230140
0.271618 -0.747616 0.235680
0.264451 -0.731436 0.228141
0.272591 -0.731428 0.233840
0.266554 -0.715057 0.225898
0.274770 -0.715016 0.231335
0.271073 -0.697032 0.225068
0.276972 -0.701653 0.229659
0.270549 -0.681570 0.221402
0.269893 -0.666074 0.217502
0.263925 -0.661521 0.212372
0.265912 -0.647748 0.212256
0.274126 -0.647627 0.217734
0.267183 -0.631346 0.212090
0.275349 -0.631371 0.217353
0.267463 -0.615555 0.211949
0.275576 -0.615667 0.217383
0.268869 -0.599537 0.211292
0.276986 -0.599636 0.216271
0.271926 -0.584413 0.210695
0.278379 -0.590594 0.215082
0.270403 -0.566760 0.207869
0.270486 -0.550067 0.206013
0.269397 -0.533440 0.202596
0.263165 -0.527849 0.198135
0.264767 -0.516791 0.197479
0.272961 -0.516936 0.201735
0.266746 -0.500659 0.196640
0.274882 -0.500862 0.200881
0.268190 -0.484626 0.195973
0.276304 -0.484821 0.200248
0.269585 -0.468335 0.195252
0.277743 -0.468499 0.199111
0.272011 -0.453417 0.194771
0.278546 -0.460122 0.198395
0.270474 -0.435020 0.191724
0.270576 -0.418270 0.189203
0.269276 -0.400969 0.185660
0.262897 -0.394818 0.181380
0.264328 -0.385053 0.180590
0.272543 -0.385275 0.184820
0.266421 -0.368957 0.179237
0.274572 -0.369162 0.183588
0.270936 -0.351314 0.178606
0.276571 -0.356051 0.182339
0.270535 -0.336042 0.176706
0.270546 -0.319359 0.174203
0.270647 -0.302635 0.170797
0.270406 -0.287501 0.167614
0.264723 -0.283006 0.163599
0.267719 -0.269513 0.161893
0.275902 -0.269507 0.166764
0.270442 -0.252713 0.157657
0.278108 -0.259822 0.165577
0.262713 -0.245553 0.148642
0.264763 -0.236654 0.147033
0.272946 -0.236608 0.153942
0.270656 -0.218937 0.144305
0.276139 -0.223552 0.151332
0.270447 -0.205134 0.137638
0.264903 -0.200641 0.130555
0.270487 -0.186111 0.128507
0.275828 -0.190628 0.135506
0.270146 -0.171769 0.121716
0.264389 -0.166829 0.114616
0.270138 -0.153069 0.112750
0.275287 -0.157517 0.119250
0.269927 -0.138615 0.105886
0.264048 -0.133544 0.098673
0.266765 -0.121875 0.096347
0.274948 -0.121838 0.103269
0.270060 -0.104767 0.092115
0.277455 -0.111520 0.101098
0.262597 -0.097925 0.083340
0.264525 -0.088928 0.081929
0.272710 -0.088915 0.088552
0.268126 -0.072517 0.079350
0.276283 -0.072507 0.085731
0.271934 -0.057466 0.077393
0.278306 -0.063554 0.084003
0.270024 -0.040977 0.071077
0.264230 -0.036094 0.065689
0.267107 -0.023041 0.063941
0.275289 -0.023114 0.069508
0.271512 -0.006877 0.062221
0.277673 -0.012546 0.067902
0.268822 0.011315 0.055362
0.262266 0.017880 0.049238
0.264323 0.026222 0.048376
0.272502 0.026151 0.053356
0.270486 0.043712 0.047105
0.275913 0.038790 0.051270
0.270524 0.059174 0.043274
0.269413 0.076129 0.037776
0.263210 0.082030 0.032396
0.265787 0.091885 0.031238
0.273919 0.091856 0.035969
0.271138 0.108310 0.029424
0.276959 0.102874 0.034456
0.269636 0.125064 0.022983
0.263566 0.130831 0.017075
0.266051 0.140993 0.015799
0.274209 0.140994 0.020746
0.271152 0.158143 0.014718
0.277028 0.153343 0.018939
0.270503 0.173501 0.011319
0.270454 0.189688 0.008329
0.270248 0.204514 0.005037
0.264655 0.209012 0.000671
0.270249 0.224008 -0.000477
0.275575 0.219463 0.003737
0.270432 0.239148 -0.004587
0.270457 0.255798 -0.008997
0.271535 0.270772 -0.013026
0.266765 0.275183 -0.016695
0.271423 0.287748 -0.019466
0.277674 0.281702 -0.014421
0.270370 0.303835 -0.023100
0.287173 -0.864007 0.285916
0.287140 -0.856099 0.279265
0.287082 -0.844560 0.272645
0.287005 -0.833528 0.265965
0.286970 -0.825664 0.262305
0.286908 -0.812860 0.257956
0.285652 -0.796256 0.252936
0.279384 -0.790398 0.247707
0.281353 -0.780280 0.246469
0.289524 -0.780370 0.251384
0.283341 -0.763802 0.244781
0.291525 -0.763869 0.249759
0.283653 -0.747648 0.243753
0.291805 -0.747690 0.249165
0.284587 -0.731400 0.242227
0.292739 -0.731412 0.247891
0.288008 -0.715127 0.240537
0.294215 -0.720714 0.246236
0.285388 -0.696811 0.234700
0.278890 -0.690353 0.228773
0.280571 -0.681262 0.228628
0.288845 -0.681082 0.234661
0.283740 -0.664235 0.227701
0.291996 -0.664110 0.233590
0.288082 -0.647488 0.226858
0.294156 -0.652977 0.232178
0.287115 -0.631493 0.224966
0.286974 -0.615833 0.225385
0.286895 -0.599691 0.223113
0.286147 -0.584335 0.218577
0.280153 -0.579661 0.214116
0.281431 -0.566696 0.213466
0.289683 -0.566636 0.218127
0.283029 -0.550013 0.212698
0.291260 -0.550009 0.217356
0.285524 -0.533477 0.211314
0.293723 -0.533567 0.215643
0.288640 -0.518728 0.210282
0.295169 -0.525211 0.214534
0.286929 -0.501121 0.207853
0.286841 -0.484995 0.206983
0.286835 -0.468561 0.204752
0.286054 -0.453526 0.201754
0.279998 -0.448981 0.197644
0.282337 -0.435058 0.196734
0.290583 -0.435108 0.201078
0.285013 -0.418346 0.195578
0.293228 -0.418423 0.199449
0.288334 -0.402420 0.194555
0.294622 -0.408226 0.198367
0.287058 -0.385662 0.191672
0.287003 -0.369371 0.189910
0.285451 -0.351513 0.186144
0.278963 -0.344945 0.180879
0.279356 -0.336167 0.180708
0.287587 -0.336325 0.185221
0.282219 -0.319396 0.179738
0.290456 -0.319448 0.183342
0.287866 -0.302820 0.178245
0.293785 -0.308612 0.181711
0.287151 -0.285863 0.175259
0.287113 -0.269500 0.172844
0.286459 -0.253805 0.169188
0.280543 -0.248822 0.163974
0.283040 -0.236502 0.162114
0.291228 -0.236480 0.168163
0.286430 -0.218819 0.157916
0.293668 -0.225091 0.166570
0.279129 -0.212512 0.148655
0.281165 -0.203658 0.146828
0.289357 -0.203622 0.154353
0.285857 -0.185248 0.141995
0.292548 -0.190825 0.151517
0.279117 -0.179654 0.132324
0.281411 -0.170931 0.130519
0.289566 -0.170872 0.138007
0.285899 -0.152594 0.125584
0.292868 -0.158772 0.134777
0.278846 -0.146299 0.116404
0.280956 -0.138002 0.114719
0.289145 -0.138023 0.121569
0.285036 -0.121760 0.111479
0.293209 -0.121723 0.117905
0.287891 -0.107037 0.107538
0.295244 -0.113513 0.116021
0.280461 -0.100432 0.098646
0.283643 -0.088821 0.096778
0.291828 -0.088795 0.102882
0.288201 -0.073422 0.094336
0.294473 -0.079403 0.100751
0.286531 -0.057411 0.087739
0.280785 -0.052819 0.082142
0.283685 -0.039865 0.080222
0.291861 -0.039889 0.086101
0.288004 -0.023612 0.078329
0.294186 -0.029472 0.084460
0.286040 -0.006975 0.072041
0.279980 -0.001671 0.066133
0.282336 0.009608 0.064506
0.290538 0.009529 0.070451
0.287388 0.026411 0.062597
0.293184 0.020991 0.068485
0.285657 0.043680 0.055508
0.279379 0.049863 0.049226
0.281409 0.059211 0.048165
0.289571 0.059165 0.053003
0.287052 0.076696 0.046748
0.292540 0.072058 0.050844
0.286960 0.091850 0.043166
0.286106 0.108330 0.038382
0.280115 0.113831 0.032697
0.282942 0.124671 0.031198
0.291069 0.124665 0.036509
0.287883 0.140773 0.029215
0.293871 0.135174 0.034570
0.285643 0.158249 0.022999
0.279244 0.164272 0.017648
0.280916 0.173624 0.016763
0.289087 0.173669 0.021605
0.284036 0.189786 0.015549
0.292220 0.189832 0.019835
0.288051 0.205188 0.014417
0.294298 0.199325 0.018590
0.285230 0.223896 0.008139
0.278701 0.230560 0.001706
0.280894 0.239102 0.000593
0.289043 0.238952 0.006036
0.286978 0.256316 -0.001407
0.292495 0.251082 0.003481
0.286903 0.272252 -0.006649
0.287168 0.287776 -0.012090
0.281874 0.292638 -0.016605
0.287002 0.305464 -0.016963
0.292744 0.301584 -0.013733
0.303629 -0.891543 0.304938
0.303556 -0.886901 0.295833
0.303531 -0.876601 0.291666
0.303576 -0.861211 0.284886
0.298293 -0.855862 0.279848
0.303535 -0.845484 0.277553
0.309064 -0.851030 0.282149
0.302089 -0.828750 0.270216
0.295920 -0.822974 0.263909
0.297396 -0.813258 0.262973
0.305515 -0.813277 0.268657
0.299450 -0.797011 0.261464
0.307594 -0.796986 0.266998
0.301626 -0.780423 0.259315
0.309783 -0.780402 0.264800
0.304723 -0.764690 0.258450
0.311125 -0.770671 0.263439
0.303227 -0.747529 0.256158
0.303239 -0.731154 0.254166
0.302392 -0.714798 0.249785
0.296309 -0.709614 0.244366
0.298711 -0.697990 0.243733
0.306933 -0.697805 0.248877
0.304028 -0.679673 0.244063
0.309749 -0.684391 0.248186
0.303607 -0.664292 0.241113
0.302521 -0.647742 0.236422
0.296419 -0.641993 0.230603
0.296407 -0.631590 0.230596
0.304543 -0.631755 0.235959
0.295536 -0.615966 0.231010
0.303714 -0.615955 0.235736
0.298237 -0.599644 0.229912
0.306396 -0.599478 0.234051
0.304156 -0.582837 0.228039
0.310139 -0.588182 0.232163
0.303378 -0.566355 0.225366
0.303423 -0.549979 0.223937
0.303405 -0.533598 0.220764
0.302952 -0.518808 0.217241
0.297248 -0.514456 0.213791
0.298530 -0.501255 0.213588
0.306697 -0.501116 0.217091
0.300134 -0.484987 0.213450
0.308345 -0.484753 0.216336
0.304236 -0.468788 0.212474
0.310308 -0.474397 0.215410
0.303391 -0.451724 0.209457
0.303477 -0.435049 0.206966
0.303510 -0.418519 0.204390
0.302644 -0.402666 0.201093
0.296648 -0.397467 0.196947
0.298721 -0.385877 0.196404
0.306838 -0.385921 0.200172
0.303703 -0.367990 0.196301
0.309350 -0.372578 0.199192
0.303368 -0.352760 0.194436
0.303443 -0.336194 0.192399
0.303513 -0.319406 0.189070
0.302992 -0.302871 0.184477
0.297178 -0.297306 0.180326
0.298896 -0.285796 0.179820
0.307031 -0.286020 0.183320
0.301328 -0.269510 0.179188
0.309431 -0.269630 0.182182
0.304926 -0.254345 0.178253
0.311245 -0.260687 0.181518
0.303527 -0.236552 0.174752
0.302711 -0.219809 0.170140
0.296696 -0.214064 0.164437
0.299606 -0.203527 0.162591
0.307757 -0.203593 0.168124
0.303148 -0.186353 0.158086
0.310510 -0.192826 0.166333
0.295705 -0.179811 0.148428
0.297963 -0.170775 0.146203
0.306123 -0.170819 0.154381
0.302667 -0.153046 0.141581
0.309287 -0.158341 0.151499
0.296017 -0.147738 0.131795
0.298215 -0.137995 0.129646
0.306363 -0.138008 0.137956
0.303727 -0.120662 0.126997
0.309311 -0.125429 0.134812
0.303388 -0.106861 0.120490
0.297875 -0.102522 0.113910
0.303354 -0.087593 0.111883
0.308765 -0.092366 0.118653
0.302876 -0.073240 0.105286
0.297077 -0.068574 0.098620
0.299358 -0.056209 0.096690
0.307539 -0.056069 0.103109
0.303949 -0.039525 0.094888
0.309766 -0.044801 0.101081
0.302560 -0.023546 0.088565
0.296545 -0.018345 0.082613
0.298610 -0.006720 0.081030
0.306784 -0.006687 0.086891
0.301638 0.009494 0.078846
0.309788 0.009497 0.084740
0.303875 0.024893 0.074925
0.311488 0.017653 0.083522
0.296214 0.032230 0.066095
0.298758 0.042727 0.064416
0.306947 0.042667 0.070417
0.303920 0.059902 0.062596
0.309779 0.054937 0.068285
0.301875 0.076672 0.055848
0.295448 0.082970 0.049015
0.297027 0.091896 0.048269
0.305197 0.091869 0.053955
0.300284 0.108348 0.046842
0.308448 0.108367 0.051591
0.304483 0.123935 0.044964
0.310689 0.118000 0.050120
0.302593 0.140847 0.038616
0.296616 0.146142 0.032789
0.298983 0.157468 0.031399
0.307125 0.157503 0.037057
0.303902 0.175010 0.030401
0.309716 0.170440 0.035296
0.303345 0.189996 0.026618
0.302497 0.205417 0.022224
0.296458 0.210199 0.017404
0.298531 0.222348 0.016472
0.306735 0.222559 0.020790
0.303569 0.238814 0.014435
0.309252 0.233287 0.019191
0.302336 0.256315 0.006774
0.296261 0.262270 0.001033
0.299846 0.272302 -0.000629
0.308019 0.272341 0.003438
0.304665 0.287442 -0.003698
0.311201 0.281042 0.001734
0.301673 0.305756 -0.011293
0.295225 0.311307 -0.014870
0.315411 -0.886525 0.296341
0.320429 -0.877033 0.295306
0.326216 -0.882043 0.298127
0.319705 -0.861932 0.291571
0.318801 -0.845914 0.285987
0.312888 -0.840400 0.280052
0.314785 -0.829503 0.278629
0.322844 -0.829589 0.284381
0.316696 -0.813254 0.276837
0.324802 -0.813237 0.283025
0.320416 -0.795347 0.276093
0.326343 -0.799757 0.281656
0.319621 -0.780298 0.272245
0.318428 -0.764530 0.268082
0.312226 -0.759699 0.262589
0.313762 -0.747302 0.261928
0.321958 -0.747064 0.267313
0.316514 -0.730701 0.261013
0.324736 -0.730336 0.265560
0.320778 -0.713495 0.260369
0.326896 -0.718501 0.264459
0.319851 -0.697418 0.256935
0.318420 -0.679783 0.252932
0.311982 -0.673251 0.247595
0.313093 -0.664548 0.246908
0.321221 -0.664842 0.252391
0.315562 -0.648191 0.245267
0.323643 -0.648478 0.250896
0.317657 -0.631977 0.244243
0.325742 -0.632134 0.249381
0.320763 -0.615544 0.244507
0.326896 -0.620752 0.248340
0.319667 -0.599241 0.240834
0.318777 -0.582431 0.235740
0.312735 -0.576954 0.230837
0.313575 -0.566102 0.230327
0.321740 -0.566069 0.235030
0.314550 -0.550008 0.229616
0.322701 -0.550112 0.234462
0.319516 -0.532084 0.228767
0.324863 -0.536646 0.233230
0.319613 -0.517157 0.225597
0.319641 -0.500748 0.223328
0.319722 -0.484257 0.221028
0.319277 -0.468143 0.217580
0.313474 -0.463171 0.214265
0.316066 -0.451353 0.213430
0.324271 -0.451073 0.216333
0.318678 -0.434956 0.212347
0.326856 -0.434902 0.215228
0.321449 -0.419919 0.211726
0.327939 -0.426149 0.214679
0.319767 -0.402423 0.208984
0.319704 -0.385911 0.206353
0.318246 -0.367773 0.202327
0.311763 -0.361369 0.198199
0.313370 -0.352487 0.197689
0.321590 -0.352279 0.200947
0.316627 -0.335779 0.196791
0.324813 -0.335529 0.199562
0.320935 -0.320069 0.195480
0.327053 -0.325880 0.198775
0.319914 -0.302916 0.191569
0.319880 -0.286495 0.188898
0.319820 -0.269906 0.186682
0.319264 -0.254558 0.184116
0.313448 -0.249702 0.180668
0.315596 -0.236705 0.179798
0.323751 -0.236939 0.183492
0.318043 -0.220205 0.178497
0.326182 -0.220365 0.182549
0.321238 -0.203736 0.177333
0.327585 -0.209307 0.182004
0.318682 -0.187359 0.171776
0.312458 -0.181897 0.164584
0.314202 -0.170805 0.162665
0.322357 -0.170889 0.170938
0.318679 -0.152318 0.158532
0.325119 -0.157353 0.168455
0.312192 -0.147335 0.148390
0.314250 -0.137963 0.146244
0.322393 -0.137935 0.155240
0.318821 -0.119703 0.141675
0.325427 -0.124945 0.151853
0.312173 -0.114417 0.131788
0.314557 -0.105122 0.129728
0.322687 -0.105123 0.137881
0.319071 -0.087400 0.125018
0.325868 -0.093557 0.134631
0.312194 -0.081164 0.116052
0.314476 -0.072103 0.114285
0.322642 -0.072118 0.120905
0.318081 -0.055882 0.111201
0.326224 -0.055805 0.117514
0.320426 -0.040569 0.107336
0.327914 -0.047426 0.115793
0.312871 -0.033588 0.099088
0.316179 -0.022933 0.097412
0.324328 -0.022886 0.102704
0.321020 -0.007008 0.095764
0.327300 -0.012651 0.100674
0.319732 0.009585 0.091073
0.319943 0.024342 0.086729
0.314635 0.028816 0.081396
0.319934 0.043695 0.079624
0.325521 0.038863 0.085329
0.318381 0.059840 0.073117
0.312052 0.065843 0.066469
0.313746 0.075429 0.065086
0.321885 0.075377 0.071338
0.317108 0.091893 0.062830
0.325229 0.091869 0.068854
0.321071 0.107508 0.061105
0.327409 0.101439 0.067378
0.319062 0.124005 0.054696
0.313178 0.128922 0.048582
0.315402 0.141156 0.047168
0.323528 0.141153 0.053319
0.320207 0.158398 0.045871
0.325929 0.153479 0.051416
0.318296 0.175178 0.039899
0.311868 0.181383 0.033828
0.313502 0.190217 0.032840
0.321657 0.190295 0.038352
0.316881 0.206492 0.030932
0.325038 0.206622 0.036169
0.321018 0.222135 0.029232
0.327293 0.216334 0.034661
0.319262 0.239180 0.022585
0.313456 0.244526 0.017084
0.319270 0.257258 0.015369
0.324443 0.252708 0.020206
0.319771 0.272404 0.009233
0.319768 0.284714 0.003535
0.319737 0.292928 -0.000132
0.319637 0.304860 -0.005370
0.319524 0.319779 -0.008132
0.335570 -0.907350 0.321469
0.329711 -0.902118 0.313079
0.335541 -0.894034 0.309408
0.340539 -0.899832 0.315527
0.334926 -0.877689 0.301493
0.328738 -0.872273 0.296952
0.330316 -0.862399 0.296196
0.338420 -0.862538 0.300831
0.333158 -0.846171 0.294440
0.341300 -0.846195 0.299009
0.337129 -0.829281 0.293137
0.343388 -0.834559 0.297402
0.335971 -0.813088 0.290321
0.334456 -0.795151 0.286218
0.327932 -0.788726 0.280117
0.329181 -0.780203 0.279296
0.337376 -0.780095 0.284927
0.331727 -0.763511 0.277600
0.339972 -0.763397 0.283111
0.334547 -0.746793 0.275827
0.342797 -0.746678 0.281360
0.337774 -0.731619 0.274633
0.344315 -0.738118 0.280339
0.334864 -0.713072 0.269007
0.328484 -0.707321 0.263760
0.329923 -0.697185 0.262954
0.338133 -0.697188 0.268481
0.332180 -0.681283 0.261826
0.340312 -0.681386 0.267394
0.334535 -0.665206 0.260679
0.342646 -0.665384 0.265656
0.337650 -0.650108 0.259551
0.344098 -0.656513 0.264356
0.336057 -0.632369 0.255587
0.334781 -0.615584 0.252076
0.328471 -0.609808 0.247308
0.330691 -0.599122 0.246276
0.338867 -0.599279 0.250931
0.336350 -0.581263 0.244969
0.341970 -0.586173 0.249178
0.336108 -0.566207 0.242829
0.336112 -0.550307 0.241830
0.334454 -0.532226 0.237227
0.327831 -0.525482 0.231449
0.329133 -0.517025 0.230732
0.337416 -0.517066 0.235477
0.331333 -0.500452 0.229307
0.339611 -0.500456 0.234179
0.333920 -0.483861 0.227738
0.342155 -0.483881 0.232541
0.337637 -0.468374 0.226386
0.344023 -0.474636 0.231350
0.336271 -0.450958 0.222479
0.336283 -0.434994 0.220893
0.335143 -0.420079 0.218638
0.328928 -0.415362 0.214250
0.330542 -0.402513 0.213653
0.338742 -0.402569 0.218120
0.333386 -0.385908 0.212426
0.341622 -0.385912 0.216362
0.337405 -0.369642 0.211127
0.343643 -0.375742 0.215182
0.336289 -0.352139 0.207614
0.336304 -0.335577 0.205104
0.335649 -0.320156 0.201790
0.329734 -0.315225 0.197480
0.331995 -0.303203 0.196390
0.340132 -0.303374 0.200747
0.336749 -0.285678 0.195641
0.342498 -0.290458 0.199345
0.336205 -0.270281 0.193423
0.336246 -0.253696 0.191199
0.336315 -0.237140 0.188883
0.336315 -0.220531 0.187055
0.334943 -0.203911 0.184921
0.328541 -0.198259 0.181562
0.330085 -0.187312 0.180858
0.338294 -0.187404 0.184707
0.333155 -0.170877 0.179184
0.341328 -0.170872 0.183503
0.335877 -0.153660 0.174706
0.343555 -0.160975 0.182462
0.328122 -0.146231 0.165556
0.330191 -0.137830 0.163646
0.338378 -0.137870 0.170826
0.332969 -0.120258 0.157424
0.342116 -0.121507 0.167885
0.339626 -0.106381 0.157398
0.344077 -0.112647 0.166055
0.328322 -0.113957 0.148538
0.330499 -0.105081 0.146229
0.335589 -0.087604 0.141462
0.341919 -0.092715 0.151856
0.329248 -0.082446 0.131312
0.331580 -0.072112 0.128982
0.339725 -0.072201 0.137635
0.336699 -0.054827 0.126635
0.342419 -0.059618 0.134416
0.336367 -0.040926 0.120385
0.330987 -0.036387 0.113623
0.336347 -0.022094 0.111571
0.341884 -0.027155 0.118656
0.335037 -0.006926 0.105431
0.328802 -0.001814 0.099438
0.330296 0.009645 0.098099
0.338491 0.009634 0.104391
0.333560 0.026008 0.095729
0.341723 0.025997 0.101926
0.336199 0.042394 0.091966
0.344033 0.034921 0.100332
0.328309 0.049933 0.083469
0.329691 0.059035 0.082148
0.337874 0.059008 0.088692
0.332139 0.075342 0.079833
0.340315 0.075292 0.086869
0.336658 0.092799 0.078311
0.342488 0.087843 0.085160
0.335265 0.107515 0.072486
0.329253 0.112443 0.065949
0.331082 0.124816 0.064238
0.339250 0.124753 0.071384
0.333484 0.141152 0.061907
0.341650 0.141082 0.069171
0.336009 0.158121 0.058445
0.343387 0.151678 0.067554
0.328676 0.164507 0.049518
0.330741 0.174089 0.048337
0.338884 0.174049 0.054841
0.334103 0.190423 0.046367
0.342268 0.190406 0.051805
0.337681 0.205489 0.044483
0.344133 0.199226 0.050202
0.335717 0.222405 0.038179
0.329924 0.227348 0.033054
0.332931 0.239572 0.031044
0.341055 0.239592 0.036445
0.335975 0.256620 0.026644
0.343564 0.249532 0.035058
0.328332 0.263799 0.017699
0.330693 0.272501 0.015546
0.338869 0.272449 0.022491
0.335205 0.291062 0.010673
0.342212 0.285413 0.019812
0.328301 0.296627 0.001345
0.331486 0.305107 -0.000640
0.339632 0.305077 0.006099
0.336986 0.320125 -0.001927
0.343174 0.315353 0.002727
0.352736 -0.921831 0.342428
0.352625 -0.913356 0.334590
0.352540 -0.905497 0.327150
0.353020 -0.894918 0.318624
0.348002 -0.889546 0.311601
0.350235 -0.878665 0.310164
0.358314 -0.878957 0.315172
0.351403 -0.862721 0.309126
0.359506 -0.862818 0.314253
0.353951 -0.847594 0.307761
0.360397 -0.854100 0.313561
0.351026 -0.829103 0.301697
0.344612 -0.823432 0.296289
0.345208 -0.812940 0.295740
0.353414 -0.812880 0.301745
0.346655 -0.796484 0.294731
0.354818 -0.796468 0.301085
0.349438 -0.779863 0.293108
0.357640 -0.779793 0.299092
0.353630 -0.763157 0.292199
0.359840 -0.768616 0.297380
0.352597 -0.746510 0.288315
0.351954 -0.731443 0.284547
0.345993 -0.727011 0.279349
0.348545 -0.713297 0.278043
0.356778 -0.713213 0.283417
0.350916 -0.697112 0.276686
0.359102 -0.697070 0.281873
0.353825 -0.680022 0.276629
0.360050 -0.684274 0.281234
0.352588 -0.665414 0.272766
0.351887 -0.650300 0.267960
0.345940 -0.645633 0.263075
0.347827 -0.632656 0.262080
0.356017 -0.632753 0.266897
0.350348 -0.616128 0.260967
0.358511 -0.616257 0.265591
0.353859 -0.600521 0.259616
0.360190 -0.606769 0.264530
0.351107 -0.581645 0.253143
0.344697 -0.575076 0.247567
0.345100 -0.566385 0.247362
0.353277 -0.566630 0.252326
0.346009 -0.550466 0.246897
0.354162 -0.550620 0.251957
0.348860 -0.533943 0.245434
0.357058 -0.534040 0.250217
0.353646 -0.517103 0.244077
0.359806 -0.522729 0.248428
0.352667 -0.500474 0.241134
0.352700 -0.483960 0.238535
0.352176 -0.468534 0.234723
0.346341 -0.463633 0.230073
0.348099 -0.451064 0.229116
0.356281 -0.451241 0.233900
0.349113 -0.435183 0.228535
0.357247 -0.435330 0.233272
0.350785 -0.419083 0.227771
0.358912 -0.419178 0.232213
0.354104 -0.403992 0.226527
0.360551 -0.410488 0.231199
0.352618 -0.385828 0.222182
0.351971 -0.369625 0.218503
0.346011 -0.364396 0.213927
0.347695 -0.352208 0.213057
0.355917 -0.352304 0.217595
0.352759 -0.334420 0.212137
0.358199 -0.338934 0.215936
0.352732 -0.319713 0.209721
0.352634 -0.303551 0.207317
0.351113 -0.285863 0.203133
0.344636 -0.279378 0.197827
0.345705 -0.270454 0.197200
0.353931 -0.270613 0.201994
0.348244 -0.253866 0.196056
0.356435 -0.254013 0.200439
0.353199 -0.236239 0.195457
0.358942 -0.241159 0.199067
0.352725 -0.220715 0.193815
0.352731 -0.204193 0.192767
0.352735 -0.187542 0.191460
0.352731 -0.170899 0.189610
0.352021 -0.155063 0.186366
0.346076 -0.149945 0.180875
0.348336 -0.137864 0.179048
0.356508 -0.137988 0.185735
0.351124 -0.121497 0.176141
0.359259 -0.121576 0.183711
0.353851 -0.107342 0.172991
0.360697 -0.112935 0.182282
0.346921 -0.101674 0.163089
0.351511 -0.086897 0.158655
0.357838 -0.092119 0.168941
0.345148 -0.081675 0.148240
0.347416 -0.072230 0.145886
0.355588 -0.072250 0.154598
0.351773 -0.054206 0.141169
0.358608 -0.059657 0.151070
0.344888 -0.048711 0.131507
0.347223 -0.039457 0.129588
0.355402 -0.039532 0.137551
0.351969 -0.021652 0.125279
0.358595 -0.027188 0.134607
0.345299 -0.016055 0.115818
0.346925 -0.006464 0.114545
0.355109 -0.006569 0.121959
0.349333 0.009627 0.112571
0.357516 0.009553 0.119080
0.353432 0.025775 0.110580
0.359458 0.020048 0.117205
0.352346 0.041303 0.104286
0.346728 0.045957 0.098544
0.349042 0.059020 0.096931
0.357233 0.058987 0.102999
0.353236 0.076405 0.095977
0.359146 0.071710 0.101411
0.351182 0.092761 0.090014
0.344778 0.098995 0.083304
0.346340 0.108396 0.081955
0.354532 0.108360 0.088384
0.348603 0.124738 0.079807
0.356773 0.124687 0.086730
0.350696 0.141040 0.077616
0.358853 0.140969 0.085028
0.352910 0.156670 0.074850
0.360233 0.150602 0.083813
0.345585 0.162741 0.065505
0.347739 0.174048 0.063311
0.355906 0.173983 0.071540
0.352921 0.191843 0.061253
0.358576 0.187314 0.068787
0.352363 0.205555 0.055150
0.346700 0.210174 0.048693
0.350043 0.223250 0.046776
0.358222 0.223247 0.052532
0.354117 0.238441 0.044781
0.360626 0.232165 0.050398
0.352331 0.255444 0.038637
0.346631 0.260503 0.033157
0.349865 0.272489 0.030934
0.358006 0.272474 0.036582
0.352575 0.289129 0.026611
0.360379 0.281903 0.035021
0.344751 0.296405 0.017439
0.348639 0.305171 0.014290
0.356835 0.305187 0.021233
0.353180 0.319301 0.008617
0.360644 0.313365 0.018139
0.345918 0.325024 0.001253
0.361296 -0.933586 0.361289
0.368310 -0.926550 0.354896
0.364543 -0.921646 0.343926
0.368208 -0.909897 0.338958
0.375343 -0.916604 0.348239
0.360989 -0.903249 0.329563
0.363538 -0.894892 0.326526
0.371661 -0.894588 0.333643
0.366932 -0.878853 0.323293
0.375086 -0.878608 0.331188
0.370092 -0.862839 0.323484
0.376393 -0.868189 0.330113
0.367740 -0.847444 0.318643
0.361616 -0.842823 0.311933
0.362712 -0.829277 0.310457
0.370850 -0.829204 0.318286
0.363606 -0.812796 0.309955
0.371759 -0.812755 0.317423
0.364962 -0.796427 0.309549
0.373138 -0.796374 0.316336
0.369376 -0.778504 0.308550
0.375151 -0.783248 0.314693
0.367710 -0.763005 0.302810
0.361462 -0.757456 0.296288
0.362646 -0.746359 0.295497
0.370830 -0.746512 0.302318
0.364825 -0.729760 0.293924
0.372999 -0.729966 0.300738
0.369568 -0.712202 0.292580
0.375320 -0.717292 0.298830
0.369083 -0.696887 0.289096
0.367403 -0.679863 0.286015
0.360801 -0.673858 0.280621
0.362554 -0.665418 0.279492
0.370721 -0.665236 0.285205
0.366118 -0.648980 0.277034
0.374237 -0.648802 0.282698
0.370145 -0.632728 0.275994
0.376376 -0.638086 0.281150
0.368851 -0.616250 0.272398
0.368152 -0.600726 0.268303
0.362269 -0.595808 0.263098
0.364678 -0.583209 0.261524
0.372791 -0.583318 0.266930
0.367450 -0.566833 0.260517
0.375574 -0.566862 0.265230
0.370410 -0.551846 0.260615
0.376855 -0.558085 0.264395
0.368951 -0.533852 0.256560
0.368044 -0.517022 0.251895
0.361925 -0.511462 0.247088
0.363250 -0.500467 0.246383
0.371420 -0.500505 0.251096
0.365290 -0.484108 0.245301
0.373428 -0.484253 0.249907
0.369667 -0.467288 0.244183
0.375484 -0.472557 0.248681
0.369010 -0.451415 0.240772
0.368962 -0.435270 0.239064
0.368963 -0.418917 0.236927
0.369093 -0.403583 0.233591
0.363679 -0.399154 0.229890
0.366741 -0.385516 0.228694
0.374953 -0.385207 0.232238
0.370524 -0.369513 0.227472
0.376834 -0.375308 0.231092
0.369209 -0.352374 0.224115
0.367597 -0.334548 0.219443
0.361112 -0.328138 0.213758
0.362332 -0.319842 0.213525
0.370469 -0.319755 0.218097
0.365379 -0.303495 0.212780
0.373566 -0.303287 0.216422
0.370005 -0.286902 0.211958
0.376080 -0.292168 0.215048
0.369107 -0.270415 0.209280
0.369114 -0.253914 0.206759
0.367688 -0.236349 0.202675
0.361292 -0.230024 0.197677
0.361693 -0.220783 0.197408
0.369844 -0.220886 0.201826
0.362739 -0.204280 0.196945
0.370870 -0.204329 0.200769
0.364698 -0.187587 0.196438
0.372815 -0.187697 0.199765
0.366785 -0.170946 0.195862
0.374901 -0.171101 0.198883
0.370191 -0.154165 0.195473
0.376348 -0.159461 0.198270
0.369074 -0.138134 0.193110
0.369086 -0.121702 0.190385
0.368895 -0.106611 0.186403
0.363309 -0.101981 0.179841
0.367718 -0.086313 0.175598
0.374170 -0.091602 0.184894
0.361185 -0.081052 0.165409
0.363034 -0.072201 0.163086
0.371197 -0.072228 0.172217
0.365456 -0.054935 0.156803
0.374447 -0.056020 0.168551
0.372123 -0.040505 0.157129
0.376467 -0.046619 0.166192
0.361275 -0.048759 0.147902
0.363276 -0.039553 0.145833
0.368035 -0.021227 0.141694
0.374552 -0.026321 0.151885
0.361543 -0.016132 0.131897
0.363460 -0.006620 0.130070
0.371594 -0.006677 0.138615
0.366390 0.009532 0.127195
0.374499 0.009509 0.135136
0.369365 0.025362 0.124129
0.376310 0.019571 0.133055
0.362323 0.031243 0.115109
0.364767 0.042635 0.113330
0.372931 0.042611 0.120657
0.367498 0.059030 0.111204
0.375647 0.059031 0.117956
0.368983 0.075311 0.108345
0.376841 0.068104 0.116694
0.361068 0.082613 0.099842
0.362880 0.091795 0.098674
0.371056 0.091748 0.105085
0.366085 0.108375 0.096633
0.374249 0.108324 0.102478
0.370022 0.124725 0.095708
0.376206 0.119378 0.100858
0.368913 0.140869 0.091663
0.368386 0.156564 0.087374
0.362576 0.161661 0.082158
0.365665 0.173929 0.079999
0.373806 0.173838 0.085508
0.368671 0.190848 0.075252
0.376340 0.183420 0.083803
0.361030 0.198241 0.066175
0.362909 0.206806 0.064521
0.371040 0.206727 0.071337
0.366166 0.223269 0.060911
0.374328 0.223205 0.069161
0.369566 0.238407 0.057876
0.376309 0.233595 0.067752
0.362892 0.243117 0.049075
0.365479 0.256122 0.047350
0.373633 0.256114 0.054714
0.370005 0.272906 0.045554
0.375993 0.267746 0.052340
0.368797 0.288041 0.039391
0.363027 0.292891 0.033409
0.368720 0.305833 0.029877
0.374007 0.300842 0.037474
0.369011 0.316971 0.021342
0.368951 0.324569 0.015435
0.384822 -0.934810 0.385792
0.378930 -0.934118 0.376608
0.385278 -0.926946 0.370807
0.389689 -0.932396 0.381536
0.380848 -0.921447 0.359139
0.385475 -0.911116 0.354621
0.391674 -0.916559 0.364332
0.379250 -0.905780 0.344610
0.381996 -0.894174 0.342051
0.390140 -0.893905 0.349719
0.386245 -0.876875 0.340871
0.392365 -0.881061 0.347370
0.383912 -0.862302 0.335832
0.377558 -0.857355 0.328986
0.378432 -0.845893 0.327913
0.386632 -0.845562 0.335336
0.379817 -0.829077 0.326608
0.387995 -0.828851 0.333856
0.381841 -0.812633 0.325892
0.390026 -0.812477 0.332394
0.386027 -0.795736 0.325524
0.392001 -0.800844 0.331011
0.383813 -0.778300 0.319506
0.377369 -0.771957 0.313030
0.378941 -0.762932 0.312039
0.387138 -0.762896 0.318024
0.381361 -0.746686 0.310575
0.389539 -0.746798 0.316576
0.383912 -0.730315 0.308969
0.392069 -0.730554 0.314787
0.385765 -0.714133 0.305484
0.393635 -0.722184 0.313492
0.377834 -0.705930 0.296674
0.378715 -0.696696 0.295964
0.386887 -0.696936 0.302378
0.379763 -0.681001 0.294932
0.387943 -0.681036 0.300978
0.381935 -0.664952 0.293303
0.390087 -0.664859 0.299308
0.386236 -0.648774 0.291551
0.392347 -0.654293 0.297850
0.384011 -0.632476 0.285829
0.377767 -0.627314 0.280087
0.379110 -0.616290 0.279179
0.387276 -0.616301 0.285389
0.381965 -0.599860 0.277377
0.390121 -0.599907 0.283225
0.386284 -0.583521 0.275934
0.392448 -0.589207 0.281424
0.385215 -0.566699 0.271716
0.384446 -0.551492 0.268310
0.378406 -0.547023 0.263595
0.380597 -0.533593 0.262333
0.388817 -0.533403 0.267415
0.383578 -0.516875 0.260647
0.391754 -0.516825 0.265423
0.386958 -0.501709 0.259860
0.393363 -0.507794 0.264342
0.385446 -0.484452 0.256521
0.384189 -0.467588 0.252609
0.377960 -0.461590 0.247165
0.379604 -0.451493 0.246226
0.387729 -0.451656 0.251503
0.382068 -0.435085 0.245014
0.390245 -0.435057 0.249677
0.386222 -0.418209 0.244241
0.392203 -0.423546 0.248259
0.385483 -0.401580 0.240549
0.385549 -0.384975 0.237262
0.384557 -0.369481 0.233983
0.378412 -0.364471 0.229880
0.380367 -0.352424 0.228963
0.388519 -0.352551 0.233286
0.383585 -0.335982 0.227930
0.391698 -0.336001 0.231982
0.387041 -0.321076 0.227060
0.393483 -0.327497 0.231190
0.385493 -0.303019 0.222700
0.384429 -0.286468 0.218543
0.378228 -0.281059 0.213996
0.379874 -0.270076 0.213375
0.388049 -0.269910 0.217729
0.382208 -0.253722 0.212313
0.390362 -0.253634 0.216307
0.386255 -0.235970 0.211647
0.392217 -0.240379 0.215039
0.385431 -0.220966 0.209371
0.385435 -0.204338 0.207476
0.385473 -0.187822 0.205594
0.385513 -0.171316 0.203720
0.384168 -0.154333 0.201250
0.377799 -0.148444 0.197692
0.378762 -0.138135 0.197271
0.386933 -0.138232 0.201201
0.379804 -0.121756 0.196525
0.387965 -0.121870 0.201218
0.381745 -0.105334 0.195145
0.389890 -0.105449 0.200542
0.384778 -0.087738 0.190985
0.392216 -0.094957 0.199158
0.377280 -0.080470 0.182187
0.379287 -0.072178 0.180462
0.387465 -0.072250 0.187336
0.383009 -0.055946 0.176885
0.391138 -0.055950 0.184484
0.386347 -0.041350 0.172961
0.393150 -0.047076 0.182614
0.379466 -0.035538 0.162987
0.383895 -0.020882 0.158622
0.390328 -0.026507 0.168622
0.377452 -0.015263 0.148848
0.379294 -0.006687 0.146912
0.387446 -0.006670 0.154876
0.382560 0.009519 0.143343
0.390709 0.009515 0.151289
0.385776 0.025002 0.139980
0.392703 0.019284 0.149194
0.378843 0.030727 0.131031
0.381560 0.042628 0.128842
0.389705 0.042608 0.136368
0.386244 0.059502 0.127103
0.392241 0.054424 0.134082
0.384562 0.074180 0.121411
0.378565 0.078931 0.115208
0.380994 0.091742 0.113280
0.389160 0.091657 0.119980
0.385910 0.109141 0.111612
0.391762 0.104155 0.118023
0.384069 0.124628 0.105941
0.377788 0.130100 0.099563
0.379353 0.140737 0.098369
0.387522 0.140647 0.104840
0.382181 0.157243 0.096363
0.390337 0.157182 0.102420
0.386320 0.173656 0.094583
0.392444 0.168034 0.100797
0.384683 0.189399 0.088165
0.378814 0.194364 0.081669
0.381051 0.206664 0.079690
0.389205 0.206589 0.086720
0.383741 0.223162 0.077577
0.391864 0.223091 0.084945
0.385998 0.238292 0.074775
0.393290 0.232019 0.083916
0.378705 0.244607 0.065413
0.381240 0.256133 0.062919
0.389375 0.256042 0.070862
0.385227 0.273328 0.059099
0.392073 0.267885 0.068395
0.378428 0.278742 0.050132
0.380565 0.289026 0.048492
0.388713 0.288961 0.055728
0.385252 0.306426 0.043792
0.391546 0.301140 0.053010
0.378927 0.311732 0.033421
0.381861 0.322669 0.027359
0.390746 0.321446 0.038111
0.377826 0.328711 0.017879
0.394562 -0.934861 0.391927
0.400759 -0.926254 0.388087
0.396054 -0.922404 0.375313
0.401049 -0.909756 0.371614
0.406962 -0.914148 0.383587
0.395131 -0.905457 0.360822
0.397889 -0.893791 0.358016
0.406073 -0.893823 0.367537
0.401103 -0.875970 0.354938
0.408628 -0.881648 0.364163
0.393553 -0.870400 0.346201
0.394547 -0.861617 0.345404
0.402746 -0.861335 0.352844
0.396602 -0.845113 0.343920
0.404824 -0.844875 0.350511
0.399024 -0.828474 0.342490
0.407271 -0.828304 0.348305
0.402785 -0.812411 0.341458
0.409014 -0.817838 0.346948
0.400525 -0.795406 0.335337
0.394226 -0.789785 0.329503
0.396178 -0.779344 0.328268
0.404454 -0.779207 0.333494
0.399335 -0.762829 0.326276
0.407588 -0.762801 0.331434
0.403149 -0.747405 0.325402
0.409472 -0.753048 0.330289
0.401873 -0.730604 0.321124
0.401668 -0.715655 0.316951
0.396074 -0.710953 0.312031
0.398443 -0.697318 0.310600
0.406595 -0.697658 0.315878
0.400705 -0.681292 0.309323
0.408793 -0.681569 0.314220
0.403395 -0.666738 0.307890
0.409892 -0.673495 0.313363
0.401200 -0.648657 0.301204
0.395393 -0.643243 0.295994
0.397219 -0.632118 0.294933
0.405425 -0.632143 0.299764
0.399400 -0.616209 0.293633
0.407569 -0.616173 0.298465
0.402914 -0.600909 0.291689
0.409208 -0.607130 0.297460
0.400750 -0.583407 0.285209
0.394613 -0.578089 0.279921
0.396393 -0.566543 0.278871
0.404692 -0.566470 0.284204
0.399075 -0.549859 0.277400
0.407339 -0.549804 0.282512
0.403012 -0.533760 0.276086
0.409271 -0.539557 0.281173
0.401855 -0.516909 0.271600
0.400980 -0.501964 0.268257
0.394982 -0.497244 0.263347
0.396558 -0.484695 0.262459
0.404671 -0.484912 0.268039
0.399088 -0.468397 0.261262
0.407263 -0.468541 0.266046
0.402949 -0.452717 0.260021
0.409255 -0.458906 0.264481
0.401773 -0.435070 0.255677
0.400813 -0.418107 0.251494
0.394636 -0.412272 0.246846
0.396802 -0.401413 0.245718
0.405011 -0.401665 0.250323
0.399726 -0.385018 0.244222
0.407886 -0.385316 0.248686
0.403199 -0.369442 0.243520
0.409440 -0.375157 0.247651
0.401891 -0.352790 0.240237
0.401798 -0.336195 0.237298
0.400962 -0.321115 0.234143
0.394950 -0.316517 0.230196
0.397300 -0.302883 0.228761
0.405483 -0.302999 0.233006
0.402367 -0.285225 0.227797
0.408107 -0.290064 0.231555
0.401880 -0.269839 0.224917
0.401846 -0.253633 0.222503
0.400215 -0.236005 0.219024
0.393668 -0.229567 0.214003
0.395257 -0.221004 0.213482
0.403456 -0.221058 0.218290
0.398142 -0.204380 0.212606
0.406346 -0.204447 0.216602
0.400421 -0.187963 0.211687
0.408591 -0.188027 0.214964
0.403337 -0.172240 0.211140
0.409715 -0.178208 0.214131
0.401892 -0.154944 0.208975
0.401883 -0.138371 0.207853
0.401890 -0.121947 0.207676
0.401896 -0.105498 0.206497
0.401447 -0.089232 0.202382
0.395686 -0.083815 0.197127
0.398644 -0.072272 0.195439
0.406770 -0.072377 0.200771
0.403004 -0.056078 0.193521
0.409133 -0.061626 0.199326
0.402015 -0.040719 0.186957
0.396641 -0.036034 0.179645
0.400808 -0.021356 0.175100
0.407528 -0.027291 0.184768
0.394010 -0.015389 0.165257
0.396072 -0.006609 0.163216
0.404267 -0.006633 0.170869
0.401924 0.010800 0.160444
0.407421 0.006298 0.167472
0.401445 0.025295 0.153897
0.395689 0.030441 0.146974
0.398825 0.042630 0.144608
0.406957 0.042600 0.151555
0.401807 0.058807 0.140945
0.409313 0.052420 0.149720
0.394249 0.065250 0.132076
0.396030 0.075191 0.130548
0.404203 0.075151 0.137571
0.399089 0.091613 0.128139
0.407235 0.091562 0.135019
0.401639 0.108690 0.125145
0.409200 0.102295 0.133496
0.393977 0.115187 0.116161
0.395022 0.124492 0.115104
0.403231 0.124414 0.122690
0.397010 0.140597 0.113093
0.405230 0.140575 0.120582
0.399742 0.157179 0.110679
0.407939 0.157157 0.118182
0.401967 0.172679 0.108062
0.409596 0.166347 0.116775
0.394306 0.179043 0.099222
0.395952 0.190205 0.097511
0.404146 0.190165 0.105391
0.398166 0.206585 0.095274
0.406353 0.206527 0.103527
0.400183 0.223133 0.093391
0.408345 0.223106 0.101815
0.402413 0.237621 0.091263
0.409569 0.232350 0.100659
0.395217 0.242973 0.081776
0.397900 0.255922 0.079129
0.406037 0.255753 0.087063
0.401497 0.273475 0.075336
0.408589 0.268180 0.084072
0.394558 0.278837 0.065859
0.395970 0.288904 0.063547
0.403984 0.288465 0.072592
0.397662 0.305857 0.058296
0.406304 0.304441 0.070163
0.399718 0.320768 0.058668
0.394405 0.311979 0.050102
0.395042 0.321338 0.046379
0.410578 -0.919993 0.394456
0.412541 -0.909428 0.388531
0.420452 -0.893745 0.387833
0.424325 -0.899005 0.399245
0.410146 -0.902848 0.378724
0.412319 -0.893887 0.375828
0.415186 -0.876754 0.370321
0.424367 -0.877551 0.381690
0.421328 -0.862814 0.371322
0.426224 -0.869427 0.379297
0.410261 -0.870739 0.362424
0.411910 -0.860992 0.361130
0.415292 -0.844506 0.358820
0.423480 -0.844462 0.365526
0.419422 -0.828866 0.357167
0.425751 -0.834755 0.363348
0.417185 -0.812069 0.351200
0.411060 -0.806999 0.345573
0.413452 -0.795502 0.344049
0.421672 -0.795373 0.349774
0.418758 -0.778040 0.342373
0.424511 -0.782932 0.347749
0.418349 -0.762551 0.338307
0.417427 -0.747230 0.334423
0.411333 -0.742444 0.329199
0.413180 -0.730685 0.328035
0.421358 -0.730665 0.333553
0.415906 -0.714391 0.325906
0.424044 -0.714572 0.331280
0.419514 -0.698461 0.324752
0.425809 -0.704285 0.329769
0.418089 -0.681786 0.320824
0.417921 -0.667005 0.316919
0.412405 -0.662486 0.311842
0.417933 -0.647482 0.310256
0.423280 -0.652399 0.315386
0.418037 -0.632222 0.306860
0.418028 -0.616099 0.304359
0.417967 -0.600722 0.300547
0.412434 -0.595940 0.295578
0.415859 -0.582894 0.293941
0.424106 -0.582767 0.298566
0.419843 -0.567415 0.292931
0.426353 -0.573580 0.297102
0.418331 -0.549686 0.289225
0.417405 -0.533834 0.285101
0.411315 -0.528691 0.279669
0.413299 -0.517130 0.278440
0.421453 -0.517260 0.283882
0.415578 -0.501152 0.277306
0.423695 -0.501266 0.282489
0.419072 -0.485148 0.276757
0.425139 -0.490710 0.281531
0.418118 -0.468452 0.272195
0.417571 -0.452672 0.267671
0.411654 -0.447749 0.263070
0.414632 -0.435102 0.261715
0.422866 -0.435115 0.266263
0.419357 -0.417947 0.260695
0.425488 -0.423080 0.264675
0.418346 -0.402063 0.257271
0.418316 -0.385697 0.254218
0.417194 -0.369755 0.250907
0.411045 -0.364514 0.246679
0.412956 -0.352983 0.245726
0.421088 -0.353094 0.250159
0.415902 -0.336414 0.244353
0.424077 -0.336488 0.248582
0.419575 -0.320729 0.243326
0.425892 -0.326907 0.247471
0.418295 -0.303108 0.239292
0.416898 -0.285393 0.235034
0.410483 -0.279034 0.230567
0.412399 -0.269930 0.229798
0.420576 -0.270060 0.233900
0.414645 -0.253686 0.228761
0.422823 -0.253743 0.232801
0.416210 -0.237486 0.227915
0.424383 -0.237452 0.231866
0.419514 -0.221650 0.227085
0.425780 -0.227587 0.231078
0.418287 -0.204387 0.223562
0.418292 -0.188008 0.221009
0.417044 -0.172290 0.217974
0.410750 -0.167201 0.213570
0.412091 -0.155030 0.213064
0.420271 -0.155088 0.217604
0.413582 -0.138456 0.212467
0.421760 -0.138512 0.216650
0.414214 -0.121935 0.212113
0.422385 -0.121973 0.215950
0.415463 -0.105443 0.211605
0.423618 -0.105464 0.215182
0.419220 -0.089002 0.210866
0.425295 -0.094518 0.214430
0.418256 -0.072459 0.207643
0.417184 -0.056078 0.203876
0.411011 -0.050618 0.197907
0.414006 -0.039437 0.196005
0.422142 -0.039485 0.202390
0.418152 -0.022875 0.191092
0.425239 -0.029422 0.199914
0.410949 -0.016211 0.181468
0.413909 -0.006588 0.179220
0.422069 -0.006640 0.186414
0.417848 0.010342 0.173909
0.425186 0.003668 0.183550
0.410414 0.017053 0.164424
0.412872 0.025953 0.162800
0.421066 0.025950 0.169395
0.418596 0.043071 0.160325
0.424366 0.037849 0.166913
0.417509 0.058279 0.153887
0.411611 0.063204 0.147778
0.414261 0.075169 0.145804
0.422423 0.075155 0.151839
0.418955 0.092199 0.144110
0.424936 0.087121 0.149918
0.417115 0.107923 0.138288
0.410980 0.113273 0.132185
0.412782 0.124417 0.130883
0.420939 0.124423 0.136998
0.415545 0.140662 0.128803
0.423696 0.140704 0.134902
0.419317 0.156551 0.127042
0.425561 0.150638 0.133468
0.417460 0.172609 0.121164
0.411583 0.177332 0.115320
0.413894 0.190171 0.113705
0.422056 0.190101 0.120176
0.416817 0.206525 0.111864
0.424964 0.206470 0.117877
0.419915 0.221428 0.110812
0.426450 0.214816 0.116580
0.418113 0.238482 0.104335
0.412583 0.243198 0.098520
0.418130 0.256454 0.095556
0.423496 0.251743 0.101530
0.416771 0.272628 0.088147
0.410392 0.278890 0.082300
0.411668 0.287984 0.080528
0.419739 0.287524 0.086212
0.412562 0.303831 0.078037
0.420661 0.303214 0.087342
0.427370 -0.902840 0.409073
0.430999 -0.893229 0.404188
0.439604 -0.878465 0.403374
0.442709 -0.884155 0.413278
0.427719 -0.887905 0.393429
0.430656 -0.877405 0.389993
0.435149 -0.863097 0.386410
0.441629 -0.867416 0.397389
0.428659 -0.858528 0.376904
0.434272 -0.843114 0.374733
0.439562 -0.847797 0.382282
0.433855 -0.828743 0.368226
0.427989 -0.823779 0.361682
0.429671 -0.811526 0.360174
0.437843 -0.811720 0.367022
0.431882 -0.795326 0.358019
0.440046 -0.795590 0.365245
0.434507 -0.778647 0.354501
0.441902 -0.785583 0.363615
0.427098 -0.771793 0.345778
0.428470 -0.762364 0.344820
0.436608 -0.762394 0.351344
0.430372 -0.746435 0.343365
0.438523 -0.746444 0.349887
0.432512 -0.730498 0.341780
0.440642 -0.730460 0.348136
0.435927 -0.715194 0.340390
0.442238 -0.720978 0.346743
0.433321 -0.698556 0.334573
0.427088 -0.693431 0.329044
0.428747 -0.682029 0.328167
0.436886 -0.682045 0.334108
0.432178 -0.665549 0.326119
0.440315 -0.665636 0.331705
0.434628 -0.649226 0.321919
0.442464 -0.657146 0.329950
0.426736 -0.641194 0.312954
0.427990 -0.632229 0.312285
0.436145 -0.632259 0.318275
0.430397 -0.615946 0.311102
0.438598 -0.615836 0.316387
0.435122 -0.599019 0.309688
0.440936 -0.604285 0.314827
0.434673 -0.582557 0.304652
0.433666 -0.567269 0.300857
0.427491 -0.562582 0.296332
0.428730 -0.549651 0.295440
0.436885 -0.549839 0.300867
0.431393 -0.533442 0.293994
0.439497 -0.533629 0.299110
0.435656 -0.517799 0.292637
0.441810 -0.523552 0.297571
0.434473 -0.501122 0.288799
0.433698 -0.484864 0.284858
0.427673 -0.479657 0.279920
0.431051 -0.468122 0.278439
0.439310 -0.467744 0.282653
0.435992 -0.452174 0.276648
0.442305 -0.457926 0.280853
0.434781 -0.434955 0.272216
0.433443 -0.418144 0.268055
0.427092 -0.412243 0.263507
0.429033 -0.402399 0.262478
0.437139 -0.402572 0.267054
0.434663 -0.384497 0.261617
0.440091 -0.389042 0.265427
0.434567 -0.369518 0.259083
0.434585 -0.352915 0.256336
0.434647 -0.336272 0.253549
0.434155 -0.320601 0.250232
0.428325 -0.315754 0.246319
0.431209 -0.303133 0.245103
0.439379 -0.303117 0.248971
0.435710 -0.286774 0.244053
0.441830 -0.292401 0.247764
0.434649 -0.270053 0.240738
0.434643 -0.253639 0.238607
0.434656 -0.237282 0.236904
0.433729 -0.221437 0.234218
0.427642 -0.216419 0.230181
0.429210 -0.204251 0.229454
0.437385 -0.204120 0.233799
0.431047 -0.187890 0.228335
0.439219 -0.187770 0.232612
0.435218 -0.170185 0.227645
0.441016 -0.174706 0.231375
0.434676 -0.154957 0.225306
0.434682 -0.138393 0.223477
0.434702 -0.121941 0.221854
0.434708 -0.105481 0.220196
0.433661 -0.088978 0.217516
0.427491 -0.083494 0.213504
0.428914 -0.072446 0.213050
0.437095 -0.072438 0.217150
