-0.669661 0.386514 0.551304
-0.660858 0.401234 0.551831
-0.671773 0.389746 0.534963
-0.665716 0.400025 0.534951
-0.672941 0.391548 0.526255
-0.669930 0.399722 0.519676
-0.670273 0.387511 0.239753
-0.671702 0.389795 0.250111
-0.661675 0.401609 0.238223
-0.668034 0.399843 0.255659
-0.660042 0.398228 0.223293
-0.657978 0.394889 0.206957
-0.656918 0.392750 0.194342
-0.658779 0.411594 0.534765
-0.657205 0.409196 0.546658
-0.661036 0.414897 0.517495
-0.670749 0.404345 0.502012
-0.661589 0.418010 0.502342
-0.671923 0.406325 0.485776
-0.664962 0.416414 0.485740
-0.672820 0.407621 0.475921
-0.668705 0.415402 0.469834
-0.672730 0.407449 0.349541
-0.671898 0.406389 0.338184
-0.665697 0.416421 0.337917
-0.668466 0.415064 0.354840
-0.671213 0.405396 0.321800
-0.664489 0.416421 0.321558
-0.670974 0.405055 0.305412
-0.663713 0.416433 0.305442
-0.670373 0.403828 0.288991
-0.662624 0.416430 0.288955
-0.669396 0.403148 0.272453
-0.660365 0.417688 0.272079
-0.659545 0.413296 0.255108
-0.657771 0.410144 0.242617
-0.657146 0.425130 0.498053
-0.658026 0.426316 0.485737
-0.659618 0.428360 0.468975
-0.668960 0.418108 0.452810
-0.660683 0.429674 0.452585
-0.668768 0.417815 0.436660
-0.660500 0.429473 0.436637
-0.668701 0.417631 0.420275
-0.660435 0.429328 0.420285
-0.669529 0.418902 0.403343
-0.661219 0.430449 0.403213
-0.669648 0.419143 0.386640
-0.661314 0.430645 0.386337
-0.668606 0.417743 0.370732
-0.660324 0.429357 0.370581
-0.659417 0.428227 0.354590
-0.658763 0.427504 0.337738
-0.658209 0.426795 0.321398
-0.657641 0.425898 0.305458
-0.657108 0.425193 0.288913
-0.656814 0.424792 0.278411
-0.642729 -0.368603 0.501436
-0.640043 -0.376145 0.485921
-0.639602 -0.375614 0.496284
-0.645260 -0.367211 0.485912
-0.640705 -0.377057 0.467764
-0.647023 -0.367216 0.468633
-0.647809 -0.367214 0.451448
-0.641036 -0.377587 0.449738
-0.646897 -0.367212 0.435875
-0.640938 -0.377409 0.435030
-0.640781 -0.377206 0.420107
-0.646233 -0.367213 0.420192
-0.646744 -0.367214 0.403026
-0.640763 -0.377310 0.402096
-0.646266 -0.367210 0.386543
-0.640376 -0.376773 0.385565
-0.643406 -0.368405 0.371027
-0.639783 -0.375901 0.376314
-0.649880 -0.349379 0.534204
-0.640793 -0.362345 0.534748
-0.639929 -0.360201 0.545454
-0.644112 -0.351629 0.551166
-0.642065 -0.365233 0.517667
-0.650418 -0.352399 0.518376
-0.651763 -0.353944 0.502094
-0.652981 -0.355123 0.485898
-0.654057 -0.356609 0.469419
-0.654487 -0.357194 0.452975
-0.653727 -0.356148 0.436625
-0.653233 -0.355472 0.420253
-0.653682 -0.356144 0.403780
-0.653565 -0.355881 0.387257
-0.652395 -0.354038 0.370728
-0.651044 -0.352098 0.354414
-0.642784 -0.365159 0.354642
-0.641599 -0.362781 0.337973
-0.650771 -0.349302 0.338894
-0.647378 -0.350784 0.321817
-0.640519 -0.360762 0.321588
-0.644251 -0.352134 0.305190
-0.639821 -0.359783 0.310462
-0.650532 -0.336473 0.567238
-0.642264 -0.346880 0.567341
-0.640371 -0.344208 0.578666
-0.647305 -0.334201 0.582535
-0.653192 -0.339551 0.551541
-0.654980 -0.341574 0.539212
-0.654531 -0.340857 0.321718
-0.655432 -0.341926 0.333755
-0.653378 -0.339590 0.305477
-0.651979 -0.337799 0.288752
-0.643710 -0.349043 0.288796
-0.641788 -0.346685 0.270835
-0.651080 -0.333637 0.269341
-0.640315 -0.344418 0.258189
-0.645079 -0.335354 0.252803
-0.647091 -0.317544 0.615561
-0.643555 -0.331542 0.600016
-0.641171 -0.328569 0.611928
-0.651837 -0.320064 0.600085
-0.654262 -0.323206 0.586668
-0.654035 -0.322912 0.253099
-0.655631 -0.325585 0.261990
-0.642780 -0.330590 0.237166
-0.651656 -0.317398 0.237716
-0.640602 -0.327694 0.224822
-0.644526 -0.319163 0.220566
-0.649518 -0.300368 0.631704
-0.641356 -0.313093 0.630972
-0.639393 -0.309950 0.638232
-0.641843 -0.301606 0.643763
-0.653067 -0.305034 0.620118
-0.655373 -0.308641 0.233450
-0.653226 -0.305086 0.223114
-0.641852 -0.314374 0.205687
-0.650272 -0.300173 0.208096
-0.643405 -0.302610 0.190147
-0.640234 -0.311236 0.194982
-0.653633 -0.290064 0.637213
-0.648091 -0.286029 0.650437
-0.652865 -0.284912 0.188956
-0.654248 -0.290146 0.203548
-0.647642 -0.285248 0.174152
-0.641171 -0.297001 0.174206
-0.639816 -0.293824 0.165544
-0.642154 -0.284756 0.158772
-0.653538 -0.273738 0.653726
-0.648338 -0.269459 0.665594
-0.642490 -0.282003 0.661977
-0.654327 -0.274272 0.174078
-0.656064 -0.276935 0.182496
-0.651415 -0.268309 0.156920
-0.644126 -0.269499 0.139956
-0.640434 -0.278945 0.145472
-0.654162 -0.258667 0.669195
-0.647381 -0.252595 0.680690
-0.643098 -0.265169 0.675536
-0.653472 -0.253093 0.139301
-0.655154 -0.258991 0.151159
-0.641651 -0.264499 0.127655
-0.645700 -0.253542 0.123511
-0.652594 -0.236009 0.688026
-0.640645 -0.246506 0.690461
-0.644274 -0.236005 0.694808
-0.653932 -0.240847 0.124908
-0.656009 -0.244029 0.133461
-0.650105 -0.235197 0.109327
-0.641818 -0.248116 0.108542
-0.639885 -0.244877 0.099389
-0.642508 -0.235996 0.093036
-0.655574 -0.227565 0.690848
-0.649307 -0.221953 0.699831
-0.654140 -0.224552 0.104301
-0.651275 -0.219300 0.091924
-0.640671 -0.230386 0.080700
-0.643392 -0.219960 0.075125
-0.654094 -0.208700 0.703478
-0.642994 -0.216355 0.709473
-0.647657 -0.203619 0.713411
-0.652034 -0.202764 0.075033
-0.654445 -0.207952 0.086154
-0.640986 -0.214643 0.063309
-0.644066 -0.203992 0.058456
-0.652111 -0.186783 0.718039
-0.641274 -0.198533 0.723915
-0.643826 -0.186788 0.728146
-0.655080 -0.192888 0.070072
-0.652725 -0.187239 0.058648
-0.641172 -0.199036 0.047468
-0.644248 -0.187445 0.042321
-0.654265 -0.173974 0.721400
-0.647503 -0.170380 0.731821
-0.655390 -0.177415 0.052775
-0.652208 -0.171473 0.042826
-0.641010 -0.182417 0.032215
-0.643161 -0.169968 0.026197
-0.651032 -0.153972 0.734481
-0.640710 -0.166803 0.741541
-0.642699 -0.153979 0.742970
-0.654529 -0.158564 0.037089
-0.650583 -0.153564 0.026486
-0.641788 -0.152974 0.009989
-0.640357 -0.164017 0.016049
-0.653474 -0.140334 0.737798
-0.647657 -0.135942 0.743992
-0.653250 -0.137796 0.021557
-0.646750 -0.137763 0.009013
-0.639793 -0.146525 0.001131
-0.641365 -0.137706 -0.001821
-0.646266 -0.121341 0.749531
-0.652460 -0.121323 0.010329
-0.655078 -0.126655 0.019262
-0.643931 -0.121884 -0.007217
-0.649850 -0.104803 0.750425
-0.640023 -0.116008 0.757050
-0.641517 -0.104848 0.757921
-0.651285 -0.103879 -0.005291
-0.654453 -0.108725 0.005507
-0.640907 -0.116725 -0.016518
-0.642399 -0.103267 -0.022603
-0.652007 -0.088481 0.750973
-0.643650 -0.088526 0.757705
-0.649353 -0.086861 -0.023074
-0.653927 -0.091333 -0.011053
-0.640998 -0.088413 -0.035421
-0.639631 -0.096706 -0.031405
-0.653775 -0.072099 0.751758
-0.645423 -0.072134 0.758818
-0.642691 -0.071458 -0.042326
-0.651565 -0.072066 -0.026393
-0.654785 -0.060828 0.753294
-0.647073 -0.055389 0.762787
-0.653439 -0.055786 -0.027830
-0.646759 -0.055820 -0.040687
-0.641103 -0.055842 -0.051626
-0.639813 -0.065607 -0.050570
-0.648086 -0.039224 0.764532
-0.639408 -0.049993 0.772293
-0.639776 -0.039279 0.771829
-0.655037 -0.043899 -0.029413
-0.651567 -0.038960 -0.039045
-0.642962 -0.039659 -0.054229
-0.648678 -0.022817 0.763595
-0.640349 -0.022875 0.770720
-0.644135 -0.022966 -0.059437
-0.653072 -0.023374 -0.044742
-0.649464 -0.006512 0.764116
-0.641140 -0.006581 0.771233
-0.654800 -0.007254 -0.047778
-0.647994 -0.007219 -0.058327
-0.641142 -0.007140 -0.068304
-0.640219 -0.017163 -0.068037
-0.646631 0.009352 0.764863
-0.640675 0.003694 0.771167
-0.655681 0.005401 -0.047946
-0.650867 0.010042 -0.054822
-0.641776 0.008774 -0.067125
-0.647084 0.025742 0.765106
-0.651038 0.025531 -0.057168
-0.642831 0.025357 -0.068006
-0.651372 0.041845 0.765482
-0.641421 0.031097 0.772024
-0.643004 0.041963 0.773078
-0.653011 0.042378 -0.059984
-0.643610 0.043817 -0.072655
-0.651067 0.057860 0.765617
-0.642674 0.058001 0.772916
-0.653932 0.058652 -0.061190
-0.646117 0.058734 -0.071894
-0.639298 0.050377 -0.080236
-0.639955 0.058774 -0.081046
-0.649705 0.073960 0.766014
-0.641347 0.073999 0.772863
-0.647150 0.074733 -0.071900
-0.654142 0.074537 -0.061173
-0.640987 0.074856 -0.082216
-0.648776 0.090073 0.765098
-0.640424 0.090119 0.771695
-0.648081 0.090822 -0.072016
-0.654771 0.090539 -0.061961
-0.641337 0.091047 -0.083088
-0.648052 0.106199 0.763145
-0.639684 0.106251 0.769787
-0.655371 0.106709 -0.063219
-0.648690 0.107029 -0.072367
-0.641258 0.107310 -0.083941
-0.646489 0.120062 0.761464
-0.639164 0.114773 0.769278
-0.654887 0.122982 -0.062357
-0.648205 0.123286 -0.072344
-0.641280 0.123506 -0.083822
-0.653795 0.125406 0.753850
-0.652348 0.138582 0.752084
-0.644015 0.138601 0.758790
-0.653924 0.139316 -0.060244
-0.646965 0.139581 -0.071996
-0.641076 0.139713 -0.082781
-0.650817 0.154567 0.749809
-0.642491 0.154627 0.756355
-0.653501 0.155588 -0.059890
-0.645902 0.155850 -0.071907
-0.640408 0.156010 -0.081666
-0.648767 0.170706 0.747775
-0.640437 0.170754 0.753974
-0.652804 0.171820 -0.059263
-0.643645 0.171570 -0.072921
-0.639856 0.165962 -0.080717
-0.647066 0.186355 0.745795
-0.639350 0.179401 0.753074
-0.652063 0.188920 -0.055027
-0.643108 0.188204 -0.069339
-0.654724 0.193373 0.737727
-0.652498 0.203462 0.736158
-0.644262 0.203434 0.743927
-0.655671 0.194855 -0.046721
-0.654308 0.204105 -0.044336
-0.648167 0.204197 -0.055643
-0.641750 0.204269 -0.067307
-0.649347 0.219823 0.733600
-0.641091 0.219853 0.741855
-0.652757 0.221017 -0.039866
-0.643668 0.221823 -0.058928
-0.640602 0.217386 -0.066248
-0.646484 0.234432 0.730457
-0.639510 0.228647 0.740416
-0.655718 0.226854 -0.030990
-0.647654 0.236493 -0.041441
-0.653839 0.236413 -0.027381
-0.641690 0.236586 -0.055483
-0.653452 0.240255 0.720345
-0.651071 0.253978 0.715312
-0.641813 0.252485 0.725727
-0.642218 0.252053 -0.040243
-0.650773 0.251560 -0.021630
-0.640135 0.246211 -0.051661
-0.644559 0.267443 0.715097
-0.639550 0.260931 0.723675
-0.655635 0.260466 0.707034
-0.654046 0.268933 0.704573
-0.654514 0.256214 -0.010448
-0.643612 0.269427 -0.023698
-0.652094 0.268537 -0.005669
-0.640685 0.264226 -0.033186
-0.651751 0.285369 0.700204
-0.643422 0.285447 0.708565
-0.654835 0.273619 0.004252
-0.645783 0.285314 -0.007170
-0.653136 0.286100 0.007899
-0.641204 0.285384 -0.017862
-0.647415 0.301148 0.696515
-0.641497 0.296886 0.705554
-0.655912 0.292125 0.015795
-0.646696 0.301639 0.007306
-0.653245 0.302064 0.023379
-0.641205 0.300137 -0.005983
-0.639877 0.293719 -0.014712
-0.653414 0.305470 0.687190
-0.648938 0.319444 0.683220
-0.642299 0.314902 0.692812
-0.655313 0.307841 0.037265
-0.652700 0.317707 0.042799
-0.644648 0.318593 0.025039
-0.641335 0.312692 0.008228
-0.639935 0.310033 0.000141
-0.655506 0.324013 0.672592
-0.653047 0.335146 0.666679
-0.644495 0.334414 0.679450
-0.655181 0.322945 0.056507
-0.644355 0.335391 0.041880
-0.651866 0.332852 0.060622
-0.641708 0.330541 0.030843
-0.644849 0.351044 0.665960
-0.641453 0.345717 0.676161
-0.655541 0.341103 0.656698
-0.653159 0.350793 0.652508
-0.655967 0.341395 0.084871
-0.654383 0.337646 0.075051
-0.654304 0.351155 0.090437
-0.649439 0.350832 0.073405
-0.643516 0.351414 0.057416
-0.641399 0.346346 0.046810
-0.647410 0.366824 0.647019
-0.641809 0.362667 0.659687
-0.655742 0.356888 0.102871
-0.646924 0.367258 0.090481
-0.652135 0.366519 0.108434
-0.642618 0.366955 0.073986
-0.641181 0.361273 0.061195
-0.653120 0.370808 0.632046
-0.641952 0.378370 0.642494
-0.644662 0.383744 0.631485
-0.655436 0.373695 0.622860
-0.652471 0.383359 0.617220
-0.655815 0.374386 0.135798
-0.654207 0.371691 0.124975
-0.647076 0.383654 0.124935
-0.652064 0.382715 0.141287
-0.642833 0.383490 0.110166
-0.641070 0.377432 0.090650
-0.639954 0.375635 0.080661
-0.643566 0.399692 0.615837
-0.641320 0.394020 0.626477
-0.655378 0.389384 0.600749
-0.649404 0.400019 0.600496
-0.656502 0.391752 0.592467
-0.654003 0.400477 0.585635
-0.656465 0.391639 0.183415
-0.655656 0.390237 0.174180
-0.650324 0.400044 0.174184
-0.653268 0.398942 0.189409
-0.653710 0.387179 0.157748
-0.646701 0.400034 0.157127
-0.642710 0.400197 0.141051
-0.641242 0.394117 0.124546
-0.640245 0.391880 0.116711
-0.642290 0.411730 0.599836
-0.640634 0.409156 0.609998
-0.644465 0.417030 0.582020
-0.655358 0.406182 0.567780
-0.648767 0.416422 0.567035
-0.656130 0.407477 0.557580
-0.652165 0.415367 0.551871
-0.656386 0.408117 0.231825
-0.655346 0.406405 0.223117
-0.652739 0.415936 0.237980
-0.649141 0.416437 0.222579
-0.653713 0.403074 0.206560
-0.646351 0.416439 0.205442
-0.643494 0.417278 0.190418
-0.642983 0.413140 0.174209
-0.641294 0.410374 0.156494
-0.640198 0.408680 0.146020
-0.640652 0.425504 0.575224
-0.641721 0.427001 0.566355
-0.643163 0.429441 0.551522
-0.653401 0.419779 0.534454
-0.644290 0.433671 0.533317
-0.655638 0.423088 0.516735
-0.648397 0.432827 0.516445
-0.656676 0.424525 0.507342
-0.651992 0.431490 0.502007
-0.656145 0.423994 0.265393
-0.654409 0.421497 0.254167
-0.645473 0.433905 0.254125
-0.651145 0.431287 0.271699
-0.643632 0.429900 0.239366
-0.641989 0.427587 0.222261
-0.640786 0.425981 0.204730
-0.640075 0.424993 0.195258
-0.640390 0.441469 0.526455
-0.641156 0.442463 0.516252
-0.642563 0.444332 0.500941
-0.652121 0.434514 0.485771
-0.643887 0.446204 0.485823
-0.653150 0.436553 0.468951
-0.644904 0.447209 0.468671
-0.653880 0.437868 0.452493
-0.645640 0.448077 0.451992
-0.653926 0.437665 0.436579
-0.644715 0.450672 0.436134
-0.653900 0.437516 0.420271
-0.646156 0.449241 0.420255
-0.654694 0.438642 0.403465
-0.647195 0.449243 0.403395
-0.654853 0.438848 0.386769
-0.647258 0.449239 0.386820
-0.654027 0.437556 0.370738
-0.644893 0.450705 0.370313
-0.653263 0.436422 0.354569
-0.644999 0.448558 0.354558
-0.652442 0.435697 0.337671
-0.644141 0.447451 0.337387
-0.651881 0.434992 0.321337
-0.643583 0.446534 0.321050
-0.651395 0.434094 0.305450
-0.643121 0.445812 0.305418
-0.650805 0.433394 0.288927
-0.642533 0.444773 0.288953
-0.641800 0.443732 0.271457
-0.640909 0.442369 0.259206
-0.640755 0.458103 0.420247
-0.640453 0.457644 0.430722
-0.640915 0.458566 0.403184
-0.640791 0.458479 0.386635
-0.640560 0.457997 0.375351
-0.627878 -0.384628 0.534818
-0.624919 -0.393351 0.518205
-0.624028 -0.392477 0.529612
-0.631822 -0.383617 0.517311
-0.625345 -0.393859 0.502052
-0.634467 -0.382090 0.501296
-0.633620 -0.384353 0.485903
-0.625513 -0.394115 0.485929
-0.634404 -0.385272 0.467770
-0.626368 -0.395083 0.468441
-0.627083 -0.395890 0.450976
-0.635040 -0.385806 0.449726
-0.627190 -0.395898 0.435573
-0.635221 -0.385627 0.434966
-0.635092 -0.385416 0.420027
-0.627001 -0.395655 0.420115
-0.634764 -0.385520 0.402277
-0.626744 -0.395574 0.403190
-0.626096 -0.394928 0.386843
-0.634116 -0.384982 0.385849
-0.634046 -0.382270 0.371003
-0.624972 -0.393692 0.371034
-0.624064 -0.392685 0.354655
-0.630768 -0.383601 0.354621
-0.627900 -0.385088 0.336159
-0.623632 -0.392080 0.342149
-0.627518 -0.367692 0.567638
-0.626006 -0.379521 0.551509
-0.624116 -0.376484 0.562046
-0.634355 -0.366280 0.551151
-0.636565 -0.370559 0.534381
-0.638267 -0.373450 0.516795
-0.639147 -0.374988 0.505614
-0.638928 -0.374667 0.365738
-0.638054 -0.373358 0.354609
-0.636858 -0.370980 0.337347
-0.635367 -0.368960 0.320881
-0.627376 -0.381474 0.320191
-0.625610 -0.378510 0.305129
-0.634575 -0.366033 0.305069
-0.629123 -0.368498 0.288186
-0.624302 -0.376662 0.293137
-0.632023 -0.351351 0.585269
-0.625426 -0.362550 0.580626
-0.636057 -0.355106 0.567641
-0.638135 -0.357656 0.556373
-0.637916 -0.357252 0.288881
-0.639088 -0.358512 0.299551
-0.635912 -0.354906 0.271644
-0.627877 -0.365000 0.272449
-0.625205 -0.361572 0.256124
-0.633951 -0.350275 0.254420
-0.627566 -0.351336 0.240636
-0.623404 -0.359329 0.247230
-0.636787 -0.339761 0.600322
-0.628634 -0.348222 0.600601
-0.625837 -0.345170 0.613229
-0.632198 -0.335282 0.617453
-0.638685 -0.341885 0.589882
-0.636622 -0.338790 0.238362
-0.638514 -0.341473 0.248146
-0.634567 -0.333674 0.220798
-0.625649 -0.345987 0.223304
-0.628350 -0.335342 0.206140
-0.623950 -0.343512 0.212649
-0.635828 -0.321334 0.630204
-0.627832 -0.331239 0.631004
-0.624877 -0.328135 0.641790
-0.629896 -0.316278 0.646569
-0.638480 -0.325012 0.620931
-0.637163 -0.322565 0.204709
-0.638856 -0.325393 0.213313
-0.626375 -0.330792 0.190261
-0.635013 -0.317229 0.189745
-0.624522 -0.328046 0.177166
-0.628240 -0.319603 0.172691
-0.635820 -0.301600 0.652924
-0.627239 -0.300691 0.665513
-0.624197 -0.311687 0.659501
-0.636685 -0.305191 0.174196
-0.638718 -0.308726 0.184522
-0.625735 -0.315179 0.160554
-0.631382 -0.301819 0.157579
-0.636030 -0.286590 0.667145
-0.623873 -0.294595 0.675268
-0.627315 -0.285236 0.678149
-0.639073 -0.292942 0.657636
-0.636911 -0.289923 0.154343
-0.626098 -0.298888 0.144128
-0.632174 -0.286192 0.139439
-0.638766 -0.276110 0.672942
-0.632580 -0.270462 0.682186
-0.638290 -0.275432 0.134627
-0.627528 -0.282485 0.124869
-0.636022 -0.269515 0.123529
-0.624759 -0.278852 0.114196
-0.628335 -0.269082 0.108639
-0.637080 -0.257463 0.685744
-0.626479 -0.264821 0.691162
-0.630797 -0.251854 0.696401
-0.636606 -0.256268 0.108530
-0.638903 -0.259698 0.117646
-0.631358 -0.251812 0.092465
-0.625552 -0.263772 0.096805
-0.635833 -0.235984 0.702867
-0.627781 -0.236008 0.711096
-0.624495 -0.246242 0.707875
-0.632102 -0.236984 0.074525
-0.626403 -0.247839 0.079086
-0.637092 -0.241341 0.088083
-0.638765 -0.227311 0.705976
-0.632791 -0.221326 0.716049
-0.637836 -0.225650 0.069958
-0.627064 -0.232632 0.062385
-0.632787 -0.221133 0.057452
-0.637522 -0.209477 0.720437
-0.631211 -0.203327 0.730677
-0.626890 -0.215348 0.726177
-0.633020 -0.204944 0.041335
-0.627820 -0.216665 0.046211
-0.638488 -0.209976 0.052612
-0.636202 -0.186782 0.736791
-0.628129 -0.186832 0.742487
-0.624892 -0.197191 0.740389
-0.632083 -0.187618 0.025489
-0.627562 -0.199982 0.030518
-0.638201 -0.193197 0.036429
-0.638896 -0.177752 0.739733
-0.632557 -0.171532 0.745184
-0.631092 -0.170367 0.010050
-0.625865 -0.181989 0.014188
-0.636596 -0.174951 0.020663
-0.630291 -0.153776 0.751366
-0.636268 -0.157625 0.005731
-0.625549 -0.165738 -0.001057
-0.630568 -0.153063 -0.005356
-0.634739 -0.137572 0.752546
-0.626717 -0.137631 0.757799
-0.624356 -0.148180 0.756932
-0.636799 -0.146405 0.292473
-0.643823 -0.146378 0.292344
-0.643841 -0.146387 0.296151
-0.636802 -0.146418 0.296279
-0.643843 -0.143181 0.292443
-0.636798 -0.143221 0.292554
-0.636801 -0.143235 0.296361
-0.627839 -0.137817 -0.019504
-0.624908 -0.148612 -0.016181
-0.635796 -0.137739 -0.009898
-0.637338 -0.126914 0.754175
-0.631584 -0.121394 0.759720
-0.638508 -0.127678 -0.013259
-0.632095 -0.122658 -0.023482
-0.630962 -0.104944 0.764632
-0.636287 -0.107681 -0.027636
-0.625563 -0.117626 -0.033201
-0.629982 -0.102405 -0.037688
-0.630453 -0.089873 0.766947
-0.626292 -0.088521 -0.050914
-0.623664 -0.097131 -0.047566
-0.634299 -0.088445 -0.043325
-0.635532 -0.072211 0.766937
-0.627499 -0.072370 0.772582
-0.624815 -0.085360 0.771648
-0.637644 -0.076506 -0.048178
-0.631034 -0.071536 -0.056248
-0.637862 -0.060955 0.769122
-0.631810 -0.055616 0.774491
-0.626061 -0.056029 -0.067657
-0.624384 -0.066595 -0.065008
-0.634129 -0.055929 -0.058859
-0.630815 -0.039317 0.777098
-0.627833 -0.039383 -0.073318
-0.636585 -0.039681 -0.061857
-0.630883 -0.022984 0.777460
-0.634044 -0.022965 -0.073263
-0.638348 -0.028106 -0.064722
-0.624033 -0.033706 -0.081880
-0.625539 -0.023405 -0.085304
-0.630926 -0.006689 0.778708
-0.627256 -0.007041 -0.088344
-0.635313 -0.007123 -0.076105
-0.630335 0.009289 0.775218
-0.627365 0.008319 -0.090160
-0.636041 0.008903 -0.075137
-0.635402 0.014447 0.769384
-0.635383 0.020271 0.769440
-0.630303 0.025813 0.776275
-0.630642 0.025626 -0.088456
-0.637078 0.025435 -0.076219
-0.625145 0.025723 -0.100046
-0.624052 0.013283 -0.097796
-0.630844 0.042099 0.782224
-0.635086 0.043780 -0.087134
-0.638396 0.039221 -0.078604
-0.626885 0.042134 -0.104261
-0.630897 0.058012 0.781321
-0.635869 0.058656 -0.089765
-0.627274 0.057654 -0.107990
-0.630987 0.073796 0.779591
-0.636395 0.074752 -0.090616
-0.629140 0.074584 -0.105244
-0.623939 0.062459 -0.115145
-0.624394 0.074539 -0.115094
-0.630992 0.089835 0.777906
-0.629920 0.090870 -0.105478
-0.636904 0.090962 -0.091753
-0.624640 0.090912 -0.115616
-0.630962 0.105989 0.775783
-0.630699 0.107215 -0.105988
-0.637331 0.107258 -0.092947
-0.624868 0.107313 -0.116331
-0.631129 0.120911 0.772802
-0.630938 0.123454 -0.105400
-0.637357 0.123454 -0.092431
-0.625075 0.123581 -0.116635
-0.636663 0.125589 0.767803
-0.634348 0.138574 0.766559
-0.626211 0.138460 0.772174
-0.637006 0.139619 -0.090987
-0.630508 0.139612 -0.104757
-0.625078 0.139713 -0.116587
-0.630318 0.155165 0.765296
-0.624385 0.150143 0.771193
-0.630154 0.155783 -0.105445
-0.636722 0.155875 -0.090004
-0.625039 0.155851 -0.117186
-0.631100 0.170737 0.760086
-0.636422 0.171569 -0.087310
-0.628980 0.171896 -0.106349
-0.624509 0.171912 -0.117287
-0.630491 0.185703 0.756719
-0.639031 0.176766 -0.079080
-0.638151 0.188350 -0.077551
-0.633197 0.188215 -0.088554
-0.626221 0.187086 -0.106331
-0.623885 0.181071 -0.116295
-0.635518 0.190305 0.753082
-0.630569 0.203553 0.752565
-0.624713 0.198163 0.757043
-0.636808 0.204365 -0.075510
-0.630216 0.204356 -0.088451
-0.624992 0.204258 -0.100074
-0.631179 0.219803 0.747979
-0.626787 0.220865 -0.089891
-0.636104 0.221891 -0.072413
-0.623945 0.215636 -0.098049
-0.630901 0.234871 0.743251
-0.639413 0.228195 -0.066137
-0.637485 0.236589 -0.062842
-0.631257 0.236638 -0.073097
-0.625252 0.236728 -0.084676
-0.636129 0.239473 0.737632
-0.631014 0.252876 0.734523
-0.625378 0.247661 0.741468
-0.625775 0.251903 -0.071882
-0.634099 0.252104 -0.056064
-0.623791 0.245914 -0.081286
-0.631438 0.267354 0.727311
-0.637779 0.257052 -0.044969
-0.635732 0.269392 -0.038980
-0.626954 0.269277 -0.056261
-0.624304 0.264021 -0.065699
-0.636879 0.271870 0.720639
-0.634084 0.285338 0.717243
-0.626036 0.285203 0.724460
-0.638961 0.275102 -0.029859
-0.636956 0.285342 -0.026540
-0.630154 0.285319 -0.040363
-0.624916 0.285353 -0.052039
-0.630686 0.301206 0.712279
-0.624087 0.294654 0.722151
-0.625347 0.300503 -0.039136
-0.633137 0.300156 -0.021626
-0.623900 0.294277 -0.050496
-0.637286 0.307695 0.702012
-0.632912 0.320136 0.699031
-0.626604 0.314447 0.708152
-0.636897 0.304589 -0.009789
-0.633420 0.316541 -0.005491
-0.625610 0.316653 -0.022162
-0.623761 0.310214 -0.031534
-0.639280 0.325782 0.689827
-0.636873 0.334403 0.686926
-0.628701 0.334409 0.694959
-0.638866 0.324417 0.019615
-0.636795 0.320899 0.009342
-0.636847 0.335378 0.025410
-0.628953 0.335844 0.008454
-0.625969 0.331056 -0.006472
-0.624363 0.327630 -0.016143
-0.631897 0.351586 0.681889
-0.625445 0.346497 0.691053
-0.639256 0.341468 0.035602
-0.630309 0.350843 0.024824
-0.637019 0.351414 0.041426
-0.625310 0.350848 0.012678
-0.638323 0.356669 0.672118
-0.634933 0.367764 0.665800
-0.626659 0.367207 0.677460
-0.639164 0.357294 0.052204
-0.635288 0.366951 0.057531
-0.628302 0.367401 0.042645
-0.625323 0.361343 0.024394
-0.623811 0.359117 0.015202
-0.623816 0.375669 0.674707
-0.626293 0.382142 0.664472
-0.638377 0.373599 0.654474
-0.634614 0.383742 0.648423
-0.637429 0.372226 0.070343
-0.626692 0.380007 0.058932
-0.631337 0.383298 0.075061
-0.624736 0.376944 0.048833
-0.625911 0.398531 0.646440
-0.623882 0.392066 0.658201
-0.637765 0.389282 0.635728
-0.633940 0.399695 0.630873
-0.638086 0.388841 0.105755
-0.635493 0.385623 0.091356
-0.626763 0.399952 0.093442
-0.633560 0.398419 0.110120
-0.625252 0.394419 0.079729
-0.623911 0.408489 0.638607
-0.625901 0.411053 0.630597
-0.637313 0.404942 0.619759
-0.631190 0.415901 0.615012
-0.638347 0.405773 0.135502
-0.636146 0.402317 0.123979
-0.633944 0.415046 0.140035
-0.627401 0.416571 0.124739
-0.625287 0.410616 0.108454
-0.623966 0.408411 0.099890
-0.635907 0.419926 0.599124
-0.625057 0.426126 0.610357
-0.627787 0.428969 0.599416
-0.638523 0.422888 0.586545
-0.631740 0.432677 0.582440
-0.638999 0.423301 0.185874
-0.637687 0.421328 0.174200
-0.633717 0.431405 0.190582
-0.628633 0.433745 0.175222
-0.635855 0.418561 0.156560
-0.627802 0.429538 0.157009
-0.625614 0.426645 0.139525
-0.624202 0.424989 0.130174
-0.634777 0.435192 0.566916
-0.624978 0.442440 0.578663
-0.626729 0.444652 0.567598
-0.637290 0.437629 0.551483
-0.628355 0.449642 0.550274
-0.639073 0.439673 0.538885
-0.634115 0.447845 0.533412
-0.637767 0.438100 0.239628
-0.639227 0.440096 0.249464
-0.628687 0.450181 0.240760
-0.634344 0.448387 0.255085
-0.635764 0.435776 0.222824
-0.627741 0.446237 0.223368
-0.634137 0.434166 0.205851
-0.626156 0.444160 0.206961
-0.624892 0.442396 0.190587
-0.624180 0.441332 0.181384
-0.624311 0.457852 0.544016
-0.625344 0.459534 0.534604
-0.634957 0.450642 0.516998
-0.626890 0.462122 0.517946
-0.636423 0.452509 0.501334
-0.628324 0.463714 0.501884
-0.637852 0.454376 0.485852
-0.628750 0.466696 0.485208
-0.638716 0.455386 0.468549
-0.632005 0.465627 0.468570
-0.639429 0.456260 0.451710
-0.633873 0.465627 0.451543
-0.640037 0.457076 0.441044
-0.635621 0.464113 0.435855
-0.639671 0.456739 0.354562
-0.640046 0.457132 0.364642
-0.635341 0.464322 0.370355
-0.633242 0.465639 0.354560
-0.638779 0.455637 0.337304
-0.632917 0.465639 0.337277
-0.637971 0.454720 0.320964
-0.631653 0.465635 0.320908
-0.637255 0.453988 0.305404
-0.628495 0.466853 0.305077
-0.636297 0.452950 0.288976
-0.628231 0.463822 0.288994
-0.635288 0.451912 0.271973
-0.627257 0.462423 0.272500
-0.625502 0.459847 0.256124
-0.624179 0.457766 0.246954
-0.625497 0.475582 0.468724
-0.624359 0.474180 0.479323
-0.626660 0.477041 0.451711
-0.626564 0.477054 0.436036
-0.634606 0.466282 0.420236
-0.626504 0.477119 0.420224
-0.635353 0.466749 0.403008
-0.627299 0.478077 0.403329
-0.635377 0.466660 0.386458
-0.627326 0.478138 0.386859
-0.626143 0.476789 0.370972
-0.625651 0.476255 0.354595
-0.626157 0.477028 0.337330
-0.625713 0.476302 0.320920
-0.624606 0.474621 0.310325
-0.615777 -0.401570 0.518613
-0.607570 -0.408806 0.518753
-0.606931 -0.408230 0.526967
-0.614813 -0.399513 0.533858
-0.608223 -0.409399 0.502342
-0.616414 -0.402073 0.502290
-0.608584 -0.409825 0.485931
-0.616782 -0.402327 0.485917
-0.618275 -0.403298 0.469185
-0.610020 -0.412381 0.469525
-0.619224 -0.404111 0.452474
-0.610946 -0.413553 0.453115
-0.610695 -0.412109 0.436656
-0.618936 -0.404115 0.436334
-0.610400 -0.411498 0.420251
-0.618616 -0.403872 0.420204
-0.619067 -0.403794 0.403752
-0.610838 -0.413276 0.403893
-0.610094 -0.412647 0.387496
-0.618311 -0.403147 0.387387
-0.608258 -0.409655 0.371082
-0.616439 -0.401907 0.371085
-0.607486 -0.408893 0.359388
-0.613793 -0.402129 0.354211
-0.615612 -0.399968 0.337739
-0.608113 -0.410374 0.327706
-0.608063 -0.410388 0.334440
-0.613071 -0.400418 0.321169
-0.615876 -0.384146 0.568812
-0.612422 -0.396173 0.551476
-0.609559 -0.393865 0.564896
-0.620583 -0.387740 0.551461
-0.622689 -0.390762 0.540846
-0.623245 -0.391553 0.328998
-0.621921 -0.389687 0.319700
-0.619639 -0.386732 0.304907
-0.611503 -0.395823 0.305061
-0.609381 -0.393786 0.288905
-0.618439 -0.382734 0.288152
-0.612890 -0.384798 0.272327
-0.607918 -0.392481 0.277649
-0.612407 -0.368123 0.601448
-0.611489 -0.381178 0.584146
-0.608656 -0.377702 0.596467
-0.619888 -0.367706 0.585343
-0.622086 -0.373506 0.572809
-0.622970 -0.374825 0.282208
-0.621862 -0.373208 0.272551
-0.619306 -0.369784 0.256200
-0.611165 -0.380872 0.256230
-0.617228 -0.365772 0.240993
-0.608572 -0.377962 0.239853
-0.610967 -0.368077 0.223628
-0.607394 -0.376255 0.229234
-0.620680 -0.356459 0.600729
-0.609528 -0.363244 0.613478
-0.616108 -0.351830 0.618762
-0.622577 -0.358495 0.591668
-0.621838 -0.357168 0.236251
-0.619738 -0.354236 0.223385
-0.609554 -0.363921 0.207040
-0.618305 -0.349767 0.207164
-0.612002 -0.351349 0.190418
-0.608291 -0.361436 0.195772
-0.615282 -0.334534 0.649272
-0.612103 -0.348084 0.633358
-0.609063 -0.345034 0.644587
-0.620238 -0.339477 0.632459
-0.622691 -0.341976 0.623904
-0.622393 -0.341452 0.201766
-0.620414 -0.339010 0.190610
-0.609607 -0.346204 0.174199
-0.618842 -0.333891 0.172686
-0.612738 -0.335172 0.157586
-0.608052 -0.343910 0.163247
-0.609359 -0.318044 0.677121
-0.610040 -0.329392 0.666381
-0.607351 -0.326696 0.675138
-0.617635 -0.317512 0.665535
-0.621527 -0.322631 0.654964
-0.621892 -0.319635 0.155977
-0.623294 -0.326114 0.166223
-0.609905 -0.329658 0.141059
-0.615842 -0.318183 0.141081
-0.607857 -0.326971 0.131847
-0.609259 -0.317067 0.125848
-0.620599 -0.305540 0.670444
-0.615037 -0.300692 0.679669
-0.623455 -0.309835 0.149614
-0.621705 -0.303287 0.139741
-0.615603 -0.301698 0.124961
-0.609022 -0.300053 0.109867
-0.607344 -0.310784 0.116221
-0.616073 -0.286505 0.686871
-0.623220 -0.293453 0.133224
-0.621485 -0.290695 0.124965
-0.617663 -0.284698 0.108659
-0.607001 -0.293471 0.100354
-0.609421 -0.283726 0.093791
-0.622363 -0.275736 0.688834
-0.616371 -0.270481 0.698988
-0.611501 -0.281893 0.695451
-0.618341 -0.269125 0.091582
-0.621745 -0.274704 0.103276
-0.607361 -0.277259 0.083775
-0.610572 -0.268547 0.077163
-0.621071 -0.257217 0.702713
-0.614714 -0.251994 0.714575
-0.610338 -0.265209 0.710063
-0.619930 -0.253000 0.074457
-0.621978 -0.258792 0.085599
-0.612177 -0.253658 0.058304
-0.608858 -0.262746 0.063123
-0.619203 -0.236003 0.719745
-0.610975 -0.236030 0.728019
-0.608253 -0.246774 0.724947
-0.620840 -0.237284 0.057866
-0.622949 -0.243584 0.068481
-0.611711 -0.235099 0.043043
-0.608989 -0.248938 0.048599
-0.621924 -0.226308 0.722596
-0.615864 -0.221025 0.732764
-0.620161 -0.221165 0.041597
-0.623202 -0.227616 0.051476
-0.611415 -0.219771 0.030093
-0.607697 -0.228994 0.034032
-0.620767 -0.208126 0.737253
-0.615266 -0.202929 0.743556
-0.609865 -0.215764 0.741542
-0.616900 -0.205696 0.023996
-0.623128 -0.210880 0.035266
-0.614046 -0.186440 0.750748
-0.618758 -0.187280 0.008854
-0.610497 -0.200189 0.009246
-0.621407 -0.192871 0.018379
-0.608321 -0.196560 -0.000541
-0.611152 -0.187136 -0.006274
-0.618522 -0.170428 0.753628
-0.610338 -0.170460 0.759421
-0.607873 -0.180689 0.757015
-0.619501 -0.170953 -0.006590
-0.622243 -0.176717 0.003972
-0.608626 -0.181688 -0.016551
-0.611309 -0.170588 -0.019450
-0.621401 -0.159117 0.755386
-0.615573 -0.153816 0.761488
-0.615838 -0.154783 -0.023161
-0.622144 -0.159548 -0.011952
-0.614077 -0.138295 0.766717
-0.611962 -0.136715 -0.039588
-0.609644 -0.150106 -0.033753
-0.620889 -0.137898 -0.027732
-0.617469 -0.121326 0.768300
-0.608058 -0.133318 0.772482
-0.609325 -0.121413 0.773788
-0.618695 -0.122510 -0.039053
-0.623194 -0.128648 -0.030462
-0.609706 -0.121589 -0.051501
-0.607803 -0.130451 -0.048693
-0.620236 -0.105056 0.770618
-0.612064 -0.105141 0.775322
-0.615023 -0.104670 -0.055166
-0.620907 -0.108124 -0.044093
-0.622460 -0.096223 0.771264
-0.616179 -0.090093 0.776510
-0.619955 -0.088637 -0.058575
-0.609153 -0.101273 -0.067032
-0.611681 -0.088859 -0.072242
-0.614785 -0.072494 0.781256
-0.622300 -0.077475 -0.062092
-0.618607 -0.072257 -0.071035
-0.610239 -0.072571 -0.084237
-0.608556 -0.083570 -0.081692
-0.613144 -0.056145 0.784376
-0.620593 -0.056094 -0.075831
-0.611934 -0.055912 -0.089081
-0.617168 -0.039370 0.784213
-0.608949 -0.039436 0.788035
-0.606628 -0.050806 0.787361
-0.618252 -0.039301 -0.087666
-0.622338 -0.044580 -0.078800
-0.607853 -0.050231 -0.097860
-0.609522 -0.039537 -0.100094
-0.620507 -0.023117 0.784627
-0.612361 -0.023292 0.789377
-0.612073 -0.023128 -0.103491
-0.620214 -0.023269 -0.093220
-0.621622 -0.006806 0.785348
-0.613502 -0.006979 0.789968
-0.613665 -0.007602 -0.106765
-0.622333 -0.006898 -0.096291
-0.615747 0.010453 0.783578
-0.611125 0.005351 0.789128
-0.623317 0.002430 -0.096643
-0.619330 0.008578 -0.103948
-0.610275 0.009605 -0.117473
-0.608675 -0.002629 -0.115068
-0.615964 0.025295 0.784555
-0.611521 0.026614 -0.122722
-0.620489 0.025775 -0.108333
-0.622244 0.042131 0.788134
-0.614192 0.042083 0.792959
-0.611498 0.030184 0.790868
-0.622408 0.042065 -0.113021
-0.615792 0.042017 -0.123461
-0.608802 0.042017 -0.134330
-0.607599 0.032537 -0.131589
-0.621432 0.057921 0.787646
-0.613339 0.057833 0.792650
-0.623327 0.051686 -0.115720
-0.619403 0.057599 -0.122096
-0.610402 0.058409 -0.136641
-0.619956 0.073544 0.786528
-0.611753 0.073392 0.791213
-0.619599 0.074684 -0.123179
-0.610785 0.075201 -0.138868
-0.619666 0.089479 0.785362
-0.611472 0.089314 0.790215
-0.620233 0.091134 -0.123580
-0.612786 0.091320 -0.137563
-0.607865 0.091319 -0.146898
-0.607479 0.080951 -0.146495
-0.619346 0.105656 0.784036
-0.611221 0.105531 0.789326
-0.613695 0.107758 -0.137535
-0.620638 0.107554 -0.124162
-0.608381 0.107758 -0.147431
-0.614710 0.123294 0.783100
-0.609305 0.118593 0.788215
-0.614574 0.123906 -0.137543
-0.621014 0.123732 -0.124643
-0.608829 0.123930 -0.148238
-0.614730 0.138366 0.778995
-0.614959 0.139937 -0.137626
-0.621243 0.139770 -0.124770
-0.608957 0.140067 -0.148867
-0.616083 0.155127 0.774725
-0.621214 0.155971 -0.125085
-0.614814 0.156262 -0.138174
-0.608942 0.156541 -0.149320
-0.622424 0.160845 0.769033
-0.620071 0.170704 0.767499
-0.611940 0.170733 0.773540
-0.614234 0.172517 -0.138905
-0.620809 0.172106 -0.124889
-0.608840 0.172882 -0.149512
-0.614532 0.187014 0.766340
-0.608866 0.181551 0.772277
-0.612649 0.188332 -0.138855
-0.619863 0.187123 -0.121520
-0.608169 0.188602 -0.148544
-0.615646 0.203508 0.760517
-0.622346 0.191834 -0.111667
-0.620959 0.204236 -0.108257
-0.615589 0.204178 -0.121509
-0.609530 0.203392 -0.138211
-0.607411 0.197566 -0.147292
-0.621612 0.209076 0.755633
-0.619855 0.219755 0.754423
-0.611701 0.219719 0.758866
-0.619927 0.220919 -0.104225
-0.612373 0.220580 -0.121270
-0.608232 0.220480 -0.131963
-0.614935 0.237244 0.752563
-0.609429 0.232520 0.757533
-0.622936 0.226537 -0.096432
-0.615604 0.236882 -0.105098
-0.621408 0.236787 -0.092936
-0.609224 0.235862 -0.121045
-0.607482 0.229686 -0.129955
-0.615853 0.252816 0.745155
-0.618899 0.251973 -0.087433
-0.610487 0.253659 -0.105790
-0.608053 0.248748 -0.115424
-0.621867 0.258545 0.738615
-0.619407 0.268816 0.736205
-0.611219 0.268797 0.741645
-0.622076 0.256751 -0.076833
-0.620276 0.269377 -0.071542
-0.613223 0.269197 -0.088456
-0.608540 0.269154 -0.100417
-0.614446 0.286435 0.733757
-0.608604 0.281776 0.739548
-0.622760 0.274875 -0.062032
-0.615130 0.285493 -0.071927
-0.620992 0.285389 -0.059482
-0.609297 0.284576 -0.088171
-0.607567 0.278454 -0.097374
-0.614663 0.300710 0.726893
-0.617584 0.300549 -0.055297
-0.609916 0.301809 -0.071797
-0.608122 0.296346 -0.082469
-0.619858 0.305605 0.719465
-0.615898 0.318842 0.715360
-0.609042 0.312322 0.724912
-0.620894 0.305197 -0.043123
-0.609794 0.317856 -0.055245
-0.617607 0.316646 -0.037842
-0.608042 0.312243 -0.066289
-0.622738 0.325335 0.706201
-0.620816 0.334415 0.703365
-0.612678 0.334423 0.711029
-0.621064 0.321167 -0.026990
-0.609869 0.334041 -0.038666
-0.617808 0.333651 -0.022011
-0.607977 0.328306 -0.049550
-0.618475 0.351509 0.696463
-0.609699 0.350799 0.707428
-0.623521 0.342234 0.002396
-0.621715 0.339262 -0.006380
-0.621428 0.350864 0.005562
-0.615921 0.350937 -0.006307
-0.609949 0.350348 -0.022079
-0.608063 0.344401 -0.032859
-0.610784 0.366127 0.696202
-0.608015 0.359926 0.705314
-0.622737 0.357464 0.687407
-0.619255 0.367210 0.684948
-0.614857 0.366814 0.009872
-0.609807 0.363364 -0.006283
-0.607985 0.360322 -0.016070
-0.614147 0.381326 0.681256
-0.607805 0.376036 0.691545
-0.619309 0.369529 0.025542
-0.621972 0.372979 0.037749
-0.618214 0.382896 0.043175
-0.610574 0.384360 0.026835
-0.608755 0.379355 0.014492
-0.620539 0.386591 0.669254
-0.614900 0.399058 0.665076
-0.609613 0.395129 0.676932
-0.623202 0.390968 0.068894
-0.621560 0.388206 0.059237
-0.614705 0.400056 0.059291
-0.620143 0.399946 0.074789
-0.609506 0.398876 0.044508
-0.607769 0.392618 0.032566
-0.620169 0.402979 0.651755
-0.614794 0.415226 0.647142
-0.609322 0.411032 0.660982
-0.622030 0.405347 0.088799
-0.617876 0.414896 0.093339
-0.611172 0.416703 0.076057
-0.608836 0.410651 0.059334
-0.607454 0.408303 0.051092
-0.620053 0.419271 0.630838
-0.611953 0.430225 0.632033
-0.609430 0.427387 0.643422
-0.622306 0.422675 0.620342
-0.615780 0.433196 0.616708
-0.622263 0.422171 0.120570
-0.620160 0.418825 0.108401
-0.617291 0.431406 0.125177
-0.611247 0.433013 0.109573
-0.609617 0.427547 0.091918
-0.608244 0.425491 0.081841
-0.620244 0.437171 0.600137
-0.612089 0.446695 0.600368
-0.609215 0.443258 0.612564
-0.622774 0.439845 0.589673
-0.616370 0.449871 0.585517
-0.622953 0.439788 0.170442
-0.621165 0.437733 0.157559
-0.618376 0.447758 0.175215
-0.612398 0.450026 0.157868
-0.618755 0.434846 0.140637
-0.610594 0.445396 0.141367
-0.608671 0.442661 0.124833
-0.607755 0.441435 0.115826
-0.620506 0.452830 0.567632
-0.609987 0.461379 0.581080
-0.611708 0.466357 0.566822
-0.622465 0.455367 0.554927
-0.617967 0.464235 0.549989
-0.623076 0.456248 0.236019
-0.621730 0.454422 0.223405
-0.614432 0.465642 0.223384
-0.618701 0.464186 0.240836
-0.620443 0.452346 0.206997
-0.611571 0.466769 0.207520
-0.619256 0.450581 0.190593
-0.611134 0.462939 0.190491
-0.609564 0.460374 0.174136
-0.608424 0.458632 0.163394
-0.608138 0.474368 0.560798
-0.609418 0.475830 0.550817
-0.619731 0.467722 0.534546
-0.611571 0.478298 0.534593
-0.621496 0.470308 0.518019
-0.613366 0.480420 0.518275
-0.622542 0.471898 0.501990
-0.614377 0.481540 0.502132
-0.623295 0.472851 0.490276
-0.615933 0.482145 0.486349
-0.622738 0.472010 0.288987
-0.623447 0.473115 0.299480
-0.613241 0.483185 0.290442
-0.618038 0.480869 0.305100
-0.621788 0.470607 0.272514
-0.613688 0.480183 0.272550
-0.620135 0.468038 0.256152
-0.612021 0.478510 0.256184
-0.609854 0.476387 0.239838
-0.608469 0.474810 0.223378
-0.607961 0.474128 0.213426
-0.618362 0.483784 0.469113
-0.608586 0.490892 0.482450
-0.610156 0.492227 0.469371
-0.619716 0.485246 0.452414
-0.611504 0.493211 0.452840
-0.619832 0.485255 0.436350
-0.611628 0.493217 0.436491
-0.619855 0.485315 0.420226
-0.611682 0.493291 0.420192
-0.620371 0.486271 0.403727
-0.612225 0.493685 0.403802
-0.620335 0.486330 0.387323
-0.612195 0.493673 0.387416
-0.619419 0.484986 0.371055
-0.611257 0.493084 0.371067
-0.619197 0.484457 0.354629
-0.611026 0.492968 0.354645
-0.619888 0.485226 0.337635
-0.611740 0.493714 0.337984
-0.619142 0.484503 0.321219
-0.610996 0.493023 0.321564
-0.608783 0.490997 0.305381
-0.607710 0.490285 0.296891
-0.599276 -0.417593 0.502317
-0.591002 -0.425414 0.502309
-0.590596 -0.424860 0.511794
-0.597121 -0.418110 0.517856
-0.600136 -0.418025 0.485907
-0.591864 -0.426461 0.485925
-0.594357 -0.427978 0.469416
-0.602641 -0.420581 0.469513
-0.595515 -0.429065 0.452982
-0.603797 -0.421751 0.453117
-0.602597 -0.420311 0.436661
-0.594312 -0.429432 0.436659
-0.602077 -0.419706 0.420241
-0.593796 -0.429347 0.420280
-0.595325 -0.429225 0.403738
-0.603585 -0.421485 0.403883
-0.594698 -0.428353 0.387313
-0.602930 -0.420849 0.387491
-0.600087 -0.417855 0.371056
-0.591865 -0.426652 0.371049
-0.590963 -0.425512 0.358332
-0.598631 -0.416667 0.353383
-0.599424 -0.400614 0.569087
-0.593847 -0.411880 0.551504
-0.591640 -0.409604 0.562899
-0.602173 -0.404384 0.551470
-0.599031 -0.413178 0.533493
-0.604825 -0.406543 0.537850
-0.599973 -0.415666 0.339205
-0.606371 -0.407832 0.345359
-0.606345 -0.407831 0.348470
-0.604559 -0.406134 0.316683
-0.593913 -0.412058 0.305397
-0.598857 -0.414451 0.322017
-0.602261 -0.404026 0.305314
-0.600061 -0.401992 0.288901
-0.591737 -0.409660 0.288950
-0.590572 -0.408290 0.280377
-0.598465 -0.399688 0.273430
-0.594616 -0.383078 0.616500
-0.593234 -0.394431 0.600508
-0.591286 -0.392708 0.610598
-0.602181 -0.383344 0.601363
-0.605195 -0.389402 0.583940
-0.596773 -0.397206 0.583662
-0.607325 -0.391798 0.575547
-0.604245 -0.389073 0.256180
-0.595952 -0.396616 0.256005
-0.606337 -0.391058 0.266694
-0.592964 -0.394103 0.239857
-0.601241 -0.386165 0.239854
-0.598430 -0.383613 0.223054
-0.591199 -0.392616 0.228184
-0.603637 -0.368121 0.618237
-0.591788 -0.377237 0.627545
-0.595432 -0.367107 0.632994
-0.606153 -0.374177 0.607405
-0.605682 -0.374089 0.218287
-0.595103 -0.380756 0.205860
-0.603422 -0.372074 0.206741
-0.598855 -0.368405 0.188942
-0.592487 -0.377911 0.192214
-0.604000 -0.356303 0.633531
-0.592502 -0.361547 0.643764
-0.598776 -0.350890 0.649902
-0.606363 -0.358477 0.624423
-0.602638 -0.354401 0.174173
-0.594386 -0.364784 0.174175
-0.605167 -0.357127 0.184848
-0.591972 -0.361272 0.161580
-0.598809 -0.351197 0.156865
-0.605037 -0.340928 0.655699
-0.593863 -0.345822 0.662531
-0.599078 -0.338192 0.667358
-0.605739 -0.341097 0.152205
-0.594177 -0.347153 0.140977
-0.602631 -0.337817 0.141106
-0.591356 -0.343762 0.131244
-0.598016 -0.333359 0.126229
-0.598623 -0.330153 0.678773
-0.598174 -0.319175 0.686116
-0.604568 -0.321772 0.121051
-0.593392 -0.328824 0.112353
-0.598495 -0.317970 0.108816
-0.603731 -0.301620 0.688620
-0.592330 -0.314436 0.692781
-0.594587 -0.300161 0.698665
-0.603548 -0.304434 0.105290
-0.592549 -0.314190 0.096207
-0.597855 -0.300921 0.092754
-0.603111 -0.286491 0.700362
-0.590501 -0.293697 0.707529
-0.594216 -0.285186 0.710812
-0.606153 -0.292811 0.690478
-0.603246 -0.288125 0.089422
-0.592167 -0.297422 0.080141
-0.598327 -0.284547 0.076508
-0.606626 -0.276121 0.706584
-0.600398 -0.270583 0.716734
-0.604523 -0.273707 0.072782
-0.593304 -0.280929 0.062142
-0.600011 -0.269813 0.057195
-0.605465 -0.257719 0.721758
-0.598044 -0.251713 0.731761
-0.594138 -0.265033 0.727624
-0.606661 -0.259851 0.052216
-0.594259 -0.264675 0.042733
-0.601961 -0.253607 0.042976
-0.590517 -0.260665 0.034259
-0.592751 -0.252443 0.030826
-0.602292 -0.236011 0.736143
-0.593970 -0.236023 0.742270
-0.590760 -0.245723 0.740607
-0.604542 -0.239881 0.037692
-0.598469 -0.236115 0.026344
-0.605692 -0.226687 0.738964
-0.599558 -0.220598 0.744689
-0.604460 -0.219839 0.021726
-0.592410 -0.232365 0.014505
-0.596746 -0.220453 0.009224
-0.598967 -0.203896 0.750818
-0.607398 -0.211402 0.017985
-0.605342 -0.208343 0.009542
-0.601488 -0.202519 -0.006214
-0.592855 -0.214440 -0.006629
-0.590727 -0.211561 -0.014631
-0.593622 -0.203261 -0.017984
-0.604810 -0.191681 0.753495
-0.598885 -0.186449 0.759522
-0.593553 -0.198834 0.755072
-0.605690 -0.192621 -0.011342
-0.598866 -0.187361 -0.023256
-0.598278 -0.171466 0.768108
-0.603547 -0.170606 -0.027485
-0.592136 -0.182145 -0.033325
-0.594683 -0.169656 -0.038905
-0.603973 -0.154035 0.769972
-0.592520 -0.166668 0.774484
-0.595500 -0.154046 0.775831
-0.602640 -0.155058 -0.039637
-0.606393 -0.160943 -0.030075
-0.591201 -0.163577 -0.048357
-0.593386 -0.153120 -0.055853
-0.606201 -0.144198 0.771016
-0.599665 -0.138316 0.776454
-0.605473 -0.141360 -0.045688
-0.601558 -0.136730 -0.055756
-0.593138 -0.137913 -0.069780
-0.591035 -0.146846 -0.066885
-0.597086 -0.121548 0.781919
-0.604919 -0.121589 -0.059866
-0.596171 -0.122377 -0.073912
-0.600116 -0.105071 0.783227
-0.591751 -0.104988 0.789566
-0.590659 -0.116195 0.788151
-0.603541 -0.106095 -0.072334
-0.606678 -0.112192 -0.062800
-0.592006 -0.117433 -0.082290
-0.594761 -0.105088 -0.085313
-0.601792 -0.088877 0.785594
-0.593338 -0.088678 0.790600
-0.599516 -0.089822 -0.089066
-0.605877 -0.094374 -0.077918
-0.604416 -0.072503 0.787628
-0.595966 -0.072316 0.791207
-0.594609 -0.070772 -0.106569
-0.593053 -0.085251 -0.100950
-0.604013 -0.072510 -0.092645
-0.606218 -0.061925 0.788249
-0.599593 -0.056107 0.791448
-0.600730 -0.055798 -0.104358
-0.605917 -0.061273 -0.095020
-0.591868 -0.055875 -0.115502
-0.590585 -0.064173 -0.115083
-0.598067 -0.039409 0.794396
-0.602879 -0.039466 -0.108239
-0.594651 -0.039406 -0.118179
-0.598191 -0.023360 0.796559
-0.605540 -0.023056 -0.111164
-0.596882 -0.024066 -0.122596
-0.596774 -0.007038 0.798870
-0.606853 -0.013546 -0.112765
-0.603098 -0.007536 -0.120857
-0.592177 -0.019278 -0.131760
-0.593968 -0.006728 -0.134139
-0.599716 0.010371 0.795296
-0.590226 -0.001482 0.803197
-0.590529 0.009475 0.804605
-0.595846 0.009424 -0.136363
-0.604132 0.009543 -0.125673
-0.599596 0.025298 0.796425
-0.590349 0.025908 0.805661
-0.605386 0.016564 0.786162
-0.605403 0.019533 0.786334
-0.599080 0.025176 -0.138663
-0.605758 0.021777 -0.128416
-0.598647 0.042103 0.801458
-0.590227 0.042095 0.805683
-0.593752 0.043270 -0.156903
-0.592273 0.028732 -0.149935
-0.602815 0.042063 -0.142623
-0.596874 0.057098 0.801634
-0.590273 0.051591 0.805720
-0.605087 0.058461 -0.144902
-0.597871 0.058515 -0.156146
-0.591670 0.058579 -0.166772
-0.590653 0.049627 -0.166200
-0.598258 0.073186 0.798482
-0.606401 0.069976 -0.145180
-0.602288 0.075122 -0.153057
-0.593389 0.074610 -0.168267
-0.598281 0.089154 0.796834
-0.602534 0.091109 -0.155366
-0.594243 0.090877 -0.170774
-0.598358 0.105437 0.795230
-0.593814 0.106158 -0.174201
-0.602762 0.107528 -0.156343
-0.599737 0.123085 0.791758
-0.595640 0.123519 -0.171714
-0.603230 0.123721 -0.156881
-0.591253 0.123517 -0.181910
-0.590801 0.110833 -0.182296
-0.606156 0.129544 0.786893
-0.603849 0.138248 0.785782
-0.595604 0.138073 0.791123
-0.603756 0.139984 -0.157008
-0.596638 0.139894 -0.170460
-0.591706 0.139934 -0.181357
-0.601329 0.154573 0.784435
-0.592987 0.154465 0.790403
-0.603936 0.156630 -0.157379
-0.596958 0.156688 -0.170671
-0.591864 0.156726 -0.182091
-0.597753 0.171914 0.783576
-0.591683 0.167225 0.789436
-0.603702 0.173123 -0.157497
-0.596617 0.173321 -0.170964
-0.591769 0.173353 -0.182324
-0.598944 0.187019 0.777149
-0.602820 0.188896 -0.156358
-0.595360 0.189219 -0.170689
-0.591319 0.189323 -0.181238
-0.604853 0.192459 0.770898
-0.602291 0.203396 0.768854
-0.593927 0.203376 0.774686
-0.592850 0.204622 -0.171065
-0.601665 0.203688 -0.153115
-0.590794 0.199211 -0.179749
-0.597708 0.220873 0.766596
-0.591595 0.216143 0.772066
-0.605517 0.208268 -0.143425
-0.597391 0.220779 -0.154402
-0.604247 0.220521 -0.140145
-0.591947 0.221092 -0.167126
-0.599926 0.237229 0.760674
-0.593882 0.237429 -0.155485
-0.602665 0.235839 -0.136265
-0.591104 0.232415 -0.165273
-0.606498 0.243437 0.755851
-0.603792 0.252445 0.752970
-0.595431 0.252461 0.757297
-0.605786 0.240553 -0.126336
-0.604107 0.253714 -0.120985
-0.596976 0.253211 -0.137575
-0.592097 0.253342 -0.149513
-0.598034 0.269761 0.749412
-0.592093 0.264928 0.754641
-0.606529 0.259531 -0.111851
-0.599073 0.269266 -0.121355
-0.604693 0.269200 -0.108714
-0.592931 0.268302 -0.137653
-0.590916 0.262278 -0.146365
-0.600134 0.286431 0.743426
-0.602038 0.284508 -0.104679
-0.593805 0.286157 -0.123498
-0.591786 0.281255 -0.132582
-0.606687 0.292724 0.738137
-0.603682 0.301600 0.735987
-0.595389 0.301598 0.741762
-0.605510 0.289360 -0.093923
-0.594609 0.302402 -0.107501
-0.602938 0.301781 -0.088508
-0.591998 0.297351 -0.119939
-0.598368 0.317466 0.731258
-0.591825 0.311651 0.740491
-0.605882 0.307282 -0.077187
-0.603213 0.317932 -0.071885
-0.595194 0.318699 -0.089294
-0.592187 0.313496 -0.101351
-0.604919 0.323263 0.721805
-0.602096 0.334430 0.719669
-0.593754 0.334432 0.726458
-0.605547 0.323157 -0.060475
-0.594797 0.335088 -0.072427
-0.602307 0.334062 -0.055775
-0.592606 0.330012 -0.084192
-0.597803 0.350593 0.717284
-0.591466 0.344987 0.724270
-0.605170 0.339194 -0.044308
-0.602192 0.350267 -0.039781
-0.594092 0.350659 -0.057707
-0.591830 0.345051 -0.067697
-0.597416 0.366129 0.708698
-0.605331 0.355388 -0.027240
-0.594226 0.364367 -0.040935
-0.599426 0.367766 -0.023472
-0.591841 0.360886 -0.053175
-0.602036 0.370857 0.701168
-0.597108 0.381336 0.696904
-0.590803 0.375675 0.705990
-0.604714 0.371534 -0.006281
-0.606769 0.374515 0.003550
-0.596209 0.384883 -0.007213
-0.603983 0.384363 0.009466
-0.593555 0.380211 -0.019721
-0.603346 0.386964 0.687879
-0.598850 0.400119 0.682995
-0.592219 0.394182 0.692369
-0.606494 0.390300 0.021640
-0.602495 0.398872 0.026288
-0.595017 0.400089 0.009476
-0.592358 0.394655 -0.002411
-0.605473 0.406038 0.671990
-0.599905 0.417554 0.667434
-0.594425 0.413143 0.678185
-0.604788 0.403558 0.040114
-0.593695 0.412838 0.024905
-0.598632 0.416004 0.043638
-0.591733 0.409828 0.013481
-0.605377 0.421949 0.655260
-0.599443 0.433363 0.649847
-0.594268 0.428390 0.662830
-0.603328 0.418862 0.059300
-0.606064 0.422342 0.071046
-0.599188 0.432732 0.075785
-0.595043 0.429101 0.059296
-0.592462 0.426209 0.047223
-0.604711 0.438427 0.633146
-0.595444 0.449157 0.632112
-0.593463 0.443609 0.644645
-0.606659 0.440265 0.623721
-0.602169 0.448926 0.617753
-0.605369 0.438602 0.104971
-0.602814 0.435753 0.091983
-0.598920 0.448946 0.109055
-0.594489 0.445655 0.092017
-0.592274 0.442702 0.080540
-0.591216 0.457779 0.625988
-0.593238 0.460470 0.617129
-0.605358 0.454886 0.600553
-0.596497 0.466222 0.599969
-0.607471 0.457290 0.592289
-0.604050 0.466360 0.585124
-0.606274 0.456007 0.152496
-0.604291 0.453589 0.141367
