0.090042 0.198449 0.034468
0.084149 0.196236 -0.362390
0.089953 0.191648 -0.717534
0.089833 0.200489 0.728392
0.089857 0.204372 0.712085
0.088431 0.208981 0.696874
0.081910 0.211208 0.688950
0.088385 0.214624 0.683080
0.092995 0.212588 0.692128
0.090353 0.208523 0.273276
0.085352 0.210925 0.281543
0.096429 0.211450 0.279625
0.090498 0.213120 0.287193
0.090193 0.206702 0.026889
0.090380 0.218488 0.018669
0.088962 0.201786 -0.158987
0.084469 0.195944 -0.174149
0.090024 0.202107 -0.188661
0.089955 0.212209 -0.197724
0.089905 0.201511 -0.370502
0.090378 0.210624 -0.380362
0.090335 0.220064 -0.385148
0.086426 0.215901 -0.718835
0.097416 0.208906 -0.720311
0.091129 0.203403 -0.717001
0.091095 0.220697 -0.722929
0.089766 0.220078 0.665916
0.089754 0.223422 0.648850
0.090886 0.225485 0.631708
0.089012 0.225129 0.613696
0.097350 0.227962 0.613385
0.097180 0.227969 0.625876
0.086728 0.225913 0.598371
0.095035 0.228417 0.597657
0.083072 0.227260 0.587852
0.089086 0.228791 0.582653
0.091179 0.225324 0.551739
0.086434 0.226235 0.564488
0.091095 0.228380 0.569093
0.097492 0.227886 0.557431
0.090638 0.225844 0.533969
0.085530 0.227106 0.520103
0.090602 0.228363 0.515426
0.096645 0.227896 0.528114
0.084417 0.226348 0.353461
0.083550 0.226659 0.363749
0.089310 0.230235 0.369213
0.092643 0.229629 0.353195
0.083630 0.226974 0.337862
0.091828 0.229156 0.337655
0.088713 0.225366 0.321636
0.093445 0.228497 0.327287
0.089861 0.218899 0.304437
0.090523 0.220249 0.006263
0.090519 0.215079 -0.010132
0.090400 0.219475 -0.026313
0.090284 0.225763 -0.035102
0.090236 0.235991 -0.038249
0.089964 0.217208 -0.206743
0.090005 0.221562 -0.223086
0.090062 0.216599 -0.233095
0.089979 0.236325 -0.391308
0.082024 0.227835 -0.410635
0.082020 0.227831 -0.411064
0.089943 0.234689 -0.416895
0.086379 0.236074 -0.404958
0.089916 0.230572 0.500438
0.089897 0.233077 0.484652
0.089830 0.235337 0.468284
0.089785 0.236742 0.452077
0.089812 0.235583 0.436173
0.089798 0.234505 0.419918
0.089719 0.234415 0.403005
0.089703 0.233007 0.385999
0.088558 0.251756 -0.045016
0.083846 0.229615 -0.146426
0.074041 0.235439 -0.149507
0.079668 0.240504 -0.144456
0.090250 0.235384 -0.138740
0.091787 0.251945 -0.262098
0.098365 0.244233 -0.264395
0.098366 0.244233 -0.264319
0.091766 0.250542 -0.270419
0.095747 0.248249 -0.404169
0.095285 0.249534 -0.393013
0.097941 0.244646 -0.412540
0.090038 0.230483 -0.434365
0.091114 0.228738 -0.450791
0.091102 0.230575 -0.464959
0.089979 0.235540 -0.483466
0.088783 0.240306 -0.500672
0.082416 0.244488 -0.506489
0.095965 0.252539 -0.740753
0.098084 0.244178 -0.737919
0.091553 0.237728 -0.731609
0.087720 0.252555 -0.735818
0.081903 0.260696 -0.047280
0.090298 0.268912 -0.260319
0.085993 0.247108 -0.515332
0.091205 0.252996 -0.531108
0.084521 0.261948 -0.537092
0.089985 0.269421 -0.745694
0.084277 0.264114 -0.738681
0.085230 0.267240 -0.056667
0.082811 0.278289 -0.062837
0.085267 0.267568 -0.124747
0.082386 0.261120 -0.133578
0.090442 0.282572 -0.262805
0.090151 0.263255 -0.549679
0.090267 0.267668 -0.565208
0.089365 0.274143 -0.584240
0.083174 0.277163 -0.590872
0.083677 0.279654 -0.072104
0.084502 0.282227 -0.090430
0.079444 0.290447 -0.090714
0.084929 0.283832 -0.108583
0.081150 0.292021 -0.108570
0.084048 0.281494 -0.118873
0.075230 0.286306 -0.122432
0.090463 0.290866 -0.266098
0.090406 0.301809 -0.273774
0.089372 0.279631 -0.598857
0.090291 0.286235 -0.617322
0.090168 0.291332 -0.630550
0.090166 0.295074 -0.638350
0.094377 0.301798 -0.761408
0.095573 0.288407 -0.759658
0.090028 0.283797 -0.752811
0.085975 0.301733 -0.751435
0.090369 0.310873 -0.280381
0.086100 0.316774 -0.354354
0.093931 0.306390 -0.365576
0.089128 0.304557 -0.353287
0.093335 0.318061 -0.365774
0.090117 0.299806 -0.649428
0.091290 0.306613 -0.666626
0.086556 0.309090 -0.674896
0.091205 0.312301 -0.680778
0.097549 0.310134 -0.673543
0.087060 0.317383 -0.745124
0.095045 0.318239 -0.760545
0.090391 0.319115 -0.283715
0.090374 0.334162 -0.291767
0.084252 0.321292 -0.327906
0.085711 0.318880 -0.337935
0.093970 0.331730 -0.338497
0.091195 0.335714 -0.321428
0.094555 0.330361 -0.355055
0.096074 0.328345 -0.363928
0.090029 0.318181 -0.696352
0.090302 0.322273 -0.711231
0.085857 0.321009 -0.728227
0.096030 0.329358 -0.716126
0.094156 0.332316 -0.728260
0.095029 0.335864 -0.744726
0.096670 0.334582 -0.758883
0.091670 0.341467 -0.305913
0.098071 0.342997 -0.311696
0.098056 0.343009 -0.314436
0.097907 0.343632 -0.749903
0.097906 0.343639 -0.756476
0.100423 -0.391371 0.754082
0.106296 -0.394487 0.746706
0.111483 -0.392365 0.755987
0.106294 -0.388719 0.762685
0.106430 -0.388704 0.568335
0.111688 -0.392448 0.574131
0.106450 -0.393789 0.582231
0.100712 -0.391183 0.577504
0.106582 -0.388222 0.500826
0.110218 -0.393009 0.484539
0.111804 -0.392623 0.495384
0.102020 -0.390567 0.484587
0.111849 -0.392588 0.472865
0.106487 -0.389618 0.467716
0.102932 -0.373256 0.814840
0.107791 -0.376841 0.809721
0.107735 -0.369792 0.826054
0.113797 -0.375868 0.819980
0.106511 -0.370738 -0.877647
0.106585 -0.379248 -0.885684
0.103957 -0.368574 -0.897466
0.113036 -0.381863 -0.905207
0.107277 -0.381944 -0.895279
0.112037 -0.368745 -0.903921
0.103372 -0.356326 0.847439
0.108000 -0.361534 0.842528
0.106644 -0.351002 0.859969
0.114304 -0.359526 0.852192
0.101860 -0.358403 0.213568
0.112846 -0.359312 0.211943
0.107218 -0.362088 0.219152
0.107056 -0.354204 0.206318
0.106436 -0.362099 -0.869249
0.106457 -0.354670 -0.861331
0.112781 -0.356001 -0.901726
0.106972 -0.351134 -0.897716
0.098942 -0.342838 0.867785
0.105383 -0.339938 0.877120
0.109941 -0.345614 0.871624
0.106447 -0.346326 -0.851708
0.106759 -0.334543 -0.842576
0.106303 -0.318128 0.898918
0.106741 -0.331297 0.889286
0.105631 -0.321067 0.155841
0.110230 -0.327103 0.162221
0.105597 -0.331520 0.170461
0.099260 -0.326093 0.163836
0.105929 -0.317686 -0.829679
0.093409 -0.322607 -0.823517
0.088768 -0.329777 -0.828923
0.101417 -0.328863 -0.834945
0.100477 -0.310051 0.902928
0.106279 -0.303798 0.906807
0.111508 -0.312075 0.903634
0.099426 -0.311673 -0.818393
0.095465 -0.305444 -0.806839
0.101928 -0.300715 -0.811998
0.106278 -0.311968 -0.883474
0.106292 -0.320154 -0.887693
0.105701 -0.285332 0.916257
0.098519 -0.294462 -0.801792
0.095972 -0.285543 -0.789937
0.100652 -0.285550 -0.798230
0.099539 -0.279264 0.920332
0.105971 -0.270414 0.927371
0.106713 -0.281518 -0.046096
0.096506 -0.274628 -0.035823
0.106836 -0.271214 -0.039010
0.098060 -0.276985 -0.786516
0.103929 -0.270536 -0.793272
0.106237 -0.283455 -0.863228
0.106227 -0.291539 -0.869074
0.101427 -0.259824 0.934504
0.106815 -0.253682 0.939525
0.112396 -0.262956 0.936809
0.106912 -0.263097 -0.032978
0.095611 -0.258650 -0.021595
0.107172 -0.257405 -0.024847
0.101851 -0.253376 -0.777009
0.097620 -0.259373 -0.770745
0.095818 -0.270534 -0.776963
0.100389 -0.265997 -0.782032
0.107611 -0.265700 -0.844438
0.106230 -0.274281 -0.854941
0.106308 -0.237109 0.947744
0.107076 -0.240267 -0.004844
0.094268 -0.241817 -0.003751
0.107219 -0.249195 -0.012981
0.099177 -0.244721 -0.245488
0.096728 -0.242991 -0.233307
0.089255 -0.252492 -0.237663
0.105393 -0.238546 -0.238844
0.099661 -0.248387 -0.764151
0.098194 -0.244201 -0.753170
0.096127 -0.253406 -0.759687
0.100274 -0.237694 -0.759732
0.107034 -0.253674 -0.827438
0.103083 -0.258226 -0.839561
0.103807 -0.222481 0.959568
0.112033 -0.231309 0.959478
0.114405 -0.228732 0.966907
0.108046 -0.218525 0.968922
0.100613 -0.225981 0.950675
0.106938 -0.232043 0.001091
0.106741 -0.221611 0.009651
0.098305 -0.227839 -0.211290
0.094475 -0.225851 -0.200296
0.089362 -0.231245 -0.204726
0.104893 -0.222036 -0.204774
0.098992 -0.233258 -0.749430
0.097557 -0.226546 -0.738469
0.096507 -0.237748 -0.744292
0.100113 -0.220552 -0.744358
0.101342 -0.239726 -0.810598
0.097405 -0.228744 -0.801180
0.101585 -0.235014 -0.795201
0.099960 -0.243253 -0.821146
0.106782 -0.203824 0.974968
0.105707 -0.210420 -0.598748
0.098296 -0.211540 -0.591763
0.091713 -0.213088 -0.597645
0.099562 -0.211796 -0.603447
0.098992 -0.213394 -0.716988
0.097617 -0.209369 -0.705955
0.094815 -0.219277 -0.711695
0.100384 -0.203690 -0.711626
0.099694 -0.219202 -0.777924
0.097231 -0.213378 -0.783502
0.098972 -0.224270 -0.790229
0.105924 -0.188441 0.980365
0.099407 -0.207752 -0.761331
0.094596 -0.199606 -0.761283
0.096892 -0.196951 -0.750373
0.100151 -0.202813 -0.744920
0.098650 -0.210274 -0.772564
0.099880 -0.176311 0.981908
0.110833 -0.183636 0.982848
0.106034 -0.170893 0.983025
0.100178 -0.186857 -0.710722
0.100167 -0.192377 -0.728378
0.099009 -0.194349 -0.739410
0.107008 -0.160186 0.982888
0.106995 -0.151753 0.980316
0.107032 -0.137714 0.978675
0.107138 -0.125739 0.980843
0.107232 -0.117614 0.982906
0.107284 -0.105034 0.983329
0.106395 -0.087692 0.982880
0.102801 -0.096267 -0.883105
0.113762 -0.097212 -0.886180
0.107538 -0.099455 -0.876909
0.107620 -0.095390 -0.892751
0.100296 -0.081523 0.982228
0.100293 -0.076154 0.982227
0.106394 -0.071723 0.982649
0.107243 -0.057543 0.982900
0.107140 -0.042042 0.983118
0.102890 -0.053144 -0.980872
0.107748 -0.058087 -0.986308
0.113654 -0.050813 -0.983128
0.107552 -0.048971 -0.975015
0.106924 -0.026109 0.982819
0.100356 -0.035570 -0.949317
0.106126 -0.039792 -0.958174
0.111167 -0.033863 -0.951250
0.106026 -0.031180 -0.942921
0.101339 -0.020851 0.981767
0.103761 -0.009812 0.980676
0.111959 -0.009754 0.982593
0.106390 -0.022617 -0.927830
0.108339 0.006597 0.974784
0.113826 0.000690 0.982477
0.106331 -0.010716 -0.892602
0.104990 -0.006196 -0.874960
0.106360 -0.014480 -0.909008
0.106367 -0.017425 -0.919374
0.107792 0.010294 0.958879
0.113798 0.015664 0.964875
0.113795 0.015674 0.968816
0.106956 0.010708 0.946047
0.107080 0.023008 0.939256
0.104974 0.009453 -0.792733
0.092392 0.012886 -0.810503
0.094601 0.013633 -0.797385
0.106491 0.005853 -0.810455
0.107489 0.002769 -0.826577
0.103604 0.001468 -0.843314
0.100595 -0.000526 -0.859704
0.098632 -0.001686 -0.868600
0.101678 0.028665 0.935150
0.107074 0.038812 0.932829
0.112647 0.033129 0.937522
0.107036 0.020836 -0.760800
0.096987 0.031520 -0.752128
0.107915 0.028924 -0.745848
0.101055 0.017049 -0.777637
0.098506 0.014982 -0.786372
0.106917 0.053138 0.924608
0.107866 0.040778 -0.731228
0.103300 0.035391 -0.741124
0.106837 0.061312 0.918909
0.106754 0.071893 0.912906
0.103723 0.068285 -0.735240
0.114715 0.066123 -0.736526
0.108163 0.059147 -0.730789
0.108610 0.075332 -0.743148
0.106691 0.085322 0.905204
0.106307 0.075909 0.070858
0.106915 0.075377 0.086090
0.100370 0.081537 0.064587
0.107528 0.091818 -0.760325
0.113477 0.082299 -0.753975
0.102438 0.085936 -0.749769
0.106697 0.093506 0.900203
0.105030 0.106346 0.891238
0.101516 0.095346 0.114668
0.106968 0.091341 0.105371
0.106847 0.101795 0.120533
0.112563 0.097509 0.111304
0.106846 0.082771 0.094286
0.106147 0.087529 0.062374
0.096702 0.092481 0.063333
0.094178 0.104749 0.062530
0.106549 0.104732 0.059942
0.106476 0.107083 -0.777497
0.112538 0.097586 -0.771536
0.101530 0.102158 -0.766668
0.098394 0.112903 0.885327
0.104482 0.121792 0.877711
0.109434 0.115035 0.886283
0.106587 0.110606 0.130908
0.106532 0.121130 0.058469
0.100371 0.118158 -0.783419
0.111358 0.111861 -0.790114
0.106996 0.122971 -0.794321
0.099597 0.128552 0.866756
0.106852 0.137114 0.859346
0.110552 0.131675 0.870366
0.101884 0.128426 0.146301
0.088742 0.122225 0.140970
0.093553 0.128416 0.146318
0.107045 0.122261 0.140206
0.112903 0.129928 0.145315
0.107107 0.136247 0.150038
0.106574 0.137542 0.057436
0.111431 0.137997 -0.806176
0.113502 0.127730 -0.803950
0.103207 0.138088 -0.797753
0.103213 0.142561 0.846431
0.107801 0.147908 0.841850
0.114095 0.146124 0.852001
0.106611 0.153987 0.055959
0.106826 0.132357 -0.238524
0.106737 0.140452 -0.224654
0.101572 0.131807 -0.256142
0.105840 0.133770 -0.271846
0.108153 0.143263 -0.287930
0.103557 0.148428 -0.292616
0.101006 0.154162 -0.799793
0.109985 0.154866 -0.811726
0.107714 0.156194 0.825661
0.103075 0.159926 0.815011
0.107734 0.164829 0.809888
0.113909 0.162472 0.819406
0.106664 0.158442 0.168276
0.106651 0.150238 0.159485
0.105721 0.169534 0.052392
0.106137 0.149300 -0.302134
0.104701 0.149667 -0.318035
0.106827 0.155058 -0.334695
0.101088 0.165426 -0.342292
0.105600 0.167617 -0.796279
0.111105 0.165356 -0.811863
0.113924 0.160674 -0.820389
0.113913 0.162866 -0.820391
0.107212 0.173566 0.793330
0.102105 0.177013 0.783588
0.107104 0.180777 0.778690
0.113059 0.179071 0.787270
0.107085 0.173265 0.190722
0.101863 0.177418 0.199569
0.112861 0.178876 0.196943
0.106903 0.181397 0.204516
0.106621 0.164556 0.177216
0.099625 0.179547 0.050696
0.106530 0.170754 -0.350354
0.106487 0.181920 -0.360060
0.105604 0.176369 -0.763122
0.099492 0.178397 -0.753037
0.105561 0.181655 -0.746443
0.110453 0.179494 -0.757092
0.106426 0.171870 -0.780022
0.106375 0.187961 0.762651
0.106342 0.193766 0.751340
0.106353 0.198229 0.742703
0.106307 0.188520 0.219998
0.106337 0.193358 0.231100
0.105792 0.186758 0.039905
0.100966 0.196112 0.032075
0.106550 0.192663 -0.174114
0.092635 0.194134 -0.174126
0.093533 0.194334 -0.164593
0.106560 0.193566 -0.163265
0.106531 0.194189 -0.183691
0.095542 0.194574 -0.183126
0.106496 0.203228 -0.191425
0.094941 0.193522 -0.364606
0.106597 0.190068 -0.365983
0.106251 0.204893 -0.374965
0.105560 0.190604 -0.727937
0.099500 0.194406 -0.719375
0.105552 0.203388 -0.723315
0.099488 0.197993 -0.719382
0.106388 0.204536 0.728214
0.107369 0.209181 0.711498
0.102569 0.210291 0.702053
0.107334 0.213719 0.697107
0.113490 0.211550 0.705987
0.106225 0.202241 0.253871
0.106231 0.208379 0.269776
0.106279 0.197002 0.239469
0.106491 0.202218 0.026423
0.107235 0.220639 0.017111
0.106489 0.212033 -0.198217
0.100574 0.211280 -0.379633
0.106307 0.219184 -0.381691
0.111447 0.213120 -0.378759
0.106392 0.219708 0.681715
0.107372 0.224984 0.664877
0.102057 0.226792 0.649244
0.113521 0.227982 0.658782
0.110353 0.228445 0.649261
0.099018 0.227541 0.638632
0.105309 0.228951 0.631843
0.099197 0.227418 0.546430
0.099208 0.227414 0.539663
0.105435 0.229066 0.534133
0.105385 0.229124 0.551638
0.107829 0.223616 0.305472
0.103205 0.226535 0.315804
0.107620 0.229028 0.321178
0.114185 0.227798 0.312188
0.106383 0.215970 0.287462
0.106255 0.212023 0.278058
0.107344 0.223687 0.007647
0.113133 0.228111 0.014257
0.113124 0.228114 0.015194
0.106923 0.217648 -0.010142
0.105924 0.223068 -0.027455
0.099721 0.227403 -0.035054
0.105850 0.236908 -0.036741
0.110681 0.232149 -0.033363
0.102494 0.213268 -0.146815
0.089681 0.219125 -0.148109
0.094785 0.224239 -0.143045
0.106777 0.218298 -0.138276
0.106521 0.217264 -0.206907
0.106563 0.221682 -0.222992
0.106596 0.216493 -0.232162
0.106746 0.236455 -0.384565
0.107932 0.226300 -0.464567
0.097397 0.227670 -0.458244
0.097406 0.227671 -0.456680
0.108055 0.226342 -0.451782
0.103466 0.229325 -0.469121
0.101763 0.233289 -0.734851
0.112718 0.225781 -0.737471
0.106936 0.220073 -0.730631
0.106912 0.237703 -0.740640
0.106545 0.229579 0.613319
0.106501 0.230377 0.597026
0.106309 0.231208 0.582511
0.106337 0.230432 0.567701
0.106496 0.230717 0.517360
0.106436 0.234486 0.500528
0.106369 0.237939 0.483984
0.106325 0.239249 0.467353
0.106326 0.239855 0.451248
0.106399 0.239152 0.435734
0.106438 0.237959 0.419722
0.106364 0.236254 0.402820
0.106312 0.234828 0.385712
0.106308 0.234371 0.368904
0.106254 0.233360 0.352823
0.106125 0.231805 0.337260
0.106750 0.247081 -0.044778
0.106117 0.237001 -0.063004
0.097361 0.239550 -0.073717
0.097977 0.243142 -0.064238
0.099738 0.231331 -0.074553
0.098328 0.228250 -0.091601
0.096663 0.236473 -0.091359
0.096390 0.237096 -0.108305
0.098819 0.228871 -0.107964
0.100099 0.230439 -0.122843
0.096063 0.238655 -0.123654
0.100127 0.230236 -0.132384
0.106726 0.243095 -0.262013
0.106780 0.252534 -0.258396
0.106522 0.254456 -0.386620
0.106643 0.241450 -0.424143
0.108142 0.232383 -0.437578
0.103639 0.228214 -0.447086
0.107906 0.230693 -0.481011
0.106515 0.233539 -0.498920
0.094319 0.242415 -0.515535
0.106674 0.236861 -0.515662
0.097908 0.243834 -0.524914
0.108242 0.242258 -0.532204
0.103790 0.247232 -0.536928
0.106658 0.247054 -0.055176
0.094377 0.251767 -0.057635
0.106895 0.268999 -0.258285
0.104544 0.269110 -0.387746
0.114176 0.259348 -0.379113
0.110802 0.269074 -0.377660
0.105608 0.256345 -0.405083
0.108944 0.269075 -0.400909
0.106713 0.247383 -0.416127
0.095637 0.258182 -0.545311
0.106949 0.252596 -0.549722
0.099174 0.261009 -0.556440
0.108965 0.268917 -0.760860
0.112141 0.256347 -0.756058
0.106619 0.251604 -0.748921
0.100541 0.268908 -0.753696
0.107049 0.284708 -0.261971
0.105329 0.285462 -0.387613
0.109284 0.285417 -0.373552
0.111078 0.285473 -0.398377
0.102970 0.262767 -0.566137
0.108353 0.267094 -0.582243
0.106904 0.275151 -0.595799
0.094230 0.276819 -0.592651
0.106934 0.279790 -0.604058
0.105547 0.283075 -0.765886
0.098344 0.277261 -0.756374
0.107074 0.292949 -0.265280
0.106000 0.303128 -0.274927
0.105639 0.295277 -0.353169
0.110382 0.292128 -0.347792
0.105619 0.288831 -0.335797
0.099375 0.294164 -0.342373
0.106875 0.300125 -0.369085
0.110654 0.301029 -0.386957
0.113043 0.295189 -0.396767
0.106901 0.285348 -0.617544
0.106817 0.291133 -0.632040
0.106840 0.294766 -0.639892
0.110245 0.301901 -0.777530
0.112157 0.288484 -0.774351
0.101825 0.301878 -0.769589
0.099753 0.310310 -0.280689
0.106929 0.318240 -0.373885
0.112591 0.312856 -0.380824
0.106757 0.299881 -0.650392
0.106652 0.306863 -0.664671
0.106641 0.310785 -0.672596
0.110102 0.319586 -0.782032
0.100579 0.318295 -0.769411
0.105951 0.316825 -0.284513
0.106907 0.333552 -0.292991
0.106619 0.315774 -0.682072
0.105703 0.323442 -0.697338
0.099615 0.325799 -0.705669
0.106028 0.334775 -0.712656
0.110594 0.329193 -0.703166
0.105748 0.334615 -0.780816
0.099385 0.334628 -0.768020
0.112772 0.334615 -0.791789
0.114468 0.325683 -0.789538
0.106815 0.341742 -0.301881
0.106755 0.344318 -0.309991
0.099752 0.341286 -0.325433
0.100770 0.340000 -0.338585
0.109577 0.351784 -0.338502
0.106886 0.349408 -0.321635
0.102468 0.338550 -0.354840
0.110618 0.346866 -0.354908
0.107065 0.334083 -0.366213
0.112836 0.344361 -0.363459
0.100977 0.340479 -0.728518
0.112398 0.344657 -0.719551
0.110135 0.350441 -0.730543
0.098744 0.342162 -0.738840
0.103179 0.349835 -0.744631
0.100677 0.349855 -0.761799
0.103100 0.350925 -0.779664
0.110400 0.350931 -0.795235
0.113968 0.360507 -0.332783
0.114006 0.360558 -0.328877
0.114451 0.359883 -0.736922
0.112276 0.363063 -0.745389
0.110187 0.368305 -0.761367
0.108163 0.367279 -0.779301
0.111750 0.367306 -0.794526
0.114038 0.376583 -0.779377
0.114340 0.376169 -0.767009
0.114200 0.376248 -0.791200
0.124581 -0.403196 0.696961
0.130072 -0.409180 0.682561
0.130962 -0.408371 0.691283
0.121982 -0.402387 0.682324
0.121501 -0.401912 0.665886
0.129611 -0.409616 0.665881
0.124247 -0.403099 0.647416
0.130379 -0.408954 0.652440
0.124501 -0.403925 0.631265
0.130302 -0.408695 0.613936
0.130722 -0.408538 0.625884
0.122324 -0.404639 0.613592
0.130620 -0.408525 0.604664
0.124461 -0.403907 0.598822
0.118486 -0.390260 0.766988
0.123561 -0.393684 0.761125
0.123548 -0.388841 0.778200
0.129200 -0.392437 0.772265
0.118291 -0.389759 0.563195
0.129131 -0.392692 0.555102
0.123398 -0.393967 0.568301
0.123525 -0.388145 0.550240
0.124415 -0.392692 0.501515
0.119927 -0.389970 0.506651
0.124468 -0.388499 0.517692
0.130607 -0.391938 0.512152
0.124393 -0.376640 0.826638
0.120037 -0.373040 0.831199
0.130693 -0.375552 0.836314
0.124444 -0.370126 0.842392
0.123284 -0.368261 -0.880597
0.119297 -0.379651 -0.885388
0.123326 -0.362392 0.859379
0.118150 -0.356432 0.863564
0.128912 -0.360146 0.871061
0.124197 -0.349718 0.877299
0.116201 -0.361315 -0.870173
0.118883 -0.350477 -0.864272
0.119491 -0.341682 0.883416
0.124135 -0.335674 0.891460
0.130180 -0.343008 0.887210
0.115887 -0.344305 -0.853727
0.118715 -0.334679 -0.850446
0.123711 -0.350122 -0.894206
0.116877 -0.356019 -0.901595
0.123025 -0.322889 0.901201
0.112366 -0.323613 -0.838389
0.120120 -0.318237 -0.844566
0.123005 -0.314716 0.905235
0.123014 -0.302338 0.910825
0.116727 -0.301859 -0.832721
0.110842 -0.301877 -0.824414
0.115522 -0.312638 -0.835598
0.118005 -0.322000 -0.886989
0.121611 -0.317372 -0.877996
0.122145 -0.286979 0.917658
0.113807 -0.291025 -0.821449
0.117123 -0.285563 -0.827296
0.124274 -0.268510 0.939275
0.127557 -0.280949 0.928240
0.130531 -0.277808 0.936268
0.119428 -0.273949 0.928197
0.116141 -0.277284 0.919677
0.110526 -0.277438 0.919656
0.122728 -0.271230 -0.043704
0.116851 -0.278270 -0.049404
0.115246 -0.280089 -0.818351
0.111912 -0.269129 -0.808855
0.109541 -0.285581 -0.812144
0.115476 -0.269142 -0.816962
0.114685 -0.293646 -0.868057
0.116383 -0.287296 -0.858659
0.122266 -0.254139 0.947683
0.124812 -0.262870 -0.027900
0.120620 -0.258316 -0.023482
0.125306 -0.251588 -0.010138
0.131188 -0.260591 -0.017795
0.115120 -0.260033 -0.817210
0.109931 -0.253896 -0.811501
0.116040 -0.273693 -0.843502
0.114037 -0.262164 -0.833486
0.116255 -0.268178 -0.828033
0.114880 -0.277132 -0.852273
0.116314 -0.242794 0.950668
0.122331 -0.239253 0.959942
0.127255 -0.249231 0.955357
0.119316 -0.241348 -0.003297
0.123966 -0.235894 0.002593
0.129962 -0.244840 0.001086
0.118015 -0.236040 -0.110759
0.129562 -0.247114 -0.114396
0.123613 -0.249470 -0.105185
0.126170 -0.235986 -0.116589
0.118240 -0.242543 -0.288522
0.126412 -0.246369 -0.288712
0.127600 -0.245319 -0.276356
0.122554 -0.242929 -0.271349
0.119332 -0.242272 -0.303502
0.127557 -0.245920 -0.304220
0.129185 -0.244711 -0.313898
0.123406 -0.242439 -0.318413
0.122303 -0.242749 -0.335499
0.110949 -0.243001 -0.330782
0.105842 -0.245701 -0.335657
0.116312 -0.244331 -0.341797
0.115099 -0.260133 -0.822717
0.123138 -0.231143 0.968513
0.123162 -0.219983 0.974645
0.122909 -0.220446 0.011641
0.115212 -0.226843 -0.113541
0.121526 -0.222378 -0.122206
0.121370 -0.223006 -0.221726
0.109290 -0.224859 -0.217132
0.104863 -0.230397 -0.221852
0.114918 -0.227811 -0.228649
0.123028 -0.226182 -0.464811
0.128650 -0.228136 -0.458942
0.123135 -0.230980 -0.451113
0.117797 -0.227394 -0.456718
0.123731 -0.202618 0.980695
0.122825 -0.210468 0.030708
0.113837 -0.210796 0.032800
0.107665 -0.214864 0.025636
0.122789 -0.212275 0.021892
0.122750 -0.209114 -0.186970
0.113239 -0.210275 -0.181463
0.107287 -0.215749 -0.186854
0.117254 -0.212089 -0.192315
0.119797 -0.210752 -0.587263
0.130541 -0.211522 -0.590417
0.124281 -0.212393 -0.581437
0.124314 -0.209721 -0.597903
0.118707 -0.194330 0.982043
0.123798 -0.188210 0.983046
0.129525 -0.196387 0.982548
0.123314 -0.170941 0.984016
0.123341 -0.158511 0.983378
0.123327 -0.150132 0.980686
0.123359 -0.137736 0.979078
0.123361 -0.122035 0.980334
0.119080 -0.105122 0.982959
0.117932 -0.116991 0.982804
0.120970 -0.088771 0.982815
0.124977 -0.073961 0.982699
0.123579 -0.057626 0.982874
0.124095 -0.042422 0.982785
0.119339 -0.025874 0.982763
0.116124 -0.048989 -0.974906
0.117616 -0.042996 -0.957801
0.114969 -0.050809 -0.983018
0.119346 -0.009682 0.982594
0.116239 -0.031874 -0.941707
0.117500 -0.026279 -0.924652
0.115273 -0.033845 -0.951101
0.118962 0.000741 0.982478
0.120864 -0.007872 -0.826568
0.111791 -0.003352 -0.843343
0.113616 -0.002250 -0.831935
0.121038 -0.011077 -0.843314
0.108774 -0.004803 -0.859758
0.119911 -0.012766 -0.859751
0.118522 -0.014131 -0.876144
0.117260 -0.015488 -0.892511
0.116094 -0.016890 -0.908856
0.115134 -0.017815 -0.918397
0.123993 0.006324 0.980614
0.124450 0.021883 0.971581
0.118824 0.012926 0.948312
0.118820 0.012947 0.954193
0.123898 0.022745 0.946588
0.124735 0.021965 0.959584
0.122708 0.007987 -0.760674
0.109253 0.011631 -0.777618
0.112787 0.014279 -0.766023
0.119415 0.003925 -0.777570
0.117047 0.001058 -0.794019
0.115731 -0.000399 -0.810424
0.115069 -0.001123 -0.820917
0.130647 0.031812 0.964779
0.130644 0.031813 0.967257
0.123433 0.038913 0.940381
0.121245 0.025632 -0.729557
0.114246 0.031488 -0.735940
0.117011 0.020550 -0.744683
0.115692 0.017322 -0.755034
0.118045 0.044106 0.935274
0.122009 0.056545 0.929195
0.128893 0.049461 0.938173
0.115149 0.063650 0.920042
0.121560 0.072851 0.917737
0.125970 0.068031 0.923168
0.121955 0.089531 0.908256
0.118772 0.077249 0.083298
0.118590 0.077483 0.072314
0.123325 0.088380 0.088184
0.126564 0.088258 0.071403
0.116026 0.079561 0.063562
0.111361 0.079564 0.063545
0.118572 0.088330 0.062370
0.118583 0.086943 -0.764953
0.129493 0.082277 -0.770941
0.123648 0.079907 -0.760124
0.123297 0.091806 -0.776747
0.115778 0.095810 0.901298
0.121933 0.105251 0.898657
0.126606 0.100147 0.904698
0.117209 0.093986 0.100376
0.123644 0.104157 0.105765
0.127952 0.099843 0.093053
0.123612 0.104003 0.060000
0.129522 0.098049 0.065231
0.117046 0.101529 -0.782586
0.127976 0.096556 -0.790228
0.121884 0.105866 -0.795681
0.123525 0.120738 0.889542
0.115408 0.112275 0.129781
0.118572 0.109034 0.121147
0.126700 0.117152 0.121202
0.121724 0.122320 0.133075
0.130120 0.113885 0.111153
0.122926 0.121138 0.055439
0.115733 0.117295 -0.801034
0.127488 0.111076 -0.810682
0.120585 0.122485 -0.809901
0.129326 0.122324 -0.820896
0.130563 0.114257 -0.819166
0.118430 0.125945 0.881859
0.124380 0.136629 0.875720
0.129206 0.130654 0.887178
0.124231 0.138382 0.052102
0.123104 0.129492 -0.255388
0.109789 0.130149 -0.256149
0.112361 0.130131 -0.243089
0.123141 0.130117 -0.243775
0.110708 0.130712 -0.266397
0.123089 0.130250 -0.265739
0.123104 0.133727 -0.274392
0.118958 0.137972 -0.814123
0.127128 0.137905 -0.823787
0.119599 0.142593 0.863340
0.124077 0.148110 0.858967
0.130343 0.145995 0.869404
0.119993 0.140835 0.148411
0.124425 0.136254 0.142530
0.130747 0.145985 0.145528
0.124957 0.153238 0.155821
0.119031 0.153976 0.051451
0.123159 0.131381 -0.235636
0.123152 0.139762 -0.222913
0.121689 0.142798 -0.288682
0.114437 0.147249 -0.302584
0.118272 0.147179 -0.303037
0.126195 0.147811 -0.294912
0.126494 0.147719 -0.304024
0.123839 0.144487 -0.317259
0.112998 0.146584 -0.318091
0.129962 0.147147 -0.311936
0.112595 0.146381 -0.327526
0.122897 0.143885 -0.329407
0.122898 0.151327 -0.337789
0.116677 0.149864 -0.816971
0.122368 0.154777 -0.825017
0.122764 0.154534 0.843635
0.122763 0.159958 0.831579
0.122752 0.164015 0.823554
0.119191 0.160496 0.165565
0.123869 0.165867 0.171939
0.129912 0.162471 0.163559
0.115592 0.163509 0.050694
0.122859 0.159154 -0.346794
0.112042 0.161055 -0.345170
0.123073 0.172315 -0.356940
0.122726 0.170425 0.811392
0.122715 0.176727 0.800000
0.122721 0.180422 0.791563
0.122779 0.174783 0.186927
0.121845 0.169574 0.043269
0.110624 0.174440 0.047581
0.122998 0.183010 0.034836
0.117766 0.179195 -0.361890
0.119388 0.176980 -0.780024
0.117004 0.177788 -0.768812
0.127515 0.179619 -0.779738
0.122597 0.181492 -0.762618
0.123535 0.176381 -0.796185
0.129483 0.178941 -0.790641
0.122698 0.171445 -0.811896
0.122675 0.164997 -0.823486
0.122753 0.184738 0.778297
0.123586 0.191596 0.760019
0.118707 0.194576 0.752432
0.123581 0.197970 0.745975
0.129573 0.195036 0.753175
0.121916 0.192231 0.220800
0.116014 0.194694 0.228383
0.121952 0.198442 0.235266
0.126858 0.195581 0.226753
0.122620 0.184606 0.204930
0.122649 0.179629 0.195203
0.111927 0.193963 0.030707
0.122989 0.191166 0.030003
0.122959 0.203172 0.024607
0.118967 0.193686 -0.174162
0.118572 0.193877 -0.163757
0.127196 0.197359 -0.174180
0.123617 0.200463 -0.157032
0.116567 0.194429 -0.183378
0.122417 0.202860 -0.188476
0.123453 0.203266 -0.231464
0.129154 0.194684 -0.228671
0.123476 0.188626 -0.223205
0.118262 0.197713 -0.227533
0.123133 0.185655 -0.364026
0.122996 0.203566 -0.371364
0.123693 0.189338 -0.744088
0.118787 0.192704 -0.733127
0.128039 0.203339 -0.739009
0.119847 0.203321 -0.732108
0.122771 0.205232 0.728449
0.122343 0.209715 0.712112
0.116632 0.211551 0.706182
0.117905 0.209615 0.266825
0.123094 0.206872 0.255200
0.123092 0.213901 0.272178
0.128788 0.212163 0.262138
0.123751 0.221220 0.018331
0.122891 0.207047 -0.090511
0.112760 0.208881 -0.090072
0.113490 0.209829 -0.079611
0.122910 0.208730 -0.078202
0.113297 0.209534 -0.105994
0.122436 0.209625 -0.105346
0.122345 0.210591 -0.121504
0.114256 0.210717 -0.116171
0.117116 0.212339 -0.126546
0.109279 0.218540 -0.121847
0.127589 0.212154 -0.109915
0.127605 0.212160 -0.116230
0.122709 0.209150 -0.138927
0.107403 0.204593 -0.152373
0.113436 0.210937 -0.144607
0.122953 0.213054 -0.197413
0.123007 0.214903 -0.376775
0.117434 0.214834 -0.734061
0.124045 0.221057 -0.743552
0.122317 0.214576 0.698568
0.122749 0.222487 0.681835
0.122785 0.226807 0.670075
0.122788 0.228649 0.661724
0.122790 0.219508 0.287582
0.122764 0.225119 0.302151
0.118763 0.228130 0.015842
0.123787 0.226356 0.008794
0.123115 0.222070 -0.009935
0.123173 0.223944 -0.022779
0.121792 0.237043 -0.030641
0.122992 0.213945 -0.070499
0.108626 0.219253 -0.074834
0.111254 0.224510 -0.065644
0.123080 0.222193 -0.064750
0.117103 0.212346 -0.133479
0.122978 0.219814 -0.207028
0.122238 0.225442 -0.221742
0.123448 0.221207 -0.237355
0.127199 0.230770 -0.226359
0.127012 0.236164 -0.239910
0.130543 0.227527 -0.245945
0.124266 0.236828 -0.253621
0.123021 0.223198 -0.380080
0.124364 0.237817 -0.380555
0.121621 0.223842 -0.450146
0.114641 0.227774 -0.444363
0.115290 0.227774 -0.444393
0.126202 0.227981 -0.444845
0.121059 0.235758 -0.437275
0.122840 0.220879 -0.466143
0.114395 0.227724 -0.474307
0.122162 0.225473 -0.480691
0.116288 0.228513 -0.485232
0.118790 0.236198 -0.749133
0.130682 0.227274 -0.753099
0.126974 0.236242 -0.756235
0.122791 0.230183 0.648741
0.122839 0.230985 0.630989
0.122914 0.230945 0.613413
0.122826 0.231358 0.597456
0.122636 0.232164 0.582869
0.122668 0.232655 0.567604
0.122816 0.232995 0.551011
0.122851 0.233563 0.534339
0.122799 0.234870 0.517692
0.122750 0.236931 0.501130
0.122711 0.238527 0.484357
0.122727 0.239088 0.467002
0.122772 0.239827 0.450257
0.122831 0.240818 0.434986
0.122851 0.240936 0.419572
0.122811 0.239263 0.403193
0.122744 0.237518 0.386426
0.122676 0.236465 0.369451
0.122581 0.235026 0.352842
0.122469 0.232970 0.336744
0.122512 0.230119 0.320482
0.122623 0.228155 0.310625
0.118762 0.228129 0.014900
0.115544 0.243062 -0.035394
0.122616 0.251848 -0.041541
0.126298 0.252484 -0.032749
0.123336 0.253303 -0.251279
0.128877 0.248276 -0.246365
0.119902 0.248410 -0.379846
0.130677 0.244073 -0.378749
0.124431 0.253347 -0.377288
0.115837 0.243606 -0.427813
0.127850 0.252440 -0.429581
0.119696 0.253081 -0.421669
0.118707 0.229024 -0.498591
0.123499 0.231191 -0.514329
0.121680 0.240456 -0.534738
0.115351 0.244182 -0.542990
0.114708 0.244182 -0.542982
0.121722 0.248400 -0.549286
0.126246 0.245062 -0.541772
0.115152 0.245453 -0.752482
0.121669 0.251038 -0.761766
0.129713 0.262522 -0.036788
0.129666 0.262595 -0.033910
0.123199 0.247435 -0.053717
0.123252 0.268979 -0.256457
0.116386 0.261337 -0.293322
0.127340 0.258809 -0.297148
0.122381 0.255126 -0.288781
0.122387 0.267604 -0.301139
0.124380 0.269830 -0.368948
0.116540 0.259080 -0.410867
0.122447 0.269673 -0.408907
0.128339 0.263652 -0.420469
0.131193 0.260743 -0.428531
0.123165 0.256002 -0.567195
0.111154 0.258550 -0.566856
0.114803 0.260557 -0.575894
0.123206 0.259663 -0.577012
0.123211 0.264495 -0.585454
0.116631 0.268923 -0.767841
0.128094 0.256520 -0.771842
0.125811 0.270171 -0.777740
0.123325 0.281460 -0.262413
0.119017 0.285380 -0.364035
0.123110 0.286071 -0.353893
0.130636 0.275779 -0.360622
0.124684 0.273710 -0.601440
0.120223 0.278533 -0.607312
0.119277 0.284070 -0.778683
0.114751 0.277324 -0.770748
0.130621 0.276414 -0.785940
0.128286 0.285412 -0.788723
0.123375 0.289850 -0.268529
0.123423 0.298089 -0.276553
0.115621 0.293858 -0.360666
0.115622 0.293864 -0.359182
0.124720 0.281441 -0.615881
0.123855 0.290639 -0.635179
0.118774 0.294312 -0.641015
0.117199 0.301846 -0.784236
0.125423 0.301867 -0.793211
0.123404 0.306309 -0.283530
0.110834 0.309175 -0.281588
0.123473 0.318361 -0.289119
0.119728 0.305974 -0.391864
0.124291 0.301012 -0.397291
0.123455 0.317156 -0.385810
0.130497 0.310501 -0.395371
0.123825 0.298421 -0.648979
0.123080 0.307194 -0.663025
0.123108 0.311976 -0.671041
0.122743 0.318073 -0.796051
0.115803 0.314750 -0.786956
0.123497 0.331039 -0.294702
0.116355 0.323783 -0.376850
0.127712 0.334430 -0.378644
0.119523 0.334459 -0.373176
0.123076 0.318618 -0.682726
0.123012 0.324685 -0.693509
0.123024 0.330463 -0.701648
0.127386 0.334616 -0.808813
0.129306 0.321316 -0.804973
0.119089 0.334578 -0.799509
0.123410 0.339294 -0.302267
0.123315 0.347366 -0.310169
0.123947 0.349609 -0.368404
0.130479 0.343871 -0.376125
0.123027 0.338658 -0.711203
0.123068 0.345336 -0.719248
0.126364 0.351776 -0.814192
0.116790 0.350936 -0.803252
0.123251 0.355626 -0.317242
0.123752 0.366564 -0.325304
0.115805 0.357702 -0.343923
0.117573 0.355053 -0.354851
0.125705 0.362798 -0.354845
0.122705 0.366950 -0.338560
0.128311 0.360506 -0.364657
0.122954 0.354388 -0.730999
0.117368 0.359868 -0.736963
0.122935 0.367329 -0.814407
0.115867 0.367324 -0.802685
0.129538 0.367466 -0.824107
0.130593 0.357590 -0.821219
0.129521 0.378282 -0.328287
0.129492 0.378211 -0.332700
0.122940 0.364643 -0.744414
0.123009 0.373514 -0.757118
0.122992 0.377534 -0.765255
0.122031 0.383964 -0.796051
0.122838 0.383682 -0.814526
0.128711 0.385020 -0.830119
0.122952 0.382059 -0.779429
0.128556 0.395930 -0.800639
0.127765 0.400967 -0.814231
0.128655 0.400060 -0.830736
0.130748 0.400128 -0.838282
0.130767 0.391035 -0.837192
0.130478 0.410354 -0.831096
0.130452 0.410230 -0.819346
0.130914 0.409170 -0.838929
0.139390 -0.406547 0.702421
0.139433 -0.409680 0.694358
0.132261 -0.407949 0.637150
0.138462 -0.409867 0.631541
0.138444 -0.410725 0.646923
0.132254 -0.407948 0.640259
0.133832 -0.391173 0.783425
0.139278 -0.393714 0.777690
0.144650 -0.392493 0.788914
0.139167 -0.389830 0.794972
0.132356 -0.391480 0.534512
0.140520 -0.394213 0.534281
0.138208 -0.395104 0.549858
0.131913 -0.391506 0.543921
0.138221 -0.393235 0.517879
0.132055 -0.391673 0.523001
0.140624 -0.375973 0.843729
0.136199 -0.374105 0.847877
0.140745 -0.369844 0.860458
0.147125 -0.375519 0.854345
0.139257 -0.352109 0.881745
0.139291 -0.361282 0.873308
0.131903 -0.363723 -0.886078
0.127876 -0.350032 -0.879566
0.131855 -0.354857 -0.885290
0.139200 -0.343912 0.888438
0.138601 -0.333679 0.897735
0.131806 -0.355028 -0.888257
0.132748 -0.325439 0.903238
0.138618 -0.319307 0.907925
0.143629 -0.327541 0.904752
0.139650 -0.301507 0.916825
0.134484 -0.292418 0.919567
0.145392 -0.295579 0.921531
0.139719 -0.288410 0.927306
0.139346 -0.279894 0.937616
0.138239 -0.268875 0.946107
0.132005 -0.260134 0.950795
0.142994 -0.263210 0.953354
0.138586 -0.252823 0.959241
0.137243 -0.251714 -0.008542
0.131289 -0.260590 -0.017783
0.134191 -0.242445 0.965023
0.139628 -0.236646 0.970201
0.145153 -0.245550 0.967108
0.138389 -0.235502 0.003618
0.132333 -0.244840 0.001374
0.139255 -0.242915 -0.265478
0.139338 -0.245815 -0.274506
0.132822 -0.244475 -0.372392
0.130433 -0.243895 -0.361201
0.124157 -0.246205 -0.367884
0.138752 -0.242363 -0.366868
0.133470 -0.243969 -0.427229
0.144447 -0.244508 -0.429207
0.139128 -0.245054 -0.421010
0.139223 -0.240880 -0.435316
0.139534 -0.219779 0.977954
0.137839 -0.218043 0.012249
0.139225 -0.230772 -0.240113
0.125792 -0.226983 -0.229977
0.121387 -0.230975 -0.236529
0.139221 -0.225737 -0.231862
0.139530 -0.207290 0.981777
0.139405 -0.203905 0.024703
0.131423 -0.211632 0.020165
0.140246 -0.208769 -0.202976
0.128177 -0.210421 -0.197218
0.122805 -0.214066 -0.202879
0.135385 -0.212581 -0.208176
0.139531 -0.199101 0.982799
0.139571 -0.187074 0.984156
0.139626 -0.170730 0.985511
0.139640 -0.158108 0.984194
0.139629 -0.149807 0.980572
0.139642 -0.137758 0.978423
0.139753 -0.121557 0.977594
0.127178 -0.105194 0.980331
0.139847 -0.105319 0.976896
0.129048 -0.088798 0.981352
0.139877 -0.088838 0.978691
0.139319 -0.073899 0.981225
0.131271 -0.079849 0.982383
0.133483 -0.069517 0.982519
0.136889 -0.057556 0.982572
0.131421 -0.067906 -0.916369
0.129296 -0.058544 -0.910524
0.129846 -0.072964 -0.910947
0.131414 -0.064103 -0.916272
0.136829 -0.047962 0.982528
0.128724 -0.058600 -0.927649
0.131427 -0.064062 -0.922364
0.141346 -0.042235 0.981362
0.129913 -0.037227 0.982037
0.139825 -0.025426 0.979125
0.127518 -0.025748 0.981507
0.131769 -0.042999 -0.842295
0.129158 -0.043478 -0.858456
0.130259 -0.038648 -0.847189
0.131135 -0.049701 -0.852023
0.139777 -0.009253 0.979323
0.127527 -0.009552 0.981677
0.131849 -0.028127 -0.826752
0.130264 -0.019869 -0.826776
0.130850 -0.016309 -0.818267
0.133095 -0.022931 -0.811820
0.131148 -0.032205 -0.836159
0.129139 -0.026380 -0.842327
0.139748 0.006675 0.981084
0.135472 -0.010554 -0.777475
0.127534 -0.002863 -0.777524
0.129717 -0.000413 -0.766335
0.138865 -0.007470 -0.759969
0.125181 -0.006157 -0.793971
0.133042 -0.013713 -0.793910
0.125227 -0.009786 -0.811851
0.131606 -0.015488 -0.807321
0.139713 0.022960 0.977318
0.139706 0.009259 -0.712177
0.127855 0.013663 -0.728219
0.130136 0.015907 -0.718136
0.136371 0.005965 -0.728182
0.133708 0.003264 -0.744608
0.125171 0.010861 -0.744649
0.131967 0.001717 -0.755352
0.139679 0.035596 0.969474
0.133501 0.028293 0.954612
0.133493 0.028284 0.949885
0.139211 0.040372 0.948462
0.139230 0.037258 0.959591
0.140714 0.055298 0.940284
0.135951 0.060309 0.934051
0.139849 0.071667 0.927792
0.146876 0.064380 0.936575
0.132849 0.078926 0.919477
0.138725 0.087761 0.916072
0.143768 0.081927 0.921646
0.139652 0.105244 0.906797
0.139242 0.094314 0.081853
0.139233 0.094291 0.077092
0.139249 0.099220 0.068751
0.134369 0.111052 0.901780
0.139542 0.120230 0.898015
0.145248 0.114161 0.903971
0.139280 0.102950 0.090345
0.139347 0.111173 0.100260
0.138980 0.103805 0.055666
0.133973 0.121159 0.050578
0.139155 0.132944 0.889516
0.138775 0.124678 0.121868
0.132920 0.128539 0.130062
0.138724 0.136930 0.134951
0.143804 0.131050 0.127386
0.139347 0.115898 0.108377
0.132849 0.133498 0.049208
0.139346 0.129226 -0.254141
0.139447 0.130119 -0.245396
0.139294 0.129810 -0.263902
0.139355 0.133920 -0.272880
0.139088 0.141137 0.881145
0.139047 0.147664 0.872701
0.138786 0.138447 0.044550
0.130552 0.144448 0.047840
0.127222 0.154028 0.046468
0.139441 0.154083 0.039793
0.139323 0.141390 -0.219914
0.139495 0.131841 -0.237572
0.139433 0.141843 -0.285930
0.139462 0.147669 -0.294950
0.140136 0.138468 -0.331639
0.138770 0.139183 -0.319691
0.139309 0.149599 -0.340326
0.140422 0.155805 0.860187
0.135164 0.160227 0.844634
0.146782 0.162228 0.854416
0.143298 0.163387 0.845402
0.131497 0.161790 0.835539
0.137707 0.166691 0.829715
0.139228 0.147554 0.144063
0.139188 0.155754 0.153459
0.138561 0.169810 0.033885
0.137899 0.147638 -0.304684
0.131379 0.147121 -0.312107
0.139266 0.157455 -0.348462
0.139240 0.168941 -0.356874
0.137445 0.175495 0.812791
0.131040 0.178364 0.804294
0.137451 0.182549 0.797204
0.141963 0.180062 0.807698
0.139034 0.175950 0.185344
0.139096 0.168589 0.172594
0.139131 0.162984 0.162616
0.132475 0.180038 0.032275
0.128687 0.178566 -0.361093
0.139257 0.177014 -0.362295
0.139280 0.187181 -0.366000
0.138578 0.176648 -0.795792
0.139081 0.172077 -0.811482
0.139045 0.165699 -0.823795
0.138995 0.188338 0.777969
0.139102 0.192656 0.762901
0.139108 0.195423 0.754712
0.138923 0.186274 0.205125
0.139001 0.192634 0.217843
0.138958 0.180363 0.193392
0.138566 0.186047 0.027778
0.139455 0.203222 0.022248
0.139278 0.203154 -0.372071
0.139253 0.190957 -0.746398
0.140593 0.182528 -0.763657
0.136150 0.179648 -0.779503
0.132805 0.178953 -0.790559
0.139117 0.198699 0.744895
0.139087 0.203574 0.729143
0.139037 0.207408 0.713629
0.127480 0.210812 0.704855
0.139020 0.210231 0.704460
0.139031 0.215276 0.696406
0.139081 0.208238 0.252180
0.139119 0.201365 0.238156
0.139077 0.196277 0.226168
0.139475 0.216677 0.018449
0.139408 0.205620 -0.091309
0.139465 0.207723 -0.077938
0.138547 0.208377 -0.105318
0.132542 0.212154 -0.109781
0.139355 0.203831 -0.138951
0.138534 0.207563 -0.121533
0.139434 0.200761 -0.157034
0.139486 0.201061 -0.174213
0.139450 0.207318 -0.186907
0.139436 0.215964 -0.195028
0.133797 0.214656 -0.375520
0.138375 0.224198 0.680533
0.132466 0.227527 0.673002
0.138413 0.229463 0.666136
0.143429 0.228222 0.674061
0.139112 0.222551 0.287423
0.139112 0.226328 0.298917
0.139036 0.217439 0.271794
0.139039 0.212999 0.260801
0.139419 0.222493 0.008512
0.139308 0.220552 -0.008346
0.139299 0.222957 -0.020054
0.139387 0.236056 -0.026520
0.139620 0.221678 -0.064590
0.139552 0.213426 -0.069795
0.132542 0.212164 -0.116079
0.137880 0.224884 -0.206744
0.131417 0.227763 -0.215487
0.138398 0.236346 -0.222515
0.142392 0.230947 -0.211829
0.139252 0.220256 -0.380281
0.139356 0.237888 -0.379950
0.137945 0.218691 -0.450804
0.136303 0.214424 -0.466363
0.140354 0.216571 -0.481201
0.126852 0.226642 -0.498487
0.139180 0.221693 -0.498461
0.139691 0.225593 -0.513956
0.129211 0.227493 -0.507763
0.134603 0.229892 -0.518917
0.139154 0.231623 0.647865
0.139186 0.231630 0.630912
0.139188 0.230675 0.614265
0.139086 0.230489 0.598715
0.138957 0.231700 0.583627
0.138989 0.234120 0.567387
0.139084 0.236528 0.550306
0.139072 0.238377 0.533768
0.139003 0.239582 0.517765
0.139014 0.238540 0.501638
0.139046 0.237130 0.484894
0.139101 0.237196 0.467008
0.139169 0.238616 0.449616
0.140363 0.241994 0.432447
0.138222 0.243174 0.418754
0.146434 0.244272 0.417862
0.146631 0.244255 0.425724
0.140495 0.242553 0.404359
0.146887 0.244209 0.409839
0.139060 0.239870 0.387139
0.139016 0.236962 0.370290
0.138926 0.234591 0.353300
0.138831 0.232455 0.336349
0.138876 0.230312 0.319710
0.138998 0.228633 0.307178
0.139449 0.252447 -0.031073
0.134410 0.241737 -0.235262
0.138720 0.252868 -0.240613
0.145402 0.246340 -0.229390
0.134839 0.244878 -0.278938
0.145749 0.243964 -0.279956
0.139919 0.240542 -0.271674
0.140053 0.248425 -0.287038
0.133951 0.244077 -0.378360
0.139438 0.251057 -0.374178
0.131506 0.227991 -0.444991
0.139489 0.235946 -0.435213
0.138965 0.235902 -0.533461
0.132399 0.245051 -0.541773
0.133436 0.245672 -0.768081
0.144392 0.242603 -0.769967
0.139109 0.236818 -0.763368
0.139054 0.251688 -0.774519
0.139503 0.263153 -0.033643
0.139605 0.255982 -0.045766
0.139660 0.247817 -0.053153
0.132178 0.259291 -0.248425
0.139207 0.269714 -0.256107
0.143063 0.262664 -0.245634
0.139517 0.265617 -0.365129
0.135710 0.247366 -0.551017
0.140675 0.249224 -0.567179
0.140706 0.256860 -0.583421
0.136082 0.262722 -0.588461
0.139518 0.263095 -0.037547
0.135357 0.278198 -0.263455
0.133288 0.277221 -0.311497
0.144172 0.276504 -0.313014
0.139085 0.270185 -0.307704
0.139031 0.280719 -0.318033
0.139566 0.273788 -0.359708
0.139553 0.281121 -0.350344
0.139449 0.267555 -0.420446
0.139387 0.275322 -0.410584
0.139478 0.261158 -0.428690
0.140770 0.267056 -0.599369
0.131026 0.277229 -0.609215
0.140871 0.275599 -0.615871
0.136237 0.279540 -0.620204
0.140366 0.285361 -0.272574
0.134458 0.294839 -0.279670
0.140831 0.283085 -0.632650
0.129644 0.293560 -0.642409
0.140534 0.291186 -0.648917
0.135669 0.297292 -0.653334
0.132886 0.301912 -0.800710
0.144324 0.290671 -0.804562
0.139056 0.285217 -0.796851
0.141093 0.302087 -0.807373
0.139916 0.300986 -0.285781
0.141352 0.319734 -0.294247
0.140166 0.302495 -0.665673
0.133746 0.311717 -0.671748
0.131257 0.310404 -0.801919
0.138949 0.316740 -0.811013
0.136784 0.328339 -0.296217
0.139345 0.314365 -0.394401
0.139376 0.322580 -0.390621
0.139428 0.314687 -0.683058
0.139887 0.322665 -0.697442
0.134700 0.328880 -0.702532
0.135885 0.334577 -0.815449
0.146440 0.322853 -0.818996
0.143984 0.334613 -0.820489
0.141355 0.334344 -0.302933
0.139897 0.347053 -0.312024
0.145591 0.351031 -0.392863
0.146019 0.337189 -0.392694
0.140083 0.332807 -0.387348
0.137518 0.350057 -0.382272
0.139399 0.334520 -0.713845
0.133127 0.344205 -0.720327
0.138861 0.351774 -0.823806
0.132975 0.346554 -0.818039
0.139844 0.355265 -0.314813
0.139683 0.367590 -0.318409
0.133508 0.354804 -0.373268
0.139072 0.363135 -0.368928
0.144438 0.361733 -0.383699
0.146536 0.360464 -0.392368
0.139007 0.347196 -0.730134
0.140067 0.355403 -0.743881
0.128321 0.358623 -0.738084
0.134954 0.362984 -0.748674
0.139623 0.383784 -0.325497
0.134786 0.373629 -0.343839
0.139887 0.370404 -0.354068
0.140068 0.382783 -0.338061
0.145654 0.376694 -0.348142
0.139844 0.368190 -0.760403
0.133806 0.377489 -0.766272
0.139261 0.384977 -0.839189
0.144679 0.372053 -0.836366
0.139291 0.367080 -0.830981
0.133708 0.380200 -0.833924
0.144661 0.400264 -0.327573
0.144675 0.400246 -0.331519
0.139334 0.381582 -0.778802
0.139392 0.389862 -0.791944
0.139422 0.396766 -0.800089
0.146205 0.410248 -0.327964
0.146187 0.410228 -0.330011
0.139429 0.405116 -0.809112
0.140238 0.416131 -0.817754
0.135196 0.418543 -0.831089
0.146270 0.425959 -0.821509
0.143487 0.429019 -0.830940
0.139016 0.414213 -0.845436
0.143001 0.434020 -0.846508
0.144758 0.432971 -0.853246
0.144753 0.419448 -0.852194
0.146593 0.446111 -0.854002
0.146548 0.446241 -0.851925
0.155950 -0.406775 0.703858
0.156006 -0.410664 0.695515
0.150925 -0.391160 0.800195
0.156253 -0.393649 0.794101
0.162234 -0.392354 0.803214
0.156192 -0.388088 0.810145
0.147574 -0.375519 0.854383
0.154150 -0.368809 0.861225
0.155676 -0.353252 0.881676
0.155706 -0.360773 0.873538
0.155616 -0.345022 0.889754
0.155643 -0.337164 0.897754
0.155629 -0.328984 0.905875
0.155721 -0.317383 0.914256
0.150258 -0.306424 0.918762
0.156917 -0.300076 0.926033
0.161296 -0.311332 0.920275
0.152515 -0.291236 0.931588
0.157186 -0.285537 0.938980
0.163557 -0.293674 0.935360
0.155861 -0.273893 0.947651
0.155904 -0.265656 0.955404
0.155957 -0.255725 0.962992
0.148928 -0.262604 -0.031319
0.142146 -0.258609 -0.019961
0.137857 -0.263944 -0.026298
0.155021 -0.251869 -0.025204
0.156004 -0.247524 0.968276
0.156067 -0.236101 0.974014
0.152863 -0.235459 -0.005662
0.143237 -0.240620 -0.000095
0.150193 -0.247689 -0.010724
0.155923 -0.240882 -0.269553
0.150610 -0.245245 -0.276024
0.155683 -0.244701 -0.405100
0.146051 -0.243884 -0.394217
0.140146 -0.245245 -0.401651
0.155666 -0.243504 -0.396147
0.156210 -0.218518 0.980532
0.150622 -0.219573 0.004702
0.148380 -0.229719 0.002619
0.156334 -0.224179 -0.236610
0.151277 -0.229169 -0.242304
0.157139 -0.225838 -0.481544
0.163611 -0.227837 -0.476471
0.157297 -0.229175 -0.468479
0.152663 -0.227230 -0.472735
0.150716 -0.210161 0.982278
0.161849 -0.212248 0.982600
0.156205 -0.204154 0.983661
0.154081 -0.203168 0.007575
0.143562 -0.203131 0.016381
0.155688 -0.215521 -0.222454
0.146336 -0.210987 -0.212029
0.140212 -0.217030 -0.218497
0.155729 -0.209131 -0.214194
0.156099 -0.187038 0.986707
0.147367 -0.194615 0.017833
0.156415 -0.189241 0.009285
0.155835 -0.186728 -0.171158
0.147152 -0.194659 -0.164214
0.140730 -0.199363 -0.170143
0.148609 -0.195906 -0.174920
0.156140 -0.170714 0.988161
0.156167 -0.157629 0.985371
0.149168 -0.161773 -0.687786
0.160096 -0.163224 -0.689013
0.155077 -0.168906 -0.681803
0.155091 -0.155691 -0.695050
0.156165 -0.149337 0.980577
0.156168 -0.137808 0.978599
0.156260 -0.121764 0.978514
0.156337 -0.105611 0.977642
0.156365 -0.088980 0.977890
0.156409 -0.072734 0.979401
0.154875 -0.057379 0.981405
0.145096 -0.057483 0.981857
0.154860 -0.041996 0.980957
0.159372 -0.047636 0.982620
0.159369 -0.052284 0.982620
0.156343 -0.024992 0.977498
0.148017 -0.045193 -0.770332
0.144714 -0.040086 -0.776500
0.147122 -0.034062 -0.768353
0.150237 -0.039747 -0.762152
0.156288 -0.008907 0.976900
0.156255 0.006777 0.978721
0.155280 -0.007407 -0.710607
0.144511 -0.002568 -0.728181
0.146407 -0.000144 -0.717187
0.151285 -0.010543 -0.728165
0.141848 -0.005427 -0.744600
0.148851 -0.013341 -0.744577
0.147667 -0.014607 -0.753631
0.156215 0.023029 0.978211
0.156553 0.009766 -0.680579
0.144163 0.013490 -0.695450
0.146732 0.016264 -0.685762
0.151923 0.005439 -0.695455
0.148723 0.002467 -0.706237
0.154780 0.041040 0.972204
0.148928 0.046641 0.959323
0.159380 0.051142 0.969353
0.157231 0.052236 0.959393
0.148818 0.046618 0.951533
0.155013 0.055819 0.946648
0.155990 0.065455 0.937570
0.155892 0.073592 0.930065
0.155810 0.082737 0.921770
0.156885 0.073360 0.044408
0.147110 0.079762 0.047282
0.147111 0.079763 0.047759
0.157676 0.074144 0.053466
0.145155 0.088349 0.046562
0.155836 0.088379 0.040530
0.155779 0.090929 0.916152
0.155759 0.104710 0.909457
0.156173 0.088578 0.073514
0.155722 0.092792 0.082665
0.149058 0.098591 0.068939
0.142963 0.104825 0.045356
0.155863 0.104886 0.039142
0.155708 0.115838 0.904345
0.155764 0.110653 0.101795
0.155715 0.102429 0.091541
0.149112 0.098579 0.061322
0.155889 0.121324 0.037527
0.142216 0.121236 0.044640
0.155641 0.124025 0.899468
