0.454713 0.484331 0.141096
0.457545 0.487615 0.149925
0.466557 0.482160 0.152786
0.459300 0.474124 0.132921
0.465708 0.480688 -0.059352
0.455354 0.487061 -0.054065
0.459253 0.490572 -0.064228
0.462919 0.508125 0.474996
0.469107 0.493505 0.322052
0.469162 0.498287 0.331369
0.454501 0.503189 0.308845
0.467478 0.500727 0.305846
0.467461 0.507425 0.297715
0.461775 0.493401 -0.072633
0.453964 0.501615 -0.072608
0.466755 0.498166 -0.089215
0.457415 0.505046 -0.083333
0.460134 0.508147 -0.094238
0.467277 0.496517 -0.215728
0.467285 0.504771 -0.210351
0.467992 0.514088 0.471271
0.467383 0.531239 0.465049
0.467404 0.515628 0.290911
0.467352 0.526909 0.282654
0.462459 0.511095 -0.105393
0.454946 0.519299 -0.105377
0.457883 0.522000 -0.115368
0.467174 0.514927 -0.122106
0.460925 0.525341 -0.126690
0.465844 0.547824 0.460251
0.457074 0.538314 0.278888
0.467754 0.534504 0.272306
0.462524 0.541201 0.267440
0.463712 0.528766 -0.139061
0.456746 0.536966 -0.138973
0.468112 0.531610 -0.155431
0.459194 0.539319 -0.147623
0.461783 0.541916 -0.159024
0.459297 0.555918 0.458533
0.466574 0.547557 0.254431
0.459660 0.556025 0.247239
0.463547 0.543586 -0.172681
0.454966 0.551836 -0.172765
0.462305 0.542188 -0.188779
0.460130 0.540103 -0.197274
0.465800 0.562460 0.452894
0.467486 0.581324 0.444124
0.466027 0.561356 0.239385
0.458575 0.571703 0.230219
0.467339 0.570796 0.230250
0.457261 0.580491 0.230135
0.467330 0.580487 0.228451
0.466430 0.563668 0.168551
0.451398 0.563658 0.162297
0.457178 0.568877 0.165431
0.460437 0.557912 0.163707
0.462119 0.590136 0.442275
0.467327 0.596888 0.226221
0.454113 0.596895 0.229784
0.467594 0.596107 0.437675
0.467554 0.613289 0.430672
0.467334 0.613303 0.221613
0.467566 0.629717 0.427493
0.467322 0.625542 0.216165
0.467564 0.640575 0.425604
0.467310 0.633761 0.211719
0.457861 0.637360 0.214054
0.467300 0.646168 0.206320
0.467623 0.648793 0.421642
0.467661 0.662554 0.415455
0.468060 0.661697 0.201174
0.467625 0.678310 0.410523
0.462978 0.673593 0.199871
0.467590 0.686507 0.408168
0.467558 0.695360 0.402543
0.465563 0.676483 0.189558
0.462638 0.674618 0.173936
0.459088 0.671146 0.165743
0.467498 0.711778 0.395719
0.467443 0.725064 0.393066
0.455660 0.735971 0.391781
0.467433 0.733281 0.390655
0.467456 0.744673 0.384686
0.467489 0.758453 0.377842
0.467526 0.766763 0.374713
0.467547 0.778005 0.370960
0.467639 0.794802 0.365555
0.467752 0.810910 0.361111
0.467773 0.818943 0.359153
0.467829 0.828083 0.349813
0.462361 0.835586 0.343691
0.468889 0.828335 0.335375
0.451846 0.827648 0.326924
0.457864 0.833649 0.331836
0.464448 0.822717 0.328549
0.462330 0.835565 0.340428
0.483999 -0.649838 -0.054939
0.471770 -0.652827 -0.052487
0.466777 -0.659294 -0.057162
0.484007 -0.657623 -0.062051
0.482434 -0.628570 -0.031596
0.475946 -0.638312 -0.033885
0.482258 -0.630905 -0.099970
0.486899 -0.641723 -0.098920
0.482402 -0.646869 -0.092514
0.475874 -0.636966 -0.096350
0.473165 -0.619553 -0.019067
0.484540 -0.614058 -0.022351
0.479425 -0.608681 -0.015075
0.483784 -0.597283 -0.009266
0.477196 -0.590206 -0.000532
0.483172 -0.581037 0.003248
0.484537 -0.597578 -0.098590
0.479697 -0.592451 -0.095516
0.484557 -0.582244 -0.091814
0.490656 -0.588512 -0.097032
0.483904 -0.568541 0.012064
0.473791 -0.571244 0.014188
0.483965 -0.551345 0.027590
0.473839 -0.554413 0.030177
0.483920 -0.560226 0.019358
0.483514 -0.565692 -0.083168
0.483483 -0.557797 -0.079787
0.483999 -0.543151 0.034672
0.472807 -0.536643 0.045806
0.484798 -0.531280 0.043603
0.479856 -0.525757 0.050375
0.472065 -0.520129 0.061104
0.485370 -0.515823 0.056886
0.483474 -0.534603 -0.067835
0.465438 -0.531585 -0.067083
0.469827 -0.525734 -0.062940
0.483487 -0.526613 -0.062533
0.484783 -0.499703 0.070621
0.472023 -0.498627 0.078502
0.479899 -0.509231 0.066251
0.475478 -0.490279 0.081231
0.483867 -0.487551 0.079112
0.483466 -0.497090 -0.045288
0.483481 -0.505072 -0.049345
0.483845 -0.479375 0.085265
0.472782 -0.472090 0.096970
0.483881 -0.469351 0.094130
0.484435 -0.448977 0.111801
0.472452 -0.454142 0.114153
0.483885 -0.461161 0.102352
0.483535 -0.472448 -0.033108
0.483572 -0.464139 -0.028596
0.484390 -0.433773 0.122473
0.472494 -0.432906 0.130094
0.479275 -0.443211 0.118502
0.475229 -0.424356 0.132789
0.483811 -0.422482 0.130777
0.483668 -0.433021 -0.011036
0.483673 -0.441338 -0.015529
0.483795 -0.414290 0.138786
0.474841 -0.407775 0.148819
0.483826 -0.406307 0.146761
0.483868 -0.398116 0.155096
0.474531 -0.390369 0.165023
0.483917 -0.387737 0.163515
0.485200 -0.401138 0.000209
0.465723 -0.401069 0.000229
0.470161 -0.395350 0.002346
0.480783 -0.395421 0.002339
0.485256 -0.387015 0.003622
0.491688 -0.393486 0.001804
0.483954 -0.367244 0.175252
0.473039 -0.367225 0.180081
0.483922 -0.379514 0.168472
0.475731 -0.358998 0.182295
0.483977 -0.357435 0.180942
0.479055 -0.344340 0.200612
0.473103 -0.339927 0.211255
0.467578 -0.347881 0.206470
0.485180 -0.335050 0.206297
0.480306 -0.329004 0.216797
0.474556 -0.317998 0.229152
0.485163 -0.318601 0.219969
0.485748 -0.302832 0.228637
0.475742 -0.309150 0.231031
0.476217 -0.325965 0.001636
0.468910 -0.319963 -0.001988
0.475324 -0.315186 0.001899
0.482590 -0.320251 0.003643
0.481256 -0.298199 0.234493
0.473975 -0.291386 0.245380
0.472035 -0.302829 0.239844
0.485733 -0.289500 0.239812
0.484215 -0.272143 0.257782
0.474346 -0.275551 0.260456
0.484208 -0.280444 0.251184
0.484312 -0.268747 -0.189767
0.474011 -0.274949 -0.185116
0.477478 -0.278077 -0.195460
0.484244 -0.263965 0.265316
0.475457 -0.259999 0.278359
0.484231 -0.256084 0.274639
0.480821 -0.255700 -0.071806
0.475016 -0.261806 -0.066254
0.470145 -0.269670 -0.071807
0.476386 -0.263493 -0.077137
0.476089 -0.244258 0.297150
0.482608 -0.234595 0.299838
0.479903 -0.239757 -0.039159
0.475553 -0.246014 -0.032871
0.471700 -0.253357 -0.038803
0.476200 -0.247272 -0.043837
0.474447 -0.226403 0.312357
0.484115 -0.222730 0.308710
0.484068 -0.214512 0.315512
0.473143 -0.208902 0.325074
0.484799 -0.203339 0.322378
0.484823 -0.187450 0.337544
0.473488 -0.192405 0.343653
0.479756 -0.197987 0.330499
0.483710 -0.169927 0.354122
0.472053 -0.174280 0.359097
0.478903 -0.181456 0.348222
0.483828 -0.187857 -0.239236
0.468133 -0.187822 -0.249850
0.474063 -0.182492 -0.242573
0.478396 -0.193102 -0.245319
0.483482 -0.153821 0.366656
0.477558 -0.163327 0.363462
0.485394 -0.137958 0.375537
0.474189 -0.143738 0.377305
0.479460 -0.130953 0.575639
0.471626 -0.126769 0.585740
0.466807 -0.133495 0.580522
0.484577 -0.124225 0.581312
0.484399 -0.121130 0.386772
0.471868 -0.124559 0.390821
0.480732 -0.132800 0.380469
0.484170 -0.115683 0.592445
0.484250 -0.109101 0.600550
0.477100 -0.113621 0.396226
0.472302 -0.107581 0.407196
0.482145 -0.102742 0.401923
0.484342 -0.100946 0.608648
0.484422 -0.089980 0.616728
0.476262 -0.096641 0.412055
0.471671 -0.088271 0.423502
0.482737 -0.086782 0.414722
0.484484 -0.081748 0.622909
0.485579 -0.070690 0.630796
0.484088 -0.072363 0.423189
0.475016 -0.078155 0.427307
0.480858 -0.059268 0.635177
0.485642 -0.054523 0.639198
0.491783 -0.064427 0.638129
0.478474 -0.067209 0.430248
0.472663 -0.055464 0.441285
0.484086 -0.055083 0.432774
0.484586 -0.039139 0.643070
0.474861 -0.044775 0.443829
0.483551 -0.039205 0.439764
0.484489 -0.022747 0.648211
0.477559 -0.033831 0.446711
0.473895 -0.026420 0.457290
0.471342 -0.039205 0.452503
0.479747 -0.021657 0.451956
0.483710 -0.007645 0.652669
0.478417 -0.006295 0.465602
0.474509 -0.006256 0.474159
0.471284 -0.021632 0.468069
0.476448 -0.015494 0.461287
0.477708 0.004454 0.653989
0.488668 -0.003038 0.656050
0.483644 0.009702 0.658510
0.475944 0.002085 0.477639
0.481140 0.008572 0.471074
0.484362 0.026055 0.663763
0.483897 0.008284 -0.236054
0.470871 0.009226 -0.251935
0.475231 0.015080 -0.243797
0.477110 0.004508 -0.245970
0.485175 0.041545 0.668263
0.480118 0.023686 0.549388
0.475049 0.028754 0.539170
0.475061 0.028650 0.543289
0.476625 0.024248 0.534145
0.476618 0.042629 0.529621
0.474085 0.042509 0.537393
0.479928 0.058972 0.670782
0.491157 0.046281 0.673476
0.488147 0.059013 0.675559
0.472286 0.058986 0.536651
0.477411 0.059102 0.529224
0.477230 0.068883 0.672716
0.483424 0.074379 0.676861
0.479183 0.058863 0.565619
0.472723 0.059299 0.550383
0.475430 0.064818 0.559167
0.476676 0.054226 0.556176
0.478828 0.075437 0.529033
0.483388 0.058628 -0.222491
0.471381 0.058470 -0.235803
0.475167 0.064517 -0.227288
0.477520 0.053639 -0.230140
0.484457 0.091207 0.679043
0.480885 0.091723 0.530511
0.484369 0.108148 0.679366
0.474388 0.104899 0.539378
0.481420 0.109478 0.534259
0.484372 0.124413 0.679467
0.475785 0.115669 0.540282
0.474537 0.108830 0.546945
0.475785 0.115642 0.540282
0.483263 0.139753 0.678025
0.478886 0.122920 0.583298
0.472824 0.123028 0.564452
0.474636 0.128568 0.577501
0.476564 0.117710 0.569385
0.481669 0.122452 0.533443
0.482829 0.140288 0.530043
0.477034 0.144611 0.673909
0.478707 0.157400 0.672850
0.486927 0.157419 0.677638
0.483354 0.156605 0.531253
0.480673 0.174106 0.671285
0.488878 0.174066 0.675776
0.475438 0.165082 0.539383
0.485264 0.171210 0.533410
0.484955 0.190634 0.669147
0.490621 0.186434 0.673509
0.483808 0.172428 -0.219797
0.469250 0.171342 -0.234914
0.474313 0.176953 -0.226569
0.476478 0.165880 -0.228762
0.484591 0.204808 0.663745
0.483792 0.190706 0.500104
0.474614 0.195435 0.485891
0.475693 0.196552 0.494511
0.479300 0.187571 0.485908
0.483440 0.189477 0.468714
0.474471 0.195912 0.474971
0.474044 0.207808 0.469481
0.477586 0.203600 0.464064
0.484577 0.220101 0.657299
0.484750 0.208603 0.453781
0.475925 0.214567 0.461207
0.481932 0.221719 0.454683
0.475926 0.215575 0.461205
0.476465 0.198058 -0.212080
0.473499 0.209053 -0.208928
0.483284 0.203948 -0.202391
0.484603 0.228494 0.653919
0.484520 0.237457 0.648832
0.484452 0.250801 0.641039
0.482498 0.237282 -0.188552
0.474969 0.241773 -0.194290
0.475967 0.231031 -0.195154
0.484354 0.258765 0.634020
0.484196 0.265051 0.625917
0.484037 0.273303 0.616581
0.484000 0.280534 0.608540
0.483941 0.288925 0.600783
0.472509 0.292502 0.603707
0.483343 0.301558 0.592504
0.477452 0.311363 0.589723
0.483707 0.304568 -0.190049
0.474101 0.310238 -0.193924
0.478162 0.299513 -0.197136
0.470541 0.322256 0.583438
0.482048 0.316987 0.578976
0.475789 0.326508 0.572505
0.472016 0.337479 0.568388
0.482417 0.333436 0.563066
0.478144 0.344539 0.557728
0.476465 0.330007 -0.179066
0.468334 0.335794 -0.184059
0.474493 0.341050 -0.177483
0.482742 0.335911 -0.174271
0.483640 0.350300 0.550952
0.470969 0.355498 0.553419
0.483705 0.362681 0.542977
0.483643 0.370850 0.538838
0.472251 0.373818 0.540235
0.483591 0.383599 0.533054
0.483188 0.400599 0.526485
0.477468 0.409072 0.524651
0.478930 0.399497 0.071883
0.475503 0.407707 0.071892
0.475605 0.407815 0.080459
0.483830 0.400621 0.089066
0.475662 0.408154 0.060849
0.480244 0.401748 0.055384
0.476156 0.409012 0.049863
0.470274 0.415482 0.055310
0.483286 0.415271 0.519178
0.484610 0.433897 0.510662
0.485266 0.418634 0.107005
0.473395 0.418161 0.088272
0.475658 0.424643 0.100139
0.479129 0.413701 0.093521
0.469766 0.418754 0.039697
0.477444 0.410455 0.040063
0.471878 0.420978 0.025217
0.479638 0.412787 0.025609
0.473870 0.422946 0.015644
0.483838 0.416469 0.009775
0.477697 0.426752 0.004673
0.485602 0.434537 -0.202212
0.490797 0.424471 -0.195872
0.484808 0.418594 -0.188882
0.479889 0.428367 -0.193135
0.479664 0.443345 0.508857
0.485001 0.434740 0.150418
0.475693 0.441230 0.148612
0.475695 0.441236 0.149160
0.483859 0.433178 0.141479
0.476618 0.443071 0.137901
0.473408 0.448942 0.142322
0.481132 0.430194 -0.006313
0.472936 0.438355 -0.006356
0.485430 0.434493 -0.020634
0.475427 0.440880 -0.014835
0.478900 0.444396 -0.026278
0.484953 0.450351 -0.214042
0.491269 0.440723 -0.211925
0.480379 0.445663 -0.208465
0.484597 0.448960 0.504020
0.470116 0.454280 0.505832
0.482836 0.466295 0.494337
0.477246 0.443799 0.124898
0.471977 0.451987 0.124869
0.476893 0.442836 0.115611
0.483355 0.448871 -0.041484
0.473570 0.455302 -0.035158
0.476894 0.459113 -0.047485
0.476742 0.474158 0.491156
0.472153 0.470059 -0.054462
0.479442 0.465045 -0.058732
0.475799 0.474261 -0.064411
0.489203 0.482068 -0.228584
0.489367 0.471770 -0.228730
0.483855 0.466154 -0.222469
0.481105 0.482122 -0.225400
0.482959 0.480581 0.485333
0.483983 0.495619 0.476746
0.483954 0.489023 0.328491
0.475692 0.490279 0.327699
0.475693 0.490280 0.327817
0.485303 0.489199 0.321683
0.480738 0.491324 0.317735
0.470031 0.485037 -0.072696
0.477994 0.476807 -0.072773
0.482840 0.481266 -0.090374
0.473376 0.488301 -0.084018
0.476267 0.491242 -0.095189
0.490743 0.490432 -0.227953
0.484672 0.494322 -0.220677
0.483888 0.503816 0.472758
0.473917 0.505852 0.474000
0.483821 0.514839 0.467628
0.483737 0.497642 0.304721
0.475787 0.506721 0.296879
0.478674 0.493546 -0.105702
0.470689 0.501758 -0.105545
0.473409 0.504579 -0.117560
0.483169 0.497910 -0.123340
0.476467 0.507817 -0.128830
0.485038 0.504019 -0.204956
0.483811 0.531237 0.462195
0.482033 0.514146 0.287466
0.477311 0.523861 0.280490
0.471923 0.518651 -0.139188
0.478644 0.510441 -0.139291
0.480382 0.515577 -0.157165
0.474402 0.521480 -0.151822
0.476193 0.523879 -0.163244
0.480603 0.511778 -0.200125
0.468683 0.516288 -0.203043
0.475190 0.522781 -0.196434
0.482344 0.516339 -0.190504
0.483806 0.541968 0.459257
0.479222 0.525918 0.271223
0.473527 0.537000 0.261162
0.484003 0.531425 0.259096
0.483728 0.543618 0.251697
0.482605 0.532814 0.167312
0.468978 0.532812 0.161601
0.475519 0.539305 0.164375
0.476381 0.528383 0.163944
0.476891 0.525228 -0.173017
0.471742 0.533469 -0.172830
0.476738 0.525080 -0.186085
0.471280 0.530840 -0.190299
0.470276 0.553435 0.456936
0.483800 0.550158 0.455094
0.483783 0.564052 0.448382
0.470607 0.553906 0.245226
0.483736 0.551814 0.243665
0.483754 0.560554 0.235643
0.483759 0.576090 0.443515
0.483760 0.568757 0.229333
0.483769 0.580489 0.224989
0.473124 0.587372 0.441144
0.483817 0.584283 0.439752
0.483935 0.596873 0.433956
0.483778 0.596891 0.220896
0.484025 0.613291 0.429197
0.482491 0.612267 0.216216
0.484370 0.630405 0.426415
0.476155 0.621987 0.214310
0.479118 0.639355 0.425528
0.483198 0.628561 0.205080
0.478879 0.646191 0.199427
0.484403 0.645357 0.420918
0.484141 0.662554 0.413518
0.476282 0.655658 0.197286
0.484120 0.676267 0.409943
0.473898 0.663693 0.189459
0.476107 0.655478 0.189530
0.475596 0.654552 0.182196
0.466953 0.662342 0.174681
0.484078 0.684468 0.406752
0.484054 0.695370 0.400470
0.484084 0.712493 0.393808
0.478628 0.721719 0.392320
0.484047 0.727591 0.389007
0.484000 0.744676 0.381540
0.484012 0.755383 0.376576
0.484029 0.763681 0.373995
0.484100 0.777963 0.369104
0.484217 0.794683 0.363841
0.482787 0.811133 0.360104
0.476273 0.818678 0.359031
0.476897 0.806026 0.329544
0.468893 0.811072 0.327565
0.475452 0.816832 0.330149
0.483073 0.811034 0.331827
0.482729 0.823118 0.352053
0.484125 0.824117 0.338148
0.500529 -0.656102 -0.064230
0.499912 -0.645466 -0.056481
0.497314 -0.652662 -0.093919
0.508315 -0.654636 -0.096940
0.501867 -0.656567 -0.088533
0.501792 -0.646896 -0.100644
0.494022 -0.639275 -0.049373
0.486869 -0.633011 -0.038367
0.482447 -0.641083 -0.043155
0.498637 -0.628973 -0.043723
0.492339 -0.622150 -0.034076
0.498781 -0.613066 -0.031151
0.500351 -0.601302 -0.022154
0.490353 -0.604353 -0.018601
0.500345 -0.593097 -0.015025
0.488142 -0.586678 -0.003427
0.500319 -0.583955 -0.006733
0.500276 -0.575681 0.000757
0.501054 -0.563974 0.010125
0.499992 -0.586514 -0.099293
0.499979 -0.578559 -0.092646
0.500964 -0.548180 0.023935
0.496170 -0.557566 0.016808
0.499890 -0.557907 -0.079948
0.499927 -0.565736 -0.084345
0.500351 -0.532704 0.037351
0.494945 -0.540500 0.032385
0.490805 -0.522433 0.047541
0.500353 -0.521335 0.046511
0.495729 -0.526208 -0.062956
0.500607 -0.532301 -0.067235
0.500651 -0.518351 -0.059157
0.506571 -0.524630 -0.064078
0.500349 -0.513138 0.054124
0.490889 -0.505901 0.063356
0.500315 -0.504129 0.062162
0.500242 -0.483818 0.076255
0.500286 -0.495896 0.067947
0.501203 -0.500950 -0.049849
0.496724 -0.495457 -0.046268
0.501251 -0.486417 -0.042932
0.507580 -0.493030 -0.047485
0.500233 -0.466960 0.091109
0.500203 -0.475647 0.082319
0.500229 -0.458751 0.099730
0.500233 -0.449407 0.107163
0.501281 -0.468076 -0.033756
0.496890 -0.462290 -0.029617
0.501373 -0.453292 -0.025720
0.507673 -0.459988 -0.030998
0.490260 -0.439821 0.115722
0.500233 -0.438512 0.114679
0.500175 -0.420657 0.128165
0.500217 -0.430282 0.119670
0.501355 -0.435737 -0.016740
0.496914 -0.430481 -0.012470
0.501416 -0.419897 -0.009823
0.507746 -0.426666 -0.014677
0.500148 -0.405130 0.145108
0.500130 -0.412473 0.137214
0.500208 -0.386769 0.162852
0.500173 -0.396938 0.154327
0.500215 -0.378529 0.167762
0.500250 -0.367239 0.173849
0.500997 -0.387058 0.000670
0.496329 -0.382678 0.003051
0.501093 -0.370190 0.004578
0.507119 -0.376349 0.001614
0.500283 -0.356553 0.180224
0.500283 -0.348346 0.188110
0.489988 -0.341085 0.196421
0.484309 -0.348933 0.190986
0.500305 -0.340210 0.195868
0.500458 -0.323105 0.211267
0.491267 -0.324453 0.212211
0.500390 -0.332032 0.203151
0.500449 -0.314882 0.217536
0.499638 -0.300438 0.227034
0.492212 -0.293227 0.231161
0.493690 -0.293228 0.231163
0.504507 -0.294174 0.231749
0.499667 -0.287938 0.238207
0.499513 -0.267454 0.256046
0.500505 -0.278475 0.249357
0.498331 -0.251230 0.269639
0.493445 -0.261105 0.261190
0.493904 -0.262491 -0.194140
0.491105 -0.259531 -0.184000
0.500963 -0.252259 -0.189027
0.492405 -0.244191 0.280455
0.487055 -0.239150 0.291406
0.482624 -0.247161 0.286825
0.498162 -0.234440 0.286602
0.492235 -0.246088 -0.112164
0.491741 -0.245896 -0.101123
0.486033 -0.252784 -0.106041
0.496469 -0.239380 -0.105948
0.493071 -0.228203 0.297125
0.498235 -0.217874 0.303714
0.493436 -0.232461 -0.061248
0.490105 -0.227528 -0.050874
0.486438 -0.238113 -0.056113
0.499103 -0.220754 -0.057084
0.498977 -0.202689 0.316196
0.492491 -0.211447 0.313433
0.490755 -0.193442 0.325816
0.500480 -0.190212 0.324392
0.500424 -0.181974 0.332391
0.489832 -0.176502 0.344352
0.500422 -0.173614 0.341343
0.500503 -0.156304 0.357265
0.488471 -0.159225 0.360010
0.500460 -0.165382 0.349065
0.498997 -0.172691 -0.223625
0.484326 -0.172910 -0.232132
0.490134 -0.168168 -0.226337
0.492729 -0.178970 -0.228100
0.500547 -0.137513 0.371018
0.500529 -0.148072 0.364410
0.500553 -0.127200 0.377500
0.491660 -0.128633 0.378388
0.494239 -0.113709 0.590310
0.501024 -0.104959 0.598127
0.500569 -0.118985 0.382990
0.488032 -0.108823 0.393039
0.501622 -0.103898 0.392014
0.502390 -0.089050 0.614324
0.497110 -0.098377 0.607390
0.496876 -0.097895 0.396626
0.487173 -0.091239 0.407546
0.500298 -0.088214 0.402776
0.496958 -0.081846 0.623119
0.501751 -0.071987 0.630157
0.499209 -0.070960 0.414354
0.492823 -0.080286 0.412119
0.501083 -0.056858 0.640262
0.495766 -0.064433 0.638127
0.489440 -0.060277 0.426081
0.500340 -0.055081 0.422888
0.500872 -0.039212 0.646318
0.502425 -0.054594 0.549576
0.488615 -0.054891 0.534724
0.491537 -0.049287 0.543720
0.496625 -0.059475 0.540078
0.494671 -0.049331 0.429222
0.497575 -0.039082 0.431005
0.499678 -0.022835 0.652186
0.488564 -0.022649 0.441584
0.501771 -0.023318 0.433159
0.493515 -0.013887 0.654128
0.504296 -0.017399 0.655491
0.499622 -0.007695 0.658186
0.500494 -0.006692 0.440277
0.491128 -0.012448 0.443367
0.501000 0.009888 0.666482
0.492445 -0.014251 0.542910
0.487308 -0.007890 0.536468
0.489508 -0.003635 0.545871
0.496082 -0.008126 0.551378
0.494952 -0.001504 0.447090
0.489674 0.010139 0.458228
0.487009 -0.006689 0.452368
0.500466 0.011448 0.449166
0.495195 0.026071 0.669529
0.506552 0.015375 0.671615
0.503290 0.026091 0.673224
0.497727 0.009248 0.566827
0.486641 0.009368 0.550830
0.491020 0.014710 0.560861
0.494306 0.004443 0.556505
0.491465 0.023113 0.460398
0.498953 0.027733 0.454764
0.499597 0.006317 -0.218858
0.490635 0.012178 -0.226372
0.492479 0.001417 -0.228374
0.492941 0.035233 0.670882
0.499318 0.041549 0.675939
0.496994 0.025371 0.583362
0.489122 0.025353 0.566533
0.490905 0.031121 0.577132
0.494075 0.020197 0.571849
0.493157 0.042805 0.462203
0.486511 0.042854 0.470392
0.487024 0.027747 0.467940
0.492402 0.034013 0.461462
0.500800 0.059115 0.681594
0.495597 0.059192 0.464831
0.488267 0.059245 0.473017
0.501557 0.074031 0.684600
0.492669 0.051518 0.590827
0.487771 0.057390 0.584621
0.490995 0.062522 0.593855
0.495399 0.057219 0.599874
0.490953 0.071988 0.475890
0.497252 0.076697 0.470068
0.497862 0.091565 0.684925
0.507429 0.078723 0.687801
0.505947 0.091637 0.688538
0.492738 0.082925 0.478888
0.489637 0.092089 0.487260
0.488764 0.076766 0.484961
0.492721 0.092039 0.479094
0.492853 0.069599 -0.211881
0.485378 0.074623 -0.216867
0.491740 0.080493 -0.211112
0.499121 0.074876 -0.206731
0.496558 0.108258 0.685437
0.504667 0.108179 0.689212
0.493226 0.095104 0.512907
0.491003 0.108331 0.523829
0.489670 0.090568 0.518265
0.494411 0.108428 0.515792
0.492357 0.108363 0.478278
0.489747 0.108440 0.486451
0.496034 0.124549 0.685723
0.504130 0.124443 0.689764
0.491344 0.124559 0.525039
0.495420 0.124702 0.517081
0.490944 0.121105 0.488714
0.492424 0.125644 0.484310
0.496551 0.140758 0.685364
0.504604 0.140616 0.689978
0.492409 0.117783 0.607697
0.487586 0.122896 0.601583
0.491035 0.128365 0.609746
0.495831 0.122804 0.615984
0.491082 0.140774 0.524329
0.495605 0.140970 0.516519
0.500854 0.158484 0.684637
0.506302 0.153622 0.689097
0.494902 0.157342 0.516809
0.491601 0.157144 0.524634
0.492492 0.141391 0.486447
0.492047 0.147241 0.477540
0.492063 0.147252 0.481331
0.497079 0.141435 0.471044
0.491777 0.157138 0.477151
0.497351 0.157135 0.468969
0.500708 0.173661 0.680473
0.494060 0.172738 0.519604
0.492205 0.166601 0.525572
0.494387 0.155819 0.502648
0.490876 0.155628 0.486440
0.490637 0.160279 0.497413
0.492292 0.149051 0.492279
0.495100 0.173581 0.465858
0.489688 0.173686 0.474022
0.501778 0.190082 0.673716
0.493251 0.177307 0.527396
0.489131 0.188538 0.536547
0.496117 0.189030 0.529681
0.493006 0.182797 0.462464
0.493914 0.167901 -0.213038
0.491111 0.178965 -0.210401
0.500913 0.173943 -0.203590
0.497157 0.195835 0.670698
0.502866 0.203945 0.663935
0.507769 0.195910 0.670754
0.491148 0.198115 0.539362
0.501796 0.203327 0.535179
0.499064 0.188446 0.451446
0.488495 0.193944 0.457275
0.494299 0.202587 0.446385
0.497930 0.217759 0.657052
0.501545 0.219195 0.550185
0.491484 0.213865 0.555271
0.488997 0.203833 0.549490
0.496280 0.208973 0.544654
0.500097 0.207514 0.441255
0.491921 0.213493 0.444504
0.491391 0.222978 0.444119
0.500638 0.222959 0.438834
0.500358 0.205348 -0.186729
0.490066 0.209783 -0.192923
0.493251 0.198794 -0.195921
0.503269 0.222990 0.648805
0.498162 0.236793 0.643360
0.501378 0.236271 0.566846
0.491677 0.231083 0.571813
0.489675 0.220619 0.566068
0.496038 0.225293 0.561022
0.500581 0.239100 0.438480
0.491615 0.239060 0.444329
0.494580 0.247447 0.639681
0.499393 0.253993 0.439521
0.492170 0.247808 0.444770
0.496461 0.252848 0.628955
0.492983 0.261579 0.622496
0.493189 0.258305 0.447793
0.491398 0.263446 0.458538
0.489665 0.253651 0.453101
0.496963 0.269883 0.453023
0.495910 0.267860 0.612211
0.492458 0.277445 0.605397
0.498862 0.283140 0.595154
0.494166 0.295762 0.589970
0.488327 0.306637 0.585301
0.499699 0.301527 0.580199
0.494344 0.311666 0.574546
0.500793 0.318579 0.563640
0.486648 0.322609 0.568436
0.496382 0.329374 0.557775
0.493003 0.313062 -0.179321
0.482673 0.319219 -0.181844
0.487398 0.323899 -0.176008
0.499188 0.318915 -0.174119
0.501087 0.334641 0.553105
0.489006 0.340305 0.554889
0.499722 0.351593 0.544180
0.493997 0.359996 0.541198
0.499653 0.366134 0.537051
0.499977 0.383597 0.529711
0.505253 0.384462 -0.181198
0.507782 0.375194 -0.179430
0.501540 0.369533 -0.174270
0.497115 0.384728 -0.176135
0.499982 0.395292 0.525232
0.494772 0.378599 0.071889
0.487112 0.386812 0.071884
0.488529 0.388178 0.085089
0.496259 0.383098 0.090258
0.489304 0.389010 0.055689
0.496336 0.380839 0.056259
0.497889 0.384976 0.041352
0.491417 0.391108 0.045378
0.486423 0.399266 0.040497
0.492955 0.392983 0.036171
0.493998 0.394940 -0.178174
0.500940 0.401621 -0.186905
0.500068 0.403482 0.520637
0.488385 0.406462 0.522885
0.500186 0.416395 0.513725
0.496595 0.399383 0.107787
0.490071 0.404353 0.102234
0.492915 0.393385 0.097345
0.495286 0.395131 0.026223
0.487859 0.403358 0.025957
0.498183 0.400484 0.009658
0.489999 0.406115 0.014891
0.493432 0.409936 0.003918
0.496901 0.413567 -0.191991
0.507753 0.408150 -0.195580
0.501465 0.418113 -0.198904
0.500182 0.428877 0.508723
0.500370 0.421999 0.149997
0.491122 0.423242 0.145075
0.491143 0.423298 0.149669
0.498832 0.417453 0.141156
0.492314 0.425082 0.134343
0.494824 0.417550 0.126133
0.491442 0.423621 0.121490
0.494175 0.412616 0.114100
0.489400 0.421639 -0.006330
0.496053 0.413453 -0.006431
0.501203 0.417865 -0.021915
0.491978 0.424474 -0.014833
0.495382 0.428047 -0.026578
0.490639 0.440110 0.507185
0.500146 0.437080 0.505051
0.500185 0.449212 0.498911
0.492311 0.425070 0.132375
0.486347 0.431547 0.126130
0.489834 0.438955 -0.035543
0.499808 0.432585 -0.041836
0.493373 0.442390 -0.047714
0.500282 0.461649 0.492915
0.488376 0.453929 -0.057650
0.496489 0.445723 -0.057714
0.500649 0.449874 -0.071807
0.491212 0.456826 -0.066241
0.493785 0.459981 -0.076684
0.486988 0.465564 -0.071998
0.494499 0.460889 -0.225381
0.505401 0.453556 -0.229216
0.500030 0.448677 -0.222578
0.499910 0.466022 -0.229960
0.500381 0.469851 0.487958
0.487682 0.472233 0.489468
0.500435 0.482019 0.481137
0.489405 0.470915 -0.085537
0.495806 0.465548 -0.090362
0.492020 0.474195 -0.096699
0.500405 0.492942 0.475711
0.500331 0.488081 0.329714
0.500324 0.486241 0.320265
0.500535 0.487858 0.306128
0.491695 0.490164 0.312499
0.495166 0.493014 0.301904
0.493992 0.476546 -0.105845
0.486921 0.484771 -0.105832
0.489862 0.488030 -0.117814
0.499189 0.481096 -0.124322
0.492853 0.491207 -0.129057
0.500299 0.501134 0.470751
0.501763 0.516440 0.462762
0.486744 0.503948 0.294480
0.500447 0.498478 0.292686
0.500153 0.511538 0.284028
0.499979 0.498958 0.167090
0.484446 0.498967 0.162343
0.490177 0.504749 0.164765
0.494354 0.493826 0.163686
0.486898 0.501498 -0.139471
0.494883 0.493283 -0.139646
0.497101 0.495748 -0.156730
0.489452 0.503967 -0.156601
0.498173 0.497268 -0.173381
0.490913 0.505486 -0.173324
0.491462 0.506283 -0.189223
0.501243 0.496658 -0.189998
0.500141 0.496770 -0.204322
0.498639 0.492193 -0.218978
0.492208 0.490428 -0.227951
0.496334 0.531227 0.459435
0.487455 0.520966 0.271223
0.500088 0.517503 0.271556
0.500087 0.520820 0.260715
0.489668 0.521775 0.261271
0.500102 0.531250 0.254959
0.492424 0.539753 0.458304
0.500099 0.541444 0.249514
0.498825 0.546186 0.452823
0.499160 0.563929 0.445006
0.500129 0.549645 0.241368
0.500159 0.557685 0.233309
0.492994 0.573194 0.442934
0.500134 0.565904 0.226618
0.501431 0.581624 0.218794
0.500414 0.565665 0.184982
0.485273 0.565652 0.177583
0.491789 0.572187 0.182236
0.495251 0.561245 0.180173
0.499206 0.579391 0.437749
0.500354 0.596891 0.430965
0.496916 0.596897 0.216244
0.500902 0.613994 0.426839
0.493660 0.606092 0.214606
0.495807 0.625391 0.425684
0.499145 0.611601 0.204749
0.487088 0.617049 0.210085
0.493867 0.624151 0.199080
0.500887 0.630421 0.422088
0.490052 0.636343 0.424413
0.500403 0.646149 0.415926
0.486495 0.629703 0.190239
0.493843 0.624159 0.195574
0.501940 0.664110 0.410712
0.506850 0.655611 0.329825
0.506850 0.653491 0.329842
0.500916 0.647312 0.331791
0.500214 0.662422 0.330470
0.497555 0.672808 0.409308
0.501895 0.678548 0.405034
0.501658 0.696833 0.395904
0.493540 0.674601 0.329383
0.484925 0.679670 0.328448
0.491096 0.685511 0.330058
0.499378 0.679664 0.331019
0.497113 0.707488 0.393216
0.501618 0.712491 0.390442
0.489557 0.718432 0.391230
0.500274 0.728212 0.385098
0.499111 0.745308 0.378560
0.492964 0.753249 0.375946
0.499158 0.759771 0.373485
0.500458 0.778226 0.367728
0.500585 0.795227 0.362697
0.500649 0.806453 0.359815
0.487224 0.816552 0.358042
0.500629 0.814017 0.356583
0.500612 0.822521 0.348787
0.500543 0.822455 0.339994
0.509720 -0.655203 -0.065407
0.515918 -0.646071 -0.062926
0.504958 -0.635627 -0.052097
0.516336 -0.630424 -0.055548
0.515211 -0.613332 -0.043678
0.503218 -0.617830 -0.038100
0.510414 -0.625041 -0.049073
0.514362 -0.596833 -0.027555
0.509101 -0.607377 -0.033761
0.514139 -0.580595 -0.010846
0.508735 -0.590641 -0.017496
0.508640 -0.574040 -0.000735
0.515074 -0.564940 0.003384
0.516399 -0.576262 -0.093856
0.516429 -0.584164 -0.101162
0.516563 -0.552763 0.012661
0.506987 -0.555918 0.015275
0.515616 -0.564034 -0.084765
0.509666 -0.557925 -0.080131
0.520599 -0.557114 -0.080655
0.515602 -0.550990 -0.077021
0.516568 -0.535658 0.027863
0.505742 -0.539026 0.030892
0.516550 -0.544372 0.019778
0.518210 -0.515774 0.044300
0.516584 -0.527453 0.035054
0.513820 -0.510605 0.051595
0.518368 -0.500081 0.057699
0.516185 -0.516514 -0.059797
0.516209 -0.524511 -0.064179
0.515868 -0.481861 0.072629
0.511965 -0.493213 0.066378
0.508819 -0.474411 0.081308
0.514325 -0.464734 0.088136
0.516182 -0.492036 -0.047957
0.516176 -0.483844 -0.044083
0.508896 -0.457996 0.098726
0.515244 -0.448678 0.102063
0.516729 -0.433265 0.110922
0.516168 -0.459074 -0.031409
0.516201 -0.450807 -0.027176
0.517725 -0.416963 0.124623
0.511328 -0.427983 0.117292
0.517759 -0.404294 0.140729
0.513128 -0.411023 0.135733
0.516319 -0.424109 -0.015637
0.516301 -0.415750 -0.012466
0.516663 -0.383662 0.161206
0.516488 -0.395328 0.152246
0.511278 -0.378116 0.167506
0.516700 -0.367348 0.170405
0.516594 -0.354421 0.178542
0.516318 -0.373439 0.000829
0.516355 -0.365189 0.003036
0.516568 -0.346213 0.185775
0.516576 -0.337769 0.193433
0.516632 -0.329605 0.200253
0.517515 -0.318246 0.209622
0.512630 -0.312886 0.217333
0.516494 -0.301479 0.223032
0.515253 -0.284448 0.238713
0.509429 -0.294170 0.231739
0.516111 -0.268711 0.251134
0.510157 -0.277843 0.248768
0.504239 -0.258230 0.260159
0.518100 -0.252610 0.259931
0.517807 -0.236723 0.272798
0.503253 -0.240649 0.277615
0.513444 -0.247251 0.266178
0.509313 -0.244975 -0.193889
0.508022 -0.242924 -0.183865
0.512667 -0.236923 -0.188747
0.517509 -0.219669 0.289016
0.503930 -0.224283 0.292737
0.511222 -0.229711 0.282046
0.516262 -0.220015 -0.123268
0.507200 -0.227572 -0.116403
0.503153 -0.236629 -0.121645
0.510031 -0.230461 -0.127327
0.512828 -0.213327 0.299438
0.503438 -0.207815 0.310238
0.517469 -0.203563 0.305387
0.511347 -0.205583 -0.059527
0.505607 -0.205821 -0.051478
0.508750 -0.213855 -0.063489
0.511191 -0.196876 0.314557
0.515778 -0.185754 0.320538
0.513782 -0.190798 -0.053960
0.508367 -0.197361 -0.047493
0.509412 -0.179209 0.330613
0.514985 -0.168668 0.336450
0.516665 -0.188176 -0.218739
0.499024 -0.187982 -0.230844
0.503700 -0.182751 -0.225894
0.509404 -0.193226 -0.228631
0.514958 -0.152102 0.352884
0.509628 -0.163027 0.347231
0.509384 -0.146277 0.363261
0.515671 -0.136350 0.365750
0.517579 -0.121460 0.374784
0.511640 -0.115326 0.578493
0.505004 -0.111644 0.588187
0.499862 -0.117281 0.582674
0.516882 -0.108146 0.583755
0.517567 -0.105368 0.385066
0.512552 -0.116229 0.381428
0.516626 -0.100130 0.595394
0.507805 -0.096200 0.605792
0.516659 -0.093613 0.603325
0.517784 -0.089701 0.391819
0.507729 -0.096124 0.395294
0.516806 -0.076898 0.619521
0.507650 -0.079492 0.621148
0.516722 -0.085368 0.612006
0.512894 -0.085188 0.396964
0.503703 -0.075797 0.408972
0.516784 -0.071795 0.402550
0.516904 -0.068769 0.626780
0.506566 -0.063165 0.637255
0.517029 -0.061226 0.634825
0.515920 -0.054122 0.414644
0.509700 -0.064852 0.412582
0.517078 -0.053124 0.640503
0.517060 -0.039349 0.646886
0.512087 -0.059787 0.555402
0.508075 -0.049920 0.559870
0.517107 -0.055866 0.563072
0.517031 -0.039062 0.420035
0.505759 -0.039048 0.426585
0.517004 -0.027847 0.652538
0.508023 -0.029218 0.427990
0.516410 -0.023311 0.424422
0.516989 -0.006555 0.662428
0.517003 -0.019615 0.656509
0.510547 -0.018269 0.429487
0.516366 -0.005243 0.431559
0.516970 0.005273 0.668504
0.516196 -0.008307 0.583405
0.505546 -0.005873 0.566589
0.508168 -0.000075 0.575810
0.511485 -0.010868 0.570906
0.505871 0.006865 0.442988
0.515526 0.011445 0.439193
0.516935 0.025921 0.676032
0.516920 0.013210 0.672259
0.513564 0.008241 0.600219
0.505299 0.008734 0.582564
0.506923 0.014161 0.594379
0.510132 0.003093 0.587257
0.509798 0.026500 0.445628
0.509089 0.017801 0.445129
0.508444 0.000505 -0.211427
0.506626 0.011185 -0.209398
0.515010 0.007086 -0.205523
0.516945 0.042697 0.680359
0.513002 0.025567 0.615833
0.505388 0.025991 0.600190
0.507974 0.032215 0.609481
0.510202 0.021201 0.605338
0.501358 0.042842 0.454320
0.510477 0.042829 0.446177
0.516907 0.058858 0.683299
0.503744 0.059216 0.456133
0.512558 0.059200 0.447985
0.516382 0.073469 0.684522
0.508939 0.052455 0.623983
0.504521 0.057642 0.617966
0.507849 0.062880 0.626211
0.512111 0.057091 0.632449
0.514982 0.075601 0.450462
0.506337 0.075609 0.458626
0.512068 0.091425 0.688604
0.510790 0.078572 0.687808
0.515395 0.091815 0.451245
0.507060 0.091814 0.459412
0.512246 0.107984 0.689430
0.515048 0.107851 0.451199
0.506792 0.107834 0.459360
0.512197 0.124238 0.690154
0.506553 0.124225 0.459264
0.514866 0.124295 0.451107
0.512192 0.140390 0.690410
0.508585 0.117639 0.639610
0.505228 0.122814 0.634067
0.508120 0.128553 0.641505
0.511626 0.122647 0.647972
0.506220 0.140877 0.458813
0.514789 0.140981 0.450659
0.510974 0.153491 0.689342
0.505457 0.157188 0.457774
0.513838 0.157249 0.449634
0.514773 0.158171 0.682304
0.513412 0.173619 0.678926
0.511423 0.173491 0.447469
0.503219 0.173511 0.455606
0.510582 0.188783 0.673990
0.509390 0.182884 0.445623
0.516367 0.173916 -0.190760
0.507848 0.179859 -0.194422
0.510713 0.168931 -0.196836
0.508781 0.195863 0.670756
0.517159 0.190366 0.436289
0.505105 0.194109 0.442616
0.515567 0.206691 0.432484
0.509987 0.199566 0.663474
0.511188 0.205269 0.649853
0.508551 0.211453 0.654077
0.509674 0.217237 0.644477
0.516785 0.215046 0.538774
0.507056 0.213268 0.540581
0.516784 0.208148 0.531367
0.514130 0.222977 0.431445
0.512234 0.200886 -0.180564
0.507449 0.211818 -0.178091
0.517289 0.206013 -0.176311
0.509694 0.217552 0.637459
0.508216 0.222355 0.632984
0.509153 0.227332 0.629592
0.505729 0.236056 0.632558
0.509110 0.230733 0.629440
0.518385 0.236526 0.554964
0.506816 0.230923 0.555760
0.516767 0.223340 0.545647
0.512550 0.239196 0.430876
0.509177 0.231646 0.621126
0.507831 0.237299 0.615205
0.509109 0.242968 0.609851
0.504625 0.253278 0.614494
0.508992 0.248643 0.609621
0.514026 0.241481 0.561657
0.506736 0.247616 0.573337
0.518287 0.251590 0.567835
0.510710 0.255399 0.430125
0.508986 0.248663 0.607298
0.507646 0.253171 0.601763
0.510445 0.257841 0.596551
0.504270 0.268913 0.602081
0.510166 0.268957 0.594487
0.503714 0.271398 0.439125
0.510892 0.271638 0.431022
0.508715 0.277627 0.590257
0.512879 0.288525 0.436344
0.506589 0.283354 0.441814
0.513431 0.283966 0.581869
0.505002 0.288611 0.586211
0.512005 0.296319 0.575408
0.517026 0.301718 0.567116
0.505191 0.307265 0.569571
0.516361 0.313885 0.558970
0.516297 0.322044 0.554506
0.507139 0.325405 0.555929
0.516329 0.334391 0.548310
0.516395 0.346993 0.542396
0.516422 0.355152 0.538244
0.504849 0.357512 0.539632
0.516406 0.367206 0.533026
0.517997 0.369073 -0.180768
0.524340 0.359659 -0.178908
0.518006 0.353459 -0.175880
0.513441 0.364455 -0.177621
0.515710 0.384161 0.526374
0.511613 0.363108 0.088933
0.504868 0.371321 0.088920
0.507634 0.374270 0.099723
0.516864 0.367306 0.107527
0.510042 0.360918 0.071886
0.502889 0.369139 0.071881
0.510698 0.362359 0.057225
0.504496 0.370410 0.056872
0.513004 0.365363 0.042561
0.506953 0.373334 0.042216
0.508300 0.375337 0.033711
0.517001 0.367287 0.025163
0.504314 0.384043 0.027497
0.510431 0.378657 0.022945
0.509804 0.392724 0.524094
0.512937 0.384573 0.124847
0.504668 0.384526 0.106573
0.507723 0.390581 0.119452
0.511132 0.379628 0.112292
0.513884 0.381922 0.009850
0.506909 0.390138 0.010024
0.508416 0.391876 0.001601
0.517831 0.385099 -0.004790
0.505053 0.400514 -0.005142
0.510953 0.395248 -0.010325
0.515797 0.398898 0.518412
0.516624 0.417236 0.509591
0.512119 0.399551 0.141966
0.504065 0.399529 0.124917
0.505338 0.404616 0.137228
0.509199 0.393611 0.130379
0.507004 0.406163 -0.017378
0.516444 0.399910 -0.024520
0.510985 0.411221 -0.028967
0.511170 0.425740 0.507428
0.515667 0.416969 0.154030
0.509377 0.411732 0.147955
0.506256 0.422126 -0.036055
0.515742 0.415650 -0.042574
0.509616 0.426159 -0.048018
0.515252 0.432536 -0.220500
0.519540 0.420163 -0.214353
0.515085 0.415638 -0.207809
0.508652 0.425344 -0.211088
0.516663 0.431839 0.502725
0.516644 0.449211 0.495143
0.512358 0.429282 -0.057959
0.504714 0.437500 -0.057820
0.507484 0.440208 -0.066834
0.516645 0.433292 -0.072463
0.509881 0.442861 -0.077318
0.516347 0.448536 -0.229722
0.521831 0.439702 -0.228442
0.510924 0.442698 -0.226567
0.516670 0.458943 0.491404
0.504861 0.453982 -0.089226
0.512346 0.445777 -0.089260
0.516498 0.449398 -0.105306
0.507169 0.456446 -0.098981
0.502818 0.465323 -0.105095
0.509965 0.459601 -0.110100
0.516752 0.467145 0.486710
0.517888 0.483477 0.478085
0.505522 0.470538 -0.119333
0.512699 0.465313 -0.124217
0.508747 0.474135 -0.130925
0.513127 0.491345 0.474925
0.516682 0.482132 0.320395
0.516693 0.486845 0.332125
0.516730 0.482383 0.304569
0.516709 0.487069 0.294778
0.506102 0.488673 0.295724
0.518047 0.500026 0.286526
0.516053 0.482055 0.168437
0.500101 0.482069 0.162084
0.505306 0.487528 0.165097
0.510110 0.476577 0.162630
0.503126 0.484146 -0.139890
0.510548 0.475918 -0.140088
0.512614 0.478232 -0.157033
0.505331 0.486472 -0.156902
0.513537 0.479410 -0.173508
0.506381 0.487663 -0.173464
0.507356 0.488853 -0.185581
0.515965 0.481712 -0.190380
0.508797 0.490543 -0.195434
0.512850 0.476665 -0.229075
0.498606 0.482140 -0.229179
0.503162 0.487683 -0.223741
0.516329 0.481558 -0.219954
0.517792 0.497455 0.470092
0.516560 0.513037 0.461280
0.513485 0.509198 0.282219
0.509105 0.490758 -0.204210
0.508915 0.490644 -0.212916
0.508234 0.522984 0.458323
0.516552 0.521228 0.457401
0.516595 0.531241 0.453373
0.504500 0.531253 0.456626
0.517910 0.511163 0.273305
0.516411 0.518574 0.259001
0.515715 0.530751 0.250653
0.516617 0.547643 0.447500
0.509755 0.540073 0.248178
0.516584 0.557914 0.443672
0.514904 0.546639 0.238197
0.509100 0.556121 0.231506
0.514999 0.546531 0.186310
0.500478 0.546529 0.178387
0.506159 0.551254 0.182639
0.508612 0.540310 0.180397
0.503923 0.569336 0.440799
0.516610 0.566128 0.439208
0.516664 0.580493 0.433252
0.515508 0.563301 0.222712
0.510981 0.576918 0.216175
0.516747 0.596920 0.428871
0.507699 0.587844 0.213972
0.512763 0.581641 0.207822
0.509963 0.596914 0.202813
0.504992 0.596907 0.210878
0.516789 0.609035 0.425924
0.508877 0.606142 0.199582
0.506664 0.619947 0.424008
0.516790 0.617246 0.422340
0.516736 0.629745 0.416948
0.508867 0.606146 0.197652
0.499550 0.612314 0.194089
0.516716 0.646150 0.412390
0.516725 0.659444 0.409661
0.516704 0.667645 0.407145
0.508321 0.670606 0.408609
0.516655 0.678951 0.401319
0.508528 0.655606 0.329835
0.514978 0.661745 0.333195
0.516647 0.693262 0.394772
0.516668 0.701482 0.391203
0.507923 0.703276 0.392323
0.516613 0.711778 0.387064
0.516550 0.728226 0.381664
0.516572 0.740582 0.377605
0.503690 0.751265 0.375467
0.516629 0.748887 0.374968
0.516703 0.761313 0.371527
0.516813 0.778530 0.366448
0.516935 0.796784 0.361118
0.511503 0.804879 0.359409
0.516967 0.810396 0.355477
0.516996 0.821380 0.347273
0.516939 0.821332 0.341105
0.529351 -0.630311 -0.063578
0.526771 -0.640178 -0.065173
0.533533 -0.613800 -0.059145
0.521318 -0.619145 -0.053338
0.526919 -0.608377 -0.049211
0.520011 -0.602890 -0.038157
0.532437 -0.597875 -0.042854
0.526971 -0.592128 -0.032352
0.519639 -0.587108 -0.021386
0.532824 -0.582146 -0.025887
0.527660 -0.576115 -0.015402
0.519560 -0.570483 -0.004282
0.533168 -0.565554 -0.009150
0.529698 -0.585366 -0.099609
0.534303 -0.580391 -0.094895
0.527655 -0.559064 0.000849
0.532260 -0.547927 0.006872
0.525865 -0.540923 0.016523
0.531030 -0.530138 0.021926
0.532815 -0.555946 -0.081226
0.532774 -0.548060 -0.076464
0.531660 -0.514187 0.035821
0.525234 -0.524211 0.032394
0.533080 -0.503415 0.044701
0.524751 -0.506957 0.048332
0.525800 -0.524821 -0.064030
0.531819 -0.518558 -0.060230
0.533101 -0.495141 0.052340
0.522913 -0.489305 0.063845
0.534273 -0.483178 0.061018
0.529514 -0.478375 0.067893
0.519755 -0.471353 0.078652
0.534007 -0.466994 0.073089
0.532617 -0.491382 -0.048261
0.532619 -0.483186 -0.044460
0.527427 -0.460642 0.083181
0.519849 -0.453726 0.095005
0.532222 -0.448692 0.088510
0.529099 -0.433001 0.102030
0.525955 -0.442705 0.099301
0.532675 -0.458233 -0.031766
0.532696 -0.449981 -0.027735
0.522306 -0.422891 0.113133
0.534092 -0.417778 0.107450
0.527719 -0.412005 0.120439
0.524084 -0.408045 0.132120
0.533155 -0.403452 0.125205
0.532756 -0.421161 -0.016679
0.532761 -0.412847 -0.013558
0.529780 -0.383777 0.152505
0.526229 -0.393145 0.148969
0.533641 -0.368513 0.157994
0.522228 -0.372887 0.164589
0.531302 -0.348850 0.172536
0.526313 -0.361943 0.167259
0.533461 -0.367991 0.000290
0.528463 -0.362008 0.002273
0.539428 -0.359770 0.001719
0.533505 -0.353640 0.003623
0.525278 -0.343150 0.182924
0.531024 -0.332511 0.188072
0.525765 -0.326954 0.197549
0.529371 -0.318074 0.201678
0.534540 -0.303526 0.207915
0.523511 -0.308769 0.214314
0.534016 -0.285795 0.223815
0.520338 -0.291027 0.228607
0.528114 -0.297811 0.217811
0.533852 -0.269284 0.240395
0.521088 -0.274081 0.245643
0.528846 -0.280102 0.234744
0.527872 -0.263163 0.249343
0.533332 -0.252628 0.253411
0.533283 -0.240286 0.261898
0.524371 -0.243727 0.264053
0.534975 -0.220149 0.276481
0.522147 -0.225990 0.278772
0.533318 -0.232073 0.267393
0.530537 -0.215057 0.285008
0.523754 -0.210255 0.296084
0.535460 -0.205328 0.290422
0.525419 -0.212319 -0.130067
0.522459 -0.208740 -0.119288
0.526920 -0.203515 -0.124055
0.528537 -0.204988 -0.187027
0.525215 -0.211485 -0.181257
0.522150 -0.219849 -0.187047
0.526420 -0.214443 -0.190771
0.529347 -0.199320 0.300519
0.522107 -0.192285 0.311298
0.533908 -0.187536 0.305795
0.525498 -0.198070 -0.078777
0.522585 -0.189102 -0.068596
0.518932 -0.204295 -0.072787
0.526391 -0.188970 -0.076798
0.527078 -0.190897 -0.103841
0.524931 -0.197674 -0.097141
0.521526 -0.204692 -0.104012
0.525433 -0.198541 -0.108838
0.527454 -0.181343 0.315662
0.520347 -0.174299 0.326600
0.532242 -0.169089 0.320751
0.523694 -0.177591 -0.066080
0.527982 -0.172384 -0.071739
0.528075 -0.187916 -0.204021
0.523826 -0.183103 -0.209997
0.525113 -0.193791 -0.211651
0.526023 -0.163356 0.331241
0.520535 -0.157889 0.342118
0.531528 -0.152396 0.335692
0.527496 -0.155875 -0.056340
0.522608 -0.160786 -0.051481
0.520123 -0.172532 -0.056388
0.525485 -0.166790 -0.062410
0.525986 -0.146960 0.347574
0.520296 -0.141044 0.358557
0.531295 -0.135336 0.352570
0.532034 -0.119544 0.365927
0.525647 -0.130092 0.363394
0.533320 -0.105360 0.374117
0.523478 -0.111278 0.378374
0.525441 -0.097374 0.592655
0.529838 -0.088089 0.599060
0.533334 -0.087260 0.382825
0.527789 -0.100349 0.381434
0.529874 -0.071639 0.615371
0.527217 -0.082011 0.610071
0.523871 -0.078711 0.392017
0.533745 -0.072690 0.389789
0.529965 -0.056020 0.630377
0.526485 -0.065631 0.624328
0.526489 -0.077440 0.558325
0.517211 -0.072072 0.553080
0.522939 -0.066935 0.560808
0.533150 -0.073075 0.567831
0.528483 -0.067764 0.396902
0.520610 -0.058671 0.408877
0.532491 -0.054542 0.403036
0.530335 -0.039774 0.643080
0.527626 -0.050252 0.639415
0.527727 -0.039081 0.413570
0.525577 -0.047732 0.412238
0.532581 -0.024280 0.648550
0.527975 -0.041200 0.582828
0.517850 -0.040611 0.569154
0.524135 -0.035076 0.576180
0.525696 -0.046106 0.574672
0.531234 -0.022673 0.415545
0.530034 -0.006995 0.659564
0.528147 -0.018543 0.656102
0.521435 -0.010028 0.425830
0.533529 -0.006630 0.420260
0.529956 0.008162 0.664859
0.526705 -0.013149 0.600761
0.521609 -0.004753 0.600752
0.524296 -0.001310 0.610165
0.529413 -0.007708 0.616320
0.524910 -0.016537 0.591393
0.525940 0.000924 0.428972
0.532172 0.011731 0.430477
0.528631 0.025483 0.674141
0.527111 0.013658 0.671878
0.527553 0.004707 0.633630
0.523426 0.012828 0.633619
0.524777 0.015016 0.641950
0.530127 0.008871 0.648312
0.525935 0.001472 0.621071
0.521294 0.007282 0.616229
0.534749 0.025552 0.431915
0.518020 0.026532 0.440926
0.528963 0.042355 0.676841
0.518683 0.042873 0.440781
0.531875 0.042882 0.432630
0.528227 0.058109 0.677973
0.520751 0.059239 0.441882
0.533943 0.059277 0.433245
0.527156 0.073230 0.677726
0.527855 0.057631 0.665387
0.521169 0.056980 0.650662
0.524027 0.062604 0.659202
0.525395 0.052440 0.656601
0.533217 0.075647 0.436980
0.523159 0.075635 0.443442
0.533483 0.059334 -0.193860
0.517920 0.059229 -0.198439
0.524148 0.065212 -0.194847
0.528377 0.054397 -0.195740
0.520875 0.091865 0.680848
0.525988 0.086447 0.676538
0.534383 0.092623 0.434850
0.523590 0.091863 0.443601
0.522340 0.090662 0.666409
0.525919 0.086118 0.671908
0.523270 0.107958 0.443194
0.531667 0.108165 0.435020
0.523111 0.124441 0.443081
0.532143 0.124620 0.434912
0.532755 0.141170 0.434891
0.523038 0.141108 0.443060
0.531110 0.157471 0.433632
0.522086 0.157374 0.441789
0.519696 0.173615 0.439785
0.528907 0.173751 0.431629
0.527128 0.186698 0.429978
0.524867 0.197742 0.428251
0.532879 0.191453 0.423932
0.533328 0.206725 0.421211
0.523757 0.206698 0.427528
0.527603 0.184728 -0.180109
0.517256 0.189714 -0.183481
0.523087 0.195392 -0.178051
0.533059 0.189900 -0.175987
0.534522 0.216245 0.534059
0.530028 0.211165 0.528897
0.533310 0.223040 0.419187
0.522289 0.223010 0.426525
0.533076 0.237036 0.550750
0.533084 0.225053 0.543861
0.520708 0.239254 0.425081
0.533447 0.237906 0.416060
0.524844 0.245011 0.558814
0.534008 0.251309 0.557561
0.518897 0.255502 0.422393
0.527534 0.255583 0.414236
0.533966 0.268476 0.564453
0.522257 0.269085 0.573287
0.529208 0.255598 0.562342
0.525783 0.271812 0.413068
0.519091 0.271756 0.421206
0.533834 0.254913 -0.160741
0.517801 0.254836 -0.165461
0.523980 0.260432 -0.162054
0.528894 0.249697 -0.163187
0.522521 0.285271 0.572265
0.532896 0.285266 0.565926
0.521406 0.288086 0.422662
0.526686 0.287958 0.414653
0.532192 0.301740 0.560744
0.523537 0.299577 0.424937
0.528391 0.304477 0.419608
0.526217 0.310519 0.557737
0.532087 0.316767 0.552956
0.532748 0.334391 0.544942
0.533237 0.318107 0.088627
0.524820 0.326117 0.078666
0.524824 0.326124 0.080539
0.529961 0.319621 0.073293
0.525455 0.327408 0.068121
0.522344 0.333597 0.072833
0.532797 0.344190 0.541244
0.523062 0.338892 0.057606
0.527120 0.330649 0.057713
0.530502 0.335736 0.043802
0.524551 0.342036 0.050021
0.526827 0.345946 0.038916
0.521694 0.351510 0.043758
0.532815 0.352385 0.536889
0.532814 0.367203 0.530433
0.527560 0.349580 0.108142
0.519573 0.349632 0.090171
0.522595 0.354180 0.102655
0.525168 0.343220 0.096762
0.523578 0.356885 0.028295
0.528514 0.351171 0.023244
0.524858 0.359153 0.015772
0.532770 0.379475 0.525535
0.526902 0.362703 0.124843
0.521690 0.370898 0.124795
0.523420 0.373596 0.135518
0.529625 0.367813 0.141050
0.525725 0.360343 0.115372
0.528652 0.363097 0.008139
0.522104 0.371307 0.009072
0.524718 0.375306 0.000889
0.534447 0.368975 -0.005335
0.527981 0.378289 -0.010810
0.532802 0.387646 0.520062
0.520714 0.389989 0.522025
0.532919 0.400000 0.513412
0.526170 0.379860 0.146354
0.520585 0.384685 0.140958
0.523896 0.390804 0.149659
0.532307 0.384686 0.154472
0.532530 0.382984 -0.025556
0.521886 0.389214 -0.020247
0.526124 0.393629 -0.031135
0.525091 0.392426 -0.194863
0.536017 0.387747 -0.198043
0.531546 0.383100 -0.192760
0.530675 0.398745 -0.204389
0.533024 0.412699 0.508574
0.521855 0.404550 -0.037256
0.528832 0.399478 -0.042320
0.525453 0.409124 -0.048823
0.525319 0.409272 -0.210660
0.536221 0.404984 -0.214442
0.532220 0.416114 -0.219922
0.533110 0.420904 0.503935
0.522113 0.423271 0.505722
0.533145 0.432815 0.498402
0.527875 0.411924 -0.057874
0.520601 0.420139 -0.057980
0.523377 0.423168 -0.067650
0.532880 0.416600 -0.073160
0.526587 0.426324 -0.077937
0.533295 0.433679 -0.229122
0.539107 0.422938 -0.228855
0.528225 0.428847 -0.225349
0.531941 0.449751 0.492797
0.529076 0.428797 -0.089338
0.520614 0.437015 -0.089296
0.523023 0.439415 -0.100490
0.532643 0.432591 -0.106215
0.525689 0.442308 -0.111632
0.525679 0.457685 0.490796
0.532055 0.449199 0.168371
0.517525 0.449214 0.159921
0.523453 0.454615 0.163814
0.525789 0.443689 0.162618
