-0.017611 0.453403 0.759159
-0.008179 0.451609 0.764156
-0.015917 0.441643 0.632751
-0.021432 0.449790 0.633057
-0.021255 0.449811 0.616720
-0.015919 0.441700 0.616480
-0.021225 0.450053 0.600353
-0.015059 0.441922 0.600136
-0.013552 0.442172 0.583793
-0.021301 0.450351 0.583999
-0.013328 0.442059 0.567540
-0.021579 0.450224 0.567696
-0.022057 0.449874 0.551405
-0.014305 0.441752 0.551309
-0.022782 0.449688 0.535083
-0.014836 0.441562 0.535022
-0.014130 0.441542 0.518691
-0.023731 0.449698 0.518727
-0.012464 0.441800 0.502323
-0.024225 0.449966 0.502339
-0.011070 0.442067 0.485915
-0.007783 0.441721 0.468180
-0.008563 0.441718 0.453054
-0.007702 0.441789 0.437381
-0.011691 0.441909 0.420225
-0.014215 0.441528 0.407457
-0.013286 0.458201 0.778073
-0.013444 0.458152 0.768722
0.004649 -0.551802 0.797500
0.012873 -0.557054 0.797478
0.015320 -0.557093 0.807627
0.009062 -0.552106 0.813098
0.007451 -0.557541 0.781338
0.001657 -0.554666 0.787240
0.007042 -0.547636 0.827960
0.002063 -0.535165 0.828063
0.011905 -0.545044 0.836710
0.010503 -0.534905 0.837981
0.006475 -0.544410 0.716054
0.000669 -0.534396 0.716023
0.000977 -0.534599 0.731399
0.006486 -0.544355 0.731373
0.006396 -0.518507 0.828274
0.012756 -0.518412 0.837668
0.000888 -0.532574 0.813710
0.004076 -0.518060 0.813706
0.001353 -0.532782 0.797634
0.004924 -0.517427 0.797643
0.001197 -0.530389 0.781217
0.005214 -0.517308 0.781144
0.001055 -0.529349 0.764785
0.005311 -0.517285 0.764661
0.001159 -0.530864 0.748368
0.005425 -0.516871 0.748322
0.005148 -0.516743 0.731912
0.004394 -0.517155 0.715230
0.000331 -0.529665 0.698690
0.003725 -0.517231 0.698679
0.000155 -0.526745 0.682471
0.003402 -0.516738 0.682447
0.000006 -0.525544 0.671640
0.002358 -0.518228 0.666020
0.014889 -0.508583 0.836063
0.012897 -0.502694 0.826894
0.011719 -0.499886 0.811922
0.011511 -0.501715 0.797624
0.011979 -0.502314 0.780890
0.012240 -0.502680 0.764204
0.012294 -0.503193 0.748077
0.012076 -0.503381 0.731908
0.011698 -0.503157 0.715398
0.011436 -0.502745 0.698875
0.011305 -0.502103 0.682410
0.011088 -0.501444 0.665842
0.002548 -0.516641 0.649170
0.011668 -0.499384 0.649302
0.002093 -0.515609 0.632639
0.009774 -0.500886 0.632582
0.001575 -0.513581 0.616401
0.009256 -0.500624 0.616126
0.001233 -0.512621 0.599620
0.008496 -0.500798 0.599319
0.000851 -0.512073 0.582396
0.007106 -0.501202 0.582254
0.000375 -0.510771 0.571129
0.004322 -0.502172 0.565490
0.008644 -0.500915 0.338808
0.014527 -0.507068 0.345113
0.008674 -0.508062 0.355288
0.003673 -0.503501 0.350251
0.015437 -0.492497 0.815624
0.015421 -0.492745 0.821129
0.015950 -0.491975 0.643902
0.015764 -0.491703 0.632577
0.015789 -0.491742 0.615875
0.015375 -0.491514 0.599046
0.014360 -0.490700 0.582156
0.013268 -0.489120 0.565486
0.003960 -0.498515 0.548890
0.012137 -0.487106 0.549248
0.002914 -0.497530 0.532885
0.011058 -0.485943 0.533411
0.002255 -0.497067 0.516854
0.010377 -0.485898 0.517269
0.002228 -0.496175 0.499904
0.010351 -0.486188 0.500193
0.002306 -0.495512 0.482846
0.010433 -0.486335 0.483127
0.001872 -0.495330 0.466637
0.009990 -0.486376 0.467025
0.000855 -0.494408 0.450728
0.010056 -0.483830 0.450572
0.000118 -0.493313 0.442174
0.004878 -0.485373 0.436261
0.000717 -0.484846 0.321808
0.009904 -0.493395 0.305275
0.006808 -0.494886 0.322612
0.001526 -0.481545 0.303146
0.003848 -0.481279 0.290054
0.012493 -0.491787 0.288903
0.014832 -0.490834 0.278144
0.009962 -0.483641 0.272384
0.014123 -0.475136 0.435297
0.015639 -0.476198 0.445002
0.004300 -0.481910 0.418454
0.012417 -0.474052 0.418541
0.003652 -0.482306 0.401277
0.011769 -0.473890 0.401133
0.002560 -0.482466 0.384476
0.010678 -0.473288 0.384173
0.000825 -0.479524 0.368390
0.008933 -0.471987 0.368148
0.000156 -0.477644 0.352313
0.008261 -0.471047 0.352040
0.000506 -0.480580 0.336321
0.008621 -0.470405 0.335559
0.009229 -0.467385 0.319102
0.003644 -0.469113 0.302168
0.003643 -0.467342 0.271029
0.002374 -0.468808 0.289154
0.010219 -0.479994 0.255823
0.004459 -0.466984 0.254673
0.011131 -0.478042 0.239367
0.005267 -0.466474 0.238361
0.006995 -0.466400 0.222130
0.012697 -0.476552 0.223032
0.009418 -0.466441 0.205948
0.014679 -0.475171 0.206757
0.012025 -0.467142 0.190572
0.015843 -0.474373 0.197157
0.012581 -0.457560 0.302709
0.014767 -0.459596 0.313192
0.010687 -0.455542 0.286581
0.010374 -0.454410 0.270315
0.010376 -0.452816 0.253840
0.011244 -0.449676 0.236797
0.009522 -0.450819 0.220902
0.009554 -0.450942 0.204774
0.010000 -0.450598 0.188623
0.011606 -0.463377 0.173254
0.010565 -0.450225 0.172440
0.012422 -0.461751 0.156884
0.011498 -0.450309 0.156280
0.012415 -0.450348 0.140094
0.013418 -0.460495 0.140560
0.014294 -0.459324 0.124214
0.012962 -0.450014 0.123796
0.014094 -0.449789 0.107466
0.015407 -0.458222 0.107825
0.016138 -0.457656 0.099466
0.015490 -0.448875 0.092716
0.015306 -0.442515 0.220551
0.015876 -0.442846 0.230771
0.014879 -0.442302 0.204432
0.014963 -0.441976 0.188187
0.015148 -0.441685 0.171924
0.015251 -0.441810 0.155863
0.015148 -0.441643 0.139765
0.014828 -0.440683 0.123394
0.014860 -0.440245 0.107029
0.015345 -0.440918 0.090857
0.015390 -0.441006 0.074609
0.015387 -0.443493 0.074684
0.014854 -0.440065 0.058192
0.014849 -0.443404 0.058308
0.014849 -0.443015 0.041862
0.014852 -0.439810 0.041745
0.015466 -0.442383 0.025392
0.015467 -0.440567 0.025322
0.015744 -0.440843 0.008991
0.015741 -0.442037 0.009042
0.015710 -0.441835 -0.007212
0.015715 -0.440528 -0.007281
0.015859 -0.441629 -0.017312
0.015861 -0.440741 -0.017355
0.015708 -0.375435 -0.571057
0.015349 -0.376968 -0.581132
0.015704 -0.376729 -0.570809
0.015347 -0.374583 -0.581522
0.015414 -0.376744 -0.597627
0.015409 -0.373812 -0.598174
0.015775 -0.376323 -0.614792
0.015783 -0.371513 -0.615484
0.016041 -0.371678 -0.625552
0.016026 -0.376062 -0.625037
0.015227 -0.369334 -0.682406
0.015362 -0.376571 -0.699318
0.015880 -0.376349 -0.687441
0.014210 -0.368713 -0.698512
0.013874 -0.368912 -0.714146
0.015571 -0.376690 -0.715281
0.013911 -0.368998 -0.728345
0.016026 -0.376671 -0.723104
0.016166 -0.356784 -0.637154
0.015943 -0.363312 -0.650011
0.016196 -0.361939 -0.637088
0.015884 -0.351660 -0.649261
0.015188 -0.352676 -0.665746
0.015580 -0.365462 -0.666468
0.014481 -0.352835 -0.681167
0.013870 -0.353027 -0.696568
0.012474 -0.353084 -0.712840
0.010515 -0.352939 -0.729976
0.011206 -0.352666 -0.745936
0.014368 -0.363133 -0.744822
0.014331 -0.351078 -0.759661
0.015831 -0.361109 -0.752938
0.015886 -0.337926 -0.663894
0.016068 -0.339411 -0.652988
0.015493 -0.335751 -0.678776
0.014236 -0.336422 -0.695481
0.012527 -0.336391 -0.713010
0.010390 -0.336198 -0.731137
0.009191 -0.335751 -0.747825
0.010335 -0.335355 -0.763176
0.015485 -0.344336 -0.769887
0.013543 -0.334486 -0.776764
0.014270 -0.319650 -0.695495
0.015539 -0.320372 -0.678472
0.012505 -0.319581 -0.713052
0.010127 -0.319406 -0.731121
0.008581 -0.319028 -0.748358
0.008578 -0.318714 -0.764736
0.009676 -0.318605 -0.779727
0.013292 -0.317890 -0.793535
0.014873 -0.328332 -0.787182
0.013790 -0.302898 -0.679762
0.015923 -0.315232 -0.666467
0.015134 -0.302988 -0.663882
0.013129 -0.302813 -0.696340
0.011534 -0.302750 -0.713019
0.009216 -0.302648 -0.730010
0.007911 -0.302494 -0.747511
0.008226 -0.302365 -0.764713
0.008308 -0.302240 -0.780913
0.009213 -0.302096 -0.796313
0.015111 -0.311864 -0.802852
0.013116 -0.301008 -0.809942
0.013825 -0.287926 -0.662073
0.011557 -0.286136 -0.681323
0.011087 -0.286068 -0.697421
0.009624 -0.286037 -0.713617
0.007427 -0.286002 -0.730162
0.006188 -0.285950 -0.747234
0.006229 -0.285906 -0.764343
0.005933 -0.285774 -0.781112
0.005499 -0.285600 -0.797716
0.007077 -0.285434 -0.813314
0.014948 -0.294724 -0.819706
0.011530 -0.284800 -0.827055
0.015186 -0.268071 -0.629949
0.015280 -0.283125 -0.646253
0.016016 -0.279374 -0.635648
0.012725 -0.269492 -0.646604
0.010936 -0.269522 -0.664873
0.009525 -0.269480 -0.682381
0.008551 -0.269422 -0.697966
0.006885 -0.269416 -0.714274
0.004790 -0.269421 -0.731304
0.003882 -0.269379 -0.747367
0.003584 -0.269303 -0.763329
0.002005 -0.268715 -0.780250
0.001826 -0.272417 -0.797691
0.002047 -0.271998 -0.814268
0.002633 -0.268106 -0.831599
0.013498 -0.278932 -0.838075
0.009027 -0.268988 -0.844745
0.016291 -0.260720 -0.621472
0.016290 -0.261721 -0.621467
0.014587 -0.254254 -0.628213
0.011172 -0.252874 -0.647050
0.009208 -0.252916 -0.665280
0.007261 -0.252872 -0.682395
0.005528 -0.252817 -0.697821
0.003510 -0.252794 -0.713833
0.001474 -0.252579 -0.729520
0.001427 -0.256172 -0.746743
0.001293 -0.256696 -0.762383
0.000659 -0.258608 -0.773461
0.001145 -0.256994 -0.846388
0.000175 -0.260270 -0.838243
0.006665 -0.252535 -0.861642
0.012124 -0.263567 -0.856739
0.010486 -0.236433 -0.647603
0.014247 -0.237905 -0.628615
0.007526 -0.236401 -0.665372
0.004838 -0.236327 -0.681873
0.002094 -0.234736 -0.698442
0.000858 -0.239983 -0.713003
0.000197 -0.243761 -0.722330
0.004681 -0.239428 -0.877451
0.012630 -0.247868 -0.876259
0.001082 -0.242304 -0.866233
0.015863 -0.244366 -0.884206
0.009578 -0.234323 -0.890765
0.011174 -0.220019 -0.630831
0.015827 -0.233388 -0.619894
0.014559 -0.219757 -0.614908
0.008307 -0.219942 -0.647853
0.005618 -0.219924 -0.665308
0.002933 -0.219839 -0.681320
0.000881 -0.219779 -0.693100
0.003301 -0.224955 -0.897179
0.014031 -0.228793 -0.901818
0.007105 -0.219241 -0.909650
0.014806 -0.203083 -0.598357
0.015786 -0.214063 -0.604141
0.011004 -0.203616 -0.615430
0.007487 -0.203451 -0.631153
0.005076 -0.203399 -0.647667
0.003099 -0.203412 -0.665186
0.001018 -0.204448 -0.679930
0.000316 -0.210613 -0.689264
0.006559 -0.207386 -0.925765
0.010875 -0.213495 -0.920184
0.000135 -0.211243 -0.917522
0.011009 -0.187727 0.760795
0.014691 -0.197519 0.745786
0.016228 -0.195581 0.754331
0.008085 -0.186855 0.745933
0.013710 -0.198826 0.730049
0.007315 -0.186839 0.729947
0.008539 -0.186925 0.713190
0.015045 -0.197248 0.713249
0.015954 -0.196026 0.697008
0.010280 -0.186944 0.696946
0.013343 -0.188215 0.680743
0.016115 -0.195649 0.685527
0.008208 -0.197891 0.433810
0.008190 -0.193720 0.441374
0.006725 -0.198189 0.288576
0.000358 -0.195093 0.294964
0.000361 -0.195061 0.297789
0.006732 -0.198462 0.303690
0.001406 -0.194881 0.249706
0.010867 -0.198497 0.238480
0.007352 -0.199074 0.254260
0.002734 -0.194219 0.238542
0.002855 -0.194050 0.221892
0.010989 -0.198706 0.221847
0.003098 -0.193157 0.204943
0.011221 -0.199163 0.204820
0.008045 -0.191430 0.188211
0.013388 -0.197904 0.192360
0.015438 -0.187150 -0.585602
0.015985 -0.197154 -0.587489
0.012463 -0.187148 -0.598057
0.008087 -0.187064 -0.615176
0.004099 -0.186912 -0.630975
0.001593 -0.186897 -0.646333
0.000881 -0.192866 -0.665069
0.000283 -0.194800 -0.674362
0.008480 -0.180894 0.838108
0.008508 -0.170345 0.842267
0.003036 -0.176502 0.778797
0.011147 -0.184448 0.779022
0.008333 -0.183323 0.797099
0.002881 -0.176752 0.791666
0.001722 -0.177219 0.762167
0.001790 -0.176853 0.746121
0.001997 -0.176454 0.729869
0.001879 -0.176633 0.713110
0.002712 -0.175943 0.696784
0.004767 -0.173858 0.681058
0.009050 -0.172953 0.663658
0.014828 -0.183640 0.668955
0.007164 -0.173771 0.549091
0.000915 -0.178981 0.543243
0.002663 -0.176472 0.140143
0.010783 -0.185562 0.139513
0.007365 -0.184224 0.157746
0.001414 -0.177553 0.153233
0.011929 -0.183701 0.122968
0.003816 -0.176166 0.123291
0.012970 -0.182347 0.106579
0.004857 -0.175528 0.106661
0.005174 -0.174060 0.090549
0.013282 -0.182823 0.090391
0.014146 -0.182494 0.074399
0.005114 -0.170234 0.073453
0.015531 -0.180891 0.064548
0.011941 -0.170696 0.058620
0.014326 -0.170588 0.009334
0.015674 -0.182059 0.014699
0.015677 -0.182012 0.020084
0.013690 -0.172072 0.025722
0.010392 -0.170680 -0.597792
0.014620 -0.170037 -0.580706
0.005470 -0.170566 -0.614460
0.001249 -0.171587 -0.629518
0.000388 -0.177808 -0.639658
0.008698 -0.152675 0.848975
0.003306 -0.159182 0.058114
0.000506 -0.161979 0.067250
0.004736 -0.153573 0.040460
0.013917 -0.167455 0.041683
0.005942 -0.154467 0.025033
0.007981 -0.154508 0.008769
0.012195 -0.155014 -0.006659
0.015709 -0.164389 -0.001212
0.011682 -0.154234 -0.581159
0.016100 -0.164131 -0.572041
0.015036 -0.154249 -0.569500
0.007791 -0.154252 -0.598326
0.002600 -0.155002 -0.615187
0.000427 -0.160940 -0.623373
0.008683 -0.138570 0.852817
0.003393 -0.146390 0.851954
0.000203 -0.137701 0.034065
0.001575 -0.137844 0.024661
0.004125 -0.137886 0.008533
0.006265 -0.137728 -0.006718
0.012383 -0.151923 -0.023571
0.007882 -0.137768 -0.023414
0.012899 -0.152161 -0.040718
0.009933 -0.138022 -0.041249
0.014328 -0.150180 -0.054427
0.014031 -0.138680 -0.059326
0.012038 -0.138375 -0.563894
0.006907 -0.137727 -0.581319
0.004021 -0.137761 -0.598791
0.001383 -0.137702 -0.610365
0.008510 -0.121173 0.853192
0.005388 -0.121454 0.025090
0.002086 -0.120937 0.040448
0.007386 -0.121484 0.008840
0.007788 -0.121353 -0.006903
0.009736 -0.121389 -0.023627
0.013552 -0.120301 -0.042183
0.014967 -0.122085 -0.057977
0.015956 -0.133525 -0.068231
0.015972 -0.124300 -0.068333
0.011234 -0.121722 -0.547339
0.014411 -0.133348 -0.552221
0.003378 -0.121206 -0.563564
0.001892 -0.126218 -0.581400
0.000839 -0.127808 -0.598743
0.000327 -0.128781 -0.608091
0.008551 -0.107988 0.852142
0.000814 -0.113820 0.084459
0.001667 -0.114935 0.075041
0.004254 -0.104915 0.075214
0.001883 -0.104886 0.087496
0.001819 -0.115974 0.058621
0.004303 -0.104884 0.058783
0.005347 -0.104909 0.042142
0.008239 -0.105025 0.025303
0.009600 -0.105045 0.008804
0.009937 -0.104968 -0.007344
0.011916 -0.105000 -0.023934
0.014799 -0.106292 -0.041966
0.012967 -0.104893 -0.534954
0.014835 -0.116601 -0.537542
0.004052 -0.104984 -0.549470
0.000451 -0.110517 -0.557551
-0.000496 -0.098230 0.851278
0.008552 -0.099776 0.851323
0.008510 -0.088355 0.850493
-0.002377 -0.088356 0.850764
0.002054 -0.088987 0.091831
0.004437 -0.088443 0.074914
0.005048 -0.088402 0.058884
0.005446 -0.088411 0.042217
0.005970 -0.088488 0.024724
0.006975 -0.088494 0.007923
0.008713 -0.088460 -0.007766
0.010252 -0.088482 -0.024080
0.011269 -0.088545 -0.040975
0.015054 -0.104521 -0.057536
0.011425 -0.088537 -0.057271
0.011031 -0.088499 -0.073168
0.014823 -0.104308 -0.073768
0.011682 -0.088523 -0.089564
0.015511 -0.100413 -0.089735
0.016252 -0.097156 -0.098198
0.013496 -0.089559 -0.104941
0.002859 -0.088368 -0.547011
0.011668 -0.088490 -0.530810
-0.004872 -0.071933 0.850371
0.008484 -0.071933 0.850104
0.000751 -0.083896 0.102774
0.000762 -0.076833 0.102698
0.001155 -0.071597 0.089730
0.002315 -0.071963 0.074721
0.003440 -0.071936 0.058920
0.003678 -0.071935 0.042289
0.003101 -0.071981 0.024514
0.003691 -0.071977 0.007590
0.005652 -0.071967 -0.007865
0.006789 -0.071983 -0.024006
0.007098 -0.072019 -0.040821
0.007296 -0.072014 -0.057103
0.007207 -0.071988 -0.073111
0.007037 -0.072003 -0.089821
0.007452 -0.072022 -0.106868
0.009768 -0.072032 -0.123386
0.013969 -0.085727 -0.123014
0.012681 -0.072044 -0.139633
0.015227 -0.083354 -0.139568
0.015946 -0.081567 -0.152270
0.014680 -0.073429 -0.157056
0.014432 -0.071975 -0.517982
0.015677 -0.083097 -0.521139
0.007864 -0.071939 -0.532055
0.001740 -0.071930 -0.545556
0.008509 -0.055542 0.849068
0.000555 -0.062135 0.074845
0.000233 -0.063290 0.084066
0.000981 -0.060883 0.058920
0.001130 -0.060303 0.042364
0.001052 -0.059892 0.024917
0.001314 -0.058700 0.008131
0.002003 -0.056904 -0.007660
0.002113 -0.054143 -0.023615
0.003060 -0.055556 -0.040274
0.003413 -0.055556 -0.057057
0.003469 -0.055562 -0.073999
0.003068 -0.055556 -0.090608
0.003136 -0.055543 -0.106934
0.005597 -0.055574 -0.123167
0.008821 -0.055618 -0.139398
0.010478 -0.055640 -0.155596
0.011681 -0.055642 -0.171703
0.015137 -0.069211 -0.172129
0.013681 -0.056709 -0.188094
0.015852 -0.066032 -0.183062
0.013927 -0.056707 -0.255761
0.016348 -0.064034 -0.262936
0.016348 -0.064034 -0.261852
0.013714 -0.057094 -0.269434
0.013536 -0.056718 -0.303850
0.015454 -0.066123 -0.319071
0.016210 -0.064416 -0.309640
0.010417 -0.055701 -0.319232
0.014835 -0.067667 -0.335714
0.009158 -0.055689 -0.335877
0.009463 -0.055706 -0.353150
0.014861 -0.067491 -0.353210
0.010439 -0.055703 -0.369860
0.015166 -0.066812 -0.369881
0.015657 -0.065944 -0.385838
0.011766 -0.055727 -0.386071
0.012690 -0.055735 -0.402464
0.015993 -0.065061 -0.402356
0.014151 -0.056533 -0.418357
0.016252 -0.064377 -0.412575
0.006464 -0.055549 -0.531934
0.013392 -0.056306 -0.513592
0.001721 -0.055520 -0.543805
0.008493 -0.043704 0.850477
0.000351 -0.046874 -0.028823
0.000588 -0.045812 -0.040096
0.000763 -0.044711 -0.057263
0.000730 -0.044215 -0.074677
0.000469 -0.045475 -0.091119
0.000475 -0.045328 -0.106880
0.001586 -0.039292 -0.122905
0.004122 -0.039163 -0.138872
0.005742 -0.039187 -0.155424
0.007031 -0.039188 -0.171994
0.008004 -0.039196 -0.188187
0.008868 -0.039209 -0.204479
0.013773 -0.053900 -0.204196
0.009874 -0.039246 -0.221234
0.014092 -0.053468 -0.221154
0.013966 -0.053684 -0.238033
0.009720 -0.039262 -0.237900
0.008108 -0.039252 -0.254190
0.007497 -0.039262 -0.270700
0.013528 -0.054553 -0.287028
0.008638 -0.039300 -0.287507
0.007772 -0.039275 -0.303975
0.004816 -0.039235 -0.319980
0.003657 -0.039225 -0.336421
0.004176 -0.039214 -0.353360
0.005639 -0.039217 -0.369805
0.007711 -0.039266 -0.385892
0.008859 -0.039290 -0.402386
0.009649 -0.039270 -0.419073
0.012063 -0.039252 -0.435651
0.015099 -0.051002 -0.435507
0.015290 -0.038122 -0.451515
0.016197 -0.048052 -0.445108
0.015583 -0.039226 -0.505510
0.015890 -0.051369 -0.506010
0.011293 -0.039174 -0.514898
0.004000 -0.038317 -0.533285
0.001400 -0.043226 -0.542565
0.000995 -0.062994 -0.982491
0.006986 -0.057411 -0.981399
0.008419 -0.035508 0.854883
0.008278 -0.022739 0.860028
0.000955 -0.027824 -0.138425
0.000432 -0.029754 -0.128033
0.001448 -0.022594 -0.156693
0.002899 -0.022738 -0.173135
0.003752 -0.022734 -0.189011
0.004814 -0.022745 -0.204822
0.006641 -0.022805 -0.221639
0.006640 -0.022813 -0.238112
0.004001 -0.022756 -0.253653
0.003209 -0.022753 -0.270384
0.005391 -0.022848 -0.288204
0.005324 -0.022832 -0.305160
0.002661 -0.022748 -0.321016
0.001804 -0.022746 -0.337198
0.002625 -0.022742 -0.353887
0.003939 -0.022735 -0.369724
0.006131 -0.022760 -0.385105
0.007293 -0.022811 -0.402034
0.007739 -0.022826 -0.419564
0.009619 -0.022801 -0.436064
0.012627 -0.022781 -0.452555
0.016257 -0.031891 -0.461810
0.015419 -0.022129 -0.468163
0.015908 -0.021628 -0.501379
0.011202 -0.022693 -0.514871
0.003618 -0.022679 -0.529887
0.008187 -0.006410 0.863226
0.001032 -0.006320 -0.173009
0.000282 -0.006326 -0.162483
0.001512 -0.006310 -0.188930
0.002384 -0.006318 -0.204722
0.004458 -0.006379 -0.221529
0.004792 -0.006386 -0.237926
0.002245 -0.006324 -0.253359
0.001485 -0.006323 -0.270055
0.003855 -0.006423 -0.288004
0.004348 -0.006413 -0.305146
0.002539 -0.006334 -0.321185
0.002063 -0.006333 -0.337337
0.002848 -0.006333 -0.353760
0.003707 -0.006324 -0.369470
0.005204 -0.006341 -0.384863
0.006067 -0.006381 -0.401853
0.006402 -0.006406 -0.419468
0.007965 -0.006383 -0.436052
0.010461 -0.006366 -0.452591
0.013053 -0.006453 -0.469387
0.016108 -0.016210 -0.486128
0.014995 -0.006463 -0.486139
0.015806 -0.006369 -0.501044
0.011547 -0.006284 -0.515125
0.003689 -0.006270 -0.528735
0.008198 0.009738 0.863307
0.000920 0.010088 -0.171609
0.000319 0.010090 -0.161380
0.000953 0.010089 -0.187930
0.001317 0.010078 -0.204204
0.003067 0.010041 -0.220876
0.003814 0.010030 -0.237306
0.002445 0.010050 -0.253287
0.001915 0.010044 -0.269703
0.003221 0.010005 -0.286768
0.003810 0.010005 -0.303691
0.003351 0.010023 -0.320328
0.003599 0.010017 -0.336716
0.004591 0.010011 -0.352846
0.005127 0.010021 -0.369016
0.005347 0.010015 -0.385296
0.005404 0.010005 -0.401878
0.005465 0.010007 -0.418647
0.006701 0.010014 -0.435496
0.008929 0.010005 -0.452569
0.011089 0.009903 -0.469431
0.013781 0.009854 -0.486141
0.015799 0.009943 -0.501867
0.012487 0.010073 -0.516009
0.004499 0.009912 -0.531946
0.008199 0.025960 0.863739
0.000525 0.020552 -0.170932
0.000287 0.019195 -0.161398
0.000431 0.020344 -0.187423
0.000467 0.021252 -0.203914
0.001167 0.026820 -0.220643
0.002044 0.026433 -0.237224
0.001081 0.027165 -0.253367
0.000844 0.027176 -0.269956
0.001848 0.026418 -0.286049
0.002572 0.026413 -0.302607
0.002831 0.026431 -0.319207
0.003450 0.026415 -0.335876
0.004480 0.026381 -0.352577
0.004740 0.026392 -0.369016
0.004424 0.026407 -0.385228
0.004235 0.026405 -0.401703
0.004202 0.026408 -0.418379
0.004928 0.026420 -0.435101
0.006365 0.026413 -0.452217
0.007742 0.026320 -0.469324
0.010330 0.026230 -0.486121
0.014942 0.024521 -0.503702
0.014418 0.024810 -0.516528
0.007260 0.026496 -0.531638
0.001635 0.015277 -0.541786
0.001684 0.026527 -0.541736
0.008191 0.042353 0.864205
0.000220 0.037764 -0.226572
0.000289 0.038914 -0.237537
0.000128 0.037224 -0.248256
0.000029 0.037835 -0.275763
0.000510 0.043108 -0.285099
0.001473 0.042816 -0.302661
0.001576 0.042878 -0.318496
0.002023 0.042858 -0.335250
0.002809 0.042771 -0.352928
0.002912 0.042798 -0.369406
0.002698 0.042846 -0.384727
0.002764 0.042830 -0.401393
0.002949 0.042796 -0.418752
0.002968 0.042833 -0.434990
0.003266 0.042866 -0.451408
0.003764 0.042788 -0.468915
0.005673 0.042686 -0.486065
0.012969 0.043372 -0.503954
0.015207 0.039653 -0.521914
0.010355 0.044199 -0.531046
0.001591 0.042899 -0.541810
0.009332 0.059745 0.866475
0.003032 0.059209 -0.302669
0.001601 0.057925 -0.285167
0.002857 0.059293 -0.318421
0.003315 0.059278 -0.335071
0.004423 0.059173 -0.352634
0.004569 0.059182 -0.369131
0.004150 0.059251 -0.384584
0.004427 0.059231 -0.401233
0.005080 0.059181 -0.418469
0.004966 0.059216 -0.434612
0.004713 0.059265 -0.450851
0.005048 0.059211 -0.468505
0.006378 0.059139 -0.485890
0.011056 0.059113 -0.502610
0.015273 0.057840 -0.519439
0.016334 0.049172 -0.514493
0.003759 0.059263 -0.545448
0.012353 0.057877 -0.531854
0.006593 0.074880 0.866936
0.015532 0.065892 0.869235
0.014749 0.074871 0.869383
0.000623 0.062384 -0.237559
0.000366 0.064172 -0.226647
0.001799 0.075080 -0.220984
0.003065 0.075616 -0.237444
0.000588 0.063390 -0.253411
0.003088 0.075678 -0.253513
0.000812 0.062339 -0.269560
0.003679 0.075690 -0.269777
0.005228 0.075610 -0.286393
0.006198 0.075597 -0.302725
0.006290 0.075673 -0.318751
0.006745 0.075671 -0.335178
0.007595 0.075598 -0.352034
0.007735 0.075591 -0.368538
0.007444 0.075631 -0.384710
0.007902 0.075618 -0.401201
0.008757 0.075587 -0.417841
0.009291 0.075595 -0.434194
0.009647 0.075609 -0.450711
0.009977 0.075587 -0.468028
0.010268 0.075566 -0.485438
0.011619 0.075500 -0.502311
0.013161 0.075459 -0.518823
0.012695 0.075540 -0.534360
0.006825 0.074115 -0.550177
0.009063 0.090357 0.864782
0.015026 0.083955 0.869461
0.001343 0.082545 0.281982
0.002641 0.080935 0.269883
0.008052 0.091555 0.269907
0.005119 0.090626 0.287204
0.002692 0.080981 0.253461
0.007823 0.091611 0.253582
0.001612 0.082423 0.237189
0.006228 0.091847 0.237454
0.001633 0.082245 0.220969
0.005530 0.091788 0.220954
0.001788 0.081871 0.204763
0.004890 0.091661 0.204341
0.001103 0.082610 0.193913
0.002887 0.091291 0.188108
0.000379 0.082913 -0.177413
0.000623 0.081985 -0.188370
0.003407 0.092057 -0.188880
0.002034 0.090873 -0.172503
0.001150 0.079929 -0.204480
0.004573 0.092081 -0.205092
0.006108 0.092014 -0.221534
0.006892 0.092001 -0.237894
0.006881 0.092084 -0.254049
0.007244 0.092107 -0.270378
0.008104 0.092029 -0.286971
0.008642 0.092017 -0.303315
0.008937 0.092096 -0.319353
0.009168 0.092100 -0.335673
0.009251 0.092043 -0.352292
0.009255 0.092037 -0.368643
0.009251 0.092075 -0.384831
0.009576 0.092060 -0.401318
0.010153 0.092029 -0.417937
0.010968 0.092033 -0.434248
0.011797 0.092048 -0.450584
0.012044 0.092027 -0.467591
0.011575 0.091989 -0.485061
0.011281 0.091888 -0.502181
0.011446 0.091799 -0.518772
0.012120 0.091844 -0.535042
0.011850 0.091929 -0.550321
0.003461 0.078530 -0.560830
0.007132 0.090653 -0.566058
0.008212 0.108274 0.857253
0.001583 0.098616 0.385450
0.001081 0.099050 0.396193
0.007241 0.108028 0.386115
0.004989 0.107364 0.402372
0.001341 0.099055 0.369370
0.006533 0.108300 0.369865
0.002092 0.097992 0.352903
0.007442 0.108308 0.353310
0.004097 0.094680 0.336031
0.010229 0.107892 0.336415
0.005194 0.092925 0.319503
0.011944 0.107833 0.319878
0.005338 0.093038 0.303217
0.012427 0.108181 0.303649
0.012332 0.108139 0.286907
0.011820 0.107848 0.269924
0.011745 0.107960 0.253770
0.011613 0.108266 0.237969
0.009847 0.108190 0.221036
0.007552 0.108021 0.203819
0.006874 0.108159 0.187650
0.002894 0.095235 0.171831
0.007368 0.108321 0.171775
0.003450 0.094673 0.155311
0.008456 0.108156 0.155281
0.003196 0.094785 0.138732
0.007849 0.108057 0.138705
0.001739 0.097366 0.126740
0.003487 0.107746 0.121998
0.000494 0.099220 0.013374
0.000492 0.099195 0.017403
0.001968 0.107729 0.007711
0.001922 0.107770 0.023117
0.001150 0.097432 -0.107547
0.000681 0.098803 -0.095258
0.003547 0.108338 -0.107809
0.002016 0.107218 -0.090545
0.001050 0.097888 -0.123729
0.003745 0.108406 -0.123903
0.000834 0.098633 -0.139923
0.003797 0.108499 -0.139970
0.001462 0.095749 -0.156335
0.004845 0.108445 -0.156517
0.006216 0.108396 -0.173179
0.007420 0.108458 -0.189488
0.008584 0.108503 -0.205760
0.009504 0.108431 -0.222223
0.009954 0.108416 -0.238589
0.010224 0.108510 -0.254725
0.010404 0.108539 -0.271071
0.010693 0.108457 -0.287735
0.010829 0.108449 -0.304099
0.010930 0.108533 -0.320046
0.010815 0.108535 -0.336356
0.010394 0.108479 -0.353053
0.010303 0.108481 -0.369201
0.010418 0.108529 -0.385006
0.010491 0.108512 -0.401568
0.010614 0.108473 -0.418496
0.011256 0.108490 -0.434669
0.011938 0.108521 -0.450655
0.012022 0.108491 -0.467578
0.011389 0.108416 -0.485006
0.010442 0.108298 -0.502068
0.010308 0.108186 -0.518675
0.011596 0.108158 -0.535130
0.012942 0.108218 -0.551341
0.013664 0.108342 -0.566555
0.004231 0.095466 -0.580552
0.010944 0.108431 -0.581330
0.001372 0.098971 -0.590925
0.004363 0.108204 -0.596701
0.001323 0.082014 -0.966771
0.007768 0.088555 -0.958985
0.002738 0.113804 0.851107
0.008224 0.125408 0.848385
0.013623 0.120480 0.855204
0.001367 0.115715 0.533454
0.000762 0.116293 0.543365
0.009565 0.122123 0.533741
0.007116 0.122735 0.549308
0.002174 0.114991 0.516533
0.010367 0.121636 0.516964
0.003305 0.114334 0.500457
0.011484 0.120715 0.500799
0.004727 0.113470 0.484514
0.012892 0.119615 0.484805
0.006239 0.111883 0.467958
0.014389 0.118370 0.468461
0.006498 0.110831 0.451415
0.014643 0.118435 0.452073
0.005265 0.111555 0.435363
0.013430 0.120360 0.435843
0.004694 0.111383 0.419183
0.012881 0.122335 0.419549
0.014051 0.125563 0.402994
0.013495 0.124439 0.386644
0.013226 0.124621 0.370353
0.012969 0.124644 0.353786
0.012553 0.124429 0.336826
0.012885 0.124419 0.320246
0.013748 0.124620 0.304062
0.012605 0.124613 0.287346
0.010253 0.124480 0.270329
0.010553 0.124546 0.254170
0.011962 0.124701 0.238395
0.010313 0.124658 0.221530
0.007527 0.124576 0.204330
0.007244 0.124664 0.188026
0.008124 0.124759 0.172003
0.008389 0.124654 0.155494
0.007595 0.124596 0.138882
0.005727 0.124742 0.122619
0.001716 0.111855 0.106396
0.004284 0.124826 0.106231
0.001519 0.111001 0.089249
0.004180 0.124718 0.089484
0.001688 0.110091 0.072461
0.004436 0.124656 0.073013
0.001476 0.112241 0.056441
0.004261 0.124741 0.057011
0.001500 0.112501 0.040211
0.004090 0.124761 0.040680
0.004313 0.124664 0.023852
0.004413 0.124689 0.007490
0.001523 0.112820 -0.008398
0.004284 0.124823 -0.008317
0.001379 0.113194 -0.025026
0.004320 0.124821 -0.024859
0.001844 0.110232 -0.042327
0.004622 0.124726 -0.041966
0.002012 0.109012 -0.058891
0.004751 0.124740 -0.058519
0.001879 0.109536 -0.075070
0.004595 0.124817 -0.074749
0.004647 0.124799 -0.091189
0.005007 0.124755 -0.107670
0.005659 0.124796 -0.123720
0.006451 0.124850 -0.139722
0.006995 0.124814 -0.156321
0.007609 0.124786 -0.173077
0.008857 0.124830 -0.189470
0.010003 0.124862 -0.205802
0.010397 0.124818 -0.222282
0.010795 0.124814 -0.238686
0.011702 0.124868 -0.254891
0.012344 0.124880 -0.271273
0.012638 0.124826 -0.287907
0.012741 0.124827 -0.304342
0.012697 0.124883 -0.320474
0.012634 0.124888 -0.336795
0.012493 0.124858 -0.353327
0.012106 0.124868 -0.369507
0.011654 0.124904 -0.385473
0.011488 0.124899 -0.402010
0.011468 0.124882 -0.418853
0.011817 0.124896 -0.435168
0.012203 0.124917 -0.451325
0.012095 0.124902 -0.468018
0.011589 0.124853 -0.485019
0.011039 0.124738 -0.501880
0.011522 0.124613 -0.518550
0.013236 0.124557 -0.535083
0.014443 0.124571 -0.551598
0.015095 0.124620 -0.567720
0.014262 0.124636 -0.583224
0.010624 0.124633 -0.598539
0.001998 0.113492 -0.608585
0.005081 0.123972 -0.614345
0.003550 0.099314 -0.953143
0.007853 0.104342 -0.941308
0.008342 0.139553 0.840849
0.003057 0.130985 0.610598
0.004340 0.129875 0.598751
0.012506 0.138006 0.598483
0.008030 0.141343 0.614570
0.004641 0.129477 0.581876
0.012812 0.137720 0.581982
0.008709 0.128710 0.564429
0.014329 0.135838 0.568847
0.016197 0.137260 0.397303
0.016086 0.142078 0.386668
0.016239 0.142454 0.369019
0.015260 0.142464 0.355583
0.011988 0.141067 0.337103
0.011017 0.141090 0.320568
0.011793 0.141115 0.304381
0.009827 0.141136 0.287780
0.006295 0.141153 0.270879
0.006487 0.141163 0.254596
0.008689 0.141155 0.238671
0.007705 0.141158 0.222120
0.005327 0.141174 0.205284
0.005226 0.141207 0.188827
0.005734 0.141219 0.172481
0.004776 0.141196 0.155840
0.003833 0.141186 0.139084
0.004218 0.141220 0.122409
0.004836 0.141225 0.105967
0.004969 0.141164 0.089824
0.005069 0.141134 0.073829
0.005359 0.141171 0.057856
0.004991 0.141184 0.041354
0.003902 0.141162 0.024240
0.003952 0.141174 0.007631
0.005287 0.141203 -0.008367
0.005711 0.141199 -0.024736
0.005259 0.141182 -0.041441
0.005106 0.141193 -0.057844
0.004997 0.141217 -0.074059
0.004591 0.141213 -0.090644
0.004326 0.141206 -0.107312
0.005085 0.141208 -0.123403
0.006199 0.141207 -0.139386
0.006493 0.141199 -0.156001
0.006742 0.141200 -0.172769
0.007965 0.141210 -0.189167
0.009116 0.141212 -0.205523
0.009489 0.141203 -0.222082
0.010119 0.141203 -0.238566
0.011416 0.141197 -0.254829
0.012442 0.141188 -0.271228
0.012960 0.141177 -0.287825
0.013285 0.141187 -0.304325
0.013378 0.141200 -0.320656
0.013671 0.141205 -0.337011
0.013955 0.141212 -0.353411
0.013418 0.141230 -0.369756
0.012534 0.141245 -0.386061
0.012235 0.141253 -0.402522
0.012239 0.141270 -0.419103
0.012231 0.141280 -0.435619
0.012285 0.141287 -0.452104
0.012259 0.141288 -0.468571
0.012219 0.141284 -0.485106
0.012633 0.141211 -0.501723
0.013554 0.141115 -0.518408
0.014473 0.141045 -0.535029
0.014756 0.140991 -0.551571
0.014603 0.140867 -0.567996
0.013838 0.140766 -0.584385
0.012249 0.140741 -0.600397
0.010371 0.140649 -0.615841
0.003067 0.129047 -0.629871
0.007772 0.140472 -0.630947
0.001301 0.131754 -0.641066
0.004016 0.139773 -0.646660
0.006514 0.119763 -0.923328
0.001444 0.114077 -0.934555
0.002919 0.144018 0.833430
0.007373 0.158432 0.828278
0.013787 0.152278 0.838889
0.002134 0.146452 0.624419
0.012676 0.157447 0.618919
0.004539 0.157566 0.625210
0.016449 0.151367 0.373332
0.016440 0.151356 0.381166
0.014459 0.155997 0.355361
0.010257 0.157532 0.337190
0.008344 0.157573 0.320842
0.007659 0.157643 0.304643
0.004121 0.159276 0.286484
0.002427 0.156517 0.271087
0.002527 0.156074 0.254737
0.003687 0.157014 0.238795
0.003305 0.157057 0.222316
0.002227 0.156256 0.205626
0.002179 0.155480 0.189298
0.002308 0.154660 0.172927
0.001615 0.152968 0.156031
0.001101 0.152042 0.139044
0.001655 0.153675 0.122395
0.002290 0.155430 0.106032
0.002326 0.155613 0.089825
0.002336 0.155447 0.073849
0.002597 0.155506 0.058084
0.002426 0.155383 0.041531
0.001731 0.154888 0.024096
0.001737 0.154902 0.007315
0.002557 0.155541 -0.008643
0.002798 0.156114 -0.024910
0.002496 0.156754 -0.041527
0.002382 0.156786 -0.057733
0.002288 0.156606 -0.073728
0.002050 0.156975 -0.090450
0.001665 0.159088 -0.106973
0.002839 0.157638 -0.123581
0.003941 0.157641 -0.139511
0.004529 0.157623 -0.156079
0.005033 0.157615 -0.172792
0.006007 0.157630 -0.189055
0.006993 0.157635 -0.205384
0.007554 0.157608 -0.222131
0.008265 0.157596 -0.238751
0.009521 0.157591 -0.254970
0.010709 0.157579 -0.271322
0.011507 0.157555 -0.287929
0.011972 0.157563 -0.304419
0.012296 0.157597 -0.320707
0.012592 0.157595 -0.337141
0.012687 0.157579 -0.353725
0.012664 0.157597 -0.370156
0.012687 0.157626 -0.386453
0.012475 0.157630 -0.402870
0.012016 0.157640 -0.419385
0.011914 0.157670 -0.435875
0.012003 0.157694 -0.452343
0.011579 0.157693 -0.468784
0.011400 0.157689 -0.485245
0.012728 0.157662 -0.501718
0.013886 0.157623 -0.518295
0.013198 0.157544 -0.534897
0.011375 0.157465 -0.551406
0.008810 0.157376 -0.567755
0.007185 0.157298 -0.584228
0.007332 0.157207 -0.600812
0.007221 0.157030 -0.617192
0.006546 0.156792 -0.632858
0.005201 0.156826 -0.648410
0.002787 0.144504 -0.662669
0.002428 0.157796 -0.663939
0.001317 0.147392 -0.673002
0.001290 0.153021 -0.673674
0.008652 0.138358 -0.893430
-0.003926 0.144875 -0.899297
0.003605 0.133256 -0.908550
0.000726 0.129931 -0.917350
0.000963 0.164598 0.818913
0.000864 0.174005 0.818538
0.009012 0.173945 0.824083
0.014143 0.173676 0.621175
0.006015 0.173862 0.624533
0.012677 0.172758 0.369520
0.016049 0.160454 0.364943
0.008418 0.174009 0.353064
0.004029 0.175141 0.337249
0.003429 0.171847 0.320816
0.002491 0.169896 0.304670
0.001318 0.167859 0.291136
0.000719 0.168917 -0.123836
0.000353 0.166790 -0.112406
0.001231 0.171716 -0.139726
0.001642 0.173065 -0.156192
0.001662 0.175360 -0.173446
0.002822 0.174055 -0.188895
0.003765 0.174064 -0.205206
0.004282 0.174005 -0.222075
0.004796 0.173975 -0.238769
0.005825 0.174002 -0.254940
0.006932 0.173997 -0.271231
0.007796 0.173926 -0.287815
0.008386 0.173926 -0.304245
0.009011 0.174005 -0.320443
0.008888 0.174010 -0.336944
0.008051 0.173957 -0.353738
0.008272 0.173968 -0.370183
0.009430 0.174019 -0.386356
0.008996 0.174024 -0.402738
0.007267 0.174034 -0.419269
0.007252 0.174076 -0.435692
0.007652 0.174119 -0.452050
0.005032 0.175371 -0.468949
0.005207 0.173015 -0.485016
0.004892 0.175287 -0.502780
0.005418 0.175533 -0.516247
0.005953 0.172628 -0.534259
0.004259 0.170499 -0.550833
0.001992 0.167827 -0.567322
0.000802 0.166453 -0.584020
0.001358 0.166908 -0.600721
0.001785 0.167291 -0.617347
0.001811 0.167262 -0.633779
0.001273 0.166575 -0.650078
0.000526 0.165704 -0.660015
0.007133 0.152890 -0.874386
0.002506 0.147706 -0.888237
0.000309 0.182287 0.818603
0.007428 0.189670 0.827596
0.004081 0.184794 0.623354
0.009070 0.190044 0.618827
0.009106 0.187024 0.401338
0.013628 0.176520 0.385211
0.015051 0.179249 0.396413
0.005507 0.186554 0.384827
0.003940 0.186284 0.368626
0.001996 0.184665 0.352624
0.000606 0.182824 0.342594
0.000192 0.182272 -0.179209
0.000566 0.182778 -0.188713
0.001073 0.183452 -0.205005
0.001226 0.183613 -0.221848
0.001388 0.183769 -0.238508
0.001893 0.184350 -0.254645
0.002367 0.184810 -0.270884
0.002721 0.185032 -0.287397
0.003059 0.185380 -0.303757
0.003454 0.185973 -0.319912
0.003248 0.185762 -0.336443
0.002549 0.184850 -0.353330
0.002583 0.184815 -0.369757
0.003310 0.185516 -0.385823
0.002951 0.185053 -0.402224
0.001658 0.183700 -0.418877
0.001662 0.183687 -0.435310
0.001927 0.183942 -0.451624
0.001206 0.183266 -0.463487
0.000171 0.182350 -0.509494
0.000171 0.182350 -0.508804
0.007642 0.172367 -0.842846
-0.004518 0.176235 -0.847834
0.007015 0.164364 -0.857817
0.000959 0.162688 -0.868463
0.003752 0.199664 0.833200
0.008890 0.205402 0.840398
0.014520 0.196987 0.835445
0.008538 0.193786 0.416359
0.003305 0.199797 0.421217
0.014084 0.196065 0.426946
0.008552 0.203801 0.432833
0.007823 0.190149 -0.813682
-0.005695 0.193029 -0.818654
0.007507 0.181678 -0.827593
0.001988 0.179532 -0.836883
0.008513 0.216131 0.849588
0.009378 0.217296 0.499903
0.015438 0.213627 0.506021
0.015435 0.213634 0.508364
0.009342 0.217064 0.514295
0.008363 0.215534 0.454786
-0.003434 0.216316 0.453589
-0.008419 0.214056 0.448772
0.008337 0.212361 0.446515
0.006465 0.206078 -0.780059
-0.005250 0.209496 -0.784413
0.007993 0.198425 -0.798270
0.002575 0.196118 -0.808230
0.008435 0.224363 0.854699
0.008370 0.238598 0.855937
0.007400 0.218793 -0.747957
0.002897 0.213159 -0.765295
0.000077 0.211488 -0.773375
0.008373 0.248401 0.852583
0.007948 0.240536 -0.699411
-0.001471 0.243532 -0.705366
0.009225 0.232996 -0.716545
0.003739 0.229730 -0.732180
0.000233 0.228030 -0.740733
0.008410 0.256218 0.846293
0.008382 0.270232 0.844450
0.006511 0.254718 -0.663017
-0.004600 0.258672 -0.667461
0.007971 0.247484 -0.682096
0.002686 0.245502 -0.694479
0.008341 0.280716 0.849629
0.006280 0.271277 -0.613039
-0.003222 0.276004 -0.617609
0.008415 0.264921 -0.629779
0.002871 0.262600 -0.646628
0.000243 0.260939 -0.655749
0.008287 0.288828 0.854223
0.008286 0.303082 0.854391
0.008145 0.282026 -0.563819
-0.004618 0.291316 -0.565284
-0.001218 0.293076 -0.556203
0.007207 0.288453 -0.550156
0.003385 0.280262 -0.581086
0.001096 0.278223 -0.598059
-0.000106 0.277246 -0.607195
0.002918 0.308741 0.850005
0.007692 0.319548 0.844568
0.013766 0.313063 0.852920
0.006998 0.305037 -0.466873
-0.003577 0.307805 -0.484500
-0.001614 0.309118 -0.472911
0.007969 0.300504 -0.484638
-0.005626 0.306648 -0.500931
0.009491 0.297569 -0.501995
0.006298 0.297313 -0.517375
0.003579 0.295700 -0.533831
0.001391 0.294412 -0.545874
0.001580 0.326141 0.833821
0.001553 0.330711 0.833803
0.008786 0.336806 0.843288
0.007961 0.318144 -0.401320
-0.002488 0.325171 -0.400935
-0.000400 0.326350 -0.391962
0.007091 0.322150 -0.386036
-0.005904 0.323144 -0.417788
0.008688 0.313983 -0.416721
0.004712 0.313298 -0.433777
0.002622 0.311953 -0.449793
0.000956 0.310855 -0.460993
0.006190 0.351844 0.846215
0.014332 0.352002 0.854780
0.016021 0.343020 0.852893
0.007877 0.336051 -0.302034
-0.003454 0.341803 -0.302215
-0.001413 0.342584 -0.292228
0.007106 0.339254 -0.286237
0.007881 0.333568 -0.318449
-0.006007 0.340652 -0.318545
0.008991 0.330173 -0.334913
0.005364 0.329296 -0.351723
0.002961 0.328032 -0.368200
0.001123 0.327103 -0.381146
0.006578 0.367345 0.844449
0.014364 0.368286 0.856081
0.006864 0.355820 -0.203940
-0.001799 0.358975 -0.209649
0.007815 0.351910 -0.220220
0.007827 0.348742 -0.236639
0.008529 0.345896 -0.252076
0.003710 0.345052 -0.269351
0.001169 0.343743 -0.281223
0.015809 0.384433 0.857017
0.012377 0.384463 0.846344
0.002651 0.372255 0.831515
0.004990 0.383217 0.827858
0.007772 0.371160 -0.072459
-0.002969 0.374810 -0.072550
-0.001012 0.375523 -0.062732
0.007077 0.373690 -0.056687
0.007769 0.368878 -0.088956
0.007769 0.366867 -0.105427
0.007771 0.365340 -0.121697
0.007776 0.363940 -0.137987
0.007782 0.362178 -0.154732
0.008018 0.360404 -0.170403
0.002846 0.360038 -0.187764
0.000799 0.359689 -0.198656
0.010103 0.400736 0.846173
0.013939 0.399783 0.862239
0.005996 0.400878 0.830051
0.002084 0.387890 0.816837
0.001981 0.401082 0.816895
0.006876 0.388653 0.042060
-0.003946 0.390801 0.025847
-0.001244 0.391761 0.036238
0.007762 0.385415 0.025733
0.007764 0.382958 0.009243
0.007759 0.380915 -0.006777
0.008929 0.378205 -0.023703
0.004318 0.377118 -0.039620
0.001200 0.376248 -0.051772
0.015899 0.416936 0.887756
0.015240 0.405173 0.879073
0.015985 0.408215 0.887827
0.014278 0.416952 0.878276
0.010788 0.416981 0.860919
0.006834 0.416925 0.844925
0.002234 0.418270 0.827731
0.000478 0.413983 0.819336
0.007210 0.406276 0.172854
-0.003851 0.407631 0.157506
-0.000910 0.408357 0.166530
0.007709 0.403859 0.157613
0.007702 0.401620 0.141237
0.007716 0.399572 0.124778
0.007727 0.397542 0.108314
0.007726 0.395493 0.091883
0.008017 0.393577 0.076680
0.002955 0.393093 0.059012
0.000872 0.392525 0.047299
0.015135 0.426953 0.877636
0.015918 0.425294 0.887311
0.013321 0.429855 0.860019
0.011936 0.433932 0.842305
0.009418 0.436408 0.825873
0.007697 0.417355 0.255822
-0.004734 0.423756 0.268418
0.006233 0.420789 0.273473
0.007705 0.415172 0.239451
0.007700 0.412919 0.223140
0.008453 0.410370 0.206934
0.003964 0.409651 0.190397
0.001440 0.409007 0.177557
0.004879 0.443579 0.821002
0.015577 0.441240 0.831532
0.015581 0.441247 0.835660
0.004082 0.427937 0.731567
0.006756 0.431463 0.750166
0.004754 0.428890 0.714789
0.004751 0.429209 0.698453
0.002921 0.427769 0.682493
0.001996 0.427190 0.666088
0.002725 0.427917 0.649094
0.003115 0.428323 0.632567
-0.007752 0.436587 0.632687
0.003139 0.428217 0.616575
-0.007770 0.436460 0.616529
-0.006911 0.437062 0.600162
0.004050 0.428818 0.600151
0.008368 0.429137 0.582397
-0.005395 0.438394 0.583745
0.007835 0.432011 0.567325
-0.005188 0.439005 0.567475
-0.006180 0.439181 0.551240
0.007818 0.433664 0.551180
-0.006719 0.439491 0.534932
0.007802 0.434770 0.534855
0.007782 0.435737 0.518480
-0.006011 0.439916 0.518602
0.007789 0.436356 0.502121
-0.004339 0.440229 0.502259
-0.002947 0.440446 0.485869
0.007787 0.436843 0.485740
-0.001822 0.440729 0.472733
0.006147 0.438221 0.468052
-0.000390 0.441086 0.461798
0.006208 0.437964 0.437351
-0.003567 0.440500 0.420238
-0.001679 0.440823 0.432322
0.007712 0.436273 0.420231
0.007706 0.435265 0.403677
0.007702 0.433728 0.387196
0.007709 0.431826 0.370899
0.007702 0.430038 0.354508
0.007691 0.428292 0.337957
0.008611 0.426470 0.322575
0.004645 0.426033 0.305281
0.001661 0.425254 0.288811
-0.000194 0.424815 0.279730
0.005692 0.445503 0.810390
0.003214 0.446309 0.794513
-0.005119 0.455327 0.778598
0.002501 0.447118 0.779517
0.001418 0.445051 0.764451
0.000071 0.441854 0.755973
-0.000273 0.441128 0.453118
-0.000273 0.441128 0.443334
0.016221 -0.557035 0.807652
0.017848 -0.551110 0.813295
0.019126 -0.534816 0.838143
0.017498 -0.545003 0.836841
0.020668 -0.518303 0.837753
0.019538 -0.508531 0.836082
0.025404 -0.503553 0.829520
0.021202 -0.486596 0.826544
0.029482 -0.485517 0.837990
0.030091 -0.497830 0.837058
0.024275 -0.500371 0.810490
0.021441 -0.501296 0.797652
0.018546 -0.486163 0.811603
0.025849 -0.495846 0.797639
0.021473 -0.484652 0.797601
0.022248 -0.501928 0.780952
0.026617 -0.497390 0.780892
0.022714 -0.484482 0.780464
0.023039 -0.502308 0.764302
0.026344 -0.498978 0.764177
0.022959 -0.484591 0.763333
0.022367 -0.502861 0.748134
0.025101 -0.484718 0.747499
0.027634 -0.497809 0.748046
0.021826 -0.503080 0.731936
0.026383 -0.484743 0.731761
0.028415 -0.496780 0.731926
0.022143 -0.502847 0.715474
0.028028 -0.497008 0.715540
0.025685 -0.484632 0.715521
0.022350 -0.502434 0.698973
0.027790 -0.496878 0.699065
0.025287 -0.484422 0.699065
0.022305 -0.501813 0.682469
0.027722 -0.496258 0.682481
0.025580 -0.484135 0.682431
0.022518 -0.501139 0.665905
0.024219 -0.484079 0.665753
0.026634 -0.496497 0.665885
0.025113 -0.500072 0.651760
0.020585 -0.485568 0.649196
0.026004 -0.469113 0.827391
0.030997 -0.469074 0.836869
0.023324 -0.468801 0.812881
0.024756 -0.468417 0.797580
0.025921 -0.468464 0.780253
0.026982 -0.468632 0.762788
0.028456 -0.468686 0.746825
0.029054 -0.468674 0.731083
0.028183 -0.468590 0.714759
0.027895 -0.468399 0.698527
0.028856 -0.468049 0.682394
0.028545 -0.467943 0.665649
0.026801 -0.468160 0.648191
0.020613 -0.483507 0.632185
0.026441 -0.468192 0.631012
0.020780 -0.483583 0.615385
0.027359 -0.468063 0.614317
0.020542 -0.483329 0.598611
0.027223 -0.468160 0.597758
0.019974 -0.482432 0.581937
0.026050 -0.468330 0.581471
0.019399 -0.480791 0.565671
0.024929 -0.467986 0.566048
0.018468 -0.478743 0.549810
0.023496 -0.467571 0.550687
0.017362 -0.477617 0.533793
0.021757 -0.468040 0.533928
0.016955 -0.477626 0.517279
0.021024 -0.468615 0.516625
0.017572 -0.477860 0.500288
0.022080 -0.468076 0.500157
0.018222 -0.477943 0.483449
0.023259 -0.467450 0.484131
0.018091 -0.478019 0.467395
0.022990 -0.467863 0.467829
0.017280 -0.477573 0.455762
0.020404 -0.469805 0.450930
0.029636 -0.451903 0.828712
0.032092 -0.456791 0.835433
0.026640 -0.452432 0.813022
0.028031 -0.452198 0.797595
0.029144 -0.452393 0.780249
0.030036 -0.452572 0.762584
0.031224 -0.451713 0.747537
0.031007 -0.453523 0.730062
0.030643 -0.450863 0.714794
0.029792 -0.452332 0.697411
0.031028 -0.450384 0.680631
0.030923 -0.450310 0.666968
0.029205 -0.452145 0.647564
0.030231 -0.450979 0.629256
0.031035 -0.454751 0.613735
0.031151 -0.455581 0.597425
0.030556 -0.453839 0.581603
0.030028 -0.452402 0.566655
0.029542 -0.451561 0.551348
0.029410 -0.449949 0.535759
0.028010 -0.452293 0.515962
0.028724 -0.451743 0.499880
0.029495 -0.451112 0.484478
0.029010 -0.451583 0.467923
0.028150 -0.452157 0.451405
0.020231 -0.466904 0.435607
0.027897 -0.452021 0.435686
0.019827 -0.465736 0.418937
0.027573 -0.452026 0.419241
0.019429 -0.465657 0.401199
0.026743 -0.452476 0.401476
0.019175 -0.465116 0.383970
0.026161 -0.452671 0.384220
0.019118 -0.463839 0.368037
0.025999 -0.452512 0.368248
0.018724 -0.462944 0.351849
0.025283 -0.452466 0.351993
0.017901 -0.462371 0.335079
0.023946 -0.452623 0.335196
0.017035 -0.461569 0.323822
0.020902 -0.453627 0.318622
0.030857 -0.436477 0.814245
0.031115 -0.436385 0.825902
0.031488 -0.441376 0.797590
0.031923 -0.442269 0.780250
0.032270 -0.443434 0.762521
0.032528 -0.444323 0.753539
0.032216 -0.442901 0.709634
0.032067 -0.442282 0.696678
0.032232 -0.442723 0.684431
0.031648 -0.440623 0.647728
0.032107 -0.442054 0.661960
0.031780 -0.441284 0.634477
0.032123 -0.442967 0.516012
0.032280 -0.442900 0.530768
0.032370 -0.442963 0.499824
0.032586 -0.442835 0.484255
0.032267 -0.442428 0.467665
0.031907 -0.442071 0.451079
0.032063 -0.442453 0.435350
0.032146 -0.442740 0.419075
0.031724 -0.441992 0.401755
0.031393 -0.441238 0.384772
0.031304 -0.440922 0.368437
0.030978 -0.440107 0.352035
0.030440 -0.438639 0.335612
0.029652 -0.437249 0.319248
0.020280 -0.449702 0.302536
0.028961 -0.434670 0.303869
0.019047 -0.447834 0.286435
0.025820 -0.436010 0.286917
0.017898 -0.446684 0.270437
0.023710 -0.436075 0.271323
0.017046 -0.445143 0.253869
0.022151 -0.435857 0.254679
0.016574 -0.443928 0.241873
0.020111 -0.436844 0.236953
0.019951 -0.435181 -0.023379
0.029461 -0.441802 -0.039920
0.023803 -0.442462 -0.023000
0.024989 -0.434112 -0.040297
0.028598 -0.435152 -0.055827
0.032127 -0.441391 -0.049798
0.032220 -0.427033 0.823664
0.032230 -0.427009 0.820146
0.031223 -0.423997 0.287058
0.032060 -0.426200 0.299151
0.030235 -0.421552 0.271535
0.029541 -0.420522 0.255108
0.029035 -0.420172 0.238072
0.020446 -0.434700 0.220685
0.029337 -0.417921 0.221090
0.020262 -0.434485 0.204495
0.028092 -0.419553 0.204309
0.020249 -0.434347 0.188164
0.028125 -0.419583 0.187901
0.020338 -0.434253 0.171849
0.028424 -0.419555 0.171681
0.020294 -0.434331 0.155796
0.028388 -0.419581 0.155528
0.020115 -0.434130 0.139690
0.028102 -0.419570 0.139371
0.019824 -0.433338 0.123226
0.027677 -0.419430 0.123144
0.019648 -0.433012 0.106782
0.027347 -0.419337 0.106715
0.019794 -0.433639 0.090606
0.027340 -0.419425 0.090062
0.019916 -0.433725 0.074360
0.027361 -0.419474 0.073523
0.019826 -0.432877 0.057941
0.027229 -0.419393 0.057263
0.019843 -0.432655 0.041501
0.027158 -0.419346 0.040904
0.020088 -0.433366 0.025085
0.027257 -0.419381 0.024357
0.020049 -0.433599 0.008722
0.026921 -0.419289 0.008038
0.019616 -0.433246 -0.007575
0.026049 -0.419039 -0.008041
0.025724 -0.418963 -0.024477
0.025942 -0.419050 -0.041219
0.025514 -0.418921 -0.057514
0.027493 -0.432426 -0.072597
0.024733 -0.418648 -0.073516
0.027637 -0.430909 -0.089002
0.024813 -0.418574 -0.089881
0.025296 -0.418563 -0.106400
0.028118 -0.429349 -0.105503
0.028147 -0.428005 -0.121760
0.025033 -0.418238 -0.122533
0.028350 -0.426972 -0.137994
0.024923 -0.417864 -0.138625
0.029656 -0.426214 -0.154451
0.026298 -0.417833 -0.155086
0.028082 -0.417836 -0.171603
0.031303 -0.425669 -0.170903
0.029626 -0.418875 -0.187718
0.032190 -0.425349 -0.181832
0.032466 -0.410698 0.215338
0.032263 -0.410258 0.203978
0.032316 -0.410437 0.187572
0.032534 -0.411019 0.171512
0.032522 -0.411106 0.155264
0.032396 -0.410835 0.139059
0.032274 -0.410374 0.123159
0.032139 -0.409941 0.106817
0.031984 -0.409651 0.089674
0.031873 -0.409521 0.072801
0.031829 -0.409509 0.056676
0.031743 -0.409419 0.040385
0.031599 -0.409227 0.023738
0.031291 -0.408774 0.007482
0.030830 -0.408085 -0.008282
0.030552 -0.407773 -0.024785
0.030446 -0.407761 -0.041924
0.030172 -0.407476 -0.058387
0.029839 -0.407084 -0.074391
0.029777 -0.406982 -0.090815
0.029787 -0.406867 -0.107433
0.029484 -0.406128 -0.123572
0.029153 -0.405220 -0.139620
0.029226 -0.404984 -0.156187
0.029363 -0.404721 -0.172884
0.029184 -0.403558 -0.189181
0.029021 -0.416201 -0.204087
0.029016 -0.402641 -0.205424
0.029142 -0.403026 -0.221828
0.029149 -0.414933 -0.220593
0.029779 -0.401069 -0.239983
0.029078 -0.413963 -0.237000
