-0.139144 -0.796948 0.038294
-0.139220 -0.780435 0.039861
-0.141019 -0.799019 0.020610
-0.157151 -0.798932 0.015006
-0.152544 -0.794488 0.018333
-0.147511 -0.805448 0.016035
-0.139248 -0.763906 0.041396
-0.139215 -0.747769 0.042390
-0.139611 -0.731148 0.045168
-0.145320 -0.721847 0.046816
-0.139743 -0.715517 0.048236
-0.134423 -0.725274 0.047497
-0.139568 -0.697992 0.049497
-0.139639 -0.682059 0.049613
-0.139548 -0.665507 0.050079
-0.139891 -0.682789 0.032351
-0.154581 -0.680921 0.031646
-0.148171 -0.674506 0.033093
-0.139924 -0.674748 0.033291
-0.139318 -0.648116 0.051061
-0.139164 -0.631209 0.051685
-0.139088 -0.614926 0.052094
-0.139103 -0.598308 0.052114
-0.139197 -0.581568 0.052108
-0.139344 -0.565511 0.052694
-0.139466 -0.549687 0.053435
-0.139362 -0.532901 0.054072
-0.139164 -0.515757 0.054406
-0.139073 -0.499112 0.054474
-0.139010 -0.482565 0.053980
-0.138905 -0.465938 0.052644
-0.138812 -0.449415 0.051475
-0.138768 -0.433002 0.051102
-0.138773 -0.416600 0.049837
-0.138817 -0.404515 0.047961
-0.138865 -0.396181 0.045606
-0.138959 -0.383911 0.044755
-0.139053 -0.368062 0.045592
-0.139098 -0.352031 0.044400
-0.139071 -0.335525 0.042333
-0.139005 -0.319518 0.041667
-0.138970 -0.304014 0.041161
-0.138996 -0.287891 0.042216
-0.139823 -0.303624 -0.015764
-0.145250 -0.297300 -0.014484
-0.134403 -0.296768 -0.014613
-0.139728 -0.290264 -0.012548
-0.139031 -0.271197 0.045422
-0.139032 -0.254730 0.046535
-0.139021 -0.238343 0.046093
-0.139033 -0.221567 0.045937
-0.139049 -0.204654 0.046056
-0.139443 -0.188853 0.046759
-0.145150 -0.175744 0.047089
-0.134224 -0.183880 0.047645
-0.139363 -0.170607 0.047970
-0.138822 -0.154599 0.048737
-0.139521 -0.174983 0.001669
-0.139437 -0.166539 0.002036
-0.138738 -0.138073 0.049302
-0.138831 -0.122223 0.050311
-0.139024 -0.106679 0.052134
-0.139271 -0.090901 0.054448
-0.139443 -0.074880 0.056177
-0.139478 -0.058762 0.056681
-0.139399 -0.042202 0.057383
-0.139240 -0.024984 0.058981
-0.139095 -0.008316 0.060165
-0.138965 0.007507 0.061056
-0.138928 0.023916 0.059528
-0.138993 0.040742 0.056562
-0.139003 0.057208 0.054761
-0.138965 0.073700 0.052495
-0.138883 0.090800 0.051889
-0.138835 0.107864 0.052667
-0.138949 0.123957 0.052522
-0.139085 0.139590 0.051745
-0.139111 0.155640 0.051328
-0.139096 0.171841 0.051318
-0.139240 0.156593 0.015640
-0.144251 0.162582 0.018921
-0.139036 0.170475 0.021339
-0.133371 0.164469 0.017943
-0.139173 0.187773 0.051745
-0.139275 0.203946 0.052548
-0.139338 0.220734 0.053583
-0.139336 0.237609 0.054126
-0.139259 0.254215 0.053616
-0.139241 0.270728 0.053001
-0.139303 0.287204 0.052661
-0.139300 0.303604 0.052064
-0.139225 0.319939 0.051108
-0.139220 0.336372 0.050389
-0.139279 0.352880 0.049948
-0.139290 0.369002 0.049650
-0.139274 0.384875 0.049061
-0.139287 0.400109 0.048162
-0.144465 0.417524 0.048092
-0.146146 0.428201 0.047744
-0.142330 0.433464 0.039808
-0.150023 0.439092 0.045135
-0.152083 0.450748 0.039884
-0.145647 0.445466 0.035539
-0.145722 0.445335 0.031308
-0.154748 0.450621 0.028897
-0.123827 -0.959979 0.018009
-0.118858 -0.969139 0.010942
-0.118960 -0.968872 0.015480
-0.123740 -0.963283 0.006999
-0.122800 -0.942976 0.023470
-0.122967 -0.927709 0.026420
-0.122822 -0.910505 0.029366
-0.128003 -0.899913 0.030451
-0.122660 -0.894003 0.031588
-0.117080 -0.903943 0.031002
-0.122775 -0.877421 0.033248
-0.122714 -0.861782 0.034465
-0.130234 -0.885112 0.001586
-0.140617 -0.879490 0.000908
-0.135587 -0.874484 0.002617
-0.124200 -0.879451 0.003999
-0.122672 -0.845256 0.035532
-0.122677 -0.828615 0.036795
-0.122741 -0.812887 0.037696
-0.121660 -0.828342 0.017926
-0.138332 -0.828294 0.012858
-0.131788 -0.821893 0.016592
-0.126310 -0.832945 0.014875
-0.122854 -0.797118 0.038473
-0.122974 -0.780577 0.040086
-0.123037 -0.764047 0.041618
-0.122999 -0.747876 0.043657
-0.122977 -0.737260 0.046240
-0.123205 -0.714620 0.049251
-0.123054 -0.728904 0.047809
-0.123284 -0.697922 0.050381
-0.123213 -0.681663 0.050755
-0.123051 -0.664917 0.051183
-0.124089 -0.680894 0.032747
-0.129911 -0.674706 0.033349
-0.129901 -0.673337 0.033355
-0.123958 -0.666823 0.032837
-0.122846 -0.647592 0.051629
-0.122756 -0.630957 0.052011
-0.122775 -0.615019 0.052474
-0.122863 -0.598572 0.052799
-0.122968 -0.581744 0.053231
-0.123028 -0.565379 0.053982
-0.123017 -0.549176 0.054661
-0.122869 -0.532366 0.054953
-0.122680 -0.515423 0.055092
-0.122577 -0.498896 0.055402
-0.122502 -0.482430 0.054921
-0.122386 -0.465864 0.053172
-0.122307 -0.449376 0.051471
-0.122328 -0.433012 0.050548
-0.122389 -0.416651 0.049360
-0.128488 -0.422755 0.018472
-0.117559 -0.427197 0.016669
-0.122844 -0.432796 0.020159
-0.123003 -0.417047 0.014152
-0.122446 -0.402740 0.047893
-0.122485 -0.394486 0.046468
-0.122557 -0.383963 0.045865
-0.122640 -0.368061 0.045727
-0.122541 -0.370172 -0.016399
-0.116331 -0.376858 -0.014560
-0.122347 -0.382955 -0.009454
-0.127224 -0.375889 -0.013968
-0.122662 -0.352030 0.044598
-0.122618 -0.335645 0.043511
-0.122567 -0.319697 0.042602
-0.122558 -0.304145 0.041274
-0.122584 -0.287985 0.042365
-0.122141 -0.269660 0.046006
-0.130506 -0.296774 -0.014606
-0.124306 -0.290244 -0.011954
-0.126319 -0.254800 0.047160
-0.118147 -0.254816 0.047421
-0.116386 -0.263079 0.047297
-0.127736 -0.238387 0.047104
-0.119568 -0.238369 0.047653
-0.126338 -0.221533 0.047026
-0.118154 -0.221450 0.047575
-0.125068 -0.204545 0.047029
-0.116866 -0.204413 0.047394
-0.127478 -0.194777 0.047167
-0.122200 -0.188657 0.047848
-0.122468 -0.171309 0.048995
-0.122359 -0.154631 0.049628
-0.124082 -0.172318 0.002880
-0.130430 -0.178476 0.001788
-0.122335 -0.138220 0.050633
-0.122512 -0.122569 0.052794
-0.122770 -0.107090 0.054970
-0.123026 -0.091090 0.056225
-0.123146 -0.074856 0.056757
-0.123071 -0.058595 0.056471
-0.122937 -0.041893 0.056512
-0.122795 -0.024575 0.057401
-0.122666 -0.007956 0.058225
-0.122550 0.007734 0.059151
-0.122502 0.024043 0.058460
-0.122534 0.040835 0.056895
-0.122535 0.057360 0.054498
-0.121750 0.074864 0.049929
-0.121707 0.090161 0.049412
-0.122445 0.107784 0.051779
-0.122548 0.123914 0.052809
-0.122642 0.139706 0.052692
-0.122662 0.155902 0.051627
-0.122657 0.172118 0.050730
-0.122738 0.187907 0.051281
-0.123131 0.166713 0.016838
-0.123090 0.174619 0.020963
-0.122841 0.203972 0.052242
-0.122893 0.220799 0.052694
-0.122897 0.237712 0.052642
-0.122853 0.254261 0.051957
-0.122850 0.270708 0.051398
-0.122903 0.287157 0.051278
-0.122907 0.303427 0.051048
-0.122863 0.319522 0.050447
-0.122864 0.335752 0.049840
-0.122909 0.352101 0.049113
-0.123276 0.367152 0.048196
-0.129263 0.384495 0.047845
-0.130727 0.393632 0.047406
-0.127503 0.399700 0.039841
-0.133835 0.404744 0.045016
-0.135264 0.418455 0.039630
-0.129301 0.413436 0.035310
-0.129400 0.413294 0.031269
-0.138186 0.418214 0.029217
-0.106328 -0.972686 0.016728
-0.106349 -0.959189 0.021732
-0.110076 -0.966665 0.002744
-0.099372 -0.969084 0.001853
-0.105267 -0.972148 0.007107
-0.105735 -0.961242 0.000960
-0.106439 -0.943341 0.025791
-0.106597 -0.927844 0.028287
-0.106615 -0.916174 0.030184
-0.106425 -0.893618 0.033008
-0.106547 -0.907254 0.031421
-0.112418 -0.916480 0.001545
-0.122556 -0.911402 0.000827
-0.116407 -0.905304 0.002077
-0.107090 -0.911442 0.002709
-0.106324 -0.877456 0.034440
-0.106307 -0.861969 0.035055
-0.106314 -0.845578 0.035944
-0.106354 -0.829011 0.037156
-0.106676 -0.842209 0.017888
-0.121862 -0.844884 0.012676
-0.115292 -0.838195 0.016397
-0.106713 -0.850689 0.014631
-0.106436 -0.813145 0.038091
-0.106557 -0.797202 0.039185
-0.106692 -0.780561 0.041201
-0.105740 -0.763158 0.044239
-0.111425 -0.747873 0.045762
-0.103285 -0.747805 0.047584
-0.099503 -0.756996 0.047385
-0.114734 -0.739742 0.047112
-0.108354 -0.733169 0.048187
-0.106865 -0.714616 0.049845
-0.106839 -0.697727 0.050854
-0.106663 -0.681159 0.051551
-0.106502 -0.664305 0.051989
-0.106397 -0.647197 0.051942
-0.106412 -0.630892 0.052257
-0.106535 -0.615272 0.052884
-0.114008 -0.624463 0.032921
-0.122171 -0.630561 0.032547
-0.116200 -0.624454 0.032933
-0.107840 -0.630462 0.032474
-0.104022 -0.616154 0.032738
-0.112055 -0.616000 0.033045
-0.106618 -0.598871 0.053547
-0.112036 -0.605888 0.033016
-0.106807 -0.600139 0.032781
-0.106631 -0.581833 0.054244
-0.106577 -0.565169 0.054871
-0.106459 -0.548671 0.055296
-0.106308 -0.531926 0.055067
-0.106167 -0.515206 0.054711
-0.106077 -0.498760 0.055025
-0.106009 -0.482346 0.054717
-0.105917 -0.465827 0.052719
-0.105874 -0.449374 0.050689
-0.105942 -0.433062 0.049779
-0.105665 -0.432864 0.015536
-0.099694 -0.442649 0.017195
-0.105512 -0.448610 0.020813
-0.110538 -0.438121 0.018866
-0.106036 -0.416737 0.049016
-0.106744 -0.398946 0.047822
-0.109977 -0.406300 0.003688
-0.099159 -0.409108 0.001559
-0.105299 -0.415389 0.007450
-0.105524 -0.400812 -0.001815
-0.112582 -0.392581 0.047186
-0.106809 -0.383830 0.046983
-0.101714 -0.389182 0.047375
-0.106222 -0.368114 0.046024
-0.106220 -0.352088 0.044846
-0.106167 -0.335793 0.044231
-0.106134 -0.319858 0.043261
-0.106138 -0.304214 0.041826
-0.106160 -0.287988 0.043158
-0.106842 -0.307642 -0.015863
-0.124316 -0.304191 -0.015865
-0.119567 -0.298208 -0.013932
-0.106765 -0.299565 -0.013265
-0.106167 -0.273682 0.046162
-0.106170 -0.265333 0.047759
-0.106200 -0.254745 0.048359
-0.106193 -0.238270 0.048644
-0.106161 -0.221320 0.048490
-0.106110 -0.204278 0.048236
-0.106050 -0.187701 0.048873
-0.105991 -0.171297 0.049770
-0.106480 -0.186396 0.002802
-0.124232 -0.188998 0.001402
-0.119434 -0.183692 0.002441
-0.106588 -0.194633 0.001626
-0.105952 -0.154796 0.050339
-0.106007 -0.138562 0.051679
-0.106239 -0.123050 0.054456
-0.106505 -0.107453 0.056751
-0.106687 -0.091076 0.057405
-0.106719 -0.074591 0.056922
-0.106597 -0.058285 0.055770
-0.106463 -0.041559 0.055214
-0.106355 -0.024275 0.055379
-0.106255 -0.007747 0.055995
-0.106156 0.007873 0.057201
-0.106090 0.024123 0.057426
-0.106082 0.040917 0.056972
-0.106057 0.057540 0.054368
-0.105630 0.075098 0.049185
-0.115740 0.081245 0.046862
-0.110810 0.081298 0.046857
-0.110775 0.084198 0.046858
-0.115733 0.084154 0.046866
-0.105612 0.090272 0.048730
-0.106062 0.107674 0.051673
-0.106146 0.123819 0.053314
-0.106196 0.139748 0.053511
-0.106207 0.156070 0.052044
-0.106219 0.172318 0.050544
-0.106317 0.188023 0.050753
-0.106686 0.169523 0.015601
-0.106672 0.177414 0.020058
-0.106430 0.204012 0.051417
-0.106472 0.220885 0.051404
-0.106477 0.237789 0.050883
-0.106461 0.254174 0.050073
-0.106459 0.270483 0.049570
-0.106486 0.286890 0.049664
-0.106488 0.303080 0.049348
-0.106539 0.317875 0.048333
-0.111549 0.335352 0.048230
-0.113259 0.351658 0.047803
-0.114388 0.360579 0.047419
-0.112003 0.366716 0.038852
-0.118045 0.371523 0.043477
-0.120833 0.383479 0.039033
-0.114163 0.377308 0.034015
-0.122598 0.383395 0.030099
-0.114192 0.377231 0.032195
-0.091096 -0.977623 0.017653
-0.086217 -0.985145 0.012063
-0.086269 -0.984955 0.015405
-0.091050 -0.978958 0.007599
-0.090042 -0.959671 0.023409
-0.090114 -0.943698 0.026880
-0.090535 -0.927321 0.029608
-0.096203 -0.918986 0.030635
-0.085246 -0.921366 0.031017
-0.090473 -0.912328 0.031994
-0.096044 -0.934156 0.001613
-0.107056 -0.928677 0.001130
-0.101538 -0.923286 0.002229
-0.090732 -0.928777 0.002812
-0.089940 -0.893534 0.034510
-0.089859 -0.877524 0.035366
-0.089905 -0.862214 0.035408
-0.089957 -0.845880 0.036541
-0.090015 -0.829308 0.038191
-0.091757 -0.848027 0.020433
-0.098194 -0.854541 0.015582
-0.090097 -0.813311 0.039522
-0.090197 -0.797221 0.041377
-0.090671 -0.780813 0.044781
-0.096431 -0.767765 0.046268
-0.090716 -0.762752 0.047991
-0.085429 -0.775055 0.047729
-0.090415 -0.747728 0.048358
-0.090411 -0.731511 0.048923
-0.091637 -0.746666 0.031481
-0.105811 -0.746691 0.030983
-0.099651 -0.740325 0.032599
-0.097640 -0.740328 0.032691
-0.096065 -0.731832 0.032973
-0.087972 -0.731904 0.032543
-0.090291 -0.714403 0.050178
-0.096340 -0.722623 0.032796
-0.090779 -0.716266 0.032601
-0.090143 -0.697334 0.051073
-0.089991 -0.680753 0.051754
-0.089919 -0.664030 0.051967
-0.089940 -0.647146 0.051738
-0.090066 -0.631069 0.051957
-0.090250 -0.615598 0.052443
-0.090226 -0.599028 0.053241
-0.090036 -0.581697 0.054013
-0.089901 -0.564922 0.054370
-0.089807 -0.548427 0.054292
-0.089699 -0.531774 0.053425
-0.089602 -0.515161 0.052405
-0.089542 -0.498739 0.052249
-0.089521 -0.482339 0.051739
-0.088128 -0.464615 0.049366
-0.088161 -0.448763 0.048271
-0.088381 -0.448773 0.016443
-0.081856 -0.457797 0.017686
-0.088240 -0.464301 0.020997
-0.092621 -0.453649 0.019144
-0.089631 -0.433188 0.048945
-0.089721 -0.416874 0.049343
-0.089763 -0.400428 0.048276
-0.089779 -0.389785 0.047355
-0.094654 -0.389585 -0.012825
-0.083857 -0.393729 -0.014755
-0.089729 -0.399745 -0.008677
-0.089877 -0.384694 -0.015732
-0.089812 -0.381659 0.046893
-0.089810 -0.368278 0.045908
-0.089773 -0.352271 0.044961
-0.089711 -0.335945 0.044438
-0.089696 -0.319960 0.043771
-0.089718 -0.304247 0.043075
-0.089454 -0.287077 0.045227
-0.090366 -0.309568 -0.015280
-0.090301 -0.301441 -0.012722
-0.094744 -0.277096 0.046797
-0.089459 -0.271299 0.048743
-0.083825 -0.280898 0.047638
-0.089734 -0.254510 0.050184
-0.089698 -0.238002 0.049897
-0.089637 -0.221067 0.049724
-0.089564 -0.204113 0.049794
-0.089520 -0.187659 0.050554
-0.089525 -0.171413 0.051524
-0.097441 -0.195808 0.001814
-0.091080 -0.189351 0.002798
-0.089590 -0.155127 0.052271
-0.089735 -0.139132 0.053335
-0.089995 -0.123665 0.055076
-0.090193 -0.107826 0.056780
-0.090208 -0.090997 0.057932
-0.090135 -0.074201 0.057554
-0.090044 -0.057933 0.055613
-0.089967 -0.041365 0.054280
-0.089909 -0.024322 0.053860
-0.089857 -0.007903 0.054088
-0.089793 0.007824 0.054999
-0.089727 0.024139 0.055405
-0.089682 0.040959 0.055341
-0.089656 0.057541 0.053890
-0.089651 0.074043 0.051083
-0.089621 0.090871 0.050514
-0.089616 0.107667 0.051830
-0.089689 0.123821 0.052896
-0.089764 0.139717 0.053097
-0.089789 0.156043 0.051695
-0.089813 0.172338 0.050061
-0.089919 0.188101 0.049544
-0.090299 0.170956 0.015146
-0.090302 0.178856 0.019327
-0.090034 0.204122 0.049711
-0.090082 0.220986 0.049882
-0.090086 0.237759 0.049552
-0.090069 0.253911 0.048747
-0.090519 0.269012 0.047941
-0.095712 0.286563 0.048030
-0.097012 0.302772 0.047753
-0.098057 0.311419 0.047363
-0.095172 0.317549 0.039701
-0.101147 0.322246 0.044652
-0.102411 0.336365 0.039643
-0.097021 0.331426 0.035148
-0.105181 0.336247 0.029884
-0.097068 0.331349 0.032060
-0.073613 -0.985551 0.016466
-0.073626 -0.976478 0.020449
-0.073704 -0.959999 0.024549
-0.073768 -0.943936 0.027581
-0.073780 -0.931358 0.029842
-0.074601 -0.949975 0.001518
-0.090629 -0.944440 0.001039
-0.085133 -0.938935 0.002184
-0.074558 -0.942007 0.002571
-0.073784 -0.923217 0.031258
-0.073692 -0.911066 0.033118
-0.073501 -0.893550 0.035487
-0.073437 -0.877627 0.036054
-0.073513 -0.862380 0.035886
-0.073586 -0.846034 0.037285
-0.074721 -0.864113 0.020093
-0.091764 -0.864095 0.014579
-0.087265 -0.859383 0.018066
-0.080837 -0.870270 0.015427
-0.073659 -0.829415 0.039434
-0.073748 -0.813364 0.041133
-0.073456 -0.796587 0.044509
-0.078640 -0.786694 0.046336
-0.073449 -0.780532 0.048126
-0.067701 -0.790494 0.047451
-0.073905 -0.763276 0.049481
-0.073982 -0.747450 0.049560
-0.073931 -0.731259 0.049708
-0.073705 -0.713980 0.050601
-0.073535 -0.696929 0.051300
-0.073467 -0.680661 0.051861
-0.073467 -0.664104 0.052012
-0.073507 -0.647169 0.051978
-0.073621 -0.630970 0.052243
-0.073773 -0.615347 0.052590
-0.073660 -0.598661 0.053159
-0.081927 -0.611314 0.033796
-0.090257 -0.616429 0.033109
-0.084792 -0.611321 0.033711
-0.075496 -0.616228 0.032838
-0.081929 -0.607317 0.033845
-0.075418 -0.600553 0.032604
-0.073373 -0.581337 0.053564
-0.073247 -0.564657 0.053395
-0.073228 -0.548268 0.052748
-0.073182 -0.531725 0.051651
-0.073125 -0.515170 0.050631
-0.073103 -0.498775 0.050237
-0.073131 -0.482410 0.049612
-0.073556 -0.464715 0.048070
-0.072921 -0.464505 0.016028
-0.066879 -0.476261 0.017145
-0.072718 -0.481989 0.021118
-0.077715 -0.468791 0.019367
-0.079192 -0.458417 0.046991
-0.081848 -0.458380 0.046998
-0.081872 -0.453768 0.046991
-0.079232 -0.453823 0.046995
-0.073618 -0.448897 0.047593
-0.073333 -0.433347 0.048966
-0.073377 -0.417025 0.049798
-0.080527 -0.424135 0.003074
-0.069695 -0.430126 0.000029
-0.074627 -0.434687 0.005253
-0.074789 -0.418334 -0.003334
-0.074687 -0.399233 0.048170
-0.081045 -0.391970 0.047283
-0.074648 -0.385670 0.046697
-0.073361 -0.368421 0.045658
-0.073310 -0.352407 0.045059
-0.073259 -0.336035 0.044743
-0.073262 -0.319973 0.044532
-0.073285 -0.304182 0.044541
-0.073254 -0.290371 0.045947
-0.078928 -0.311503 -0.014808
-0.073599 -0.305560 -0.012290
-0.073258 -0.270821 0.049788
-0.073235 -0.281912 0.047816
-0.073225 -0.254194 0.051212
-0.073179 -0.237767 0.051218
-0.073130 -0.220975 0.051288
-0.073086 -0.204177 0.051596
-0.073085 -0.187854 0.052507
-0.078825 -0.210683 0.001645
-0.091159 -0.204925 0.001431
-0.086359 -0.199605 0.002147
-0.073373 -0.204890 0.002337
-0.073156 -0.171761 0.053449
-0.073304 -0.155659 0.054030
-0.073509 -0.139765 0.054627
-0.073742 -0.124088 0.055289
-0.073841 -0.107922 0.056301
-0.073720 -0.090738 0.057536
-0.073576 -0.073722 0.057454
-0.073505 -0.057556 0.055581
-0.073465 -0.041134 0.053950
-0.073435 -0.024238 0.053089
-0.073425 -0.007880 0.052753
-0.073424 0.007918 0.052901
-0.073386 0.024254 0.053223
-0.073333 0.041054 0.053673
-0.073324 0.057525 0.053408
-0.073351 0.073812 0.052692
-0.073307 0.090619 0.052414
-0.073249 0.107522 0.052546
-0.073290 0.123685 0.053075
-0.073353 0.139571 0.053220
-0.073376 0.155878 0.052137
-0.073401 0.172164 0.050468
-0.072117 0.189430 0.048437
-0.075112 0.173390 0.013344
-0.081201 0.179671 0.018769
-0.074977 0.187177 0.022445
-0.070378 0.181484 0.016237
-0.075179 0.204003 0.047969
-0.075036 0.220708 0.048191
-0.076685 0.237429 0.048152
-0.080435 0.253677 0.047732
-0.081560 0.262505 0.047398
-0.078227 0.268572 0.039911
-0.085319 0.273557 0.044867
-0.087277 0.286082 0.041855
-0.080409 0.285641 0.035013
-0.088370 0.300983 0.038343
-0.081865 0.294441 0.033209
-0.081877 0.294383 0.032733
-0.089915 0.300900 0.030587
-0.057190 -0.986078 0.017569
-0.057191 -0.976616 0.022249
-0.062637 -0.983527 0.002351
-0.051767 -0.985969 0.001692
-0.057221 -0.986435 0.007146
-0.057618 -0.978127 0.001425
-0.057306 -0.960162 0.025801
-0.057385 -0.944024 0.028510
-0.057385 -0.933641 0.030337
-0.065154 -0.952420 0.001838
-0.059110 -0.946299 0.003042
-0.057309 -0.911079 0.033580
-0.057386 -0.925548 0.031535
-0.057147 -0.893722 0.035743
-0.057086 -0.877799 0.036427
-0.057142 -0.862453 0.036555
-0.056854 -0.878798 0.019196
-0.074832 -0.878852 0.014138
-0.069899 -0.873723 0.017574
-0.062020 -0.883995 0.015434
-0.057214 -0.846008 0.038150
-0.057305 -0.829333 0.040189
-0.057423 -0.813346 0.040905
-0.057471 -0.801347 0.044055
-0.057479 -0.792979 0.047720
-0.057493 -0.780091 0.048930
-0.057506 -0.763097 0.050136
-0.057476 -0.746958 0.050710
-0.057377 -0.730583 0.050989
-0.057224 -0.713389 0.051172
-0.057150 -0.696677 0.051557
-0.057177 -0.680878 0.052382
-0.057165 -0.664377 0.052886
-0.057067 -0.647089 0.053040
-0.057039 -0.630476 0.053414
-0.057064 -0.614422 0.053817
-0.056945 -0.597809 0.053888
-0.056750 -0.580904 0.053597
-0.056698 -0.564441 0.052650
-0.056745 -0.548163 0.051441
-0.056765 -0.531706 0.050629
-0.056768 -0.515193 0.050230
-0.056794 -0.498875 0.050050
-0.051812 -0.499072 0.016528
-0.049301 -0.507544 0.017800
-0.055625 -0.513920 0.021749
-0.059851 -0.498979 0.020342
-0.056858 -0.482598 0.049831
-0.063301 -0.487232 0.018889
-0.057746 -0.482311 0.014671
-0.056953 -0.466203 0.049408
-0.057013 -0.449810 0.049222
-0.053785 -0.450568 -0.000204
-0.050425 -0.459725 0.001475
-0.056430 -0.465558 0.007998
-0.061781 -0.450218 0.004746
-0.057013 -0.433503 0.049630
-0.058993 -0.435168 -0.003009
-0.065076 -0.441016 0.002536
-0.056983 -0.417144 0.049407
-0.056937 -0.402290 0.048051
-0.057091 -0.401762 -0.015842
-0.051123 -0.411044 -0.014730
-0.057060 -0.416919 -0.010729
-0.062043 -0.407197 -0.013314
-0.070052 -0.392923 0.047110
-0.056925 -0.394027 0.047007
-0.056903 -0.384397 0.046379
-0.056867 -0.368483 0.045737
-0.056837 -0.352422 0.045274
-0.056825 -0.336051 0.045063
-0.056838 -0.319915 0.045257
-0.056838 -0.303980 0.045732
-0.057500 -0.325399 -0.015111
-0.073619 -0.320333 -0.015823
-0.067995 -0.314382 -0.014081
-0.057431 -0.317266 -0.013211
-0.056778 -0.290168 0.046637
-0.056733 -0.281624 0.047612
-0.056720 -0.270403 0.048881
-0.056683 -0.253859 0.050728
-0.056670 -0.237613 0.052355
-0.056679 -0.221101 0.053157
-0.056708 -0.204549 0.053546
-0.058315 -0.221775 0.002483
-0.073404 -0.221782 0.001289
-0.067845 -0.216563 0.001938
-0.064752 -0.227749 0.001710
-0.056784 -0.188362 0.054404
-0.056923 -0.172367 0.055174
-0.057120 -0.156330 0.055382
-0.057322 -0.140277 0.055353
-0.057468 -0.124190 0.055375
-0.057462 -0.107648 0.055620
-0.057283 -0.090282 0.056216
-0.057116 -0.073242 0.056318
-0.057027 -0.057165 0.055380
-0.056963 -0.040786 0.054229
-0.056910 -0.023889 0.053202
-0.056931 -0.007529 0.052166
-0.057026 0.008266 0.051276
-0.057048 0.024528 0.051488
-0.057017 0.041236 0.052525
-0.057034 0.057590 0.052807
-0.057082 0.073728 0.052588
-0.057061 0.090335 0.052917
-0.057005 0.107072 0.053642
-0.056975 0.123283 0.054244
-0.056963 0.139323 0.054261
-0.056963 0.155640 0.053449
-0.056986 0.171842 0.051440
-0.051412 0.165328 0.001569
-0.051417 0.159550 0.001574
-0.057122 0.154615 0.004079
-0.057113 0.171050 0.005874
-0.057047 0.185026 0.048624
-0.065894 0.195320 0.047028
-0.057196 0.192787 0.043241
-0.067058 0.203731 0.046033
-0.057678 0.202001 0.037113
-0.057572 0.183064 0.014076
-0.057482 0.190827 0.023698
-0.066933 0.220289 0.046073
-0.062151 0.220019 0.038528
-0.068473 0.236866 0.044575
-0.062974 0.236468 0.037275
-0.071794 0.252937 0.039313
-0.064628 0.246908 0.034473
-0.064668 0.246829 0.032121
-0.073300 0.252813 0.030635
-0.040803 -0.976754 0.023729
-0.040816 -0.986505 0.018489
-0.040942 -0.960313 0.026630
-0.041119 -0.943127 0.029436
-0.041697 -0.966838 0.001609
-0.058936 -0.961504 0.001503
-0.054224 -0.956220 0.002244
-0.041749 -0.958684 0.002528
-0.046518 -0.935233 0.030676
-0.041031 -0.929170 0.031776
-0.035586 -0.936835 0.030940
-0.040905 -0.911116 0.034196
-0.040770 -0.893856 0.036083
-0.040718 -0.877947 0.036859
-0.041160 -0.890743 0.018222
-0.057101 -0.894037 0.013570
-0.051065 -0.887536 0.017103
-0.041294 -0.899399 0.015100
-0.040760 -0.862522 0.037496
-0.040823 -0.845936 0.039405
-0.040908 -0.829128 0.041752
-0.041250 -0.813202 0.043828
-0.046923 -0.803810 0.044563
-0.041278 -0.797746 0.048027
-0.035924 -0.807876 0.047475
-0.041015 -0.780002 0.049421
-0.040984 -0.797335 0.031448
-0.056446 -0.797357 0.030613
-0.050219 -0.791762 0.033108
-0.046259 -0.791758 0.033147
-0.046296 -0.786096 0.033352
-0.041042 -0.780540 0.031956
-0.040958 -0.762931 0.050334
-0.040869 -0.746562 0.051097
-0.040767 -0.730039 0.051445
-0.040676 -0.712967 0.051157
-0.040644 -0.696446 0.051381
-0.040691 -0.680769 0.052397
-0.040653 -0.664297 0.052902
-0.040508 -0.646972 0.052731
-0.040437 -0.630209 0.052823
-0.040419 -0.613886 0.053105
-0.040355 -0.597354 0.052796
-0.040271 -0.580751 0.052070
-0.040275 -0.564408 0.051262
-0.040356 -0.548193 0.050448
-0.040420 -0.531783 0.049877
-0.040466 -0.515304 0.049687
-0.040569 -0.514170 0.016086
-0.034813 -0.526906 0.017040
-0.040391 -0.532178 0.020478
-0.045615 -0.518543 0.019259
-0.040518 -0.499065 0.050052
-0.040579 -0.482830 0.050515
-0.040632 -0.466345 0.050520
-0.045040 -0.470621 0.004316
-0.034193 -0.476883 0.001401
-0.040192 -0.482597 0.006558
-0.040394 -0.466054 -0.000162
-0.040634 -0.449868 0.050258
-0.040580 -0.433546 0.049861
-0.040497 -0.417187 0.049158
-0.039730 -0.399987 0.047857
-0.044734 -0.394006 0.047076
-0.039672 -0.384979 0.046817
-0.033711 -0.390738 0.047329
-0.040360 -0.368511 0.045992
-0.040351 -0.352355 0.045609
-0.040342 -0.335859 0.045835
-0.040347 -0.319607 0.046169
-0.040340 -0.303585 0.046535
-0.042011 -0.321655 -0.011606
-0.048392 -0.328196 -0.014649
-0.040289 -0.291278 0.047005
-0.040251 -0.282768 0.047625
-0.040229 -0.270159 0.048690
-0.040224 -0.253787 0.050649
-0.040267 -0.237718 0.052942
-0.040334 -0.221446 0.054115
-0.040490 -0.236378 0.002514
-0.058338 -0.238784 0.001178
-0.053681 -0.233941 0.002398
-0.040527 -0.244487 0.001444
-0.040421 -0.205113 0.054529
-0.040558 -0.189049 0.055390
-0.040733 -0.173039 0.056285
-0.040901 -0.156825 0.056549
-0.041024 -0.140469 0.056420
-0.041057 -0.124038 0.056149
-0.040982 -0.107252 0.055920
-0.040809 -0.089913 0.056015
-0.040653 -0.072974 0.055601
-0.040544 -0.056845 0.054305
-0.040471 -0.040443 0.053107
-0.040418 -0.023629 0.052280
-0.040466 -0.007329 0.051323
-0.040614 0.008418 0.050351
-0.040672 0.024598 0.050572
-0.040660 0.041240 0.051627
-0.040688 0.057482 0.052209
-0.040741 0.073484 0.052289
-0.040735 0.089884 0.052784
-0.040691 0.106427 0.053588
-0.040640 0.122671 0.053741
-0.040602 0.138856 0.052866
-0.040594 0.155248 0.051214
-0.041217 0.169934 0.048965
-0.047136 0.181516 0.048093
-0.048808 0.165275 0.001561
-0.044454 0.170818 0.009698
-0.045878 0.186902 0.037639
-0.049031 0.195326 0.031781
-0.046933 0.182373 0.014784
-0.045672 0.187366 0.026031
-0.049039 0.195309 0.031312
-0.057798 0.201885 0.030350
-0.024495 -0.976938 0.024999
-0.024530 -0.986889 0.019364
-0.024641 -0.960502 0.027019
-0.024667 -0.946338 0.029210
-0.024418 -0.962409 0.002654
-0.029124 -0.968403 0.001779
-0.024635 -0.938055 0.031131
-0.024585 -0.928100 0.032857
-0.024479 -0.911165 0.035179
-0.024355 -0.893883 0.036749
-0.024318 -0.878010 0.037653
-0.025318 -0.896007 0.019349
-0.031215 -0.902445 0.016019
-0.024368 -0.862594 0.038732
-0.024413 -0.845836 0.041464
-0.024829 -0.829121 0.045192
-0.030540 -0.818097 0.046453
-0.024871 -0.812823 0.047722
-0.019540 -0.823493 0.047520
-0.024539 -0.796873 0.048520
-0.024407 -0.779817 0.049511
-0.024269 -0.762735 0.050260
-0.024202 -0.746369 0.050871
-0.024142 -0.729853 0.050991
-0.024069 -0.712836 0.050573
-0.024013 -0.696234 0.050762
-0.023976 -0.680238 0.051755
-0.023927 -0.663801 0.051853
-0.023863 -0.646890 0.050659
-0.023862 -0.630268 0.050072
-0.023905 -0.613848 0.050117
-0.023938 -0.597354 0.049587
-0.022463 -0.581429 0.048591
-0.022508 -0.565952 0.048806
-0.024077 -0.548369 0.049825
-0.024155 -0.531989 0.049501
-0.030799 -0.538022 0.018475
-0.020012 -0.545896 0.016549
-0.025007 -0.550137 0.019308
-0.025184 -0.532618 0.015317
-0.024216 -0.515551 0.049038
-0.024265 -0.499354 0.049915
-0.024278 -0.483050 0.050800
-0.024872 -0.483177 -0.000521
-0.019285 -0.495573 0.000909
-0.024744 -0.500382 0.005615
-0.030046 -0.487899 0.003635
-0.024223 -0.466360 0.050224
-0.024131 -0.449748 0.049652
-0.024044 -0.433461 0.049690
-0.018725 -0.434022 -0.014641
-0.016829 -0.442315 -0.014504
-0.023392 -0.448932 -0.011251
-0.026967 -0.434151 -0.013097
-0.023961 -0.417170 0.049227
-0.024704 -0.418659 -0.015204
-0.030178 -0.424585 -0.014138
-0.023878 -0.400712 0.048232
-0.023843 -0.387627 0.047513
-0.023842 -0.379552 0.047089
-0.023872 -0.368507 0.046055
-0.023862 -0.352230 0.045871
-0.024891 -0.336691 0.046904
-0.024391 -0.357366 -0.015095
-0.039524 -0.351987 -0.015998
-0.033100 -0.345549 -0.014393
-0.024296 -0.348991 -0.013330
-0.029432 -0.319276 0.047058
-0.021202 -0.319050 0.047837
-0.020111 -0.331795 0.047839
-0.023919 -0.302646 0.047030
-0.018537 -0.307529 0.047463
-0.023796 -0.293375 0.047087
-0.023825 -0.270161 0.049921
-0.023806 -0.285041 0.048106
-0.023888 -0.254007 0.051670
-0.023991 -0.238105 0.053053
-0.024112 -0.221969 0.053929
-0.022814 -0.239403 0.001268
-0.027213 -0.234615 0.002057
-0.025756 -0.222101 0.002180
-0.017759 -0.222455 0.001536
-0.024251 -0.205740 0.054535
-0.023994 -0.206507 0.002117
-0.018181 -0.212406 0.001638
-0.024412 -0.189713 0.055558
-0.024551 -0.173581 0.056723
-0.024602 -0.157050 0.057523
-0.024577 -0.140316 0.057839
-0.024518 -0.123657 0.057991
-0.024425 -0.106851 0.057999
-0.024304 -0.089720 0.057471
-0.024177 -0.072925 0.055580
-0.024063 -0.056623 0.052449
-0.024010 -0.040169 0.050580
-0.024007 -0.023526 0.050362
-0.024081 -0.007352 0.050218
-0.024222 0.008301 0.049850
-0.024279 0.024408 0.050081
-0.024271 0.041013 0.050836
-0.024299 0.057166 0.051432
-0.024343 0.073067 0.051600
-0.024336 0.089381 0.051189
-0.023109 0.106245 0.049853
-0.026723 0.122149 0.049927
-0.029208 0.138426 0.049120
-0.031411 0.154939 0.047909
-0.032411 0.163285 0.047289
-0.030396 0.155679 0.023999
-0.040969 0.155300 0.009651
-0.033259 0.161990 0.019363
-0.031748 0.150933 0.016886
-0.031982 0.164560 0.038820
-0.036864 0.172685 0.038890
-0.036119 0.170594 0.024064
-0.032016 0.164758 0.027942
-0.008177 -0.987078 0.019888
-0.008121 -0.976994 0.025896
-0.008256 -0.960548 0.027747
-0.008622 -0.976693 0.001512
-0.024156 -0.976667 0.001525
-0.018267 -0.970517 0.001972
-0.013853 -0.970508 0.001972
-0.008634 -0.963112 0.002804
-0.003055 -0.969486 0.001906
-0.008277 -0.947800 0.029571
-0.008248 -0.939611 0.031336
-0.008188 -0.928121 0.033320
-0.008084 -0.911200 0.035628
-0.007964 -0.893932 0.037246
-0.008631 -0.915160 0.014372
-0.025477 -0.911406 0.014033
-0.020275 -0.905177 0.017309
-0.008500 -0.906499 0.018075
-0.007920 -0.878015 0.038504
-0.007949 -0.862559 0.039882
-0.006928 -0.844163 0.044180
-0.011604 -0.834496 0.046604
-0.006809 -0.828658 0.047759
-0.000543 -0.836871 0.047305
-0.007967 -0.812443 0.048607
-0.007944 -0.796532 0.049040
-0.007765 -0.779401 0.049693
-0.007622 -0.762331 0.050198
-0.007598 -0.746147 0.050434
-0.007597 -0.729787 0.050260
-0.007560 -0.712827 0.049840
-0.007514 -0.696158 0.049858
-0.007476 -0.679965 0.050485
-0.007460 -0.663548 0.050207
-0.007464 -0.646855 0.048788
-0.007504 -0.630355 0.048028
-0.007583 -0.614006 0.048003
-0.007666 -0.597572 0.047669
-0.008390 -0.581633 0.047409
-0.002897 -0.581675 0.016215
-0.000901 -0.591950 0.017372
-0.006901 -0.597463 0.021795
-0.010865 -0.581346 0.021064
-0.016168 -0.576356 0.047068
-0.014183 -0.576422 0.047064
-0.016189 -0.572220 0.047068
-0.014208 -0.572263 0.047074
-0.008428 -0.566137 0.048113
-0.006358 -0.565328 0.014728
-0.014345 -0.565024 0.019192
-0.007818 -0.548560 0.049494
-0.016308 -0.556719 0.017874
-0.009965 -0.550588 0.013576
-0.007871 -0.532172 0.049330
-0.007910 -0.515719 0.048890
-0.007915 -0.499456 0.049715
-0.009076 -0.500771 -0.000435
-0.003796 -0.513375 0.000906
-0.008959 -0.517810 0.004687
-0.014672 -0.506244 0.003075
-0.007865 -0.483063 0.050472
-0.007743 -0.466311 0.049912
-0.007610 -0.449683 0.049476
-0.007522 -0.433443 0.049489
-0.007454 -0.417200 0.048715
-0.007390 -0.400745 0.047952
-0.007366 -0.387141 0.047580
-0.007365 -0.379058 0.047010
-0.007390 -0.368470 0.045815
-0.007389 -0.352168 0.045541
-0.006906 -0.336591 0.046649
-0.009157 -0.354272 -0.011343
-0.015651 -0.360996 -0.014658
-0.009517 -0.319021 0.047826
-0.012093 -0.331718 0.047828
-0.010977 -0.307538 0.047459
-0.007224 -0.303758 0.047201
-0.014353 -0.294198 0.047159
-0.008375 -0.288084 0.048462
-0.003548 -0.300018 0.047635
-0.007556 -0.270567 0.050713
-0.007672 -0.254535 0.052366
-0.007813 -0.238644 0.053421
-0.007958 -0.222494 0.053952
-0.008103 -0.206229 0.054375
-0.008229 -0.190080 0.055427
-0.013915 -0.212553 0.001672
-0.008087 -0.206665 0.001982
-0.008071 -0.191250 0.002401
-0.002229 -0.200839 0.001824
-0.002275 -0.197374 0.001831
-0.008285 -0.173789 0.056708
-0.008229 -0.157041 0.057557
-0.008115 -0.140073 0.057969
-0.008019 -0.123385 0.058313
-0.007935 -0.106667 0.058162
-0.007855 -0.089634 0.057021
-0.007772 -0.072911 0.054621
-0.007690 -0.056600 0.051312
-0.007663 -0.040203 0.049825
-0.007681 -0.023681 0.050367
-0.007750 -0.007641 0.050565
-0.007853 0.007922 0.050041
-0.007891 0.023954 0.049625
-0.007895 0.040427 0.049427
-0.007742 0.055613 0.048783
-0.012551 0.072789 0.048908
-0.014326 0.089152 0.048366
-0.015480 0.100799 0.047726
-0.014144 0.105895 0.039243
-0.016928 0.111755 0.044974
-0.019055 0.121191 0.039287
-0.015701 0.115165 0.034304
-0.015686 0.100014 0.017481
-0.023738 0.105774 0.014673
-0.017672 0.110969 0.020576
-0.014311 0.105359 0.024703
-0.019860 0.121101 0.024786
-0.015772 0.115062 0.029278
0.008336 -0.976910 0.026290
0.008269 -0.987103 0.019957
0.008230 -0.960445 0.028789
0.008193 -0.949733 0.030280
0.007435 -0.969196 0.001850
0.007431 -0.961091 0.003079
0.008199 -0.928066 0.033206
0.008179 -0.941683 0.031435
0.008278 -0.911220 0.035399
0.008395 -0.894017 0.037405
0.007881 -0.907028 0.018348
0.007751 -0.915689 0.014371
0.008473 -0.877990 0.039162
0.008495 -0.862406 0.040973
0.008528 -0.847554 0.044583
0.008624 -0.828110 0.048492
0.008583 -0.838483 0.047512
0.008645 -0.812070 0.049462
0.008725 -0.796008 0.049884
0.008889 -0.778805 0.050207
0.008992 -0.761839 0.050277
0.008968 -0.745935 0.049991
0.008902 -0.729796 0.049484
0.008884 -0.712860 0.048977
0.008868 -0.696181 0.048645
0.010427 -0.678605 0.048227
0.008145 -0.663623 0.048144
0.005735 -0.646838 0.047672
0.005438 -0.630416 0.047419
0.009545 -0.615482 0.047455
0.011938 -0.614978 0.015401
0.014693 -0.625828 0.017036
0.008958 -0.630904 0.021107
0.003981 -0.614617 0.019952
0.008517 -0.597991 0.047770
0.001349 -0.603024 0.018699
0.007143 -0.598233 0.013847
0.008465 -0.581431 0.048182
0.008459 -0.565041 0.048658
0.008476 -0.548740 0.048924
0.014670 -0.549728 0.001473
0.015832 -0.558915 0.001880
0.009391 -0.564865 0.005964
0.006590 -0.549490 0.005474
0.008473 -0.532273 0.048906
0.002788 -0.533052 0.003486
0.010825 -0.533206 0.000189
0.008481 -0.515738 0.048908
0.006221 -0.518081 -0.001247
-0.000078 -0.524228 0.002109
0.008546 -0.499328 0.049246
0.008661 -0.482862 0.049727
0.008798 -0.466216 0.049975
0.008911 -0.449704 0.049915
0.008977 -0.433517 0.049187
0.008912 -0.416574 0.047843
0.004132 -0.400814 0.047452
0.002697 -0.390090 0.047419
0.008568 -0.384636 0.046373
0.009084 -0.368436 0.045084
0.009067 -0.352198 0.044576
0.009023 -0.335725 0.044885
-0.001342 -0.319194 0.047001
0.008515 -0.318043 0.046383
0.002784 -0.310823 0.047236
0.008425 -0.304831 0.048165
0.013571 -0.311929 0.047326
0.008716 -0.287465 0.049933
0.008597 -0.271295 0.051037
0.008447 -0.255241 0.052671
0.008293 -0.239197 0.054437
0.008170 -0.222907 0.054788
0.008082 -0.206510 0.054228
0.006319 -0.223686 0.000538
-0.008374 -0.223392 0.001627
-0.003092 -0.218515 0.001927
0.000069 -0.218598 0.001960
-0.000002 -0.211645 0.001998
0.006179 -0.206506 0.000755
0.008059 -0.190184 0.054680
0.008105 -0.173751 0.055856
0.007668 -0.186640 0.002475
0.007621 -0.194823 0.001305
0.008227 -0.156842 0.056666
0.008361 -0.139815 0.056959
0.008443 -0.123298 0.056679
0.008504 -0.106713 0.055772
0.008562 -0.089634 0.054278
0.008598 -0.072907 0.052513
0.008599 -0.056753 0.050724
0.008594 -0.040515 0.050234
0.008599 -0.024072 0.051109
0.008569 -0.008152 0.051426
0.008523 0.007388 0.050284
0.008044 0.022966 0.048394
0.002066 0.039934 0.047816
0.000660 0.049164 0.047475
-0.002172 0.060042 0.043465
0.002611 0.055114 0.038356
-0.004460 0.071646 0.038405
0.000664 0.065412 0.032804
0.000910 0.050350 0.017698
-0.007412 0.056369 0.015903
-0.001397 0.061303 0.020516
0.002713 0.055759 0.024648
0.000614 0.065365 0.029217
-0.003753 0.071571 0.024728
0.024724 -0.976866 0.026294
0.024650 -0.987053 0.019850
0.024640 -0.960383 0.029202
0.024604 -0.950837 0.030583
0.023712 -0.962901 0.002959
0.018260 -0.969222 0.001853
0.024600 -0.928024 0.033292
0.024584 -0.942867 0.031505
0.024664 -0.911186 0.035524
0.024760 -0.893996 0.037550
0.024259 -0.907428 0.018372
0.024148 -0.916095 0.014489
0.024843 -0.877980 0.039119
0.024894 -0.862384 0.040494
0.024995 -0.847385 0.044136
0.025078 -0.838173 0.047483
0.025143 -0.827920 0.048353
0.025209 -0.811838 0.049138
0.025275 -0.795760 0.049287
0.025370 -0.778629 0.049187
0.025405 -0.761775 0.049011
0.025330 -0.745974 0.048911
0.025231 -0.729926 0.048420
0.024816 -0.714670 0.047743
0.019615 -0.696261 0.047622
0.018326 -0.683080 0.047432
0.024341 -0.678846 0.046224
0.016790 -0.672428 0.047241
0.016171 -0.663685 0.047109
0.024950 -0.663817 0.046094
0.024904 -0.646895 0.045565
0.013861 -0.646856 0.046918
0.021280 -0.647293 0.019589
0.031893 -0.657439 0.017451
0.025824 -0.663519 0.020327
0.029297 -0.647452 0.016551
0.013544 -0.630485 0.047032
0.024878 -0.630500 0.045981
0.023784 -0.631246 0.014714
0.018115 -0.636365 0.018729
0.015541 -0.621618 0.047235
0.024879 -0.619835 0.046983
0.024861 -0.611831 0.047495
0.024848 -0.598141 0.047932
0.024845 -0.581474 0.048335
0.019231 -0.582734 0.003295
0.030711 -0.593625 0.001366
0.024864 -0.599154 0.005052
0.027347 -0.582619 0.000419
0.024866 -0.565069 0.048602
0.022745 -0.565140 0.000047
0.016455 -0.569953 0.002174
0.024904 -0.548776 0.048762
0.024946 -0.532247 0.048999
0.025004 -0.515640 0.049196
0.025099 -0.499216 0.049314
0.025218 -0.482777 0.049561
0.025338 -0.466189 0.049746
0.025416 -0.449751 0.049498
0.025434 -0.433650 0.048450
0.025443 -0.422402 0.047470
0.025440 -0.414141 0.046935
0.014344 -0.410669 0.047118
0.025444 -0.401016 0.046401
0.012406 -0.400879 0.046823
0.025441 -0.384702 0.045776
0.025426 -0.368708 0.044925
0.025367 -0.352590 0.044699
0.026668 -0.335133 0.045608
0.022235 -0.322955 0.046102
0.026630 -0.318766 0.047828
0.033048 -0.329070 0.047314
0.025020 -0.304168 0.049929
0.024884 -0.288042 0.051444
0.024772 -0.271777 0.051995
0.024666 -0.255592 0.053500
0.024578 -0.239396 0.055582
0.024544 -0.222937 0.056170
0.024546 -0.206371 0.055509
0.024563 -0.190007 0.055555
0.024613 -0.173614 0.056359
0.025465 -0.189407 0.001252
0.020808 -0.183659 0.002314
0.025589 -0.174573 0.002591
0.031959 -0.180711 0.001886
0.024716 -0.156726 0.056987
0.024823 -0.139748 0.056866
0.024892 -0.123236 0.055771
0.024936 -0.106652 0.054244
0.024969 -0.089656 0.052598
0.024971 -0.073025 0.051313
0.024935 -0.056970 0.050465
0.024919 -0.040862 0.050278
0.024939 -0.024579 0.050640
0.026140 -0.007750 0.049501
0.020924 0.007069 0.048665
0.017593 0.016968 0.047729
0.020386 0.022663 0.038537
0.013222 0.027967 0.043917
0.017468 0.032707 0.033058
0.010169 0.038903 0.038561
0.021287 0.024269 0.023467
0.009567 0.024596 0.014623
0.015894 0.030666 0.018739
0.019271 0.019803 0.016284
0.011962 0.038702 0.023569
0.017379 0.032622 0.027389
0.040988 -0.986901 0.019510
0.041068 -0.976851 0.025852
0.041002 -0.960356 0.029062
0.040493 -0.977312 0.002305
0.023940 -0.977268 0.001428
0.029159 -0.971494 0.002032
0.035226 -0.982407 0.001731
0.040980 -0.950747 0.030536
0.040980 -0.942774 0.031573
0.041027 -0.927992 0.033568
0.041088 -0.911114 0.035909
0.041156 -0.893886 0.037732
0.040560 -0.916473 0.014658
0.040648 -0.907793 0.018301
0.041215 -0.877967 0.038564
0.041265 -0.862473 0.038746
0.040132 -0.843828 0.043030
0.033543 -0.836346 0.047283
0.040131 -0.827260 0.047580
0.043359 -0.810312 0.047815
0.040001 -0.795848 0.047827
0.037126 -0.778820 0.047668
0.036303 -0.761990 0.047582
0.038026 -0.746189 0.047702
0.036392 -0.730111 0.047534
0.033350 -0.721679 0.047280
0.039947 -0.714834 0.044295
0.030007 -0.710119 0.045981
0.027860 -0.696492 0.045490
0.041240 -0.696804 0.042289
0.041204 -0.680656 0.043779
0.038261 -0.681188 0.019373
0.048865 -0.689471 0.017671
0.042529 -0.695736 0.020690
0.046268 -0.681435 0.016721
0.041177 -0.664049 0.044255
0.034634 -0.668908 0.018416
0.040222 -0.663968 0.015452
0.041169 -0.646989 0.043177
0.041196 -0.630520 0.043831
0.041052 -0.614497 0.046161
0.035358 -0.609055 0.047445
0.036366 -0.598022 0.047525
0.039971 -0.599213 -0.000137
0.045097 -0.612072 0.000869
0.040035 -0.616608 0.003912
0.034247 -0.604731 0.002627
0.036870 -0.581281 0.047564
0.041534 -0.564988 0.047828
0.041448 -0.548669 0.048768
0.041522 -0.532116 0.049389
0.041623 -0.515463 0.049625
0.041692 -0.499134 0.049557
0.041755 -0.482821 0.049380
0.041835 -0.466263 0.049111
0.041873 -0.449840 0.048648
0.040456 -0.433222 0.047726
0.034042 -0.425375 0.047286
0.040507 -0.419026 0.046636
0.041759 -0.401246 0.046496
0.041712 -0.384985 0.046652
0.041630 -0.369251 0.046181
0.041453 -0.354048 0.046473
0.035964 -0.340160 0.046864
0.046777 -0.349300 0.047565
0.041357 -0.335704 0.047851
0.041292 -0.320781 0.049353
0.041159 -0.304762 0.051662
0.041070 -0.288460 0.053104
0.041029 -0.271973 0.053722
0.041029 -0.255637 0.055244
0.041067 -0.239340 0.057418
0.041162 -0.222633 0.058448
0.041255 -0.205769 0.058410
0.041251 -0.189495 0.058449
0.041211 -0.173367 0.058472
0.041224 -0.156676 0.058261
0.041806 -0.174319 0.001554
0.036910 -0.169592 0.002139
0.041832 -0.157834 0.002551
0.047949 -0.164255 0.001875
0.041271 -0.139821 0.057416
0.041326 -0.123168 0.055631
0.041361 -0.106492 0.053741
0.041365 -0.089698 0.052226
0.041351 -0.073262 0.051249
0.041322 -0.057265 0.050722
0.041321 -0.041251 0.050165
0.042308 -0.024394 0.048843
0.037472 -0.012709 0.048187
0.042933 -0.007717 0.041169
0.032368 -0.002122 0.046824
0.029274 0.007763 0.040321
0.037328 0.002756 0.035901
0.030080 0.011850 0.024267
0.038155 0.003610 0.024290
0.035584 0.001190 0.016466
0.024684 0.006835 0.014024
0.057439 -0.986398 0.018739
0.057518 -0.976627 0.024906
0.056984 -0.959430 0.029361
0.051249 -0.951200 0.030645
0.057001 -0.945132 0.031532
0.062323 -0.952875 0.030979
0.057441 -0.927977 0.033390
0.057482 -0.911148 0.035562
0.057553 -0.893903 0.037520
0.056952 -0.914461 0.014328
0.057026 -0.905807 0.017265
0.057603 -0.877919 0.038296
0.057627 -0.862382 0.038392
0.057744 -0.845371 0.040555
0.057018 -0.827518 0.044535
0.044667 -0.832493 0.046057
0.050824 -0.814494 0.047382
0.050817 -0.821195 0.047384
0.057016 -0.810500 0.045475
0.049833 -0.804333 0.047239
0.057866 -0.796170 0.043727
0.048168 -0.795945 0.046169
0.045380 -0.779025 0.044756
0.057777 -0.779316 0.041996
0.044560 -0.762214 0.045083
0.057702 -0.762524 0.042591
0.046170 -0.746372 0.046257
0.057654 -0.746600 0.044538
0.044644 -0.730286 0.046177
0.057587 -0.730463 0.044371
0.057499 -0.713592 0.041633
0.057463 -0.696903 0.040719
0.058137 -0.695981 0.016814
0.064346 -0.708330 0.017623
0.058282 -0.714048 0.019788
0.053534 -0.700216 0.019309
0.057493 -0.680689 0.042555
0.057512 -0.664049 0.042827
0.057520 -0.646982 0.041214
0.057577 -0.630463 0.041810
0.057669 -0.614361 0.044193
0.057774 -0.597831 0.045327
0.044685 -0.597981 0.046627
0.045224 -0.581193 0.046651
0.057896 -0.581071 0.045853
0.047125 -0.570328 0.046922
0.057972 -0.568360 0.046756
0.057995 -0.548532 0.048210
0.057973 -0.560287 0.047519
0.058073 -0.532016 0.048942
0.058161 -0.515411 0.049282
0.058199 -0.499166 0.049035
0.058214 -0.482972 0.048508
0.059906 -0.464883 0.047929
0.057293 -0.450110 0.047814
0.054180 -0.438371 0.047562
0.059046 -0.433616 0.046727
0.045036 -0.427645 0.046959
0.058082 -0.418180 0.046026
0.058017 -0.401740 0.046215
0.057938 -0.385553 0.046773
0.058346 -0.369209 0.047033
0.053281 -0.360387 0.047115
0.064085 -0.363662 0.047332
0.058277 -0.354567 0.047629
0.057616 -0.337399 0.048379
0.057520 -0.321139 0.049672
0.057453 -0.304970 0.051875
0.057446 -0.288510 0.053566
0.057497 -0.271811 0.054614
0.057532 -0.255406 0.056613
0.057569 -0.239164 0.059115
0.057669 -0.222328 0.060106
0.057766 -0.205304 0.059898
0.057765 -0.189092 0.059615
0.057714 -0.173089 0.059076
0.057693 -0.156429 0.058111
0.057700 -0.139615 0.056737
0.057376 -0.155404 0.002411
0.057389 -0.163854 0.001868
0.057725 -0.123052 0.054994
0.057740 -0.106482 0.053404
0.057741 -0.089789 0.052360
0.057729 -0.073505 0.051674
0.057708 -0.057693 0.051110
0.058820 -0.040499 0.049081
0.054104 -0.029693 0.047932
0.059929 -0.023862 0.041267
0.048415 -0.018701 0.046749
0.054703 -0.013593 0.035813
0.046349 -0.004411 0.024242
0.056405 -0.012723 0.024226
0.053481 -0.015048 0.016074
0.041013 -0.009400 0.013981
0.074010 -0.976178 0.023055
0.073945 -0.985423 0.017331
0.074043 -0.961809 0.028599
0.074015 -0.953221 0.031106
0.073933 -0.943761 0.031800
0.073839 -0.927941 0.032798
0.073844 -0.911231 0.034560
0.073930 -0.893991 0.036677
0.071901 -0.910558 0.013552
0.065449 -0.903673 0.016281
0.076388 -0.899181 0.015388
0.071962 -0.894067 0.017720
0.073983 -0.877829 0.037880
0.073982 -0.862136 0.038528
0.074013 -0.845267 0.039730
0.074061 -0.828155 0.041285
0.074031 -0.812215 0.041998
0.073942 -0.796389 0.041844
0.073865 -0.779545 0.041392
0.073823 -0.762782 0.041635
0.073809 -0.746820 0.042616
0.073789 -0.730571 0.042417
0.068245 -0.731149 0.018544
0.079127 -0.743892 0.017015
0.073639 -0.748399 0.019444
0.076269 -0.731249 0.016326
0.073763 -0.713524 0.040769
0.072190 -0.714228 0.016051
0.066149 -0.719747 0.018046
0.073797 -0.696699 0.040316
0.073896 -0.680445 0.041619
0.073956 -0.663850 0.041640
0.073968 -0.646887 0.040121
0.074031 -0.630364 0.040719
0.074143 -0.614167 0.042979
0.071860 -0.616980 0.000635
0.076328 -0.627630 0.001540
0.071869 -0.632401 0.002733
0.065426 -0.623388 0.001923
0.074260 -0.597651 0.044459
0.074385 -0.580970 0.045737
0.073985 -0.564238 0.046718
0.068018 -0.558552 0.047380
0.070783 -0.548423 0.047583
0.075481 -0.532707 0.047862
0.074615 -0.515504 0.048278
0.075152 -0.499474 0.047867
0.070129 -0.483155 0.047617
0.067749 -0.469536 0.047399
0.066357 -0.458509 0.047268
0.073816 -0.465285 0.045941
0.074489 -0.450656 0.045483
0.065386 -0.450356 0.047107
0.074423 -0.434669 0.045724
0.074341 -0.418645 0.045712
0.074243 -0.402389 0.045606
0.074159 -0.386248 0.046125
0.074103 -0.372724 0.046891
0.074046 -0.364708 0.047414
0.073998 -0.354064 0.047720
0.073947 -0.337580 0.047932
0.073936 -0.321192 0.048962
0.073939 -0.304896 0.051067
0.074001 -0.288262 0.052949
0.074110 -0.271344 0.054714
0.074115 -0.254949 0.057229
0.074057 -0.238869 0.059775
0.074072 -0.222101 0.060317
0.074121 -0.205134 0.059463
0.074132 -0.188927 0.058962
0.074123 -0.172848 0.058284
0.074126 -0.156072 0.056762
0.074123 -0.139252 0.055058
0.073788 -0.154202 0.002249
0.073816 -0.162710 0.001835
0.074097 -0.122930 0.053806
0.074080 -0.106589 0.052926
0.074099 -0.089937 0.052248
0.074110 -0.073776 0.051612
0.074107 -0.058160 0.050365
0.074128 -0.046349 0.048335
0.074091 -0.038251 0.043370
0.065018 -0.034500 0.047048
0.074009 -0.030139 0.035189
0.073884 -0.026592 0.024037
0.064583 -0.018950 0.024156
0.073784 -0.030814 0.015466
0.058320 -0.024978 0.013105
0.091282 -0.976775 0.018698
0.086264 -0.984428 0.015785
0.090250 -0.958684 0.027236
0.084281 -0.952451 0.031052
0.089973 -0.942088 0.031227
0.090285 -0.927740 0.032023
0.090244 -0.911135 0.033498
0.090300 -0.893920 0.035291
0.090360 -0.877673 0.036603
0.088877 -0.894223 0.014016
0.082747 -0.887722 0.016923
0.093279 -0.878654 0.015059
0.085146 -0.878645 0.017788
0.090376 -0.861874 0.037478
0.096185 -0.862603 0.015460
0.088137 -0.862609 0.018867
0.090369 -0.845072 0.038199
0.091341 -0.845141 0.019096
0.097582 -0.850434 0.015925
0.090354 -0.828087 0.038954
0.090322 -0.812133 0.039590
0.090260 -0.796216 0.039719
0.086887 -0.796877 0.018862
0.096734 -0.809718 0.016286
0.090782 -0.814082 0.019022
0.095024 -0.796777 0.015947
0.090208 -0.779341 0.039435
0.085375 -0.780078 0.018902
0.093530 -0.779936 0.015857
0.090189 -0.762578 0.039474
0.091704 -0.763284 0.015508
0.083550 -0.763427 0.018631
0.090194 -0.746617 0.040107
0.088325 -0.748442 0.014845
0.081982 -0.754394 0.018002
0.090202 -0.730314 0.040100
0.090218 -0.713199 0.039147
0.090286 -0.696394 0.039055
0.090397 -0.680203 0.040180
0.090464 -0.663694 0.040517
0.090495 -0.646831 0.040010
0.084180 -0.648175 0.002691
0.095543 -0.661307 0.001306
0.089995 -0.666086 0.003458
0.092325 -0.648268 0.000508
0.090561 -0.630349 0.040917
0.082027 -0.638416 0.002077
0.088423 -0.632618 0.000127
0.090659 -0.614145 0.042865
0.090763 -0.597615 0.044026
0.090874 -0.580932 0.044863
0.090941 -0.564605 0.045251
0.079088 -0.548385 0.046832
0.090970 -0.548459 0.045208
0.090369 -0.532804 0.045687
0.081511 -0.538632 0.047081
0.084853 -0.515598 0.047515
0.084311 -0.527643 0.047461
0.084006 -0.505024 0.047409
0.090143 -0.499672 0.045372
0.080948 -0.494295 0.046824
0.078376 -0.483343 0.046202
0.090890 -0.483653 0.044174
0.090812 -0.467346 0.043493
0.090746 -0.451038 0.043625
0.090693 -0.435000 0.044415
0.090637 -0.418919 0.044828
0.090572 -0.402628 0.045162
0.090520 -0.386414 0.045734
0.089328 -0.369763 0.046262
0.089313 -0.352954 0.047558
0.082983 -0.364071 0.047403
0.090497 -0.337400 0.048683
0.089353 -0.354652 0.002846
0.074039 -0.354741 0.000981
0.079756 -0.349524 0.002242
0.083296 -0.360546 0.001630
0.090537 -0.320924 0.050221
0.090570 -0.304599 0.051542
0.090624 -0.287963 0.053065
0.090684 -0.271113 0.055023
0.090642 -0.254784 0.057454
0.090532 -0.238738 0.059906
0.090494 -0.222042 0.060369
